# .PCD v0.7 - Point Cloud Data file format
VERSION 0.7
FIELDS x y z rgb
SIZE 4 4 4 4
TYPE F F F F
COUNT 1 1 1 1
WIDTH 944
HEIGHT 1
VIEWPOINT 0 0 0 1 0 0 0
POINTS 944
DATA ascii
0.0035476272 -0.09862379 0.74500006 1.3837311e-38
0.0049533234 -0.098359071 0.74300003 1.4479432e-38
-0.028895242 -0.096552379 0.74000001 6.4691084e-40
-0.027485713 -0.096552379 0.74000001 7.3910366e-40
-0.026076198 -0.096552394 0.74000001 9.2278306e-40
-0.02463332 -0.096421868 0.73900008 1.3841199e-39
-0.023225706 -0.096421875 0.73900002 1.9358532e-39
-0.021818092 -0.096421897 0.73900002 2.4879452e-39
-0.020410467 -0.096421883 0.73900008 3.0400399e-39
-0.018951416 -0.096160926 0.73700011 3.7758043e-39
-0.0175476 -0.096160911 0.73700011 4.5122679e-39
-0.016143804 -0.096160941 0.73700005 3.8665342e-39
-0.014719999 -0.096030474 0.73600006 3.2226095e-39
-0.013372371 -0.096421875 0.73900008 2.303177e-39
-0.011964756 -0.096421897 0.73900002 1.3840989e-39
-0.0106 -0.096813336 0.74200004 1.751794e-39
-0.0091866711 -0.096813343 0.74199998 2.1198465e-39
-0.0077733384 -0.096813343 0.74199998 1.8418205e-39
-0.0063685696 -0.096943803 0.74300003 1.6618461e-39
-0.0049533383 -0.096943818 0.74300003 7.9372614e-39
-0.0035380984 -0.096943818 0.74300003 1.4300813e-38
-0.0021200071 -0.096813343 0.74200004 1.5495746e-38
-0.0007076257 -0.096943833 0.74300003 1.6778873e-38
0.00070762233 -0.096943803 0.74300009 1.6682673e-38
0.0021228555 -0.096943811 0.74300003 1.6589101e-38
0.0035380933 -0.096943818 0.74300009 1.549036e-38
0.0049533299 -0.096943833 0.74300003 1.4389752e-38
0.0063342941 -0.096421883 0.73900002 1.383334e-38
-0.031714283 -0.095142849 0.74000001 1.2904852e-39
-0.030263809 -0.095014274 0.73900002 9.2277746e-40
-0.028856177 -0.095014237 0.73900002 4.6359858e-40
-0.027448565 -0.095014259 0.73900002 4.6359718e-40
-0.026040949 -0.095014274 0.73900002 4.6396011e-40
-0.024566662 -0.094757125 0.73700011 1.0153374e-39
-0.023162844 -0.09475711 0.73700011 1.5674294e-39
-0.021729525 -0.09462858 0.73600006 2.3031938e-39
-0.020327624 -0.09462858 0.73600006 3.0385966e-39
-0.018925717 -0.094628587 0.73600006 4.1424162e-39
-0.017523814 -0.094628595 0.73600006 5.1525969e-39
-0.016078088 -0.094371416 0.73400003 4.4168283e-39
-0.014679994 -0.094371416 0.73400003 3.5906662e-39
-0.013281893 -0.094371416 0.73400003 2.7627104e-39
-0.01191619 -0.09462858 0.73600006 1.9351105e-39
-0.01052856 -0.094757117 0.73700005 1.8425547e-39
-0.0091619063 -0.095142864 0.74000001 1.6588767e-39
-0.0077419062 -0.095014282 0.73900002 9.2023971e-40
-0.0063600051 -0.095400013 0.74199998 1.0098598e-40
-0.0049466728 -0.095400013 0.74200004 6.9134055e-39
-0.0035333375 -0.095400006 0.74200004 1.3741187e-38
-0.0021200052 -0.095400006 0.74200004 1.744118e-38
-0.00070668507 -0.095400043 0.74200004 2.1016995e-38
0.00070666027 -0.095400013 0.74200004 2.0561734e-38
0.0021228471 -0.095528588 0.74300003 1.9999966e-38
0.0035380952 -0.095528565 0.74300009 1.714554e-38
0.0049466682 -0.095399991 0.74200004 1.4203561e-38
0.0063428567 -0.095142871 0.74000001 1.3463125e-38
0.007752378 -0.095142864 0.74000001 1.2727724e-38
-0.035942856 -0.093733326 0.74000001 2.3028196e-39
-0.03453334 -0.093733341 0.74000001 2.0251748e-39
-0.033079036 -0.093606643 0.73900008 1.7500396e-39
-0.031671416 -0.093606628 0.73900002 1.5667147e-39
-0.030181907 -0.093353331 0.73700011 1.1071659e-39
-0.028778087 -0.093353316 0.73700011 6.476283e-40
-0.027374271 -0.093353294 0.73700011 5.557914e-40
-0.025970474 -0.093353331 0.73700005 3.7212181e-40
-0.024533339 -0.093226679 0.73600006 8.3165943e-40
-0.023131438 -0.093226679 0.73600006 1.3830367e-39
-0.021670476 -0.092973329 0.73400003 2.1177249e-39
-0.020272374 -0.092973314 0.73400003 2.8520474e-39
-0.01887428 -0.092973314 0.73400003 3.5892382e-39
-0.017476182 -0.092973314 0.73400003 4.3246355e-39
-0.016034279 -0.092719987 0.73200005 3.9583655e-39
-0.014639985 -0.092719972 0.73200005 3.6842925e-39
-0.013245719 -0.092720009 0.73200005 2.9474534e-39
-0.011883805 -0.092973314 0.73400003 2.3020938e-39
-0.010457136 -0.092719987 0.73200005 1.8429149e-39
-0.0090876175 -0.092973329 0.73400003 1.384808e-39
-0.0076895119 -0.092973299 0.73400003 1.0142304e-39
-0.0062742722 -0.092719972 0.73200005 6.4337396e-40
-0.0049133175 -0.093353309 0.73700011 3.785584e-39
-0.0035238175 -0.093733348 0.74000001 6.9417705e-39
-0.0021114147 -0.093606643 0.73900002 1.2924767e-38
-0.00070477213 -0.093733363 0.74000001 1.8908424e-38
0.00070382253 -0.093606643 0.73900002 1.9552707e-38
0.0021142846 -0.093733348 0.74000001 2.0284838e-38
0.0035333249 -0.09398669 0.74200004 1.7427132e-38
0.0049333335 -0.093733333 0.74000001 1.4570896e-38
0.006334282 -0.093606673 0.73900002 1.3646434e-38
0.007752364 -0.09373337 0.74000001 1.2818481e-38
0.0091866599 -0.093986683 0.74200004 1.2451141e-38
-0.035942867 -0.092323832 0.74000001 2.3921482e-39
-0.03448667 -0.09219905 0.73900002 2.0251692e-39
-0.033079036 -0.092199013 0.73900002 1.9336966e-39
-0.031671423 -0.092199035 0.73900002 1.7503773e-39
-0.030140955 -0.091824763 0.73600006 1.2915516e-39
-0.02873905 -0.091824763 0.73600006 8.3129649e-40
-0.027337149 -0.091824763 0.73600006 5.5542987e-40
-0.025864758 -0.091575228 0.73400003 2.7992618e-40
-0.02446666 -0.091575213 0.73400009 7.3910647e-40
-0.023005707 -0.091325693 0.73200005 1.1064513e-39
-0.021611422 -0.091325708 0.73200011 1.8411366e-39
-0.020217132 -0.091325693 0.73200011 2.5772569e-39
-0.018822853 -0.091325708 0.73200005 3.0382281e-39
-0.017428562 -0.091325693 0.73200005 3.4066462e-39
-0.016034283 -0.091325708 0.73200005 3.5913934e-39
-0.014619987 -0.091200925 0.73100007 3.683938e-39
-0.013227611 -0.091200933 0.73100007 3.2243948e-39
-0.011851417 -0.091325693 0.73200005 2.6701406e-39
-0.010442846 -0.091200925 0.73100007 1.9336518e-39
-0.0090628574 -0.091325715 0.73200005 1.1085756e-39
-0.0076685646 -0.091325708 0.73200005 1.2007783e-39
-0.0062742843 -0.091325715 0.73200005 1.1968588e-39
-0.0048799929 -0.0913257 0.73200005 6.4336275e-40
-0.0034857041 -0.091325693 0.73200005 1.1827099e-40
-0.0020914145 -0.091325678 0.73200005 8.4068757e-39
-0.00070095743 -0.09182477 0.73600006 1.6696831e-38
0.00070191053 -0.091949515 0.73700005 1.8638657e-38
0.0021114254 -0.092199057 0.73900002 2.0558548e-38
0.0035190524 -0.092199042 0.73900008 1.7799133e-38
0.0049333335 -0.092323802 0.74000001 1.4936077e-38
0.0063342969 -0.09219902 0.73900008 1.3917263e-38
0.0077419109 -0.092199035 0.73900002 1.2817753e-38
0.0091618914 -0.09232384 0.74000001 1.2634445e-38
0.010571417 -0.092323832 0.74000001 1.2447893e-38
-0.038866665 -0.091159992 0.74200004 2.8534655e-39
-0.037352383 -0.090914287 0.74000001 3.2193809e-39
-0.035894278 -0.090791412 0.73900002 2.5761807e-39
-0.03448667 -0.090791427 0.73900002 1.9329693e-39
-0.032989521 -0.090545706 0.73700005 2.2088303e-39
-0.031585705 -0.090545692 0.73700005 2.3932174e-39
-0.030140959 -0.090422861 0.73600006 1.7500074e-39
-0.028660957 -0.090177141 0.73400003 1.10644e-39
-0.027262848 -0.090177111 0.73400003 7.3837919e-40
-0.025864761 -0.090177134 0.73400003 4.6251958e-40
-0.024466664 -0.090177126 0.73400003 6.4655351e-40
-0.023005709 -0.089931421 0.73200005 9.2205999e-40
-0.021611426 -0.089931421 0.73200005 1.4741478e-39
-0.020217136 -0.089931414 0.73200005 2.118078e-39
-0.018797128 -0.089808531 0.73100007 2.5786947e-39
-0.017404748 -0.089808546 0.73100007 3.1311468e-39
-0.016012374 -0.089808546 0.73100007 3.5910445e-39
-0.014580013 -0.089562885 0.72900003 4.0516443e-39
-0.013191433 -0.089562863 0.72900003 3.591378e-39
-0.01183523 -0.089808546 0.73100007 3.1285894e-39
-0.010414289 -0.089562856 0.72900003 2.4857171e-39
-0.0090504643 -0.089808546 0.73100007 1.751057e-39
-0.0076580881 -0.089808561 0.73100007 1.6588851e-39
-0.0062657096 -0.089808561 0.73100007 1.5652378e-39
-0.0048799948 -0.089931421 0.73200005 8.2802446e-40
-0.0034809469 -0.089808553 0.73100007 9.2750544e-41
-0.0020885712 -0.089808568 0.73100007 7.2029544e-39
-0.00069619092 -0.089808576 0.73100007 1.440524e-38
0.00069715519 -0.089931406 0.73200005 1.5504053e-38
0.0021028526 -0.090422846 0.73600006 1.6694998e-38
0.0035095259 -0.090545706 0.73700005 1.5490327e-38
0.0049333232 -0.090914316 0.74000001 1.4283892e-38
0.0063342922 -0.090791427 0.73900008 1.3826849e-38
0.0077419165 -0.090791412 0.73900002 1.3278713e-38
0.0091619045 -0.090914294 0.74000001 1.1987999e-38
0.010571433 -0.090914287 0.74000001 1.0700859e-38
-0.040279999 -0.089746654 0.74200004 2.3024511e-39
-0.03886668 -0.089746676 0.74200004 2.9452996e-39
-0.037352387 -0.089504771 0.74000001 3.5877991e-39
-0.035894286 -0.089383803 0.73900002 2.7598559e-39
-0.034486663 -0.089383788 0.73900008 1.8418499e-39
-0.032989517 -0.089141883 0.73700011 2.4839711e-39
-0.031585712 -0.089141898 0.73700005 3.0360575e-39
-0.030059045 -0.088779032 0.73400003 2.2091765e-39
-0.028660946 -0.088779025 0.73400009 1.2901012e-39
-0.027262861 -0.08877904 0.73400003 1.0127983e-39
-0.025794283 -0.088537127 0.73200005 6.4618216e-40
-0.024399988 -0.088537119 0.73200005 6.4583184e-40
-0.02297429 -0.088416196 0.73100007 6.465451e-40
-0.021581911 -0.088416211 0.73100007 1.1064372e-39
-0.020189524 -0.088416189 0.73100001 1.5659819e-39
-0.01874572 -0.088174306 0.72900003 2.2106338e-39
-0.01735715 -0.088174298 0.72900009 2.7623628e-39
-0.01596858 -0.088174306 0.72900003 3.5903172e-39
-0.014559992 -0.088053316 0.7280001 4.3267879e-39
-0.013191437 -0.088174306 0.72900003 3.9612325e-39
-0.011802866 -0.088174306 0.72899997 3.5910039e-39
-0.010414293 -0.088174306 0.72900003 3.0381804e-39
-0.0090257237 -0.088174306 0.72900003 2.3942698e-39
-0.0076580835 -0.088416167 0.73100007 2.1187773e-39
-0.0062657068 -0.088416174 0.73100007 1.8407443e-39
-0.0048733265 -0.088416182 0.73100007 1.0109822e-39
-0.0034809506 -0.088416189 0.73100007 9.9887357e-41
-0.0020828594 -0.088174284 0.72900003 6.0908026e-39
-0.00069429755 -0.088174313 0.72900003 1.1989477e-38
0.00069619034 -0.088416196 0.73100007 1.2368695e-38
0.0020914346 -0.088537134 0.73200005 1.2727739e-38
0.0034952394 -0.08877904 0.73399997 1.3183642e-38
0.0049133371 -0.08914189 0.73700005 1.3643189e-38
0.0063171447 -0.089141898 0.73700005 1.3736112e-38
0.0077419053 -0.089383803 0.73900002 1.373358e-38
0.0091495328 -0.089383796 0.73900002 1.1337228e-38
0.010571429 -0.089504763 0.74000001 8.9541837e-39
0.012013333 -0.089746669 0.74200004 1.4652665e-38
-0.043164764 -0.088452391 0.74300003 1.7496332e-39
-0.041749522 -0.088452362 0.74300003 1.9347448e-39
-0.040280011 -0.088333346 0.74200004 2.1198535e-39
-0.03876191 -0.088095255 0.74000001 2.4864794e-39
-0.037301902 -0.087976187 0.73900002 2.8545515e-39
-0.035894286 -0.08797618 0.73900002 2.4865046e-39
-0.034393329 -0.087738089 0.73700005 2.119506e-39
-0.032989521 -0.087738089 0.73700011 2.3020853e-39
-0.03154286 -0.087619051 0.73600006 2.4861123e-39
-0.030059043 -0.087380938 0.73400003 1.9347378e-39
-0.028582849 -0.087142825 0.73200005 1.4744799e-39
-0.027188562 -0.087142833 0.73200011 1.1982503e-39
-0.025794286 -0.087142847 0.73200005 9.2203898e-40
-0.024366662 -0.087023802 0.73100007 6.4618637e-40
-0.022974286 -0.08702381 0.73100007 4.6250837e-40
-0.021581907 -0.087023817 0.73100007 8.2948461e-40
-0.020134291 -0.086785726 0.72900003 1.2879586e-39
-0.018720001 -0.086666666 0.72800004 1.9329721e-39
-0.017333332 -0.086666666 0.72800004 2.6687281e-39
-0.015946668 -0.086666659 0.72800004 3.3144422e-39
-0.014559996 -0.086666659 0.72800004 3.9583655e-39
-0.013173327 -0.086666651 0.72800004 3.7761266e-39
-0.01178666 -0.086666644 0.7280001 3.5928045e-39
-0.010371415 -0.086428545 0.72600007 3.1314649e-39
-0.009013325 -0.086666636 0.72800004 2.7612586e-39
-0.0076266541 -0.086666636 0.7280001 2.2098911e-39
-0.0062485798 -0.086785734 0.72899997 1.7499864e-39
-0.0048600095 -0.086785726 0.72900003 1.2886453e-39
-0.0034714362 -0.086785734 0.72900003 9.1883421e-40
-0.0020799928 -0.086666651 0.72800004 3.5056956e-39
-0.00069429568 -0.086785734 0.72900003 6.0936515e-39
0.00069428858 -0.086785711 0.72900003 1.0512576e-38
0.0020885735 -0.087023817 0.73100007 1.4907719e-38
0.0034857111 -0.087142862 0.73200005 1.5387656e-38
0.0048933341 -0.087380938 0.73400003 1.5940503e-38
0.0063171606 -0.087738052 0.73700011 1.5481366e-38
0.0077209561 -0.087738089 0.73700005 1.5020349e-38
0.0091247642 -0.087738097 0.73700011 1.4742285e-38
0.010557145 -0.08797618 0.73900002 1.4462155e-38
0.011980942 -0.088095263 0.74000001 1.8065304e-38
0.013390465 -0.088095263 0.73999995 2.1576954e-38
-0.04316476 -0.087037131 0.74300003 1.8411142e-39
-0.041693334 -0.086919986 0.74200004 1.9336714e-39
-0.040171433 -0.08668571 0.74000001 1.9340315e-39
-0.038709521 -0.086568572 0.73900008 2.0258684e-39
-0.037301902 -0.086568557 0.73900002 2.0265915e-39
-0.035797138 -0.086334266 0.73700011 2.2117044e-39
-0.034393333 -0.086334266 0.73700005 2.3949984e-39
-0.032944754 -0.086217128 0.73600006 2.2102344e-39
-0.031457145 -0.085982852 0.73400003 1.934735e-39
-0.029977141 -0.085748553 0.73200005 1.7525045e-39
-0.028582849 -0.085748546 0.73200005 1.5673986e-39
-0.027151424 -0.085631423 0.73100007 1.3830101e-39
-0.025759047 -0.085631423 0.73100007 1.1064358e-39
-0.024366662 -0.085631415 0.73100001 7.3802607e-40
-0.022911431 -0.085397147 0.72900003 2.7848565e-40
-0.021522874 -0.085397169 0.72899997 6.4510737e-40
-0.020106658 -0.085279986 0.72800004 9.2097959e-40
-0.01871999 -0.085279979 0.72800004 1.7475061e-39
-0.017285705 -0.085045695 0.72600001 2.576894e-39
-0.015902855 -0.085045718 0.72600001 3.131853e-39
-0.014520003 -0.085045733 0.72600001 3.5910263e-39
-0.013137142 -0.085045718 0.72600001 3.5920983e-39
-0.01175428 -0.08504571 0.72600001 3.5016935e-39
-0.010357144 -0.084928587 0.72500002 3.3176596e-39
-0.0089885648 -0.085045703 0.72600007 3.0392832e-39
-0.0076057049 -0.085045695 0.72600007 2.3017308e-39
-0.0062228427 -0.085045688 0.72600001 1.5666811e-39
-0.0048533208 -0.085279971 0.72800004 1.6577935e-39
-0.0034666641 -0.085280001 0.72800004 1.7478494e-39
-0.0020742782 -0.085045703 0.72600001 9.188328e-40
-0.00069331407 -0.085279964 0.72800004 1.121305e-40
0.00069428113 -0.085397162 0.72900003 8.6798235e-39
0.0020828617 -0.085397132 0.72900003 1.7137999e-38
0.0034809483 -0.08563143 0.73100007 1.7702627e-38
0.0048733284 -0.085631438 0.73100007 1.8153927e-38
0.0062914374 -0.085982822 0.73400003 1.7228052e-38
0.0077104685 -0.086217158 0.73600006 1.6313977e-38
0.0091247791 -0.086334251 0.73700011 1.8149944e-38
0.010557154 -0.086568549 0.73900008 1.9995278e-38
0.01198095 -0.086685717 0.74000001 2.1476858e-38
0.013390468 -0.086685732 0.74000001 2.2856909e-38
-0.046119053 -0.085852392 0.74500006 3.0396406e-39
-0.044580005 -0.085621908 0.74300003 2.5775946e-39
-0.043106675 -0.085506685 0.74200004 2.1166263e-39
-0.041693337 -0.085506655 0.74200004 1.6570915e-39
-0.040117133 -0.085160919 0.73900002 1.289032e-39
-0.038709521 -0.085160933 0.73900002 1.6574502e-39
-0.037301902 -0.085160933 0.73900002 2.0247922e-39
-0.035797145 -0.084930465 0.73700011 2.4864808e-39
-0.034393322 -0.08493045 0.73700011 3.038193e-39
-0.032944769 -0.084815241 0.73600012 2.4853668e-39
-0.031457145 -0.084584765 0.73400003 1.933293e-39
-0.029977143 -0.084354281 0.73200005 1.6592369e-39
-0.0285438 -0.084239021 0.73100007 1.4752114e-39
-0.02707715 -0.084008582 0.72900003 1.3833801e-39
-0.025688581 -0.084008589 0.72900003 1.2908313e-39
-0.024266668 -0.083893329 0.72800004 9.2277606e-40
-0.022879988 -0.083893299 0.7280001 5.5400055e-40
-0.021434277 -0.08366283 0.72600007 8.2950703e-40
-0.020051423 -0.083662845 0.72600007 1.1050135e-39
-0.018668573 -0.083662853 0.72600007 1.564191e-39
-0.017285712 -0.083662845 0.72600007 1.932612e-39
-0.015902851 -0.083662838 0.72600001 2.4861389e-39
-0.014500001 -0.083547615 0.72500002 2.946387e-39
-0.013137147 -0.08366286 0.72600001 3.225115e-39
-0.011738104 -0.083547644 0.72500002 3.4116587e-39
-0.010357136 -0.0835476 0.72500002 3.5935374e-39
-0.0089761885 -0.083547615 0.72500002 3.6842925e-39
-0.0075952397 -0.083547629 0.72500002 2.854899e-39
-0.0062142792 -0.083547607 0.72500002 1.934749e-39
-0.0048333299 -0.083547615 0.72500002 1.9347462e-39
-0.0034571344 -0.08366283 0.72600001 2.026569e-39
-0.0020657068 -0.083317123 0.72300005 1.0124185e-39
-0.00069046888 -0.083547592 0.72500002 9.2384805e-41
0.00069142616 -0.083662853 0.72600001 6.9252745e-39
0.002080004 -0.083893321 0.7280001 1.3853127e-38
0.0034714246 -0.084008574 0.72900003 1.5316768e-38
0.0048600012 -0.084008574 0.72900009 1.6876525e-38
0.0062657208 -0.084239036 0.73100001 1.6871849e-38
0.0076685688 -0.084354289 0.73200005 1.6785749e-38
0.0090876231 -0.084584743 0.73400003 1.8624606e-38
0.010514284 -0.084815241 0.73600006 2.0381666e-38
0.011916187 -0.084815241 0.73600006 2.1571212e-38
0.013245722 -0.084354259 0.73200005 2.2854395e-38
-0.045995247 -0.084206678 0.74300003 3.7743344e-39
-0.044520002 -0.084093325 0.74200004 3.0382113e-39
-0.042990476 -0.083866663 0.74000001 2.3013749e-39
-0.041524764 -0.083753332 0.73900002 1.4727044e-39
-0.040117133 -0.083753295 0.73900002 6.465423e-40
-0.038604755 -0.083526634 0.73700011 1.2897481e-39
-0.03715048 -0.08341334 0.73600012 1.9347532e-39
-0.035748567 -0.083413318 0.73600006 2.8552647e-39
-0.034160007 -0.082960002 0.73200005 3.6810513e-39
-0.032765716 -0.082959995 0.73200005 2.8520053e-39
-0.031328566 -0.082846642 0.73100007 1.9340189e-39
-0.029854292 -0.082620002 0.72900003 1.6588809e-39
-0.028426662 -0.082506649 0.7280001 1.2919019e-39
-0.027039995 -0.082506649 0.72800004 1.383743e-39
-0.025582857 -0.082279988 0.72600001 1.3833899e-39
-0.024199991 -0.082279973 0.72600007 1.1075303e-39
-0.022785708 -0.082166649 0.72500002 8.302273e-40
-0.021404762 -0.082166657 0.72500002 1.1053723e-39
-0.020023813 -0.082166672 0.72500002 1.2883188e-39
-0.01864285 -0.082166649 0.72500002 1.2883118e-39
-0.017261893 -0.082166642 0.72500002 1.2890362e-39
-0.015880955 -0.082166679 0.72500002 1.8411324e-39
-0.014459994 -0.08193998 0.72300005 2.3038944e-39
-0.013082851 -0.081939973 0.72300005 2.8577759e-39
-0.01170571 -0.08193998 0.72300011 3.3183995e-39
-0.010314294 -0.081826694 0.72200006 3.8690649e-39
-0.0089390539 -0.081826679 0.72200006 4.3275123e-39
-0.0075638141 -0.081826679 0.72200006 3.3151569e-39
-0.0061885775 -0.081826679 0.72200006 2.3038776e-39
-0.0048133391 -0.081826679 0.72200006 2.3031489e-39
-0.0034380986 -0.081826679 0.72200006 2.2087981e-39
-0.002057146 -0.081600003 0.72000003 1.1950161e-39
-0.00068571261 -0.081599995 0.71999997 9.8441217e-41
0.00068761472 -0.081826672 0.72200006 5.2592343e-39
0.0020657193 -0.08193998 0.72300005 1.0427181e-38
0.0034523762 -0.082166672 0.72500002 1.3017635e-38
0.0048333383 -0.082166649 0.72500002 1.5585436e-38
0.0062142857 -0.082166664 0.72500002 1.6413742e-38
0.0076057226 -0.082279973 0.72600007 1.7244927e-38
0.008988576 -0.082279988 0.72600007 1.8997336e-38
0.010442853 -0.082846679 0.73100001 2.0741836e-38
0.011802855 -0.082620002 0.72900003 2.1754881e-38
0.01322763 -0.082846634 0.73100007 2.2763637e-38
0.014620009 -0.082846642 0.73100007 2.23945e-38
0.016012387 -0.082846649 0.73100007 2.1935684e-38
-0.045933347 -0.082680024 0.74199998 3.0410951e-39
-0.044400014 -0.08245717 0.74000001 2.6715895e-39
-0.042932373 -0.082345687 0.73900002 2.3942894e-39
-0.041412368 -0.082122825 0.73700011 1.7496458e-39
-0.040008578 -0.082122862 0.73700005 1.1975539e-39
-0.038552389 -0.082011431 0.73600012 1.5659693e-39
-0.037150472 -0.082011409 0.73600006 1.9358308e-39
-0.035651427 -0.081788577 0.73400003 2.5797638e-39
-0.034159996 -0.0815657 0.73200011 3.1314831e-39
-0.032720946 -0.08145427 0.73100007 2.579024e-39
-0.03132857 -0.081454277 0.73100007 2.026939e-39
-0.029813332 -0.081119992 0.7280001 1.4755701e-39
-0.028348571 -0.08089713 0.72600001 8.3272722e-40
-0.026965719 -0.080897145 0.72600001 1.2919103e-39
-0.025582859 -0.080897138 0.72600001 1.8429303e-39
-0.024166662 -0.080785707 0.72500002 1.2908481e-39
-0.022785716 -0.080785714 0.72500002 7.3803588e-40
-0.021404767 -0.080785729 0.72500002 8.2950563e-40
-0.020023808 -0.080785707 0.72500002 9.2025092e-40
-0.018591415 -0.080562823 0.72300005 8.2876014e-40
-0.017214287 -0.080562852 0.72300005 8.2841402e-40
-0.01583714 -0.080562852 0.72300005 1.3826668e-39
-0.014459999 -0.080562852 0.72300005 1.9369098e-39
-0.013082846 -0.08056283 0.72300005 2.5815533e-39
-0.011689522 -0.080451421 0.72200006 3.1347397e-39
-0.010314297 -0.080451451 0.722 3.501744e-39
-0.0089390567 -0.080451451 0.722 3.8694237e-39
-0.0075638187 -0.080451451 0.72200006 3.3165946e-39
-0.0061885784 -0.080451451 0.72200006 2.8563199e-39
-0.0047999942 -0.08022856 0.72000003 2.3027734e-39
-0.0034285721 -0.080228575 0.71999997 1.7488962e-39
-0.0020542883 -0.080117151 0.71900004 1.3801248e-39
-0.00068476034 -0.080117136 0.71900004 1.0106557e-39
0.00068571809 -0.080228575 0.71999997 3.1358103e-39
0.0020628523 -0.080451436 0.72200006 5.2624587e-39
0.0034428656 -0.080562837 0.72300005 1.0518689e-38
0.0048200055 -0.080562837 0.72300005 1.5666499e-38
0.0061971513 -0.080562837 0.72300005 1.6412302e-38
0.0075952476 -0.080785692 0.72500002 1.7058386e-38
0.0089761987 -0.080785707 0.72500002 1.8162213e-38
0.010371434 -0.080897123 0.72600007 1.9170232e-38
0.011786671 -0.081120007 0.72800004 2.0925132e-38
0.013191435 -0.081231423 0.72900003 2.2764713e-38
0.014620014 -0.081454255 0.73100007 2.2304102e-38
0.016012391 -0.081454262 0.73100007 2.1936417e-38
-0.049154285 -0.081923805 0.74800003 9.5164981e-41
-0.047729511 -0.081923775 0.74800009 1.1997189e-39
-0.045933332 -0.081266664 0.74200004 2.211696e-39
-0.044400007 -0.081047624 0.74000001 2.3046021e-39
-0.04293238 -0.080938086 0.73900002 2.3953586e-39
-0.041412376 -0.080719031 0.73700011 2.0262201e-39
-0.03995429 -0.08060953 0.73600012 1.6577949e-39
-0.038552392 -0.080609538 0.73600006 1.8407429e-39
-0.037049517 -0.080390461 0.73400003 1.9350993e-39
-0.03555429 -0.080171429 0.73200005 2.3049622e-39
-0.034113321 -0.080061868 0.73100007 2.5808204e-39
-0.032631438 -0.079842873 0.72900003 2.3967837e-39
-0.031199995 -0.079733312 0.72800004 2.1198423e-39
-0.029731423 -0.079514265 0.72600001 1.292248e-39
-0.028309532 -0.079404771 0.72500002 3.7282527e-40
-0.02692857 -0.079404749 0.72500002 1.29119e-39
-0.025547612 -0.079404734 0.72500002 2.2088331e-39
-0.024100006 -0.079185717 0.72300005 1.4741548e-39
-0.022722851 -0.079185694 0.72300005 6.4619477e-40
-0.021345709 -0.079185694 0.72300005 6.454717e-40
-0.019968567 -0.079185694 0.72300005 5.5327047e-40
-0.018591436 -0.079185724 0.72300005 4.6106923e-40
-0.017214283 -0.079185702 0.72300005 2.7884158e-40
-0.015815247 -0.079076201 0.72200006 9.2420959e-40
-0.014440008 -0.079076201 0.72200006 1.5684916e-39
-0.013064768 -0.079076201 0.72200006 2.305328e-39
-0.011657136 -0.078857131 0.72000003 2.9492652e-39
-0.010285715 -0.078857146 0.72000003 3.2251431e-39
-0.0089142863 -0.078857139 0.71999997 3.4095175e-39
-0.0075428495 -0.078857124 0.72000003 3.4091462e-39
-0.0061714277 -0.078857146 0.72000003 3.3155072e-39
-0.0047999849 -0.078857109 0.72000003 2.3020783e-39
-0.0034285628 -0.078857124 0.72000003 1.2908117e-39
-0.0020542752 -0.078747593 0.7190001 1.5663196e-39
-0.00068475661 -0.078747608 0.71900004 1.8400282e-39
0.00068477279 -0.0787476 0.7190001 1.0106347e-39
0.0020542892 -0.078747615 0.71900004 1.1066054e-40
0.0034285781 -0.078857124 0.72000003 7.9440283e-39
0.0048133237 -0.079076208 0.72200006 1.576084e-38
0.006197148 -0.079185694 0.72300005 1.6326234e-38
0.0075742896 -0.079185702 0.72300005 1.6872927e-38
0.0089761987 -0.079404742 0.72500002 1.7238458e-38
0.010371433 -0.079514273 0.72600007 1.7612252e-38
0.011786679 -0.07973332 0.72800004 2.0194045e-38
0.013173335 -0.079733342 0.72800004 2.2673245e-38
0.014579995 -0.079842873 0.72900003 2.230411e-38
0.016012397 -0.080061883 0.73100007 2.1844938e-38
0.017428575 -0.080171429 0.73200005 2.2214797e-38
-0.049154274 -0.080499016 0.74800003 2.0208251e-39
-0.047729522 -0.080499046 0.74800003 2.0233545e-39
-0.045809533 -0.079638116 0.74000001 2.117341e-39
-0.04434 -0.07953047 0.73900002 2.4868325e-39
-0.042816196 -0.079315238 0.73700005 2.8563227e-39
-0.041356187 -0.079207599 0.73600006 2.2105988e-39
-0.039954297 -0.079207629 0.73600006 1.5663056e-39
-0.038447618 -0.078992374 0.73400009 1.6577725e-39
-0.036948562 -0.078777112 0.73200005 1.7506968e-39
-0.035505708 -0.078669496 0.73100007 2.0287256e-39
-0.034113318 -0.078669481 0.73100007 2.3974998e-39
-0.032586653 -0.078346632 0.72800004 2.3053027e-39
-0.031114284 -0.07813143 0.72600007 2.2116708e-39
-0.029690471 -0.078023791 0.72500002 1.5673846e-39
-0.028309526 -0.078023806 0.72500002 8.3020208e-40
-0.026854282 -0.077808559 0.72300005 1.1975567e-39
-0.02547713 -0.077808537 0.72300005 1.5638281e-39
-0.024066668 -0.07770095 0.72200006 1.105731e-39
-0.022691432 -0.07770095 0.72200006 5.5399494e-40
-0.021316193 -0.07770095 0.72200006 5.536306e-40
-0.019940954 -0.07770095 0.72200006 6.454661e-40
-0.018565714 -0.07770095 0.72200006 6.454661e-40
-0.017190475 -0.07770095 0.72200006 6.4583044e-40
-0.015771432 -0.07748571 0.72000003 1.014613e-39
-0.014399994 -0.077485703 0.72000003 1.3830283e-39
-0.013028563 -0.077485695 0.72000003 1.9365482e-39
-0.011657143 -0.07748571 0.72000003 2.3968061e-39
-0.01027143 -0.077378094 0.71900004 2.8577815e-39
-0.0089018997 -0.077378087 0.7190001 3.3173135e-39
-0.0075323819 -0.077378094 0.71900004 3.317668e-39
-0.0061628525 -0.077378087 0.71900004 3.4087874e-39
-0.0047933212 -0.077378072 0.7190001 2.7634292e-39
-0.0034238028 -0.077378079 0.71900004 2.1177081e-39
-0.0020485681 -0.077162854 0.71700007 2.0262271e-39
-0.00068284554 -0.077162832 0.71700007 2.0272697e-39
0.00068286731 -0.077162839 0.71700007 1.0127408e-39
0.0020485653 -0.077162869 0.71700001 9.2324549e-41
0.003423813 -0.077378087 0.7190001 5.3535837e-39
0.0047999974 -0.077485725 0.72000003 1.0616971e-38
0.0061714384 -0.077485688 0.72000003 1.3837018e-38
0.0075637978 -0.077700973 0.72200006 1.7051939e-38
0.0089514386 -0.077808551 0.72300011 1.7701564e-38
0.010328576 -0.077808551 0.72300005 1.8437691e-38
0.011754294 -0.078131407 0.72600007 1.9821689e-38
0.013137156 -0.0781314 0.72600001 2.1206037e-38
0.014560007 -0.078346647 0.72800004 2.1569433e-38
0.015968569 -0.078454301 0.72900003 2.2026456e-38
0.017404776 -0.078669496 0.73100007 2.2212994e-38
-0.052142862 -0.079285711 0.75000006 1.050528e-38
-0.050714292 -0.079285719 0.75000006 7.2859715e-39
-0.049154274 -0.079074256 0.74800009 3.9622933e-39
-0.047729522 -0.079074278 0.74800003 2.9391661e-39
-0.045933347 -0.078440033 0.74199998 1.932577e-39
-0.044219997 -0.077911407 0.73700005 2.5775918e-39
-0.042758103 -0.07780572 0.73600006 3.221878e-39
-0.041243806 -0.077594265 0.73400003 2.302091e-39
-0.03984572 -0.077594288 0.73400003 1.3830073e-39
-0.038342856 -0.077382848 0.73200005 1.4733967e-39
-0.036898103 -0.077277154 0.73100001 1.4755547e-39
-0.035408575 -0.077065714 0.72900003 1.8454134e-39
-0.034020018 -0.077065744 0.72900003 2.2134756e-39
-0.032497138 -0.076748557 0.72600007 2.3067503e-39
-0.031114278 -0.07674855 0.72600007 2.3042363e-39
-0.029690482 -0.076642863 0.72500002 1.8429037e-39
-0.028231423 -0.076431409 0.72300005 1.2904628e-39
-0.02681716 -0.076325752 0.72200006 1.1053638e-39
-0.025441924 -0.076325752 0.72200006 9.2205859e-40
-0.024066672 -0.076325729 0.72200006 7.3911067e-40
-0.022628576 -0.076114289 0.72000003 4.6287971e-40
-0.021257143 -0.076114282 0.71999997 5.53632e-40
-0.019885708 -0.076114267 0.72000003 6.454647e-40
-0.018514287 -0.076114289 0.72000003 8.2877556e-40
-0.017142856 -0.076114275 0.71999997 9.2097539e-40
-0.015749525 -0.076008566 0.71900004 1.1050107e-39
-0.014379995 -0.076008558 0.7190001 1.1989972e-39
-0.013010478 -0.076008573 0.71900004 1.5688503e-39
-0.011640947 -0.076008558 0.71900004 1.8461547e-39
-0.010242854 -0.075797141 0.71700001 2.4915185e-39
-0.0088771433 -0.075797141 0.71700001 3.1347201e-39
-0.0075114304 -0.075797148 0.71700001 3.3191029e-39
-0.0061457157 -0.075797148 0.71700001 3.410221e-39
-0.0047799954 -0.075797126 0.71700001 3.1325621e-39
-0.00341428 -0.075797133 0.71700001 2.8541843e-39
-0.0020457171 -0.075691439 0.71599996 2.48469e-39
-0.00068189652 -0.075691409 0.71600002 2.1176899e-39
0.00068286614 -0.075797126 0.71700001 1.1049729e-39
0.002048579 -0.075797126 0.71700001 9.4817459e-41
0.0034142884 -0.075797126 0.71700007 2.7602357e-39
0.0047933292 -0.076008573 0.71900004 5.361864e-39
0.0061628586 -0.076008566 0.71900004 1.1260961e-38
0.0075323922 -0.076008543 0.7190001 1.7149533e-38
0.008901909 -0.076008566 0.71900004 1.8261226e-38
0.010285711 -0.076114297 0.72000003 1.9267463e-38
0.011705726 -0.076431409 0.72300005 1.9448976e-38
0.013082859 -0.076431409 0.72300005 1.9638028e-38
0.014500001 -0.076642841 0.72500002 2.0924442e-38
0.015946671 -0.07695999 0.72800004 2.2212283e-38
0.017357131 -0.077065744 0.72900003 2.2213352e-38
0.018745717 -0.077065721 0.72900003 2.2120801e-38
-0.053571437 -0.077857159 0.75000006 4.5191413e-39
-0.052142859 -0.077857129 0.75000012 7.7484378e-39
-0.050714288 -0.077857144 0.75000012 6.9219057e-39
-0.049154278 -0.077649482 0.74800009 6.0824103e-39
-0.047729522 -0.077649511 0.74800003 3.4980389e-39
-0.045933336 -0.077026673 0.74200004 1.0145653e-39
-0.044340003 -0.076715238 0.73900002 1.8436253e-39
-0.042641893 -0.076196156 0.73400003 2.7641425e-39
-0.041243806 -0.076196179 0.73400003 2.0273159e-39
-0.039737139 -0.075988553 0.73200005 1.3837388e-39
-0.038342845 -0.075988539 0.73200011 1.38265e-39
-0.036898103 -0.075884759 0.73100007 1.2918907e-39
-0.035408575 -0.075677134 0.72900003 1.5677545e-39
-0.03402001 -0.075677164 0.72900003 1.9361825e-39
-0.032497134 -0.075365685 0.72600007 2.1220143e-39
-0.03111428 -0.0753657 0.72600007 2.3957257e-39
-0.029608564 -0.075054258 0.72300005 2.026946e-39
-0.02823142 -0.075054258 0.72300005 1.6581705e-39
-0.026817154 -0.074950494 0.72200006 1.2901124e-39
-0.025371423 -0.074742839 0.72000003 9.2277886e-40
-0.023999998 -0.074742854 0.72000003 7.3911488e-40
-0.022628566 -0.074742839 0.72000003 5.5579421e-40
-0.021257143 -0.074742861 0.72000003 6.4618496e-40
-0.019885723 -0.074742876 0.72000003 6.4618216e-40
-0.018488571 -0.074639045 0.71900004 6.4581923e-40
-0.017119043 -0.07463903 0.7190001 7.3694286e-40
-0.015705703 -0.074431397 0.71700001 8.2986016e-40
-0.014319995 -0.074327603 0.71600002 1.0149675e-39
-0.012974288 -0.074431434 0.71700001 1.3841045e-39
-0.011592384 -0.074327633 0.71600002 1.7539632e-39
-0.010228576 -0.074327625 0.71600002 2.2152973e-39
-0.0088647529 -0.074327603 0.71600002 2.768097e-39
-0.0075009461 -0.07432761 0.71600002 3.2279849e-39
-0.0061371368 -0.07432761 0.71600002 3.6882372e-39
-0.0047733276 -0.07432761 0.71600002 3.5931703e-39
-0.0034095291 -0.074327633 0.71600002 3.5903032e-39
-0.0020371405 -0.074016184 0.71300012 2.9453038e-39
-0.00068189745 -0.074327603 0.71600002 2.302098e-39
0.00068000605 -0.074119993 0.71400005 1.3823095e-39
0.0020457215 -0.07432761 0.71600002 4.6250136e-40
0.0034142833 -0.074431434 0.71700001 1.56953e-39
0.0047800033 -0.074431412 0.71700001 2.7785955e-39
0.0061457148 -0.074431419 0.71700001 9.0493753e-39
0.0075114295 -0.074431419 0.71700001 1.5320376e-38
0.0088647651 -0.07432761 0.71600002 1.6789743e-38
0.010271433 -0.074639045 0.7190001 1.825909e-38
0.011640953 -0.07463906 0.71900004 1.8622824e-38
0.013010479 -0.074639045 0.7190001 1.8992318e-38
0.014379995 -0.07463906 0.71900004 2.0742932e-38
0.015815224 -0.074950501 0.72200006 2.2399546e-38
0.017142862 -0.074742861 0.71999997 2.2213351e-38
0.018514292 -0.074742846 0.72000003 2.2027169e-38
-0.055146668 -0.07663238 0.75200009 9.223893e-40
-0.053571437 -0.076428585 0.75000012 2.9424451e-39
-0.052142859 -0.07642857 0.75000006 4.8936229e-39
-0.050579038 -0.076224729 0.74800003 6.5707291e-39
-0.049285721 -0.076428585 0.75000006 8.1085477e-39
-0.047729511 -0.076224729 0.74800003 4.1401826e-39
-0.045747623 -0.075307615 0.73900002 9.728935e-41
-0.044219993 -0.075103775 0.73700011 1.2014901e-39
-0.042641904 -0.074798085 0.73400003 2.2113289e-39
-0.041131426 -0.074594259 0.73200005 1.8425603e-39
-0.039682854 -0.074492358 0.73100001 1.3826528e-39
-0.038290475 -0.074492373 0.73100007 1.2890124e-39
-0.036797162 -0.074288614 0.72900003 1.1064232e-39
-0.035359994 -0.07418666 0.7280001 1.3808577e-39
-0.03397334 -0.074186675 0.72800004 1.5688531e-39
-0.032497145 -0.073982857 0.72600001 2.0327137e-39
-0.031071424 -0.073880941 0.72500002 2.3968159e-39
-0.029608574 -0.073677137 0.72300005 2.2102639e-39
-0.028192393 -0.073575266 0.72200006 1.9336784e-39
-0.026742857 -0.073371425 0.72000003 1.3819451e-39
-0.025371438 -0.07337144 0.72000003 8.3021889e-40
-0.024 -0.073371425 0.72000003 7.383876e-40
-0.022597134 -0.073269509 0.7190001 6.4618917e-40
-0.021257151 -0.07337144 0.71999997 6.4510877e-40
-0.019858086 -0.073269509 0.71900004 6.4582343e-40
-0.018488567 -0.073269516 0.71900004 5.5434526e-40
-0.017047619 -0.072963811 0.71599996 4.617895e-40
-0.015639998 -0.072759986 0.71400005 6.4545769e-40
-0.014280004 -0.072760016 0.71400005 7.3873512e-40
-0.012920002 -0.072760008 0.71400005 1.1989958e-39
-0.011559995 -0.072759986 0.71400005 1.569572e-39
-0.010200003 -0.072760016 0.71400005 2.0316249e-39
-0.0088400012 -0.072760008 0.71400005 2.4000403e-39
-0.007480009 -0.072760016 0.71400005 3.1357977e-39
-0.006119994 -0.072759993 0.71400005 3.8701229e-39
-0.0047599915 -0.072759978 0.71400005 4.1452707e-39
-0.0034000003 -0.072760001 0.71400005 4.3257103e-39
-0.0020371305 -0.072658062 0.71300012 3.4041225e-39
-0.00067904318 -0.072658077 0.71300006 2.3932146e-39
0.00067904772 -0.072658099 0.71300012 1.6592495e-39
0.0020400062 -0.072759993 0.71400011 8.3055941e-40
0.0033952487 -0.072658069 0.71300012 4.6032935e-40
0.0047733299 -0.072963811 0.71600002 1.0851515e-40
0.0061199996 -0.072760001 0.71400005 6.7451656e-39
0.007500947 -0.072963811 0.71599996 1.3376006e-38
0.0088400077 -0.072759978 0.71400011 1.5317498e-38
0.010242855 -0.073065713 0.71700001 1.724387e-38
0.01160857 -0.07306572 0.71700001 1.7790916e-38
0.012974283 -0.07306572 0.71700001 1.835019e-38
0.014339994 -0.073065728 0.71700001 2.0471384e-38
0.015705718 -0.073065706 0.71700001 2.2582505e-38
0.017142858 -0.073371425 0.72000003 2.2212632e-38
0.018514289 -0.073371425 0.71999997 2.1844574e-38
0.019885723 -0.07337141 0.72000003 2.2119725e-38
0.021257147 -0.073371433 0.72000003 2.230699e-38
-0.055146672 -0.075200006 0.75200003 7.3832875e-40
-0.053571429 -0.074999988 0.75000012 1.8432218e-39
-0.052142859 -0.074999996 0.75000012 2.955728e-39
-0.050579038 -0.07479997 0.74800009 5.4489953e-39
-0.049154274 -0.074799977 0.74800003 7.9266872e-39
-0.047665726 -0.07470002 0.74700004 4.3274521e-39
-0.045747619 -0.073899992 0.73900002 7.3619597e-40
-0.044160012 -0.073600017 0.73600006 1.5655993e-39
-0.042641897 -0.073399968 0.73400003 2.393918e-39
-0.041131437 -0.073200002 0.73200005 2.0258628e-39
-0.039682858 -0.073099993 0.73100007 1.6577921e-39
-0.038185716 -0.072900005 0.72900003 1.381557e-39
-0.036797147 -0.072900005 0.72900003 1.1982559e-39
-0.035360001 -0.072799996 0.72800004 1.29046e-39
-0.033879999 -0.0726 0.72600001 1.3848374e-39
-0.032452382 -0.072499998 0.72500002 2.21318e-39
-0.031071436 -0.072500005 0.72500002 3.0400371e-39
-0.029567637 -0.072200038 0.72200006 2.4857746e-39
-0.028114293 -0.072000012 0.72000003 1.9326036e-39
-0.026742849 -0.071999975 0.72000003 1.3815836e-39
-0.025371429 -0.071999997 0.72000003 9.2097259e-40
-0.023966666 -0.071899995 0.71900004 8.2949582e-40
-0.022597134 -0.071899973 0.71900004 7.3694286e-40
-0.02113905 -0.071599998 0.71600002 6.4510737e-40
-0.019775242 -0.071600005 0.71600002 5.536306e-40
-0.018411431 -0.071600005 0.71600002 4.6179511e-40
-0.017000007 -0.071400009 0.71400005 3.6958967e-40
-0.015640005 -0.071399994 0.71400005 4.6177269e-40
-0.014279999 -0.071399987 0.71400011 5.5433826e-40
-0.012901898 -0.071299985 0.71300012 9.2348512e-40
-0.011559993 -0.071399979 0.71400005 1.2929865e-39
-0.010200001 -0.071399994 0.71400005 1.7543234e-39
-0.0088399975 -0.071399987 0.71400005 2.2149372e-39
-0.007469519 -0.071299985 0.71300012 3.0425329e-39
-0.0061114184 -0.071299978 0.71300012 3.8683377e-39
-0.0047533275 -0.071299993 0.71300012 3.9605347e-39
-0.0033952401 -0.071300007 0.71300006 4.1420449e-39
-0.0020314162 -0.071099974 0.71100003 3.4963167e-39
-0.00067713234 -0.071099982 0.71100003 2.9424339e-39
0.00067714782 -0.071099989 0.71100003 2.2091835e-39
0.0020314448 -0.071099959 0.71100008 1.4748414e-39
0.0033857287 -0.071099967 0.71100008 8.2946499e-40
0.0047533382 -0.071299993 0.71300006 1.8417126e-40
0.0061114291 -0.0713 0.71300012 5.2577895e-39
0.0074695298 -0.071299993 0.71300012 1.0243157e-38
0.0088276286 -0.071299978 0.71300012 1.2645292e-38
0.010228576 -0.071599983 0.71600002 1.5128417e-38
0.011608569 -0.071700007 0.71700001 1.5124808e-38
0.012956185 -0.071600012 0.71600002 1.5227427e-38
0.014319994 -0.071600012 0.71600002 1.7985023e-38
0.01570571 -0.071700014 0.71700001 2.0837995e-38
0.017119057 -0.071899973 0.7190001 2.1478663e-38
0.018514285 -0.071999997 0.72000003 2.2120439e-38
0.019885721 -0.071999997 0.72000003 2.2305549e-38
0.021257142 -0.072000012 0.71999997 2.2491013e-38
-0.055146672 -0.073767617 0.75200009 5.5464795e-40
-0.053571437 -0.073571444 0.75000006 8.2837478e-40
-0.052003801 -0.07337521 0.74800003 1.0214036e-39
-0.050511435 -0.073277153 0.74700004 4.3418616e-39
-0.049088582 -0.073277153 0.74700004 7.6421788e-39
-0.047538098 -0.073080949 0.74500006 4.5064792e-39
-0.045747615 -0.072492361 0.73900008 1.3808283e-39
-0.044160016 -0.072198115 0.73600006 1.9307511e-39
-0.042641912 -0.072001904 0.73400003 2.4832158e-39
-0.041131429 -0.071805693 0.73200005 2.208445e-39
-0.039682854 -0.071707606 0.73100007 1.841089e-39
-0.038185727 -0.071511455 0.72900003 1.5648496e-39
-0.036746658 -0.071413308 0.7280001 1.2897187e-39
-0.035262853 -0.071217127 0.72600001 1.1975427e-39
-0.033880003 -0.071217142 0.72600001 1.1075218e-39
-0.032452375 -0.07111904 0.72500002 2.394316e-39
-0.030985711 -0.070922844 0.72300005 3.5885236e-39
-0.029485719 -0.070628583 0.71999997 2.7601978e-39
-0.028114285 -0.070628569 0.72000003 1.8418373e-39
-0.02670571 -0.070530467 0.71900004 1.3819367e-39
-0.025336191 -0.070530474 0.7190001 9.2204318e-40
-0.023966664 -0.070530467 0.71900004 9.2096838e-40
-0.022502864 -0.070236199 0.71599996 8.2877415e-40
-0.021139044 -0.070236176 0.71600002 6.443871e-40
-0.019720005 -0.07004001 0.71400005 4.6143778e-40
-0.018360002 -0.070040002 0.71400005 3.6960648e-40
-0.016976189 -0.069941893 0.71300006 2.7776258e-40
-0.01561809 -0.069941886 0.71300012 2.7739544e-40
-0.014219988 -0.069745682 0.71100008 2.7883737e-40
-0.012865704 -0.06974569 0.71100003 6.4726256e-40
-0.01154381 -0.069941901 0.71300006 9.2384945e-40
-0.010157123 -0.069745667 0.71100008 1.4770204e-39
-0.0088028414 -0.069745675 0.71100008 1.9379916e-39
-0.0074485582 -0.069745682 0.71100003 2.8584989e-39
-0.0060942746 -0.069745697 0.71100003 3.777214e-39
-0.0047399905 -0.069745705 0.71100003 3.8697684e-39
-0.003385697 -0.069745675 0.71100008 3.8676076e-39
-0.0020285728 -0.069647625 0.7100001 3.680701e-39
-0.00067619438 -0.069647633 0.71000004 3.4034022e-39
0.00067619717 -0.069647603 0.71000004 2.759479e-39
0.0020285775 -0.06964761 0.71000004 2.0251439e-39
0.0033857317 -0.069745682 0.71100008 1.1982545e-39
0.0047333399 -0.06964761 0.71000004 2.7777379e-40
0.0060942974 -0.069745697 0.71100003 3.6742788e-39
0.0074485778 -0.069745705 0.71100003 7.1056398e-39
0.0088028731 -0.069745675 0.71100008 1.0075672e-38
0.010185719 -0.069941893 0.71300012 1.2911414e-38
0.011592382 -0.070236176 0.71600002 1.2536142e-38
0.012956193 -0.070236184 0.71600002 1.2087759e-38
0.01432 -0.070236191 0.71600002 1.5587227e-38
0.015683811 -0.070236191 0.71600002 1.899267e-38
0.017119054 -0.070530467 0.7190001 2.0651087e-38
0.018488571 -0.070530489 0.71900004 2.2306271e-38
0.019802846 -0.070334308 0.71700001 2.2490295e-38
0.021227632 -0.070530452 0.7190001 2.2675763e-38
0.022722855 -0.070922859 0.72300005 2.2949837e-38
-0.053571429 -0.072142847 0.75000012 9.2093475e-40
-0.052003801 -0.071950443 0.74800003 6.4326045e-40
-0.050376188 -0.07166189 0.74500006 4.1473418e-39
-0.049088586 -0.071854316 0.74700004 7.7329044e-39
-0.047538098 -0.071661919 0.74500006 5.3430614e-39
-0.045623805 -0.070892364 0.73700005 2.9413045e-39
-0.044039998 -0.070603795 0.73400003 3.0348902e-39
-0.04252572 -0.070411429 0.73200005 3.1238866e-39
-0.041131429 -0.070411421 0.73200005 2.6668924e-39
-0.039574295 -0.070122875 0.72900003 2.2084141e-39
-0.038133319 -0.070026629 0.7280001 1.6570242e-39
-0.036746662 -0.070026651 0.72800004 1.1978706e-39
-0.035262857 -0.069834277 0.72600001 1.1060589e-39
-0.033879995 -0.06983427 0.72600001 1.1060715e-39
-0.032452386 -0.069738105 0.72500002 1.8422016e-39
-0.030942872 -0.069449551 0.72200006 2.6694343e-39
-0.02948571 -0.069257133 0.72000003 2.3946411e-39
-0.028075237 -0.069160946 0.7190001 2.1191304e-39
-0.026705716 -0.069160961 0.71900004 1.750708e-39
-0.025265716 -0.068968572 0.71700001 1.4741267e-39
-0.023866666 -0.068872377 0.71600002 1.1971867e-39
-0.022440005 -0.068680011 0.71400005 9.2060685e-40
-0.02108 -0.068679996 0.71400005 7.3693726e-40
-0.019720007 -0.068680018 0.71400005 5.5399214e-40
-0.018334286 -0.068583809 0.71300012 5.5328308e-40
-0.016976187 -0.068583794 0.71300012 5.5291874e-40
-0.015574269 -0.068391383 0.71100008 4.6143637e-40
-0.014199999 -0.068295233 0.7100001 3.7067988e-40
-0.012847621 -0.06829524 0.71000004 6.4618777e-40
-0.011495244 -0.06829524 0.71000004 8.2950283e-40
-0.010142851 -0.068295218 0.71000004 1.2911928e-39
-0.0087904837 -0.068295248 0.71000004 1.7528814e-39
-0.0074380906 -0.068295218 0.71000004 2.5815519e-39
-0.0060857199 -0.068295248 0.71000004 3.4102238e-39
-0.0047333282 -0.068295218 0.7100001 3.6857303e-39
-0.0033809496 -0.068295226 0.71000004 3.9612311e-39
-0.002022852 -0.068102844 0.70800006 3.6832079e-39
-0.00067333609 -0.068006679 0.70700002 3.4048358e-39
0.00067333347 -0.068006665 0.70700002 2.7609139e-39
0.0020228561 -0.068102859 0.708 2.2084618e-39
0.003371431 -0.068102859 0.70800006 1.5656091e-39
0.0047200057 -0.068102844 0.70800006 8.2983634e-40
0.0060685622 -0.068102866 0.708 2.2105848e-39
0.0074380944 -0.068295248 0.71000004 3.6022171e-39
0.0087904846 -0.068295218 0.71000004 7.4784286e-39
0.010142855 -0.068295248 0.71000004 1.1425508e-38
0.011543821 -0.068583779 0.71300012 1.0509968e-38
0.012901911 -0.068583801 0.71300006 9.5916582e-39
0.014279998 -0.068680003 0.71400005 1.2266412e-38
0.015683806 -0.068872385 0.71600002 1.4944729e-38
0.017047616 -0.068872385 0.71600002 1.8720048e-38
0.018411437 -0.068872362 0.71600002 2.2585733e-38
0.019720012 -0.068679973 0.71400005 2.2862299e-38
0.02108 -0.068679988 0.71400005 2.3046695e-38
0.022691419 -0.069449551 0.72200006 2.2861596e-38
0.024100011 -0.069545694 0.72300005 2.2584649e-38
-0.053571425 -0.070714273 0.75000012 1.0131164e-39
-0.052003797 -0.070525683 0.74800009 1.8839757e-40
-0.050579038 -0.070525683 0.74800003 4.0555399e-39
-0.048562855 -0.069677122 0.73900002 7.8358887e-39
-0.047155228 -0.069677107 0.73900008 6.1907699e-39
-0.045623813 -0.06948857 0.73700005 4.4254463e-39
-0.044039998 -0.069205701 0.73400003 4.1441987e-39
-0.042525709 -0.06901712 0.73200005 3.7789839e-39
-0.041075237 -0.068922848 0.73100007 3.2182599e-39
-0.039574292 -0.068734296 0.72900003 2.5746883e-39
-0.038133334 -0.068639994 0.72800004 1.8399988e-39
-0.036645714 -0.068451412 0.72600007 1.014208e-39
-0.03526286 -0.068451427 0.72600007 1.1067736e-39
-0.033739999 -0.068168558 0.72300005 1.1067848e-39
-0.03236286 -0.068168566 0.72300005 1.3823025e-39
-0.030942876 -0.068074331 0.72200006 1.6599613e-39
-0.029444769 -0.06779144 0.71900004 2.0298145e-39
-0.028075239 -0.067791417 0.7190001 2.3035245e-39
-0.026594277 -0.067508548 0.71600002 2.1187745e-39
-0.02523048 -0.067508571 0.71600002 1.9340245e-39
-0.023799999 -0.067319997 0.71400005 1.4726932e-39
-0.022408575 -0.067225717 0.71300006 1.013157e-39
-0.021050476 -0.06722571 0.71300006 8.2912728e-40
-0.019692374 -0.067225695 0.71300012 6.454633e-40
-0.018282846 -0.067037113 0.71100003 7.3694566e-40
-0.016928561 -0.06703712 0.71100003 8.2841963e-40
-0.015552374 -0.066942833 0.7100001 6.443871e-40
-0.014160001 -0.066754282 0.70800006 4.617909e-40
-0.012811431 -0.066754289 0.708 6.4546189e-40
-0.011462867 -0.066754304 0.708 7.3765752e-40
-0.010114291 -0.066754304 0.708 1.105361e-39
-0.0087533388 -0.066660009 0.70700002 1.4752142e-39
-0.0074066697 -0.066660002 0.70700002 2.2124093e-39
-0.00606 -0.066660002 0.70700002 2.9492484e-39
-0.0047199964 -0.066754274 0.70800006 3.5020565e-39
-0.0033714341 -0.066754296 0.708 4.0527079e-39
-0.0020200065 -0.066660017 0.70700002 3.686082e-39
-0.0006714263 -0.066471428 0.70500004 3.3151541e-39
0.00067143026 -0.066471428 0.7050001 2.8538256e-39
0.0020199928 -0.066660017 0.70700002 2.3928446e-39
0.0033666755 -0.06665998 0.70700002 1.933656e-39
0.0047133369 -0.066659994 0.70700002 1.3815598e-39
0.0060600047 -0.06665998 0.70700002 7.3583584e-40
0.0074171452 -0.066754274 0.708 1.0777947e-40
0.0087657096 -0.066754289 0.70800006 4.9937989e-39
0.010114282 -0.066754282 0.70800006 9.8646437e-39
0.011495241 -0.066942856 0.71000004 8.4860127e-39
0.012865723 -0.067037128 0.71100008 7.0137749e-39
0.014260009 -0.067225695 0.71300012 8.9412455e-39
0.015640005 -0.067319982 0.71400005 1.0797384e-38
0.016999999 -0.067319997 0.71400005 1.6882261e-38
0.018360004 -0.067319997 0.71400005 2.2860175e-38
0.019720009 -0.067319982 0.71400011 2.3142136e-38
0.021080002 -0.067320012 0.71400005 2.3415825e-38
0.02250286 -0.067508556 0.71600002 2.2681476e-38
0.02396667 -0.067791425 0.7190001 2.1933844e-38
-0.053571437 -0.069285728 0.75000012 1.1045805e-39
-0.052003801 -0.069100931 0.74800003 1.8410259e-40
-0.050579038 -0.069100924 0.74800003 5.0776008e-39
-0.048562862 -0.068269521 0.73900002 1.0057546e-38
-0.047219057 -0.068361916 0.74000001 9.2177763e-39
-0.04556191 -0.067992389 0.73600006 8.2822443e-39
-0.044040002 -0.067807615 0.73400003 8.2033638e-39
-0.042525712 -0.06762284 0.73200005 8.1193391e-39
-0.041075233 -0.067530453 0.73100007 4.7869911e-39
-0.039574292 -0.067345716 0.72900003 1.5627126e-39
-0.038133334 -0.067253329 0.72800004 1.4726778e-39
-0.036645718 -0.067068562 0.72600007 1.3819185e-39
-0.035117142 -0.066791408 0.72300005 1.1986048e-39
-0.033693347 -0.066699065 0.72200006 1.0160213e-39
-0.032228574 -0.066514283 0.72000003 1.2000608e-39
-0.030857138 -0.066514269 0.72000003 1.3851723e-39
-0.029362854 -0.066237122 0.71700001 1.936907e-39
-0.027958103 -0.066144779 0.71599996 2.4864836e-39
-0.026519991 -0.065959968 0.71400005 2.1187815e-39
-0.025124764 -0.065867618 0.71300006 1.7514339e-39
-0.023699991 -0.065682821 0.71100003 1.38265e-39
-0.022345709 -0.065682828 0.71100003 1.1057072e-39
-0.020991411 -0.065682806 0.71100008 9.2095857e-40
-0.019609522 -0.065590456 0.71000004 8.2840982e-40
-0.018257152 -0.065590486 0.71000004 9.2024952e-40
-0.016857143 -0.065405719 0.70800006 1.1035618e-39
-0.015508582 -0.065405741 0.708 8.2841262e-40
-0.014160007 -0.065405734 0.708 6.4545629e-40
-0.012811433 -0.065405726 0.708 7.3764772e-40
-0.011446672 -0.065313339 0.70700002 8.2984335e-40
-0.010071436 -0.065128587 0.70500004 1.013157e-39
-0.0087285731 -0.065128565 0.70500004 1.2890236e-39
-0.0073857177 -0.06512858 0.70500004 1.9354608e-39
-0.0060428535 -0.065128557 0.70500004 2.5808246e-39
-0.0046933126 -0.065036133 0.70400012 3.132918e-39
-0.0033523741 -0.06503617 0.70400006 3.6842911e-39
-0.0020085664 -0.06494379 0.70300001 3.8679621e-39
-0.00066951866 -0.06494379 0.70300007 3.9580039e-39
0.00066951587 -0.064943828 0.70300001 3.3133618e-39
0.0020114419 -0.065036155 0.70400012 2.6676267e-39
0.0033524046 -0.065036133 0.70400012 2.1176731e-39
0.0046933424 -0.06503617 0.70400006 1.5677363e-39
0.006034303 -0.065036148 0.70400012 1.1078399e-39
0.0073857042 -0.065128587 0.70500004 7.4235187e-40
0.0087285722 -0.065128565 0.70500004 3.8791669e-39
0.010099996 -0.065313339 0.70700002 7.0223887e-39
0.011446668 -0.065313324 0.70700002 7.8460453e-39
0.012793326 -0.065313339 0.70700002 8.658172e-39
0.014159998 -0.065405704 0.70800006 8.2897104e-39
0.015574301 -0.065682828 0.71100003 7.8395965e-39
0.016928591 -0.065682799 0.71100008 1.4480186e-38
0.018334294 -0.065867603 0.71300012 2.1208582e-38
0.019692393 -0.065867595 0.71300012 2.1946505e-38
0.021050485 -0.06586761 0.71300012 2.2772252e-38
