# .PCD v0.7 - Point Cloud Data file format
VERSION 0.7
FIELDS x y z rgb
SIZE 4 4 4 4
TYPE F F F F
COUNT 1 1 1 1
WIDTH 953
HEIGHT 1
VIEWPOINT 0 0 0 1 0 0 0
POINTS 953
DATA ascii
0.0058542737 -0.035776205 0.68299997 2.0240761e-39
0.0071552196 -0.035776213 0.68299997 2.0262397e-39
0.0084561836 -0.035776198 0.68299997 1.9362077e-39
0.009771416 -0.03582859 0.68399996 1.8450855e-39
0.011074279 -0.035828587 0.68399996 1.7525297e-39
0.012377139 -0.035828575 0.68399996 1.5688503e-39
0.013719996 -0.035933338 0.68600005 1.6613963e-39
0.01504856 -0.035985723 0.68699998 1.6606816e-39
0.016357115 -0.035985745 0.68699998 1.7528772e-39
0.017665703 -0.035985723 0.68699998 1.7517898e-39
0.018974278 -0.035985719 0.68699998 1.8439729e-39
0.020282833 -0.035985738 0.68699998 1.9340329e-39
0.021654276 -0.036090478 0.68899995 1.0135452e-39
0.02299997 -0.036142893 0.69 1.0957453e-40
0.024314268 -0.036142878 0.69000006 3.8845507e-39
0.025665704 -0.036195248 0.69099998 7.5691403e-39
0.027099023 -0.036352403 0.69399995 9.9669567e-39
0.028420934 -0.036352407 0.69399995 1.2269674e-38
0.029742839 -0.036352403 0.69399995 1.5857369e-38
0.031064741 -0.0363524 0.69399995 1.9362562e-38
0.032386653 -0.036352396 0.69399995 2.1397309e-38
-0.072786696 -0.037453346 0.74199998 1.9351035e-39
-0.071084797 -0.037301928 0.73899996 2.1191066e-39
-0.069205746 -0.037049547 0.73399997 2.3942277e-39
-0.067530476 -0.036898095 0.73099995 2.6683007e-39
-0.065957159 -0.036797155 0.72899997 2.2084057e-39
-0.064568602 -0.036797162 0.72899991 1.74921e-39
-0.063093349 -0.036746681 0.72799999 1.3793387e-39
-0.061537176 -0.036645744 0.72600001 1.0105688e-39
-0.05990573 -0.036494292 0.72299999 3.9701168e-39
-0.058528587 -0.0364943 0.72300005 6.9164113e-39
-0.057072416 -0.036443844 0.722 4.5993839e-39
-0.055542871 -0.036342867 0.71999997 2.2966903e-39
-0.054096207 -0.036292396 0.71899998 4.4247008e-39
-0.052360021 -0.036040019 0.71399999 6.6165404e-39
-0.051000029 -0.036040023 0.71399999 3.7707008e-39
-0.049570493 -0.035989538 0.71300006 9.2523534e-40
-0.048077174 -0.035888597 0.71099997 1.1078301e-39
-0.04665716 -0.035838105 0.71000004 1.3815346e-39
-0.045177169 -0.035737164 0.70799994 1.2893319e-39
-0.043642879 -0.035585731 0.70499998 1.1968098e-39
-0.042300012 -0.03558572 0.70499998 1.1057212e-39
-0.040899079 -0.035535261 0.704 1.015294e-39
-0.039501913 -0.035484765 0.70299995 1.0134737e-39
-0.03816288 -0.035484783 0.70299995 1.0127885e-39
-0.036719065 -0.035383828 0.70099998 1.0124606e-39
-0.035383828 -0.035383828 0.70099998 1.0120934e-39
-0.034000002 -0.035333332 0.69999999 8.2913008e-40
-0.032573353 -0.035232399 0.69799995 6.4580942e-40
-0.031243822 -0.035232391 0.69799995 6.4651707e-40
-0.029871454 -0.035181925 0.69699997 6.4651567e-40
-0.028543837 -0.035181932 0.69699997 5.5395991e-40
-0.027216222 -0.035181936 0.69699997 4.6140975e-40
-0.025814312 -0.035080977 0.69499999 3.6921832e-40
-0.024490526 -0.035081003 0.69499999 3.6922533e-40
-0.023166703 -0.035080988 0.69499999 5.525446e-40
-0.021842882 -0.035080977 0.69499999 7.3586386e-40
-0.020489534 -0.035030488 0.69400001 6.4439411e-40
-0.019167628 -0.035030484 0.69400001 4.6108044e-40
-0.01782001 -0.03498001 0.69299996 4.6107764e-40
-0.016452409 -0.034879077 0.69099998 4.6071891e-40
-0.015136197 -0.034879051 0.69099998 6.4474723e-40
-0.013800018 -0.034828588 0.69 7.3658133e-40
-0.012485718 -0.034828577 0.69000006 8.2913289e-40
-0.011171454 -0.034828596 0.69000006 9.2169846e-40
-0.0098428633 -0.034778096 0.68900001 1.1053821e-39
-0.0085057421 -0.034677166 0.68699998 1.197212e-39
-0.0071971505 -0.034677148 0.68699998 1.1060869e-39
-0.0058799959 -0.034626663 0.68600005 1.0146059e-39
-0.0045733205 -0.034626652 0.68600005 1.1060785e-39
-0.0032571401 -0.034525711 0.68399996 1.197914e-39
-0.0019514407 -0.034475252 0.68300003 1.2897495e-39
-0.00065049017 -0.034475256 0.68299997 1.4737848e-39
0.00065045292 -0.034475259 0.68299997 2.0237272e-39
0.0019514211 -0.034475245 0.68299997 2.5747472e-39
0.003252367 -0.034475259 0.68300003 2.5797751e-39
0.0045533166 -0.034475259 0.68299997 2.5758262e-39
0.0058542644 -0.034475259 0.68300003 2.3935873e-39
0.0071552289 -0.034475245 0.68300003 2.2102863e-39
0.008456178 -0.034475252 0.68299997 1.9362259e-39
0.0097571239 -0.034475259 0.68299997 1.570672e-39
0.01105809 -0.034475245 0.68299997 1.3848416e-39
0.012359021 -0.034475267 0.68299997 1.2922746e-39
0.013659986 -0.034475252 0.68299997 1.1997077e-39
0.014982853 -0.034525722 0.68399996 1.1982727e-39
0.016285699 -0.03452573 0.68399996 1.2911844e-39
0.017588558 -0.03452573 0.68400002 1.3826542e-39
0.018946657 -0.034626681 0.68599999 1.47484e-39
0.02025333 -0.034626674 0.68600005 1.5663042e-39
0.021591406 -0.034677166 0.68699998 9.2164801e-40
0.022966668 -0.034778092 0.68900001 3.6777499e-40
0.024279036 -0.034778111 0.68899995 2.1194737e-39
0.025628548 -0.034828592 0.69 3.8576331e-39
0.026981892 -0.034879059 0.69099998 4.9816413e-39
0.028298091 -0.034879051 0.69099998 6.1894947e-39
0.0297857 -0.035080969 0.69499999 1.0336084e-38
0.031109482 -0.035080992 0.69499999 1.4481631e-38
0.032433309 -0.035080977 0.69499999 1.8077599e-38
-0.072492413 -0.035894312 0.7389999 1.8428784e-39
-0.070892408 -0.035797171 0.73700005 1.8432148e-39
-0.069394313 -0.035748601 0.736 2.670788e-39
-0.067622885 -0.035554312 0.73199999 3.4036839e-39
-0.066138104 -0.035505719 0.73099995 2.8512416e-39
-0.064568602 -0.035408594 0.72899991 2.208019e-39
-0.063093364 -0.035360023 0.72799999 1.5615692e-39
-0.061706699 -0.035360031 0.72799999 9.3097365e-40
-0.060071453 -0.035214305 0.7249999 6.3855546e-39
-0.058528587 -0.035117149 0.72300005 1.1786611e-38
-0.057151444 -0.035117153 0.72299999 7.2554442e-39
-0.055542886 -0.034971453 0.71999997 2.7806708e-39
-0.054096207 -0.034922875 0.71899998 7.2207565e-39
-0.052506678 -0.034777153 0.71600002 1.1601172e-38
-0.051000033 -0.034680028 0.71399999 5.882913e-39
-0.049570486 -0.034631439 0.71300006 1.8840178e-40
-0.048077174 -0.034534313 0.71099997 7.4121542e-40
-0.046657152 -0.03448572 0.70999998 1.2911438e-39
-0.045177154 -0.034388576 0.70799994 1.2900606e-39
-0.043766692 -0.03434002 0.70700002 1.2900774e-39
-0.042300023 -0.03424288 0.70499998 1.2900942e-39
-0.040899068 -0.034194302 0.704 1.2900816e-39
-0.039558116 -0.034194306 0.70400006 1.1971559e-39
-0.038162883 -0.034145735 0.70299995 1.0135031e-39
-0.036719058 -0.034048576 0.70099998 1.0128039e-39
-0.035383817 -0.034048576 0.70099998 1.013157e-39
-0.03400002 -0.034000017 0.69999999 9.2131591e-40
-0.032573339 -0.033902861 0.69799995 8.294748e-40
-0.031243807 -0.033902854 0.69799995 7.3835117e-40
-0.029871449 -0.033854306 0.69699997 6.4615554e-40
-0.028543834 -0.033854309 0.69699997 5.5288371e-40
-0.027138133 -0.03375718 0.69499993 4.6104261e-40
-0.025814326 -0.033757184 0.69499999 4.6031814e-40
-0.024490507 -0.033757173 0.69499999 4.6068808e-40
-0.023166684 -0.033757161 0.69499999 5.5217605e-40
-0.021811452 -0.033708595 0.69399995 6.4437729e-40
-0.02046 -0.033659998 0.69300002 5.5290753e-40
-0.019140005 -0.033660006 0.69299996 3.6887781e-40
-0.017820016 -0.03366001 0.69299996 4.6071471e-40
-0.016452402 -0.033562876 0.69099998 4.607105e-40
-0.0151143 -0.033514298 0.69000006 4.6106503e-40
-0.013800018 -0.033514302 0.69 3.6923234e-40
-0.012467624 -0.033465717 0.68900001 6.4545909e-40
-0.011155238 -0.033465713 0.68900001 9.2061666e-40
-0.0098143145 -0.033368591 0.68699998 1.10358e-39
-0.0084933378 -0.033320002 0.68599999 1.2886817e-39
-0.007186661 -0.033319995 0.68600005 1.2886775e-39
-0.0058800033 -0.033320002 0.68599999 1.2890222e-39
-0.0045599998 -0.03322285 0.68399996 1.1964567e-39
-0.0032571531 -0.033222865 0.68399996 1.0124367e-39
-0.0019514463 -0.033174302 0.68299997 1.470908e-39
-0.00065049948 -0.033174306 0.68300003 1.8389842e-39
0.00065046223 -0.033174299 0.68300003 2.7566399e-39
0.0019513969 -0.033174321 0.68299997 3.5935612e-39
0.0032523633 -0.033174306 0.68299997 3.4202921e-39
0.0045533278 -0.033174291 0.68300003 3.1365264e-39
0.0058457018 -0.033125728 0.68199998 2.7641537e-39
0.0071552233 -0.033174299 0.68299997 2.3939377e-39
0.0084438026 -0.033125721 0.68199998 1.8432778e-39
0.0097428691 -0.033125706 0.68200004 1.2918935e-39
0.011041902 -0.033125721 0.68200004 1.1071337e-39
0.012359031 -0.033174299 0.68299997 9.2309275e-40
0.013659995 -0.033174284 0.68300003 8.3016985e-40
0.014982836 -0.033222876 0.68399996 6.4614433e-40
0.016285719 -0.03322285 0.68399996 8.3017826e-40
0.017588563 -0.033222865 0.68399996 1.0142024e-39
0.018891409 -0.03322288 0.68399996 1.1067497e-39
0.020253319 -0.03332001 0.68599999 1.1060183e-39
0.021559995 -0.033320002 0.68599999 9.2233465e-40
0.022899996 -0.033368569 0.68700004 6.4468277e-40
0.024279039 -0.033465721 0.68900001 3.6810709e-40
0.025591424 -0.033465713 0.68900001 9.3369918e-41
0.028465707 -0.035408583 0.72899997 9.6291625e-41
0.029854272 -0.035408597 0.72899991 1.1247802e-40
0.031242847 -0.03540859 0.72899997 4.8155033e-39
0.032631405 -0.035408601 0.72899997 9.5084715e-39
0.034019999 -0.035408579 0.72899997 1.4666e-38
-0.072492413 -0.034486692 0.73899996 1.2907584e-39
-0.070892394 -0.034393344 0.73699999 1.6587997e-39
-0.069394298 -0.03434667 0.736 2.2101518e-39
-0.06762287 -0.034160011 0.73199999 2.6693405e-39
-0.066138119 -0.034113355 0.73099995 2.486038e-39
-0.064745732 -0.034113348 0.73099995 2.3023572e-39
-0.063180029 -0.034020022 0.72899997 1.6551927e-39
-0.061706692 -0.033973359 0.72799999 9.1882019e-40
-0.060071446 -0.033833347 0.72499996 6.0053907e-39
-0.05852858 -0.033740003 0.72300005 1.1068119e-38
-0.057151459 -0.033740025 0.72299999 8.5641056e-39
-0.055465728 -0.033553347 0.71899998 6.1965712e-39
-0.054096211 -0.033553351 0.71899992 8.9628549e-39
-0.052360032 -0.033320032 0.71399999 1.1806413e-38
-0.05100004 -0.033320032 0.71399999 5.9872999e-39
-0.049431443 -0.03318001 0.71099997 1.8409979e-40
-0.048009533 -0.033133343 0.70999998 9.223851e-40
-0.046657149 -0.033133335 0.71000004 1.6592145e-39
-0.045177154 -0.033040006 0.70799994 1.5666531e-39
-0.0437667 -0.032993361 0.70699996 1.5666573e-39
-0.042300023 -0.03290002 0.70499992 1.382273e-39
-0.040957157 -0.032900013 0.70499998 1.1982433e-39
-0.039558124 -0.032853361 0.704 1.0142136e-39
-0.038162865 -0.032806668 0.70299995 8.3090693e-40
-0.036719076 -0.032713361 0.70099998 1.1057002e-39
-0.035333347 -0.032666676 0.69999999 1.4730393e-39
-0.033999998 -0.032666665 0.69999999 1.1968126e-39
-0.032573361 -0.032573353 0.69799995 9.2094596e-40
-0.031243831 -0.032573346 0.69799995 7.3834836e-40
-0.029871445 -0.032526683 0.69699997 6.4723033e-40
-0.028543828 -0.032526683 0.69699997 5.5395991e-40
-0.027138134 -0.032433368 0.69499999 5.5250956e-40
-0.025814312 -0.032433357 0.69499999 5.5249415e-40
-0.024490505 -0.032433361 0.69499993 5.5215083e-40
-0.023133352 -0.032386683 0.69399995 5.5252358e-40
-0.021811444 -0.032386683 0.69399995 6.4436608e-40
-0.020460002 -0.032339998 0.69299996 6.4437309e-40
-0.019084787 -0.03224669 0.69099998 6.4401856e-40
-0.01776859 -0.032246683 0.69099998 6.4438009e-40
-0.016428582 -0.032200009 0.69000006 5.5217886e-40
-0.015092388 -0.032153338 0.68900001 5.5253058e-40
-0.013780002 -0.032153334 0.68900001 5.5253759e-40
-0.012431438 -0.032060005 0.68700004 7.3657292e-40
-0.011122881 -0.032060027 0.68699998 9.1989359e-40
-0.009814309 -0.03206002 0.68699998 1.0124536e-39
-0.0084933452 -0.032013342 0.68599999 1.1053624e-39
-0.0071866722 -0.032013334 0.68599999 1.1050009e-39
-0.0058628754 -0.031920012 0.68399996 1.1053386e-39
-0.0045600128 -0.031920012 0.68399996 8.2837478e-40
-0.0032571447 -0.031920005 0.68399996 5.5217185e-40
-0.0019485685 -0.031826664 0.68200004 1.8407583e-39
-0.00064953556 -0.031826682 0.68200004 3.1239749e-39
0.00064951601 -0.031826675 0.68200004 3.5946613e-39
0.0019485657 -0.031826671 0.68200004 4.0610036e-39
0.0032476173 -0.031826667 0.68199998 3.4177866e-39
0.0045466688 -0.031826667 0.68199998 2.7749255e-39
0.0058457018 -0.031826679 0.68199998 2.1205836e-39
0.0071447496 -0.031826675 0.68199998 1.4726918e-39
0.0084438007 -0.031826675 0.68199998 1.197523e-39
0.0097428523 -0.031826671 0.68199998 9.2128087e-40
0.011041904 -0.031826667 0.68199998 8.2978449e-40
0.012340933 -0.031826682 0.68199998 7.3794059e-40
0.013640001 -0.031826667 0.68200004 6.4573655e-40
0.014960937 -0.031873345 0.68299997 4.6099777e-40
0.016261883 -0.031873349 0.68300003 6.4539463e-40
0.017588571 -0.031920001 0.68399996 8.2906282e-40
0.018891416 -0.031920016 0.68399996 9.2161298e-40
0.020194277 -0.031920016 0.68399996 1.012717e-39
0.021497121 -0.03192002 0.68399996 8.2903199e-40
0.022866663 -0.032013338 0.68599999 6.4500787e-40
0.025970459 -0.034393352 0.73699999 5.5245912e-40
0.027262852 -0.03425334 0.73399997 4.5991036e-40
0.028543804 -0.03411334 0.73099995 5.5282626e-40
0.029854283 -0.034020007 0.72899997 6.4367104e-40
0.03124284 -0.034020022 0.72899997 2.6817153e-39
0.032631405 -0.034020029 0.72899997 4.8057979e-39
0.034019999 -0.034020007 0.72899997 9.966549e-39
0.03540856 -0.034020022 0.72899997 1.5121231e-38
-0.070892401 -0.032989539 0.73700005 1.4740651e-39
-0.069677167 -0.033079069 0.73899996 1.7492002e-39
-0.067992397 -0.032944776 0.73600006 1.9346719e-39
-0.066228606 -0.032765746 0.73199999 2.2126979e-39
-0.064745724 -0.032720961 0.73099995 2.3941997e-39
-0.063353352 -0.032720972 0.73099995 1.6537606e-39
-0.061791446 -0.032631442 0.72899991 9.3209609e-40
-0.060071457 -0.032452404 0.7249999 5.6480988e-39
-0.058690503 -0.032452401 0.72499996 1.0228691e-38
-0.057151455 -0.032362878 0.72299999 9.8282842e-39
-0.055542871 -0.032228582 0.72000003 9.4987044e-39
-0.053945724 -0.032094296 0.71699995 1.0810325e-38
-0.052360017 -0.031960014 0.71399999 1.1984365e-38
-0.051000025 -0.031960025 0.71400005 6.0752342e-39
-0.049431443 -0.031825725 0.71099997 1.884228e-40
-0.048009545 -0.031780977 0.70999998 1.1053316e-39
-0.04665716 -0.031780969 0.70999998 1.9332832e-39
-0.045177154 -0.031691432 0.70799994 1.9336405e-39
-0.043766696 -0.031646691 0.70700002 1.8418078e-39
-0.042420033 -0.031646695 0.70699996 1.4744701e-39
-0.040957153 -0.03155715 0.70499998 1.1067693e-39
-0.039558116 -0.031512398 0.70400006 9.2202356e-40
-0.038162865 -0.031467624 0.70299995 6.4723594e-40
-0.036719069 -0.031378113 0.70099998 1.2900858e-39
-0.035383828 -0.031378109 0.70099998 1.8403701e-39
-0.033999998 -0.031333331 0.69999999 1.3804654e-39
-0.032573342 -0.03124382 0.69799995 9.2165362e-40
-0.031243814 -0.03124381 0.69799995 8.3018386e-40
-0.029871443 -0.031199059 0.69699997 6.468744e-40
-0.028461937 -0.031109555 0.69499999 6.4651988e-40
-0.027138114 -0.031109542 0.69499999 5.539543e-40
-0.025814326 -0.031109568 0.69499999 5.5250816e-40
-0.024455249 -0.031064773 0.69399995 5.5323684e-40
-0.023133345 -0.031064773 0.69399995 6.4508354e-40
-0.021779995 -0.031019997 0.69300002 6.4472902e-40
-0.020400953 -0.03093048 0.69099998 8.2768675e-40
-0.019084776 -0.030930489 0.69099998 9.1988378e-40
-0.017742869 -0.030885724 0.69000006 8.2804968e-40
-0.016428582 -0.030885724 0.69 6.4437869e-40
-0.01509238 -0.03084095 0.68900001 6.4401996e-40
-0.013780013 -0.030840967 0.68899995 6.4437729e-40
-0.012431455 -0.030751456 0.68700004 8.2768815e-40
-0.011122881 -0.030751452 0.68699998 9.2024671e-40
-0.0098000141 -0.030706678 0.68599999 9.2096978e-40
-0.0084933359 -0.030706676 0.68599999 8.2949442e-40
-0.0071866647 -0.030706665 0.68600005 8.2913709e-40
-0.0058628493 -0.030617138 0.68399996 8.2840281e-40
-0.0045600063 -0.03061715 0.68399996 4.5960768e-40
-0.0032523922 -0.030572392 0.68300003 9.5893657e-41
-0.0019485685 -0.030527618 0.68200004 2.215324e-39
-0.00064763194 -0.030438105 0.67999995 4.3375975e-39
0.00064760493 -0.030438112 0.68000001 4.4373391e-39
0.0019485638 -0.030527629 0.68200004 4.4308441e-39
0.0032476173 -0.030527622 0.68200004 3.4141586e-39
0.0045466688 -0.03052762 0.68200004 2.3056685e-39
0.0058457018 -0.03052764 0.68200004 1.4708926e-39
0.0071447515 -0.030527629 0.68200004 5.528725e-40
0.0084190369 -0.03043811 0.67999995 5.5249135e-40
0.009714257 -0.030438123 0.67999995 4.6100337e-40
0.011009516 -0.030438105 0.67999995 5.5210879e-40
0.012340937 -0.030527638 0.68199998 5.5318359e-40
0.013639987 -0.030527635 0.68199998 4.6134669e-40
0.014960932 -0.030572401 0.68299997 2.7732257e-40
0.016261881 -0.030572405 0.68299997 4.6064184e-40
0.017588554 -0.030617155 0.68399996 5.531934e-40
0.018891418 -0.030617155 0.68400002 7.3722172e-40
0.020194283 -0.03061715 0.68399996 8.2832854e-40
0.023319978 -0.033213351 0.74199998 7.361245e-40
0.024733309 -0.033213355 0.74199998 6.4501068e-40
0.026040938 -0.033079069 0.73899996 7.3649164e-40
0.027337156 -0.032944754 0.73600006 8.2869148e-40
0.02858283 -0.032765746 0.73199999 1.0120107e-39
0.02993618 -0.032720964 0.73099995 1.1038883e-39
0.031328566 -0.032720961 0.73099995 6.4475284e-40
0.032631397 -0.032631461 0.72899997 1.1065774e-40
0.034019999 -0.032631435 0.72899997 5.2728745e-39
0.035359986 -0.032586679 0.72799999 1.0427527e-38
0.036746651 -0.032586686 0.72800004 1.4474773e-38
-0.069488592 -0.031585731 0.73700005 1.1978481e-39
-0.067992374 -0.031542849 0.73600006 1.658106e-39
-0.066228613 -0.031371463 0.73199999 1.9357691e-39
-0.064834304 -0.031371444 0.73199999 2.213407e-39
-0.063353352 -0.031328589 0.73099995 2.02505e-39
-0.061960965 -0.031328578 0.73099995 1.8436393e-39
-0.060154304 -0.031114299 0.72600001 6.0046844e-39
-0.058690518 -0.031071464 0.7249999 1.0146188e-38
-0.057309546 -0.031071445 0.72499996 9.8594982e-39
-0.055542864 -0.030857148 0.72000003 9.6899102e-39
-0.054096222 -0.030814316 0.71899992 1.0518673e-38
-0.052506682 -0.03068573 0.71600002 1.1347995e-38
-0.051000014 -0.030600011 0.71399999 6.362981e-39
-0.049570505 -0.030557169 0.713 1.4698332e-39
-0.048077185 -0.030471465 0.71099997 1.65526e-39
-0.046657138 -0.030428564 0.71000004 1.8410876e-39
-0.045177169 -0.030342882 0.70799994 1.8421666e-39
-0.043766685 -0.030300019 0.70699996 1.7499766e-39
-0.04242003 -0.030300027 0.70700002 1.4748316e-39
-0.040957149 -0.030214291 0.70499998 1.291162e-39
-0.039558124 -0.030171454 0.704 1.1067736e-39
-0.038162868 -0.030128578 0.70300001 1.0152954e-39
-0.036719069 -0.030042879 0.70099998 1.1986062e-39
-0.035383832 -0.030042877 0.70099998 1.4730183e-39
-0.033999994 -0.029999996 0.70000005 1.1974922e-39
-0.032666672 -0.030000005 0.70000005 9.2200254e-40
-0.031243835 -0.029914308 0.69799995 8.3018386e-40
-0.029871456 -0.029871454 0.69700003 8.305496e-40
-0.028543819 -0.02987144 0.69700003 6.4688421e-40
-0.027138133 -0.029785749 0.69499999 5.5540044e-40
-0.025814312 -0.029785739 0.69499999 6.4615133e-40
-0.024455242 -0.029742861 0.69399995 7.3799524e-40
-0.023100007 -0.029700011 0.69299996 7.3764351e-40
-0.021780001 -0.029700002 0.69299996 6.4509195e-40
-0.020400962 -0.029614298 0.69099998 8.2804688e-40
-0.019084765 -0.029614288 0.69099998 9.1988378e-40
-0.017742869 -0.029571438 0.69000006 8.2840701e-40
-0.016428605 -0.029571459 0.69 6.4474303e-40
-0.015092394 -0.029528582 0.68900001 7.362254e-40
-0.01378001 -0.029528579 0.68900001 7.3657572e-40
-0.012431449 -0.029442877 0.68699998 7.3656591e-40
-0.011106681 -0.029400015 0.68599999 8.2912308e-40
-0.0098000048 -0.029400008 0.68600005 7.3729038e-40
-0.0084933471 -0.029400015 0.68599999 7.3765612e-40
-0.0071657249 -0.0293143 0.68399996 6.443913e-40
-0.0058628679 -0.029314293 0.68399996 5.51467e-40
-0.0045533623 -0.029271457 0.68299997 3.1325327e-39
-0.003252394 -0.029271446 0.68299997 5.6053354e-39
-0.0019428707 -0.029142875 0.68000001 6.5477843e-39
-0.0006476338 -0.029142873 0.67999995 7.3900838e-39
0.00064760493 -0.029142873 0.67999995 4.9876486e-39
0.0019428437 -0.029142873 0.67999995 2.504437e-39
0.0032380843 -0.029142871 0.67999995 2.0312031e-39
0.004533323 -0.029142871 0.67999995 1.5627e-39
0.005828558 -0.029142871 0.67999995 1.0113283e-39
0.0071237967 -0.029142871 0.68000001 4.6029151e-40
0.0084190331 -0.02914287 0.67999995 4.6062502e-40
0.0097000077 -0.029099993 0.67899996 4.6097955e-40
0.011009511 -0.029142873 0.68000001 4.6061521e-40
0.012304751 -0.029142868 0.67999995 4.6062082e-40
0.013599988 -0.029142868 0.67999995 3.6914966e-40
0.014960945 -0.029271441 0.68299997 1.858416e-40
0.017809514 -0.032057147 0.74799997 3.6915807e-40
0.019208562 -0.032014295 0.74700004 6.4430582e-40
0.020576183 -0.03192858 0.745 7.3614132e-40
0.021936197 -0.03184285 0.74299997 9.1944657e-40
0.023319978 -0.03180002 0.74199998 7.3648604e-40
0.024733309 -0.031800028 0.74199998 6.4537221e-40
0.026076179 -0.031714302 0.74000001 7.3757064e-40
0.027374262 -0.031585738 0.73699999 9.2268497e-40
0.028660949 -0.031457148 0.73399997 1.0134513e-39
0.029936185 -0.031328585 0.73099995 1.1049266e-39
0.031328574 -0.031328578 0.73099995 6.4574776e-40
0.032720946 -0.031328585 0.73099995 9.6616727e-41
0.034019992 -0.031242866 0.72899997 5.1713336e-39
0.035408556 -0.031242877 0.72899997 1.0239145e-38
0.036645696 -0.031114308 0.72599995 1.2268133e-38
0.037976179 -0.031071443 0.7249999 1.4386166e-38
0.039357133 -0.031071447 0.72499996 1.8075447e-38
-0.0694886 -0.030181926 0.73699999 7.3616374e-40
-0.067992389 -0.030140962 0.73600006 1.3822408e-39
-0.066590481 -0.030140955 0.73600006 1.6591822e-39
-0.064834312 -0.029977165 0.73199999 1.933953e-39
-0.063440017 -0.029977163 0.73199999 2.2973321e-39
-0.061960965 -0.029936196 0.73099995 2.680562e-39
-0.060154304 -0.029731439 0.72600001 6.3809891e-39
-0.05877145 -0.029731447 0.72599995 1.0050778e-38
-0.057309534 -0.029690485 0.72499996 9.9574643e-39
-0.055542879 -0.029485729 0.72000003 9.7745486e-39
-0.054096211 -0.029444776 0.71899998 1.0225872e-38
-0.052506685 -0.02932192 0.71599996 1.0600363e-38
-0.051000021 -0.029240018 0.71399999 6.7428899e-39
-0.049570482 -0.029199054 0.71300006 2.7670082e-39
-0.048077188 -0.02911718 0.71099997 2.2963022e-39
-0.046657152 -0.029076196 0.70999998 1.7488863e-39
-0.045177169 -0.028994311 0.70799994 1.7514087e-39
-0.043828592 -0.028994309 0.70799994 1.6592074e-39
-0.042420018 -0.028953349 0.70699996 1.5673649e-39
-0.040957168 -0.028871449 0.70499998 1.3826276e-39
-0.039558131 -0.028830511 0.704 1.3815612e-39
-0.038162865 -0.028789531 0.70299995 1.2904459e-39
-0.036719058 -0.028707631 0.70099998 1.198972e-39
-0.035383821 -0.028707627 0.70099998 1.1064022e-39
-0.033999994 -0.02866666 0.70000005 1.0138338e-39
-0.032666672 -0.02866667 0.70000005 9.2200675e-40
-0.031243818 -0.028584767 0.69799995 9.2165782e-40
-0.029871451 -0.028543832 0.69700003 9.2202216e-40
-0.028461935 -0.028461935 0.69499999 7.387155e-40
-0.027138112 -0.028461924 0.69499999 5.5468158e-40
-0.025814328 -0.028461946 0.69499999 7.3798963e-40
-0.024420006 -0.028380005 0.69299996 9.2166483e-40
-0.023099996 -0.028379997 0.69300002 8.2983494e-40
-0.021780005 -0.028380005 0.69299996 6.4544508e-40
-0.020400953 -0.028298095 0.69099998 8.2803847e-40
-0.019057151 -0.02825715 0.69000006 9.1987677e-40
-0.017742869 -0.028257154 0.69 8.2840281e-40
-0.016404772 -0.028216204 0.68900001 6.4437729e-40
-0.015048573 -0.02813429 0.68700004 7.3585826e-40
-0.013740022 -0.028134309 0.68699998 8.2840842e-40
-0.012413327 -0.028093331 0.68599999 7.3692885e-40
-0.011106654 -0.028093321 0.68600005 6.4545629e-40
-0.0097714318 -0.02801143 0.68399996 6.4546189e-40
-0.0084685851 -0.028011439 0.68399996 5.52553e-40
-0.0071657212 -0.028011439 0.68399996 4.5964411e-40
-0.0058628791 -0.028011451 0.68399996 2.8998611e-40
-0.0045533529 -0.027970493 0.68299997 5.7298267e-39
-0.0032476163 -0.027929524 0.68200004 1.1146001e-38
-0.0019428707 -0.027847638 0.67999995 1.079591e-38
-0.00064763566 -0.027847642 0.67999995 1.0405552e-38
0.00064667733 -0.02780666 0.67900002 5.5267338e-39
0.0019399994 -0.027806664 0.67900002 5.6185062e-40
0.003233342 -0.02780666 0.67900002 7.3545048e-40
0.004526664 -0.027806669 0.67900002 8.276363e-40
0.0058200066 -0.027806662 0.67900002 6.4359957e-40
0.0071133492 -0.027806655 0.67900002 3.684392e-40
0.0084066708 -0.027806668 0.67900002 3.6842799e-40
0.0097000133 -0.027806656 0.67900002 3.6878252e-40
0.011009509 -0.027847638 0.67999995 3.6877972e-40
0.012304746 -0.027847638 0.67999995 3.6878392e-40
0.013639987 -0.027929539 0.68200004 2.7695123e-40
0.016428575 -0.030714285 0.75 9.4000502e-41
0.01780951 -0.030632395 0.74799997 3.6879233e-40
0.019234257 -0.03063241 0.74799997 6.4429742e-40
0.020576181 -0.030509537 0.745 8.2760968e-40
0.02199522 -0.030509545 0.745 1.0116352e-39
0.023351435 -0.030427611 0.74299997 8.2867747e-40
0.024766663 -0.030427629 0.74300003 5.5353251e-40
0.026076172 -0.030304784 0.73999995 8.290418e-40
0.027448544 -0.030263847 0.73899996 1.0137932e-39
0.028582858 -0.02997715 0.73199999 1.1056329e-39
0.029977124 -0.029977163 0.73199999 1.1049168e-39
0.031328574 -0.029936194 0.73099995 6.4466456e-40
0.032720946 -0.029936204 0.73099995 1.0018864e-40
0.034019995 -0.0298543 0.72899997 5.0769632e-39
0.035359975 -0.029813353 0.72800004 1.0053316e-38
0.036645714 -0.029731434 0.72600001 1.015593e-38
0.03797619 -0.029690487 0.72499996 1.0154529e-38
0.039248563 -0.029608585 0.72299999 1.5211973e-38
0.040625706 -0.029608587 0.72299999 2.0281256e-38
-0.066590495 -0.028739063 0.736 1.0148932e-39
-0.064834319 -0.028582882 0.73199999 1.2896696e-39
-0.063440025 -0.028582884 0.73199999 2.0261346e-39
-0.061791457 -0.028465737 0.72899997 2.7709612e-39
-0.060154296 -0.02834858 0.72600001 6.0021621e-39
-0.05877145 -0.028348586 0.72599995 9.3103671e-39
-0.057309546 -0.028309541 0.72499996 9.7723892e-39
-0.055697165 -0.028192399 0.722 1.0235139e-38
-0.054171454 -0.02811431 0.71999997 8.7589394e-39
-0.052580014 -0.027997149 0.71700001 7.2881547e-39
-0.051142864 -0.027958097 0.71600002 5.5389937e-39
-0.049570501 -0.027840974 0.713 3.8650866e-39
-0.04807717 -0.027762884 0.71099997 2.3913523e-39
-0.046722885 -0.027762881 0.71099997 1.0141968e-39
-0.045177169 -0.027645735 0.70799994 1.1996782e-39
-0.043828577 -0.027645718 0.70799994 1.4762441e-39
-0.042420015 -0.027606675 0.70700002 1.4755098e-39
-0.040957164 -0.02752859 0.70499992 1.4744533e-39
-0.039614297 -0.027528582 0.70499998 1.4744715e-39
-0.038162868 -0.027450483 0.70299995 1.382643e-39
-0.036719061 -0.027372396 0.70099998 1.2908131e-39
-0.035383821 -0.027372394 0.70099998 1.2908005e-39
-0.034000009 -0.027333343 0.69999999 1.1067567e-39
-0.032666683 -0.027333351 0.69999999 1.0145653e-39
-0.03124382 -0.027255246 0.69799995 9.2237248e-40
-0.029871464 -0.027216224 0.69699997 9.2166062e-40
-0.028461952 -0.027138144 0.69499999 7.3799384e-40
-0.027138131 -0.027138129 0.69499999 6.4615834e-40
-0.025777172 -0.027099075 0.69399995 7.376337e-40
-0.024420008 -0.027060008 0.69299996 9.2094736e-40
-0.023033354 -0.026981926 0.69099998 8.29472e-40
-0.021717157 -0.026981918 0.69099998 7.3727497e-40
-0.02037145 -0.026942879 0.69 9.2022429e-40
-0.019057151 -0.026942864 0.69000006 1.103182e-39
-0.017717153 -0.026903817 0.68900001 9.1987397e-40
-0.016404785 -0.026903829 0.68899995 6.4437028e-40
-0.015048575 -0.026825719 0.68700004 6.4473182e-40
-0.013740016 -0.026825733 0.68699998 7.3621138e-40
-0.012413338 -0.026786672 0.68599999 6.4545489e-40
-0.011074288 -0.026708573 0.68399996 5.5434386e-40
-0.0097714448 -0.026708588 0.68399996 7.3658553e-40
-0.0084685786 -0.026708582 0.6839999 9.1882159e-40
-0.0071657146 -0.026708575 0.68399996 2.9531931e-39
-0.0058628726 -0.02670859 0.68399996 4.9804488e-39
-0.0045533399 -0.026669532 0.68300003 7.1088656e-39
-0.0032476163 -0.026630474 0.68200004 9.2289797e-39
-0.0019428614 -0.026552385 0.67999995 7.1892315e-39
-0.0006466764 -0.026513344 0.67899996 5.2365403e-39
0.00064666616 -0.026513336 0.67899996 2.943412e-39
0.0019400013 -0.026513334 0.67900002 6.4323243e-40
0.0032333438 -0.026513323 0.67900002 6.4360237e-40
0.0045266678 -0.026513334 0.67900002 6.4394569e-40
0.0058200103 -0.026513323 0.67900002 6.4428901e-40
0.0071133324 -0.026513336 0.67900002 5.5245351e-40
0.0084066726 -0.026513329 0.67900002 4.6025928e-40
0.0096999947 -0.026513336 0.67900002 3.6842239e-40
0.010993339 -0.026513334 0.67900002 3.6877972e-40
0.012304759 -0.026552387 0.68000001 3.6878112e-40
0.015039982 -0.029363828 0.75199997 4.6097675e-40
0.016428571 -0.029285712 0.75 5.5388984e-40
0.017809518 -0.029207626 0.74799997 5.5317238e-40
0.01923427 -0.029207641 0.74799997 5.5209618e-40
0.020631418 -0.029168593 0.74699998 6.4428901e-40
0.021995235 -0.029090485 0.745 7.361231e-40
0.023351427 -0.029012384 0.74299997 6.4500227e-40
0.024766672 -0.029012376 0.74299997 6.453638e-40
0.026146635 -0.028973369 0.74199998 7.3755943e-40
0.027485684 -0.028895272 0.73999995 8.2975506e-40
0.028660947 -0.02866096 0.73399997 1.0134261e-39
0.02997712 -0.028582888 0.73199999 1.1971013e-39
0.031328581 -0.028543806 0.73099995 6.4465615e-40
0.032720946 -0.028543817 0.73099995 9.2281109e-41
0.034019988 -0.028465722 0.72899997 4.7953344e-39
0.035359986 -0.028426679 0.72799999 9.5058861e-39
0.036645718 -0.028348574 0.72600001 1.0701576e-38
0.037976179 -0.028309546 0.72499996 1.1976503e-38
0.039248567 -0.028231435 0.72299999 1.4288165e-38
0.040625706 -0.028231442 0.72300005 1.6598474e-38
0.042002849 -0.028231444 0.72300005 1.991969e-38
-0.064834304 -0.027188584 0.73199999 6.4537501e-40
-0.063440032 -0.027188601 0.73199993 1.7459618e-39
-0.061537147 -0.026965717 0.72600001 2.7709542e-39
-0.060154296 -0.026965722 0.72599995 5.63732e-39
-0.058690492 -0.026928581 0.72499996 8.4827701e-39
-0.057309553 -0.026928598 0.7249999 9.5862141e-39
-0.055697173 -0.026817165 0.722 1.0690732e-38
-0.054171447 -0.026742872 0.71999997 7.2870603e-39
-0.052726705 -0.026705746 0.71899992 3.8866414e-39
-0.051142879 -0.026594307 0.71599996 4.4433997e-39
-0.049570478 -0.02648286 0.71300006 4.8810168e-39
-0.04807717 -0.0264086 0.71099997 2.5739737e-39
-0.046722889 -0.0264086 0.71099997 2.7917509e-40
-0.045177169 -0.026297167 0.70799994 7.4087771e-40
-0.0437667 -0.026260031 0.70699996 1.2003957e-39
-0.042420022 -0.02626002 0.70699996 1.3844086e-39
-0.04095716 -0.026185729 0.70499992 1.567372e-39
-0.039614297 -0.026185721 0.70499998 1.5673818e-39
-0.038217161 -0.026148587 0.704 1.4744715e-39
-0.036823817 -0.026111431 0.70299995 1.4744743e-39
-0.035383847 -0.026037181 0.70099998 1.3829877e-39
-0.034048587 -0.026037157 0.70099998 1.2911424e-39
-0.032666683 -0.026000017 0.69999999 1.1067539e-39
-0.031243823 -0.025925726 0.69799995 1.0145611e-39
-0.029785737 -0.025814308 0.69499999 8.3017826e-40
-0.028461937 -0.025814315 0.69499999 7.3727217e-40
-0.027099069 -0.025777167 0.69399995 6.45794e-40
-0.025740003 -0.025740003 0.69299996 7.3727077e-40
-0.024349542 -0.025665728 0.69099998 8.2910766e-40
-0.023033345 -0.025665725 0.69099998 8.2910906e-40
-0.021717165 -0.025665736 0.69099998 8.2910486e-40
-0.020371435 -0.02562858 0.69000006 1.1035323e-39
-0.019029532 -0.025591435 0.68900001 1.2872061e-39
-0.017717144 -0.025591427 0.68899995 1.0117039e-39
-0.016357142 -0.025517143 0.68700004 6.4472061e-40
-0.015026662 -0.025479997 0.68600005 6.4543947e-40
-0.013720004 -0.025480004 0.68599999 5.5361379e-40
-0.012377148 -0.025405722 0.68400002 5.5434106e-40
-0.011074301 -0.025405735 0.68399996 4.6179371e-40
-0.0097714365 -0.025405722 0.68399996 9.188244e-40
-0.0084685767 -0.025405722 0.68399996 1.2983815e-39
-0.0071657314 -0.025405733 0.68399996 5.4532399e-39
-0.0058628651 -0.025405724 0.68399996 9.5862281e-39
-0.0045533474 -0.025368584 0.68299997 8.4038784e-39
-0.003247635 -0.025331445 0.68199998 7.1877279e-39
-0.0019399929 -0.025220001 0.67899996 3.6782011e-39
-0.00064667268 -0.025220005 0.67899996 9.4050949e-41
0.00064666802 -0.025220001 0.67899996 3.6770772e-40
0.0019399882 -0.02522001 0.67899996 6.4358135e-40
0.0032285531 -0.025182871 0.67799997 5.521144e-40
0.004519979 -0.025182875 0.67799997 4.6062782e-40
0.00581139 -0.025182893 0.67799997 6.4464914e-40
0.0071028308 -0.025182879 0.67799997 7.3612591e-40
0.0084066764 -0.02521999 0.67900002 5.5209478e-40
0.010757142 -0.027968578 0.75300002 3.6878252e-40
0.012223799 -0.02804287 0.755 3.6878112e-40
0.013661887 -0.028042881 0.755 3.6878112e-40
0.015039967 -0.027931465 0.75199997 7.361231e-40
0.016428567 -0.027857145 0.75 1.0123471e-39
0.017857149 -0.027857142 0.75000006 7.372007e-40
0.019234277 -0.027782863 0.74799997 4.6097535e-40
0.020631418 -0.027745729 0.74699998 4.6097535e-40
0.022054285 -0.027745718 0.74700004 3.6913845e-40
0.023414288 -0.027671434 0.745 5.5280944e-40
0.02476668 -0.027597131 0.74300003 7.372007e-40
0.026146652 -0.027560016 0.74199998 6.4608547e-40
0.027485695 -0.027485734 0.74000001 5.5388984e-40
0.028739043 -0.027337149 0.73600006 9.2087309e-40
0.029977117 -0.027188603 0.73199999 1.196381e-39
0.031328566 -0.027151441 0.73099995 6.4393448e-40
0.032720953 -0.027151436 0.73099995 9.3707631e-41
0.034019992 -0.027077159 0.72899997 4.5058276e-39
0.035408571 -0.027077155 0.72899997 8.8555141e-39
0.036746636 -0.027040031 0.72799999 1.1351989e-38
0.03797619 -0.026928583 0.72499996 1.3827943e-38
0.039357118 -0.026928596 0.7249999 1.3366238e-38
0.040738076 -0.026928602 0.72499996 1.2919302e-38
0.042002853 -0.026854293 0.72300005 1.8081147e-38
0.043319985 -0.02681716 0.722 2.3133913e-38
-0.063613348 -0.025864771 0.73399997 1.840663e-39
-0.061706685 -0.025653346 0.72799999 3.4084147e-39
-0.060154315 -0.025582885 0.72600001 5.5372225e-39
-0.058690503 -0.025547637 0.72499996 7.6526605e-39
-0.057309549 -0.025547639 0.72499996 9.1291961e-39
-0.055774312 -0.025477163 0.72299999 1.0603923e-38
-0.054321934 -0.025441928 0.722 7.0104762e-39
-0.052726686 -0.025336208 0.71899998 3.3241364e-39
-0.051214308 -0.025265733 0.71699995 3.2297828e-39
-0.049640022 -0.02516002 0.71400005 3.1307628e-39
-0.048212402 -0.025124779 0.71300006 1.6567201e-39
-0.046722889 -0.025054319 0.71099997 2.7776258e-40
-0.045177151 -0.024948576 0.70799994 6.4726677e-40
-0.043828592 -0.024948593 0.70799994 1.107861e-39
-0.042420018 -0.024913348 0.70700002 1.2918711e-39
-0.040957157 -0.024842868 0.70499998 1.567379e-39
-0.03961429 -0.02484286 0.70499998 1.5670202e-39
-0.03821715 -0.024807625 0.704 1.5655839e-39
-0.036823817 -0.024772387 0.70299995 1.6581355e-39
-0.035383835 -0.024701929 0.70099998 1.7503227e-39
-0.034048576 -0.024701908 0.70099998 1.5662859e-39
-0.032666683 -0.024666682 0.69999999 1.290062e-39
-0.031243825 -0.024596203 0.69799995 1.106391e-39
-0.029785741 -0.024490498 0.69499999 1.0138436e-39
-0.028461933 -0.024490504 0.69499993 8.2981952e-40
-0.027099062 -0.024455255 0.69399995 7.3798403e-40
-0.025740007 -0.024420006 0.69299996 8.2946079e-40
-0.024349531 -0.024349529 0.69099998 8.2910346e-40
-0.023033353 -0.024349542 0.69099998 8.2946359e-40
-0.021717153 -0.024349533 0.69099998 8.2981812e-40
-0.020371456 -0.024314312 0.69000006 9.2093195e-40
-0.01902952 -0.024279045 0.68899995 1.1038883e-39
-0.017665731 -0.024208589 0.68699998 8.2838459e-40
-0.016357161 -0.024208589 0.68700004 6.447136e-40
-0.015026669 -0.024173336 0.68599999 5.5323544e-40
-0.013719996 -0.024173329 0.68600005 5.5361098e-40
-0.012377141 -0.024102855 0.68399996 6.4546189e-40
-0.011074298 -0.024102869 0.68399996 8.2913849e-40
-0.0097571602 -0.024067638 0.68300003 1.2004321e-39
-0.0084562115 -0.024067642 0.68299997 1.6678983e-39
-0.0071552652 -0.02406765 0.68299997 3.7005126e-39
-0.005854297 -0.024067635 0.68299997 5.8231392e-39
-0.004546681 -0.024032395 0.68200004 4.7049773e-39
-0.003247635 -0.024032397 0.68200004 3.6738809e-39
-0.0019399929 -0.023926662 0.67899996 1.9303405e-39
-0.00064667081 -0.023926672 0.67899996 1.8474859e-40
0.00064667175 -0.023926664 0.67899996 3.6877832e-40
0.0019399957 -0.023926672 0.67899996 5.5245491e-40
0.0032285475 -0.023891453 0.67799997 4.6062502e-40
0.0045199734 -0.023891453 0.67799997 4.6062362e-40
0.0058114161 -0.02389144 0.67799997 4.6062082e-40
0.0071028252 -0.023891464 0.67799997 5.5173745e-40
0.0083942506 -0.023891462 0.67799997 3.6878252e-40
0.010757135 -0.026534297 0.75300002 2.7730576e-40
0.012223801 -0.026604775 0.755 3.6914125e-40
0.013661901 -0.026604768 0.755 3.6842239e-40
0.015060004 -0.026534285 0.75300002 5.5280804e-40
0.016472362 -0.026499072 0.75199997 7.361217e-40
0.017857142 -0.026428571 0.75000006 5.5280944e-40
0.019285703 -0.026428582 0.75 4.6097395e-40
0.020631414 -0.026322873 0.74699998 3.6949718e-40
0.022054283 -0.026322862 0.74700004 2.7802042e-40
0.023414284 -0.026252391 0.745 4.6169141e-40
0.02483334 -0.026252376 0.745 6.4536661e-40
0.026181918 -0.026181893 0.74300003 6.4536941e-40
0.027559981 -0.026146686 0.74199998 7.372035e-40
0.028778095 -0.025970479 0.73699999 9.2123043e-40
0.030059028 -0.025864784 0.73399997 1.1056189e-39
0.031371415 -0.025794301 0.73199999 6.4428761e-40
0.032720953 -0.025759052 0.73099995 9.2265695e-41
0.034113325 -0.025759062 0.73099995 4.4233079e-39
0.035408564 -0.025688581 0.72899997 8.7719392e-39
0.036746658 -0.025653342 0.72799999 1.1262337e-38
0.038028553 -0.025582884 0.72599995 1.3749762e-38
0.039411414 -0.025582872 0.72600001 1.2634079e-38
0.040738076 -0.025547639 0.72499996 1.1621396e-38
0.042119034 -0.025547639 0.72499996 1.3375257e-38
0.043319993 -0.025441915 0.722 1.5129138e-38
0.044695236 -0.025441907 0.722 1.8537494e-38
-0.063613348 -0.024466679 0.73400003 2.0207481e-39
-0.061706696 -0.02426669 0.72799999 3.9612129e-39
-0.060320038 -0.024266694 0.72799999 5.3578381e-39
-0.058933355 -0.024266681 0.72799999 6.7378872e-39
-0.057546709 -0.024266705 0.72799999 8.6732542e-39
-0.05592861 -0.024166694 0.72499996 1.0508858e-38
-0.054397166 -0.024100022 0.72300005 6.6434888e-39
-0.052800022 -0.024000019 0.71999997 2.7727507e-39
-0.051214296 -0.023900008 0.71699995 2.0208321e-39
-0.04964003 -0.023800027 0.71400005 1.2886565e-39
-0.048212398 -0.023766682 0.713 8.2839861e-40
-0.046854302 -0.02376668 0.71300006 2.781045e-40
-0.045177147 -0.023600003 0.70799994 6.4580802e-40
-0.043828592 -0.023600021 0.70799994 9.2309836e-40
-0.042420026 -0.023566691 0.70699996 1.2915081e-39
-0.040957153 -0.023500009 0.70499998 1.567372e-39
-0.039614309 -0.023500016 0.70499998 1.5680894e-39
-0.038217176 -0.023466697 0.704 1.5666517e-39
-0.03682382 -0.023433343 0.70299995 1.8421554e-39
-0.035383839 -0.023366695 0.70099998 2.1172919e-39
-0.034000006 -0.023333339 0.70000005 1.8410568e-39
-0.032573342 -0.023266671 0.69799995 1.4737246e-39
-0.031199068 -0.02323335 0.69700003 1.2904221e-39
-0.029785756 -0.023166707 0.69499999 1.1060463e-39
-0.028461933 -0.023166694 0.69499999 1.0138647e-39
-0.027099054 -0.023133341 0.69399995 8.3018526e-40
-0.025739994 -0.023099992 0.69300002 8.2910206e-40
-0.024349539 -0.023033347 0.69099998 8.2946219e-40
-0.023033341 -0.023033341 0.69099998 8.2910626e-40
-0.021685738 -0.023000022 0.69000006 8.2982092e-40
-0.020371456 -0.023000026 0.69000006 8.2945799e-40
-0.019029517 -0.022966662 0.68900001 8.283874e-40
-0.017665733 -0.022900017 0.68700004 7.3619877e-40
-0.016357159 -0.022900017 0.68699998 5.5288651e-40
-0.015026662 -0.022866661 0.68600005 5.5252638e-40
-0.013720002 -0.02286667 0.68599999 5.5290193e-40
-0.012377154 -0.022800015 0.68399996 8.2770917e-40
-0.011074311 -0.022800026 0.68399996 1.1068016e-39
-0.0097571667 -0.022766693 0.68299997 1.5695664e-39
-0.0084562004 -0.022766678 0.68299997 2.0327011e-39
-0.0071552522 -0.022766685 0.68300003 2.0406031e-39
-0.0058543063 -0.022766689 0.68299997 1.9437313e-39
-0.0045466661 -0.022733333 0.68200004 1.1024884e-39
-0.0032381094 -0.022666683 0.68000001 1.8408297e-40
-0.0019428707 -0.022666678 0.67999995 2.7586802e-40
-0.00064666709 -0.022633333 0.67900002 2.7694562e-40
0.00064667547 -0.022633329 0.67899996 3.6986012e-40
0.0019399975 -0.022633333 0.67899996 3.6914265e-40
0.0032285382 -0.022600034 0.67799997 3.6878532e-40
0.0045199641 -0.022600031 0.67799997 3.6914265e-40
0.0058114086 -0.022600017 0.67799997 3.6878252e-40
0.0071028345 -0.022600019 0.67799997 2.7730435e-40
0.0093847532 -0.025266679 0.75799996 2.7730435e-40
0.010785696 -0.025166685 0.755 1.8618632e-40
0.012223799 -0.025166681 0.755 2.7802182e-40
0.013661898 -0.025166674 0.755 3.6949858e-40
0.015059998 -0.025100008 0.75300002 3.6985872e-40
0.016472343 -0.025066709 0.75199997 3.6950139e-40
0.01785714 -0.025000004 0.75000006 4.6097955e-40
0.019285703 -0.025000012 0.75 4.6133548e-40
0.020659031 -0.024933347 0.74799997 3.7021605e-40
0.022054262 -0.024900025 0.74700004 1.8654365e-40
0.02341428 -0.024833346 0.745 3.7021465e-40
0.02483332 -0.024833351 0.745 4.6169421e-40
0.026181908 -0.024766661 0.74299997 6.4501068e-40
0.027559957 -0.024733372 0.74199998 8.290376e-40
0.028856168 -0.024633361 0.73899996 9.2087029e-40
0.030140948 -0.024533343 0.73600006 1.0127058e-39
0.031457126 -0.02446668 0.73399997 5.5209338e-40
0.032765698 -0.024400016 0.73199999 9.4055153e-41
0.034113325 -0.024366681 0.73099995 4.4154102e-39
0.035408564 -0.024300015 0.72899997 8.6721864e-39
0.036797121 -0.024300024 0.72899997 1.117512e-38
0.038133308 -0.024266697 0.72800004 1.3552418e-38
0.039411418 -0.024200011 0.72600001 1.1982942e-38
0.040794268 -0.024200018 0.72600001 1.0327392e-38
0.042119041 -0.024166675 0.72499996 8.7604486e-39
0.043319985 -0.024066685 0.722 7.1210891e-39
0.044695228 -0.024066677 0.722 1.3838044e-38
-0.060320031 -0.02288002 0.72799999 4.5230495e-39
-0.058933362 -0.022880027 0.72799999 6.5531344e-39
-0.057388596 -0.022817161 0.72600001 8.0282589e-39
-0.055928614 -0.022785751 0.72499996 9.5022567e-39
-0.054397166 -0.022722872 0.72300005 6.9179134e-39
-0.052946687 -0.022691445 0.722 4.33681e-39
-0.051214304 -0.022534302 0.71699995 2.7619509e-39
-0.049779061 -0.022502868 0.71599996 1.1028177e-39
-0.048415255 -0.022502871 0.71600002 1.0124199e-39
-0.046920009 -0.022440007 0.71399999 8.2946079e-40
-0.045304783 -0.022314303 0.70999998 9.2128928e-40
-0.043828592 -0.022251448 0.70799994 9.2236688e-40
-0.042420022 -0.022220021 0.70700002 1.1071155e-39
-0.040957153 -0.022157149 0.70499998 1.2918599e-39
-0.03955812 -0.022125736 0.704 1.475528e-39
-0.038217168 -0.022125736 0.70400006 1.7499555e-39
-0.03682382 -0.022094294 0.70300001 2.1180108e-39
-0.035383828 -0.022031443 0.70099998 2.4839024e-39
-0.034000006 -0.022000004 0.70000005 2.0247081e-39
-0.032573339 -0.021937151 0.69799995 1.5648342e-39
-0.03119906 -0.021905728 0.69700003 1.2904235e-39
-0.029785741 -0.021842876 0.69499999 1.1060547e-39
-0.028420957 -0.021811429 0.69399995 1.0145961e-39
-0.027060006 -0.021780003 0.69299996 9.2274523e-40
-0.025665727 -0.021717155 0.69099998 9.2201235e-40
-0.024314303 -0.021685727 0.69 1.0142108e-39
-0.023000021 -0.021685731 0.69 9.2166062e-40
-0.021685738 -0.021685736 0.69000006 9.2201655e-40
-0.02034191 -0.021654295 0.68899995 1.0127731e-39
-0.019029528 -0.021654291 0.68899995 1.1953763e-39
-0.017665731 -0.021591442 0.68700004 9.2023691e-40
-0.016357157 -0.02159144 0.68699998 7.3692465e-40
-0.0150486 -0.02159146 0.68699998 7.3656451e-40
-0.013680016 -0.02149716 0.68399996 8.2913569e-40
-0.012359068 -0.021465736 0.68299997 1.1057366e-39
-0.01105812 -0.021465739 0.68299997 1.3837486e-39
-0.0097428672 -0.021434294 0.68200004 1.4762946e-39
-0.0084438156 -0.021434296 0.68200004 1.5673972e-39
-0.0071447673 -0.021434292 0.68200004 1.4773385e-39
-0.0058457158 -0.021434287 0.68200004 1.3797269e-39
-0.0045466642 -0.021434285 0.68200004 8.2760127e-40
-0.0032381131 -0.021371448 0.67999995 2.7622816e-40
-0.0019428763 -0.021371447 0.67999995 2.7658549e-40
-0.00064666336 -0.021339998 0.67900002 2.7658969e-40
0.00064665871 -0.021340007 0.67900002 3.6914686e-40
0.0019400013 -0.02134 0.67900002 4.6133688e-40
0.003228555 -0.021308592 0.67799997 3.6949718e-40
0.0045199753 -0.021308593 0.67799997 3.6949718e-40
0.0058114049 -0.021308595 0.67799997 3.6913705e-40
0.0071028289 -0.021308601 0.67799997 3.6985451e-40
0.008394273 -0.021308584 0.67799997 3.7021325e-40
0.010785713 -0.023728576 0.755 4.6348507e-40
0.012223812 -0.02372857 0.755 4.6240888e-40
0.01366188 -0.0237286 0.755 4.6169421e-40
0.015059989 -0.023665722 0.75300002 4.6169702e-40
0.01647236 -0.023634307 0.75199997 4.6134109e-40
0.017857157 -0.023571417 0.75000006 4.6098516e-40
0.01928572 -0.02357143 0.75 4.6062222e-40
0.020659044 -0.023508575 0.74799997 4.6205154e-40
0.022054264 -0.023477165 0.74700004 3.7057338e-40
0.023477118 -0.023477172 0.74699998 4.6204874e-40
0.024833333 -0.023414291 0.745 5.5317098e-40
0.026181901 -0.023351433 0.74299997 6.4536801e-40
0.027597148 -0.023351429 0.74299997 7.372007e-40
0.028895229 -0.023257148 0.74000001 9.2086889e-40
0.030181877 -0.023162885 0.73699999 1.1970928e-39
0.03154286 -0.023131421 0.73600006 6.4428621e-40
0.032855242 -0.023068568 0.73399997 1.8409418e-40
0.034159981 -0.023005739 0.73199999 3.9623241e-39
0.035505719 -0.022974286 0.73099995 7.8467179e-39
0.036797121 -0.022911454 0.72899997 9.6881292e-39
0.038185716 -0.022911431 0.72899997 1.1608047e-38
0.039519977 -0.022880029 0.72799999 1.0966974e-38
0.040906653 -0.022880012 0.72799999 1.022976e-38
0.042177137 -0.022817152 0.72600001 9.7698459e-39
0.043379985 -0.022722878 0.72300005 9.3071385e-39
0.044757128 -0.022722879 0.72300005 1.2724481e-38
-0.058933362 -0.021493357 0.72800004 6.3647705e-39
-0.057388596 -0.021434302 0.72599995 7.4754018e-39
-0.055928588 -0.021404771 0.72499996 8.4834245e-39
-0.054397158 -0.021345725 0.72300005 7.1894613e-39
-0.053020019 -0.021345729 0.72299999 5.8965771e-39
-0.051357169 -0.021227641 0.71899998 3.4040917e-39
-0.049779065 -0.021139061 0.71600002 9.2201515e-40
-0.048415255 -0.021139061 0.71599996 1.1964384e-39
-0.046920016 -0.021080013 0.71399999 1.3800954e-39
-0.04530476 -0.020961897 0.71000004 1.1956915e-39
-0.043828592 -0.020902874 0.70799994 9.2199133e-40
-0.042420033 -0.020873358 0.70699996 1.0149156e-39
-0.041073356 -0.020873349 0.70700002 1.0152758e-39
-0.03961432 -0.020814318 0.70499992 1.4751721e-39
-0.038162876 -0.020755248 0.70299995 1.8432316e-39
-0.03682382 -0.020755246 0.70299995 2.3960396e-39
-0.035383832 -0.02069621 0.70099998 2.8526962e-39
-0.034000017 -0.020666685 0.69999999 2.2084015e-39
-0.032573346 -0.020607628 0.69799995 1.5659244e-39
-0.031199057 -0.020578103 0.69700003 1.2915067e-39
-0.029742893 -0.020489557 0.69399995 1.0149254e-39
-0.028420966 -0.020489538 0.69400001 1.015287e-39
-0.02706001 -0.02046001 0.69299996 9.2237248e-40
-0.025665732 -0.020400969 0.69099998 1.0142066e-39
-0.024314322 -0.020371461 0.69000006 1.1056932e-39
-0.023000021 -0.020371448 0.69000006 1.0135087e-39
-0.021685738 -0.020371452 0.69000006 9.2165362e-40
-0.020341907 -0.020341909 0.68900001 1.2875411e-39
-0.01902952 -0.020341905 0.68900001 1.5630644e-39
-0.017665725 -0.02028287 0.68699998 1.1957406e-39
-0.016333338 -0.02025334 0.68599999 8.2874613e-40
-0.014982856 -0.020194279 0.68399996 9.1985435e-40
-0.013680009 -0.020194294 0.68399996 1.0131612e-39
-0.012359057 -0.020164771 0.68299997 1.2904992e-39
-0.011058109 -0.020164778 0.68300003 1.5670651e-39
-0.0097428504 -0.020135231 0.68200004 1.2929767e-39
-0.0084438156 -0.020135244 0.68200004 1.0145793e-39
-0.0071447673 -0.020135241 0.68200004 9.2092915e-40
-0.0058457158 -0.020135239 0.68200004 8.2834676e-40
-0.0045333537 -0.020076213 0.67999995 6.4428761e-40
-0.0032380982 -0.020076193 0.67999995 3.6842098e-40
-0.0019400003 -0.020046666 0.67900002 2.7694422e-40
-0.00064665964 -0.020046663 0.67900002 1.8511153e-40
0.00064665871 -0.020046672 0.67900002 3.6842659e-40
0.0019400031 -0.020046664 0.67900002 4.6097675e-40
0.0036237934 -0.022467637 0.76100004 4.6169281e-40
0.0050666514 -0.022438111 0.75999999 3.6914265e-40
0.0065142908 -0.02243809 0.76000005 4.6062362e-40
0.0079618962 -0.022438103 0.76000005 4.6097815e-40
0.0093599632 -0.022320041 0.75599992 5.5352691e-40
0.01079998 -0.022320023 0.75599998 6.4607987e-40
0.012239981 -0.022320023 0.75599992 5.546031e-40
0.013661895 -0.022290491 0.755 4.6169281e-40
0.015060003 -0.022231428 0.75299996 4.6133548e-40
0.016472362 -0.022201926 0.75199997 4.6134249e-40
0.017904734 -0.022201931 0.75199997 4.6063343e-40
0.019285716 -0.022142861 0.75 4.6170122e-40
0.020659035 -0.022083825 0.74799997 5.5424577e-40
0.022083804 -0.022083821 0.74799997 5.5388564e-40
0.023477118 -0.022054316 0.74699998 6.453624e-40
0.024899988 -0.022054305 0.74700004 6.4537081e-40
0.026252385 -0.021995237 0.745 6.4573795e-40
0.027597155 -0.02193618 0.74300003 5.5353812e-40
0.028973304 -0.021906696 0.74199998 9.2015703e-40
0.030304743 -0.021847639 0.74000001 1.2882235e-39
0.031585705 -0.021759061 0.73699999 7.3614132e-40
0.032944761 -0.021729527 0.73600006 1.8553192e-40
0.034393322 -0.021759067 0.73699999 3.5867201e-39
0.035748564 -0.021729536 0.73600006 6.9172282e-39
0.03694855 -0.021611452 0.73199999 8.3055591e-39
