# .PCD v0.7 - Point Cloud Data file format
VERSION 0.7
FIELDS x y z rgb
SIZE 4 4 4 4
TYPE F F F F
COUNT 1 1 1 1
WIDTH 946
HEIGHT 1
VIEWPOINT 0 0 0 1 0 0 0
POINTS 946
DATA ascii
-0.00075523602 -0.08836285 0.79300004 2.3913425e-39
0.00075715035 -0.088585682 0.79500002 2.6686314e-39
0.0022714334 -0.088585697 0.79499996 2.8483633e-39
0.0037857164 -0.088585712 0.79500002 3.314005e-39
0.005300004 -0.088585697 0.79500002 3.7670882e-39
0.0068142884 -0.088585705 0.79499996 3.0359958e-39
0.0083285691 -0.088585719 0.79500002 2.3920907e-39
0.0098676225 -0.088808559 0.79699999 2.3006336e-39
0.011385712 -0.088808596 0.79700005 2.2102499e-39
0.01290381 -0.088808596 0.79700005 2.3953712e-39
0.014385716 -0.088585727 0.79500002 2.671249e-39
0.015900005 -0.088585712 0.79500002 2.9507142e-39
-0.014349522 -0.086852372 0.79300004 5.5284307e-40
-0.012839044 -0.086852372 0.79299998 1.8730876e-40
-0.011328564 -0.086852342 0.79300004 1.6595606e-39
-0.0098180929 -0.086852372 0.79300004 3.1310795e-39
-0.0083076162 -0.086852372 0.79300004 3.9619024e-39
-0.0067971386 -0.086852372 0.79300004 4.7880715e-39
-0.0052866563 -0.086852342 0.79300004 4.3321324e-39
-0.0037761866 -0.086852372 0.79300004 3.869355e-39
-0.002265709 -0.086852364 0.79300004 4.2366858e-39
-0.00075523229 -0.086852357 0.79300004 4.510393e-39
0.00075714523 -0.087071419 0.79500002 4.0519274e-39
0.0022714301 -0.087071419 0.79499996 3.5895199e-39
0.0037952396 -0.087290481 0.79700005 3.4994767e-39
0.0053000012 -0.087071426 0.79500002 3.314012e-39
0.0068142889 -0.087071419 0.79500002 2.5775358e-39
0.0083495257 -0.087290481 0.79700005 1.841068e-39
0.0098676188 -0.087290488 0.79699999 1.7485248e-39
0.011385715 -0.087290496 0.79700005 1.6574194e-39
0.01290381 -0.087290496 0.79700005 1.5655951e-39
0.014421904 -0.087290488 0.79699999 1.3819325e-39
0.015940011 -0.087290466 0.79699999 2.0219181e-39
-0.015899997 -0.085557133 0.79500002 1.0123583e-39
-0.014385714 -0.08555714 0.79500002 8.2939073e-40
-0.012839047 -0.085341915 0.79300004 7.3937972e-40
-0.011328566 -0.085341886 0.79300004 2.1201702e-39
-0.0098180892 -0.085341871 0.79300004 3.5012942e-39
-0.0083285663 -0.085557118 0.79500002 3.962987e-39
-0.0067971423 -0.085341901 0.79300004 4.5161663e-39
-0.0052999994 -0.085557148 0.79500002 4.2410312e-39
-0.0037857108 -0.085557133 0.79500002 3.965152e-39
-0.0022714268 -0.08555714 0.79499996 4.0558973e-39
-0.00075713731 -0.085557133 0.79499996 4.2392095e-39
0.0007571429 -0.085557148 0.79500002 3.7778782e-39
0.0022771419 -0.08577241 0.79700005 3.4076566e-39
0.0037952433 -0.08577238 0.79700005 3.0417397e-39
0.0053133382 -0.08577238 0.79699999 2.6769075e-39
0.0068314266 -0.08577241 0.79700005 2.0272403e-39
0.0083495276 -0.085772388 0.79700005 1.3811632e-39
0.0098676225 -0.08577238 0.79700005 1.3811632e-39
0.011385716 -0.08577238 0.79699999 1.4722896e-39
0.01290381 -0.085772395 0.79700005 1.3811786e-39
0.014421905 -0.085772388 0.79700005 1.2889872e-39
0.015940003 -0.085772388 0.79699999 1.6559732e-39
0.017480012 -0.085879982 0.79800004 2.0218831e-39
0.019000012 -0.085879982 0.79800004 1.1081945e-39
-0.015940003 -0.084254302 0.79699999 1.0137918e-39
-0.014385718 -0.084042877 0.79500002 1.1970999e-39
-0.01287143 -0.084042862 0.79500002 1.2911074e-39
-0.011357141 -0.084042847 0.79499996 2.5796952e-39
-0.0098428586 -0.084042862 0.79500002 3.7778684e-39
-0.0083285701 -0.084042847 0.79500002 3.964775e-39
-0.0068142856 -0.084042862 0.79499996 4.1491733e-39
-0.0052999971 -0.084042847 0.79499996 4.1502593e-39
-0.0037952354 -0.084254287 0.79699999 4.0573392e-39
-0.0022714254 -0.084042847 0.79500002 3.9658554e-39
-0.00075713685 -0.08404284 0.79500002 3.8722319e-39
0.00075905398 -0.084254272 0.79700005 3.5038193e-39
0.0022771442 -0.084254302 0.79700005 3.1343053e-39
0.0037952391 -0.084254302 0.79700005 2.5832741e-39
0.0053133387 -0.084254272 0.79700005 2.0290297e-39
0.0068314271 -0.08425431 0.79700005 1.472633e-39
0.0083495239 -0.08425431 0.79700005 9.2125705e-40
0.0098676225 -0.08425428 0.79700005 1.106e-39
0.011385717 -0.08425428 0.79699999 1.1971237e-39
0.012903809 -0.084254317 0.79700005 1.1971293e-39
0.014421907 -0.084254287 0.79700005 1.1063714e-39
0.015960004 -0.084359989 0.79800004 1.2914801e-39
0.017480005 -0.084359996 0.79800004 1.3808185e-39
0.019000009 -0.084359981 0.79799998 9.1986276e-40
0.020520013 -0.084359981 0.79800004 3.7138753e-40
-0.018833332 -0.082113326 0.79099995 1.1038266e-39
-0.017458098 -0.082736202 0.79700005 1.0137834e-39
-0.015940001 -0.082736202 0.79700005 1.0152253e-39
-0.014421907 -0.082736202 0.79699999 1.3822142e-39
-0.012903812 -0.082736209 0.79700005 1.7506422e-39
-0.011385717 -0.082736209 0.79700005 2.9488182e-39
-0.0098428493 -0.082528539 0.79500002 4.2395486e-39
-0.008349522 -0.082736179 0.79699999 4.0566049e-39
-0.0068142833 -0.082528569 0.79500002 3.8729395e-39
-0.0053133303 -0.082736187 0.79700005 3.7811096e-39
-0.0037952354 -0.082736187 0.79699999 3.7800334e-39
-0.0022771414 -0.082736194 0.79700005 3.5048843e-39
-0.00075904652 -0.082736194 0.79700005 3.3201483e-39
0.00075905118 -0.082736194 0.79699999 3.0442943e-39
0.0022771508 -0.082736164 0.79699999 2.7673262e-39
0.0037952391 -0.082736202 0.79700005 2.1219386e-39
0.0053133341 -0.082736202 0.79700005 1.5662593e-39
0.0068314355 -0.082736172 0.79700005 1.1049252e-39
0.0083495257 -0.082736209 0.79700005 6.4394569e-40
0.0098676188 -0.082736202 0.79700005 7.3684898e-40
0.011385719 -0.082736179 0.79700005 9.208829e-40
0.012903814 -0.082736179 0.79699999 9.219619e-40
0.014421902 -0.082736209 0.79700005 1.014875e-39
0.015960013 -0.082839973 0.79800004 1.1070692e-39
0.017480008 -0.082839996 0.79800004 1.1982139e-39
0.019047625 -0.083047614 0.80000001 1.0124171e-39
0.020571433 -0.083047621 0.80000001 7.3546309e-40
-0.018928567 -0.081014261 0.79499996 9.2087169e-40
-0.017458102 -0.081218123 0.79700005 9.2158916e-40
-0.015940001 -0.081218101 0.79700005 9.2267236e-40
-0.014439995 -0.081319988 0.79800004 1.5662453e-39
-0.01290381 -0.081218094 0.79699999 2.2116161e-39
-0.011385716 -0.081218109 0.79700005 3.40836e-39
-0.0098676207 -0.081218109 0.79700005 4.6061746e-39
-0.0083495257 -0.081218101 0.79699999 4.1491579e-39
-0.0068314299 -0.081218109 0.79700005 3.5970715e-39
-0.005313335 -0.081218109 0.79700005 3.5052402e-39
-0.0037952391 -0.081218109 0.79699999 3.4126858e-39
-0.0022771396 -0.081218079 0.79699999 3.1364619e-39
-0.00075905025 -0.081218116 0.79700005 2.7691213e-39
0.00075905118 -0.081218094 0.79700005 2.5861692e-39
0.0022771461 -0.081218094 0.79699999 2.3074117e-39
0.0037952396 -0.081218101 0.79700005 1.6620311e-39
0.0053133364 -0.081218101 0.79700005 1.014875e-39
0.0068314313 -0.081218101 0.79700005 7.3613712e-40
0.0083495304 -0.081218071 0.79699999 3.6879093e-40
0.0098676188 -0.081218109 0.79700005 4.6062362e-40
0.011385715 -0.081218101 0.79700005 5.5353672e-40
0.012920006 -0.081319988 0.79800004 7.3792798e-40
0.014440002 -0.08132001 0.79800004 8.31197e-40
0.015960006 -0.081320003 0.79800004 9.2410729e-40
0.017523816 -0.081523806 0.80000001 1.0145247e-39
0.019095242 -0.081727639 0.80200005 1.1045833e-39
0.020622861 -0.081727639 0.80200005 1.1035029e-39
0.022150477 -0.081727639 0.80200005 6.4324504e-40
0.023678096 -0.081727631 0.80200005 9.339374e-41
-0.020391427 -0.079299986 0.79300004 1.1049014e-39
-0.018976185 -0.079699993 0.79700005 1.0119897e-39
-0.0174581 -0.079700023 0.79700005 9.2122902e-40
-0.015959997 -0.079799987 0.79799998 9.2267236e-40
-0.014439996 -0.079799987 0.79800004 1.5673229e-39
-0.012919997 -0.07979998 0.79800004 2.2123378e-39
-0.011385718 -0.07970003 0.79700005 3.0428159e-39
-0.0098799933 -0.079799972 0.79799998 3.8729283e-39
-0.0083599938 -0.079799965 0.79800004 3.5970673e-39
-0.0068314341 -0.079700038 0.79700005 3.4123229e-39
-0.0053199967 -0.079799987 0.79800004 3.2290121e-39
-0.0037999963 -0.079799987 0.79800004 3.1371752e-39
-0.002277141 -0.079700008 0.79699999 2.7691143e-39
-0.00075904792 -0.079700015 0.79700005 2.400329e-39
0.00075904699 -0.079700008 0.79700005 2.0319024e-39
0.0022771438 -0.079700015 0.79699999 1.7542281e-39
0.003800001 -0.079799995 0.79800004 1.1999697e-39
0.0053133317 -0.079700023 0.79700005 6.4536801e-40
0.0068314266 -0.079700023 0.79699999 5.5281224e-40
0.0083495285 -0.079700001 0.79699999 3.6842659e-40
0.0098800017 -0.079799995 0.79800004 3.6914546e-40
0.011400004 -0.079800002 0.79800004 3.6986292e-40
0.012920011 -0.079799965 0.79800004 6.4644561e-40
0.01444001 -0.079799965 0.79800004 8.3083126e-40
0.015960008 -0.07979998 0.79800004 9.2302269e-40
0.017523823 -0.079999968 0.79999995 9.2231223e-40
0.019095244 -0.080200031 0.80200005 9.2124304e-40
0.020622857 -0.080200031 0.80200005 1.0127254e-39
0.022205725 -0.08039999 0.80400002 6.4431143e-40
0.023678102 -0.080200002 0.80200005 3.6777779e-40
0.025205718 -0.080199994 0.80200005 2.1177235e-39
-0.020391423 -0.0777895 0.79299998 1.013782e-39
-0.018976191 -0.078181915 0.79700005 1.0127058e-39
-0.017458092 -0.078181893 0.79700005 9.197955e-40
-0.01596 -0.078279994 0.79800004 8.301208e-40
-0.014439999 -0.078279994 0.79800004 1.4754874e-39
-0.012919998 -0.078279987 0.79799998 2.1222903e-39
-0.011399996 -0.078279987 0.79800004 2.6769005e-39
-0.0098799961 -0.078279987 0.79800004 3.1371583e-39
-0.0083599957 -0.07827998 0.79800004 3.1375227e-39
-0.006839999 -0.078280002 0.79800004 3.1364437e-39
-0.005319993 -0.078279965 0.79800004 2.9524126e-39
-0.0037999973 -0.078279987 0.79800004 2.7694548e-39
-0.0022771428 -0.078181908 0.79699999 2.4028261e-39
-0.00075905351 -0.078181937 0.79700005 2.0308164e-39
0.00076000486 -0.078279972 0.79799998 1.569841e-39
0.0022800043 -0.078279972 0.79800004 1.1077825e-39
0.0038000001 -0.078279994 0.79800004 7.3791957e-40
0.0053200023 -0.078279994 0.79800004 2.7802322e-40
0.0068400037 -0.078279987 0.79800004 3.6949858e-40
0.0083600106 -0.078279957 0.79800004 3.6914125e-40
0.0098800054 -0.07827998 0.79800004 2.7694842e-40
0.011400006 -0.07827998 0.79800004 1.8618913e-40
0.012920002 -0.078280002 0.79800004 5.5460871e-40
0.014440001 -0.078279994 0.79800004 8.3083827e-40
0.015960012 -0.078279957 0.79800004 8.3155994e-40
0.017523816 -0.078476198 0.80000001 8.3048234e-40
0.019095248 -0.078672364 0.80199999 8.2904601e-40
0.020622863 -0.078672387 0.80199999 8.2904881e-40
0.022150483 -0.078672387 0.80200005 7.3685878e-40
0.023678098 -0.078672387 0.80200005 6.4397091e-40
0.02520572 -0.078672387 0.80200005 3.6777078e-40
0.026733335 -0.078672409 0.80200005 1.0346627e-40
-0.021957139 -0.076471403 0.79500002 7.3791817e-40
-0.020494286 -0.076663807 0.79700005 6.45361e-40
-0.018976189 -0.076663814 0.79700005 6.453638e-40
-0.017479995 -0.076759979 0.79799998 6.4500787e-40
-0.015959995 -0.076759979 0.79800004 6.4465615e-40
-0.014439994 -0.076759972 0.79800004 1.1081454e-39
-0.01292 -0.076759994 0.79800004 1.6645436e-39
-0.011399998 -0.076759994 0.79800004 2.2169957e-39
-0.0098799961 -0.076759987 0.79799998 2.860926e-39
-0.0083599957 -0.076759979 0.79800004 2.5854251e-39
-0.0068399934 -0.076759979 0.79800004 2.4010296e-39
-0.0053199939 -0.076759979 0.79800004 2.2166342e-39
-0.0037999982 -0.076760001 0.79800004 1.9421969e-39
-0.0022799913 -0.076759964 0.79800004 1.6627373e-39
-0.00075999647 -0.076759987 0.79800004 1.2910919e-39
0.00076000486 -0.076759987 0.79800004 1.1063448e-39
0.0022800034 -0.076759979 0.79800004 9.2015703e-40
0.0037999991 -0.076760001 0.79800004 5.5316817e-40
0.0053200079 -0.076759972 0.79800004 2.7766169e-40
0.0068400074 -0.076759964 0.79800004 2.7766169e-40
0.008360005 -0.076759994 0.79800004 3.6949718e-40
0.0098800054 -0.076759994 0.79800004 3.6949718e-40
0.011400004 -0.076759987 0.79800004 2.7802322e-40
0.012952384 -0.076952368 0.80000001 5.5460731e-40
0.014476191 -0.076952375 0.80000001 7.3936711e-40
0.015999999 -0.076952383 0.80000001 7.3902099e-40
0.017567623 -0.077144757 0.80199999 6.4645822e-40
0.019095246 -0.077144757 0.80200005 6.4608828e-40
0.020622866 -0.077144757 0.80200005 7.3720911e-40
0.022150476 -0.077144779 0.80200005 6.4465755e-40
0.023678096 -0.077144779 0.80200005 5.5174445e-40
0.025205715 -0.077144779 0.80200005 3.6807206e-40
0.026666671 -0.076952383 0.80000001 2.7592968e-40
0.028190484 -0.076952368 0.79999995 3.5989198e-39
-0.025080003 -0.075240001 0.79800004 1.8618772e-40
-0.023530478 -0.075145729 0.79700005 2.7802462e-40
-0.022012383 -0.075145729 0.79699999 3.6949858e-40
-0.02049429 -0.075145736 0.79700005 3.6841958e-40
-0.018976191 -0.075145736 0.79700005 2.7730435e-40
-0.017479997 -0.075239986 0.79800004 3.6950139e-40
-0.01596 -0.075240009 0.79800004 4.6205715e-40
-0.01444 -0.075240009 0.79800004 8.3155573e-40
-0.012919994 -0.075239971 0.79800004 1.1106537e-39
-0.011399993 -0.075239971 0.79800004 1.849288e-39
-0.0098799961 -0.075239994 0.79800004 2.4910631e-39
-0.0083599966 -0.075239986 0.79800004 2.1251588e-39
-0.006839999 -0.075240016 0.79800004 1.6634674e-39
-0.005319993 -0.075239979 0.79800004 1.387242e-39
-0.0037999926 -0.075239979 0.79800004 1.1095762e-39
-0.0022799969 -0.075240001 0.79800004 8.3047673e-40
-0.00075999741 -0.075240001 0.79800004 5.5389405e-40
0.00076001044 -0.075239964 0.79800004 6.4393448e-40
0.0022800043 -0.075239986 0.79800004 6.4428901e-40
0.0038000047 -0.075239986 0.79800004 4.6061521e-40
0.005320007 -0.075239979 0.79800004 1.8546746e-40
0.0068400018 -0.075240001 0.79800004 2.7694422e-40
0.0083600087 -0.075239971 0.79800004 3.6913845e-40
0.0098800035 -0.075239994 0.79799998 3.6913845e-40
0.011428577 -0.07542856 0.80000001 3.6985591e-40
0.012952386 -0.075428568 0.80000001 5.5424577e-40
0.014476194 -0.075428575 0.80000001 6.4680574e-40
0.016040005 -0.075617149 0.80199999 5.5497585e-40
0.017567622 -0.075617149 0.80200005 4.6313475e-40
0.019095244 -0.075617149 0.80200005 5.5460731e-40
0.020622859 -0.075617172 0.80200005 5.5353111e-40
0.022150477 -0.075617172 0.80200005 4.6097955e-40
0.023678103 -0.075617142 0.80199999 3.6914405e-40
0.025142867 -0.075428545 0.80000001 3.6914265e-40
0.026666671 -0.075428553 0.80000001 3.6952801e-40
0.028120009 -0.075240001 0.79800004 2.7807647e-40
0.029640011 -0.075240001 0.79800004 1.1065634e-40
-0.028190475 -0.073904738 0.80000001 3.6985591e-40
-0.026666664 -0.073904753 0.80000001 2.7802042e-40
-0.02514286 -0.07390476 0.80000001 2.7837915e-40
-0.023559999 -0.073719986 0.79800004 2.7766169e-40
-0.022012383 -0.073627621 0.79699999 3.6842098e-40
-0.020520002 -0.073720001 0.79800004 2.7658409e-40
-0.018999994 -0.073719963 0.79799998 1.8475139e-40
-0.017479992 -0.073719963 0.79800004 2.7730716e-40
-0.015959997 -0.073719986 0.79800004 3.6914265e-40
-0.014439996 -0.073719986 0.79800004 5.5496464e-40
-0.012920002 -0.073720008 0.79800004 8.3155153e-40
-0.011399994 -0.073719978 0.79799998 1.2010501e-39
-0.0098799923 -0.073719971 0.79800004 1.6591514e-39
-0.0083599929 -0.073719971 0.79800004 1.4765566e-39
-0.0068399962 -0.073719993 0.79800004 1.1999767e-39
-0.0053199953 -0.073719993 0.79800004 1.1070678e-39
-0.0037999935 -0.073719978 0.79799998 9.2052277e-40
-0.0022799931 -0.073719978 0.79800004 7.3684617e-40
-0.00075999275 -0.073719978 0.79800004 6.4393308e-40
0.00076000299 -0.073719993 0.79800004 6.4393028e-40
0.0022800015 -0.073719993 0.79800004 6.4428761e-40
0.0038000103 -0.073719963 0.79800004 4.6097254e-40
0.0053200061 -0.073719986 0.79799998 2.7801902e-40
0.0068400055 -0.073719978 0.79800004 2.7730155e-40
0.008360005 -0.073719978 0.79800004 3.6877832e-40
0.0099047637 -0.073904768 0.80000001 3.6913705e-40
0.011428579 -0.073904753 0.79999995 3.6913705e-40
0.01295239 -0.073904738 0.80000001 6.45361e-40
0.014476196 -0.073904745 0.80000001 9.2194369e-40
0.016039999 -0.074089542 0.80200005 7.3827269e-40
0.017567623 -0.074089542 0.80200005 6.4715466e-40
0.019095242 -0.074089542 0.80200005 6.4571973e-40
0.020622861 -0.074089542 0.80200005 7.3647903e-40
0.022150479 -0.074089535 0.80199999 6.4500227e-40
0.0236781 -0.074089535 0.80199999 5.5352551e-40
0.025142863 -0.073904768 0.80000001 5.5388424e-40
0.026600011 -0.073719978 0.79799998 6.4607847e-40
0.028120015 -0.073719978 0.79800004 3.6949578e-40
0.029602861 -0.073627613 0.79700005 9.2655256e-41
0.031042868 -0.073442847 0.79500002 3.2334584e-39
0.032557163 -0.073442832 0.79500002 6.4696072e-39
-0.028260956 -0.072561912 0.80200005 4.6133268e-40
-0.026666667 -0.072380953 0.80000001 3.6985591e-40
-0.02514286 -0.072380967 0.80000001 2.7802182e-40
-0.023559999 -0.072199993 0.79800004 2.7694702e-40
-0.022039998 -0.072199985 0.79799998 2.7659109e-40
-0.020519998 -0.072199978 0.79800004 1.84757e-40
-0.018999994 -0.072199978 0.79800004 9.2921502e-41
-0.017480001 -0.0722 0.79800004 1.8511573e-40
-0.01596 -0.0722 0.79800004 2.7766589e-40
-0.014439993 -0.072199963 0.79800004 3.7057478e-40
-0.012952378 -0.072380938 0.80000001 4.6313054e-40
-0.011428569 -0.072380953 0.80000001 6.475218e-40
-0.0098800007 -0.072200008 0.79800004 8.3083406e-40
-0.0083599994 -0.0722 0.79800004 8.301166e-40
-0.0068571358 -0.07238093 0.79999995 7.3792237e-40
-0.0053466666 -0.07256192 0.80200005 7.3613011e-40
-0.0038190479 -0.07256192 0.80200005 7.3648604e-40
-0.0022799945 -0.072199985 0.79800004 7.361245e-40
-0.0007600002 -0.072200008 0.79800004 6.4428901e-40
0.00076000672 -0.07219997 0.79800004 6.4393028e-40
0.0022857194 -0.072380938 0.80000001 5.5245211e-40
0.0038000029 -0.072199993 0.79800004 4.6061381e-40
0.0053200033 -0.0722 0.79800004 3.6949578e-40
0.0068571456 -0.072380945 0.80000001 3.6913705e-40
0.0083809542 -0.07238096 0.80000001 2.7694282e-40
0.0099047692 -0.072380938 0.79999995 3.6913705e-40
0.011457143 -0.072561905 0.80199999 3.6913705e-40
0.012984767 -0.072561905 0.80200005 7.361203e-40
0.014512382 -0.072561905 0.80200005 1.1041797e-39
0.016080005 -0.07274285 0.80400002 1.0119855e-39
0.017611433 -0.072742864 0.80400002 8.2867326e-40
0.019142868 -0.072742857 0.80400002 8.2831593e-40
0.020674292 -0.072742864 0.80400002 8.2831593e-40
0.022150483 -0.072561897 0.80200005 7.371979e-40
0.023678094 -0.072561927 0.80200005 6.453624e-40
0.02514286 -0.072380975 0.80000001 8.2975226e-40
0.026600009 -0.072199985 0.79800004 9.208773e-40
0.028120009 -0.072199993 0.79800004 5.5282486e-40
0.029602861 -0.072109535 0.79700005 9.2976153e-41
0.03112096 -0.072109513 0.79700005 1.2865265e-39
0.032639056 -0.072109506 0.79699999 2.4169666e-39
0.034157142 -0.072109543 0.79700005 9.7950903e-39
-0.03139428 -0.071211405 0.80400002 6.4464494e-40
-0.029788572 -0.071034275 0.80199999 5.5280804e-40
-0.02826095 -0.071034275 0.80200005 4.6061521e-40
-0.026666662 -0.070857123 0.80000001 3.6949718e-40
-0.025142854 -0.07085713 0.80000001 3.6985872e-40
-0.023559999 -0.07068 0.79800004 2.7730856e-40
-0.022039998 -0.070679992 0.79800004 2.765967e-40
-0.02052 -0.070679992 0.79800004 4.6027189e-40
-0.019000001 -0.070680015 0.79800004 5.5210459e-40
-0.017479995 -0.070679978 0.79800004 4.6062502e-40
-0.015959995 -0.070679978 0.79800004 3.6950139e-40
-0.014476188 -0.07085713 0.80000001 3.6985451e-40
-0.012952381 -0.070857145 0.80000001 3.6949858e-40
-0.011428568 -0.070857123 0.79999995 5.5388844e-40
-0.0098799961 -0.070679985 0.79800004 6.4536521e-40
-0.0083599957 -0.070679985 0.79800004 6.4500647e-40
-0.0068742861 -0.07103429 0.80200005 5.5209338e-40
-0.0053333328 -0.070857137 0.80000001 5.5244931e-40
-0.0038095242 -0.070857152 0.80000001 5.5244931e-40
-0.0022799936 -0.070679992 0.79799998 6.4464354e-40
-0.00075999415 -0.070679992 0.79800004 6.4428761e-40
0.00076000625 -0.070679985 0.79800004 6.4393028e-40
0.0022857171 -0.070857145 0.80000001 6.4392887e-40
0.0038095219 -0.070857152 0.80000001 5.5280804e-40
0.0053333426 -0.070857108 0.79999995 4.6169001e-40
0.0068571502 -0.070857115 0.80000001 4.6097254e-40
0.0083809588 -0.07085713 0.80000001 4.6025508e-40
0.0099047637 -0.070857137 0.80000001 4.6061381e-40
0.011457139 -0.071034297 0.80200005 5.5244931e-40
0.012984762 -0.071034297 0.80200005 7.361203e-40
0.014548576 -0.07121142 0.80400002 9.2015002e-40
0.016080005 -0.071211435 0.80400002 8.279558e-40
0.017611433 -0.07121142 0.80400002 7.3576297e-40
0.019142862 -0.071211435 0.80400002 7.361217e-40
0.020674288 -0.07121145 0.80400002 8.279572e-40
0.022150479 -0.071034297 0.80200005 7.3648043e-40
0.023678094 -0.07103429 0.80200005 6.4392887e-40
0.025142863 -0.070857137 0.80000001 6.4464774e-40
0.026600018 -0.07067997 0.79800004 6.4466315e-40
0.028120013 -0.070679992 0.79800004 5.5284167e-40
0.029602863 -0.070591435 0.79700005 4.602817e-40
0.031120954 -0.070591435 0.79700005 8.3048514e-40
0.032639053 -0.070591435 0.79699999 1.2994731e-39
0.034157149 -0.070591442 0.79700005 8.3070767e-39
-0.031238094 -0.069333315 0.79999995 3.6913845e-40
-0.029714286 -0.06933333 0.79999995 3.6913705e-40
-0.028190475 -0.069333315 0.80000001 3.6949718e-40
-0.026666665 -0.069333322 0.80000001 3.6913845e-40
-0.02514286 -0.069333337 0.80000001 3.6914265e-40
-0.023559993 -0.069159977 0.79799998 3.6878812e-40
-0.022039995 -0.06915997 0.79800004 2.7732537e-40
-0.020519998 -0.069159999 0.79800004 6.4432404e-40
-0.019047616 -0.069333322 0.80000001 1.0116534e-39
-0.01752381 -0.06933333 0.80000001 7.3577558e-40
-0.016000001 -0.069333345 0.80000001 4.6098095e-40
-0.014476183 -0.0693333 0.80000001 3.6913985e-40
-0.012952377 -0.069333315 0.80000001 2.7766589e-40
-0.011428569 -0.069333322 0.80000001 3.6986292e-40
-0.0099047618 -0.06933333 0.80000001 4.6133828e-40
-0.0083599919 -0.069159962 0.79800004 4.6061802e-40
-0.0068571349 -0.0693333 0.79999995 3.6878112e-40
-0.0053333272 -0.069333315 0.79999995 3.6877832e-40
-0.003809521 -0.069333322 0.80000001 3.6913705e-40
-0.0022799964 -0.069159999 0.79800004 5.5316677e-40
-0.00075999042 -0.06915997 0.79799998 6.4428761e-40
0.00076190662 -0.06933333 0.80000001 6.4393028e-40
0.0022857208 -0.069333315 0.79999995 6.4392887e-40
0.003809528 -0.069333322 0.80000001 5.5245211e-40
0.0053333356 -0.06933333 0.80000001 4.6133268e-40
0.0068742856 -0.069506668 0.80200005 5.5316817e-40
0.0084019043 -0.069506668 0.80200005 5.5244931e-40
0.0099295257 -0.069506668 0.80200005 6.4392607e-40
0.011457145 -0.069506668 0.80200005 6.4464774e-40
0.013017149 -0.06967999 0.80400002 7.3613011e-40
0.014548575 -0.069679998 0.80400002 7.3648464e-40
0.016080007 -0.06967999 0.80400002 7.3576297e-40
0.017611433 -0.069680005 0.80400002 6.4428621e-40
0.019142861 -0.06968002 0.80400002 7.361217e-40
0.020674294 -0.069679976 0.80400002 7.361231e-40
0.022150474 -0.06950669 0.80200005 7.3612591e-40
0.023678094 -0.06950669 0.80200005 6.4428901e-40
0.025142862 -0.069333345 0.80000001 5.5209338e-40
0.026600005 -0.069159999 0.79800004 3.6951119e-40
0.028120004 -0.069159999 0.79800004 6.4539043e-40
0.029602865 -0.069073327 0.79699999 8.2869288e-40
0.031120958 -0.069073334 0.79700005 4.5990756e-40
0.032639053 -0.069073334 0.79700005 1.0236205e-40
0.034157153 -0.069073334 0.79699999 6.8222496e-39
-0.031238094 -0.067809515 0.80000001 5.5280944e-40
-0.029714286 -0.06780953 0.80000001 4.6133128e-40
-0.028190479 -0.067809537 0.80000001 3.7021465e-40
-0.026666667 -0.067809522 0.80000001 3.6949718e-40
-0.025142854 -0.0678095 0.80000001 3.6878532e-40
-0.023559997 -0.067639984 0.79800004 3.6914966e-40
-0.022039996 -0.067639984 0.79800004 2.7805545e-40
-0.02052 -0.067640007 0.79800004 4.610328e-40
-0.019047618 -0.067809522 0.80000001 7.3651687e-40
-0.017523805 -0.067809507 0.79999995 5.5246472e-40
-0.015999995 -0.067809507 0.79999995 3.6914826e-40
-0.014476191 -0.067809522 0.80000001 3.6914265e-40
-0.012952379 -0.067809515 0.80000001 3.6914686e-40
-0.011428571 -0.067809522 0.80000001 4.6098516e-40
-0.0099047646 -0.067809537 0.80000001 6.4429321e-40
-0.0083809504 -0.067809515 0.79999995 4.6061802e-40
-0.0068571372 -0.0678095 0.80000001 3.6913985e-40
-0.00533333 -0.067809507 0.80000001 2.7694282e-40
-0.0038095219 -0.067809522 0.80000001 2.7694282e-40
-0.0022799927 -0.067639977 0.79800004 3.6913705e-40
-0.00076189963 -0.067809515 0.79999995 5.5245211e-40
0.00076191174 -0.0678095 0.80000001 5.5245351e-40
0.0022857185 -0.067809515 0.80000001 5.5209478e-40
0.0038190517 -0.067979038 0.80200005 4.6061802e-40
0.0053466666 -0.06797906 0.80199999 4.6097535e-40
0.0068742856 -0.06797906 0.80200005 4.6097395e-40
0.0084019033 -0.06797906 0.80200005 5.5245071e-40
0.0099542942 -0.068148546 0.80400002 6.4464354e-40
0.011485718 -0.068148561 0.80400002 6.4537081e-40
0.013017145 -0.068148576 0.80400002 6.4537922e-40
0.014548576 -0.068148561 0.80400002 6.4501208e-40
0.016080003 -0.068148576 0.80400002 5.5280944e-40
0.017611429 -0.068148583 0.80400002 5.5280944e-40
0.01914287 -0.068148546 0.80400002 5.5280944e-40
0.020674292 -0.068148561 0.80400002 5.5281365e-40
0.022150483 -0.067979045 0.80199999 6.4465194e-40
0.023619052 -0.06780953 0.80000001 8.2831873e-40
0.025142865 -0.067809507 0.79999995 6.4464354e-40
0.026600013 -0.067639977 0.79800004 5.5353812e-40
0.028120013 -0.067639977 0.79800004 7.3793919e-40
0.029602865 -0.067555219 0.79699999 9.2267516e-40
0.031120952 -0.067555249 0.79700005 4.6133408e-40
0.032639049 -0.067555256 0.79700005 9.2296523e-41
-0.031238094 -0.066285722 0.80000001 6.4464494e-40
-0.029714283 -0.0662857 0.79999995 4.6133128e-40
-0.028190475 -0.066285707 0.79999995 2.7766028e-40
-0.026666664 -0.0662857 0.80000001 3.6913845e-40
-0.025142856 -0.066285707 0.80000001 3.6914125e-40
-0.023619046 -0.066285715 0.80000001 3.6950419e-40
-0.022095237 -0.066285729 0.80000001 2.776827e-40
-0.020571426 -0.066285707 0.79999995 3.6881615e-40
-0.019047614 -0.066285692 0.80000001 3.6880494e-40
-0.017523807 -0.066285707 0.80000001 3.68435e-40
-0.015999999 -0.066285715 0.80000001 2.765953e-40
-0.014512383 -0.066451438 0.80200005 3.6842799e-40
-0.012984766 -0.066451438 0.80200005 3.6915386e-40
-0.011457146 -0.066451438 0.80200005 5.5247313e-40
-0.0099295275 -0.066451445 0.80200005 7.3613431e-40
-0.0083809504 -0.066285715 0.80000001 5.5245351e-40
-0.0068571423 -0.066285722 0.80000001 3.6878112e-40
-0.0053333319 -0.066285715 0.80000001 2.7694282e-40
-0.0038190479 -0.06645143 0.80200005 9.3630559e-41
-0.0022857091 -0.0662857 0.80000001 2.7801902e-40
-0.00076190149 -0.066285715 0.80000001 3.6913985e-40
0.00076191081 -0.0662857 0.80000001 3.6878252e-40
0.0022914298 -0.06645143 0.80200005 3.6878953e-40
0.0038190475 -0.06645143 0.80200005 3.6879793e-40
0.0053466666 -0.06645143 0.80200005 3.6878953e-40
0.0068742814 -0.066451453 0.80200005 4.6061661e-40
0.0084019005 -0.066451453 0.80200005 5.5281084e-40
0.0099295257 -0.066451423 0.80199999 6.4500507e-40
0.011485717 -0.066617139 0.80400002 6.4572534e-40
0.013017149 -0.066617131 0.80400002 5.5425278e-40
0.014548573 -0.066617146 0.80400002 4.6169561e-40
0.016080001 -0.066617161 0.80400002 4.6097395e-40
0.017611429 -0.066617146 0.80400002 3.6913985e-40
0.019142866 -0.066617131 0.80400002 3.6914125e-40
0.020674294 -0.066617116 0.80400002 3.6914546e-40
0.022150479 -0.066451445 0.80200005 6.4465755e-40
0.023678094 -0.066451445 0.80200005 9.2015703e-40
0.025142867 -0.066285715 0.80000001 8.2831453e-40
0.026600011 -0.066119991 0.79800004 6.4537081e-40
0.028120013 -0.066119984 0.79799998 8.3012781e-40
0.029640013 -0.066119976 0.79800004 9.2231223e-40
0.031160012 -0.066119976 0.79800004 5.546031e-40
0.032639049 -0.066037148 0.79700005 9.2987363e-41
-0.032761902 -0.064761877 0.79999995 6.4464774e-40
-0.031160001 -0.064599991 0.79800004 4.6061661e-40
-0.029788574 -0.064923808 0.80199999 3.6913705e-40
-0.028190479 -0.064761907 0.80000001 2.7766028e-40
-0.026666667 -0.064761892 0.80000001 3.6913705e-40
-0.025142854 -0.064761877 0.79999995 3.6913985e-40
-0.023619045 -0.064761892 0.79999995 3.6914125e-40
-0.022095235 -0.064761892 0.80000001 2.7731136e-40
-0.020571424 -0.064761885 0.80000001 3.6879233e-40
-0.019095238 -0.064923808 0.80199999 4.5991036e-40
-0.017567616 -0.064923808 0.80200005 3.6807486e-40
-0.016039997 -0.064923808 0.80200005 3.6807346e-40
-0.014548571 -0.065085709 0.80399996 3.6878953e-40
-0.013017139 -0.065085694 0.80400002 3.6987833e-40
-0.011485714 -0.065085709 0.80400002 4.6100758e-40
-0.0099790515 -0.065247655 0.80600005 5.5246893e-40
-0.0084228572 -0.065085709 0.80400002 4.6061802e-40
-0.0068742875 -0.064923823 0.80200005 3.6878112e-40
-0.0053466684 -0.064923823 0.80200005 2.7694282e-40
-0.0038190484 -0.064923823 0.80200005 1.8474859e-40
-0.0022857124 -0.064761907 0.80000001 2.7730155e-40
-0.00076380419 -0.064923793 0.80200005 4.6097535e-40
0.00076381164 -0.064923823 0.80200005 5.5245351e-40
0.0022914275 -0.064923823 0.80200005 7.3578119e-40
0.0038190475 -0.064923823 0.80200005 5.5248294e-40
0.005346667 -0.064923823 0.80200005 3.6879793e-40
0.0068914359 -0.065085687 0.80400002 4.6061802e-40
0.0084228618 -0.065085702 0.80400002 6.4464774e-40
0.0099542886 -0.065085709 0.80400002 6.4536521e-40
0.01148572 -0.065085702 0.80400002 6.4608127e-40
0.013017145 -0.065085717 0.80400002 5.5388424e-40
0.014548571 -0.065085731 0.80400002 4.6169001e-40
0.016080011 -0.065085687 0.80400002 3.6949578e-40
0.01765524 -0.065247625 0.80599999 3.6949858e-40
0.019142866 -0.065085687 0.80400002 3.6914265e-40
0.02067429 -0.065085702 0.80400002 4.6062642e-40
0.022150477 -0.06492383 0.80200005 5.5282626e-40
0.023678096 -0.06492383 0.80200005 7.3648884e-40
0.025142863 -0.064761885 0.79999995 7.3647903e-40
0.026600014 -0.064599968 0.79800004 7.3612731e-40
0.028120007 -0.064599991 0.79800004 8.2904461e-40
0.029640011 -0.064599991 0.79800004 9.2195069e-40
0.031160006 -0.064600013 0.79800004 5.5388424e-40
-0.035899058 -0.063396215 0.80200005 1.9310608e-39
-0.034285713 -0.063238084 0.79999995 1.1041826e-39
-0.032761902 -0.063238077 0.80000001 7.3648184e-40
-0.031238094 -0.063238084 0.80000001 2.7694422e-40
-0.029788572 -0.063396178 0.80200005 2.7694422e-40
-0.028190475 -0.063238077 0.79999995 2.7730155e-40
-0.02666666 -0.063238062 0.80000001 3.6913705e-40
-0.025142856 -0.063238077 0.80000001 3.6913985e-40
-0.023619045 -0.063238084 0.80000001 3.6914125e-40
-0.022095237 -0.063238099 0.80000001 2.7694842e-40
-0.020571422 -0.063238077 0.79999995 3.6842659e-40
-0.019095242 -0.063396201 0.80200005 4.6026209e-40
-0.01756762 -0.063396201 0.80200005 4.5990475e-40
-0.016040001 -0.063396201 0.80200005 4.6026209e-40
-0.014548568 -0.063554265 0.80400002 4.6062082e-40
-0.013017141 -0.06355428 0.80400002 3.6914966e-40
-0.011485712 -0.063554265 0.80400002 3.6915667e-40
-0.0099790497 -0.063712403 0.80600005 3.6878953e-40
-0.0084228544 -0.063554272 0.80400002 3.6878112e-40
-0.0068742861 -0.063396193 0.80200005 3.6913845e-40
-0.0053599947 -0.063554272 0.80400002 3.6877832e-40
-0.0038285642 -0.063554257 0.80400002 2.7694282e-40
-0.0022914261 -0.063396186 0.80200005 3.6877972e-40
-0.00076380745 -0.063396186 0.80200005 4.6061661e-40
0.00076381303 -0.063396193 0.80200005 7.3576577e-40
0.0022914256 -0.063396215 0.80200005 1.011638e-39
0.0038285772 -0.063554265 0.80399996 7.3577978e-40
0.0053600087 -0.063554257 0.80400002 3.6914686e-40
0.0068914322 -0.063554265 0.80400002 5.5209338e-40
0.0084228637 -0.063554287 0.80400002 6.4500787e-40
0.0099542923 -0.063554272 0.80400002 6.4572954e-40
0.011514285 -0.063712396 0.80600005 5.5424858e-40
0.013017147 -0.063554272 0.80400002 4.6169001e-40
0.014548573 -0.063554287 0.80400002 3.6985451e-40
0.016080007 -0.063554272 0.80400002 3.6949578e-40
0.017655242 -0.063712373 0.80600005 3.6949858e-40
0.019142862 -0.063554272 0.80400002 4.6097675e-40
0.020674298 -0.063554265 0.80400002 4.6133828e-40
0.022150479 -0.063396201 0.80200005 4.6098235e-40
0.023619058 -0.063238069 0.80000001 4.6169561e-40
0.02508001 -0.063079983 0.79800004 6.45361e-40
0.026600007 -0.063080005 0.79800004 8.2867747e-40
0.028084764 -0.06300097 0.79700005 9.198011e-40
0.029602863 -0.063000947 0.79700005 9.219549e-40
-0.035899054 -0.061868582 0.80200005 1.4722406e-39
-0.034285717 -0.061714292 0.80000001 1.0119869e-39
-0.032761902 -0.061714273 0.80000001 7.361203e-40
-0.03123809 -0.061714251 0.79999995 4.6025648e-40
-0.029788576 -0.061868571 0.80200005 3.6877972e-40
-0.028190475 -0.061714277 0.80000001 2.7658549e-40
-0.026666667 -0.061714284 0.80000001 3.6913705e-40
-0.025142856 -0.061714273 0.80000001 5.5281084e-40
-0.023619046 -0.061714288 0.80000001 4.6097675e-40
-0.022150476 -0.061868563 0.80200005 3.6878112e-40
-0.020622857 -0.061868567 0.80200005 3.6877832e-40
-0.019142857 -0.062022861 0.80400002 4.6097395e-40
-0.017611424 -0.062022842 0.80399996 4.6061521e-40
-0.016079996 -0.062022828 0.80400002 4.6061521e-40
-0.01454857 -0.062022842 0.80400002 4.6097395e-40
-0.013049524 -0.06217714 0.80600005 4.6097535e-40
-0.011485714 -0.062022846 0.80400002 4.6097675e-40
-0.0099790487 -0.062177148 0.80600005 5.5245211e-40
-0.0084228562 -0.062022846 0.80400002 4.6097254e-40
-0.0068914229 -0.062022831 0.80400002 3.6949578e-40
-0.0053599924 -0.062022824 0.80400002 3.6913705e-40
-0.0038285661 -0.062022835 0.80400002 3.6913845e-40
-0.0022971393 -0.06202285 0.80400002 3.6877972e-40
-0.00076571014 -0.062022835 0.80400002 4.6061661e-40
0.00076571759 -0.06202285 0.80400002 5.5245351e-40
0.0022971444 -0.062022865 0.80400002 6.4464774e-40
0.00382858 -0.062022824 0.80400002 5.5352831e-40
0.0053600068 -0.062022839 0.80400002 5.5388564e-40
0.0068914304 -0.062022846 0.80400002 7.371965e-40
0.0084228618 -0.062022839 0.80400002 1.0134289e-39
0.0099542905 -0.062022854 0.80400002 8.3012361e-40
0.011514287 -0.062177148 0.80600005 6.475218e-40
0.013017145 -0.062022857 0.80400002 6.4607847e-40
0.014584762 -0.062177155 0.80600005 7.371965e-40
0.016080011 -0.062022824 0.80400002 6.4500227e-40
0.017611435 -0.062022839 0.80400002 5.5280944e-40
0.019142859 -0.062022854 0.80400002 5.5352831e-40
0.02067429 -0.062022846 0.80400002 5.5424577e-40
0.022095244 -0.061714258 0.80000001 5.5352691e-40
0.023560015 -0.061559957 0.79799998 5.5424437e-40
0.02508001 -0.061559979 0.79799998 7.3755523e-40
0.026566675 -0.061482828 0.79699999 1.0130645e-39
0.028084766 -0.061482865 0.79700005 1.0134261e-39
0.029602857 -0.061482862 0.79700005 1.1067063e-39
-0.034285709 -0.060190458 0.79999995 9.2123603e-40
-0.032761902 -0.060190469 0.79999995 8.2796e-40
-0.031238094 -0.06019045 0.80000001 6.4428761e-40
-0.029788578 -0.060340967 0.80200005 4.6097395e-40
-0.028190479 -0.060190476 0.80000001 2.7694702e-40
-0.026666664 -0.060190458 0.79999995 4.6097955e-40
-0.02514285 -0.060190443 0.80000001 6.4429041e-40
-0.023678096 -0.06034096 0.80200005 5.5245351e-40
-0.022150477 -0.060340952 0.80200005 3.6878112e-40
-0.020674285 -0.060491428 0.80400002 3.6913985e-40
-0.019142853 -0.060491413 0.80399996 3.6913845e-40
-0.017611422 -0.060491402 0.80400002 3.6877972e-40
-0.01608 -0.060491417 0.80400002 3.6913845e-40
-0.014584766 -0.060641911 0.80600005 4.6133408e-40
-0.013049527 -0.060641918 0.80600005 4.6134249e-40
-0.01151429 -0.060641918 0.80600005 5.5246893e-40
-0.0099790515 -0.060641926 0.80600005 6.4429461e-40
-0.0084438138 -0.060641926 0.80600005 5.5280804e-40
-0.006891421 -0.060491391 0.80400002 3.6913705e-40
-0.0053599947 -0.060491402 0.80400002 3.6913845e-40
-0.003838093 -0.0606419 0.80600005 3.6878672e-40
-0.0022971379 -0.060491409 0.80400002 3.6879373e-40
-0.000765712 -0.06049142 0.80400002 3.6878953e-40
0.00076571479 -0.060491439 0.80400002 2.7695123e-40
0.0022971514 -0.060491387 0.80400002 1.8618913e-40
0.003838093 -0.060641915 0.80600005 4.6312774e-40
0.0053600031 -0.06049142 0.80400002 6.4608127e-40
0.0068914341 -0.060491409 0.80400002 1.0134219e-39
0.008422859 -0.060491424 0.80400002 1.2889325e-39
0.009979045 -0.060641918 0.80600005 1.0134317e-39
0.011514283 -0.060641918 0.80600005 6.4572534e-40
0.01304952 -0.060641922 0.80600005 8.2903199e-40
0.014584757 -0.060641926 0.80600005 1.012703e-39
0.016080007 -0.060491409 0.80400002 8.2867326e-40
0.017611431 -0.060491424 0.80400002 6.453624e-40
0.019142861 -0.060491409 0.80400002 6.4608127e-40
0.020622861 -0.060340948 0.80199999 6.4572394e-40
0.022095239 -0.060190484 0.80000001 6.4500647e-40
0.023560006 -0.060039993 0.79800004 5.5352831e-40
0.025048576 -0.059964754 0.79700005 8.2903339e-40
0.026566673 -0.059964754 0.79699999 1.1052602e-39
0.028084766 -0.059964765 0.79700005 1.1981746e-39
0.029602861 -0.059964761 0.79700005 1.1978271e-39
-0.034285717 -0.058666661 0.80000001 8.2905021e-40
-0.032761909 -0.058666669 0.80000001 8.2832154e-40
-0.031316195 -0.058813356 0.80200005 7.361245e-40
-0.029788576 -0.058813322 0.80199999 4.6097395e-40
-0.028190475 -0.058666643 0.79999995 1.8511433e-40
-0.026666667 -0.058666654 0.80000001 3.6879093e-40
-0.02514286 -0.058666665 0.80000001 5.5209898e-40
-0.023678098 -0.058813352 0.80200005 4.6061802e-40
-0.022205714 -0.058960002 0.80400002 3.6878252e-40
-0.020674288 -0.058960013 0.80400002 2.7766449e-40
-0.019142851 -0.058959968 0.80400002 2.7766309e-40
-0.017655235 -0.059106659 0.80600005 2.7766169e-40
-0.01612 -0.059106659 0.80600005 3.6913985e-40
-0.014584762 -0.059106667 0.80600005 3.6985732e-40
-0.013049523 -0.059106667 0.80600005 3.6987413e-40
-0.011514287 -0.059106674 0.80600005 4.6100758e-40
-0.0099790487 -0.059106674 0.80600005 4.6063203e-40
-0.008443811 -0.059106674 0.80600005 3.6913705e-40
-0.0069085658 -0.059106644 0.80600005 2.7694422e-40
-0.0053733336 -0.059106674 0.80599999 3.6877972e-40
-0.0038380958 -0.059106674 0.80599999 3.68435e-40
-0.0022971407 -0.058959994 0.80400002 3.6880634e-40
-0.00076571386 -0.058960009 0.80400002 3.684392e-40
0.00076761795 -0.059106681 0.80600005 3.6878953e-40
0.0023028567 -0.059106681 0.80600005 3.6950279e-40
0.003838093 -0.059106689 0.80600005 4.6241028e-40
0.0053733289 -0.059106689 0.80600005 5.5424577e-40
0.0069085732 -0.059106663 0.80600005 7.3791676e-40
0.0084438119 -0.059106663 0.80600005 1.0134247e-39
0.0099790478 -0.05910667 0.80600005 7.372021e-40
0.011542859 -0.059253331 0.80800009 5.5209338e-40
0.013049522 -0.05910667 0.80600005 6.4500227e-40
0.014584762 -0.059106678 0.80600005 7.3683777e-40
0.01612 -0.059106678 0.80600005 6.45361e-40
0.017655244 -0.059106648 0.80599999 4.6205014e-40
0.019142861 -0.058959998 0.80400002 5.5388704e-40
0.020674292 -0.058959987 0.80400002 5.5353111e-40
0.022095241 -0.05866665 0.79999995 5.5353251e-40
0.023560012 -0.058519971 0.79799998 5.5353111e-40
0.025048574 -0.058446679 0.79700005 7.371993e-40
0.026566673 -0.058446653 0.79700005 1.0130673e-39
0.028084768 -0.058446653 0.79699999 1.0141449e-39
0.039682865 -0.053606648 0.73100001 2.341769e-38
-0.032761902 -0.057142839 0.79999995 8.2796e-40
-0.031238098 -0.05714285 0.79999995 8.2831733e-40
-0.029714286 -0.057142835 0.80000001 4.6097395e-40
-0.028260954 -0.057285719 0.80200005 9.3640369e-41
-0.026733335 -0.057285715 0.80200005 2.7696244e-40
-0.025205722 -0.057285745 0.80200005 3.6878953e-40
-0.023796191 -0.05757143 0.80600005 3.6842379e-40
-0.022205718 -0.057428584 0.80400002 3.6913985e-40
-0.020725716 -0.057571437 0.80600005 2.7838055e-40
-0.019190477 -0.057571441 0.80600005 9.4709559e-41
-0.017655233 -0.057571407 0.80600005 1.8690379e-40
-0.016120004 -0.057571437 0.80599999 2.7802182e-40
-0.014584764 -0.057571441 0.80600005 2.7873928e-40
-0.013049526 -0.057571441 0.80600005 2.7803023e-40
-0.011514289 -0.057571445 0.80600005 2.776785e-40
-0.0099790515 -0.057571448 0.80600005 2.7767009e-40
-0.0084438138 -0.057571448 0.80600005 2.7801902e-40
-0.0069085751 -0.057571456 0.80600005 1.8582479e-40
-0.0053733313 -0.057571422 0.80599999 2.7694422e-40
-0.0038380935 -0.05757143 0.80600005 3.6878672e-40
-0.0023028557 -0.05757143 0.80600005 3.6879513e-40
-0.00076761702 -0.05757143 0.80600005 3.6879093e-40
0.00076762028 -0.057571437 0.80600005 4.6062222e-40
0.002302859 -0.057571437 0.80600005 4.6169561e-40
0.0038380944 -0.057571445 0.80600005 4.6241168e-40
0.0053733317 -0.057571445 0.80600005 3.7057478e-40
0.0069085755 -0.057571415 0.80600005 5.5424577e-40
0.0084438128 -0.057571415 0.80600005 6.4572254e-40
0.0099790515 -0.057571415 0.80600005 5.5388844e-40
0.011542856 -0.057714295 0.80800003 3.6949718e-40
0.013049527 -0.057571422 0.80600005 4.6169001e-40
0.014584762 -0.05757143 0.80600005 4.6133128e-40
0.016120005 -0.05757143 0.80600005 3.6949578e-40
0.017655237 -0.057571452 0.80600005 2.7802182e-40
0.019142862 -0.057428557 0.80400002 3.6950139e-40
0.020674288 -0.057428569 0.80400002 4.6170963e-40
0.022150476 -0.057285737 0.80200005 4.6136491e-40
0.02361905 -0.057142869 0.80000001 4.6170823e-40
0.025048574 -0.056928579 0.79700005 7.3648043e-40
0.026433349 -0.056642819 0.79300004 9.2158916e-40
0.027943816 -0.056642849 0.79300004 9.2194929e-40
0.03973715 -0.052285712 0.73199999 2.341769e-38
-0.032761905 -0.055619039 0.80000001 7.3647903e-40
-0.031238098 -0.055619027 0.80000001 8.2831453e-40
-0.029714288 -0.055619035 0.80000001 5.5316677e-40
-0.028260961 -0.055758107 0.80200005 2.7731556e-40
-0.026733337 -0.055758111 0.80200005 4.6099917e-40
-0.025268571 -0.055897139 0.80400002 6.4465895e-40
-0.023737146 -0.055897154 0.80400002 5.5245211e-40
-0.022260956 -0.056036208 0.80600005 5.5209338e-40
-0.02072572 -0.056036215 0.80600005 3.6949718e-40
-0.019238094 -0.056175228 0.80800003 2.7802182e-40
-0.017655237 -0.056036182 0.80599999 2.7802322e-40
-0.01612 -0.056036189 0.80600005 2.7766449e-40
-0.014584763 -0.056036189 0.80600005 2.7802182e-40
-0.013049525 -0.056036193 0.80600005 2.7802182e-40
-0.011514287 -0.056036197 0.80600005 2.7766169e-40
-0.0099790497 -0.0560362 0.80600005 3.6913845e-40
-0.0084647564 -0.056175206 0.80800003 2.7801902e-40
-0.0069257114 -0.056175224 0.80800003 2.7873648e-40
-0.0053866613 -0.056175217 0.80800003 3.6949578e-40
-0.0038476167 -0.056175236 0.80800003 3.6878112e-40
-0.0023028534 -0.056036182 0.80600005 4.6061942e-40
-0.00076761702 -0.056036182 0.80600005 4.6097815e-40
0.00076762121 -0.056036185 0.80600005 4.6169421e-40
0.0023028594 -0.056036185 0.80600005 4.6277041e-40
0.0038380951 -0.056036189 0.80600005 4.6277041e-40
0.005373334 -0.056036193 0.80600005 4.6276901e-40
0.0069085718 -0.056036185 0.80599999 4.6169141e-40
0.0084647639 -0.056175228 0.80800003 5.5280944e-40
0.010003814 -0.056175221 0.80800003 4.6133268e-40
0.011542858 -0.056175239 0.80800003 3.6949718e-40
0.013081909 -0.056175228 0.80800003 3.6949578e-40
0.014620957 -0.056175224 0.80800003 3.6949578e-40
0.016120002 -0.0560362 0.80600005 4.6133128e-40
0.017611435 -0.055897128 0.80400002 4.6169421e-40
0.019142862 -0.055897139 0.80400002 6.4536801e-40
0.020622859 -0.0557581 0.80200005 8.2906562e-40
0.022095248 -0.055619024 0.79999995 7.3725675e-40
0.023530483 -0.055410467 0.79699999 7.3758606e-40
0.024985723 -0.055271428 0.79500002 8.2939073e-40
0.026366677 -0.05499332 0.79100001 9.2266395e-40
0.027873345 -0.054993305 0.79099995 8.3011239e-40
0.038552389 -0.051169533 0.73600006 2.341769e-38
0.039845724 -0.051030453 0.73400003 2.341769e-38
-0.032761905 -0.054095242 0.80000001 6.4500367e-40
-0.031316191 -0.054230481 0.80200005 8.2903199e-40
-0.029788582 -0.054230504 0.80200005 6.4571973e-40
-0.028331427 -0.054365698 0.80400002 4.6133828e-40
-0.026866667 -0.054500956 0.80600005 6.4429882e-40
-0.02533143 -0.054500956 0.80600005 8.2832154e-40
-0.023796191 -0.054500956 0.80600005 7.361217e-40
-0.022260955 -0.054500964 0.80600005 6.4428621e-40
-0.020777142 -0.054636177 0.80800003 5.5280944e-40
-0.019238092 -0.054636169 0.80800003 3.6914265e-40
-0.017699048 -0.054636184 0.80800003 3.6914546e-40
-0.01616 -0.054636177 0.80800003 2.7802462e-40
-0.014620953 -0.054636192 0.80800003 2.7802042e-40
-0.013081904 -0.054636184 0.80800003 2.7766169e-40
-0.011514285 -0.054500949 0.80600005 3.6877972e-40
-0.01000381 -0.054636188 0.80800003 3.6913845e-40
-0.0084647583 -0.054636177 0.80800003 3.6949578e-40
-0.0069257091 -0.054636169 0.80800003 3.7021325e-40
-0.0053866645 -0.05463618 0.80800003 3.6913705e-40
-0.0038571423 -0.054771427 0.81000006 3.6913845e-40
-0.0023028555 -0.054500956 0.80600005 4.6061661e-40
-0.00076762005 -0.05450096 0.80600005 5.5316958e-40
0.00076761842 -0.05450096 0.80600005 5.546045e-40
0.0023028569 -0.054500964 0.80600005 4.6312774e-40
0.0038380944 -0.054500967 0.80600005 4.6348647e-40
0.0053733308 -0.054500967 0.80600005 4.6240888e-40
0.0069257221 -0.054636158 0.80800003 4.6097395e-40
0.0084647657 -0.054636169 0.80800003 3.6914265e-40
0.010003815 -0.054636162 0.80800003 3.6914686e-40
0.011571429 -0.054771423 0.81000006 2.7766449e-40
0.013081911 -0.054636177 0.80800003 2.7730155e-40
0.014620954 -0.054636192 0.80800003 2.7766028e-40
0.016120002 -0.054500952 0.80600005 4.6061381e-40
0.017611431 -0.054365709 0.80400002 6.4500507e-40
0.019095246 -0.054230463 0.80199999 9.2051436e-40
0.020622864 -0.054230463 0.80200005 1.1045595e-39
0.022040013 -0.053959973 0.79800004 1.012022e-39
0.023530483 -0.053892367 0.79700005 9.2088711e-40
0.024922868 -0.05362187 0.79300004 9.2087029e-40
0.026366679 -0.053486634 0.79099995 8.301152e-40
0.027873341 -0.053486679 0.79100001 8.2976067e-40
0.038552392 -0.049767625 0.73600006 2.341769e-38
0.039954301 -0.049767613 0.73600006 2.341769e-38
0.041243829 -0.049632359 0.73400003 2.341769e-38
-0.031316195 -0.05270287 0.80200005 5.5352691e-40
-0.029788572 -0.052702837 0.80200005 4.6204874e-40
-0.028331429 -0.05283428 0.80400002 3.6949578e-40
-0.026866663 -0.052965704 0.80600005 4.6097254e-40
-0.025331426 -0.052965704 0.80600005 6.4464354e-40
-0.02379619 -0.052965704 0.80600005 5.5244931e-40
-0.022260953 -0.052965712 0.80600005 5.5245071e-40
-0.020777145 -0.053097151 0.80800009 4.6097395e-40
-0.019238088 -0.05309711 0.80800003 4.6062082e-40
-0.017699044 -0.053097125 0.80800003 3.6950839e-40
-0.016159996 -0.053097118 0.80800003 2.7874349e-40
-0.014620951 -0.053097133 0.80800003 3.7021325e-40
-0.013081902 -0.053097125 0.80800003 4.6169141e-40
-0.011542858 -0.05309714 0.80800003 4.6133268e-40
-0.010003808 -0.053097133 0.80800003 4.6097395e-40
-0.0084647639 -0.053097147 0.80800003 4.6276621e-40
-0.0069257137 -0.05309714 0.80800009 5.546017e-40
-0.0053866627 -0.053097125 0.80800003 6.4571973e-40
-0.0038476139 -0.053097118 0.80800003 8.2831453e-40
-0.0023085685 -0.053097133 0.80800003 7.3647903e-40
-0.00076761749 -0.052965704 0.80600005 6.4464494e-40
0.00076762098 -0.052965712 0.80600005 5.5388564e-40
0.0023028592 -0.052965712 0.80600005 4.6276761e-40
0.0038380967 -0.052965719 0.80600005 4.6240888e-40
0.0053866687 -0.05309714 0.80800003 3.6985591e-40
0.0069257119 -0.053097155 0.80800003 3.6949578e-40
0.0084647611 -0.053097147 0.80800009 3.6914546e-40
0.010028576 -0.05322855 0.81000006 3.6915386e-40
0.011571434 -0.053228553 0.81000006 3.6950419e-40
0.01311429 -0.053228561 0.81000006 2.7766028e-40
0.014584758 -0.052965727 0.80600005 2.7801902e-40
0.016119998 -0.052965727 0.80600005 3.6949578e-40
0.017611427 -0.052834295 0.80400002 4.6169141e-40
0.019095242 -0.052702859 0.80200005 7.371993e-40
0.020571429 -0.052571412 0.80000001 1.0134275e-39
0.022040013 -0.052439969 0.79799998 1.0134317e-39
0.023471441 -0.052242845 0.79500002 9.2159336e-40
0.024860004 -0.05198 0.79100001 9.2158916e-40
0.026266674 -0.051782824 0.78799999 9.219549e-40
0.027767632 -0.051782824 0.78800005 7.3793218e-40
0.029120008 -0.05151999 0.78400004 5.542752e-40
0.030613337 -0.05152002 0.78400004 1.1067357e-39
0.038447637 -0.04823425 0.73400003 2.341769e-38
0.039845727 -0.04823425 0.73399997 2.341769e-38
0.041243821 -0.04823428 0.73400003 2.341769e-38
-0.031316191 -0.051175233 0.80199999 2.7802042e-40
-0.029788572 -0.051175233 0.80200005 2.7873928e-40
-0.028331432 -0.051302865 0.80400002 2.7766309e-40
-0.026866663 -0.051430453 0.80600005 3.6949858e-40
-0.02533143 -0.051430479 0.80600005 3.6913845e-40
-0.02379619 -0.051430482 0.80600005 3.6877832e-40
-0.022316191 -0.051558103 0.80800003 3.6913845e-40
-0.020777142 -0.051558092 0.80800003 4.6097395e-40
-0.019238092 -0.051558081 0.80800009 4.6097675e-40
-0.017699042 -0.051558066 0.80800003 3.6986152e-40
-0.016159998 -0.051558081 0.80800003 2.7838195e-40
-0.014620949 -0.051558074 0.80800003 4.6169281e-40
-0.0130819 -0.051558066 0.80800003 6.4608267e-40
-0.011542855 -0.051558085 0.80800003 6.4608547e-40
-0.010003804 -0.051558074 0.80800003 5.5497305e-40
-0.0084647601 -0.051558089 0.80800003 6.4932527e-40
-0.0069257109 -0.051558081 0.80800003 6.4788194e-40
-0.0053866659 -0.051558096 0.80800003 9.2194649e-40
-0.0038476172 -0.051558089 0.80800009 1.1963768e-39
-0.0023085657 -0.051558074 0.80800003 1.0123471e-39
-0.00076761958 -0.051430482 0.80600005 7.3648184e-40
0.00076761865 -0.051430482 0.80600005 6.4500507e-40
0.0023028562 -0.05143049 0.80600005 4.6133828e-40
0.0038476223 -0.051558089 0.80800003 3.6914826e-40
0.0053866715 -0.051558081 0.80800003 2.7766589e-40
0.0069257165 -0.051558096 0.80800003 3.6913845e-40
