# .PCD v0.7 - Point Cloud Data file format
VERSION 0.7
FIELDS x y z rgb
SIZE 4 4 4 4
TYPE F F F F
COUNT 1 1 1 1
WIDTH 945
HEIGHT 1
VIEWPOINT 0 0 0 1 0 0 0
POINTS 945
DATA ascii
0.037705723 -0.0078257062 0.74700004 1.9346733e-39
0.039023824 -0.0078047495 0.74500012 2.2080148e-39
0.040334299 -0.0077837985 0.74300009 1.1942244e-39
0.041693348 -0.0077733211 0.7420001 1.0700876e-40
0.043106671 -0.007773323 0.74200004 8.215897e-39
0.044340003 -0.0077418983 0.73900002 1.6316485e-38
0.045747619 -0.0077419002 0.73900002 1.8076838e-38
0.04702761 -0.0077209603 0.73699999 1.9727361e-38
0.048431423 -0.0077209603 0.73699999 1.7521868e-38
0.049835239 -0.0077209547 0.73699999 1.5206151e-38
0.05116953 -0.0077104699 0.73600006 1.0046403e-38
0.052571427 -0.0077104773 0.73600006 4.7970875e-39
0.054046668 -0.0077209529 0.73700005 6.2704183e-39
0.05545048 -0.0077209529 0.73700005 7.7347191e-39
-0.043139994 -0.0061628548 0.71900004 3.1350774e-39
-0.041596193 -0.0061371448 0.71600002 2.5793743e-39
-0.040119991 -0.0061199926 0.71400011 1.9368579e-39
-0.038705721 -0.0061114309 0.71300006 1.3869127e-39
-0.037347622 -0.00611143 0.71300006 2.5775358e-39
-0.035838101 -0.0060857213 0.71000004 3.862874e-39
-0.034388561 -0.0060685631 0.708 3.4080013e-39
-0.033039998 -0.0060685701 0.708 2.9427324e-39
-0.031646676 -0.0060600108 0.70700002 2.3002482e-39
-0.030171422 -0.0060342797 0.70400012 1.6599095e-39
-0.028789522 -0.0060257139 0.70300007 1.1081777e-39
-0.027372368 -0.0060085598 0.70100009 6.4972184e-40
-0.026000012 -0.0060000131 0.69999999 9.2451507e-40
-0.024596199 -0.005982867 0.69799995 1.1081931e-39
-0.023233334 -0.0059742839 0.69699997 1.1074826e-39
-0.021842865 -0.0059571522 0.69500005 1.1064106e-39
-0.020489531 -0.005948578 0.69400001 1.1060561e-39
-0.019167613 -0.0059485654 0.69400001 1.1046057e-39
-0.017820006 -0.0059400075 0.69300002 1.0141898e-39
-0.016500009 -0.005940008 0.69299996 1.014917e-39
-0.015136188 -0.0059228544 0.69100004 1.0149254e-39
-0.013819998 -0.0059228553 0.69100004 1.0152926e-39
-0.012485715 -0.0059142853 0.69000006 1.0149409e-39
-0.011171425 -0.0059142807 0.69000006 1.0152996e-39
-0.009842867 -0.0059057232 0.68900001 1.0142234e-39
-0.0085057132 -0.0058885692 0.68700004 1.0127829e-39
-0.0071971477 -0.0058885748 0.68700004 1.1053302e-39
-0.0058800052 -0.0058800047 0.68600005 1.1056847e-39
-0.0045733391 -0.0058800075 0.68600005 1.0142038e-39
-0.0032666749 -0.0058800085 0.68600005 8.3089992e-40
-0.0019514351 -0.0058542937 0.68300003 1.0138605e-39
-0.00065047713 -0.0058542863 0.68300003 1.1971755e-39
0.00065047154 -0.0058542909 0.68300003 1.1978944e-39
0.0019485638 -0.0058457227 0.68200004 1.1071505e-39
0.0032476136 -0.0058457227 0.68200004 1.1078834e-39
0.0045466605 -0.0058457218 0.68200004 1.1082477e-39
0.0058457195 -0.0058457088 0.68200004 1.4755953e-39
0.0071447599 -0.0058457162 0.68200004 1.935863e-39
0.0084190592 -0.0058285631 0.68000007 2.0305824e-39
0.0097000003 -0.0058200005 0.67900002 2.0211783e-39
0.010993332 -0.0058200024 0.67900002 1.2878507e-39
0.012286667 -0.0058200061 0.67900002 4.6098235e-40
0.013579996 -0.0058200061 0.67900002 4.6099076e-40
0.014851432 -0.0058114287 0.67800003 3.7023146e-40
0.016142864 -0.0058114231 0.67800009 4.6134949e-40
0.017434288 -0.0058114268 0.67800003 5.5318079e-40
0.018725721 -0.0058114249 0.67800009 5.5353531e-40
0.020017143 -0.0058114287 0.67800003 5.5424998e-40
0.023665726 -0.0064542759 0.75300008 5.5388704e-40
0.025100008 -0.0064542834 0.75300002 6.4572113e-40
0.026499044 -0.0064457171 0.75200009 6.45361e-40
0.027931433 -0.0064457096 0.75200009 7.3683917e-40
0.029363807 -0.0064457189 0.75200003 9.2051156e-40
0.030714292 -0.0064285658 0.75000012 1.0123457e-39
0.032142866 -0.0064285658 0.75000006 1.012703e-39
0.0334819 -0.0064114351 0.74800003 1.0141519e-39
0.034906678 -0.0064114239 0.74800009 1.3818667e-39
0.036331426 -0.0064114276 0.74800003 1.7510093e-39
0.037756193 -0.0064114239 0.74800003 1.6584634e-39
0.039128579 -0.0064028539 0.74700004 1.5648146e-39
0.040442873 -0.0063857026 0.74500012 2.9444784e-39
0.041749537 -0.0063685626 0.74300003 4.4247372e-39
0.043164764 -0.0063685682 0.74300003 9.9640532e-39
0.044520009 -0.0063599888 0.7420001 1.549788e-38
0.045933347 -0.0063599907 0.7420001 1.6139315e-38
0.047219049 -0.0063428544 0.74000001 1.6869682e-38
0.048562869 -0.0063342787 0.73900002 1.3736499e-38
0.049970478 -0.0063342787 0.73900002 1.0593512e-38
0.051239043 -0.0063171443 0.73700005 8.4768594e-39
0.052785717 -0.0063342825 0.73900002 6.3600439e-39
0.054193337 -0.0063342806 0.73900002 7.0058253e-39
-0.041596193 -0.0047733346 0.71600002 2.3935201e-39
-0.040119983 -0.0047599887 0.71400011 1.4744224e-39
-0.038705721 -0.0047533382 0.71300006 4.6387043e-40
-0.037242856 -0.0047399965 0.71100003 2.8508745e-39
-0.035838094 -0.0047333338 0.7100001 5.2508335e-39
-0.034485709 -0.0047333334 0.7100001 4.8042509e-39
-0.033039991 -0.0047199898 0.708 4.242078e-39
-0.031646676 -0.0047133397 0.70700002 3.0320357e-39
-0.03017143 -0.0046933359 0.70400006 1.8399763e-39
-0.028789524 -0.0046866685 0.70300007 1.106377e-39
-0.027450478 -0.0046866662 0.70300007 2.8129665e-40
-0.02603714 -0.004673331 0.70100009 6.4900298e-40
-0.024596198 -0.0046533393 0.69800001 9.2451927e-40
-0.023266675 -0.0046533393 0.69800001 1.1082001e-39
-0.021905718 -0.0046466701 0.69700003 1.2911564e-39
-0.020519048 -0.0046333335 0.69500005 1.1989664e-39
-0.019167617 -0.0046266625 0.69400001 1.1064036e-39
-0.017845709 -0.0046266615 0.69400001 1.0145583e-39
-0.016500007 -0.0046200054 0.69300002 9.2272701e-40
-0.015136195 -0.0046066698 0.69100004 1.014208e-39
-0.013820004 -0.0046066707 0.69100004 1.1064078e-39
-0.012485715 -0.0046000006 0.69000006 1.1982503e-39
-0.011171425 -0.0045999968 0.69000006 1.2897313e-39
-0.0098428614 -0.0045933379 0.68900001 1.1971839e-39
-0.0085057151 -0.0045799995 0.68700004 1.0135059e-39
-0.0071971412 -0.0045799976 0.68700004 1.1053344e-39
-0.0058800043 -0.0045733377 0.68600011 1.1060491e-39
-0.0045733391 -0.0045733387 0.68600005 8.3018246e-40
-0.003266674 -0.0045733415 0.68600005 5.5503891e-40
-0.001951437 -0.0045533422 0.68300003 8.30551e-40
-0.00065048831 -0.004553345 0.68300003 1.1060631e-39
0.00065046968 -0.0045533404 0.68300009 1.10571e-39
0.0019485694 -0.0045466693 0.68200004 1.0149717e-39
0.0032476182 -0.0045466702 0.68200004 1.1997385e-39
0.0045466642 -0.0045466702 0.68200004 1.2926418e-39
0.0058457139 -0.0045466665 0.68200004 1.6610502e-39
0.0071238144 -0.0045333281 0.68000001 1.9347504e-39
0.0084190536 -0.0045333263 0.68000001 1.6574376e-39
0.0097142961 -0.0045333263 0.68000007 1.287897e-39
0.010993332 -0.0045266692 0.67900002 1.1034623e-39
0.012286665 -0.0045266692 0.67900002 8.2832013e-40
0.013579998 -0.0045266729 0.67900002 5.5282065e-40
0.014851427 -0.0045200009 0.67800003 2.7803443e-40
0.01614286 -0.0045199972 0.67800003 4.6134949e-40
0.017434288 -0.0045199972 0.67800009 6.4501628e-40
0.018725717 -0.004519999 0.67800003 5.5353531e-40
0.022231443 -0.0050199889 0.75300002 4.6169702e-40
0.023665722 -0.0050199926 0.75300002 6.4464774e-40
0.025100002 -0.00502 0.75300002 7.3684197e-40
0.026499048 -0.0050133374 0.75200003 6.4536521e-40
0.027931437 -0.005013328 0.75200009 5.5281925e-40
0.029363809 -0.0050133374 0.75200003 9.1981091e-40
0.030714288 -0.0050000045 0.75000006 1.1960293e-39
0.03214287 -0.0049999915 0.75000012 1.2889367e-39
0.033481903 -0.004986668 0.74800003 1.2896654e-39
0.034906682 -0.0049866606 0.74800009 1.6580948e-39
0.036331434 -0.0049866643 0.74800003 1.9343216e-39
0.037756193 -0.004986668 0.74800003 1.4751455e-39
0.039180961 -0.0049866624 0.74800009 9.2164941e-40
0.040551439 -0.0049799904 0.7470001 4.7784081e-39
0.041861918 -0.0049666576 0.74500006 8.6621195e-39
0.043164775 -0.0049533229 0.74300009 1.1717157e-38
0.044580009 -0.0049533267 0.74300009 1.466129e-38
0.045933347 -0.0049466547 0.7420001 1.4296116e-38
0.047346674 -0.0049466603 0.74200004 1.3918341e-38
0.048628572 -0.0049333312 0.73999995 9.960777e-39
0.050038096 -0.0049333312 0.74000001 5.9048755e-39
0.051586684 -0.0049466528 0.7420001 6.907101e-39
0.053000014 -0.0049466547 0.7420001 7.8301531e-39
0.054413352 -0.0049466509 0.7420001 7.7419386e-39
-0.040119991 -0.0033999935 0.71400011 8.2939073e-40
-0.038759995 -0.0033999954 0.71400005 3.6770772e-40
-0.037399989 -0.0033999875 0.71400011 3.6834756e-39
-0.035989534 -0.0033952452 0.71300006 7.097253e-39
-0.034534276 -0.0033857038 0.71100008 7.9349717e-39
-0.033039991 -0.0033714215 0.708 8.7610483e-39
-0.031646673 -0.003366671 0.70700008 5.4362323e-39
-0.030171419 -0.0033523731 0.70400012 2.1129549e-39
-0.02878952 -0.0033476136 0.70300007 1.3808003e-39
-0.02745048 -0.0033476229 0.70300007 7.3975106e-40
-0.026037132 -0.003338086 0.70100009 8.319495e-40
-0.024666674 -0.003333343 0.70000005 9.248738e-40
-0.023266658 -0.0033238034 0.69800001 1.0167219e-39
-0.021905718 -0.0033190518 0.69700003 1.1082029e-39
-0.020519048 -0.0033095246 0.69500005 1.1078469e-39
-0.019195242 -0.0033095267 0.69500005 1.1071253e-39
-0.017845713 -0.0033047602 0.69400001 1.2904319e-39
-0.016500004 -0.0033000035 0.69300002 1.4730267e-39
-0.01513619 -0.003290477 0.69099998 1.38155e-39
-0.01382 -0.0032904774 0.69099998 1.3819129e-39
-0.012503808 -0.0032904774 0.69099998 1.4730351e-39
-0.011171425 -0.00328571 0.69000006 1.5638042e-39
-0.0098428559 -0.0032809519 0.68900001 1.2886663e-39
-0.0085304752 -0.0032809509 0.68900001 9.2167604e-40
-0.0071971347 -0.0032714207 0.68700004 1.0142206e-39
-0.0058800005 -0.0032666682 0.68600005 1.0152968e-39
-0.0045733373 -0.00326667 0.68600005 9.2238369e-40
-0.0032666721 -0.0032666719 0.68600005 8.30551e-40
-0.0019514286 -0.0032523817 0.68300009 9.223879e-40
-0.00065047992 -0.0032523845 0.68300003 1.1071449e-39
0.00065046782 -0.0032523901 0.68300003 1.197914e-39
0.0019485694 -0.0032476208 0.6820001 1.2901335e-39
0.0032476098 -0.0032476264 0.68200004 1.3837878e-39
0.0045466716 -0.003247617 0.68200004 1.3851989e-39
0.0058457186 -0.003247617 0.68200004 1.4755757e-39
0.0071447683 -0.0032476133 0.6820001 1.565937e-39
0.0084190518 -0.0032380933 0.68000001 1.2893151e-39
0.0097142905 -0.0032380915 0.68000001 1.1045539e-39
0.010993324 -0.0032333436 0.67900002 9.2050876e-40
0.012286667 -0.0032333361 0.67900002 7.3648184e-40
0.013579998 -0.003233338 0.67900002 4.6169561e-40
0.014851434 -0.0032285678 0.67800009 1.8655346e-40
0.01614286 -0.0032285734 0.67800003 4.6170682e-40
0.017434284 -0.0032285715 0.67800003 7.3685038e-40
0.020769518 -0.0035809635 0.75200003 7.3720491e-40
0.022231437 -0.0035857058 0.75300002 6.4572674e-40
0.023665724 -0.0035857058 0.75300008 8.2867887e-40
0.025100006 -0.0035857114 0.75300002 9.197983e-40
0.026499046 -0.0035809542 0.75200003 6.4465194e-40
0.027931426 -0.003580956 0.75200009 4.6063623e-40
0.029285716 -0.0035714323 0.75000006 7.3651407e-40
0.0307143 -0.0035714193 0.75000012 1.1042064e-39
0.032142859 -0.0035714286 0.75000006 1.1967509e-39
0.033481907 -0.0035619049 0.74800003 1.3811492e-39
0.034906674 -0.003561903 0.74800003 1.84177e-39
0.036331434 -0.0035619012 0.74800009 2.3023796e-39
0.037756193 -0.003561903 0.74800003 1.7488527e-39
0.039180953 -0.0035619049 0.74800003 1.286881e-39
0.040551435 -0.0035571384 0.7470001 5.5307597e-39
0.041861922 -0.0035476054 0.74500012 9.7788871e-39
0.04328097 -0.0035476109 0.74500012 1.1436608e-38
0.044580009 -0.0035380891 0.74300009 1.3000691e-38
0.045995247 -0.003538091 0.74300003 1.170998e-38
0.047410492 -0.0035380872 0.74300009 1.0414195e-38
0.048760016 -0.0035333207 0.7420001 8.3855185e-39
0.050240967 -0.0035380854 0.74300009 6.443686e-39
0.051656205 -0.0035380891 0.74300003 7.0015009e-39
0.053071443 -0.0035380854 0.74300009 7.5568229e-39
-0.040119987 -0.0020399906 0.71400011 1.8406896e-40
-0.038868573 -0.0020457173 0.71600008 1.8623957e-40
-0.037399992 -0.0020399929 0.71400011 4.5093434e-39
-0.036039997 -0.0020399971 0.71400005 8.8500546e-39
-0.034631431 -0.0020371492 0.71300006 1.1077475e-38
-0.033133335 -0.0020285759 0.71000004 1.3269283e-38
-0.031691421 -0.002022851 0.708 7.8391046e-39
-0.030214285 -0.0020142877 0.7050001 2.3117277e-39
-0.028830472 -0.0020114235 0.70400006 1.7481296e-39
-0.027450485 -0.0020085785 0.70300001 1.1056399e-39
-0.026037132 -0.0020028511 0.70100003 1.0145205e-39
-0.024666682 -0.002000015 0.69999999 9.2449966e-40
-0.023333341 -0.0020000078 0.70000005 9.259556e-40
-0.021905709 -0.0019914238 0.69700003 9.2524655e-40
-0.020519055 -0.0019857229 0.69500005 1.0174492e-39
-0.01919524 -0.0019857173 0.69500005 1.0167247e-39
-0.017845716 -0.0019828568 0.69400001 1.4751777e-39
-0.016500002 -0.0019800009 0.69300002 1.933279e-39
-0.015136188 -0.0019742853 0.69100004 1.8403687e-39
-0.013819998 -0.0019742844 0.69100004 1.6563418e-39
-0.012503808 -0.0019742849 0.69100004 1.747464e-39
-0.011171427 -0.0019714248 0.69000006 1.8393051e-39
-0.0098571349 -0.0019714211 0.69000006 1.3794172e-39
-0.0085304789 -0.001968574 0.68900001 8.2983073e-40
-0.0071971393 -0.0019628538 0.68700004 9.2273402e-40
-0.0058800098 -0.0019600105 0.68600005 9.2202216e-40
-0.0045733354 -0.0019600031 0.68600011 1.0127871e-39
-0.0032666703 -0.001960004 0.68600005 1.0131514e-39
-0.0019514305 -0.0019514292 0.68300003 1.1053526e-39
-0.00065048086 -0.0019514338 0.68300003 1.105717e-39
0.00065047713 -0.0019514282 0.68300009 1.3801543e-39
0.0019514239 -0.001951432 0.68300003 1.5659889e-39
0.0032476145 -0.0019485747 0.68200004 1.567435e-39
0.0045466642 -0.0019485747 0.68200004 1.4755757e-39
0.0058285841 -0.001942847 0.68000007 1.3819241e-39
0.0071238135 -0.0019428526 0.68000001 1.1975048e-39
0.0084190555 -0.0019428526 0.68000007 1.0130855e-39
0.0097142886 -0.0019428564 0.68000001 8.2940334e-40
0.010993326 -0.0019400084 0.67900002 7.371965e-40
0.012286669 -0.0019400009 0.67900002 5.5388984e-40
0.01358 -0.0019400009 0.67900002 3.7022446e-40
0.014851427 -0.0019371455 0.67800003 9.4729177e-41
0.017904755 -0.0021485772 0.75200003 4.6244251e-40
0.019362863 -0.0021514224 0.75300002 8.2905582e-40
0.020769525 -0.0021485707 0.75200009 8.2904601e-40
0.022231441 -0.0021514168 0.75300002 8.2904461e-40
0.02372857 -0.0021571482 0.75500005 1.0123555e-39
0.0251 -0.0021514299 0.75300002 1.103835e-39
0.026499048 -0.0021485726 0.75200003 7.3685458e-40
0.027931428 -0.0021485745 0.75200003 2.7769672e-40
0.029285729 -0.0021428487 0.75000012 6.4469819e-40
0.030714288 -0.0021428543 0.75000006 9.2090112e-40
0.03214287 -0.0021428468 0.75000012 1.1963866e-39
0.033481907 -0.0021371378 0.74800009 1.3807919e-39
0.034906667 -0.0021371434 0.74800003 2.0247347e-39
0.036331438 -0.0021371378 0.74800009 2.5761065e-39
0.037756197 -0.0021371397 0.74800009 2.1151353e-39
0.039128583 -0.0021342768 0.7470001 1.5742299e-39
0.040551435 -0.0021342842 0.74700004 6.2779937e-39
0.041974287 -0.0021342768 0.74700004 1.0877313e-38
0.043280963 -0.0021285622 0.74500006 1.1157136e-38
0.044700015 -0.0021285603 0.74500012 1.1337907e-38
0.046119057 -0.0021285641 0.74500006 9.1291624e-39
0.047538105 -0.0021285603 0.74500012 6.823941e-39
0.048957154 -0.0021285603 0.74500012 6.90752e-39
0.050511438 -0.0021342749 0.7470001 7.0007862e-39
0.051934291 -0.0021342842 0.74700004 7.0976412e-39
-0.038868573 -0.00068190473 0.71600008 1.8413903e-40
-0.037504766 -0.00068190612 0.71600002 4.3339877e-39
-0.036040001 -0.00068000157 0.71400005 8.5839116e-39
-0.034631424 -0.00067904464 0.71300012 1.0795877e-38
-0.033179995 -0.00067713589 0.71100008 1.3000996e-38
-0.031691425 -0.00067428045 0.708 8.6725227e-39
-0.030300008 -0.00067334005 0.70700002 4.3418294e-39
-0.028871424 -0.00067142677 0.70500004 2.4871058e-39
-0.027489515 -0.00067046849 0.70400012 7.3576857e-40
-0.02611142 -0.00066951534 0.70300007 8.3046692e-40
-0.024701897 -0.0006676137 0.70100009 1.0163197e-39
-0.023333337 -0.00066667155 0.70000005 1.0167079e-39
-0.021937147 -0.00066476653 0.69800001 1.1089161e-39
-0.020578094 -0.00066380913 0.69700003 1.0170933e-39
-0.019250471 -0.00066380494 0.69700003 1.0174436e-39
-0.017871432 -0.00066190737 0.69499999 1.1996698e-39
-0.01652381 -0.00066095323 0.69400001 1.4744603e-39
-0.015180003 -0.00066000002 0.69300002 1.2893543e-39
-0.013819994 -0.00065808941 0.69100004 1.1964454e-39
-0.012503803 -0.00065808941 0.69100004 1.2886425e-39
-0.011171428 -0.00065714133 0.69000006 1.4719589e-39
-0.0098571461 -0.00065714598 0.69000006 1.1046198e-39
-0.0085304733 -0.00065618951 0.68900001 7.3798683e-40
-0.0071971421 -0.00065428496 0.68700004 8.2981252e-40
-0.0058885687 -0.0006542831 0.68700004 1.0127773e-39
-0.0045733335 -0.00065333408 0.68600005 9.2059424e-40
-0.0032666666 -0.00065333408 0.68600005 9.2060545e-40
-0.0019542831 -0.00065142673 0.68400002 1.0128095e-39
-0.0006504734 -0.00065047306 0.68300009 1.1057254e-39
0.00065047527 -0.00065047864 0.68300003 1.5652644e-39
0.0019485685 -0.00064952683 0.6820001 2.025874e-39
0.0032476201 -0.00064952311 0.68200004 1.6588865e-39
0.0045466679 -0.00064952311 0.68200004 1.2918809e-39
0.0058285785 -0.0006476139 0.68000001 1.1063938e-39
0.0071133287 -0.0006466714 0.67900002 9.2090813e-40
0.0084066633 -0.00064666953 0.67900002 8.2940894e-40
0.0096999928 -0.00064667326 0.67900002 8.30118e-40
0.010993328 -0.00064667512 0.67900002 6.4607847e-40
0.012286657 -0.00064667698 0.67900002 5.5496884e-40
0.013560003 -0.00064571027 0.67800009 3.7022866e-40
0.016494291 -0.00071713992 0.75300002 2.7733518e-40
0.017904757 -0.00071619649 0.75200003 4.6210059e-40
0.01941428 -0.00071905472 0.75500005 6.4539603e-40
0.020797148 -0.00071713899 0.75300002 6.4537922e-40
0.022231439 -0.00071713526 0.75300002 5.5354372e-40
0.023665726 -0.0007171334 0.75300008 7.3685458e-40
0.025100008 -0.00071713899 0.75300002 8.2833555e-40
0.026499057 -0.00071618159 0.75200009 6.4502749e-40
0.027931426 -0.0007161909 0.75200003 3.6990496e-40
0.02928572 -0.00071428355 0.75000006 6.4543527e-40
0.030714292 -0.00071428355 0.75000012 9.2126686e-40
0.032142863 -0.00071428169 0.75000006 1.1960209e-39
0.033571433 -0.00071428169 0.75000012 1.5637482e-39
0.034906674 -0.00071237807 0.74800003 1.9325517e-39
0.03633143 -0.0007123762 0.74800003 2.3920907e-39
0.037756193 -0.00071237993 0.74800009 3.6831715e-39
0.039180961 -0.0007123762 0.74800003 4.9739425e-39
0.040551439 -0.00071142253 0.7470001 7.2853073e-39
0.041974295 -0.00071142067 0.7470001 9.5905273e-39
0.043397147 -0.00071142626 0.74700004 9.2203197e-39
0.044700015 -0.00070951332 0.74500012 8.7589211e-39
0.04611906 -0.00070951704 0.74500006 7.464546e-39
0.047665726 -0.00071141694 0.7470001 6.2624659e-39
0.049088579 -0.00071142253 0.74700004 6.3575622e-39
0.050511431 -0.00071142439 0.74700004 6.5437513e-39
0.051934298 -0.00071141694 0.7470001 6.7295803e-39
-0.038868576 0.00068189937 0.71600002 1.8949759e-40
-0.037504762 0.00068190636 0.71600002 4.2421452e-39
-0.036140949 0.00068191194 0.71600008 8.2101082e-39
-0.03467999 0.00068001112 0.71400011 1.0429251e-38
-0.033179995 0.00067715405 0.71100008 1.2630783e-38
-0.03182571 0.00067714753 0.71100003 9.507293e-39
-0.030342853 0.00067429093 0.70800006 6.3561105e-39
-0.02895334 0.00067332818 0.70700002 3.3064478e-39
-0.027528571 0.00067142502 0.70500004 2.7803023e-40
-0.026148567 0.00067047821 0.70400012 6.4716587e-40
-0.024772387 0.00066951977 0.70300007 1.0156065e-39
-0.023366658 0.00066762452 0.70100003 1.1989412e-39
-0.022031419 0.00066762872 0.70100009 1.2911438e-39
-0.020607622 0.00066475931 0.69800001 1.1078413e-39
-0.019250469 0.00066381635 0.69700003 9.2380461e-40
-0.017922845 0.00066381961 0.69700003 1.014917e-39
-0.016547624 0.00066189922 0.69500005 1.0142024e-39
-0.01518001 0.0006599914 0.69300002 8.2945939e-40
-0.01382 0.00065809477 0.69100004 6.457912e-40
-0.012503808 0.00065809477 0.69100004 8.3018386e-40
-0.011171428 0.00065714389 0.69000006 1.0135045e-39
-0.0098571461 0.00065713923 0.69000006 8.2948461e-40
-0.0085304789 0.00065618835 0.68900001 5.539557e-40
-0.0072180969 0.00065618928 0.68900001 8.297985e-40
-0.005888564 0.00065429404 0.68700004 1.012766e-39
-0.0045733419 0.00065332546 0.68600005 9.1986836e-40
-0.0032666749 0.0006533236 0.68600005 8.2840561e-40
-0.0019514323 0.00065047189 0.68300009 1.0113746e-39
-0.00065048644 0.00065046817 0.68300003 1.1053681e-39
0.00064952625 0.00064952474 0.68200004 1.8407765e-39
0.001948575 0.0006495266 0.68200004 2.4846829e-39
0.0032476136 0.00064951729 0.68200004 1.8425351e-39
0.0045333426 0.00064762856 0.68000007 1.1067525e-39
0.0058285738 0.00064762111 0.68000001 9.2198432e-40
0.0071133305 0.00064666371 0.67900002 6.4574636e-40
0.0084066652 0.00064666371 0.67900002 7.3756784e-40
0.0096999947 0.00064666185 0.67900002 7.382783e-40
0.010993328 0.00064665813 0.67900002 6.4607847e-40
0.01226858 0.00064572121 0.67800009 4.6241448e-40
0.013560003 0.00064571563 0.67800003 4.6242009e-40
0.016538098 0.0007190489 0.75500011 3.7023987e-40
0.017928574 0.00071714248 0.75300002 4.6244671e-40
0.019414285 0.00071904424 0.75500005 4.6207817e-40
0.02085238 0.00071904424 0.75500005 3.6987273e-40
0.022231441 0.00071715366 0.75300002 2.776827e-40
0.023665722 0.00071714993 0.75300002 4.6099917e-40
0.0251 0.00071714248 0.75300002 5.5355213e-40
0.026534298 0.00071715552 0.75300008 5.5355353e-40
0.027931429 0.00071618881 0.75200003 4.6208798e-40
0.029285721 0.00071428891 0.75000012 6.4613031e-40
0.030714296 0.00071428891 0.75000006 8.2907263e-40
0.032142866 0.00071428891 0.75000012 1.286804e-39
0.033571433 0.00071428705 0.75000006 1.7481577e-39
0.034906674 0.00071238715 0.74800009 1.9325685e-39
0.036428578 0.00071428518 0.75000006 2.1201856e-39
0.03775619 0.0007123797 0.74800003 5.2515608e-39
0.039180964 0.00071238715 0.74800009 8.3815403e-39
0.040551435 0.00071143347 0.74700004 8.3901905e-39
0.041974287 0.00071143347 0.74700004 8.2983494e-39
0.043397158 0.0007114372 0.7470001 7.2831311e-39
0.044700012 0.00070953171 0.74500006 6.1767639e-39
0.04611906 0.00070953544 0.74500012 5.8918939e-39
0.047665719 0.00071143534 0.74700004 5.6207062e-39
0.048957154 0.00070953357 0.74500006 5.80798e-39
0.050511438 0.00071144092 0.7470001 5.9927356e-39
-0.036140952 0.0020457159 0.71600002 7.6569386e-39
-0.034679994 0.0020400044 0.71400011 9.1331477e-39
-0.033273336 0.0020371408 0.71300006 1.0513903e-38
-0.031915236 0.0020371431 0.71300006 7.284587e-39
-0.030428573 0.0020285675 0.7100001 4.1362729e-39
-0.028994283 0.0020228622 0.70800006 2.6661077e-39
-0.02760667 0.0020199954 0.70700002 1.1974656e-39
-0.026185703 0.0020142952 0.7050001 1.1989075e-39
-0.024772378 0.0020085736 0.70300001 1.1992817e-39
-0.023433339 0.0020085641 0.70300001 1.1985796e-39
-0.022031421 0.0020028616 0.70100009 1.2893431e-39
-0.020607624 0.0019942794 0.69799995 1.1982293e-39
-0.019250479 0.001991424 0.69700003 1.1056735e-39
-0.017922858 0.0019914291 0.69700003 1.0141926e-39
-0.016547624 0.001985709 0.69500005 9.2164661e-40
-0.015201911 0.0019828517 0.69399995 8.2981672e-40
-0.01386001 0.0019799916 0.69300002 7.376267e-40
-0.012503805 0.0019742881 0.69100004 9.2201936e-40
-0.011187613 0.0019742881 0.69100004 1.014229e-39
-0.0098571368 0.0019714346 0.69000006 9.2133132e-40
-0.0085304752 0.0019685735 0.68900001 8.2874333e-40
-0.0072180941 0.0019685735 0.68900001 9.2161859e-40
-0.0058885678 0.0019628617 0.68700004 1.0134723e-39
-0.0045733382 0.0019599923 0.68600005 1.0131304e-39
-0.0032666749 0.0019599914 0.68600005 1.1049841e-39
-0.0019514342 0.0019514243 0.68300003 1.1971965e-39
-0.00065048272 0.0019514196 0.68300003 1.2894006e-39
0.00064952066 0.0019485679 0.68200004 1.5663504e-39
0.0019485685 0.0019485689 0.68200004 1.9336616e-39
0.0032476201 0.0019485707 0.68200004 1.4737358e-39
0.004533337 0.0019428617 0.68000001 1.0134611e-39
0.0058200001 0.0019399988 0.67900008 9.2124444e-40
0.0071133408 0.0019400063 0.67900008 7.3649164e-40
0.0084066726 0.0019400044 0.67900008 6.4608407e-40
0.0097000059 0.0019400025 0.67900008 6.4787493e-40
0.010993337 0.0019400025 0.67900008 5.546017e-40
0.012286669 0.0019400007 0.67900008 5.5353111e-40
0.015060011 0.0021514378 0.75300002 4.6205855e-40
0.016494289 0.0021514322 0.75300002 3.6987273e-40
0.017928578 0.0021514331 0.75300008 5.5391086e-40
0.019362869 0.0021514387 0.75300002 7.3829512e-40
0.020852387 0.002157144 0.75500005 5.5390245e-40
0.022290483 0.0021571459 0.75500011 4.613579e-40
0.023665726 0.0021514387 0.75300008 4.6136631e-40
0.025100006 0.0021514313 0.75300002 5.542752e-40
0.026534297 0.0021514369 0.75300002 4.624369e-40
0.027931437 0.0021485796 0.75200009 3.7096014e-40
0.029285723 0.0021428631 0.75000006 5.54271e-40
0.030714292 0.0021428631 0.75000012 8.2907263e-40
0.032142863 0.0021428594 0.75000006 1.380457e-39
0.033571441 0.002142865 0.75000012 2.0251187e-39
0.035000008 0.0021428594 0.75000006 2.8512991e-39
0.036428586 0.002142865 0.75000012 3.7714449e-39
0.037756193 0.0021371411 0.74800003 5.8079659e-39
0.039180961 0.0021371485 0.74800009 7.9302549e-39
0.04060572 0.0021371467 0.74800003 7.6533401e-39
0.04203048 0.0021371429 0.74800003 7.3788944e-39
0.043397155 0.0021342875 0.74700004 6.3604363e-39
0.044820011 0.0021342931 0.74700004 5.4359801e-39
0.046304766 0.0021371467 0.74800003 5.2526636e-39
0.047729529 0.0021371467 0.74800009 5.1629777e-39
0.049088575 0.0021342875 0.74700004 5.4399149e-39
-0.03467999 0.0034000073 0.71400005 7.7480763e-39
-0.033320002 0.0033999982 0.71400005 8.390524e-39
-0.031915236 0.0033952382 0.71300012 5.1644014e-39
-0.030471427 0.0033857173 0.71100003 1.8446609e-39
-0.029076185 0.0033809564 0.7100001 2.0247137e-39
-0.027645709 0.0033714327 0.70800006 2.1172667e-39
-0.026260002 0.0033666645 0.70700002 1.7510023e-39
-0.024842853 0.0033571469 0.7050001 1.2907598e-39
-0.023433333 0.0033476159 0.70300007 1.2896934e-39
-0.022031423 0.0033380983 0.70100003 1.1975006e-39
-0.020666674 0.0033333225 0.70000005 1.2893375e-39
-0.0192781 0.0033238067 0.69800001 1.2893333e-39
-0.017922856 0.0033190467 0.69700003 1.1056581e-39
-0.016547622 0.0033095197 0.69500005 8.3051597e-40
-0.015201906 0.0033047616 0.69400001 8.3088171e-40
-0.013860006 0.0032999932 0.69300002 8.3017405e-40
-0.012540007 0.0032999904 0.69300002 9.2166062e-40
-0.01118762 0.0032904723 0.69100004 1.0135045e-39
-0.0098571368 0.0032857179 0.69000006 1.0127941e-39
-0.0085428581 0.0032857151 0.69000006 1.0134877e-39
-0.0072180987 0.0032809514 0.68900001 1.0145415e-39
-0.0059057153 0.0032809505 0.68900001 1.0141968e-39
-0.0045799953 0.0032714324 0.68700004 1.1971657e-39
-0.0032666721 0.0032666603 0.68600005 1.2897341e-39
-0.001954284 0.003257144 0.68400002 1.3826612e-39
-0.00065047713 0.0032523803 0.68300003 1.3833773e-39
0.00065047061 0.0032523756 0.68300003 1.3848108e-39
0.0019514202 0.0032523728 0.68300003 1.2904347e-39
0.0032476126 0.0032476129 0.68200004 1.1053008e-39
0.0045466605 0.0032476147 0.68200004 9.2125705e-40
0.0058285738 0.0032380985 0.68000001 9.2088431e-40
0.0071133315 0.003233332 0.67900008 8.2904601e-40
0.0084066745 0.0032333394 0.67900008 6.4608968e-40
0.0097000059 0.0032333394 0.67900008 4.6277321e-40
0.010993339 0.0032333375 0.67900008 5.5460591e-40
0.012286669 0.0032333357 0.67900008 6.4572814e-40
0.01510001 0.0035952448 0.75500011 5.5425418e-40
0.016494295 0.0035857211 0.75300002 3.6987273e-40
0.017928574 0.0035857165 0.75300002 6.4538763e-40
0.019414293 0.0035952411 0.75500005 9.2089411e-40
0.020852381 0.0035952346 0.75500005 8.2905862e-40
0.022290476 0.0035952365 0.75500011 6.4467577e-40
0.023665722 0.0035857202 0.75300002 5.5248714e-40
0.0251 0.0035857146 0.75300002 4.6172504e-40
0.0265343 0.0035857239 0.75300008 3.7060421e-40
0.027931429 0.0035809518 0.75200009 1.8656888e-40
0.029285725 0.0035714356 0.75000012 5.5426259e-40
0.030714292 0.0035714319 0.75000006 8.297915e-40
0.032142866 0.0035714374 0.75000012 1.5644965e-39
0.03357143 0.0035714281 0.75000006 2.207366e-39
0.035000015 0.0035714374 0.75000012 3.7682303e-39
0.036428574 0.0035714281 0.75000006 5.3430544e-39
0.037756193 0.0035619081 0.74800003 6.4619281e-39
0.039180953 0.0035619026 0.74800003 7.4689054e-39
0.040605724 0.0035619081 0.74800009 6.9139604e-39
0.042030483 0.0035619063 0.74800003 6.3589943e-39
0.043455239 0.00356191 0.74800003 5.5267281e-39
0.044820003 0.0035571416 0.74700004 4.6090949e-39
0.046304766 0.0035619119 0.74800003 4.6108927e-39
0.047857147 0.0035714356 0.75000006 4.6108913e-39
-0.033319999 0.0047600023 0.71400005 7.7479922e-39
-0.031915247 0.0047533256 0.71300006 4.4231832e-39
-0.030557146 0.0047533261 0.71300006 1.196402e-39
-0.029076189 0.0047333362 0.71000004 1.473719e-39
-0.027645711 0.0047200024 0.70800006 1.7502961e-39
-0.02626 0.0047133327 0.70700002 1.4751427e-39
-0.024842845 0.0047000088 0.7050001 1.1989243e-39
-0.02346666 0.0046933391 0.70400012 1.290048e-39
-0.02209428 0.0046866727 0.70300007 1.3808059e-39
-0.020696174 0.0046733455 0.70100009 1.2893277e-39
-0.019333342 0.0046666567 0.70000005 1.1974866e-39
-0.017948572 0.0046533346 0.69800001 1.01381e-39
-0.016595231 0.004646671 0.69700003 9.2234025e-40
-0.015223814 0.0046333279 0.69500005 9.2234726e-40
-0.01387999 0.0046266755 0.69400001 9.2272141e-40
-0.012540007 0.0046199942 0.69300002 9.2237809e-40
-0.011187619 0.0046066674 0.69100004 1.0138563e-39
-0.009871427 0.0046066674 0.69100004 1.0138563e-39
-0.0085428581 0.0045999996 0.69000006 1.106398e-39
-0.0072181015 0.0045933276 0.68900001 1.1063868e-39
-0.0059057199 0.0045933286 0.68900001 1.1063994e-39
-0.004579999 0.0045799995 0.68700004 1.1064106e-39
-0.0032666703 0.0045733275 0.68600005 1.1982601e-39
-0.0019542822 0.0045600049 0.68400002 1.5666909e-39
-0.00065047713 0.004553332 0.68300003 1.935814e-39
0.00065047806 0.0045533367 0.68300009 1.3829947e-39
0.001948576 0.0045466712 0.68200004 8.2980411e-40
0.0032476238 0.004546674 0.6820001 8.2977748e-40
0.0045333388 0.0045333393 0.68000001 9.2088851e-40
0.005828572 0.0045333318 0.68000001 8.2904601e-40
0.0071133333 0.0045266654 0.67900008 8.2904741e-40
0.0084066652 0.0045266636 0.67900008 8.2940614e-40
0.0097000021 0.0045266692 0.67900008 8.2904461e-40
0.010993339 0.0045266729 0.67900008 7.3720491e-40
0.012286672 0.004526671 0.67900008 6.4465475e-40
0.015060011 0.0050200103 0.75300002 4.6134389e-40
0.016494289 0.0050200038 0.75300002 3.6915667e-40
0.017928578 0.0050200056 0.75300008 8.2869848e-40
0.019362869 0.0050200094 0.75300002 1.2875228e-39
0.020852393 0.0050333422 0.75500011 1.0120206e-39
0.022290481 0.0050333338 0.75500005 8.2799363e-40
0.023665724 0.0050200112 0.75300008 7.3615954e-40
0.025100004 0.0050200038 0.75300002 6.4468137e-40
0.026499052 0.0050133336 0.75200003 4.6172504e-40
0.027931429 0.0050133336 0.75200009 3.6916087e-40
0.029285721 0.0050000045 0.75000006 6.4537221e-40
0.0307143 0.0050000083 0.75000012 1.0134625e-39
0.032142859 0.0050000027 0.75000006 2.2066373e-39
0.033571437 0.0050000083 0.75000012 3.3079668e-39
0.035000008 0.0050000027 0.75000006 4.9728649e-39
0.036428582 0.0050000083 0.75000012 6.5444506e-39
0.037857149 0.0050000045 0.75000006 6.4561814e-39
0.039180957 0.0049866717 0.74800003 6.2739481e-39
0.040605724 0.0049866773 0.74800009 5.714327e-39
0.04203048 0.004986668 0.74800009 5.1568596e-39
0.043455239 0.004986668 0.74800003 4.7902365e-39
0.044880006 0.0049866736 0.74800009 4.4232659e-39
0.046304774 0.0049866755 0.74800009 4.424712e-39
-0.030557148 0.0061114212 0.71300006 4.6280124e-40
-0.029117133 0.0060942927 0.71100008 9.237878e-40
-0.027723812 0.0060857125 0.71000004 1.2911228e-39
-0.026297139 0.0060685738 0.70800006 1.2003565e-39
-0.024913333 0.0060600028 0.70700002 1.1074448e-39
-0.023499994 0.00604286 0.7050001 1.3818751e-39
-0.022157138 0.0060428604 0.70500004 1.5659006e-39
-0.020784756 0.0060342918 0.70400012 1.2896738e-39
-0.019416198 0.0060257087 0.70300001 1.0141645e-39
-0.017948577 0.0059828535 0.69800001 1.0134457e-39
-0.016547631 0.0059571313 0.69500005 1.0134443e-39
-0.0152019 0.0059485752 0.69400001 1.013803e-39
-0.013860011 0.0059399894 0.69300002 9.2235427e-40
-0.012540003 0.0059399959 0.69300002 1.0142164e-39
-0.011187615 0.0059228595 0.69100004 1.0142108e-39
-0.0098714251 0.0059228605 0.69100004 1.1056805e-39
-0.0085428488 0.0059142951 0.69000006 1.1060211e-39
-0.0072285677 0.0059142914 0.69000006 1.1067217e-39
-0.0059057144 0.005905713 0.68900001 1.1067497e-39
-0.0045799934 0.0058885776 0.68700004 1.1071379e-39
-0.0032714312 0.0058885701 0.68700004 1.1075008e-39
-0.001951436 0.005854276 0.68300003 1.7503535e-39
-0.00065048086 0.0058542816 0.68300009 2.3928306e-39
0.00065047061 0.0058542769 0.68300003 1.3811926e-39
0.0019485704 0.0058457144 0.68200004 2.7878132e-40
0.0032476201 0.0058457144 0.6820001 5.5461852e-40
0.0045333332 0.0058285724 0.68000001 8.2941034e-40
0.0058285869 0.0058285855 0.68000007 8.2905301e-40
0.0071133352 0.0058199987 0.67900008 8.2905722e-40
0.0084066708 0.0058200043 0.67900008 1.012731e-39
0.009700004 0.0058200024 0.67900008 1.104921e-39
0.010993337 0.0058200005 0.67900008 9.2088571e-40
0.013571432 0.0064285761 0.75000006 6.4502469e-40
0.015039999 0.0064457124 0.75200009 4.6063904e-40
0.016472388 0.0064457199 0.75200009 2.7769392e-40
0.017904758 0.0064457115 0.75200003 9.2090953e-40
0.019362863 0.0064542927 0.75300002 1.5634007e-39
0.020769527 0.0064457189 0.75200009 1.2871795e-39
0.022201899 0.0064457087 0.75200003 1.0120304e-39
0.023634288 0.0064457171 0.75200003 9.1983333e-40
0.025066668 0.0064457161 0.75200009 7.3723573e-40
0.02649904 0.0064457059 0.75200003 6.4539744e-40
0.027931429 0.0064457152 0.75200003 4.6172644e-40
0.029285727 0.0064285826 0.75000012 8.2799223e-40
0.030714292 0.0064285733 0.75000006 1.1957154e-39
0.032142866 0.006428577 0.75000012 2.8484166e-39
0.033571433 0.0064285751 0.75000006 4.4196855e-39
0.035000011 0.0064285789 0.75000012 6.0874549e-39
0.036428582 0.006428577 0.75000006 7.7397526e-39
0.037756201 0.0064114369 0.74800009 6.4518808e-39
0.039180957 0.0064114295 0.74800003 5.0707582e-39
0.04060572 0.0064114332 0.74800003 4.5118503e-39
0.042030483 0.0064114332 0.74800009 3.8700809e-39
0.043455243 0.0064114332 0.74800003 4.0544735e-39
0.044700008 0.0063857231 0.74500006 4.147388e-39
0.04611906 0.006385725 0.74500012 4.2395865e-39
-0.030557139 0.0074695265 0.71300006 3.7133148e-40
-0.029117133 0.0074485829 0.71100003 9.2235707e-40
-0.027723804 0.007438099 0.7100001 1.4740805e-39
-0.026297132 0.0074171545 0.70800006 1.1074476e-39
-0.02491333 0.0074066725 0.70700008 8.3265295e-40
-0.023499988 0.0073857214 0.7050001 1.1081524e-39
-0.022157134 0.0073857233 0.70500004 1.4769251e-39
-0.020784752 0.0073752464 0.70400006 1.2910961e-39
-0.019416181 0.0073647723 0.70300007 1.1981859e-39
-0.018000007 0.007333328 0.70000005 1.1971097e-39
-0.016595241 0.0073019005 0.69700003 1.1963852e-39
-0.015223812 0.0072809486 0.69500005 1.1052587e-39
-0.013879998 0.0072704805 0.69400001 1.01418e-39
-0.01255809 0.0072704814 0.69400001 1.1064134e-39
-0.011187611 0.007239054 0.69100004 1.1989538e-39
-0.0098714214 0.007239054 0.69100004 1.1978636e-39
-0.0085428506 0.0072285803 0.69000006 1.1971223e-39
-0.0072285677 0.0072285756 0.69000006 1.2900087e-39
-0.0059057199 0.007218088 0.68900001 1.4740847e-39
-0.0045799972 0.0071971472 0.68700004 1.3844479e-39
-0.0032714237 0.0071971491 0.68700004 1.3837248e-39
-0.0019542747 0.0071657235 0.68400002 1.4748372e-39
-0.00065047899 0.007155234 0.68300003 1.6563446e-39
0.00065046875 0.0071552293 0.68300003 1.1046015e-39
0.0019514239 0.0071552349 0.68300003 5.5284307e-40
0.0032476238 0.0071447659 0.68200004 6.4572534e-40
0.0045466642 0.0071447594 0.68200004 6.4609528e-40
0.0058285813 0.0071238196 0.68000001 7.3722452e-40
0.0071133352 0.0071133338 0.67900008 8.2870829e-40
0.008406667 0.0071133338 0.67900008 9.2126686e-40
0.009700004 0.0071133375 0.67900008 1.0134555e-39
0.012142861 0.0078571485 0.75000006 8.2977748e-40
0.013571434 0.0078571476 0.75000012 6.461121e-40
0.015039999 0.0078780949 0.75200003 5.5392207e-40
0.016472388 0.0078781024 0.75200009 4.6209639e-40
0.01790476 0.007878093 0.75200003 8.2944818e-40
0.01933714 0.0078780912 0.75200003 1.2879082e-39
0.020769531 0.0078781005 0.75200009 1.1042372e-39
0.022201901 0.0078780921 0.75200003 1.0127548e-39
0.02363429 0.0078781014 0.75200003 1.0134653e-39
0.025066668 0.0078780986 0.75200009 1.0145387e-39
0.02649905 0.0078780968 0.75200009 1.1060112e-39
0.027931429 0.0078780968 0.75200003 1.1063826e-39
0.029285721 0.0078571457 0.75000006 1.8396428e-39
0.030714296 0.0078571495 0.75000012 2.5729045e-39
0.032142863 0.0078571476 0.75000006 3.8657887e-39
0.033571437 0.0078571476 0.75000012 5.1590414e-39
0.035000008 0.0078571476 0.75000006 5.9927566e-39
0.036428582 0.0078571476 0.75000012 6.7320788e-39
0.037756193 0.0078361928 0.74800003 5.5306588e-39
0.039180961 0.0078361947 0.74800009 4.2395739e-39
0.040605713 0.0078361928 0.74800003 3.869355e-39
0.04203048 0.007836191 0.74800003 3.409823e-39
0.043571431 0.007857142 0.75000006 3.6864099e-39
0.04536001 0.00792001 0.7560001 4.0551826e-39
0.04680001 0.0079200063 0.7560001 4.2413591e-39
-0.027723817 0.0087904688 0.71000004 1.5648384e-39
-0.02626 0.0087533351 0.70700002 1.1060098e-39
-0.024913333 0.0087533351 0.70700002 5.564374e-40
-0.023566671 0.0087533295 0.70700008 9.2486119e-40
-0.022157138 0.008728575 0.7050001 1.292192e-39
-0.020814281 0.0087285731 0.70500004 1.3836575e-39
-0.019416187 0.0087038158 0.70300007 1.3815079e-39
-0.01800001 0.0086666541 0.70000005 1.3797171e-39
-0.016595243 0.0086295204 0.69700003 1.2885948e-39
-0.015267618 0.0086295232 0.69700003 1.1963964e-39
-0.013900006 0.0086047566 0.69500005 1.0141814e-39
-0.012558091 0.0085923821 0.69400001 1.1982321e-39
-0.01122001 0.0085799918 0.69300002 1.2900634e-39
-0.0099000037 0.0085799973 0.69300002 1.2889844e-39
-0.0085552353 0.0085552372 0.69100004 1.1982181e-39
-0.0072285687 0.0085428609 0.69000006 1.4737176e-39
-0.0059057144 0.0085304733 0.68900001 1.7524877e-39
-0.0045800009 0.0085057132 0.68700004 1.6646319e-39
-0.0032714293 0.0085057151 0.68700004 1.5695482e-39
-0.0019542803 0.0084685758 0.68400002 1.2003929e-39
-0.00065142522 0.0084685739 0.68400002 8.2980971e-40
0.0006504762 0.0084561901 0.68300009 8.2836077e-40
0.0019514239 0.0084561855 0.68300003 8.2870269e-40
0.0032523717 0.0084561827 0.68300003 6.4573235e-40
0.0045466586 0.0084438007 0.68200004 4.6206696e-40
0.005845712 0.0084438073 0.68200004 6.4502609e-40
0.0071238163 0.0084190546 0.68000001 8.2906142e-40
0.0084190574 0.0084190592 0.68000007 8.3014322e-40
0.010714293 0.0092857201 0.75000006 8.3049915e-40
0.012142854 0.0092857117 0.75000006 7.3866226e-40
0.013571437 0.0092857219 0.75000006 6.4683236e-40
0.015039999 0.0093104746 0.75200003 6.4647784e-40
0.016472379 0.0093104737 0.75200003 6.4613172e-40
0.01790477 0.0093104839 0.75200009 8.3017405e-40
0.01933714 0.0093104737 0.75200003 9.2129348e-40
0.020769522 0.0093104709 0.75200003 9.2093615e-40
0.022201911 0.0093104802 0.75200009 9.2128648e-40
0.023634281 0.0093104718 0.75200003 1.106384e-39
0.025066664 0.0093104746 0.75200003 1.2907696e-39
0.026499052 0.0093104793 0.75200009 1.5662747e-39
0.027931426 0.0093104728 0.75200003 1.7499583e-39
0.029285725 0.0092857219 0.75000012 2.8516382e-39
0.030796189 0.0093104765 0.75200009 3.9579801e-39
0.032142866 0.0092857201 0.75000012 4.9742802e-39
0.033571433 0.0092857182 0.75000006 5.8958736e-39
0.035000011 0.0092857219 0.75000012 5.8087114e-39
0.036428578 0.0092857182 0.75000006 5.7139837e-39
0.037857156 0.0092857238 0.75000012 4.6065543e-39
0.039180961 0.0092609581 0.74800009 3.4098048e-39
0.04060572 0.0092609562 0.74800003 3.2236044e-39
0.042142864 0.0092857163 0.75000006 2.9499028e-39
0.043571439 0.0092857219 0.75000012 3.4101677e-39
-0.026259998 0.010100005 0.70700008 9.2233605e-40
-0.02491333 0.010100003 0.70700002 1.0152646e-39
-0.023499988 0.010071437 0.7050001 1.1071169e-39
-0.022157133 0.010071436 0.70500004 1.1992943e-39
-0.020784754 0.01005715 0.70400012 1.565902e-39
-0.019416187 0.01004286 0.70300007 1.9318146e-39
-0.018025706 0.010014292 0.70100009 1.5644769e-39
-0.016619051 0.0099714259 0.69800001 1.2893291e-39
-0.015267618 0.009957144 0.69700003 1.1974922e-39
-0.013900006 0.0099285664 0.69500005 1.106377e-39
-0.012576198 0.0099285645 0.69500005 1.1063784e-39
-0.011236189 0.0099142874 0.69400001 1.1067441e-39
-0.0099000093 0.0098999916 0.69300002 1.1067511e-39
-0.0085552335 0.0098714326 0.69100004 1.1081973e-39
-0.0072390442 0.0098714326 0.69100004 1.660655e-39
-0.0059142881 0.0098571414 0.69000006 2.2142015e-39
-0.0045999964 0.0098571442 0.69000006 1.6628522e-39
-0.0032809549 0.0098428521 0.68900001 1.1114469e-39
-0.0019599986 0.0098000001 0.68600011 1.015273e-39
-0.00065142335 0.0097714346 0.68400002 8.2800064e-40
0.00065143546 0.0097714346 0.68400002 7.3650846e-40
0.0019514239 0.0097571369 0.68300003 7.3722032e-40
0.003252381 0.0097571425 0.68300003 5.5426119e-40
0.0045533287 0.0097571388 0.68300003 3.7095033e-40
0.005845712 0.0097428542 0.68200004 6.4573935e-40
0.0071447599 0.0097428542 0.68200004 8.2905582e-40
0.0092609562 0.010685718 0.74800003 8.2977748e-40
0.01068572 0.010685719 0.74800009 8.3085648e-40
0.012142865 0.010714294 0.75000012 8.3085929e-40
0.01357143 0.010714286 0.75000006 7.390294e-40
0.015000001 0.010714286 0.75000006 6.4683937e-40
0.016428575 0.010714288 0.75000006 5.5430182e-40
0.017857146 0.010714287 0.75000006 5.5395851e-40
0.019285727 0.010714297 0.75000012 5.5432004e-40
0.020714289 0.010714289 0.75000006 5.5324665e-40
0.02214287 0.010714298 0.75000012 6.4507093e-40
0.023571433 0.010714291 0.75000006 9.2235987e-40
0.025000012 0.010714296 0.75000012 1.2918543e-39
0.026428578 0.010714293 0.75000006 1.8425071e-39
0.027857156 0.010714296 0.75000012 2.3938928e-39
0.029285725 0.010714293 0.75000006 3.3162064e-39
0.030796193 0.01074286 0.75200003 4.2392347e-39
0.032142863 0.010714291 0.75000006 4.8849629e-39
0.033571441 0.010714294 0.75000012 5.5292449e-39
0.035000011 0.010714289 0.75000006 5.2533769e-39
0.036428586 0.010714294 0.75000012 4.8824293e-39
0.037857149 0.010714285 0.75000006 4.0540966e-39
0.039285723 0.010714293 0.75000012 3.2228842e-39
0.040714294 0.010714289 0.75000006 2.8558701e-39
0.042142868 0.010714296 0.75000012 2.4899827e-39
-0.024842851 0.011414289 0.7050001 1.3811534e-39
-0.023499995 0.011414288 0.7050001 1.2886159e-39
-0.022125699 0.011398108 0.70400012 1.1060197e-39
-0.020784762 0.011398093 0.70400006 1.7492241e-39
-0.019443804 0.011398098 0.70400012 2.391725e-39
-0.018077143 0.011381906 0.70300001 1.8407218e-39
-0.016666675 0.011333326 0.70000005 1.2893389e-39
-0.015333341 0.011333323 0.70000005 1.2893277e-39
-0.013939995 0.011284767 0.69700003 1.197488e-39
-0.012576187 0.011252384 0.69500005 1.1063672e-39
-0.011236191 0.01123619 0.69400001 9.227102e-40
-0.0099000055 0.011219993 0.69300002 1.0152786e-39
-0.0085552391 0.011187619 0.69100004 1.017082e-39
-0.0072390498 0.011187618 0.69100004 1.8461224e-39
-0.0059142769 0.011171435 0.69000006 2.6719357e-39
-0.0045999964 0.011171432 0.69000006 1.6606802e-39
-0.0032809605 0.011155228 0.68900001 6.490282e-40
-0.0019600061 0.011106659 0.68600005 7.3725115e-40
-0.00065141777 0.011074295 0.68400002 8.287167e-40
0.00065143919 0.011074294 0.68400002 7.3651266e-40
0.0019514314 0.011058098 0.68300003 5.5391927e-40
0.003252381 0.011058093 0.68300003 4.6280264e-40
0.004553338 0.011058099 0.68300009 2.7912464e-40
0.0058542877 0.011058094 0.68300003 5.5426679e-40
0.0071447599 0.011041904 0.68200004 8.2906282e-40
0.0092609581 0.012110481 0.74800003 8.2835236e-40
0.010685712 0.012110475 0.74800003 8.3014603e-40
0.012142858 0.012142858 0.75000006 8.3086349e-40
0.013571441 0.012142869 0.75000006 8.3050896e-40
0.015000004 0.012142859 0.75000006 6.4720091e-40
0.016428575 0.012142858 0.75000006 3.6954623e-40
0.017857147 0.012142861 0.75000006 2.7664014e-40
0.01928572 0.012142859 0.75000006 9.3330682e-41
0.0207143 0.012142871 0.75000012 1.8445152e-40
0.022142865 0.012142862 0.75000006 2.7807507e-40
0.023571441 0.012142867 0.75000012 8.2944257e-40
0.025000008 0.012142864 0.75000006 1.2914997e-39
0.026428578 0.012142863 0.75000012 2.1183891e-39
0.027857153 0.012142865 0.75000006 2.9481428e-39
0.029285727 0.012142864 0.75000012 3.780409e-39
0.030796193 0.012175241 0.75200003 4.5186915e-39
0.032228574 0.01217524 0.75200009 4.8889145e-39
0.033660948 0.012175232 0.75200003 5.1619015e-39
0.035000015 0.012142867 0.75000012 4.6087277e-39
0.036428578 0.012142858 0.75000006 4.0559043e-39
0.037857156 0.012142863 0.75000012 3.5037969e-39
0.039285719 0.012142861 0.75000006 2.9488168e-39
0.040714297 0.012142863 0.75000012 2.4871072e-39
0.042030487 0.012110485 0.74800009 1.939697e-39
-0.024842845 0.01275715 0.7050001 9.2267516e-40
-0.02349999 0.01275715 0.7050001 8.3013622e-40
-0.02212571 0.012739052 0.70400006 8.297901e-40
-0.020784752 0.012739058 0.70400012 1.3811744e-39
-0.019443795 0.01273906 0.70400012 1.9325629e-39
-0.018077139 0.012720957 0.70300007 1.6567131e-39
-0.01669047 0.012684765 0.70100009 1.2886327e-39
-0.01533334 0.012666659 0.70000005 1.1971335e-39
-0.013960004 0.012630471 0.69799995 1.1964062e-39
-0.012612371 0.01261239 0.69700003 9.2160738e-40
-0.011252388 0.012576183 0.69499999 6.4612331e-40
-0.009914279 0.012558103 0.69400001 8.3125165e-40
-0.0085552353 0.01250381 0.69100004 1.0163674e-39
-0.007239046 0.012503811 0.69100004 1.4777071e-39
-0.0059228544 0.012503809 0.69100004 1.9365258e-39
-0.0045999964 0.012485716 0.69000006 1.2004069e-39
-0.0032857065 0.01248572 0.69000006 4.642698e-40
-0.0019600042 0.012413329 0.68600005 5.5429202e-40
-0.00065333815 0.012413326 0.68600005 7.3723994e-40
0.00065142987 0.012377145 0.68400002 6.4539884e-40
0.0019542868 0.012377147 0.68400002 6.4612471e-40
0.003252381 0.012359049 0.68300009 5.5429762e-40
0.0045533306 0.012359045 0.68300003 4.6244811e-40
0.0058542783 0.01235904 0.68300003 6.4574636e-40
0.0078361873 0.013535235 0.74800003 8.2870969e-40
0.0092609506 0.013535237 0.74800009 8.2943697e-40
0.010685716 0.013535241 0.74800003 7.3831754e-40
0.012110472 0.013535231 0.74800003 6.4683797e-40
0.013571432 0.013571432 0.75000006 6.4612471e-40
0.015000004 0.013571432 0.75000006 4.6138032e-40
0.016428579 0.013571434 0.75000006 2.7591006e-40
0.017857149 0.013571433 0.75000006 3.589873e-39
0.019285712 0.013571425 0.75000006 6.8880616e-39
0.020714292 0.013571435 0.75000006 5.0631926e-39
0.022142855 0.013571427 0.75000006 3.2185934e-39
0.023571437 0.013571436 0.75000006 2.3917166e-39
0.02500001 0.013571436 0.75000012 1.4773287e-39
0.026428577 0.013571432 0.75000006 2.4882577e-39
0.027857155 0.013571436 0.75000012 3.4991656e-39
0.029285721 0.013571434 0.75000006 4.2413829e-39
0.0307143 0.013571437 0.75000012 5.0736547e-39
0.032142859 0.013571432 0.75000006 5.2562607e-39
0.033571437 0.013571436 0.75000012 5.5285246e-39
0.035000008 0.013571432 0.75000006 4.792033e-39
0.036428582 0.013571436 0.75000012 4.1473754e-39
0.037857153 0.013571434 0.75000006 3.5949107e-39
0.039285719 0.013571432 0.75000012 3.0402992e-39
0.040714297 0.013571434 0.75000006 2.6729446e-39
0.042142864 0.013571434 0.75000012 2.3081263e-39
-0.022125708 0.014080004 0.70400012 4.6280264e-40
-0.020814283 0.014100002 0.70500004 1.0130996e-39
-0.019443803 0.014080005 0.70400006 1.4730015e-39
-0.018077141 0.014060002 0.70300007 1.3811744e-39
-0.016690472 0.014020002 0.70100003 1.2893319e-39
-0.015355233 0.014020003 0.70100003 1.1982069e-39
-0.014000006 0.013999995 0.70000005 1.106007e-39
-0.012630479 0.013959998 0.69800001 7.3794339e-40
-0.011252377 0.013900003 0.69500005 2.7950439e-40
-0.0099142808 0.013880006 0.69400001 6.4722613e-40
-0.0085552428 0.013819995 0.69099998 9.2525636e-40
-0.0072390516 0.013819995 0.69099998 1.0199743e-39
-0.00592286 0.013819994 0.69099998 1.1096448e-39
-0.0046066702 0.013819995 0.69099998 7.4013922e-40
-0.0032857177 0.013799997 0.69000006 2.7951e-40
-0.0019628503 0.013740009 0.68700004 4.6172925e-40
-0.00065333629 0.013719995 0.68600005 5.5356334e-40
0.0006514336 0.013680005 0.68400002 6.4575617e-40
0.0019542924 0.013680005 0.68400002 6.4575897e-40
0.0032571475 0.013680005 0.68400002 6.4612051e-40
0.0045600063 0.013680005 0.68400002 5.5392207e-40
0.0058542877 0.013660001 0.68300009 7.3723013e-40
0.007836191 0.01496 0.74800003 8.2943136e-40
0.0092609636 0.014960011 0.74800009 7.3796161e-40
0.010685718 0.014960003 0.74800009 6.4648624e-40
0.012110474 0.014959997 0.74800003 5.5537102e-40
0.013535248 0.014960008 0.74800009 3.6953502e-40
0.014999997 0.014999997 0.75000006 2.7589325e-40
0.016428579 0.015000006 0.75000012 1.0050953e-40
0.017857142 0.014999997 0.75000006 6.9186141e-39
0.019285724 0.015000007 0.75000006 1.3631237e-38
0.020714287 0.015 0.75000006 9.9614286e-39
