# .PCD v0.7 - Point Cloud Data file format
VERSION 0.7
FIELDS x y z rgb
SIZE 4 4 4 4
TYPE F F F F
COUNT 1 1 1 1
WIDTH 968
HEIGHT 1
VIEWPOINT 0 0 0 1 0 0 0
POINTS 968
DATA ascii
-0.0077838232 -0.0035380789 0.74300003 7.3647903e-40
-0.0063857171 -0.0035476175 0.74500006 6.442848e-40
-0.0049666748 -0.0035476082 0.74500006 6.442848e-40
-0.0035571384 -0.0035571496 0.74700004 7.361203e-40
-0.0021342908 -0.0035571365 0.74700004 6.4464354e-40
-0.00071426725 -0.0035714556 0.75 6.4536661e-40
0.00071619905 -0.0035809653 0.75199997 8.2868307e-40
0.0021485847 -0.0035809719 0.75200003 1.1038266e-39
0.0035857193 -0.0035857225 0.75299996 8.2903199e-40
0.0050333263 -0.0035952276 0.75500005 5.5424297e-40
0.0064542959 -0.0035857281 0.75299996 5.5424297e-40
0.007888576 -0.0035857216 0.75299996 6.4571973e-40
0.0093476186 -0.0035952351 0.75500005 5.5388424e-40
0.010785718 -0.0035952434 0.755 4.6169001e-40
0.012223806 -0.0035952332 0.75500005 5.5316677e-40
0.013661907 -0.0035952425 0.75500005 6.4464494e-40
0.015119988 -0.0035999797 0.75600004 6.4464494e-40
0.016559999 -0.0035999969 0.75600004 7.361245e-40
0.017999999 -0.0035999964 0.75600004 7.3612731e-40
0.019439995 -0.0035999897 0.75599998 8.279628e-40
0.020879993 -0.0035999899 0.75600004 8.279614e-40
0.022379052 -0.0036095292 0.75800002 8.2759987e-40
0.023822857 -0.0036095202 0.75800002 9.1979129e-40
0.02526669 -0.0036095546 0.75800002 9.198039e-40
0.026710493 -0.0036095476 0.75800002 1.0120107e-39
0.028079998 -0.0035999957 0.75600004 1.0116828e-39
0.029519994 -0.0035999899 0.75599998 1.3815668e-39
0.030959994 -0.0035999876 0.75600004 1.7510612e-39
0.032357145 -0.0035952406 0.75500005 2.1205541e-39
0.033795249 -0.003595249 0.755 2.581891e-39
0.041340016 -0.003280978 0.68900001 7.8320435e-39
0.042714294 -0.0032857296 0.69000006 1.234062e-38
0.044092365 -0.0032904514 0.69100004 1.6965106e-38
0.045540009 -0.0033000114 0.69299996 2.0197349e-38
0.04692762 -0.0033047583 0.69400001 2.341769e-38
0.04831906 -0.0033095453 0.69499999 2.341769e-38
0.049785711 -0.0033190448 0.69700003 2.341769e-38
0.051333334 -0.0033333378 0.70000005 2.341769e-38
0.0527419 -0.0033380871 0.70100003 2.341769e-38
0.05423142 -0.0033476043 0.70300001 2.341769e-38
-0.022974283 -0.0020885796 0.73099995 6.4608687e-40
-0.02161143 -0.002091422 0.73199999 1.0127072e-39
-0.020217139 -0.0020914313 0.73199999 1.2878591e-39
-0.018822849 -0.0020914387 0.73200005 9.2016404e-40
-0.01752382 -0.0021028437 0.73600006 4.6099216e-40
-0.016143808 -0.0021057178 0.73700005 4.613579e-40
-0.014740011 -0.002105701 0.73700005 3.6987133e-40
-0.01337238 -0.0021114305 0.73899996 4.6133688e-40
-0.011980947 -0.0021142934 0.73999995 5.5317098e-40
-0.010614292 -0.0021228504 0.74299997 6.4536521e-40
-0.0091990437 -0.0021228653 0.74299997 6.4465054e-40
-0.0078047626 -0.0021285724 0.74500006 7.3613011e-40
-0.0063857087 -0.0021285799 0.74500006 7.3648324e-40
-0.0049666674 -0.0021285706 0.74500006 7.3576157e-40
-0.003557151 -0.0021342759 0.74700004 6.4464354e-40
-0.0021285729 -0.0021285706 0.74500006 6.4464354e-40
-0.00071238971 -0.0021371285 0.74800003 5.5352831e-40
0.00071430614 -0.0021428887 0.75 7.3791957e-40
0.002142871 -0.0021428794 0.75 9.2087169e-40
0.0035809597 -0.0021485828 0.75200003 8.2903339e-40
0.0050200089 -0.0021514401 0.75299996 6.4572394e-40
0.0064457282 -0.0021485921 0.75199997 7.372035e-40
0.0078885732 -0.002151429 0.75300002 8.290362e-40
0.0093476186 -0.0021571435 0.75500005 6.4571973e-40
0.010785722 -0.0021571529 0.75500005 4.6169001e-40
0.012223822 -0.0021571622 0.755 4.6169001e-40
0.013661912 -0.002157151 0.75500005 4.6133128e-40
0.015100013 -0.0021571608 0.75500005 6.4464494e-40
0.01655999 -0.002159985 0.75600004 7.3648184e-40
0.017999992 -0.0021599822 0.75600004 8.2832013e-40
0.019440001 -0.0021600004 0.75600004 9.2015563e-40
0.020879984 -0.0021599762 0.75600004 9.197969e-40
0.022319997 -0.0021599932 0.75599998 8.2831733e-40
0.023822855 -0.0021657089 0.75800002 8.279572e-40
0.025200006 -0.0021600088 0.75599998 8.2868307e-40
0.026639992 -0.0021599843 0.75600004 9.2088571e-40
0.028079987 -0.0021599818 0.75600004 9.2090673e-40
0.02948096 -0.0021571501 0.75500005 1.1964328e-39
0.03091906 -0.0021571603 0.755 1.4748162e-39
0.032357149 -0.0021571491 0.75500005 1.9368705e-39
0.033795249 -0.0021571575 0.75500005 2.3042307e-39
0.035233337 -0.0021571484 0.75500005 2.8563381e-39
0.036671437 -0.0021571568 0.75500005 3.4084007e-39
0.040027611 -0.0019685619 0.68900001 5.079805e-39
0.041340008 -0.0019685908 0.68900001 6.918722e-39
0.042714279 -0.0019714239 0.69000006 1.3895763e-38
0.044219993 -0.0019799911 0.69300002 2.0824726e-38
0.045540005 -0.0019800116 0.69299996 2.2131993e-38
0.04692762 -0.0019828558 0.69400001 2.341769e-38
0.048319034 -0.0019857048 0.69500005 2.341769e-38
0.049857151 -0.0019942878 0.69800001 2.341769e-38
0.051406659 -0.0020028458 0.70100003 2.341769e-38
0.052892368 -0.0020085501 0.70300001 2.341769e-38
-0.022974283 -0.00069619447 0.73100001 8.3047673e-40
-0.02161143 -0.00069713697 0.73199999 9.2194929e-40
-0.020217139 -0.00069714815 0.73199999 1.0134345e-39
-0.018874295 -0.00069903687 0.73400003 7.3685878e-40
-0.017476182 -0.00069905922 0.73400003 5.5248294e-40
-0.016143817 -0.00070189417 0.73700005 4.6137752e-40
-0.014780002 -0.00070380711 0.73899996 3.6988114e-40
-0.013390476 -0.0007047645 0.73999995 4.6169561e-40
-0.011980945 -0.00070477382 0.73999995 5.5317098e-40
-0.010600002 -0.0007066644 0.74199998 5.5316958e-40
-0.0091990428 -0.00070762739 0.74300003 4.6098375e-40
-0.0078047714 -0.00070951239 0.74500006 5.5354372e-40
-0.0063685761 -0.00070761249 0.74299997 7.3792377e-40
-0.0049666758 -0.00070951239 0.74500006 6.45361e-40
-0.0035476217 -0.00070951984 0.745 5.5316677e-40
-0.0021285804 -0.00070951052 0.74500006 4.6097254e-40
-0.00071237201 -0.0007123939 0.74800003 4.6133268e-40
0.00071430427 -0.00071431336 0.75 5.5316817e-40
0.0021428692 -0.00071430404 0.75000006 6.4464634e-40
0.0035714472 -0.00071431336 0.75 7.3684057e-40
0.0050133499 -0.00071621605 0.75200003 8.290404e-40
0.0064457199 -0.00071619928 0.75200003 9.2052277e-40
0.0078885807 -0.00071715575 0.75300002 1.103828e-39
0.0093228603 -0.0007171483 0.75300002 8.2867326e-40
0.01075714 -0.00071713992 0.75300002 6.4500227e-40
0.012223809 -0.00071904727 0.75500005 5.5352551e-40
0.013661913 -0.00071905565 0.755 4.6133128e-40
0.015099999 -0.00071904587 0.75500005 5.5280804e-40
0.016559999 -0.00071999349 0.75600004 7.361231e-40
0.017999995 -0.0007199879 0.75599998 8.2867747e-40
0.019439993 -0.00071998651 0.75600004 9.2123043e-40
0.020852394 -0.0007190631 0.755 7.372007e-40
0.022320002 -0.00072000304 0.75600004 6.4572254e-40
0.023759987 -0.00071997673 0.75600004 6.4572113e-40
0.025199998 -0.00071999466 0.75599998 7.3792097e-40
0.026604773 -0.00071905961 0.75500005 8.2940194e-40
0.028042873 -0.0007190688 0.75500005 9.2160597e-40
0.029480947 -0.00071903574 0.75500005 1.1056455e-39
0.030919049 -0.0007190461 0.755 1.3818835e-39
0.032357149 -0.00071905449 0.755 1.6584802e-39
0.033705726 -0.00071715249 0.75300002 2.025853e-39
0.035140008 -0.00071714539 0.75299996 2.3957369e-39
0.0365743 -0.00071716029 0.75300002 2.8577675e-39
0.040027626 -0.00065620162 0.68900001 5.8051465e-39
0.0414 -0.00065714226 0.69000006 9.9593491e-39
0.042776182 -0.00065808289 0.6910001 1.6042456e-38
0.044092372 -0.00065808382 0.69100004 2.2131966e-38
0.045540009 -0.00066000607 0.69299996 2.2774842e-38
0.046927623 -0.00066095323 0.69400001 2.341769e-38
0.048458092 -0.00066379097 0.69700003 2.341769e-38
0.049857151 -0.0006647642 0.69799995 2.341769e-38
0.051406663 -0.00066760753 0.70099998 2.341769e-38
0.052741911 -0.00066763174 0.70100003 2.341769e-38
-0.021611428 0.00069714419 0.73199999 9.2267096e-40
-0.02035524 0.00070190325 0.73700005 7.3757064e-40
-0.018951438 0.00070192188 0.73700005 6.4430722e-40
-0.017547626 0.00070191256 0.73700005 5.531934e-40
-0.016143825 0.00070192746 0.73700005 4.6172224e-40
-0.014780004 0.00070381246 0.73899996 3.7023146e-40
-0.013390474 0.00070475868 0.73999995 4.6169421e-40
-0.011980956 0.00070476613 0.74000001 5.5388704e-40
-0.010600008 0.00070667535 0.74200004 4.6169141e-40
-0.0091990586 0.00070763461 0.74300003 2.7838335e-40
-0.0078047635 0.00070952519 0.74500006 4.6277602e-40
-0.0063857092 0.00070951588 0.745 6.4608407e-40
-0.0049666693 0.00070952519 0.74500006 5.5424297e-40
-0.0035476142 0.00070951588 0.745 3.6985451e-40
-0.0021342903 0.0007114344 0.74699998 3.6877832e-40
-0.00071238226 0.00071238156 0.74800003 3.6949578e-40
0.00071237551 0.00071238901 0.74800003 3.6913845e-40
0.0021428664 0.00071427121 0.75000006 3.6913845e-40
0.0035809681 0.00071616552 0.75199997 6.4464634e-40
0.0050133406 0.00071618229 0.75199997 9.2051436e-40
0.006445725 0.0007161739 0.75200003 1.1038294e-39
0.007878094 0.00071619067 0.75200003 1.2878549e-39
0.0093228677 0.00071712572 0.75299996 1.0119855e-39
0.010757149 0.00071713317 0.75299996 7.371965e-40
0.012223813 0.00071904331 0.75500005 5.5352551e-40
0.013661913 0.00071903446 0.75500005 3.6949578e-40
0.015100015 0.00071902561 0.755 5.5280944e-40
0.016538104 0.00071903586 0.75500005 7.3684757e-40
0.017976189 0.00071904843 0.755 8.2941034e-40
0.01941428 0.00071905961 0.75500005 9.208801e-40
0.02085238 0.00071905123 0.75500005 6.4572674e-40
0.022290479 0.00071904191 0.755 3.7021745e-40
0.023760008 0.00071999372 0.75599998 5.5424577e-40
0.025166674 0.00071904354 0.755 6.4572534e-40
0.02660476 0.00071905379 0.75500005 7.3720491e-40
0.02804286 0.00071904447 0.75500005 8.2976207e-40
0.029363824 0.00071617065 0.75200003 1.1056329e-39
0.030837154 0.00071712898 0.75299996 1.289678e-39
0.032271437 0.00071713503 0.75299996 1.4730057e-39
0.03370573 0.00071712013 0.75299996 1.6581383e-39
0.035140011 0.00071712816 0.75299996 2.0269418e-39
0.036574297 0.00071713619 0.75299996 2.3056699e-39
0.038008589 0.00071712129 0.75299996 2.7673529e-39
0.040027622 0.00065618462 0.68900001 6.525491e-39
0.0414 0.00065714389 0.69000006 1.2908506e-38
0.042776186 0.00065810315 0.69100004 1.818304e-38
0.044092376 0.00065809849 0.69100004 2.3417676e-38
0.045540001 0.00065999373 0.69299996 2.341769e-38
0.046927623 0.00066094927 0.69400001 2.341769e-38
0.048319049 0.00066190294 0.69500005 2.341769e-38
0.049857154 0.00066475372 0.69799995 2.341769e-38
0.051406678 0.00066761195 0.70100003 2.341769e-38
0.0527419 0.00066763058 0.70100009 2.341769e-38
-0.020355251 0.0021057266 0.73700005 8.2869148e-40
-0.018951431 0.0021057229 0.73700005 7.3686019e-40
-0.017547633 0.0021057341 0.73700005 7.3721752e-40
-0.016187623 0.0021114375 0.73899996 6.4537922e-40
-0.014780005 0.0021114338 0.73899996 6.4608828e-40
-0.013390471 0.002114278 0.73999995 6.4607987e-40
-0.011980939 0.0021142631 0.73999995 7.3863283e-40
-0.010599997 0.0021199964 0.74199998 6.464372e-40
-0.0091990577 0.0021228704 0.74300003 5.5496184e-40
-0.007804771 0.002128585 0.74500006 5.5424437e-40
-0.0063857171 0.0021285757 0.745 6.4572113e-40
-0.0049666758 0.002128585 0.74500006 5.5388424e-40
-0.0035476217 0.0021285757 0.745 5.5352551e-40
-0.0021228602 0.0021228611 0.74300003 4.6169001e-40
-0.00071237853 0.0021371392 0.74800003 3.6985451e-40
0.00071239413 0.0021371243 0.74800003 3.6949578e-40
0.0021428776 0.0021428277 0.75 4.6133268e-40
0.0035809737 0.0021485405 0.75199997 6.4500367e-40
0.0050133443 0.0021485554 0.75199997 8.2939353e-40
0.0064285849 0.0021428389 0.75000006 9.2087029e-40
0.0078781005 0.0021485647 0.75200003 1.1045399e-39
0.0093228491 0.0021514415 0.75300002 9.2122622e-40
0.010757144 0.0021514257 0.75300002 8.3046692e-40
0.012191426 0.0021514331 0.75300002 7.3791396e-40
0.013625705 0.0021514411 0.75300002 6.453624e-40
0.015060003 0.0021514257 0.75300002 7.371979e-40
0.016538104 0.00215713 0.755 8.2833275e-40
0.017976195 0.0021571417 0.75500005 1.0123793e-39
0.019414296 0.0021571333 0.755 1.1956789e-39
0.020797141 0.0021514345 0.75300002 9.2051717e-40
0.022290485 0.0021571328 0.75500005 7.3648464e-40
0.023728589 0.0021571245 0.755 7.371993e-40
0.025099998 0.0021514345 0.75300002 6.4536521e-40
0.026534293 0.0021514187 0.75300002 6.4572394e-40
0.027968574 0.0021514271 0.75300002 7.382783e-40
0.02936383 0.0021485435 0.75199997 9.2159056e-40
0.030837152 0.002151421 0.75300002 1.1056371e-39
0.03227143 0.0021514262 0.75300002 1.1056525e-39
0.033660971 0.0021485509 0.75199997 1.1060337e-39
0.03509336 0.0021485446 0.75199997 1.5677447e-39
0.036525719 0.0021485577 0.75199997 2.0294389e-39
0.037958104 0.0021485498 0.75200003 2.2138316e-39
0.041459985 0.0019743077 0.6910001 1.6873595e-38
0.042899992 0.0019800167 0.69299996 2.0197708e-38
0.044220008 0.0019799981 0.69299996 2.341769e-38
0.045605719 0.0019828582 0.69399995 2.341769e-38
0.046995234 0.0019857201 0.69499999 2.341769e-38
0.048319053 0.0019857024 0.69500005 2.341769e-38
0.049785707 0.0019914384 0.69700003 2.341769e-38
0.051333342 0.0019999787 0.70000005 2.341769e-38
0.0527419 0.0020028676 0.70100003 2.341769e-38
-0.018951442 0.0035095445 0.73700005 9.2017665e-40
-0.017547626 0.0035095352 0.73700005 8.2870689e-40
-0.016187627 0.0035190552 0.73899996 8.287139e-40
-0.014779991 0.0035190328 0.73899996 8.2906002e-40
-0.013390466 0.0035237956 0.74000001 8.2940474e-40
-0.011980935 0.0035237863 0.73999995 8.2976067e-40
-0.0106 0.0035333305 0.74200004 8.301166e-40
-0.0091990447 0.0035380914 0.74299997 7.3828391e-40
-0.0077838111 0.003538097 0.74299997 6.4573375e-40
-0.0063857227 0.0035476282 0.74500006 5.5353531e-40
-0.0049666683 0.0035476207 0.74500006 6.4536801e-40
-0.0035476272 0.00354763 0.74500006 7.3756084e-40
-0.0021228611 0.0035380989 0.74300003 5.5424858e-40
-0.00071238878 0.0035619147 0.74800003 3.6985872e-40
0.00071238389 0.0035618998 0.74800003 4.6097675e-40
0.0021371397 0.0035619063 0.74800003 4.6133548e-40
0.0035714398 0.0035714123 0.75000006 5.5281365e-40
0.005000018 0.0035714039 0.75 6.4536661e-40
0.0064285821 0.0035714132 0.75000006 7.3684337e-40
0.0078571578 0.0035714039 0.75 8.290348e-40
0.0093104895 0.0035809323 0.75200003 8.2939073e-40
0.010757138 0.0035857221 0.75299996 8.3010819e-40
0.012191433 0.0035857072 0.75299996 8.3010959e-40
0.013625714 0.0035857137 0.75299996 8.2975226e-40
0.015060012 0.0035856988 0.75300002 8.2975366e-40
0.016538108 0.0035952216 0.75500005 8.2868868e-40
0.017976195 0.0035952318 0.75500005 1.1034889e-39
0.019414298 0.0035952234 0.75500005 1.3797045e-39
0.02076954 0.0035809323 0.75199997 1.2882193e-39
0.02223143 0.0035857141 0.75299996 1.1041868e-39
0.023665726 0.0035856992 0.75300002 9.2087169e-40
0.025100006 0.0035857081 0.75299996 6.453638e-40
0.026534285 0.0035857155 0.75299996 6.453638e-40
0.027968582 0.0035857006 0.75299996 5.5353111e-40
0.029363817 0.0035809402 0.75199997 7.3648884e-40
0.030796206 0.0035809341 0.75199997 8.2905582e-40
0.032228589 0.0035809278 0.75200003 6.461149e-40
0.033660959 0.0035809446 0.75200003 4.6389846e-40
0.035000023 0.0035714074 0.75 1.1085616e-39
0.036428586 0.0035714167 0.75 1.753215e-39
0.03785716 0.0035714072 0.75 1.662827e-39
0.041580006 0.0032999932 0.69299996 2.0825792e-38
0.042961903 0.0033047709 0.69400001 2.2131993e-38
0.044283822 0.0033047411 0.69399995 2.341769e-38
0.045671441 0.0033095169 0.69499999 2.341769e-38
0.046995245 0.0033095225 0.69499999 2.341769e-38
0.048319049 0.0033095281 0.69499999 2.341769e-38
0.049785718 0.0033190388 0.69699997 2.341769e-38
0.051333342 0.0033333225 0.70000005 2.341769e-38
0.052666672 0.0033333318 0.70000005 2.341769e-38
-0.01895145 0.0049133664 0.73700005 1.0123751e-39
-0.017595246 0.0049266787 0.73899996 8.2800344e-40
-0.016187612 0.0049266564 0.73899996 8.2837759e-40
-0.014780005 0.0049266731 0.73900002 8.2835937e-40
-0.013390464 0.0049333153 0.73999995 8.2869989e-40
-0.011980947 0.0049333246 0.74000001 7.3721892e-40
-0.010571416 0.0049333153 0.73999995 7.3757205e-40
-0.0091866534 0.0049466463 0.74199998 8.2977048e-40
-0.0077838106 0.0049533332 0.74299997 7.3722172e-40
-0.0063685779 0.0049533425 0.74299997 6.4466315e-40
-0.0049666609 0.0049666567 0.74500006 8.2904601e-40
-0.0035476207 0.0049666669 0.74500006 9.2159757e-40
-0.0021285664 0.0049666576 0.74500006 7.3756504e-40
-0.00071142765 0.0049799988 0.74699998 6.4537081e-40
0.00071237457 0.0049866764 0.74800003 5.5353391e-40
0.0021371313 0.0049866857 0.74800003 4.6169842e-40
0.003571437 0.0049999868 0.75000006 5.5389265e-40
0.0050000143 0.0049999785 0.75 5.5389265e-40
0.0064285784 0.0049999896 0.75000006 6.4500928e-40
0.007857156 0.0049999803 0.75 7.372007e-40
0.0092857359 0.0049999701 0.75 7.3791396e-40
0.010742866 0.0050133234 0.75200003 8.3010959e-40
0.012191441 0.00501998 0.75299996 8.3010959e-40
0.013607635 0.0050133127 0.75199997 8.2975366e-40
0.015040019 0.0050133057 0.75199997 7.372021e-40
0.016472392 0.0050133225 0.75199997 7.3613151e-40
0.017976195 0.0050333273 0.755 1.0123611e-39
0.019414285 0.0050333375 0.75500005 1.2882235e-39
0.020769533 0.0050133262 0.75200003 1.0123541e-39
0.022201929 0.0050132992 0.75199997 8.2832294e-40
0.0236343 0.005013315 0.75199997 8.290376e-40
0.025100015 0.0050199809 0.75299996 8.2831733e-40
0.026499057 0.0050133253 0.75200003 7.3683777e-40
0.027931442 0.0050133192 0.75200003 6.4465054e-40
0.029285731 0.0049999808 0.75 8.2868727e-40
0.030714294 0.0049999892 0.75 1.0120107e-39
0.032142874 0.0049999817 0.75 9.2126125e-40
0.033571437 0.0049999887 0.75 9.227144e-40
0.034906667 0.0049866717 0.74800003 1.3833436e-39
0.036331438 0.004986655 0.74800003 1.9361699e-39
0.037705712 0.0049800021 0.74700004 1.3844577e-39
0.039128561 0.0049800202 0.74700004 8.3052157e-40
0.041640006 0.004626655 0.69400001 2.2131979e-38
0.042961903 0.0046266718 0.69400001 2.2774842e-38
0.044347603 0.0046333494 0.69500005 2.341769e-38
0.045671433 0.0046333354 0.69500005 2.341769e-38
0.046995234 0.004633341 0.69500005 2.341769e-38
0.048319057 0.0046333317 0.69499999 2.341769e-38
0.049785703 0.0046466831 0.69700003 2.341769e-38
0.05118667 0.0046533355 0.69800001 2.341769e-38
0.052666686 0.0046666507 0.70000005 2.341769e-38
-0.017595232 0.0063342778 0.73899996 8.2834816e-40
-0.016209509 0.0063428348 0.73999995 8.2762929e-40
-0.014799993 0.0063428441 0.74000001 8.2870409e-40
-0.013390461 0.0063428348 0.73999995 7.3614973e-40
-0.011980944 0.0063428441 0.73999995 6.4503029e-40
-0.010599994 0.0063599916 0.74200004 7.3722452e-40
-0.0091866562 0.0063599804 0.74200004 8.2941595e-40
-0.0077733337 0.0063599972 0.74200004 8.2905582e-40
-0.006368577 0.0063685784 0.74300003 7.3685318e-40
-0.004953329 0.0063685654 0.74300003 9.2051576e-40
-0.0035476272 0.0063857259 0.74500006 1.1041952e-39
-0.0021285729 0.0063857166 0.74500006 1.0120079e-39
-0.00071144069 0.0064028762 0.74700004 8.2905441e-40
0.00071142183 0.0064028678 0.74700004 6.4645822e-40
0.0021342833 0.0064028623 0.74700004 4.6206556e-40
0.0035619058 0.0064114276 0.74800003 4.6278022e-40
0.0049866787 0.0064114118 0.74800003 4.6170963e-40
0.0064114346 0.0064114193 0.74800003 5.5247453e-40
0.0078571541 0.0064285537 0.75 6.4501768e-40
0.0092857322 0.0064285463 0.75 7.3791957e-40
0.010714295 0.0064285556 0.75000006 7.3792097e-40
0.012142873 0.0064285458 0.75 7.3792377e-40
0.01357144 0.0064285565 0.75000006 7.3756364e-40
0.015000016 0.0064285472 0.75 7.3684477e-40
0.016428597 0.0064285388 0.75 6.4501348e-40
0.01785716 0.0064285481 0.75 9.208815e-40
0.019285737 0.0064285388 0.75 1.1045483e-39
0.020714302 0.0064285491 0.75000006 8.2832154e-40
0.02214288 0.0064285388 0.75 5.5353111e-40
0.023571443 0.0064285481 0.75000006 8.2975366e-40
0.025000025 0.0064285398 0.75 1.0130645e-39
0.026428603 0.0064285304 0.75 8.2939353e-40
0.027857164 0.0064285402 0.75 6.4572534e-40
0.029207624 0.0064114197 0.74800003 9.208773e-40
0.030591423 0.0064028706 0.74700004 1.1045581e-39
0.032014284 0.0064028627 0.74700004 1.196402e-39
0.033437129 0.0064028776 0.74700004 1.289692e-39
0.034673333 0.0063685747 0.74300003 1.7492479e-39
0.036088564 0.0063685812 0.74300003 2.1176745e-39
0.037503812 0.0063685663 0.74300003 1.1074924e-39
0.038866669 0.0063600019 0.74200004 9.4418089e-41
0.040280007 0.0063599939 0.74200004 6.3370654e-39
0.04164001 0.0059485557 0.69400001 2.3417683e-38
0.043023817 0.0059571462 0.69500005 2.341769e-38
0.044347614 0.0059571518 0.69500005 2.341769e-38
0.045802858 0.00597429 0.69699997 2.341769e-38
0.046995237 0.0059571443 0.69500005 2.341769e-38
0.048319042 0.005957149 0.69500005 2.341769e-38
0.049785718 0.0059742834 0.69699997 2.341769e-38
0.051186666 0.0059828591 0.69799995 2.341769e-38
0.052516192 0.0059828591 0.69800001 2.341769e-38
-0.017595233 0.0077418992 0.73899996 9.2052978e-40
-0.01620952 0.0077523747 0.74000001 9.2086749e-40
-0.014799993 0.0077523654 0.73999995 9.219591e-40
-0.013390473 0.0077523747 0.74000001 6.450331e-40
-0.011980942 0.0077523636 0.73999995 4.6172504e-40
-0.010599998 0.0077733276 0.74200004 4.6137051e-40
-0.0091866618 0.0077733239 0.74199998 5.542738e-40
-0.0077838101 0.0077838106 0.74300003 7.3757625e-40
-0.0063685761 0.0077838181 0.74300003 8.290432e-40
-0.0049666609 0.0078047533 0.745 8.2903199e-40
-0.0035476198 0.0078047626 0.74500006 9.1980951e-40
-0.002122862 0.0077838171 0.74299997 8.2870829e-40
-0.00071142579 0.0078257108 0.74700004 8.2906703e-40
0.0007114209 0.0078257266 0.74700004 7.3723013e-40
0.0021342824 0.0078257211 0.74700004 5.5283466e-40
0.0035618965 0.0078362031 0.74800003 5.5354372e-40
0.0049866685 0.0078361891 0.74800003 6.4539183e-40
0.0064114262 0.0078361956 0.74800003 6.4468698e-40
0.0078571504 0.0078571299 0.75000006 7.3650566e-40
0.0092857284 0.0078571197 0.75 7.3720631e-40
0.010714295 0.0078571299 0.75000006 8.2904601e-40
0.012142872 0.0078571206 0.75 9.2124444e-40
0.013535241 0.0078361873 0.74800003 1.0130757e-39
0.015000012 0.0078571206 0.75 9.2123463e-40
0.016428594 0.0078571131 0.75 7.3756504e-40
0.017809527 0.0078361873 0.74800003 1.2885794e-39
0.0192343 0.0078361705 0.74800003 1.8395882e-39
0.020659056 0.0078361779 0.74800003 1.3804065e-39
0.022083811 0.0078361863 0.74800003 9.2194649e-40
0.023508586 0.0078361724 0.74800003 1.0134219e-39
0.024933342 0.0078361779 0.74800003 1.1049e-39
0.026358087 0.0078362059 0.74800003 1.0134247e-39
0.027782857 0.0078361891 0.74800003 8.3047253e-40
0.029168576 0.0078257136 0.74700004 9.2194929e-40
0.030591436 0.0078257052 0.74700004 1.1056287e-39
0.03192858 0.0078047579 0.74500006 1.2893067e-39
0.033258092 0.0077838069 0.74299997 1.4733574e-39
0.034673329 0.0077838111 0.74300003 1.4737372e-39
0.036040016 0.0077733104 0.74199998 1.5648538e-39
0.037352402 0.0077523501 0.73999995 9.2092775e-40
0.038761921 0.0077523575 0.73999995 1.8411801e-40
0.040171448 0.0077523482 0.73999995 9.1226786e-39
0.041412365 0.0077209775 0.73700005 1.8072457e-38
0.042816181 0.0077209673 0.73700005 2.0749797e-38
0.041699994 0.0072809597 0.69499999 2.341769e-38
0.043023817 0.0072809448 0.69499999 2.341769e-38
0.044475235 0.0073019182 0.69700003 2.341769e-38
0.04580285 0.0073019089 0.69700003 2.341769e-38
0.047130484 0.0073019015 0.69700003 2.341769e-38
0.048319045 0.0072809486 0.69500005 2.341769e-38
0.049785703 0.0073019229 0.69700003 2.341769e-38
0.05111333 0.0073019145 0.69699997 2.341769e-38
-0.014799988 0.0091618868 0.73999995 9.2089271e-40
-0.013390471 0.0091618961 0.73999995 5.52113e-40
-0.011980953 0.0091619054 0.74000001 1.8513115e-40
-0.010599989 0.0091866469 0.74199998 2.7625058e-40
-0.0091990465 0.0091990447 0.74299997 2.7732958e-40
-0.007783825 0.0091990707 0.74300003 6.461107e-40
-0.0063857227 0.0092238216 0.74500006 9.2160738e-40
-0.0049666693 0.0092238123 0.745 8.2976207e-40
-0.0035476263 0.0092238225 0.74500006 6.4539463e-40
-0.002122862 0.009199054 0.74300003 7.3725115e-40
-0.00071143976 0.0092485882 0.74700004 8.287195e-40
0.00071142183 0.0092485799 0.74700004 7.3615954e-40
0.0021342824 0.0092485771 0.74699998 6.4467296e-40
0.0035619151 0.0092609366 0.74800003 7.3649865e-40
0.0049866731 0.009260946 0.74800003 7.3686579e-40
0.006411429 0.0092609534 0.74800003 7.3615673e-40
0.0078362003 0.0092609385 0.74800003 7.3686299e-40
0.009260945 0.0092609646 0.74800003 8.2904601e-40
0.010714302 0.0092856856 0.75 8.2941315e-40
0.012142869 0.0092856959 0.75 1.1052868e-39
0.01353523 0.0092609646 0.74800003 1.2889466e-39
0.014960004 0.0092609497 0.74800003 1.104907e-39
0.016384762 0.0092609562 0.74800003 8.2975787e-40
0.017809518 0.0092609636 0.74800003 1.6566361e-39
0.019234288 0.0092609478 0.74800003 2.482794e-39
0.020659044 0.0092609534 0.74800003 1.8392267e-39
0.022083819 0.0092609413 0.74800003 1.1970942e-39
0.023508575 0.0092609478 0.74800003 1.1974516e-39
0.024933331 0.0092609553 0.74800003 1.1970942e-39
0.026358107 0.0092609404 0.74800003 1.1052616e-39
0.027745713 0.0092485724 0.74700004 1.0141449e-39
0.029168563 0.009248591 0.74700004 1.0145065e-39
0.030509526 0.0092238085 0.745 1.0141561e-39
0.031842865 0.0091990391 0.74299997 1.2893137e-39
0.033213351 0.0091866432 0.74199998 1.5651929e-39
0.034626678 0.0091866562 0.74199998 1.2904179e-39
0.036040012 0.0091866497 0.74200004 1.0127576e-39
0.037352391 0.0091618886 0.74000001 6.4326186e-40
0.038604759 0.009124768 0.73700005 2.9358744e-40
0.04000856 0.0091247847 0.73700005 1.1897596e-38
0.041412372 0.0091247782 0.73700005 2.3402922e-38
0.04281617 0.0091247903 0.73700005 2.341769e-38
0.041820008 0.0086295204 0.69699997 2.341769e-38
0.043147616 0.0086295279 0.69700003 2.341769e-38
0.044539049 0.0086419014 0.69800001 2.341769e-38
0.045802865 0.0086295074 0.69699997 2.341769e-38
0.046995237 0.0086047677 0.69499999 2.341769e-38
0.048319057 0.008604751 0.69500005 2.341769e-38
0.049642857 0.0086047603 0.69500005 2.341769e-38
-0.014799999 0.010571425 0.74000001 7.357966e-40
-0.013390469 0.010571416 0.73999995 2.8544492e-39
-0.011980953 0.010571425 0.74000001 4.9609245e-39
-0.010614295 0.010614297 0.74299997 4.5089202e-39
-0.0091990465 0.010614281 0.74299997 3.9493131e-39
-0.0077838129 0.01061429 0.74299997 2.2062477e-39
-0.006368564 0.010614275 0.74299997 5.5499407e-40
-0.0049666618 0.01064285 0.745 7.3722172e-40
-0.0035476207 0.010642859 0.74500006 1.0131122e-39
-0.002122862 0.010614292 0.74300003 8.2910626e-40
-0.00070952496 0.01064286 0.74500006 7.3725535e-40
0.00071142183 0.010671439 0.74700004 7.3688121e-40
0.0021285696 0.01064286 0.74500006 7.3722873e-40
0.0035571309 0.010671449 0.74700004 7.3721612e-40
0.0049799937 0.01067144 0.74700004 7.3793778e-40
0.0064028515 0.010671438 0.74699998 7.3758326e-40
0.0078361901 0.010685713 0.74800003 7.3757765e-40
0.0092609497 0.01068572 0.74800003 7.3757205e-40
0.010685721 0.010685706 0.74800003 7.3794479e-40
0.012110477 0.010685715 0.74800003 7.3831613e-40
0.013535248 0.010685699 0.74800003 7.3829932e-40
0.014960005 0.010685706 0.74800003 7.3792377e-40
0.016384762 0.010685713 0.74800003 6.4644561e-40
0.017785717 0.010671431 0.74700004 1.1974558e-39
0.019208577 0.010671425 0.74700004 1.6562745e-39
0.020631421 0.010671441 0.74700004 1.3800492e-39
0.022054285 0.010671432 0.74700004 1.1963768e-39
0.02347713 0.010671448 0.74700004 1.1045385e-39
0.024899993 0.010671443 0.74700004 1.1045413e-39
0.026322855 0.01067144 0.74699998 9.2194929e-40
0.027671441 0.010642844 0.745 8.30118e-40
0.029090481 0.010642854 0.74500006 9.2267376e-40
0.030427618 0.010614292 0.74300003 1.0145205e-39
0.031800013 0.010599987 0.74200004 1.2896794e-39
0.033213347 0.01059998 0.74200004 1.5641167e-39
0.034533348 0.01057141 0.73999995 1.1049449e-39
0.03594286 0.010571419 0.74000001 5.5177949e-40
0.037301909 0.010557134 0.73899996 3.403342e-39
0.038604751 0.010528591 0.73700005 6.3565813e-39
0.040008567 0.010528583 0.73700005 1.4849008e-38
0.041412365 0.0105286 0.73700005 2.341769e-38
0.04281617 0.010528588 0.73700011 2.2040158e-38
0.044220008 0.010528567 0.73700005 2.0662625e-38
0.04320953 0.0099714184 0.69799995 1.9641673e-38
0.044539057 0.0099714221 0.69800001 1.8642244e-38
0.045868576 0.0099714259 0.69799995 1.900277e-38
0.047198098 0.0099714296 0.69800001 1.9376928e-38
0.048319045 0.0099285776 0.69499999 2.0106949e-38
0.049642868 0.0099285645 0.69499999 2.0754461e-38
-0.01339048 0.011980955 0.74000001 5.1694573e-39
-0.01198095 0.011980946 0.73999995 9.7641118e-39
-0.010614295 0.012029535 0.74300003 8.756801e-39
-0.0091990465 0.012029519 0.74300003 7.6443115e-39
-0.007783812 0.012029528 0.74300003 3.857472e-39
-0.0063685789 0.012029535 0.74299997 9.3647375e-41
-0.0049666814 0.012061928 0.74500006 7.3505671e-40
-0.0035476272 0.012061918 0.74500006 1.2871641e-39
-0.002122849 0.01202951 0.74299997 9.1984174e-40
-0.00070953241 0.012061919 0.74500006 5.5357035e-40
0.000709521 0.01206191 0.745 7.3723573e-40
0.0021285613 0.012061919 0.74500006 8.2906422e-40
0.0035476165 0.012061908 0.745 7.3757905e-40
0.0049799909 0.012094298 0.74700004 6.461121e-40
0.0063857124 0.01206191 0.745 6.4647924e-40
0.0078256996 0.012094309 0.74700004 6.4574916e-40
0.0092485622 0.0120943 0.74700004 6.4537782e-40
0.010671436 0.012094275 0.74700004 5.5462132e-40
0.012094283 0.01209429 0.74700004 3.7095313e-40
0.013517145 0.012094283 0.74700004 1.8727653e-40
0.01493999 0.012094297 0.74700004 3.7058319e-40
0.016362853 0.012094292 0.74700004 4.6278582e-40
0.017785698 0.012094309 0.74700004 6.4610789e-40
0.019208562 0.012094302 0.74700004 8.2976908e-40
0.020631438 0.012094276 0.74700004 1.0123527e-39
0.022054285 0.012094293 0.74700004 1.104184e-39
0.023414284 0.012061912 0.74500006 1.0119869e-39
0.024833325 0.012061921 0.74500006 9.2159336e-40
0.02625238 0.012061913 0.74500006 8.3084247e-40
0.027671419 0.012061923 0.74500006 6.4717008e-40
0.029012367 0.012029546 0.74300003 8.3083967e-40
0.030427616 0.01202953 0.74300003 9.2268357e-40
0.031714298 0.011980929 0.73999995 1.290034e-39
0.033123817 0.011980939 0.74000001 1.5651789e-39
0.034486674 0.01196476 0.73899996 8.2941735e-40
0.035797127 0.011932405 0.73700005 9.2978956e-41
0.037301909 0.011964754 0.73899996 6.2452804e-39
0.03860474 0.011932413 0.73700005 1.2353183e-38
0.040008567 0.011932386 0.73699999 1.790756e-38
0.041356198 0.011916185 0.73600006 2.341769e-38
0.042758081 0.011916207 0.73600006 2.0662625e-38
0.044160001 0.01191619 0.73600006 1.7790932e-38
0.043333337 0.011333336 0.70000005 1.5751497e-38
0.044666678 0.011333323 0.70000005 1.3739743e-38
0.046000004 0.011333329 0.70000005 1.4573812e-38
0.04733333 0.011333338 0.70000005 1.530994e-38
0.048458092 0.011284779 0.69700003 1.6695015e-38
0.049642861 0.011252387 0.69499999 1.807112e-38
-0.010614293 0.013444773 0.74300003 1.0063792e-38
-0.0091990614 0.01344478 0.74300003 1.1167118e-38
-0.007783812 0.013444765 0.74300003 8.9378193e-39
-0.0063857161 0.013480953 0.74500006 6.706145e-39
-0.0049666739 0.013480963 0.74500006 3.7663329e-39
-0.0035476207 0.013480953 0.74500006 8.2689221e-40
-0.0021228648 0.013444771 0.74299997 8.2798102e-40
-0.00070952589 0.013480954 0.74500006 8.3049775e-40
0.00070951635 0.013480964 0.74500006 8.2906703e-40
0.0021285696 0.013480955 0.74500006 8.2906422e-40
0.0035476119 0.013480964 0.74500006 6.4610649e-40
0.0049666655 0.013480956 0.74500006 5.5428501e-40
0.0063857189 0.013480946 0.745 6.4577579e-40
0.0078047593 0.013480956 0.74500006 7.3651547e-40
0.0092485603 0.013517159 0.74700004 7.3793078e-40
0.010671422 0.013517152 0.74700004 7.3899857e-40
0.01209427 0.013517168 0.74700004 5.5496043e-40
0.013517132 0.013517161 0.74700004 2.7910082e-40
0.014940007 0.013517135 0.74700004 3.7130065e-40
0.016362853 0.013517151 0.74700004 5.5499266e-40
0.017785715 0.013517143 0.74700004 8.3016144e-40
0.019208562 0.013517159 0.74700004 1.1056483e-39
0.020576194 0.013480949 0.745 1.1045511e-39
0.021995235 0.013480958 0.74500006 1.196381e-39
0.023414291 0.013480949 0.74500006 1.0130631e-39
0.024833331 0.013480958 0.74500006 9.2231643e-40
0.026181903 0.013444773 0.74299997 7.3973425e-40
0.027597148 0.01344476 0.74299997 5.5605765e-40
0.029012382 0.013444764 0.74299997 7.393629e-40
0.030386679 0.01342665 0.74199998 1.0141575e-39
0.03171429 0.013390469 0.74000001 1.4736994e-39
0.03307905 0.013372383 0.73900002 2.02542e-39
0.034393322 0.013336213 0.73700011 1.0123485e-39
0.035797149 0.013336186 0.73700005 9.2281109e-41
0.037200943 0.013336199 0.73700005 9.0269517e-39
0.038552392 0.013318082 0.73600006 1.7893117e-38
0.039954279 0.013318104 0.73600006 2.0659038e-38
0.04124381 0.013281904 0.73399997 2.341769e-38
0.042641897 0.013281922 0.73400003 1.9822115e-38
0.044160001 0.013318087 0.73600006 1.6198836e-38
0.043333344 0.012666653 0.70000005 1.4082233e-38
0.044730477 0.012684765 0.70100003 1.1960005e-38
0.046065718 0.012684763 0.70100003 1.2437512e-38
0.04733333 0.012666675 0.70000005 1.2981727e-38
0.048527621 0.012630473 0.69799995 1.3637867e-38
0.049857147 0.012630475 0.69800001 1.4363598e-38
-0.01061428 0.014859992 0.74299997 1.1365263e-38
-0.0091990614 0.014860019 0.74300003 1.4572983e-38
-0.0078047621 0.0149 0.74500006 1.4021185e-38
-0.0063857078 0.01489999 0.74500006 1.3350671e-38
-0.0049666674 0.0149 0.74500006 6.796945e-39
-0.0035476133 0.014899991 0.74500006 2.8342663e-40
-0.002122863 0.014860011 0.74300003 6.4322122e-40
-0.00070761575 0.014859994 0.74300003 1.0116506e-39
0.00070761831 0.014860001 0.74299997 9.1982773e-40
0.0021228523 0.014860009 0.74299997 8.2906422e-40
0.0035381012 0.014859992 0.74299997 6.4646663e-40
0.0049666739 0.014899992 0.74500006 3.7060281e-40
0.0063685696 0.014860002 0.74300003 6.4539323e-40
0.0077838036 0.014860012 0.74300003 8.2941455e-40
0.0092238095 0.014900003 0.74500006 9.219591e-40
0.010642863 0.014899993 0.74500006 9.2231363e-40
0.012061913 0.014899983 0.745 6.475204e-40
0.013480958 0.014899992 0.74500006 3.7201672e-40
0.014900011 0.014899984 0.745 4.6457248e-40
0.016319051 0.014899993 0.74500006 5.5498706e-40
0.017785704 0.014940021 0.74700004 9.2162559e-40
0.01915713 0.014900015 0.74500006 1.2885962e-39
0.02057619 0.014900008 0.745 1.2878662e-39
0.021995228 0.014900017 0.74500006 1.1967439e-39
0.02335142 0.014860021 0.74300003 1.0137862e-39
0.024766665 0.014860005 0.74300003 8.311956e-40
0.026181903 0.014860013 0.74300003 6.4932247e-40
0.027560014 0.014839982 0.74200004 3.7309712e-40
0.028973339 0.014839998 0.74200004 7.404363e-40
0.030304771 0.01479998 0.73999995 1.1070622e-39
0.031671442 0.014779984 0.73899996 1.7491932e-39
0.032989524 0.01474 0.73700005 2.3902452e-39
0.034393325 0.014740016 0.73700005 1.2860655e-39
0.035797141 0.014740008 0.73700005 9.9862134e-41
0.037150472 0.014720005 0.73600006 1.1785696e-38
0.038447611 0.014680012 0.73400003 2.3398988e-38
0.03984572 0.014679989 0.73400003 2.341769e-38
0.041243803 0.014680005 0.73400003 2.3417683e-38
0.0426419 0.014680003 0.73400003 1.9009574e-38
0.043395232 0.014020002 0.70100003 1.2326242e-38
0.044730477 0.014020004 0.70100003 1.0134046e-38
0.046065714 0.014020004 0.70100003 1.0418182e-38
0.047333337 0.013999996 0.69999999 1.0692976e-38
0.048666678 0.013999983 0.70000005 1.069406e-38
0.049857154 0.013959994 0.69800001 1.0599719e-38
-0.0091990493 0.016275236 0.74299997 7.8715615e-39
-0.0077838148 0.016275244 0.74299997 1.0806353e-38
-0.0063857161 0.01631905 0.745 1.3847958e-38
-0.0049666748 0.016319059 0.74500006 1.0972988e-38
-0.0035476207 0.01631905 0.745 8.2024585e-39
-0.0021228648 0.016275246 0.74300003 4.5146487e-39
-0.00070763065 0.016275253 0.74300003 8.2689782e-40
0.00070761831 0.016275236 0.74300003 9.1946899e-40
0.0021228523 0.016275244 0.74299997 1.1045721e-39
0.0035381012 0.016275229 0.74300003 8.2978029e-40
0.0049533336 0.016275236 0.74299997 6.4645682e-40
0.0063685677 0.016275244 0.74299997 7.3756224e-40
0.0077838167 0.016275229 0.74299997 8.30118e-40
0.0092237992 0.016319061 0.74500006 9.219563e-40
0.010614283 0.01627524 0.74300003 9.219563e-40
0.012029517 0.016275248 0.74300003 7.3900277e-40
0.013444751 0.016275255 0.74300003 6.4752601e-40
0.014899989 0.016319061 0.74500006 5.5533178e-40
0.016319048 0.016319053 0.74500006 5.5390526e-40
0.017738098 0.016319042 0.745 8.2941875e-40
0.019157141 0.016319053 0.74500006 1.1038448e-39
0.020520946 0.016275244 0.74299997 1.1045567e-39
0.021936199 0.016275229 0.74299997 1.0127184e-39
0.023351431 0.016275238 0.74299997 9.2159616e-40
0.024766665 0.01627524 0.74300003 9.2266956e-40
0.026181903 0.016275249 0.74300003 8.3190606e-40
0.027560007 0.016253317 0.74200004 8.3155013e-40
0.028895244 0.016209511 0.73999995 1.1992522e-39
0.030263819 0.016187606 0.73899996 1.6584255e-39
0.031585712 0.016143804 0.73700005 1.4733154e-39
0.032989517 0.016143819 0.73700005 1.2860627e-39
0.034346666 0.0161219 0.73600006 3.2146137e-39
0.035748571 0.016121902 0.73600006 5.2351642e-39
0.037049521 0.016078094 0.73400003 1.4288305e-38
0.038447618 0.016078094 0.73399997 2.3417689e-38
0.039845698 0.016078109 0.73400003 2.341769e-38
0.041075245 0.016012376 0.73099995 2.3417677e-38
0.042467624 0.016012376 0.73100001 1.8894765e-38
0.043395236 0.015355243 0.70099998 1.2516731e-38
0.044730473 0.015355245 0.70099998 1.0790515e-38
0.04606571 0.015355241 0.70099998 1.0422101e-38
0.047400936 0.015355262 0.70100003 1.0146949e-38
0.048736177 0.01535526 0.70100003 9.8631864e-39
0.050000001 0.015333327 0.70000005 9.5898281e-39
-0.0092485761 0.017785719 0.74700004 1.1334108e-39
-0.0078257145 0.017785713 0.74700004 7.6684881e-39
-0.0063857087 0.017738085 0.745 1.41992e-38
-0.0049666674 0.017738096 0.74500006 1.5136558e-38
-0.0035476123 0.017738087 0.745 1.6024345e-38
-0.0021199852 0.017666643 0.74199998 8.2935878e-39
-0.00070763065 0.017690491 0.74300003 5.5895273e-40
0.00070761831 0.017690474 0.74300003 1.0105926e-39
0.0021228523 0.017690482 0.74300003 1.3793667e-39
0.0035380844 0.017690489 0.74300003 1.1045749e-39
0.0049533336 0.017690474 0.74300003 8.2905722e-40
0.0063599977 0.01766667 0.74200004 8.2832994e-40
0.0077733337 0.017666664 0.74200004 8.2904741e-40
0.0091990503 0.017690474 0.74299997 9.2160177e-40
0.010614283 0.01769048 0.74299997 9.2196611e-40
0.01202953 0.017690467 0.74299997 9.2197171e-40
0.013444754 0.017690493 0.74300003 8.3049075e-40
0.014860001 0.017690478 0.74300003 6.4645822e-40
0.016319053 0.017738087 0.74500006 4.624355e-40
0.017690472 0.017690493 0.74300003 7.3830773e-40
0.019105718 0.017690474 0.74300003 9.2161018e-40
0.02052095 0.017690483 0.74299997 9.2160177e-40
0.021936195 0.017690467 0.74300003 8.2941034e-40
0.023320008 0.017666655 0.74200004 9.2088991e-40
0.024733344 0.017666653 0.74199998 9.2231783e-40
0.02614668 0.017666645 0.74199998 1.1074167e-39
0.027485717 0.01761904 0.73999995 1.2914465e-39
0.028895248 0.017619031 0.73999995 1.7502652e-39
0.030263819 0.017595228 0.73899996 2.1168855e-39
0.031585705 0.017547626 0.73700005 1.1996026e-39
0.032944765 0.017523799 0.73600006 1.8546886e-40
0.03434667 0.017523799 0.73600006 5.234989e-39
0.035651423 0.017476203 0.73400003 1.0328445e-38
0.036948573 0.017428568 0.73199999 1.6897368e-38
0.038342867 0.01742856 0.73200005 2.3417689e-38
0.039737143 0.017428575 0.73199999 2.341769e-38
0.041131433 0.017428571 0.73200005 2.3415525e-38
0.042525724 0.017428562 0.73200005 1.8817638e-38
0.046065703 0.016690502 0.70100003 1.0424587e-38
0.047536179 0.016738107 0.70300001 9.4965577e-39
0.048736177 0.0166905 0.70100003 9.0216072e-39
-0.0092485761 0.019208578 0.74699998 2.02263e-39
-0.0078047705 0.019157154 0.74500006 4.6120544e-39
-0.0063857292 0.019157164 0.74500006 7.194995e-39
-0.0049666758 0.019157154 0.74500006 7.8458014e-39
-0.0035476338 0.019157166 0.74500006 8.4953565e-39
-0.0021199908 0.019079983 0.74200004 4.794921e-39
-0.00070666766 0.01908 0.74200004 1.1038953e-39
0.00070761831 0.019105716 0.74299997 1.3793737e-39
0.002119995 0.019080007 0.74200004 1.6548774e-39
0.0035380863 0.019105729 0.74300003 1.2875326e-39
0.0049533336 0.019105712 0.74300003 1.011659e-39
0.006360007 0.019079989 0.74199998 1.0120093e-39
0.0077733449 0.019079981 0.74199998 1.1038434e-39
0.0091990503 0.019105712 0.74300003 1.0130813e-39
0.010614282 0.019105719 0.74299997 9.2233465e-40
0.012029532 0.019105703 0.74299997 9.2234586e-40
0.013426666 0.01908 0.74200004 8.3086209e-40
0.01486 0.019105719 0.74299997 6.4646522e-40
0.016275235 0.019105721 0.74300003 4.6244251e-40
0.017690472 0.019105731 0.74300003 6.4683797e-40
0.019105718 0.019105714 0.74300003 9.2268918e-40
0.02049334 0.019079989 0.74199998 8.301222e-40
0.021906678 0.019079981 0.74199998 7.3793778e-40
0.023320016 0.019079976 0.74199998 8.2978309e-40
0.024733342 0.019079993 0.74199998 9.2232624e-40
0.02607619 0.019028571 0.74000001 1.1070622e-39
0.027448576 0.019002851 0.73899996 1.3843596e-39
0.028778082 0.01895144 0.73700005 1.2907276e-39
0.0301819 0.018951435 0.73700005 1.2882137e-39
0.031542849 0.018925721 0.73600006 7.3683777e-40
0.032944754 0.018925723 0.73600006 1.8403113e-40
0.034253336 0.018874289 0.73400003 8.4872514e-39
0.035554282 0.01882286 0.73199999 1.6884638e-38
0.03689811 0.018797118 0.73099995 2.0200219e-38
0.038290493 0.01879712 0.73099995 2.341769e-38
0.039682869 0.018797122 0.73100001 2.341769e-38
0.041075252 0.01879712 0.73100001 2.3417677e-38
0.042525724 0.018822843 0.73200005 1.7971388e-38
0.04760382 0.018102847 0.704 1.0872287e-38
-0.0035476263 0.020576203 0.74500006 9.321031e-40
-0.0021199945 0.020493321 0.74200004 1.2872033e-39
-0.00070665835 0.020493319 0.74199998 1.6566907e-39
0.00070667954 0.02049331 0.74199998 1.8403561e-39
0.0021200043 0.020493327 0.74199998 1.9314713e-39
0.0035333403 0.020493319 0.74199998 1.5623329e-39
0.0049466803 0.020493312 0.74200004 1.1038631e-39
0.0063600014 0.020493327 0.74199998 1.19533e-39
0.0077733411 0.020493319 0.74200004 1.2878816e-39
0.0091866637 0.020493336 0.74200004 1.1045679e-39
0.010600003 0.02049333 0.74200004 9.2161718e-40
0.012013341 0.020493323 0.74200004 9.2161999e-40
0.013426675 0.020493319 0.74199998 8.3049355e-40
0.014840014 0.020493312 0.74199998 6.4645542e-40
0.016253337 0.020493327 0.74199998 4.6387043e-40
0.017666677 0.020493319 0.74199998 6.4755263e-40
0.019080013 0.020493312 0.74199998 8.3085088e-40
0.020493338 0.020493329 0.74199998 7.382825e-40
0.021906678 0.020493321 0.74200004 6.4646242e-40
0.023225714 0.020410478 0.73899996 8.3014883e-40
0.024633335 0.020410478 0.73899996 9.2305352e-40
0.025970463 0.020355258 0.73700005 1.1981957e-39
0.027374275 0.020355251 0.73700005 1.3829344e-39
0.028778074 0.020355264 0.73700005 9.2338983e-40
0.030181892 0.020355258 0.73700005 3.6951119e-40
0.031542853 0.020327618 0.73600006 2.7588624e-40
0.032855228 0.020272393 0.73400003 1.2027485e-40
0.034113333 0.02018952 0.73100001 1.1829739e-38
0.035505716 0.020189522 0.73100001 2.3410427e-38
0.036797151 0.020134272 0.72900003 2.341769e-38
0.038028568 0.020051433 0.72600001 2.341769e-38
0.039357152 0.020023797 0.72500002 2.341769e-38
0.040625725 0.019968567 0.72300005 2.3413371e-38
0.042002879 0.019968549 0.72300005 1.7247463e-38
0.043766674 0.019526659 0.70700002 1.1052383e-38
0.045113333 0.019526673 0.70700002 1.1056682e-38
0.046328574 0.019471422 0.70499998 1.1595493e-38
0.0035333366 0.021906659 0.74200004 1.8414379e-39
0.0049466616 0.021906672 0.74200004 1.3808143e-39
0.0063599995 0.021906666 0.74200004 1.1964132e-39
0.0077733505 0.02190664 0.74199998 1.1052952e-39
0.009186673 0.021906657 0.74199998 1.1964118e-39
0.010614282 0.021936193 0.74300003 1.2889592e-39
0.012013334 0.021906663 0.74199998 1.1974754e-39
0.013426674 0.021906657 0.74199998 1.1067077e-39
0.014840011 0.02190665 0.74200004 1.0148624e-39
0.016253335 0.021906666 0.74200004 1.0166715e-39
0.017666675 0.021906657 0.74200004 1.1989215e-39
0.019028571 0.021847622 0.74000001 1.3822184e-39
0.020438101 0.021847613 0.73999995 1.2900087e-39
0.02181809 0.021818101 0.73899996 1.1978355e-39
0.023162838 0.021759072 0.73700005 1.2900494e-39
0.024566656 0.021759063 0.73700005 1.4762301e-39
0.02597047 0.021759057 0.73700005 1.474435e-39
0.027374268 0.021759072 0.73700005 1.4740623e-39
0.02873905 0.021729521 0.73600006 8.2940474e-40
0.030140951 0.021729521 0.73600006 2.7589325e-40
0.031542853 0.021729525 0.73600006 4.877365e-39
0.032855239 0.021670476 0.73400003 9.5894736e-39
0.034113333 0.021581907 0.73100001 1.6512809e-38
0.035505723 0.021581884 0.73099995 2.341769e-38
0.036797155 0.021522839 0.72899997 2.341769e-38
0.038028561 0.021434303 0.72600001 2.341769e-38
0.039411418 0.021434305 0.72600001 2.341769e-38
0.040738102 0.021404753 0.72500002 2.3417675e-38
0.04511334 0.020873329 0.70699996 1.1246834e-38
0.046328578 0.020814277 0.70499998 1.2252002e-38
0.0063600107 0.023319986 0.74199998 1.1953552e-39
0.0077733467 0.023319976 0.74199998 8.297957e-40
0.0091866693 0.023319993 0.74200004 1.1953314e-39
0.010614299 0.023351414 0.74299997 1.5637552e-39
0.01201333 0.023320002 0.74200004 1.4719239e-39
0.01342667 0.023319995 0.74200004 1.2896822e-39
0.01484001 0.023319988 0.74200004 1.4729875e-39
0.016253332 0.023320002 0.74200004 1.5655517e-39
0.017619058 0.023257134 0.73999995 1.7488751e-39
0.019028572 0.023257144 0.73999995 1.93433e-39
0.020355219 0.023162887 0.73700005 1.8410497e-39
0.021818092 0.023225723 0.73899996 1.7492297e-39
0.023162846 0.023162872 0.73700005 1.8400044e-39
0.024566649 0.023162887 0.73700005 1.9329091e-39
0.025935244 0.023131421 0.73600006 1.7495912e-39
0.02733713 0.023131443 0.73600006 1.5641041e-39
0.028660957 0.023068568 0.73399997 8.2760407e-40
0.03005904 0.023068585 0.73400003 9.2988765e-41
0.03137143 0.023005709 0.73199999 9.5513975e-39
0.032720946 0.022974288 0.73100001 1.9065443e-38
0.034020014 0.022911411 0.72900003 2.1305474e-38
0.035408586 0.022911409 0.72899997 2.341769e-38
0.036645714 0.022817152 0.72600001 2.341769e-38
0.03797619 0.022785723 0.72500002 2.341769e-38
0.039248578 0.022722857 0.72300005 2.341769e-38
0.040625729 0.02272284 0.72300005 2.3410483e-38
0.010642857 0.024833335 0.74500006 3.4923076e-39
0.012029533 0.024766659 0.74299997 3.2214801e-39
0.013426679 0.024733314 0.74199998 2.9438184e-39
0.014799994 0.024666673 0.74000001 2.6686664e-39
0.016187621 0.024633331 0.73899996 2.482134e-39
0.017595241 0.024633329 0.73899996 2.669758e-39
0.01895141 0.024566693 0.73700005 2.9481302e-39
0.020327616 0.024533335 0.73600006 3.0381678e-39
0.021759037 0.02456668 0.73700011 3.1282195e-39
0.023162853 0.024566676 0.73699999 3.4984411e-39
0.024533326 0.024533341 0.73600006 3.8600336e-39
0.025935229 0.024533343 0.73600006 3.219685e-39
0.027262852 0.024466671 0.73399997 2.5728611e-39
0.028660949 0.024466669 0.73400003 3.7666917e-39
0.029977154 0.024399977 0.73199999 4.9621142e-39
0.031371433 0.024399992 0.73199999 1.3087171e-38
0.032720961 0.024366651 0.73100001 2.1305423e-38
0.034020018 0.024299975 0.72899997 2.2315664e-38
0.03535999 0.024266671 0.72800004 2.341769e-38
0.036645699 0.024200017 0.72600001 2.341769e-38
0.03797619 0.02416667 0.72500008 2.341769e-38
0.039248571 0.024100006 0.72300005 2.341769e-38
0.040625725 0.024099989 0.72300005 2.3417641e-38
0.0120619 0.026252385 0.74500006 4.9781927e-39
0.013426675 0.026146652 0.74200004 4.5147174e-39
0.014800011 0.02607617 0.73999995 3.9597668e-39
0.016209541 0.02607616 0.73999995 3.4066056e-39
0.017595241 0.026040951 0.73899996 3.6835512e-39
0.018951433 0.025970476 0.73700005 3.8690061e-39
0.020355226 0.025970489 0.73699999 4.2352621e-39
0.021729518 0.025935238 0.73600006 4.5143573e-39
0.023131426 0.02593524 0.73600006 5.1651007e-39
0.024533341 0.025935223 0.73600006 5.8011136e-39
0.025864765 0.025864756 0.73399997 4.6961982e-39
0.02726285 0.025864774 0.73400003 3.5866486e-39
0.028582865 0.025794271 0.73199999 6.7044032e-39
0.029977145 0.025794286 0.73199999 9.8671142e-39
0.031328581 0.025759036 0.73100001 1.6713648e-38
0.032631435 0.025688564 0.72900003 2.3417665e-38
0.033973332 0.025653334 0.72799999 2.341769e-38
0.035262853 0.025582863 0.72600001 2.341769e-38
0.036645714 0.025582863 0.72600001 2.341769e-38
0.03797619 0.02554762 0.72500002 2.341769e-38
0.014840008 0.02755999 0.74199998 5.5288833e-39
0.016253345 0.027559979 0.74199998 5.0621739e-39
0.017595239 0.027448572 0.73899996 4.9746446e-39
0.018951422 0.027374297 0.73700005 4.9767816e-39
0.020327622 0.027337138 0.73600006 5.1593595e-39
0.021729521 0.027337139 0.73600006 5.4366555e-39
0.023131426 0.027337143 0.73600006 5.6242669e-39
0.024466677 0.02726284 0.73400003 5.8097022e-39
0.025864761 0.027262857 0.73400003 4.6940149e-39
0.027151437 0.027151417 0.73099995 3.5866599e-39
0.028582867 0.027188554 0.73199999 1.0134654e-38
0.0299362 0.027151419 0.73100001 1.6690256e-38
0.031242862 0.027077131 0.72900003 2.0014037e-38
0.032586668 0.027039994 0.72799999 2.341769e-38
0.033973351 0.027039981 0.72799999 2.341769e-38
0.035360008 0.027039984 0.72799999 2.341769e-38
0.016275231 0.029012393 0.74300003 6.6348512e-39
