# .PCD v0.7 - Point Cloud Data file format
VERSION 0.7
FIELDS x y z rgb
SIZE 4 4 4 4
TYPE F F F F
COUNT 1 1 1 1
WIDTH 960
HEIGHT 1
VIEWPOINT 0 0 0 1 0 0 0
POINTS 960
DATA ascii
0.034253322 -0.091575198 0.73400009 1.10468e-39
0.035748556 -0.091824718 0.73600012 1.1046716e-39
0.037150476 -0.091824748 0.73600006 1.3812473e-39
0.038604755 -0.091949485 0.73700011 1.5652812e-39
0.040117133 -0.092199035 0.73900002 1.7500326e-39
0.0049999994 -0.092142858 0.75000006 1.7510626e-39
0.0064114123 -0.091897123 0.74800009 1.4741267e-39
0.0078361798 -0.091897123 0.74800003 1.1978944e-39
0.0092485715 -0.091774292 0.74700004 1.749615e-39
0.010671418 -0.09177427 0.7470001 2.302786e-39
0.012061889 -0.091528542 0.74500012 2.3027916e-39
0.013444753 -0.091282837 0.74300003 2.3042363e-39
0.014839995 -0.091159992 0.74200004 2.7619887e-39
0.016187612 -0.090791419 0.73900002 3.2193767e-39
0.017595226 -0.090791404 0.73900002 3.1300552e-39
0.01895141 -0.090545669 0.73700005 2.9460366e-39
0.020355217 -0.090545662 0.73700005 2.4868704e-39
0.021759037 -0.090545677 0.73700011 2.1191626e-39
0.023162842 -0.090545677 0.73700005 1.7496613e-39
0.024566658 -0.090545692 0.73700011 1.473796e-39
0.025935223 -0.090422817 0.73600006 1.2912012e-39
0.027337126 -0.090422817 0.73600006 1.1075289e-39
0.028660946 -0.090177126 0.73400003 1.1982853e-39
0.029977139 -0.089931421 0.73200005 1.2883244e-39
0.031371433 -0.089931436 0.73200011 1.0128151e-39
0.032765713 -0.089931421 0.73200011 7.3660795e-40
0.034159992 -0.089931406 0.73200011 8.2881759e-40
0.035554286 -0.089931421 0.73200011 1.0121242e-39
0.037049506 -0.090177104 0.73400009 1.1968644e-39
0.03855237 -0.090422824 0.73600006 1.3816116e-39
0.039954271 -0.090422817 0.73600006 1.5663574e-39
0.041412354 -0.090545647 0.73700011 1.7507515e-39
0.042932387 -0.090791442 0.73900002 1.4745317e-39
0.044339988 -0.090791397 0.73900002 1.1990322e-39
0.0035714291 -0.090714298 0.75000006 1.7499639e-39
0.004999992 -0.090714268 0.75000006 1.8421736e-39
0.0064114179 -0.090472363 0.74800009 1.4737708e-39
0.0078361854 -0.090472363 0.74800003 1.0138675e-39
0.0092485622 -0.090351403 0.74700004 1.7481857e-39
0.010642848 -0.090109497 0.74500012 2.3931936e-39
0.012029505 -0.089867577 0.74300009 2.4850375e-39
0.013426658 -0.089746632 0.7420001 2.4871913e-39
0.014779999 -0.089383811 0.73900002 3.1300411e-39
0.016143795 -0.089141868 0.73700005 3.6799849e-39
0.017547611 -0.089141883 0.73700005 3.2218907e-39
0.018951407 -0.089141853 0.73700011 2.7623614e-39
0.0203276 -0.089020915 0.73600006 2.4861431e-39
0.021729503 -0.089020915 0.73600006 2.1173648e-39
0.023068562 -0.088779025 0.73400009 1.7478676e-39
0.024533324 -0.089020938 0.73600006 1.2897649e-39
0.025864745 -0.08877901 0.73400009 1.2908397e-39
0.027262844 -0.088779017 0.73400009 1.1982882e-39
0.028582856 -0.088537142 0.73200005 1.1972134e-39
0.029936172 -0.088416144 0.73100007 1.1050177e-39
0.031328548 -0.088416137 0.73100007 7.3803307e-40
0.032765705 -0.088537134 0.73200005 3.6998343e-40
0.034113314 -0.088416144 0.73100001 6.45141e-40
0.03550569 -0.088416129 0.73100007 8.2880779e-40
0.036948569 -0.088537134 0.73200011 1.0121158e-39
0.038342852 -0.088537119 0.73200011 1.105745e-39
0.039845709 -0.08877904 0.73400009 1.3823277e-39
0.04135618 -0.08902093 0.73600012 1.5663616e-39
0.042758085 -0.089020923 0.73600012 1.3823375e-39
0.044219982 -0.089141853 0.73700011 1.1075527e-39
0.045623798 -0.089141868 0.73700011 1.3834235e-39
0.047155235 -0.089383803 0.73900008 1.5652994e-39
0.0035714253 -0.089285702 0.75000006 9.227102e-40
0.0049866471 -0.089047581 0.74800009 1.0156471e-39
0.0064114123 -0.089047588 0.74800003 7.3801345e-40
0.0078257099 -0.088928558 0.74700004 5.5433546e-40
0.009223802 -0.08869046 0.74500012 1.4730421e-39
0.010614267 -0.088452347 0.74300003 2.3939194e-39
0.012013325 -0.088333316 0.7420001 2.4871997e-39
0.013372375 -0.08797618 0.73900008 2.6726573e-39
0.014739978 -0.087738045 0.73700011 2.8541689e-39
0.016121896 -0.087619029 0.73600006 3.0364162e-39
0.017523799 -0.087619029 0.73600006 2.7623544e-39
0.018925704 -0.087619022 0.73600006 2.5790436e-39
0.020272374 -0.087380938 0.73400003 2.2106268e-39
0.021670461 -0.087380916 0.73400009 1.8411352e-39
0.023005709 -0.08714284 0.73200005 1.5645553e-39
0.024399998 -0.087142847 0.73200011 1.1975693e-39
0.025794279 -0.08714284 0.73200011 1.3815962e-39
0.027188569 -0.087142847 0.73200011 1.5645539e-39
0.028543796 -0.087023772 0.73100007 1.2886929e-39
0.029936172 -0.087023757 0.73100007 1.0128277e-39
0.031328563 -0.087023787 0.73100001 8.2915671e-40
0.032720938 -0.087023772 0.73100007 6.4584865e-40
0.034113314 -0.087023757 0.73100007 7.3732962e-40
0.035505701 -0.08702378 0.73100001 8.2916372e-40
0.03689808 -0.087023772 0.73100001 1.0135494e-39
0.03829046 -0.087023757 0.73100007 1.1979378e-39
0.039737139 -0.08714284 0.73200011 1.2901321e-39
0.041243795 -0.087380908 0.73400009 1.3826906e-39
0.0426419 -0.087380938 0.73400009 1.1071883e-39
0.044159997 -0.087619029 0.73600006 9.2388028e-40
0.045561898 -0.087619029 0.73600006 1.2919439e-39
0.047027603 -0.087738059 0.73700005 1.7532794e-39
0.048562851 -0.087976165 0.73900008 1.4752674e-39
0.049970474 -0.08797618 0.73900002 1.2890671e-39
0.0021371224 -0.087622821 0.74800009 9.4761407e-41
0.0035618877 -0.087622829 0.74800003 9.2243274e-41
0.0049799983 -0.087505713 0.74700004 9.4050949e-41
0.006402845 -0.087505691 0.74700004 9.2272701e-41
0.0077837841 -0.087037079 0.74300009 9.949079e-41
0.0091990298 -0.087037094 0.74300009 1.2872986e-39
0.010571422 -0.086685687 0.74000001 2.4036501e-39
0.011964748 -0.086568542 0.73900008 2.5811974e-39
0.013336181 -0.086334258 0.73700011 2.7619831e-39
0.014719975 -0.08621709 0.73600012 2.5768632e-39
0.016078088 -0.085982837 0.73400003 2.301728e-39
0.017476175 -0.085982814 0.73400009 2.3031756e-39
0.018822862 -0.085748583 0.73200005 2.3028182e-39
0.020217143 -0.085748576 0.73200005 1.935479e-39
0.021611433 -0.085748583 0.73200005 1.5652672e-39
0.022974275 -0.085631408 0.73100007 1.3801613e-39
0.024366651 -0.085631393 0.73100007 1.1053723e-39
0.025759039 -0.085631408 0.73100001 1.5652686e-39
0.027151417 -0.0856314 0.73100007 1.9315358e-39
0.028465711 -0.085397132 0.72900003 1.3798067e-39
0.029854283 -0.085397132 0.72900003 8.2915251e-40
0.031242853 -0.085397132 0.72900003 8.2843644e-40
0.032720935 -0.085631393 0.73100007 8.2951404e-40
0.034113321 -0.085631415 0.73100001 8.2915811e-40
0.035505701 -0.0856314 0.73100001 8.3023151e-40
0.03689808 -0.085631393 0.73100007 1.1064541e-39
0.038290471 -0.085631408 0.73100001 1.2897677e-39
0.039682847 -0.085631393 0.73100001 1.2894104e-39
0.041131426 -0.085748561 0.73200005 1.1993728e-39
0.042525712 -0.085748568 0.73200011 9.2351314e-40
0.044039983 -0.085982807 0.73400009 6.4836959e-40
0.045438085 -0.085982822 0.73400009 1.2912223e-39
0.046963792 -0.086217113 0.73600006 1.8440317e-39
0.048431408 -0.086334236 0.73700011 2.1224123e-39
0.04997047 -0.086568564 0.73900002 2.3943258e-39
0.051447619 -0.086685695 0.74000001 1.2883482e-39
0.0021285627 -0.085852362 0.74500006 4.0411598e-39
0.0035476058 -0.085852355 0.74500006 5.615286e-39
0.0049533066 -0.085621841 0.74300009 7.2575672e-39
0.0063685537 -0.085621871 0.74300003 7.4616887e-39
0.0077733132 -0.085506618 0.7420001 7.6468913e-39
0.0091618961 -0.085276164 0.74000001 7.3808072e-39
0.010528544 -0.084930412 0.73700011 7.11708e-39
0.011916175 -0.084815197 0.73600006 4.2396271e-39
0.013281888 -0.08458472 0.73400009 1.4727016e-39
0.014679996 -0.08458475 0.73400009 1.8414547e-39
0.016012371 -0.084239021 0.73100001 2.3010063e-39
0.017357133 -0.084008552 0.72900003 2.1184256e-39
0.01871999 -0.083893307 0.72800004 1.9340399e-39
0.020134287 -0.084008574 0.72900003 1.7492955e-39
0.021522846 -0.084008545 0.72900003 1.4709178e-39
0.022911418 -0.084008545 0.72900003 1.2879614e-39
0.024266647 -0.083893284 0.7280001 1.1042947e-39
0.02568857 -0.084008567 0.72900003 1.2883272e-39
0.027077129 -0.084008537 0.72900003 1.5638337e-39
0.028465711 -0.08400856 0.72900003 1.1046548e-39
0.029854285 -0.08400856 0.72900003 7.3803167e-40
0.031242855 -0.08400856 0.72900003 6.4583744e-40
0.032631423 -0.084008552 0.72900009 6.4655491e-40
0.034019995 -0.08400856 0.72900003 7.383904e-40
0.035408571 -0.084008552 0.72900003 8.3094196e-40
0.036797136 -0.08400856 0.72900003 1.1064471e-39
0.038290471 -0.084239028 0.73100001 1.4737918e-39
0.039682847 -0.084239021 0.73100007 1.3833941e-39
0.041075222 -0.084239013 0.73100007 1.2929977e-39
0.042525712 -0.084354274 0.73200005 1.107896e-39
0.043920003 -0.084354281 0.73200005 9.2351174e-40
0.045314286 -0.084354274 0.73200011 1.2908579e-39
0.046836186 -0.084584735 0.73400003 1.7503955e-39
0.048365694 -0.084815189 0.73600012 2.0287733e-39
0.049835227 -0.084930442 0.73700011 2.3060819e-39
0.051239036 -0.084930442 0.73700011 1.7500536e-39
0.052857134 -0.085276164 0.74000007 1.1943659e-39
0.0021199917 -0.084093325 0.74200004 8.0185311e-39
0.0035190487 -0.083753332 0.73900002 1.1253245e-38
0.0049133138 -0.083526626 0.73700011 1.4371703e-38
0.0063171214 -0.083526619 0.73700011 1.4849891e-38
0.0077104676 -0.083413318 0.73600006 1.5205069e-38
0.009112373 -0.08341331 0.73600006 1.3470992e-38
0.010514275 -0.08341331 0.73600006 1.1696298e-38
0.01185143 -0.082960002 0.73200005 5.8786895e-39
0.013191434 -0.08262001 0.72900003 9.4817459e-41
0.014579992 -0.08261998 0.72900003 1.1989664e-39
0.015946649 -0.082506619 0.72800004 2.3017252e-39
0.017261889 -0.082166627 0.72500002 1.9354748e-39
0.018642846 -0.082166642 0.72500002 1.5656231e-39
0.020023795 -0.082166627 0.72500008 1.4723541e-39
0.021404751 -0.082166642 0.72500008 1.3801613e-39
0.022785701 -0.082166635 0.72500002 1.1964917e-39
0.024166645 -0.08216662 0.72500008 1.0128207e-39
0.025547605 -0.082166635 0.72500002 1.1039387e-39
0.026928555 -0.082166627 0.72500002 1.1039317e-39
0.0283095 -0.082166605 0.72500008 9.2025232e-40
0.029690458 -0.082166627 0.72500002 6.454703e-40
0.03111428 -0.08227998 0.72600001 5.5435788e-40
0.03258666 -0.082506649 0.7280001 3.7068969e-40
0.033973318 -0.082506627 0.72800004 5.5472081e-40
0.035359982 -0.082506634 0.72800004 7.3874353e-40
0.036746655 -0.082506634 0.72800004 1.1982727e-39
0.038185697 -0.082619958 0.72900003 1.5666979e-39
0.03957428 -0.08261998 0.72900003 1.4770218e-39
0.040962853 -0.08261998 0.72900003 1.2922788e-39
0.042467613 -0.082846649 0.73100007 1.1990112e-39
0.043859992 -0.082846634 0.73100007 1.1068226e-39
0.045252368 -0.082846619 0.73100007 1.381976e-39
0.046708573 -0.082959987 0.73200005 1.658916e-39
0.048234273 -0.083186634 0.73400009 1.9362147e-39
0.049767606 -0.083413295 0.73600006 2.1209675e-39
0.051239032 -0.083526626 0.73700011 2.2117324e-39
0.052785706 -0.08375331 0.73900008 2.2074178e-39
0.054266665 -0.083866648 0.74000007 1.1943477e-39
0.00070475193 -0.082457125 0.74000001 8.6653929e-39
0.0021114226 -0.082345709 0.73900008 1.0809576e-38
0.0035190338 -0.082345687 0.73900008 1.2733137e-38
0.0049066436 -0.082011379 0.73600006 1.4667412e-38
0.0062914188 -0.081788555 0.73400009 1.4384004e-38
0.0076895063 -0.081788532 0.73400009 1.4107753e-38
0.0090628518 -0.0815657 0.73200005 1.4101987e-38
0.010442851 -0.08145427 0.73100001 1.3982141e-38
0.011802852 -0.081231415 0.72900003 9.1130349e-39
0.01317333 -0.081119992 0.72800004 4.2259869e-39
0.014559983 -0.081119962 0.7280001 2.7583762e-39
0.015880931 -0.080785669 0.72500002 1.2918949e-39
0.017261889 -0.080785684 0.72500002 1.2904768e-39
0.01859143 -0.08056286 0.72300005 1.3801599e-39
0.019968569 -0.080562852 0.72300005 1.2890404e-39
0.021345712 -0.080562852 0.72300005 1.289046e-39
0.022722851 -0.080562845 0.72300005 1.1057394e-39
0.024099994 -0.080562837 0.72300005 9.220656e-40
0.025477137 -0.080562837 0.72300005 9.2062647e-40
0.026854279 -0.08056283 0.72300005 1.0113718e-39
0.028231418 -0.08056283 0.72300005 1.1035506e-39
0.029608572 -0.080562852 0.72300005 1.1953987e-39
0.030985713 -0.080562852 0.72300005 1.0124564e-39
0.032362852 -0.080562845 0.72300005 7.3767154e-40
0.033833325 -0.080785692 0.72500002 8.302287e-40
0.035214271 -0.080785677 0.72500008 8.2949863e-40
0.036595229 -0.080785692 0.72500008 1.3822913e-39
0.038028575 -0.080897138 0.72600001 1.934393e-39
0.039411422 -0.080897115 0.72600001 1.5677797e-39
0.040906649 -0.081119962 0.7280001 1.2004405e-39
0.042293318 -0.081119962 0.7280001 1.1071729e-39
0.043679982 -0.081119969 0.7280001 1.1068212e-39
0.045066658 -0.081119962 0.7280001 1.4745275e-39
0.04651713 -0.081231408 0.72900003 1.9347784e-39
0.04803713 -0.081454255 0.73100007 2.1198801e-39
0.049497142 -0.081565715 0.73200005 2.2127946e-39
0.051030457 -0.08178851 0.73400009 2.0273328e-39
0.052428562 -0.081788547 0.73400009 1.9333379e-39
0.053973317 -0.082011394 0.73600012 1.1964931e-39
0.055600945 -0.082345694 0.73900008 5.5154967e-40
0.057085704 -0.08245711 0.74000001 4.1496932e-39
0.058653321 -0.082679965 0.7420001 7.6689183e-39
0.00070475473 -0.081047602 0.74000007 1.336911e-38
0.0021114226 -0.080938086 0.73900002 1.346493e-38
0.0035095091 -0.080719016 0.73700005 1.4201804e-38
0.0049066474 -0.080609478 0.73600012 1.4843554e-38
0.0062742843 -0.080171436 0.73200005 1.391047e-38
0.0076685757 -0.080171444 0.73200005 1.3006816e-38
0.0090504512 -0.080061845 0.73100007 1.4663435e-38
0.010414279 -0.079842843 0.72900003 1.6308184e-38
0.011786655 -0.079733312 0.7280001 1.236496e-38
0.013137138 -0.079514273 0.72600001 8.3725762e-39
0.01452 -0.07951428 0.72600001 4.3166971e-39
0.015880937 -0.079404719 0.72500002 2.791863e-40
0.01721428 -0.079185694 0.72300005 7.383848e-40
0.018591421 -0.079185694 0.72300005 1.1057268e-39
0.01996856 -0.079185687 0.72300005 1.1064456e-39
0.021345716 -0.079185717 0.72300005 1.1060897e-39
0.022722855 -0.079185709 0.72300005 1.0156934e-39
0.024099996 -0.079185709 0.72300005 8.302273e-40
0.025477137 -0.079185702 0.72300005 8.2843084e-40
0.026817128 -0.079076149 0.72200012 8.280623e-40
0.028192367 -0.079076149 0.72200006 1.2868726e-39
0.029567607 -0.079076149 0.72200012 1.7464159e-39
0.030942839 -0.079076149 0.72200012 1.4709164e-39
0.032318082 -0.079076149 0.72200006 1.1050191e-39
0.033740006 -0.079185732 0.72300005 1.0146284e-39
0.035117138 -0.079185702 0.72300005 9.2278026e-40
0.036595229 -0.079404742 0.72500002 1.566335e-39
0.037976172 -0.079404704 0.72500008 2.2095506e-39
0.039357126 -0.079404719 0.72500008 1.6585474e-39
0.040794291 -0.079514287 0.72600001 1.1071701e-39
0.042177148 -0.079514302 0.72600001 1.1057296e-39
0.043679994 -0.07973332 0.7280001 1.0149787e-39
0.045066658 -0.07973332 0.72800004 1.658553e-39
0.046453327 -0.07973332 0.72800004 2.2117156e-39
0.047905717 -0.079842858 0.72900003 2.3042658e-39
0.049429521 -0.08006189 0.73100007 2.3035497e-39
0.050891433 -0.080171436 0.73200005 1.9344169e-39
0.052428555 -0.080390438 0.73400009 1.5663532e-39
0.053826671 -0.080390468 0.73400009 1.2908425e-39
0.055450466 -0.080719016 0.73700005 1.0124872e-39
0.057008561 -0.080938056 0.73900008 5.5153706e-40
0.058495235 -0.081047602 0.74000001 1.2366459e-40
0.060066659 -0.081266642 0.74200004 1.1833862e-38
0.00070380571 -0.079530478 0.73900008 1.4661281e-38
0.0021056884 -0.079315186 0.73700011 1.4193532e-38
0.0035095073 -0.079315208 0.73700011 1.3370636e-38
0.0048933201 -0.078992359 0.73400009 1.2645963e-38
0.0062742778 -0.078777134 0.73200011 1.3653609e-38
0.0076580746 -0.078669474 0.73100007 1.4764259e-38
0.0090257125 -0.078454286 0.72899997 1.3934164e-38
0.010399985 -0.078346632 0.7280001 1.3201226e-38
0.011754289 -0.078131445 0.72600001 8.6660837e-39
0.013119031 -0.078023762 0.72500002 4.2249135e-39
0.014499987 -0.078023784 0.72500002 2.2973798e-39
0.015837144 -0.077808566 0.72300005 3.7173085e-40
0.017214283 -0.077808559 0.72300005 7.3874073e-40
0.018591423 -0.077808559 0.72300005 1.1053666e-39
0.019940943 -0.077700935 0.72200012 1.0138913e-39
0.021316171 -0.077700913 0.72200012 9.2134113e-40
0.022691406 -0.077700906 0.72200012 7.38389e-40
0.024066657 -0.077700935 0.72200012 5.5471801e-40
0.025441885 -0.077700913 0.72200012 6.4547591e-40
0.026742859 -0.077485718 0.72000003 7.36231e-40
0.028114291 -0.077485725 0.72000003 1.012092e-39
0.029485723 -0.07748574 0.72000003 1.3790781e-39
0.030857144 -0.077485718 0.72000003 1.2876041e-39
0.032228578 -0.077485718 0.72000003 1.197219e-39
0.033693325 -0.077700928 0.72200012 1.0139221e-39
0.03506856 -0.07770092 0.72200012 9.2279287e-40
0.036494281 -0.077808551 0.72300005 1.2904824e-39
0.037976172 -0.078023754 0.72500002 1.6581901e-39
0.039357126 -0.078023769 0.72500002 1.3830494e-39
0.040738087 -0.078023791 0.72500002 1.1071701e-39
0.042177144 -0.078131437 0.72600001 1.1982741e-39
0.043559995 -0.078131415 0.72600001 1.2908383e-39
0.044942867 -0.078131452 0.72600001 1.8440135e-39
0.046453327 -0.07834664 0.7280001 2.3975348e-39
0.047905717 -0.078454293 0.72900003 2.2124261e-39
0.049294289 -0.078454293 0.72900003 2.0280404e-39
0.050821889 -0.078669481 0.73100007 1.7507417e-39
0.05221428 -0.078669496 0.73100001 1.3823235e-39
0.05368001 -0.078777164 0.73200005 1.3819633e-39
0.055375237 -0.079207607 0.73600006 1.3801543e-39
0.056854274 -0.079315193 0.73700011 7.3585545e-40
0.058495227 -0.079638071 0.74000007 9.2419838e-41
0.060066652 -0.079853289 0.7420001 9.9634311e-39
0.06156284 -0.079960905 0.74300003 1.9836106e-38
-0.00070381479 -0.078122839 0.73900008 1.7057991e-38
0.0007018937 -0.077911407 0.73700011 1.6047789e-38
0.0021028405 -0.077805676 0.73600006 1.4929263e-38
0.0034952213 -0.077594243 0.73400009 1.2625126e-38
0.0048933197 -0.07759425 0.73400003 1.0340012e-38
0.0062656989 -0.077277102 0.73100007 1.3477497e-38
0.0076371413 -0.077065714 0.72900003 1.6505176e-38
0.009013324 -0.076959975 0.72800004 1.3291271e-38
0.010371425 -0.076748565 0.72600001 9.9539303e-39
0.011738083 -0.076642826 0.72500008 5.0571811e-39
0.013082852 -0.076431409 0.72300005 9.4439109e-41
0.014459993 -0.076431409 0.72300005 2.7591847e-40
0.015837131 -0.076431401 0.72300005 3.7029172e-40
0.01719046 -0.076325692 0.72200012 7.3981272e-40
0.01856569 -0.076325662 0.72200012 1.0138871e-39
0.019885717 -0.076114304 0.72000003 8.2986156e-40
0.021257151 -0.076114304 0.72000003 6.4583184e-40
0.022628574 -0.076114289 0.72000003 4.6180351e-40
0.023999995 -0.076114267 0.72000003 2.7848985e-40
0.025371423 -0.076114282 0.72000003 4.6251818e-40
0.026705705 -0.076008551 0.7190001 5.5363481e-40
0.028075226 -0.076008536 0.7190001 8.2913849e-40
0.02944475 -0.076008551 0.7190001 1.0124536e-39
0.030814283 -0.076008558 0.7190001 1.1954113e-39
0.032228574 -0.076114289 0.72000003 1.2879727e-39
0.033600006 -0.076114289 0.72000003 1.1046702e-39
0.034971438 -0.076114304 0.72000003 8.3023571e-40
0.036443803 -0.076325707 0.72200012 1.01462e-39
0.037871424 -0.076431416 0.72300005 1.1071743e-39
0.039248567 -0.076431401 0.72300005 1.1082519e-39
0.040625706 -0.076431401 0.72300005 1.0149773e-39
0.04211903 -0.076642826 0.72500002 1.289402e-39
0.043499991 -0.076642841 0.72500002 1.5670665e-39
0.04488093 -0.076642804 0.72500008 2.1213122e-39
0.046325713 -0.076748572 0.72600007 2.5808457e-39
0.047840003 -0.07695999 0.7280001 2.2117086e-39
0.04922666 -0.076959968 0.72800004 1.7518137e-39
0.050682861 -0.077065721 0.72900003 1.4741548e-39
0.052071419 -0.077065691 0.72900003 1.1990028e-39
0.053606659 -0.077277109 0.73100007 1.4748652e-39
0.055224758 -0.07759425 0.73400009 1.7500004e-39
0.056777135 -0.07780569 0.73600006 9.1880478e-40
0.058416184 -0.078122832 0.73900008 9.4523187e-41
0.060066663 -0.078439973 0.74200004 8.1825895e-39
0.061562847 -0.078545682 0.74300009 1.6227569e-38
-0.00070193165 -0.076507546 0.73700011 1.4117101e-38
0.00070094143 -0.076403789 0.73600006 1.0889223e-38
0.0020971277 -0.076196156 0.73400009 7.6670546e-39
0.003485712 -0.075988568 0.73200005 7.7506056e-39
0.0048800013 -0.075988576 0.73200005 7.93792e-39
0.0062485612 -0.075677119 0.72900003 9.0525576e-39
0.0076057198 -0.075365737 0.72600001 1.0253536e-38
0.0089514172 -0.075054258 0.72300005 7.746298e-39
0.01032856 -0.075054251 0.72300005 5.2351151e-39
0.011689511 -0.074950442 0.72200006 3.0331582e-39
0.01306475 -0.074950442 0.72200012 8.2981112e-40
0.014400003 -0.074742869 0.72000003 7.3688541e-40
0.015771421 -0.074742839 0.72000003 7.3691203e-40
0.017119028 -0.074639007 0.7190001 9.2168585e-40
0.018488556 -0.074639015 0.7190001 1.1050037e-39
0.019802857 -0.074431434 0.71700001 9.2133692e-40
0.021139037 -0.074327588 0.71600002 7.3766593e-40
0.022534277 -0.074431412 0.71700001 5.5327748e-40
0.023900002 -0.074431434 0.71700001 4.6108185e-40
0.025265701 -0.074431397 0.71700001 5.5399074e-40
0.026631424 -0.074431419 0.71700001 7.3766173e-40
0.027997136 -0.074431412 0.71700001 8.2949722e-40
0.029362859 -0.074431434 0.71700001 1.0128137e-39
0.030814284 -0.074639045 0.71900004 1.012099e-39
0.032183811 -0.074639052 0.71900004 1.1032213e-39
0.033553332 -0.074639037 0.71900004 9.20988e-40
0.034922861 -0.074639045 0.7190001 7.3839601e-40
0.036342856 -0.074742846 0.72000003 8.3095177e-40
0.037819032 -0.074950434 0.72200012 1.0146186e-39
0.039194282 -0.074950464 0.72200006 1.0149731e-39
0.040569507 -0.074950434 0.72200006 1.0146186e-39
0.042002849 -0.075054258 0.72300005 1.3819647e-39
0.04338 -0.07505428 0.72300005 1.7496655e-39
0.044880942 -0.075261876 0.72500008 2.3957411e-39
0.046261888 -0.075261869 0.72500002 3.1332936e-39
0.047708575 -0.075365715 0.72600001 2.1209479e-39
0.049091436 -0.075365722 0.72600001 1.1096798e-39
0.050613318 -0.075573295 0.7280001 1.1078834e-39
0.052071422 -0.075677119 0.72900003 1.1989958e-39
0.053606648 -0.075884707 0.73100007 1.6603187e-39
0.055074282 -0.075988553 0.73200011 2.2159868e-39
0.056622859 -0.076196186 0.73400009 1.1064176e-39
0.058258079 -0.076507568 0.73700011 9.2321747e-41
0.059904754 -0.076819025 0.74000007 6.9104291e-39
0.061479986 -0.077026628 0.74200004 1.3657564e-38
0.063147619 -0.077338077 0.74500012 1.8543952e-38
-0.0021142985 -0.075409494 0.74000001 1.0240255e-38
-0.0007019242 -0.075103767 0.73700011 1.1060655e-38
0.00070093584 -0.075001873 0.73600006 5.7252081e-39
0.0020914234 -0.074594274 0.73200011 2.9900486e-40
0.0034809343 -0.074492343 0.73100001 2.8642849e-39
0.0048733107 -0.074492328 0.73100007 5.446103e-39
0.0062228539 -0.073982857 0.72600007 4.7247132e-39
0.0075742803 -0.07367713 0.72300005 3.9745687e-39
0.0089390315 -0.073575191 0.72200012 2.2963835e-39
0.010314268 -0.073575191 0.72200012 5.5256141e-40
0.011657148 -0.073371433 0.72000003 1.1024744e-39
0.013010471 -0.073269509 0.71900004 1.5637944e-39
0.014379998 -0.073269524 0.7190001 1.288997e-39
0.015705703 -0.073065691 0.71700001 1.0135073e-39
0.017071426 -0.073065713 0.71700001 1.1046436e-39
0.018411417 -0.072963782 0.71600008 1.1046464e-39
0.019775227 -0.072963782 0.71600002 1.0120948e-39
0.021080002 -0.072760008 0.71400005 8.2842103e-40
0.022439994 -0.072759993 0.71400005 7.36224e-40
0.023866661 -0.072963797 0.71600002 5.5291314e-40
0.025230458 -0.072963767 0.71600008 7.3766173e-40
0.026594277 -0.072963782 0.71600008 9.2133132e-40
0.027997151 -0.073065728 0.71700001 9.2204598e-40
0.029362861 -0.07306572 0.71700001 9.2097539e-40
0.03072856 -0.073065691 0.71700001 9.2098099e-40
0.0321838 -0.073269509 0.7190001 8.291483e-40
0.033553332 -0.073269516 0.7190001 7.3803447e-40
0.034922864 -0.073269524 0.7190001 6.4656332e-40
0.036342863 -0.073371433 0.72000003 7.3912188e-40
0.037819024 -0.073575191 0.72200012 8.3094477e-40
0.039194267 -0.073575184 0.72200012 9.2205019e-40
0.040569514 -0.073575214 0.72200012 1.014613e-39
0.042002864 -0.073677145 0.72300005 1.4738002e-39
0.043380003 -0.073677145 0.72300005 1.9340595e-39
0.044757143 -0.073677137 0.72300005 2.762737e-39
0.046134282 -0.07367713 0.72300005 3.5906844e-39
0.047642842 -0.073880903 0.72500002 2.0283963e-39
0.049091429 -0.073982857 0.72600001 4.6647404e-40
0.050613325 -0.074186645 0.72800004 8.3273843e-40
0.051999997 -0.074186645 0.72800004 1.1082379e-39
0.053459991 -0.074288554 0.72900003 1.8432736e-39
0.054999031 -0.074492343 0.73100001 2.5793883e-39
0.056622852 -0.07479807 0.73400003 1.3826528e-39
0.058258083 -0.07510376 0.73700011 9.9874745e-41
0.05990475 -0.075409479 0.74000007 5.6175883e-39
0.061479997 -0.075613298 0.74200004 1.1077217e-38
0.062978089 -0.075715207 0.74300003 1.7264712e-38
0.064740002 -0.076122865 0.74700004 2.341769e-38
-0.0021114389 -0.073899969 0.73900002 5.2552812e-39
-0.00070192234 -0.073699959 0.73700005 5.711551e-39
0.00070094469 -0.073599979 0.73600006 3.0432615e-39
0.002082851 -0.07289999 0.72900003 2.7600115e-40
0.0034666515 -0.072799958 0.7280001 2.3046343e-39
0.0048399996 -0.0726 0.72600001 4.3285899e-39
0.0061971382 -0.072299987 0.72300005 3.5956856e-39
0.0075428621 -0.072000004 0.72000003 2.8473572e-39
0.0089142798 -0.071999982 0.72000003 2.2070058e-39
0.010285714 -0.071999989 0.72000003 1.4744841e-39
0.011640946 -0.07189998 0.7190001 1.3812221e-39
0.013010474 -0.071899988 0.7190001 1.3808591e-39
0.014339996 -0.071699984 0.71700001 1.1057058e-39
0.015683796 -0.071599968 0.71600008 9.2276205e-40
0.017047605 -0.071599968 0.71600002 1.1053652e-39
0.01836 -0.071399994 0.71400005 1.2886775e-39
0.019719999 -0.071399994 0.71400005 1.1042876e-39
0.021050466 -0.071299985 0.71300012 9.1989359e-40
0.022408556 -0.071299963 0.71300012 7.3621559e-40
0.023799995 -0.071399987 0.71400011 5.525502e-40
0.025160009 -0.071400017 0.71400005 6.4510877e-40
0.026520012 -0.071400017 0.71400005 7.3729879e-40
0.027880002 -0.071400002 0.71400005 8.2877135e-40
0.029240005 -0.071400002 0.71400005 9.2025512e-40
0.030685708 -0.07159999 0.71600002 9.2133833e-40
0.032094289 -0.071699999 0.71700001 9.2170126e-40
0.033459987 -0.071699969 0.71700001 9.2134673e-40
0.034825716 -0.071700007 0.71700001 1.0128319e-39
0.03629237 -0.071899973 0.7190001 1.0139165e-39
0.037714291 -0.072000012 0.72000003 1.0149717e-39
0.039085723 -0.072000019 0.72000003 1.0145905e-39
0.040457141 -0.071999997 0.72000003 1.0146059e-39
0.041944746 -0.07219997 0.72200012 1.5659931e-39
0.04332 -0.072199993 0.72200006 2.1166599e-39
0.044695232 -0.072199993 0.72200012 2.5783611e-39
0.046134278 -0.072299965 0.72300005 3.0396784e-39
0.047511432 -0.072299995 0.72300005 2.028039e-39
0.049023788 -0.072499938 0.72500008 1.0171311e-39
0.05047429 -0.0726 0.72600001 1.2922774e-39
0.051857136 -0.072599985 0.72600001 1.5674182e-39
0.053386658 -0.072799973 0.7280001 1.5681273e-39
0.054848567 -0.072899982 0.72900003 1.5688447e-39
0.056391411 -0.073099948 0.73100007 2.3939293e-39
0.058020942 -0.073399976 0.73400009 3.2251725e-39
0.059661884 -0.073699951 0.73700005 7.7445436e-39
0.061314281 -0.073999979 0.74000007 1.2360418e-38
0.062978081 -0.074299961 0.74300009 1.7898233e-38
0.064566679 -0.074499987 0.74500012 2.341769e-38
0.066162854 -0.07469999 0.74700004 2.341769e-38
-0.002111431 -0.072492376 0.73900008 2.7598153e-40
-0.00070096541 -0.072198063 0.73600006 3.7284208e-40
0.00069142145 -0.071217135 0.72600001 3.6782263e-40
0.0020742926 -0.071217164 0.72600001 2.7777939e-40
0.0034237977 -0.070530444 0.7190001 1.7489396e-39
0.0048000026 -0.070628576 0.72000003 3.1282573e-39
0.0061628525 -0.070530459 0.7190001 2.4821718e-39
0.0075323717 -0.070530452 0.7190001 1.7481969e-39
0.0089018987 -0.070530459 0.7190001 2.1173241e-39
0.010242854 -0.070334278 0.71700001 2.3931936e-39
0.011608565 -0.070334271 0.71700001 1.7499906e-39
0.012956177 -0.070236154 0.71600008 1.1057002e-39
0.014319987 -0.070236161 0.71600008 9.2166483e-40
0.015640002 -0.070040002 0.71400005 7.3801345e-40
0.016999993 -0.07003998 0.71400005 1.1053737e-39
0.018334273 -0.069941878 0.71300012 1.471994e-39
0.019692363 -0.069941863 0.71300012 1.1957658e-39
0.020991424 -0.069745712 0.71100003 9.1989779e-40
0.02240856 -0.069941878 0.71300012 7.3586526e-40
0.023766648 -0.069941856 0.71300012 4.6108465e-40
0.025124758 -0.069941893 0.71300006 5.5292715e-40
0.026482847 -0.069941871 0.71300012 5.5292155e-40
0.027840935 -0.069941856 0.71300012 7.3586947e-40
0.029199043 -0.069941893 0.71300012 8.2878537e-40
0.030600004 -0.070040002 0.71400005 9.2205999e-40
0.032049514 -0.070236169 0.71600008 9.2134533e-40
0.033413332 -0.070236191 0.71600008 1.1046604e-39
0.034825709 -0.070334278 0.71700001 1.2879755e-39
0.036191422 -0.070334263 0.71700001 1.1961442e-39
0.037661895 -0.070530459 0.7190001 1.105731e-39
0.039031416 -0.070530444 0.7190001 1.1060771e-39
0.040400945 -0.070530452 0.7190001 1.0146102e-39
0.041770466 -0.070530437 0.7190001 1.6581873e-39
0.043200001 -0.070628576 0.72000003 2.2092045e-39
0.044571437 -0.070628583 0.72000003 2.302119e-39
0.04607046 -0.07082472 0.72200012 2.3946663e-39
0.047511429 -0.070922852 0.72300005 2.0269586e-39
0.048888564 -0.070922822 0.72300005 1.5670623e-39
0.05040475 -0.07111901 0.72500002 1.7510906e-39
0.051785707 -0.071119025 0.72500002 1.934393e-39
0.053240005 -0.071217157 0.72600001 1.2004167e-39
0.054773334 -0.071413323 0.72800004 4.628727e-40
0.056237143 -0.07151141 0.72900003 3.3983898e-39
0.057783801 -0.071707584 0.73100001 6.2701156e-39
0.059580948 -0.072198093 0.73600006 9.9583177e-39
0.061314274 -0.072590433 0.74000007 1.3561472e-38
0.062978081 -0.072884724 0.74300003 1.8550409e-38
0.064566672 -0.073080942 0.74500012 2.341769e-38
0.066162854 -0.073277123 0.74700004 2.341769e-38
0.067676187 -0.07337521 0.74800003 2.341769e-38
-0.0007009696 -0.070796147 0.73600006 1.2893487e-39
0.00068571384 -0.069257148 0.72000003 1.3801515e-39
0.0020571463 -0.069257155 0.72000003 1.5656133e-39
0.0034237944 -0.069160923 0.7190001 2.1166221e-39
0.0047799973 -0.068968572 0.71700001 2.7594678e-39
0.0061457222 -0.068968594 0.71700001 2.2999273e-39
0.0075114225 -0.068968557 0.71700001 1.8411058e-39
0.008877133 -0.068968549 0.71700001 1.8418191e-39
0.010228563 -0.068872355 0.71600002 1.7506996e-39
0.011592369 -0.068872347 0.71600008 1.1982503e-39
0.012919996 -0.068679988 0.71400005 7.3798963e-40
0.014279997 -0.068679996 0.71400011 7.3798263e-40
0.015618089 -0.068583794 0.71300012 7.3729459e-40
0.016976187 -0.068583809 0.71300006 9.2135234e-40
0.018282855 -0.06839142 0.71100003 1.1957742e-39
0.019637145 -0.068391435 0.71100003 9.2025933e-40
0.02099143 -0.068391435 0.71099997 7.3658974e-40
0.022345711 -0.06839142 0.71100003 5.5292014e-40
0.023699991 -0.068391412 0.71100003 3.6961769e-40
0.025054283 -0.06839142 0.71100003 4.6110427e-40
0.026408566 -0.06839142 0.71100003 5.5257402e-40
0.027762858 -0.068391435 0.71100003 7.3623801e-40
0.029117139 -0.06839142 0.71100008 1.0121046e-39
0.030557133 -0.068583786 0.71300012 9.20988e-40
0.031915229 -0.068583794 0.71300012 9.209894e-40
0.033273332 -0.068583809 0.71300006 1.0124676e-39
0.034679994 -0.068679981 0.71400011 1.1954197e-39
0.036039993 -0.068679981 0.71400011 1.1042989e-39
0.037557136 -0.068968557 0.71700001 1.013178e-39
0.038922857 -0.068968579 0.71700001 1.0135326e-39
0.040288571 -0.068968572 0.71700001 1.0138983e-39
0.041770477 -0.069160953 0.7190001 2.0244531e-39
0.04313999 -0.069160946 0.7190001 3.0349967e-39
0.044509519 -0.069160953 0.7190001 2.4846956e-39
0.045942862 -0.069257148 0.72000003 1.9340427e-39
0.047445714 -0.069449522 0.72200006 1.750013e-39
0.048888575 -0.069545709 0.72300005 1.4734275e-39
0.050404754 -0.06973806 0.72500002 1.6578132e-39
0.051785696 -0.069738045 0.72500002 1.9333084e-39
0.053240005 -0.069834284 0.72600001 1.1057016e-39
0.054622866 -0.069834292 0.72600001 2.7597312e-40
0.056237143 -0.070122845 0.72900003 4.8842678e-39
0.057783801 -0.070315212 0.73100007 9.4165813e-39
0.05941904 -0.070603795 0.73400003 1.2451903e-38
0.061314277 -0.071180932 0.74000001 1.5488601e-38
0.062978081 -0.071469478 0.74300009 1.9460872e-38
0.064566664 -0.071661882 0.74500012 2.341769e-38
0.066162862 -0.071854286 0.74700004 2.341769e-38
0.067676187 -0.071950458 0.74800003 2.341769e-38
0.069100954 -0.071950458 0.74800009 2.341769e-38
0.071950465 -0.071950443 0.74800009 2.341769e-38
0.0006847562 -0.06779141 0.7190001 2.4807173e-39
0.0020542832 -0.067791425 0.7190001 2.7591006e-39
0.0034142837 -0.067602843 0.71700001 2.5761527e-39
0.0047799936 -0.067602836 0.71700001 2.3921216e-39
0.006145718 -0.067602858 0.71700001 2.2084492e-39
0.0075009405 -0.067508548 0.71600002 1.9329385e-39
0.0088647585 -0.067508571 0.71600002 1.5663098e-39
0.010199991 -0.067319974 0.71400011 1.1071351e-39
0.011560004 -0.067320012 0.71400005 7.3836098e-40
0.012920006 -0.067320012 0.71400005 2.7953802e-40
0.014259997 -0.067225702 0.71300006 5.5432425e-40
0.015574283 -0.067037143 0.71100003 7.3801486e-40
0.016928565 -0.067037135 0.71100003 8.2986857e-40
0.018282857 -0.067037143 0.71100003 8.2878817e-40
0.019637128 -0.067037113 0.71100003 7.3658833e-40
0.020961896 -0.066942826 0.7100001 5.5327467e-40
0.022314273 -0.066942826 0.7100001 4.6179651e-40
0.023666652 -0.066942818 0.7100001 2.7813392e-40
0.025019031 -0.066942811 0.7100001 4.6145459e-40
0.026371416 -0.066942833 0.7100001 5.5292575e-40
0.027723797 -0.066942826 0.7100001 8.280693e-40
0.029076176 -0.066942818 0.7100001 1.1042975e-39
0.030471424 -0.067037135 0.71100003 1.0121088e-39
0.031780932 -0.066942811 0.7100001 8.2915391e-40
0.033179998 -0.067037143 0.71099997 1.0128235e-39
0.034534279 -0.067037128 0.71100003 1.1046548e-39
0.035989512 -0.06722568 0.71300012 1.0128151e-39
0.037504755 -0.067508548 0.71600002 8.2950283e-40
0.038868561 -0.067508548 0.71600002 9.2026213e-40
0.040288568 -0.067602836 0.71700001 9.2170547e-40
0.041654289 -0.067602858 0.71700001 2.3910804e-39
0.043019999 -0.06760285 0.71700001 3.8611504e-39
0.044385705 -0.067602836 0.71700001 2.6669162e-39
0.045879047 -0.067791417 0.7190001 1.473775e-39
0.047314294 -0.067885719 0.72000003 1.4734205e-39
0.048685726 -0.067885734 0.72000003 1.3819381e-39
0.050265715 -0.068168573 0.72300005 1.6574376e-39
0.051642861 -0.068168566 0.72300005 1.8411002e-39
0.053166658 -0.06835711 0.72500002 1.0124185e-39
0.05484857 -0.068734273 0.72900003 9.6981064e-41
0.056237139 -0.068734273 0.72900003 6.3543981e-39
0.057783797 -0.068922825 0.73100007 1.2537937e-38
0.059257146 -0.069017157 0.73200005 1.4943308e-38
0.061231431 -0.069677122 0.73900008 1.7337871e-38
0.062893331 -0.069959991 0.74200004 2.0387119e-38
0.064393312 -0.070054241 0.74300003 2.341769e-38
0.066162847 -0.070431404 0.74700004 2.341769e-38
0.067585714 -0.070431419 0.74700004 2.341769e-38
0.069100946 -0.070525683 0.74800003 2.341769e-38
0.070525721 -0.070525713 0.74800003 2.341769e-38
0.071950465 -0.070525691 0.74800009 2.341769e-38
0.073375233 -0.070525698 0.74800003 2.341769e-38
-0.0048400038 -0.067068569 0.72600007 1.614941e-38
-0.0034524046 -0.066976137 0.72500002 1.6703223e-38
-0.0020714446 -0.066976152 0.72500002 8.9469992e-39
-0.00068477378 -0.066421881 0.7190001 1.1943561e-39
0.00068475481 -0.066421889 0.7190001 1.9303965e-39
0.0020457061 -0.066144742 0.71600002 2.6683259e-39
0.0033999977 -0.065959997 0.71400005 2.4843116e-39
0.0047599887 -0.065959975 0.71400005 2.2999231e-39
0.0061199898 -0.065959983 0.71400011 2.0244167e-39
0.0074800034 -0.065960012 0.71400005 1.7485472e-39
0.0088276109 -0.06586761 0.71300012 1.3819171e-39
0.010185713 -0.065867618 0.71300006 1.1071351e-39
0.011511423 -0.065682836 0.71100003 7.3908265e-40
0.012865705 -0.065682828 0.71100003 3.7245953e-40
0.014219998 -0.065682851 0.71100003 5.5469559e-40
0.015574289 -0.065682866 0.71100003 7.3837639e-40
0.016857136 -0.065405704 0.70800006 8.2950283e-40
0.0182057 -0.065405682 0.70800006 1.0120962e-39
0.019554282 -0.065405712 0.70800006 8.2842383e-40
0.020902844 -0.065405682 0.70800006 7.3730159e-40
0.022251427 -0.065405712 0.708 5.53625e-40
0.023599988 -0.065405689 0.70800006 3.7032115e-40
0.024948571 -0.065405712 0.70800006 4.6180492e-40
0.02625999 -0.065313309 0.70700008 5.5363761e-40
0.027606668 -0.065313339 0.70700008 6.4582763e-40
0.028994279 -0.065405689 0.70800006 7.3874914e-40
0.030342845 -0.065405697 0.70800006 7.3768135e-40
0.031646665 -0.065313332 0.70700002 8.2951264e-40
0.033039983 -0.065405674 0.70800006 9.2170266e-40
0.034388565 -0.065405704 0.70800006 1.0138913e-39
0.035888571 -0.065682843 0.71100003 9.2204878e-40
0.037347618 -0.065867625 0.71300006 9.2277045e-40
0.038597137 -0.065682843 0.71100003 9.2169706e-40
0.040063798 -0.065867595 0.71300012 1.0139011e-39
0.041596178 -0.06614472 0.71600008 2.0248174e-39
0.042959996 -0.066144742 0.71600008 3.127537e-39
0.04438572 -0.066237159 0.71700001 2.3002749e-39
0.045879036 -0.066421874 0.7190001 1.5655979e-39
0.047248565 -0.066421874 0.7190001 1.4737694e-39
0.048685722 -0.066514298 0.72000003 1.4737596e-39
0.050196175 -0.066699006 0.72200012 1.6577795e-39
0.051642854 -0.066791423 0.72300005 1.9343552e-39
0.053166647 -0.066976137 0.72500008 1.0124059e-39
0.054848574 -0.067345701 0.72900003 9.2332957e-41
0.056237143 -0.067345701 0.72900003 6.4591914e-39
0.057783786 -0.067530423 0.73100007 1.2825667e-38
0.059257135 -0.067622833 0.73200005 1.5218106e-38
0.061065692 -0.068084702 0.73700011 1.7613381e-38
0.062723808 -0.068361893 0.74000007 2.0566126e-38
0.064306661 -0.068546645 0.74200004 2.341769e-38
0.065808572 -0.068639018 0.74300003 2.341769e-38
0.067404762 -0.068823792 0.74500012 2.341769e-38
0.069008566 -0.069008566 0.74700004 2.341769e-38
0.070431419 -0.069008537 0.7470001 2.341769e-38
0.071950473 -0.069100939 0.74800009 2.341769e-38
0.07337524 -0.069100939 0.74800003 2.341769e-38
-0.0062228586 -0.065685712 0.72600001 1.7988583e-38
-0.0048333504 -0.065595202 0.72500008 1.6801169e-38
-0.0034285679 -0.06514287 0.72000003 1.5480581e-38
-0.0020571488 -0.065142848 0.72000003 7.8298014e-39
-0.00068476761 -0.06505236 0.7190001 9.8385165e-41
0.00068189402 -0.064780928 0.71600002 1.378327e-39
0.002040006 -0.064600013 0.71400005 2.575424e-39
0.003395237 -0.064509511 0.71300006 2.3924775e-39
0.0047399942 -0.064328559 0.71100003 2.1169682e-39
0.0060942783 -0.064328551 0.71100003 1.8411016e-39
0.0074485699 -0.064328574 0.71100003 1.4737554e-39
0.0088028498 -0.064328551 0.71100003 1.2897229e-39
0.010142842 -0.064238057 0.7100001 1.1060589e-39
0.01149522 -0.064238057 0.7100001 8.3020208e-40
0.01279333 -0.063966654 0.70700002 4.6285309e-40
0.014159993 -0.064057134 0.70800006 5.5360678e-40
0.015486665 -0.063966654 0.70700008 6.4617095e-40
0.016833335 -0.063966662 0.70700002 9.2169005e-40
0.018128566 -0.063785702 0.70500004 1.1046422e-39
0.01947142 -0.063785687 0.70500004 1.0117291e-39
0.020814279 -0.063785702 0.70500004 8.2876995e-40
0.022219986 -0.063966632 0.70700008 6.4509195e-40
0.023566656 -0.063966639 0.70700008 4.6142937e-40
0.024913326 -0.063966654 0.70700002 4.6108044e-40
0.02618571 -0.063785702 0.70500004 4.6143217e-40
0.027606661 -0.063966654 0.70700008 3.7030713e-40
0.028953332 -0.063966662 0.70700008 2.7884298e-40
0.030300003 -0.063966669 0.70700002 5.5364321e-40
0.031646658 -0.063966639 0.70700008 8.2950703e-40
0.032993328 -0.063966654 0.70700008 9.2205859e-40
0.034339998 -0.063966662 0.70700002 9.2169566e-40
0.035737135 -0.064057127 0.70800006 9.2205159e-40
0.037085705 -0.064057127 0.70800006 9.2205299e-40
0.038542856 -0.064238086 0.71000004 1.0135312e-39
0.039895233 -0.064238079 0.71000004 1.1060925e-39
0.041305721 -0.064328574 0.71100003 1.7496669e-39
0.042780001 -0.064509518 0.71300012 2.3013791e-39
0.044138089 -0.064509504 0.71300012 1.9333014e-39
0.045687608 -0.064780921 0.71600008 1.565965e-39
0.047117148 -0.064871438 0.71700001 1.5659693e-39
0.048618097 -0.065052375 0.7190001 1.4744883e-39
0.05005715 -0.065142862 0.72000003 1.7492731e-39
0.051571418 -0.065323785 0.72200006 2.0251285e-39
0.052946661 -0.065323777 0.72200012 1.1028191e-39
0.054547612 -0.065595202 0.72500002 1.0455368e-40
0.056005713 -0.065685712 0.72600001 6.6558132e-39
0.057625715 -0.065957136 0.72900003 1.3098322e-38
0.059176181 -0.066138066 0.73100001 1.5490026e-38
0.060817137 -0.066409498 0.73400009 1.7892117e-38
0.062639035 -0.066861883 0.73900008 2.0662625e-38
0.064133324 -0.066952355 0.74000007 2.341769e-38
0.065719992 -0.067133293 0.7420001 2.341769e-38
0.067223802 -0.067223772 0.74300009 2.341769e-38
0.068639047 -0.067223772 0.74300003 2.341769e-38
0.070242859 -0.067404747 0.74500006 2.341769e-38
0.071661912 -0.067404754 0.74500012 2.341769e-38
0.073080949 -0.067404747 0.74500012 2.341769e-38
-0.0062228511 -0.064302877 0.72600001 9.5354016e-39
-0.0048333486 -0.064214252 0.72500002 8.6779751e-39
-0.0034285728 -0.063771427 0.72000009 7.8226394e-39
-0.0020542939 -0.063682839 0.71900004 4.2348375e-39
-0.00068285718 -0.063505717 0.71700001 6.4325625e-40
0.00068189215 -0.063417114 0.71600008 1.4719758e-39
0.0020371375 -0.063151419 0.71300012 2.2091694e-39
0.0033857056 -0.062974267 0.71100003 2.1173312e-39
0.0047399988 -0.062974282 0.71100003 2.0254915e-39
0.0060856943 -0.062885664 0.7100001 1.7499794e-39
0.0074380804 -0.062885687 0.7100001 1.4744715e-39
0.0087657049 -0.062708542 0.708 1.1982447e-39
0.010100002 -0.062620007 0.70700002 9.2167043e-40
0.011446661 -0.062619984 0.70700008 6.4653109e-40
0.01279333 -0.062619992 0.70700008 4.6248875e-40
0.014099995 -0.062442847 0.70500004 5.5431023e-40
0.015442856 -0.062442854 0.70500004 6.4616114e-40
0.016761897 -0.062354267 0.70400006 7.3801205e-40
0.018102845 -0.062354259 0.70400012 8.2984615e-40
0.019443791 -0.062354244 0.70400012 8.2876855e-40
0.020784752 -0.062354267 0.70400006 9.2023831e-40
0.022157149 -0.062442869 0.70500004 6.4472341e-40
0.023499999 -0.062442854 0.70500004 4.6070349e-40
0.024842851 -0.062442847 0.70500004 4.6107204e-40
0.026185703 -0.062442832 0.70500004 5.5289772e-40
0.027528565 -0.062442847 0.70500004 4.6212862e-40
0.028871417 -0.062442824 0.70500004 4.6286149e-40
0.030214291 -0.062442869 0.70500004 7.373058e-40
0.031557146 -0.062442854 0.70500004 1.0120962e-39
0.03299332 -0.062619969 0.70700008 1.0128151e-39
0.034340002 -0.062619999 0.70700008 1.0128137e-39
0.035686668 -0.062620007 0.70700008 8.2914129e-40
0.037085705 -0.062708557 0.708 7.373058e-40
0.038434278 -0.062708549 0.70800006 1.0135298e-39
0.039782852 -0.062708557 0.708 1.2901194e-39
0.04124761 -0.062885687 0.71000004 1.8429331e-39
0.042659994 -0.062974259 0.71100003 2.4861291e-39
0.044138093 -0.063151412 0.71300012 1.9340287e-39
0.04568762 -0.063417137 0.71600002 1.2904656e-39
0.047051415 -0.063417099 0.71600008 1.3830213e-39
0.04848285 -0.063505694 0.71700001 1.3840989e-39
0.049987614 -0.063682839 0.7190001 1.7514409e-39
0.051571425 -0.063948564 0.72200006 2.2116834e-39
0.052946668 -0.063948557 0.72200012 1.3812066e-39
0.054397143 -0.064037137 0.72300005 5.562216e-40
0.055928562 -0.064214237 0.72500008 6.7448138e-39
0.057546664 -0.064479969 0.72800004 1.2921845e-38
0.059014287 -0.064568564 0.72899997 1.6046063e-38
0.060651433 -0.064834282 0.73200005 1.9087414e-38
0.062639043 -0.06545426 0.73900008 2.1301886e-38
0.064046681 -0.065454297 0.73900002 2.341769e-38
0.065542854 -0.065542825 0.74000007 2.341769e-38
0.067223802 -0.065808527 0.74300009 2.341769e-38
0.06863904 -0.065808527 0.74300003 2.341769e-38
0.070054285 -0.065808557 0.74300003 2.341769e-38
-0.0062228534 -0.062920012 0.72600001 9.4510155e-40
-0.0047999956 -0.062400013 0.72000003 5.5261186e-40
-0.0034238107 -0.062313326 0.7190001 9.6604115e-41
-0.0020542915 -0.062313318 0.7190001 6.4325485e-40
-0.00068286282 -0.06213998 0.71700001 1.1964468e-39
0.00067999662 -0.06188 0.71400005 1.5656105e-39
0.002037131 -0.061793309 0.71300006 1.8414785e-39
0.0033857082 -0.061619997 0.71100003 1.9340357e-39
0.0047199838 -0.061359968 0.70800006 1.9336658e-39
0.0060685682 -0.061359994 0.70800006 1.6581481e-39
0.007417128 -0.061359972 0.70800006 1.3822744e-39
0.0087533249 -0.061273322 0.70700008 1.0156415e-39
0.010099998 -0.061273325 0.70700008 6.4723454e-40
0.011446668 -0.061273329 0.70700002 5.5469279e-40
0.012757137 -0.06109998 0.70500004 4.6285729e-40
0.01407999 -0.061013304 0.70400006 5.5469279e-40
0.015420937 -0.061013293 0.70400006 6.4653249e-40
0.016738081 -0.060926639 0.70300001 5.5470119e-40
0.018077139 -0.060926661 0.70300001 4.6214963e-40
0.019416183 -0.06092665 0.70300007 7.3729879e-40
0.020755228 -0.06092665 0.70300001 9.2025372e-40
0.022094287 -0.060926672 0.70300001 7.3658553e-40
0.023433322 -0.060926639 0.70300001 4.6107764e-40
0.02477238 -0.060926661 0.70300001 5.536306e-40
0.026037149 -0.060753345 0.70100003 5.536292e-40
0.027450468 -0.06092665 0.70300001 6.454633e-40
0.028789526 -0.060926668 0.70300001 6.454675e-40
0.030214287 -0.061099999 0.70500004 9.199034e-40
0.031557139 -0.06109998 0.70500004 1.1042933e-39
0.032899998 -0.061099991 0.70500004 1.1046534e-39
0.034242854 -0.06109998 0.70500004 1.1046506e-39
0.035686661 -0.061273318 0.70700008 8.2842383e-40
0.037033331 -0.061273329 0.70700002 4.617923e-40
0.038380001 -0.061273336 0.70700002 9.2132151e-40
0.039782841 -0.061359953 0.70800006 1.3830325e-39
0.041247606 -0.061533302 0.71000004 2.0298495e-39
0.042599987 -0.061533295 0.71000004 2.6708889e-39
0.04401429 -0.061620001 0.71099997 1.8422016e-39
0.04556001 -0.061880019 0.71400005 1.0149647e-39
0.047051426 -0.062053315 0.71600008 1.1989944e-39
0.048482854 -0.06213998 0.71700001 1.2926278e-39
0.049848579 -0.062140003 0.71700001 1.8443638e-39
0.051357131 -0.062313303 0.7190001 2.3006672e-39
0.052799992 -0.062399983 0.72000003 1.6535098e-39
0.054321889 -0.062573291 0.72200012 1.031898e-39
0.055928562 -0.062833294 0.72500002 6.9370622e-39
0.057546657 -0.06309329 0.7280001 1.2727756e-38
0.059014291 -0.063179992 0.72900003 1.6501296e-38
0.06056856 -0.0633533 0.73100001 2.0283069e-38
0.062469508 -0.063873291 0.73700011 2.1856487e-38
0.064046659 -0.064046629 0.73900008 2.341769e-38
0.065542847 -0.064133294 0.74000007 2.341769e-38
0.067223802 -0.064393289 0.74300009 2.341769e-38
0.06863904 -0.064393289 0.74300009 2.341769e-38
0.070054278 -0.064393289 0.74300003 2.341769e-38
-0.0062228595 -0.061537139 0.72600001 5.5147821e-40
-0.0047933469 -0.060943775 0.7190001 6.4401295e-40
-0.0034238179 -0.060943786 0.7190001 8.2696928e-40
-0.0020485725 -0.060774282 0.71700001 1.0124367e-39
-0.00067999348 -0.060520016 0.71400005 1.1982671e-39
0.00067903328 -0.060435206 0.71300012 1.4734205e-39
0.0020314306 -0.060265727 0.71100003 1.7485781e-39
0.0033714208 -0.060011417 0.70800006 2.1173634e-39
0.0047133346 -0.05992667 0.70700002 2.3928531e-39
0.0060599926 -0.059926648 0.70700008 1.8411058e-39
0.0073857126 -0.059757143 0.70500004 1.2893599e-39
0.008728574 -0.059757151 0.70500004 9.2236127e-40
0.010057128 -0.059672348 0.70400012 6.4830373e-40
0.011398089 -0.059672371 0.70400006 5.5576478e-40
0.012720953 -0.05958762 0.70300001 5.5506133e-40
0.014019988 -0.059418075 0.70100009 6.465507e-40
0.015355226 -0.059418071 0.70100009 8.3021469e-40
0.016690465 -0.059418071 0.70100009 7.3765472e-40
0.018025702 -0.059418075 0.70100009 7.3694146e-40
0.019360945 -0.059418079 0.70100009 9.2025792e-40
0.020696182 -0.059418082 0.70100009 1.1032241e-39
0.022031425 -0.059418079 0.70100009 8.2808752e-40
0.023366651 -0.059418064 0.70100009 4.6109306e-40
0.02470189 -0.059418064 0.70100009 4.6179931e-40
0.026037131 -0.059418067 0.70100009 5.5364321e-40
0.027372368 -0.059418067 0.70100009 7.3732121e-40
0.028707618 -0.059418101 0.70100003 9.2026914e-40
0.030042857 -0.059418101 0.70100003 9.2062226e-40
0.031512376 -0.059672359 0.70400012 1.0135354e-39
0.032853317 -0.059672348 0.70400012 1.196849e-39
0.034242865 -0.059757162 0.70500004 1.4719926e-39
0.035585716 -0.059757151 0.70500004 1.1046464e-39
0.036928575 -0.059757136 0.70500004 7.3800785e-40
0.038379993 -0.059926651 0.70700002 1.19753e-39
0.039726667 -0.059926655 0.70700002 1.7503745e-39
0.041131418 -0.060011402 0.70800006 2.3039365e-39
0.042479988 -0.060011405 0.70800006 2.9478429e-39
0.043952376 -0.060180925 0.7100001 1.7503745e-39
0.045496184 -0.060435221 0.71300012 6.4691084e-40
0.046919994 -0.060519986 0.71400005 1.1078792e-39
0.048280001 -0.060519993 0.71400005 1.6617704e-39
0.049779035 -0.060689494 0.71600002 1.3844787e-39
0.051357128 -0.060943764 0.7190001 1.1968658e-39
0.052726656 -0.060943771 0.7190001 3.3151835e-39
0.054171436 -0.061028577 0.72000003 5.4500421e-39
0.055928562 -0.061452344 0.72500002 9.2278951e-39
0.057546664 -0.06170664 0.72800004 1.2989615e-38
0.058933325 -0.061706644 0.72800004 1.7233111e-38
0.060568564 -0.061960913 0.73100001 2.1482672e-38
0.062384747 -0.062384717 0.73600012 2.2406065e-38
0.063873321 -0.062469475 0.73700005 2.341769e-38
0.065454289 -0.062639043 0.73900002 2.341769e-38
0.067133337 -0.062893324 0.74200004 2.341769e-38
0.068639033 -0.062978052 0.74300009 2.341769e-38
0.070054285 -0.062978067 0.74300003 2.341769e-38
-0.0047800057 -0.059408564 0.71700001 8.2803707e-40
