# .PCD v0.7 - Point Cloud Data file format
VERSION 0.7
FIELDS x y z rgb
SIZE 4 4 4 4
TYPE F F F F
COUNT 1 1 1 1
WIDTH 947
HEIGHT 1
VIEWPOINT 0 0 0 1 0 0 0
POINTS 947
DATA ascii
-0.012094278 -0.093197152 0.74700004 7.7473953e-39
-0.010685697 -0.093321897 0.74799997 8.3045305e-39
-0.0092485584 -0.093197145 0.74699998 8.8587721e-39
-0.0078257006 -0.093197145 0.74699998 1.005658e-38
-0.0064028427 -0.093197145 0.74699998 1.1251883e-38
-0.0049666641 -0.092947625 0.74500012 1.1345521e-38
-0.003557134 -0.093197145 0.74699998 1.1345514e-38
-0.010685705 -0.091897145 0.74800003 5.6291182e-39
-0.0092609394 -0.091897137 0.74800003 7.383677e-39
-0.0078361742 -0.091897137 0.74799997 9.3197544e-39
-0.0064114188 -0.091897145 0.74800003 1.1161857e-38
-0.0049799881 -0.091774285 0.74700004 1.0977479e-38
-0.0035618874 -0.09189713 0.74799997 1.0796303e-38
-0.0021342691 -0.091774277 0.74699998 1.0976728e-38
-0.0092856996 -0.090714283 0.75000006 5.9034911e-39
-0.007857129 -0.090714276 0.75 8.4932266e-39
-0.0064285616 -0.090714291 0.75000006 1.1064263e-38
-0.0049866508 -0.090472363 0.74799997 1.0605804e-38
-0.0035618921 -0.09047237 0.74800003 1.0147339e-38
-0.0021342766 -0.090351418 0.74700004 1.0512524e-38
-0.00071141822 -0.090351425 0.74700004 1.0789826e-38
-0.032214284 -0.098214284 0.82500005 1.847556e-40
-0.030642858 -0.098214291 0.82500005 1.8475139e-40
-0.029071433 -0.098214291 0.82500005 1.8474999e-40
-0.027433328 -0.097976208 0.82300001 2.7694282e-40
-0.025865717 -0.097976208 0.82300001 3.6842098e-40
-0.0092856996 -0.089285709 0.75000006 3.0396742e-39
-0.0078780893 -0.089523807 0.75200003 5.4439927e-39
-0.0064285616 -0.089285716 0.75000006 7.9346634e-39
-0.0049999873 -0.089285702 0.75000006 9.0402682e-39
-0.0035714165 -0.089285716 0.75000006 1.0235572e-38
-0.0021371278 -0.089047611 0.74799997 1.0329206e-38
-0.0007114117 -0.088928573 0.74700004 1.0513239e-38
-0.037197143 -0.09734571 0.83100003 2.7658409e-40
-0.035528563 -0.097111426 0.82900006 2.7658689e-40
-0.033785708 -0.096642859 0.82500005 1.8511293e-40
-0.032214276 -0.096642852 0.82500005 9.2917299e-41
-0.03064286 -0.096642859 0.82500005 1.8475139e-40
-0.029071426 -0.096642867 0.82500005 1.8475279e-40
-0.027366659 -0.096174285 0.82100004 2.7658829e-40
-0.025865713 -0.096408583 0.82300001 2.7658689e-40
-0.024239041 -0.096174277 0.82100004 3.6806225e-40
-0.022675231 -0.096174285 0.82100004 3.6806365e-40
-0.0078780893 -0.088091433 0.75200009 2.3996788e-39
-0.0064457073 -0.088091426 0.75200003 4.7071003e-39
-0.0049999873 -0.087857142 0.75000006 7.477288e-39
-0.0035714132 -0.087857127 0.75 1.023557e-38
-0.0021371287 -0.087622859 0.74800003 1.0239148e-38
-0.00071236305 -0.087622851 0.74800003 1.0146603e-38
0.00071239844 -0.087622844 0.74799997 1.0331e-38
-0.038779989 -0.095762849 0.83100003 2.7658409e-40
-0.037018083 -0.095301889 0.82700002 2.7658409e-40
-0.03544284 -0.095301896 0.82699996 3.6842098e-40
-0.033867609 -0.095301904 0.82700002 2.7658549e-40
-0.03229237 -0.095301896 0.82699996 1.8439266e-40
-0.03064285 -0.095071435 0.82500005 1.8475139e-40
-0.029071428 -0.095071442 0.82500005 1.8439546e-40
-0.027366661 -0.094610475 0.82100004 1.84757e-40
-0.025802841 -0.094610475 0.82099998 2.7623096e-40
-0.024239039 -0.094610475 0.82100004 2.7622676e-40
-0.022675229 -0.094610468 0.82099998 3.6806225e-40
-0.0064457124 -0.086659044 0.75200009 2.3935887e-39
-0.0049999864 -0.086428568 0.75000006 5.1670681e-39
-0.0035809444 -0.086659044 0.75200003 7.9393241e-39
-0.0021428491 -0.086428568 0.75000006 8.6750562e-39
-0.00071236491 -0.086198084 0.74800003 9.5033834e-39
0.00071239797 -0.086198092 0.74800003 9.2260972e-39
-0.0508238 -0.093046665 0.82100004 1.8474859e-40
-0.04925999 -0.093046665 0.82100004 1.8474859e-40
-0.036928572 -0.093500003 0.82500005 2.7622535e-40
-0.035528559 -0.093953326 0.829 3.6806085e-40
-0.033949517 -0.093953326 0.82900006 2.7622676e-40
-0.032292366 -0.093726657 0.82699996 1.8474999e-40
-0.030717133 -0.093726657 0.82700002 1.8475139e-40
-0.02914189 -0.093726657 0.82699996 1.8475279e-40
-0.027566658 -0.093726665 0.82700002 1.847542e-40
-0.025928572 -0.093499996 0.82500005 1.8475279e-40
-0.024357146 -0.093500003 0.82500011 2.7658549e-40
-0.022730468 -0.093273334 0.82300001 2.7658829e-40
-0.021162855 -0.093273342 0.82300001 3.6842659e-40
-0.019595232 -0.093273334 0.82300001 3.6806505e-40
-0.018027617 -0.093273342 0.82300007 3.6770492e-40
-0.016459996 -0.093273342 0.82300001 3.6806365e-40
-0.014892375 -0.093273334 0.82300001 2.7622816e-40
-0.0035809455 -0.085226662 0.75200003 5.5368455e-39
-0.0021428487 -0.085000001 0.75000006 7.2017675e-39
-0.00071427482 -0.085000008 0.75000006 8.8537106e-39
0.00071239611 -0.084773324 0.74800003 8.1168546e-39
0.0021371618 -0.084773324 0.74800003 7.2896205e-39
-0.05395142 -0.091482855 0.82100004 1.8474859e-40
-0.052387606 -0.09148284 0.82099998 1.8474859e-40
-0.0508238 -0.091482848 0.82100004 1.8474859e-40
-0.049379997 -0.09170571 0.82300001 1.8474859e-40
-0.047812372 -0.09170571 0.82300001 1.8438986e-40
-0.046357136 -0.091928571 0.82500005 1.8438986e-40
-0.044785712 -0.091928586 0.82500005 2.7622676e-40
-0.043214276 -0.091928579 0.82500005 2.7622676e-40
-0.036928568 -0.091928586 0.82500005 3.6841958e-40
-0.035357136 -0.091928579 0.82500005 4.5989635e-40
-0.033867605 -0.092151411 0.82699996 3.6806085e-40
-0.032292377 -0.092151426 0.82700002 2.7658549e-40
-0.030717131 -0.092151418 0.82699996 2.7658689e-40
-0.02914189 -0.092151418 0.82699996 2.7658689e-40
-0.027566658 -0.092151418 0.82700002 2.7658689e-40
-0.025991416 -0.092151411 0.82699996 2.7658689e-40
-0.024357138 -0.091928579 0.82500005 2.7658549e-40
-0.022785714 -0.091928586 0.82500011 2.7623236e-40
-0.021214286 -0.091928579 0.82500005 2.7623797e-40
-0.019642854 -0.091928579 0.82500005 2.7587363e-40
-0.018071432 -0.091928586 0.82500005 2.7586802e-40
-0.01646 -0.091705717 0.82300001 2.7586802e-40
-0.014892377 -0.09170571 0.82300001 2.7622676e-40
-0.002142848 -0.083571419 0.75000006 5.3528845e-39
-0.00071427412 -0.083571419 0.75000006 7.8370531e-39
0.00071239471 -0.083348572 0.74800003 9.9545973e-39
0.0021371567 -0.083348572 0.74799997 1.1974285e-38
0.0035619154 -0.083348572 0.74800003 1.3915767e-38
-0.054082852 -0.0901381 0.82300001 1.8510732e-40
-0.052387606 -0.089919046 0.82099998 1.8474859e-40
-0.050823804 -0.089919046 0.82100004 1.8474859e-40
-0.049380001 -0.0901381 0.82300001 1.8474859e-40
-0.047812376 -0.090138093 0.82300001 1.8474859e-40
-0.046244767 -0.090138108 0.82300001 2.7622535e-40
-0.044677142 -0.090138093 0.82300001 2.7622535e-40
-0.043109518 -0.0901381 0.82300001 2.7622676e-40
-0.041541904 -0.0901381 0.82300001 2.7658549e-40
-0.037018083 -0.090576179 0.82700002 3.6878532e-40
-0.035442844 -0.090576179 0.82700002 4.6025928e-40
-0.033949517 -0.090795234 0.82900006 3.6806225e-40
-0.032370463 -0.090795226 0.82900006 2.7659249e-40
-0.030791413 -0.090795211 0.829 2.766009e-40
-0.029212371 -0.090795226 0.82900006 2.7695263e-40
-0.027566653 -0.090576179 0.82700002 2.7658549e-40
-0.025991412 -0.090576172 0.82699996 2.7694422e-40
-0.024416182 -0.090576179 0.82700002 2.7658549e-40
-0.022785712 -0.090357147 0.82500005 1.8475279e-40
-0.021214284 -0.09035714 0.82500005 1.8439827e-40
-0.019690461 -0.090576179 0.82700002 1.8439406e-40
-0.01807143 -0.09035714 0.82500005 1.8439126e-40
-0.0165 -0.090357155 0.82500011 1.8439126e-40
-0.014928568 -0.090357147 0.82500005 2.7658549e-40
-0.013389515 -0.090576187 0.82700002 2.7658829e-40
-0.01178571 -0.090357147 0.82500005 1.84757e-40
-0.010214284 -0.090357147 0.82500005 9.3287241e-41
-0.0086428579 -0.090357147 0.82500005 1.8512974e-40
-0.00071427366 -0.082142852 0.75000006 6.8232655e-39
0.00071239704 -0.081923798 0.74799997 1.1798904e-38
0.002134291 -0.081814282 0.74700004 1.6677322e-38
0.0035619214 -0.081923798 0.74800003 1.806994e-38
0.0049800142 -0.081814274 0.74699998 1.9353119e-38
-0.054082852 -0.088570476 0.82300001 1.8474859e-40
-0.05238761 -0.088355236 0.82100004 1.8474859e-40
-0.0508238 -0.088355236 0.82100004 1.8474859e-40
-0.049379997 -0.088570483 0.82300007 1.8474859e-40
-0.047812376 -0.088570483 0.82300001 2.7658409e-40
-0.046244755 -0.088570483 0.82300001 2.7658409e-40
-0.044568561 -0.088355243 0.82100004 3.6841958e-40
-0.043004755 -0.088355236 0.82100004 3.6841958e-40
-0.041440945 -0.088355236 0.82100004 3.6877972e-40
-0.039974283 -0.088570476 0.82300001 3.6877972e-40
-0.038406666 -0.088570483 0.82300007 3.6878532e-40
-0.036928572 -0.08878573 0.82500005 5.5282065e-40
-0.035442844 -0.08900094 0.82699996 8.2832154e-40
-0.03394952 -0.089216188 0.82900006 5.5245071e-40
-0.032370467 -0.089216188 0.82900006 3.6879513e-40
-0.030791417 -0.089216173 0.829 2.7733238e-40
-0.029212374 -0.08921618 0.82900006 2.7731697e-40
-0.027566655 -0.08900094 0.82699996 4.6097254e-40
-0.026054278 -0.089216188 0.82900006 6.4464354e-40
-0.024416178 -0.08900094 0.82700002 4.6061381e-40
-0.022840941 -0.08900094 0.82699996 2.7658549e-40
-0.021265708 -0.08900094 0.82700002 2.7658689e-40
-0.019690465 -0.08900094 0.82699996 2.7658549e-40
-0.018115232 -0.08900094 0.82700002 1.8474859e-40
-0.016499996 -0.088785715 0.82500005 1.8474859e-40
-0.014928572 -0.088785723 0.82500011 2.7658409e-40
-0.013357138 -0.088785723 0.82500005 2.7658549e-40
-0.011814272 -0.089000948 0.82699996 2.7658689e-40
-0.010214286 -0.08878573 0.82500005 1.8511013e-40
-0.008642856 -0.088785723 0.82500005 1.8475139e-40
-0.0070714275 -0.088785723 0.82500011 2.7622676e-40
-0.00071618473 -0.080929525 0.75200009 3.5046236e-39
0.00071430067 -0.080714278 0.75000006 9.2239841e-39
0.0021371543 -0.080499046 0.74800003 1.4947214e-38
0.0035619196 -0.080499046 0.74799997 1.706016e-38
0.0049866824 -0.080499046 0.74800003 1.9171638e-38
-0.052387614 -0.086791426 0.82100004 1.8474859e-40
-0.0508238 -0.086791418 0.82100004 9.2914496e-41
-0.049259994 -0.086791426 0.82100004 2.7658549e-40
-0.047696181 -0.086791426 0.82100004 3.6843079e-40
-0.046132375 -0.086791426 0.82099998 3.684406e-40
-0.044568568 -0.086791426 0.82100004 3.6878953e-40
-0.043004755 -0.086791426 0.82099998 3.6878112e-40
-0.041541897 -0.087002851 0.82300001 3.6878112e-40
-0.03997428 -0.087002866 0.82300001 3.6878112e-40
-0.0385 -0.087214291 0.82500005 3.6914265e-40
-0.036928572 -0.087214291 0.82500005 7.3684617e-40
-0.035528559 -0.087637141 0.82900006 1.1038252e-39
-0.033949513 -0.087637141 0.82900006 7.3648043e-40
-0.032370463 -0.087637126 0.82900006 3.6914546e-40
-0.030791419 -0.087637134 0.829 3.6987133e-40
-0.029212372 -0.087637134 0.82900006 2.7766869e-40
-0.027566651 -0.087425701 0.82699996 6.4464354e-40
-0.026054274 -0.087637126 0.829 9.2015143e-40
-0.024416175 -0.087425709 0.82699996 6.4500507e-40
-0.022840943 -0.087425709 0.82700002 3.6877972e-40
-0.0212657 -0.087425709 0.82699996 3.6877972e-40
-0.01969046 -0.087425701 0.82699996 2.7658549e-40
-0.018115224 -0.087425701 0.82700002 2.7658409e-40
-0.016539985 -0.087425709 0.82699996 1.8474859e-40
-0.014928572 -0.087214291 0.82500005 2.7658409e-40
-0.013357148 -0.087214299 0.82500011 2.7658549e-40
-0.011785714 -0.087214299 0.82500005 2.7658549e-40
-0.01021428 -0.087214299 0.82500005 2.7658549e-40
-0.008642856 -0.087214299 0.82500005 2.7658549e-40
-0.0070714257 -0.087214291 0.82500005 2.7658549e-40
-0.0055000023 -0.087214291 0.82500011 1.8474999e-40
-0.00071427692 -0.079285719 0.75000006 1.0417813e-40
0.00071430113 -0.079285704 0.75000006 6.6454015e-39
0.0021371562 -0.079074286 0.74800003 1.318834e-38
0.0035619191 -0.079074286 0.74800003 1.605176e-38
0.004986681 -0.079074278 0.74800003 1.8895411e-38
0.0064114463 -0.079074278 0.74799997 1.8340072e-38
-0.052515235 -0.085435241 0.82300001 1.8474859e-40
-0.0508238 -0.085227609 0.82100004 1.8474999e-40
-0.049259994 -0.085227616 0.82100004 3.6842239e-40
-0.047696177 -0.085227616 0.82100004 6.4394849e-40
-0.046132382 -0.085227616 0.82100004 4.6029712e-40
-0.044568565 -0.085227616 0.82100004 3.6880214e-40
-0.043004751 -0.085227616 0.82099998 3.6878252e-40
-0.041440945 -0.085227616 0.82100004 3.6878252e-40
-0.040071424 -0.085642859 0.82500005 2.7694702e-40
-0.038593322 -0.08585047 0.82700002 2.7694702e-40
-0.037107605 -0.086058088 0.82900006 4.6097675e-40
-0.035528563 -0.086058088 0.82900006 7.361231e-40
-0.033949509 -0.086058088 0.829 5.5244931e-40
-0.032370467 -0.086058095 0.82900006 3.6877972e-40
-0.03079142 -0.086058088 0.82900006 2.7766169e-40
-0.029212376 -0.086058088 0.82900006 2.7802042e-40
-0.027633326 -0.086058095 0.82900006 4.6097254e-40
-0.026054278 -0.086058088 0.829 6.4392887e-40
-0.02447523 -0.086058088 0.82900006 4.6061802e-40
-0.022896182 -0.086058088 0.82900006 3.6842239e-40
-0.021317136 -0.086058095 0.82900006 2.7658409e-40
-0.01969046 -0.08585047 0.82700002 2.7658409e-40
-0.018115222 -0.085850462 0.82700002 2.7658409e-40
-0.016539985 -0.085850462 0.82699996 1.8474859e-40
-0.01496475 -0.08585047 0.82700002 1.8474859e-40
-0.013357144 -0.085642859 0.82500005 2.7658409e-40
-0.011785712 -0.085642859 0.82500005 2.7658409e-40
-0.010214284 -0.085642867 0.82500005 2.7658409e-40
-0.0086428504 -0.085642859 0.82500005 2.7658409e-40
-0.0070714308 -0.085642867 0.82500011 2.7694422e-40
-0.005513316 -0.085850462 0.82699996 1.8510872e-40
-0.003938084 -0.085850477 0.82700002 1.8511713e-40
-0.00071427273 -0.077857152 0.75000006 9.2318944e-41
0.00071239658 -0.077649511 0.74800003 4.6131684e-39
0.0021371585 -0.077649511 0.74799997 9.2307958e-39
0.0035619172 -0.077649511 0.74800003 1.3745108e-38
0.0049866829 -0.077649511 0.74800003 1.825256e-38
0.0064114411 -0.077649511 0.74799997 1.8159626e-38
-0.052515231 -0.083867617 0.82300001 2.7658409e-40
-0.0508238 -0.083663806 0.82099998 2.7658549e-40
-0.049379997 -0.083867624 0.82300001 5.5209198e-40
-0.047812372 -0.083867624 0.82300001 8.2761248e-40
-0.046244763 -0.083867632 0.82300001 5.521214e-40
-0.044677138 -0.083867617 0.82300001 2.766023e-40
-0.043109521 -0.083867624 0.82300001 2.7659109e-40
-0.041642852 -0.084071428 0.82500005 2.7694842e-40
-0.040071428 -0.084071435 0.82500011 1.8547026e-40
-0.038593322 -0.084275231 0.82699996 9.3276031e-41
-0.037018083 -0.084275238 0.82700002 1.8511153e-40
-0.035442844 -0.084275223 0.82700002 2.7694422e-40
-0.033949513 -0.084479041 0.829 2.7658409e-40
-0.032370467 -0.084479049 0.82900006 2.7694282e-40
-0.030791415 -0.084479041 0.82900006 2.7694422e-40
-0.029212372 -0.084479049 0.82900006 2.7694422e-40
-0.027633324 -0.084479034 0.82900006 2.7658549e-40
-0.026054272 -0.084479041 0.829 2.7659109e-40
-0.024475228 -0.084479049 0.82900006 2.765967e-40
-0.02289618 -0.084479041 0.82900006 2.7659109e-40
-0.02131713 -0.084479034 0.829 2.7658409e-40
-0.019738086 -0.084479041 0.82900006 2.7658409e-40
-0.018159034 -0.084479034 0.82900006 2.7658409e-40
-0.016579989 -0.084479041 0.82900006 1.8474859e-40
-0.014964752 -0.084275231 0.82699996 1.8474859e-40
-0.013389504 -0.084275223 0.82699996 1.8474859e-40
-0.011814272 -0.084275231 0.82700002 1.8474859e-40
-0.010214278 -0.084071435 0.82500005 1.8474859e-40
-0.008642856 -0.084071435 0.82500005 2.7658409e-40
-0.0070714215 -0.084071428 0.82500005 2.7694282e-40
-0.0055133193 -0.084275223 0.82699996 2.7730295e-40
-0.0039190422 -0.083867617 0.82300001 1.8547166e-40
-0.0023514228 -0.083867624 0.82300001 1.8439967e-40
0.00071239891 -0.076224752 0.74799997 2.6669863e-39
0.0021371576 -0.076224759 0.74800003 5.1742189e-39
0.0035619233 -0.076224759 0.74800003 1.1445272e-38
0.0049866852 -0.076224759 0.74799997 1.7606483e-38
0.0064114402 -0.076224759 0.74800003 1.7979546e-38
0.0078362096 -0.076224752 0.74800003 1.8343657e-38
-0.052642856 -0.082500011 0.82500005 3.6841958e-40
-0.050947614 -0.0823 0.82300001 2.7694282e-40
-0.049380001 -0.082300015 0.82300001 4.6025508e-40
-0.047812376 -0.082300007 0.82300001 6.4357715e-40
-0.046244763 -0.082300015 0.82300001 4.602733e-40
-0.044677138 -0.082300007 0.82300001 2.765981e-40
-0.043109521 -0.082300015 0.82300007 2.765939e-40
-0.0415419 -0.0823 0.82300001 3.6842659e-40
-0.039974276 -0.0823 0.82300001 2.7694702e-40
-0.038406659 -0.082300015 0.82300001 1.8511153e-40
-0.037018083 -0.082699992 0.82700002 1.8511013e-40
-0.035528563 -0.082899995 0.82900006 2.7694422e-40
-0.033867609 -0.082699999 0.82700002 1.8510732e-40
-0.03229237 -0.082699992 0.82700002 1.8474859e-40
-0.030791419 -0.082899995 0.82900006 2.7658409e-40
-0.029212367 -0.082899988 0.829 2.7658549e-40
-0.027566653 -0.082699992 0.82699996 2.7658689e-40
-0.02605428 -0.082899988 0.82900006 3.6843219e-40
-0.024475232 -0.082899988 0.82900006 2.7660511e-40
-0.022896184 -0.082899995 0.82900006 2.765953e-40
-0.02131713 -0.08289998 0.829 2.7658409e-40
-0.019738087 -0.082899995 0.82900006 2.7658409e-40
-0.018159036 -0.082899988 0.82900006 2.7658409e-40
-0.016579984 -0.082899988 0.829 2.7694282e-40
-0.01496475 -0.082699992 0.82699996 2.7694282e-40
-0.013389511 -0.082699999 0.82700002 3.6841958e-40
-0.01181427 -0.082699992 0.82699996 2.7658409e-40
-0.010239031 -0.082699992 0.82699996 2.7658409e-40
-0.0086428504 -0.082500003 0.82500005 2.7658409e-40
-0.0070714261 -0.082500018 0.82500005 2.7658409e-40
-0.0055133183 -0.082699992 0.82700002 1.8582479e-40
-0.0039380835 -0.082699992 0.82699996 1.8618352e-40
-0.0023628375 -0.082699984 0.82699996 1.8474859e-40
0.0021371562 -0.0748 0.74800003 2.6802804e-39
0.0035619219 -0.0748 0.74799997 9.2261491e-39
0.0049866806 -0.0748 0.74800003 1.5860532e-38
0.0064114425 -0.0748 0.74800003 1.715052e-38
0.0078362077 -0.0748 0.74799997 1.8436215e-38
0.0092485864 -0.074699998 0.74699998 1.843442e-38
-0.054477129 -0.081320941 0.82900006 5.5209058e-40
-0.052770462 -0.081124745 0.82700002 4.6025508e-40
-0.051071428 -0.080928579 0.82500005 2.7694282e-40
-0.0495 -0.080928579 0.82500005 3.6841958e-40
-0.047928579 -0.080928586 0.82500011 3.6842659e-40
-0.046357144 -0.080928586 0.82500005 2.765967e-40
-0.044785708 -0.080928572 0.82500005 1.847584e-40
-0.043214284 -0.080928579 0.82500005 2.7694983e-40
-0.041642856 -0.080928579 0.82500005 3.6842659e-40
-0.040071428 -0.080928586 0.82500011 3.6842799e-40
-0.038593326 -0.081124753 0.82700002 2.7694842e-40
-0.037018079 -0.081124745 0.82700002 2.7694562e-40
-0.03544284 -0.081124745 0.82699996 1.8546746e-40
-0.033867609 -0.081124753 0.82700002 1.8510872e-40
-0.03229237 -0.081124753 0.82699996 9.3271827e-41
-0.030791424 -0.081320941 0.82900006 1.8474859e-40
-0.029212372 -0.081320941 0.829 2.7658549e-40
-0.027566653 -0.081124753 0.82699996 3.6842239e-40
-0.02605428 -0.081320949 0.82900006 3.6842659e-40
-0.024475226 -0.081320941 0.829 3.6843079e-40
-0.022896184 -0.081320949 0.82900006 2.7658969e-40
-0.021317134 -0.081320941 0.829 2.7658409e-40
-0.019738089 -0.081320949 0.82900006 2.7658549e-40
-0.018159041 -0.081320941 0.82900006 2.7658549e-40
-0.016579987 -0.081320941 0.829 2.7694842e-40
-0.014964756 -0.081124753 0.82700002 4.6062222e-40
-0.013389513 -0.081124753 0.82700002 5.5209478e-40
-0.011814272 -0.081124745 0.82699996 4.6025508e-40
-0.010239039 -0.081124753 0.82700002 2.7658409e-40
-0.0086637959 -0.081124753 0.82699996 2.7694282e-40
-0.0070714243 -0.080928579 0.82500005 1.8510732e-40
-0.0055133221 -0.08112476 0.82700002 1.8618352e-40
-0.0039380835 -0.081124753 0.82699996 9.3631961e-41
-0.0023514188 -0.080732383 0.82300001 1.8474999e-40
-0.00078380737 -0.080732383 0.82300001 2.7626039e-40
0.00078381458 -0.080732375 0.82300001 1.8409979e-40
0.0078362077 -0.073375225 0.74800003 1.8527335e-38
0.0092485845 -0.073277138 0.74699998 1.8617367e-38
0.010671442 -0.073277138 0.74699998 1.8618091e-38
-0.054477133 -0.079741895 0.82900006 4.6025508e-40
-0.052770462 -0.079549506 0.82699996 3.6877832e-40
-0.051071424 -0.07935714 0.82500005 2.7730155e-40
-0.0495 -0.079357147 0.82500005 2.7694282e-40
-0.047928568 -0.07935714 0.82500005 3.6842379e-40
-0.046357144 -0.079357147 0.82500011 2.7659109e-40
-0.044785708 -0.079357147 0.82500005 2.7623096e-40
-0.043214276 -0.079357147 0.82500005 2.7658829e-40
-0.041743796 -0.079549514 0.82700002 3.6842799e-40
-0.040071428 -0.079357147 0.82500005 3.6878953e-40
-0.038593326 -0.079549521 0.82700002 3.6878532e-40
-0.037018079 -0.079549506 0.82699996 2.7730295e-40
-0.035528563 -0.079741903 0.82900006 2.7802042e-40
-0.033867605 -0.079549521 0.82700002 2.7730295e-40
-0.032370459 -0.079741895 0.829 2.7694422e-40
-0.030791415 -0.079741895 0.82900006 2.7694282e-40
-0.029212367 -0.079741888 0.829 3.6877972e-40
-0.027566658 -0.079549521 0.82700002 3.6878112e-40
-0.025991414 -0.079549514 0.82700002 3.6877972e-40
-0.024416175 -0.079549514 0.82699996 3.6877832e-40
-0.022896184 -0.079741895 0.82900006 2.7658409e-40
-0.02131713 -0.079741888 0.82900006 2.7658409e-40
-0.019738089 -0.079741895 0.82900006 2.7658549e-40
-0.018159041 -0.079741903 0.82900006 2.7658689e-40
-0.016579987 -0.079741888 0.829 2.765939e-40
-0.015000941 -0.079741903 0.82900006 3.684364e-40
-0.013421891 -0.079741903 0.82900006 4.5990475e-40
-0.011814278 -0.079549514 0.82700002 3.6841958e-40
-0.010239039 -0.079549514 0.82700002 2.7658409e-40
-0.0086637903 -0.079549506 0.82699996 2.7658409e-40
-0.0070714252 -0.079357147 0.82500005 2.7658409e-40
-0.0055133216 -0.079549514 0.82699996 1.8510732e-40
-0.0039380863 -0.079549521 0.82700002 1.8510872e-40
-0.0023514256 -0.079164766 0.82300001 2.7658689e-40
-0.00078380667 -0.079164773 0.82300001 3.6807627e-40
0.00078381505 -0.079164773 0.82300001 1.8405915e-40
0.0078362059 -0.071950473 0.74800003 1.8618813e-38
0.0092485808 -0.071854293 0.74700004 1.8618793e-38
0.010671437 -0.071854293 0.74700004 1.8618802e-38
-0.057774279 -0.078351423 0.83100003 2.7694422e-40
-0.056191422 -0.078351423 0.83100003 2.7694282e-40
-0.054477133 -0.078162849 0.82900006 2.7694422e-40
-0.052770462 -0.077974267 0.82699996 2.7694562e-40
-0.051071428 -0.077785723 0.82500005 2.7694702e-40
-0.049619988 -0.077974267 0.82699996 2.7694842e-40
-0.048044749 -0.077974275 0.82700002 2.7694842e-40
-0.046469513 -0.077974267 0.82700002 2.7658969e-40
-0.044785716 -0.07778573 0.82500011 2.7658829e-40
-0.043319035 -0.077974275 0.82700002 3.6842239e-40
-0.041743796 -0.077974267 0.82699996 3.6878392e-40
-0.040168561 -0.077974275 0.82700002 3.6878672e-40
-0.038686663 -0.078162856 0.82900006 3.6878392e-40
-0.037018083 -0.077974267 0.82699996 3.6878112e-40
-0.035442848 -0.077974282 0.82700002 3.6913845e-40
-0.033867605 -0.077974267 0.82699996 3.6877972e-40
-0.032292377 -0.077974275 0.82700002 3.6877972e-40
-0.030717133 -0.077974275 0.82700002 3.6878112e-40
-0.029141894 -0.077974275 0.82699996 3.6878112e-40
-0.027566658 -0.077974282 0.82700002 3.6878252e-40
-0.025991416 -0.077974267 0.82699996 3.6878112e-40
-0.024416184 -0.077974275 0.82700002 3.6877972e-40
-0.022840941 -0.077974275 0.82700002 2.7694282e-40
-0.021265702 -0.077974267 0.82699996 2.7658409e-40
-0.019738084 -0.078162849 0.829 1.8474999e-40
-0.018159043 -0.078162856 0.82900006 2.7658549e-40
-0.016539993 -0.077974282 0.82700002 2.7658969e-40
-0.014964756 -0.077974282 0.82700002 3.6806926e-40
-0.013389509 -0.077974267 0.82699996 3.6806505e-40
-0.011814276 -0.077974275 0.82700002 3.6806085e-40
-0.010239037 -0.077974275 0.82699996 2.7658829e-40
-0.0086637996 -0.077974275 0.82700002 2.7623376e-40
-0.0070714233 -0.077785715 0.82500005 2.7658829e-40
-0.0055133179 -0.077974267 0.82699996 2.7658409e-40
-0.0039380896 -0.077974275 0.82700002 2.7694422e-40
-0.00235715 -0.07778573 0.82500011 3.6878112e-40
-0.0007838069 -0.077597149 0.82300001 3.6842799e-40
0.00078572147 -0.077785715 0.82500005 2.7588064e-40
0.0023571453 -0.077785723 0.82500005 9.3368517e-41
0.0078571513 -0.070714287 0.75000006 1.8618812e-38
0.009260973 -0.070525706 0.74799997 1.8619507e-38
0.010685729 -0.070525706 0.74800003 1.8619517e-38
0.012094297 -0.070431419 0.74700004 1.8434779e-38
-0.057635222 -0.076583803 0.82900006 2.7730295e-40
-0.055920944 -0.076399036 0.82700002 2.7694282e-40
-0.054477133 -0.076583803 0.82900006 3.6878112e-40
-0.052770466 -0.076399028 0.82700002 3.6878252e-40
-0.051195227 -0.076399036 0.82699996 3.6842799e-40
-0.04961998 -0.076399028 0.82699996 2.7695403e-40
-0.048044749 -0.076399036 0.82700002 2.7695123e-40
-0.046469513 -0.076399028 0.82699996 3.6878252e-40
-0.044894274 -0.076399036 0.82700002 3.6878112e-40
-0.043423802 -0.076583803 0.82900006 3.6877832e-40
-0.041743793 -0.076399036 0.82699996 3.6913985e-40
-0.040265702 -0.076583803 0.829 3.6878252e-40
-0.038686655 -0.076583803 0.82900006 3.6878252e-40
-0.037107605 -0.076583795 0.82900006 3.6878252e-40
-0.035528563 -0.07658381 0.82900006 4.6061661e-40
-0.033867605 -0.076399036 0.82699996 3.6877832e-40
-0.03229237 -0.076399043 0.82700002 3.6842239e-40
-0.030717133 -0.076399028 0.82699996 3.6878252e-40
-0.029141899 -0.076399036 0.82700002 3.6878252e-40
-0.027566655 -0.076399043 0.82700002 3.6878252e-40
-0.025991416 -0.076399028 0.82699996 2.7694562e-40
-0.024416177 -0.076399036 0.82700002 3.6877972e-40
-0.022840939 -0.076399036 0.82699996 4.6097395e-40
-0.02126571 -0.076399043 0.82700002 3.6841958e-40
-0.019690463 -0.076399036 0.82700002 3.6841958e-40
-0.018115224 -0.076399028 0.82699996 2.7658409e-40
-0.016579989 -0.076583803 0.82900006 2.7694282e-40
-0.014964752 -0.076399036 0.82699996 3.6841958e-40
-0.013389515 -0.076399043 0.82700002 3.6806085e-40
-0.01181427 -0.076399043 0.82700002 4.6025508e-40
-0.010239035 -0.076399036 0.82699996 4.6026349e-40
-0.0086637978 -0.076399036 0.82700002 3.684364e-40
-0.0070714299 -0.076214299 0.82500005 2.7695123e-40
-0.0055133244 -0.076399043 0.82700002 2.7694282e-40
-0.0039380896 -0.076399036 0.82700002 2.7694422e-40
-0.0023571406 -0.076214291 0.82500005 2.7694562e-40
-0.00078571402 -0.076214291 0.82500005 2.7730295e-40
0.00078571308 -0.076214299 0.82500005 1.8474859e-40
0.0023571509 -0.076214291 0.82500005 9.2264293e-41
0.0078362059 -0.069100939 0.74799997 1.8253981e-38
0.0092609655 -0.069100946 0.74800003 1.871349e-38
0.010671446 -0.069008559 0.74699998 1.9171603e-38
0.012061913 -0.068823799 0.74500006 1.8618806e-38
0.013444765 -0.068639047 0.74300003 1.8158209e-38
-0.057635233 -0.075004749 0.82900006 2.7694422e-40
-0.055920944 -0.074823797 0.82699996 3.6842098e-40
-0.054345705 -0.074823797 0.82699996 3.6878532e-40
-0.052770469 -0.074823797 0.82700002 3.6843079e-40
-0.051195227 -0.074823797 0.82699996 3.6844341e-40
-0.049619991 -0.074823789 0.82700002 3.6845602e-40
-0.048044752 -0.074823797 0.82700002 2.7696244e-40
-0.04646951 -0.074823789 0.82699996 3.6878252e-40
-0.044894278 -0.074823804 0.82700002 4.6061661e-40
-0.043319035 -0.074823789 0.82699996 4.6097535e-40
-0.0417438 -0.074823797 0.82700002 3.6913985e-40
-0.040168561 -0.074823797 0.82699996 3.6878252e-40
-0.038686667 -0.075004756 0.82900006 3.6878812e-40
-0.037107613 -0.075004756 0.82900006 4.6062782e-40
-0.035528563 -0.075004742 0.829 4.6062082e-40
-0.033867609 -0.074823797 0.82700002 4.6025508e-40
-0.03229237 -0.074823797 0.82700002 3.6877972e-40
-0.030717133 -0.074823797 0.82699996 3.6878252e-40
-0.029141895 -0.074823797 0.82700002 3.6878812e-40
-0.027566658 -0.074823797 0.82699996 2.7731837e-40
-0.025928566 -0.074642852 0.82500005 1.8511853e-40
-0.024357142 -0.074642859 0.82500005 3.6842519e-40
-0.022840943 -0.074823789 0.82699996 5.5209338e-40
-0.021265706 -0.074823797 0.82700002 5.5173184e-40
-0.019690465 -0.074823789 0.82699996 4.6025508e-40
-0.018159043 -0.075004756 0.82900006 3.6841958e-40
-0.016579991 -0.075004749 0.82900006 2.7694282e-40
-0.015000943 -0.075004749 0.829 3.6877832e-40
-0.013421897 -0.075004756 0.82900006 3.6841958e-40
-0.011814276 -0.074823797 0.82699996 5.5209058e-40
-0.010239044 -0.074823804 0.82700002 6.4393028e-40
-0.0086847506 -0.075004756 0.82900006 4.6026349e-40
-0.0071056988 -0.075004756 0.829 2.7658829e-40
-0.0055266568 -0.075004756 0.82900006 2.7658409e-40
-0.0039476044 -0.075004749 0.82900006 2.7658689e-40
-0.0023628483 -0.074823804 0.82700002 2.7658829e-40
-0.00078760972 -0.074823797 0.82700002 1.8512134e-40
0.00078572053 -0.074642859 0.82500005 1.8477241e-40
0.0023571462 -0.074642859 0.82500005 9.2624427e-41
0.0078362022 -0.067676187 0.74800003 1.779158e-38
0.0092485845 -0.067585714 0.74699998 1.871638e-38
0.01064286 -0.067404769 0.74500006 1.9632225e-38
0.012061907 -0.067404762 0.74500006 1.8893955e-38
0.013444765 -0.06722381 0.74300003 1.806709e-38
-0.059214275 -0.07342571 0.82900006 2.7694282e-40
-0.057635229 -0.07342571 0.82900006 3.6842098e-40
-0.05592094 -0.07324855 0.82699996 2.7658689e-40
-0.054477137 -0.07342571 0.82900006 2.7695403e-40
-0.052770466 -0.07324855 0.82699996 3.6879653e-40
-0.051195223 -0.073248558 0.82699996 4.6029432e-40
-0.049619991 -0.073248558 0.82700002 3.6847984e-40
-0.048044745 -0.07324855 0.82699996 3.6845181e-40
-0.046469517 -0.073248558 0.82700002 3.6878252e-40
-0.045002844 -0.073425703 0.82900006 4.6061802e-40
-0.043423798 -0.073425695 0.829 3.6878252e-40
-0.041844755 -0.07342571 0.82900006 3.6878252e-40
-0.040265698 -0.073425703 0.82900006 3.6914125e-40
-0.038686659 -0.07342571 0.82900006 3.6915106e-40
-0.037107609 -0.07342571 0.82900006 3.6880214e-40
-0.035528559 -0.073425703 0.829 4.6062642e-40
-0.033867609 -0.073248558 0.82700002 3.6877832e-40
-0.03229237 -0.073248558 0.82699996 3.6877972e-40
-0.030717134 -0.073248558 0.82700002 3.6878112e-40
-0.029141895 -0.073248558 0.82699996 3.68435e-40
-0.027566653 -0.07324855 0.82699996 3.6880634e-40
-0.025991417 -0.073248558 0.82700002 2.7696244e-40
-0.02441618 -0.073248558 0.82699996 3.6878812e-40
-0.022840943 -0.073248565 0.82700002 4.6026068e-40
-0.021265706 -0.073248565 0.82700002 5.5209058e-40
-0.019690465 -0.07324855 0.82699996 5.5209058e-40
-0.01811523 -0.073248558 0.82700002 4.6025508e-40
-0.016579991 -0.07342571 0.82900006 3.6877832e-40
-0.015000938 -0.073425695 0.829 3.6877832e-40
-0.013421895 -0.073425703 0.82900006 3.6841958e-40
-0.011842849 -0.07342571 0.82900006 3.6841958e-40
-0.010263793 -0.073425703 0.829 4.6025508e-40
-0.008663794 -0.073248558 0.82699996 3.6877832e-40
-0.0071057021 -0.073425703 0.829 2.7658409e-40
-0.0055266544 -0.07342571 0.82900006 2.7658409e-40
-0.003947604 -0.07342571 0.82900006 2.7622816e-40
-0.0023628483 -0.073248558 0.82700002 2.7658969e-40
-0.00078571821 -0.073071435 0.82500011 1.8513395e-40
0.00078381505 -0.072894283 0.82300001 2.7663173e-40
0.0023571458 -0.073071435 0.82500005 2.7593809e-40
0.0039285715 -0.073071435 0.82500005 8.2984335e-40
0.0054866676 -0.072894298 0.82300001 1.4806624e-39
0.0070542893 -0.07289429 0.82300001 9.6888971e-39
0.0092238169 -0.065985709 0.74500012 1.8623845e-38
0.010614296 -0.065808572 0.74300003 1.9267045e-38
0.012061905 -0.065985709 0.74500012 1.8803556e-38
0.013444772 -0.065808572 0.74300003 1.8434071e-38
0.01486001 -0.065808572 0.74300003 1.8342962e-38
-0.059214275 -0.071846657 0.82900006 3.6914265e-40
-0.057635222 -0.071846657 0.82900006 3.6878532e-40
-0.056056175 -0.071846649 0.829 2.7659109e-40
-0.054477133 -0.071846657 0.82900006 1.8511853e-40
-0.052898083 -0.071846649 0.82900006 3.6879373e-40
-0.051195227 -0.071673326 0.82700002 4.602817e-40
-0.049619988 -0.071673326 0.82699996 4.6029432e-40
-0.048044741 -0.071673319 0.82699996 3.684406e-40
-0.046469513 -0.071673326 0.82700002 3.6878112e-40
-0.045002844 -0.071846664 0.82900006 3.6878252e-40
-0.043319035 -0.071673334 0.82700002 3.6878532e-40
-0.0417438 -0.071673326 0.82699996 3.6878392e-40
-0.040265702 -0.071846664 0.82900006 3.6913985e-40
-0.038686652 -0.071846657 0.829 3.6914546e-40
-0.037107602 -0.071846664 0.82900006 3.6879373e-40
-0.035528563 -0.071846657 0.829 3.6878672e-40
-0.033867601 -0.071673326 0.82699996 3.6842239e-40
-0.032370467 -0.071846664 0.82900006 3.6878112e-40
-0.030791417 -0.071846657 0.829 3.6878252e-40
-0.029212372 -0.071846657 0.82900006 3.6878953e-40
-0.027566655 -0.071673326 0.82700002 3.684392e-40
-0.025991417 -0.071673326 0.82700002 3.6879373e-40
-0.024416175 -0.071673319 0.82699996 3.6878953e-40
-0.022840939 -0.071673326 0.82700002 3.6878532e-40
-0.021265702 -0.071673326 0.82699996 5.5209478e-40
-0.019690465 -0.071673334 0.82700002 6.4392747e-40
-0.018159036 -0.071846657 0.829 5.5209058e-40
-0.016579987 -0.071846657 0.82900006 3.6877832e-40
-0.015000939 -0.071846657 0.829 3.6877832e-40
-0.013421895 -0.071846671 0.82900006 2.7694282e-40
-0.011842845 -0.071846657 0.82900006 2.7694422e-40
-0.010239035 -0.071673319 0.82700002 1.8510872e-40
-0.008663794 -0.071673326 0.82699996 1.8546886e-40
-0.0070885625 -0.071673334 0.82700002 1.8510872e-40
-0.0055133221 -0.071673334 0.82699996 2.7658549e-40
-0.0039380863 -0.071673326 0.82700002 2.7658689e-40
-0.0023571444 -0.071500003 0.82500011 2.7694842e-40
-0.00078571448 -0.071500003 0.82500005 1.8513395e-40
0.00078381202 -0.071326673 0.82300001 3.6846723e-40
0.0023514291 -0.07132668 0.82300007 4.5995941e-40
0.0039190468 -0.071326673 0.82300001 2.7594509e-40
0.005486669 -0.071326673 0.82300001 1.0707181e-40
0.0070542824 -0.07132668 0.82300001 9.139326e-39
0.0092238206 -0.064566657 0.74500006 1.8535251e-38
0.010614293 -0.064393327 0.74300003 1.8806447e-38
0.01202953 -0.064393327 0.74300003 1.8802853e-38
0.013480959 -0.064566672 0.74500006 1.8711359e-38
0.014860012 -0.064393327 0.74300003 1.8712776e-38
0.016275248 -0.064393327 0.74300003 1.8705602e-38
-0.059214272 -0.07026761 0.829 4.6062502e-40
-0.057635229 -0.07026761 0.82900006 4.6062502e-40
-0.056056183 -0.07026761 0.82900006 3.6878953e-40
-0.05447714 -0.070267625 0.82900006 2.765967e-40
-0.052898087 -0.07026761 0.82900006 3.6879093e-40
-0.05131904 -0.07026761 0.829 4.6027049e-40
-0.049619988 -0.07009808 0.82699996 4.6027189e-40
-0.048044752 -0.07009808 0.82700002 3.6842799e-40
-0.04646951 -0.07009808 0.82699996 3.6841958e-40
-0.044894271 -0.070098072 0.82699996 3.6842519e-40
-0.043319039 -0.070098087 0.82700002 3.6878812e-40
-0.041743796 -0.07009808 0.82699996 4.6061942e-40
-0.040168561 -0.070098087 0.82700002 3.6913845e-40
-0.038593318 -0.070098087 0.82699996 3.6914125e-40
-0.037018079 -0.07009808 0.82699996 3.6950139e-40
-0.035442844 -0.07009808 0.82700002 4.6097815e-40
-0.033867601 -0.07009808 0.82699996 3.6878252e-40
-0.032370463 -0.07026761 0.82900006 2.7694702e-40
-0.030791417 -0.07026761 0.829 2.7766449e-40
-0.029141892 -0.070098087 0.82699996 3.6986292e-40
-0.027566656 -0.070098087 0.82700002 3.6914826e-40
-0.025991417 -0.070098087 0.82699996 3.6843079e-40
-0.024416184 -0.070098095 0.82700002 3.6878953e-40
-0.022840941 -0.070098087 0.82699996 3.6878812e-40
-0.021265699 -0.07009808 0.82699996 4.6026209e-40
-0.019738087 -0.070267618 0.82900006 4.6025928e-40
-0.018159034 -0.07026761 0.829 4.6025508e-40
-0.016579991 -0.070267618 0.82900006 4.6025508e-40
-0.015000939 -0.070267603 0.82900006 4.6025508e-40
-0.013421895 -0.070267618 0.82900006 4.6061521e-40
-0.011842849 -0.070267618 0.82900006 3.6913845e-40
-0.010263795 -0.07026761 0.829 2.7730435e-40
-0.0086638015 -0.070098095 0.82700002 2.7730576e-40
-0.0070885639 -0.070098087 0.82699996 2.7766309e-40
-0.0055133221 -0.070098087 0.82699996 2.7694422e-40
-0.0039380826 -0.070098087 0.82700002 2.7658829e-40
-0.0023628441 -0.070098087 0.82699996 1.847542e-40
-0.00078760833 -0.070098087 0.82700002 1.8477522e-40
0.00078381645 -0.069759049 0.82300001 4.6030132e-40
0.0023571467 -0.069928579 0.82500005 6.4326326e-40
0.0039190515 -0.069759049 0.82300001 3.6812251e-40
0.0054866732 -0.069759049 0.82300001 9.3077047e-41
0.0070542865 -0.069759056 0.82300001 9.3183405e-39
0.010614291 -0.062978089 0.74300003 1.8895425e-38
0.012061909 -0.063147627 0.74500006 1.7516093e-38
0.013480958 -0.063147627 0.74500006 1.6232505e-38
0.014860008 -0.062978096 0.74300003 1.3555958e-38
-0.059214275 -0.068688564 0.829 4.6062782e-40
-0.057635229 -0.068688571 0.82900006 4.6098796e-40
-0.056056179 -0.068688564 0.82900006 3.695126e-40
-0.054477129 -0.068688557 0.829 2.7732117e-40
-0.052898083 -0.068688571 0.82900006 3.695182e-40
-0.051195223 -0.068522848 0.82699996 4.6063623e-40
-0.049619991 -0.068522848 0.82700002 4.602789e-40
-0.048044749 -0.068522841 0.82700002 3.6879373e-40
-0.04646951 -0.068522841 0.82699996 3.6842659e-40
-0.044894278 -0.068522848 0.82700002 3.6878812e-40
-0.043214284 -0.068357147 0.82500005 4.6062642e-40
-0.041743796 -0.068522841 0.82699996 4.6098235e-40
-0.040168557 -0.068522848 0.82700002 3.6950419e-40
-0.038593318 -0.068522841 0.82699996 2.7802602e-40
-0.037018087 -0.068522848 0.82700002 3.7021885e-40
-0.03544284 -0.068522841 0.82699996 4.6133688e-40
-0.033867601 -0.068522841 0.82699996 3.6914265e-40
-0.03229237 -0.068522848 0.82700002 1.8547306e-40
-0.030717129 -0.068522848 0.82699996 2.7802742e-40
-0.029141897 -0.068522856 0.82700002 2.7767009e-40
-0.027566651 -0.068522841 0.82699996 2.7731416e-40
-0.025991416 -0.068522841 0.82699996 2.7696104e-40
-0.024416182 -0.068522856 0.82700002 3.6880354e-40
-0.022840938 -0.068522841 0.82699996 3.6879793e-40
-0.021265706 -0.068522848 0.82700002 3.6843219e-40
-0.019690467 -0.068522848 0.82699996 2.7659109e-40
-0.018115224 -0.068522848 0.82699996 3.6842239e-40
-0.016539989 -0.068522848 0.82700002 4.6025648e-40
-0.015000943 -0.068688564 0.82900006 5.5173184e-40
-0.013421893 -0.068688564 0.829 5.5245071e-40
-0.011842847 -0.068688564 0.82900006 4.6097535e-40
-0.010263797 -0.068688571 0.829 3.6878532e-40
-0.0086637996 -0.068522856 0.82700002 3.6878953e-40
-0.0070885601 -0.068522841 0.82699996 3.6878392e-40
-0.0055133244 -0.068522856 0.82700002 2.7658549e-40
-0.0039380803 -0.068522848 0.82700002 1.8474999e-40
-0.0023571474 -0.068357155 0.82500011 1.8475139e-40
-0.00078760646 -0.068522848 0.82700002 1.8476821e-40
0.00078380946 -0.068191431 0.82300001 5.5212841e-40
0.0023571439 -0.068357147 0.82500005 8.2728177e-40
0.003919045 -0.068191439 0.82300001 4.5958806e-40
0.0054999995 -0.068357155 0.82500005 1.0453967e-40
0.0070714313 -0.068357147 0.82500005 9.5988482e-39
0.010642862 -0.061728578 0.74500012 1.8891438e-38
0.012061909 -0.061728571 0.74500012 1.6317522e-38
0.01351716 -0.061894283 0.74699998 1.3727076e-38
0.014900006 -0.061728563 0.74500006 8.4809344e-39
-0.059071414 -0.066947602 0.82699996 5.5318359e-40
-0.057496179 -0.066947609 0.82700002 6.4502189e-40
-0.05592094 -0.066947602 0.82699996 5.5283046e-40
-0.054477129 -0.06710951 0.829 5.5283466e-40
-0.052770466 -0.066947609 0.82700002 4.6100337e-40
-0.051195223 -0.066947602 0.82699996 4.6064464e-40
-0.049619988 -0.066947609 0.82700002 4.6100197e-40
-0.048044745 -0.066947602 0.82699996 4.613523e-40
-0.046469521 -0.066947609 0.82700002 4.6098516e-40
-0.044894274 -0.066947609 0.82700002 4.6098656e-40
-0.043319035 -0.066947609 0.82699996 4.6062782e-40
-0.041743807 -0.066947609 0.82700002 5.5246332e-40
-0.040168557 -0.066947609 0.82699996 4.6098656e-40
-0.038593329 -0.066947617 0.82700002 4.6169982e-40
-0.037018087 -0.066947609 0.82700002 5.5317238e-40
-0.03544284 -0.066947602 0.82699996 7.3648464e-40
-0.033867609 -0.066947609 0.82700002 5.5245491e-40
-0.03229237 -0.066947609 0.82699996 3.6842939e-40
-0.030717133 -0.066947609 0.82699996 4.6062642e-40
-0.029212376 -0.067109518 0.82900006 5.5246192e-40
-0.027566651 -0.066947602 0.82699996 4.6062642e-40
-0.025991423 -0.066947609 0.82700002 3.6880494e-40
-0.02441618 -0.066947609 0.82699996 3.6881755e-40
-0.022840939 -0.066947602 0.82699996 4.6028451e-40
-0.021265708 -0.066947609 0.82700002 3.6879653e-40
-0.019690465 -0.066947609 0.82699996 3.6878953e-40
-0.018115234 -0.066947617 0.82700002 3.6878252e-40
-0.016539987 -0.066947609 0.82699996 4.6025788e-40
-0.015000941 -0.06710951 0.82900006 4.6025508e-40
-0.013421889 -0.06710951 0.829 5.5209338e-40
-0.011842847 -0.06710951 0.82900006 5.5245351e-40
-0.010263801 -0.06710951 0.82900006 4.6026629e-40
-0.0086847562 -0.067109518 0.82900006 3.6879653e-40
-0.0071056988 -0.06710951 0.82900006 3.6878812e-40
-0.0055266502 -0.06710951 0.829 2.7658409e-40
-0.0039476082 -0.067109518 0.82900006 2.7658409e-40
-0.0023628501 -0.066947617 0.82700002 2.7658409e-40
-0.00078571262 -0.066785716 0.82500011 2.765981e-40
0.00078571565 -0.066785723 0.82500005 4.6028311e-40
0.0023571495 -0.066785708 0.82500005 7.357952e-40
0.0039285715 -0.066785716 0.82500005 4.5993418e-40
0.0055000051 -0.066785716 0.82500005 1.8416145e-40
0.0070714322 -0.066785716 0.82500011 7.6638232e-39
0.010685734 -0.060552374 0.74799997 1.1073541e-38
0.012110492 -0.060552374 0.74800003 9.1230962e-39
0.013535256 -0.060552366 0.74799997 7.1726345e-39
0.014940014 -0.060471423 0.74699998 5.6142673e-39
-0.060500007 -0.065214291 0.82500011 6.4537782e-40
-0.059071414 -0.06537237 0.82700002 7.3685458e-40
-0.057496179 -0.065372363 0.82700002 7.3686159e-40
-0.05592094 -0.06537237 0.82699996 7.3614973e-40
-0.054477129 -0.065530464 0.829 7.3651687e-40
-0.052770462 -0.065372363 0.82699996 5.5285428e-40
-0.051195227 -0.06537237 0.82700002 3.6953502e-40
-0.049619984 -0.065372363 0.82700002 4.6136351e-40
-0.048044745 -0.065372363 0.82699996 4.6099356e-40
-0.04646951 -0.06537237 0.82700002 5.5245912e-40
-0.044894274 -0.06537237 0.82699996 5.5246472e-40
-0.043319043 -0.065372378 0.82700002 5.5247173e-40
-0.041743796 -0.06537237 0.82700002 5.5247173e-40
-0.040168557 -0.065372363 0.82699996 5.5247173e-40
-0.038593326 -0.06537237 0.82700002 5.5282345e-40
-0.037018079 -0.065372363 0.82699996 7.3648884e-40
-0.035442848 -0.06537237 0.82700002 9.198011e-40
-0.033867605 -0.06537237 0.82700002 7.3577138e-40
-0.03229237 -0.06537237 0.82699996 4.602747e-40
-0.030717133 -0.06537237 0.82700002 6.439569e-40
-0.02914189 -0.065372363 0.82699996 8.2761808e-40
-0.027566658 -0.06537237 0.82700002 6.4393868e-40
-0.025928574 -0.065214299 0.82500011 3.684406e-40
-0.024357146 -0.065214299 0.82500005 4.6028451e-40
-0.022785718 -0.065214291 0.82500005 4.6063623e-40
-0.021265702 -0.06537237 0.82699996 4.6062782e-40
-0.019690461 -0.065372363 0.82699996 3.6878812e-40
-0.018115226 -0.06537237 0.82700002 3.6878252e-40
-0.016539985 -0.06537237 0.82699996 3.6878112e-40
-0.015000941 -0.065530464 0.82900006 4.6025648e-40
-0.013421893 -0.065530464 0.829 5.5245071e-40
-0.011842845 -0.065530464 0.82900006 5.5209338e-40
-0.010263799 -0.065530464 0.82900006 5.5245631e-40
-0.0086847506 -0.065530464 0.829 4.6062362e-40
-0.0070885587 -0.06537237 0.82700002 2.7694842e-40
-0.0055266521 -0.065530472 0.82900006 2.7658409e-40
-0.0039380784 -0.065372363 0.82699996 2.7658409e-40
-0.0023571502 -0.065214306 0.82500005 2.7658409e-40
-0.00078571634 -0.065214291 0.82500005 2.765981e-40
0.00078571099 -0.065214299 0.82500011 4.6028311e-40
0.0023571411 -0.065214299 0.82500005 5.5212701e-40
0.0039285752 -0.065214291 0.82500005 4.5958386e-40
0.005499993 -0.065214299 0.82500005 2.8961616e-40
0.0070714303 -0.065214291 0.82500005 5.7377567e-39
0.010685723 -0.059127614 0.74800003 3.1444283e-39
0.012110492 -0.059127606 0.74800003 1.9290247e-39
0.013535256 -0.059127606 0.74799997 6.5264775e-40
0.014940012 -0.059048571 0.74700004 2.7627048e-39
0.016362865 -0.059048578 0.74700004 4.8839077e-39
-0.062071431 -0.063642859 0.82500011 6.4537922e-40
-0.060499996 -0.063642859 0.82500005 8.2869148e-40
-0.059071414 -0.063797131 0.82700002 8.2904881e-40
-0.057496179 -0.063797131 0.82699996 8.2869989e-40
-0.055920944 -0.063797131 0.82700002 8.2870969e-40
-0.054477129 -0.06395141 0.82900006 8.2908104e-40
-0.052770458 -0.063797124 0.82699996 6.4577999e-40
-0.051195223 -0.063797131 0.82700002 4.6245512e-40
-0.049739983 -0.06395141 0.829 5.5355914e-40
-0.048160944 -0.063951418 0.82900006 5.5282766e-40
-0.046581898 -0.063951418 0.82900006 5.5245491e-40
-0.044894274 -0.063797124 0.82699996 5.5246752e-40
-0.043319035 -0.063797131 0.82700002 5.5248014e-40
-0.041743796 -0.063797131 0.82699996 5.5248014e-40
-0.040168557 -0.063797131 0.82700002 5.5248014e-40
-0.038593322 -0.063797131 0.82700002 5.5247173e-40
-0.037018079 -0.063797124 0.82699996 6.4465615e-40
-0.035442844 -0.063797131 0.82700002 8.2796841e-40
-0.033785712 -0.063642859 0.82500005 6.4429742e-40
-0.032292373 -0.063797139 0.82700002 5.5248014e-40
-0.030717131 -0.063797131 0.82700002 5.5213962e-40
-0.029212371 -0.06395141 0.829 6.439569e-40
-0.027566655 -0.063797139 0.82700002 5.5210179e-40
-0.025991412 -0.063797124 0.82699996 4.6027049e-40
-0.02441618 -0.063797131 0.82700002 5.5246893e-40
-0.022840938 -0.063797131 0.82700002 7.3613571e-40
-0.021265702 -0.063797131 0.82699996 6.4429461e-40
-0.019690461 -0.063797131 0.82700002 5.5245631e-40
-0.018115224 -0.063797131 0.82699996 4.6061802e-40
-0.016539983 -0.063797131 0.82699996 3.6878112e-40
-0.01496475 -0.063797124 0.82700002 4.6061521e-40
-0.013421891 -0.063951418 0.82900006 4.6097395e-40
-0.011842851 -0.063951425 0.82900006 5.5245071e-40
-0.010263797 -0.063951418 0.82900006 6.4428621e-40
-0.008663794 -0.063797131 0.82699996 4.6097395e-40
-0.0070885569 -0.063797131 0.82700002 3.6913845e-40
-0.0055133183 -0.063797124 0.82699996 2.7694282e-40
-0.0039380826 -0.063797131 0.82700002 2.7658409e-40
-0.002357143 -0.063642867 0.82500005 2.7658409e-40
-0.00078571751 -0.063642867 0.82500011 2.7623937e-40
0.00078571634 -0.063642859 0.82500005 3.6844621e-40
0.0023571465 -0.063642859 0.82500005 4.6065445e-40
0.0039285738 -0.063642859 0.82500005 8.3016144e-40
0.0054866713 -0.063488573 0.82299995 1.2047299e-39
0.0070542865 -0.06348858 0.82300001 4.0645965e-39
0.012110496 -0.057702851 0.74799997 4.7887862e-39
0.013535254 -0.057702851 0.74800003 5.7146955e-39
0.014940012 -0.057625707 0.74699998 6.9143163e-39
0.016362868 -0.057625715 0.74699998 8.2072384e-39
-0.062071431 -0.062071428 0.82500005 7.3758466e-40
-0.060500003 -0.062071435 0.82500011 9.2125705e-40
-0.058928568 -0.062071424 0.82500005 9.2161859e-40
-0.057357144 -0.062071431 0.82500005 9.2090112e-40
-0.055785716 -0.062071431 0.82500005 9.2090112e-40
-0.05421428 -0.062071431 0.82500005 9.2162419e-40
-0.052770466 -0.062221892 0.82700002 7.3796021e-40
-0.051195227 -0.062221892 0.82700002 5.5392488e-40
-0.049739987 -0.062372372 0.829 6.4539603e-40
-0.048160944 -0.062372372 0.82900006 6.4467016e-40
-0.046469513 -0.062221888 0.82699996 5.5246752e-40
-0.044894274 -0.062221896 0.82700002 4.6063904e-40
-0.043319035 -0.062221892 0.82700002 5.5212281e-40
-0.041743796 -0.062221888 0.82699996 5.5248154e-40
-0.040168557 -0.062221892 0.82700002 5.5248014e-40
-0.038593326 -0.062221892 0.82699996 4.6099496e-40
-0.037018087 -0.062221896 0.82700002 5.5318079e-40
-0.035357144 -0.062071431 0.82500005 6.4501628e-40
-0.033785716 -0.062071435 0.82500011 6.4465615e-40
-0.032292373 -0.062221896 0.82700002 5.5247313e-40
-0.030717133 -0.062221888 0.82699996 5.5212561e-40
-0.029141897 -0.062221892 0.82700002 4.6063623e-40
-0.027566656 -0.062221896 0.82700002 5.5245772e-40
-0.025991416 -0.062221885 0.82699996 5.5246192e-40
-0.024416178 -0.062221892 0.82700002 7.3649585e-40
-0.022840941 -0.062221888 0.82699996 9.198039e-40
-0.021265708 -0.062221896 0.82700002 8.2760547e-40
-0.019690469 -0.062221892 0.82700002 6.4429181e-40
-0.018115224 -0.062221888 0.82699996 5.5245491e-40
-0.016539993 -0.062221896 0.82700002 3.6913985e-40
-0.01496475 -0.062221888 0.82699996 3.6913845e-40
-0.013389507 -0.062221885 0.82699996 3.6913845e-40
-0.011814276 -0.062221892 0.82700002 5.5280944e-40
-0.010239037 -0.062221892 0.82699996 6.4464494e-40
-0.0086638015 -0.0622219 0.82700002 5.5280944e-40
-0.0070885569 -0.062221888 0.82699996 3.6913705e-40
-0.0055133183 -0.062221888 0.82699996 2.7694282e-40
-0.0039380789 -0.062221888 0.82700002 1.8510732e-40
-0.0023571439 -0.062071435 0.82500005 1.8438986e-40
-0.00078571378 -0.062071435 0.82500005 1.8440527e-40
0.00078571169 -0.062071443 0.82500011 2.7625758e-40
0.0023571474 -0.062071431 0.82500005 3.6846863e-40
0.0039285719 -0.062071435 0.82500005 1.1950049e-39
0.0054999995 -0.062071435 0.82500005 2.0305417e-39
0.0070714331 -0.062071431 0.82500005 2.5001715e-39
-0.063488573 -0.060353335 0.82300001 8.2870689e-40
-0.062071435 -0.060500011 0.82500005 8.2942996e-40
-0.060499996 -0.0605 0.82500005 9.2198853e-40
-0.058928572 -0.060500003 0.82500011 1.0131108e-39
-0.057357147 -0.060500003 0.82500005 1.1045791e-39
-0.055785716 -0.0605 0.82500005 1.0130925e-39
-0.054214284 -0.060500011 0.82500005 9.2269198e-40
-0.052642852 -0.0605 0.82500005 7.3794479e-40
-0.051195223 -0.060646653 0.82699996 5.5391787e-40
-0.049619991 -0.060646661 0.82700002 5.5320181e-40
-0.048044749 -0.060646649 0.82700002 6.4431844e-40
-0.046357144 -0.060500007 0.82500005 5.5248014e-40
-0.044785704 -0.060499996 0.82500005 4.6064604e-40
-0.043109518 -0.060353331 0.82300001 5.5248294e-40
-0.0415419 -0.060353339 0.82300007 6.4431703e-40
-0.03997428 -0.060353335 0.82300001 6.4431563e-40
-0.038500004 -0.060500007 0.82500005 5.5247313e-40
-0.036928568 -0.0605 0.82500005 5.5318219e-40
