# .PCD v0.7 - Point Cloud Data file format
VERSION 0.7
FIELDS x y z rgb
SIZE 4 4 4 4
TYPE F F F F
COUNT 1 1 1 1
WIDTH 946
HEIGHT 1
VIEWPOINT 0 0 0 1 0 0 0
POINTS 946
DATA ascii
-0.02923999 -0.064599983 0.71400005 2.8531095e-39
-0.027880011 -0.064600006 0.71400005 2.5779632e-39
-0.026482875 -0.064509533 0.713 2.6698001e-39
-0.025124779 -0.064509533 0.71300006 2.76163e-39
-0.023766678 -0.064509533 0.71300006 2.7616258e-39
-0.02240859 -0.064509533 0.713 2.7616272e-39
-0.021050492 -0.064509533 0.713 2.3010162e-39
-0.019637138 -0.064328566 0.71100003 1.8396779e-39
-0.01828287 -0.064328581 0.71099997 1.0117151e-39
-0.016904794 -0.064238124 0.70999998 9.8791542e-41
-0.015552405 -0.064238116 0.70999998 3.4981917e-39
-0.014200033 -0.064238124 0.70999998 6.8272256e-39
-0.012811434 -0.064057149 0.70799994 9.3283065e-39
-0.011462849 -0.064057134 0.70799994 1.1787388e-38
-0.010114281 -0.064057134 0.708 6.5394634e-39
-0.0087657208 -0.064057149 0.70799994 1.2994689e-39
-0.0074171536 -0.064057149 0.70799994 4.5922821e-39
-0.0060685654 -0.064057142 0.70799994 7.8406741e-39
-0.0047199982 -0.064057142 0.708 1.2643454e-38
-0.0033714357 -0.064057156 0.70799994 1.733674e-38
-0.0020228704 -0.064057156 0.70799994 1.9452894e-38
-0.00067428587 -0.064057134 0.708 2.1478666e-38
0.00067426084 -0.064057164 0.70799994 2.2312012e-38
0.0020285379 -0.064238124 0.70999998 2.3132433e-38
0.0033809291 -0.064238116 0.70999998 2.2578192e-38
0.0047332998 -0.064238124 0.70999998 2.1936419e-38
-0.072884791 -0.065808602 0.74299997 1.0124367e-39
-0.071373343 -0.065720014 0.74199998 9.1988238e-40
-0.06996002 -0.065720022 0.74200004 1.1961035e-39
-0.068361886 -0.065542847 0.74000001 1.5638014e-39
-0.066861898 -0.065454282 0.73900002 1.4741155e-39
-0.065277129 -0.065277129 0.73700005 1.3844352e-39
-0.063873321 -0.065277129 0.73700011 1.7510612e-39
-0.062384788 -0.065188594 0.736 2.210247e-39
-0.060817145 -0.065011427 0.73400003 1.9329553e-39
-0.059257153 -0.064834289 0.73199999 1.6567328e-39
-0.05786287 -0.064834304 0.73199999 1.5652574e-39
-0.056391433 -0.064745717 0.73100001 1.5656161e-39
-0.054773327 -0.064479999 0.72800004 1.2893908e-39
-0.05323999 -0.064302839 0.72599995 1.1042862e-39
-0.051785707 -0.064214274 0.72500002 1.2901096e-39
-0.050404742 -0.064214267 0.72500002 1.4755939e-39
-0.048888575 -0.064037137 0.72300005 1.9362245e-39
-0.047445718 -0.063948579 0.72200006 2.398618e-39
-0.045942869 -0.063771442 0.72000003 2.5819162e-39
-0.044571437 -0.063771434 0.72000003 2.8577773e-39
-0.043140028 -0.063682877 0.71899998 2.672307e-39
-0.041770499 -0.063682877 0.71899998 2.5793953e-39
-0.040400971 -0.063682869 0.71900004 2.4857647e-39
-0.038922869 -0.063505717 0.71699995 2.3921356e-39
-0.037504766 -0.063417137 0.71600002 2.0244335e-39
-0.036140967 -0.063417152 0.71599996 1.65673e-39
-0.034680005 -0.063240014 0.71399999 1.8411156e-39
-0.033320013 -0.063240014 0.71399999 2.0255013e-39
-0.031959992 -0.063239992 0.71400005 2.3013637e-39
-0.030557169 -0.063151449 0.713 2.4857605e-39
-0.029199053 -0.063151434 0.713 2.4857675e-39
-0.027762879 -0.062974297 0.71099997 2.394295e-39
-0.026408585 -0.062974297 0.71100003 2.4868522e-39
-0.025019076 -0.062885739 0.70999998 2.6708735e-39
-0.023700021 -0.062974297 0.71100003 2.8545347e-39
-0.022314314 -0.062885739 0.70999998 3.1307586e-39
-0.020961925 -0.062885731 0.70999998 2.7612642e-39
-0.019609539 -0.062885724 0.70999998 2.3006434e-39
-0.018257167 -0.062885724 0.71000004 1.564156e-39
-0.016904781 -0.062885724 0.71000004 7.3585265e-40
-0.015508561 -0.062708564 0.70799994 2.3949984e-39
-0.014159996 -0.062708572 0.708 4.059238e-39
-0.01281145 -0.062708601 0.70799994 5.8160304e-39
-0.011446645 -0.062619984 0.70700002 7.4776551e-39
-0.010114276 -0.062708572 0.70799994 7.0116365e-39
-0.0087533211 -0.062619992 0.70700002 6.6367317e-39
-0.0074066748 -0.062620007 0.70700002 8.1110925e-39
-0.0060599931 -0.062619999 0.70699996 9.6027817e-39
-0.0047133276 -0.062619999 0.70700002 1.2276494e-38
-0.0033666464 -0.062619977 0.70700002 1.4856097e-38
-0.0020199837 -0.062619984 0.70700002 1.5492445e-38
-0.00067332195 -0.062619984 0.70700002 1.6052467e-38
0.00067334069 -0.062619992 0.70700002 1.8903712e-38
0.0020228699 -0.062708572 0.708 2.1665946e-38
0.0033809282 -0.062885731 0.71000004 2.1938217e-38
0.0047199996 -0.062708579 0.70799994 2.2211213e-38
0.006068565 -0.062708579 0.708 2.2118658e-38
0.0074171294 -0.062708594 0.70799994 2.2026115e-38
-0.074300021 -0.064393356 0.74299997 1.1049841e-39
-0.072884761 -0.064393334 0.74300003 9.1987817e-40
-0.071373336 -0.064306669 0.74200004 6.4472902e-40
-0.069960013 -0.064306684 0.74200004 8.2803987e-40
-0.068361893 -0.064133324 0.74000001 9.2095017e-40
-0.066861898 -0.064046666 0.73900002 1.1982503e-39
-0.065277152 -0.063873343 0.73700005 1.4744757e-39
-0.063786663 -0.063786663 0.73600006 2.1173269e-39
-0.062384766 -0.063786671 0.73600006 2.760181e-39
-0.060651436 -0.063440003 0.73199999 2.3921272e-39
-0.059257161 -0.06344001 0.73199999 1.9333154e-39
-0.057783794 -0.063353322 0.73100001 1.7492927e-39
-0.056237128 -0.063179985 0.72900003 1.5659721e-39
-0.05462287 -0.062920004 0.72599995 1.1989818e-39
-0.053166661 -0.062833332 0.72500002 7.3908685e-40
-0.051642839 -0.062659971 0.72300005 9.2275924e-40
-0.050265722 -0.062660009 0.72300005 1.0156849e-39
-0.048820946 -0.062573329 0.722 1.5685056e-39
-0.047314305 -0.062400021 0.72000003 2.0294711e-39
-0.045942873 -0.062400024 0.72000003 2.4000361e-39
-0.04450953 -0.062313344 0.71900004 2.7659404e-39
-0.043140005 -0.062313344 0.71900004 2.9499673e-39
-0.041654274 -0.062139988 0.71700001 3.1318446e-39
-0.040288568 -0.062139992 0.71700001 3.0389329e-39
-0.03886858 -0.062053345 0.71599996 2.944945e-39
-0.037504781 -0.062053353 0.71599996 2.759479e-39
-0.036039997 -0.061880004 0.71400005 2.4839697e-39
-0.034680001 -0.061880004 0.71400005 2.2070269e-39
-0.03327335 -0.06179335 0.71300006 1.9329511e-39
-0.031915233 -0.061793327 0.71300006 1.9336644e-39
-0.030471444 -0.061620016 0.71099997 1.934386e-39
-0.029117148 -0.061620008 0.71100003 2.1180612e-39
-0.027723832 -0.061533358 0.71000004 2.2106156e-39
-0.026371447 -0.061533347 0.71000004 2.3953642e-39
-0.02494858 -0.061360009 0.708 2.4871913e-39
-0.02359999 -0.061359998 0.708 3.0385546e-39
-0.022251446 -0.061360028 0.70799994 3.4970188e-39
-0.020902865 -0.061360005 0.70799994 3.1289635e-39
-0.019554295 -0.061360013 0.708 2.7601838e-39
-0.01820571 -0.061359998 0.708 2.1162564e-39
-0.016857164 -0.061360028 0.70799994 1.3801431e-39
-0.015508579 -0.06136002 0.70799994 1.3783564e-39
-0.014159998 -0.061360002 0.70799994 1.2937278e-39
-0.012793329 -0.061273329 0.70700002 2.2146261e-39
-0.011446668 -0.061273333 0.70700002 3.1469927e-39
-0.010099978 -0.061273314 0.70700002 7.5766428e-39
-0.0087533183 -0.061273318 0.70700002 1.188466e-38
-0.0074066557 -0.061273314 0.70700002 1.1612025e-38
-0.0060599954 -0.061273325 0.70700002 1.1348037e-38
-0.0047133276 -0.061273329 0.70700002 1.1911288e-38
-0.0033666668 -0.061273325 0.70700002 1.2356787e-38
-0.0020142915 -0.061100002 0.70500004 1.1516948e-38
-0.00067331636 -0.061273322 0.70700002 1.0614421e-38
0.00067142682 -0.061100002 0.70500004 1.5401031e-38
0.0020200079 -0.061273329 0.70700002 2.0187602e-38
0.0033714129 -0.06136002 0.70799994 2.1389358e-38
0.0047133323 -0.061273329 0.70700002 2.2487797e-38
0.006060021 -0.06127331 0.70700002 2.2393809e-38
0.0073856795 -0.061100032 0.70499998 2.2214801e-38
0.0087285405 -0.061100025 0.70499998 2.2861956e-38
-0.074300036 -0.062978126 0.74299997 1.4719673e-39
-0.072884776 -0.062978111 0.74299997 1.0127829e-39
-0.071373343 -0.062893346 0.74200004 4.6248735e-40
-0.069771409 -0.062723801 0.74000001 6.4543947e-40
-0.068361878 -0.062723786 0.74000001 8.283944e-40
-0.066861905 -0.06263905 0.73900002 1.013143e-39
-0.065277152 -0.062469538 0.73700005 1.1971755e-39
-0.063786671 -0.062384766 0.73600006 1.657432e-39
-0.062215254 -0.06221525 0.73400003 2.116971e-39
-0.06065144 -0.062045734 0.73199999 2.0258558e-39
-0.059176199 -0.061960962 0.73100001 1.9347504e-39
-0.057625715 -0.061791431 0.72900009 2.0258796e-39
-0.056160022 -0.061706692 0.72799999 2.1177011e-39
-0.054622848 -0.061537128 0.72599995 1.5663154e-39
-0.053239983 -0.06153712 0.72600001 1.0153024e-39
-0.051785719 -0.061452381 0.72500002 1.0142262e-39
-0.050265707 -0.061282855 0.72300005 1.1057128e-39
-0.048820972 -0.061198123 0.722 1.382664e-39
-0.04731429 -0.061028574 0.72000003 1.6592495e-39
-0.045879066 -0.060943827 0.71900004 2.0287453e-39
-0.044509541 -0.060943823 0.71899998 2.4886388e-39
-0.043140031 -0.060943838 0.71899998 3.0403679e-39
-0.0415962 -0.060689531 0.71600002 3.5913822e-39
-0.040232401 -0.060689542 0.71599996 3.3151597e-39
-0.038759988 -0.060519986 0.71400005 3.129695e-39
-0.037400011 -0.060520008 0.71400005 3.1286174e-39
-0.036040012 -0.060520012 0.71399999 3.2200928e-39
-0.034631457 -0.060435269 0.713 2.6680008e-39
-0.033273339 -0.060435247 0.713 2.2081003e-39
-0.031825721 -0.06026572 0.71100003 2.0251411e-39
-0.030428598 -0.060180977 0.70999998 1.9343832e-39
-0.029076226 -0.060180988 0.70999998 1.8421904e-39
-0.027645705 -0.06001142 0.708 1.8429065e-39
-0.026297165 -0.060011446 0.70799994 2.1184102e-39
-0.024913313 -0.059926644 0.70700002 2.3946271e-39
-0.023566652 -0.059926648 0.70700002 2.7619607e-39
-0.022219989 -0.059926655 0.70700002 3.2204291e-39
-0.020873323 -0.059926659 0.70700002 3.0371252e-39
-0.019554297 -0.060011443 0.70799994 2.8520235e-39
-0.01818 -0.059926659 0.70700002 2.7598335e-39
-0.016857142 -0.060011435 0.708 2.6669246e-39
-0.015508577 -0.060011443 0.70799994 2.2985092e-39
-0.014139989 -0.059926648 0.70700002 1.9300756e-39
-0.012793325 -0.059926651 0.70700002 1.9325713e-39
-0.011414316 -0.059757177 0.70499998 1.9308464e-39
-0.010071456 -0.059757177 0.70499998 4.1564909e-39
-0.0087285982 -0.059757166 0.70499998 6.4678346e-39
-0.007385741 -0.059757162 0.70499998 8.9520859e-39
-0.0060428781 -0.059757162 0.70499998 1.143882e-38
-0.0047000227 -0.059757169 0.70499998 1.1343039e-38
-0.0033571636 -0.059757158 0.70499998 1.1234651e-38
-0.0020143008 -0.059757162 0.70499998 1.0689327e-38
-0.00067144533 -0.059757162 0.70499998 1.0231633e-38
0.00067141658 -0.059757158 0.70499998 1.3465293e-38
0.0020200154 -0.059926655 0.70700002 1.6784299e-38
0.0033666752 -0.059926655 0.70700002 1.8902626e-38
0.0047133379 -0.059926663 0.70700002 2.0925877e-38
0.0060428474 -0.059757151 0.70499998 2.1846743e-38
0.0073752273 -0.059672397 0.70400006 2.2863025e-38
0.0087162033 -0.059672363 0.70400006 2.3046689e-38
0.010057144 -0.059672378 0.70400006 2.3227141e-38
-0.075919032 -0.061728563 0.74500006 2.2999245e-39
-0.074499972 -0.061728548 0.74500006 1.8407387e-39
-0.072884791 -0.061562892 0.74299997 1.1053302e-39
-0.071373336 -0.061480004 0.74200004 2.7880935e-40
-0.069959998 -0.061480004 0.74200004 4.6283907e-40
-0.068361893 -0.061314277 0.74000001 6.4543107e-40
-0.066861913 -0.061231442 0.73900002 8.2910066e-40
-0.065277144 -0.06106573 0.73700005 9.2130189e-40
-0.063613348 -0.060817156 0.73400003 1.1975343e-39
-0.062045734 -0.060651444 0.73199999 1.4741183e-39
-0.06056856 -0.060568567 0.73099995 1.7510626e-39
-0.05917621 -0.060568586 0.73099995 1.9350979e-39
-0.057625722 -0.060402866 0.72900003 2.3017294e-39
-0.056160022 -0.060320023 0.72800004 2.669063e-39
-0.05462284 -0.06015427 0.72600001 2.0247726e-39
-0.053166673 -0.060071435 0.72500002 1.2900886e-39
-0.05157141 -0.059822846 0.72200006 1.1971769e-39
-0.050196175 -0.059822846 0.72200006 1.1056988e-39
-0.048685711 -0.059657134 0.72000003 1.1975315e-39
-0.047248594 -0.05957431 0.71899998 1.2900928e-39
-0.04587907 -0.05957431 0.71899998 1.7499948e-39
-0.04438572 -0.059408575 0.71699995 2.119492e-39
-0.042960014 -0.059325732 0.71599996 3.0396434e-39
-0.04147999 -0.059159998 0.71400005 3.9587256e-39
-0.040120013 -0.059160016 0.71400005 3.5921123e-39
-0.038760018 -0.05916002 0.71399999 3.2229711e-39
-0.037347633 -0.059077162 0.71300006 3.5892312e-39
-0.035989519 -0.05907714 0.71300006 3.8651007e-39
-0.034631446 -0.059077162 0.713 3.128986e-39
-0.033180021 -0.058911446 0.71099997 2.392846e-39
-0.031825725 -0.058911435 0.71100003 2.2077205e-39
-0.030428581 -0.058828577 0.71000004 1.9329371e-39
-0.028953321 -0.058579985 0.70700002 1.6574376e-39
-0.027606655 -0.058579993 0.70700002 1.3822899e-39
-0.026259992 -0.058579993 0.70700002 1.8411086e-39
-0.024913333 -0.058579993 0.70700002 2.3013609e-39
-0.023500018 -0.058414306 0.70499998 2.5775834e-39
-0.022157162 -0.058414306 0.70499998 2.8538144e-39
-0.0208143 -0.058414299 0.70499998 2.9467331e-39
-0.01947144 -0.058414299 0.70499998 2.9456555e-39
-0.018102864 -0.058331441 0.70400006 3.4041155e-39
-0.0167381 -0.058248576 0.70300001 3.8618581e-39
-0.015442869 -0.058414292 0.70499998 3.217932e-39
-0.014019997 -0.058082853 0.70100003 2.4825249e-39
-0.012684742 -0.058082838 0.70100003 1.5634483e-39
-0.011398098 -0.058331437 0.70400006 6.4655631e-40
-0.010042865 -0.058248583 0.70300001 8.3384405e-40
-0.0087038111 -0.058248572 0.70300001 9.4150161e-40
-0.0073647778 -0.058248587 0.70299995 6.1973293e-39
-0.0060257232 -0.058248587 0.70299995 1.1430526e-38
-0.0046866853 -0.058248598 0.70300001 1.0787687e-38
-0.0033523776 -0.058331426 0.70400006 1.0141226e-38
-0.0020114165 -0.058331419 0.70400006 9.9571729e-39
-0.00067048141 -0.058331441 0.70400006 9.7792668e-39
0.00067047408 -0.058331434 0.70400006 1.1627483e-38
0.002014285 -0.058414292 0.70500004 1.3375603e-38
0.0033571422 -0.05841428 0.70500004 1.6418748e-38
0.0047000013 -0.058414284 0.70500004 1.9359275e-38
0.0060428623 -0.058414277 0.70500004 2.1387904e-38
0.0073647527 -0.058248583 0.70300001 2.3411865e-38
0.0087038083 -0.058248583 0.70300001 2.3233927e-38
0.010042857 -0.058248568 0.70300001 2.3038057e-38
0.011349527 -0.058082853 0.70099998 2.0097528e-38
-0.077338077 -0.060309514 0.74500006 2.8563157e-39
-0.075919054 -0.060309537 0.74500006 2.6701322e-39
-0.074300021 -0.060147647 0.74299997 2.4850179e-39
-0.072884783 -0.060147647 0.74300003 1.6570551e-39
-0.071373321 -0.060066666 0.74200004 8.2981672e-40
-0.069771431 -0.059904765 0.74000001 8.2909785e-40
-0.068361893 -0.059904758 0.74000001 7.3653929e-40
-0.06686192 -0.059823822 0.73900002 7.3725115e-40
-0.065188587 -0.059580971 0.73600006 8.2909926e-40
-0.063613355 -0.059419069 0.73400003 1.0131416e-39
-0.062045719 -0.059257153 0.73199999 1.2893669e-39
-0.06056859 -0.05917621 0.73099995 1.4751917e-39
-0.059014279 -0.059014279 0.72900003 1.7521346e-39
-0.057546679 -0.058933336 0.72799999 2.0272837e-39
-0.056160007 -0.058933336 0.72800004 2.3027888e-39
-0.054622862 -0.058771431 0.72599995 1.8421736e-39
-0.053166665 -0.058690477 0.72499996 1.4733981e-39
-0.05157144 -0.058447633 0.72200006 1.2900858e-39
-0.050196204 -0.058447633 0.72200006 1.1064008e-39
-0.048685711 -0.058285709 0.72000003 1.1056693e-39
-0.047248576 -0.05820477 0.71900004 1.1046071e-39
-0.045751415 -0.058042847 0.71700001 1.1986076e-39
-0.044323821 -0.057961915 0.71599996 1.2915263e-39
-0.042840008 -0.057800002 0.71399999 2.0276509e-39
-0.041479982 -0.057799987 0.71400005 2.8559836e-39
-0.040063817 -0.057719052 0.71300006 2.7641677e-39
-0.038705744 -0.057719078 0.713 2.7641579e-39
-0.037190512 -0.057476226 0.70999998 3.1322076e-39
-0.035888586 -0.057557158 0.71099997 3.5009957e-39
-0.034485735 -0.057476208 0.70999998 3.1311524e-39
-0.033133365 -0.057476215 0.70999998 2.7612642e-39
-0.031691439 -0.057314299 0.708 2.3928096e-39
-0.030342855 -0.05731428 0.708 2.1162395e-39
-0.028953312 -0.057233311 0.70700002 1.7492675e-39
-0.027606651 -0.057233315 0.70700002 1.4726876e-39
-0.026185729 -0.057071444 0.70500004 1.7485542e-39
-0.024842868 -0.05707144 0.70500004 2.0244237e-39
-0.02350001 -0.057071436 0.70500004 2.2095338e-39
-0.022125706 -0.056990471 0.70400006 2.3946453e-39
-0.020755254 -0.056909539 0.70300001 2.5786806e-39
-0.019416198 -0.056909535 0.70300001 2.7627062e-39
-0.018077143 -0.056909524 0.70300001 2.9452954e-39
-0.016738111 -0.056909539 0.70299995 3.1282447e-39
-0.015399056 -0.056909531 0.70299995 2.8523753e-39
-0.014019996 -0.056747619 0.70100003 2.5757982e-39
-0.012684748 -0.056747604 0.70100003 2.0240719e-39
-0.011333329 -0.056666661 0.70000005 1.563807e-39
-0.0099714324 -0.056504771 0.69800001 1.2897243e-39
-0.0086418903 -0.056504752 0.69800001 1.012113e-39
-0.0073333243 -0.056666661 0.69999999 3.5100144e-39
-0.0059999926 -0.056666661 0.70000005 5.9103098e-39
-0.0046733432 -0.056747627 0.70099998 5.7259381e-39
-0.0033380892 -0.056747612 0.70100003 5.5551843e-39
-0.0019999882 -0.056666661 0.69999999 5.5444237e-39
-0.00066761201 -0.056747615 0.70100003 5.6470254e-39
0.0006704629 -0.056990489 0.70400006 6.2841384e-39
0.0020114407 -0.056990463 0.70400006 6.8351738e-39
0.0033523794 -0.056990478 0.70400006 9.8761708e-39
0.0046999864 -0.057071444 0.70499998 1.3010769e-38
0.0060342923 -0.056990471 0.70400006 1.6233614e-38
0.0073647397 -0.05690955 0.70299995 1.9549729e-38
0.0087037962 -0.056909543 0.70299995 1.7796238e-38
0.010014296 -0.056747619 0.70100003 1.6042744e-38
0.01134955 -0.056747597 0.70100003 1.2434603e-38
0.012684779 -0.056747604 0.70099998 8.8224756e-39
-0.075919054 -0.058890484 0.74500006 3.0392608e-39
-0.074499987 -0.058890469 0.74500006 3.1292985e-39
-0.072884798 -0.05873242 0.74299997 2.3002651e-39
-0.071373358 -0.058653366 0.74200004 1.3811856e-39
-0.069771416 -0.058495231 0.74000001 1.1038799e-39
-0.068269521 -0.058416188 0.73899996 8.2908384e-40
-0.06668096 -0.058258105 0.73700005 7.3724134e-40
-0.065188572 -0.05817904 0.73600006 6.4541986e-40
-0.063613333 -0.058020953 0.73400003 8.2874613e-40
-0.062045734 -0.057862874 0.73199999 1.0142164e-39
-0.060568575 -0.057783816 0.73100001 1.2918809e-39
-0.059014279 -0.057625704 0.72900009 1.475912e-39
-0.057546671 -0.057546675 0.72800004 1.6599431e-39
-0.056005694 -0.057388555 0.72600001 1.8439729e-39
-0.054622836 -0.057388555 0.72600001 1.75178e-39
-0.053166669 -0.057309519 0.72499996 1.658511e-39
-0.051571433 -0.057072382 0.722 1.3826472e-39
-0.050057165 -0.056914307 0.72000003 1.1067722e-39
-0.048685718 -0.056914289 0.72000003 1.0138521e-39
-0.047248602 -0.056835268 0.71899998 8.3018666e-40
-0.045751438 -0.056677148 0.71700001 6.4795621e-40
-0.044199992 -0.056439992 0.71400005 4.6428942e-40
-0.042839993 -0.056439992 0.71399999 1.106426e-39
-0.04142192 -0.056360967 0.713 1.658888e-39
-0.040063825 -0.056360967 0.71300006 2.0273215e-39
-0.038542882 -0.05612383 0.71000004 2.3042588e-39
-0.037085723 -0.055965725 0.70799994 2.765583e-39
-0.03583812 -0.056123834 0.71000004 3.132932e-39
-0.034388565 -0.055965714 0.708 3.1329404e-39
-0.033040024 -0.05596574 0.70799994 3.1304055e-39
-0.031646654 -0.05588666 0.70700002 2.6697692e-39
-0.030299993 -0.055886663 0.70700002 2.2098785e-39
-0.028871436 -0.055728577 0.70500004 1.9336602e-39
-0.027489522 -0.055649526 0.704 1.5648762e-39
-0.026111441 -0.055570491 0.70299995 1.6556299e-39
-0.024772389 -0.055570483 0.70300001 1.7481941e-39
-0.02343335 -0.055570491 0.70300001 1.841117e-39
-0.022094293 -0.055570483 0.70300001 1.9340315e-39
-0.020696195 -0.055412386 0.70099998 2.2102583e-39
-0.019360945 -0.055412378 0.70100003 2.4857619e-39
-0.018025689 -0.055412356 0.70100003 2.4857591e-39
-0.016690481 -0.055412389 0.70100003 2.3942838e-39
-0.015355229 -0.055412374 0.70100003 2.5790338e-39
-0.013960005 -0.055175241 0.69800001 2.6697917e-39
-0.012666657 -0.055333328 0.70000005 2.5772387e-39
-0.01130096 -0.055175249 0.69799995 2.3928418e-39
-0.0099714352 -0.055175245 0.69799995 1.7492661e-39
-0.008629526 -0.05509619 0.69700003 1.1053596e-39
-0.0073123807 -0.055175237 0.69800001 7.3624221e-40
-0.0059828563 -0.055175241 0.69800001 3.7859161e-40
-0.0046533374 -0.055175241 0.69799995 6.5087651e-40
-0.0033238111 -0.055175241 0.69799995 8.4207388e-40
-0.0019857222 -0.054938108 0.69499999 1.201158e-39
-0.00066383177 -0.055096213 0.69700003 1.4867272e-39
0.00066378998 -0.055096205 0.69699997 9.3429894e-40
0.0019799974 -0.054780003 0.69299996 2.9577347e-40
0.0032999963 -0.05478001 0.69299996 3.4232208e-39
0.0046733515 -0.055412371 0.70100003 6.5596477e-39
0.0060085785 -0.055412378 0.70099998 1.1077912e-38
0.0073438101 -0.055412382 0.70100003 1.5576399e-38
0.0086790677 -0.055412367 0.70100003 1.2357837e-38
0.010014296 -0.055412374 0.70099998 9.0355879e-39
0.011349544 -0.055412371 0.70100003 4.7759713e-39
0.012684753 -0.055412393 0.70100003 5.5797603e-40
0.014020009 -0.055412371 0.70100003 3.3069242e-39
-0.07733807 -0.057471417 0.74500006 2.8570248e-39
-0.075919054 -0.057471443 0.745 2.9484931e-39
-0.074300013 -0.057317156 0.74299997 2.9477771e-39
-0.072786689 -0.057240028 0.74200004 2.3949718e-39
-0.071373343 -0.05724002 0.74200004 1.7496024e-39
-0.069771424 -0.057085719 0.74000001 1.3815317e-39
-0.068269536 -0.057008591 0.73900002 1.0138226e-39
-0.066680938 -0.056854282 0.73700005 8.2906703e-40
-0.065188587 -0.056777153 0.73600006 7.3724694e-40
-0.06344001 -0.056468595 0.73199999 6.4578419e-40
-0.062045742 -0.056468595 0.73199999 6.4615414e-40
-0.060402852 -0.056237135 0.72900009 9.2310536e-40
-0.058933344 -0.056160014 0.72799999 1.2918837e-39
-0.057546679 -0.056160007 0.72800004 1.4762721e-39
-0.056005713 -0.05600572 0.72600001 1.7525003e-39
-0.054547623 -0.055928577 0.72499996 1.7521458e-39
-0.053020008 -0.055774294 0.72300005 1.8429079e-39
-0.05142856 -0.055542845 0.72000003 1.5666853e-39
-0.050057169 -0.055542886 0.72000003 1.3833689e-39
-0.048618108 -0.055465728 0.71900004 1.2900928e-39
-0.047117155 -0.055311445 0.71699995 1.1975385e-39
-0.045687631 -0.055234294 0.71600002 1.0145821e-39
-0.044138104 -0.055002861 0.71300006 8.3199154e-40
-0.042780031 -0.055002883 0.713 1.1060659e-39
-0.041421931 -0.055002879 0.713 1.4719842e-39
-0.039951432 -0.054848567 0.71100003 1.6581761e-39
-0.038434282 -0.05461714 0.708 1.935835e-39
-0.037085734 -0.05461717 0.70799994 2.3968061e-39
-0.035686661 -0.054540001 0.70700002 2.857064e-39
-0.034339994 -0.054540005 0.70700002 3.132216e-39
-0.032993332 -0.054540005 0.70700002 3.4059176e-39
-0.031557146 -0.054385722 0.70499998 2.8545333e-39
-0.030214291 -0.054385718 0.70499998 2.3028014e-39
-0.028789535 -0.054231443 0.70300001 1.7503507e-39
-0.027372371 -0.05407713 0.70100003 1.1060533e-39
-0.026037144 -0.054077137 0.70099998 1.3808269e-39
-0.024666676 -0.054000013 0.70000005 1.5634399e-39
-0.023333346 -0.054000016 0.69999999 1.7489228e-39
-0.022000002 -0.054000001 0.69999999 1.9329539e-39
-0.020666674 -0.054000001 0.69999999 1.9333126e-39
-0.01933334 -0.054000013 0.69999999 2.024788e-39
-0.017999997 -0.053999998 0.69999999 2.1173396e-39
-0.01661903 -0.053845692 0.69800001 2.2106184e-39
-0.015289529 -0.053845719 0.69799995 2.6705217e-39
-0.013960004 -0.053845715 0.69799995 3.1304111e-39
-0.012612386 -0.053768575 0.69699997 2.946017e-39
-0.011284785 -0.05376859 0.69699997 2.7626978e-39
-0.0099571636 -0.053768586 0.69699997 2.3020783e-39
-0.0086295381 -0.053768586 0.69700003 1.8421722e-39
-0.0073019164 -0.053768579 0.69700003 1.5652182e-39
-0.0059742946 -0.053768575 0.69699997 1.3801094e-39
-0.0046466934 -0.05376859 0.69699997 1.4740931e-39
-0.0033095283 -0.053614296 0.69500005 1.65416e-39
-0.0019828659 -0.053537153 0.69399995 1.6573717e-39
-0.0006609484 -0.053537134 0.69399995 1.7463724e-39
0.00066094665 -0.053537149 0.69399995 1.3837276e-39
0.0019800141 -0.053459983 0.69299996 1.1028541e-39
0.0033000112 -0.053459983 0.69300002 2.490085e-39
0.0046200026 -0.053459994 0.69300002 3.7776414e-39
0.0059400201 -0.053459983 0.69300002 6.0897362e-39
0.0072809346 -0.053614307 0.69500005 8.3916969e-39
0.0086047519 -0.053614292 0.69499999 9.3118203e-39
0.0099999886 -0.05400002 0.69999999 1.0221162e-38
0.011333337 -0.054000005 0.69999999 8.8396387e-39
0.012666667 -0.054000009 0.69999999 7.3663374e-39
0.013940003 -0.053768564 0.69700003 8.8464799e-39
0.01526762 -0.053768571 0.69700003 1.0331338e-38
-0.077545717 -0.056202862 0.74699998 2.765555e-39
-0.075919032 -0.056052372 0.74500006 2.7659039e-39
-0.074300028 -0.055901933 0.74299997 2.7659109e-39
-0.072786681 -0.055826683 0.74200004 2.4904115e-39
-0.071373343 -0.055826683 0.74200004 2.1205373e-39
-0.069771416 -0.055676181 0.74000001 1.6581116e-39
-0.068269521 -0.05560096 0.73899996 1.106007e-39
-0.066590488 -0.055375248 0.73600006 1.011645e-39
-0.065011442 -0.055224773 0.73400003 8.2870969e-40
-0.063440003 -0.055074301 0.73199999 5.5429902e-40
-0.062045734 -0.055074304 0.73199999 1.8696685e-40
-0.060402859 -0.05484857 0.72900003 6.4651427e-40
-0.058933344 -0.054773349 0.72800004 1.1071295e-39
-0.057388559 -0.054622848 0.72599995 1.3844338e-39
-0.055928569 -0.054547619 0.72500002 1.5681062e-39
-0.054547615 -0.054547615 0.72499996 1.7524975e-39
-0.053019997 -0.054397143 0.72300005 1.9351007e-39
-0.051571429 -0.054321904 0.72200006 1.7500032e-39
-0.05005715 -0.054171436 0.72000003 1.565965e-39
-0.048618112 -0.054096207 0.71899998 1.5648804e-39
-0.04711714 -0.053945705 0.71700001 1.4733981e-39
-0.045687623 -0.053870484 0.71600002 1.289004e-39
-0.044138111 -0.053644776 0.71300006 1.105696e-39
-0.042780012 -0.053644776 0.71300006 1.1975371e-39
-0.041305721 -0.053494301 0.71100003 1.2890222e-39
-0.039951455 -0.053494308 0.71099997 1.3812249e-39
-0.038434286 -0.053268567 0.70799994 1.4748582e-39
-0.037033316 -0.05319332 0.70700002 2.0283865e-39
-0.035686657 -0.053193327 0.70700002 2.4882885e-39
-0.034242857 -0.053042859 0.70500004 3.0403833e-39
-0.032899998 -0.053042855 0.70500004 3.5910277e-39
-0.031512391 -0.052967634 0.70400006 3.0389273e-39
-0.030171415 -0.052967608 0.70400006 2.395353e-39
-0.028707627 -0.052741911 0.70099998 1.566314e-39
-0.02733333 -0.052666668 0.70000005 6.4831354e-40
-0.026000001 -0.052666679 0.70000005 1.0145737e-39
-0.024596196 -0.052516192 0.69800001 1.3819297e-39
-0.023266666 -0.052516192 0.69800001 1.6574488e-39
-0.021937141 -0.052516192 0.69800001 1.8407569e-39
-0.02057809 -0.052440949 0.69700003 1.7485584e-39
-0.01925049 -0.052440971 0.69700003 1.5652392e-39
-0.017922867 -0.052440967 0.69699997 1.7485444e-39
-0.016595248 -0.05244096 0.69699997 1.9336588e-39
-0.015267643 -0.052440982 0.69699997 2.7612642e-39
-0.013940001 -0.052440956 0.69700003 3.588504e-39
-0.012576186 -0.052290469 0.69500005 3.4055532e-39
-0.011252384 -0.052290484 0.69500005 3.1300439e-39
-0.0099285683 -0.052290481 0.69500005 2.8545361e-39
-0.0085923923 -0.052215248 0.69399995 2.577945e-39
-0.0072599817 -0.052139986 0.69300002 2.4861011e-39
-0.0059485808 -0.052215248 0.69399995 2.3020713e-39
-0.0046266643 -0.05221523 0.69400001 2.3953418e-39
-0.0033000018 -0.052140009 0.69300002 2.3939068e-39
-0.0019742977 -0.051989537 0.69099998 2.2116722e-39
-0.00065714301 -0.05191429 0.69000006 1.9336658e-39
0.00065808749 -0.051989533 0.69100004 1.9347546e-39
0.0019714329 -0.051914286 0.69000006 1.9329721e-39
0.0032857172 -0.051914286 0.69000006 1.4730884e-39
0.0046199989 -0.052140009 0.69299996 1.0182423e-39
0.0059400164 -0.052139994 0.69299996 1.1118995e-39
0.0072809439 -0.052290488 0.69500005 1.1237265e-39
0.0086047426 -0.052290495 0.69500005 6.2761888e-39
0.0099285636 -0.052290488 0.69500005 1.14222e-38
0.01125236 -0.052290499 0.69500005 1.2810849e-38
0.012612367 -0.052440967 0.69699997 1.4186243e-38
0.013939984 -0.052440971 0.69699997 1.4381048e-38
0.015267611 -0.05244096 0.69700003 1.4471117e-38
-0.077545717 -0.05478001 0.74700004 2.6748041e-39
-0.075919032 -0.054633316 0.74500006 2.6744328e-39
-0.074499987 -0.054633327 0.745 2.6755216e-39
-0.072884798 -0.054486703 0.74299997 2.4000263e-39
-0.071373329 -0.054413341 0.74200004 2.1244904e-39
-0.069771402 -0.054266643 0.74000001 1.8450084e-39
-0.068269528 -0.054193344 0.73899996 1.6584451e-39
-0.066590488 -0.053973351 0.73600006 1.2885682e-39
-0.065011442 -0.053826679 0.73400003 1.0120093e-39
-0.063439995 -0.053679999 0.73199999 6.4540724e-40
-0.061960954 -0.053606667 0.73100001 3.7062943e-40
-0.060320016 -0.053386681 0.72800004 6.4614573e-40
-0.058771435 -0.053240016 0.72599995 1.0138535e-39
-0.057388552 -0.053239986 0.72600001 1.1986062e-39
-0.055928592 -0.053166684 0.72499996 1.2908005e-39
-0.054397147 -0.05302 0.72299999 1.5677419e-39
-0.052946676 -0.052946668 0.722 1.7525045e-39
-0.051428568 -0.0528 0.72000003 1.9340385e-39
-0.049987622 -0.052726667 0.71900004 2.2077401e-39
-0.048482858 -0.052579999 0.71699995 1.841103e-39
-0.047117155 -0.05258001 0.71699995 1.5659454e-39
-0.045560006 -0.052360006 0.71399999 1.4733827e-39
-0.044138122 -0.052286688 0.713 1.3801192e-39
-0.042600043 -0.052066702 0.70999998 1.2890068e-39
-0.041131429 -0.05192 0.708 1.1971783e-39
-0.039782867 -0.051920015 0.70799994 1.1049911e-39
-0.038434301 -0.051920015 0.70799994 1.0128053e-39
-0.036928587 -0.051700018 0.70499998 1.4745023e-39
-0.035585731 -0.051700015 0.70499998 1.9347644e-39
-0.034242872 -0.051700015 0.70499998 2.3968201e-39
-0.032853335 -0.051626671 0.70400006 2.8588591e-39
-0.031467643 -0.051553357 0.70299995 2.5822666e-39
-0.030128587 -0.05155335 0.70300001 2.3063873e-39
-0.028707607 -0.051406652 0.70100003 2.028713e-39
-0.027333355 -0.051333357 0.69999999 1.7524947e-39
-0.025888577 -0.051113337 0.69700003 1.6588697e-39
-0.024560954 -0.051113334 0.69700003 1.6588781e-39
-0.023166683 -0.050966684 0.69500005 2.0255111e-39
-0.021842865 -0.050966673 0.69500005 2.3914083e-39
-0.020519067 -0.05096668 0.69500005 1.8407443e-39
-0.019195247 -0.050966673 0.69500005 1.2897187e-39
-0.017871451 -0.050966688 0.69500005 1.4733771e-39
-0.016547631 -0.05096668 0.69500005 1.6574166e-39
-0.015223816 -0.050966669 0.69499999 2.1169626e-39
-0.013900016 -0.050966676 0.69500005 2.6694217e-39
-0.012558105 -0.050893344 0.69399995 2.8531039e-39
-0.011236189 -0.050893337 0.69400001 3.1293307e-39
-0.0099142948 -0.050893344 0.69399995 2.8545445e-39
-0.0085799824 -0.050819989 0.69300002 2.6697931e-39
-0.0072390549 -0.05067334 0.69099998 2.4871927e-39
-0.005922867 -0.050673336 0.69099998 2.3035259e-39
-0.0046066549 -0.050673321 0.69099998 2.1198577e-39
-0.0032904893 -0.050673347 0.69099998 2.0287579e-39
-0.0019685775 -0.050526675 0.68900001 1.9351469e-39
-0.00065621355 -0.05052669 0.68899995 1.7503899e-39
0.00065617642 -0.050526682 0.68900001 1.7507375e-39
0.001968557 -0.050526682 0.68899995 1.7518235e-39
0.0032809451 -0.050526679 0.68900001 1.4756093e-39
0.004593309 -0.05052669 0.68899995 1.1086149e-39
0.0059142914 -0.050600003 0.69000006 1.2015153e-39
0.007270474 -0.05089334 0.69399995 1.3877003e-39
0.0085800178 -0.050819986 0.69300002 3.6021582e-39
0.0099142864 -0.050893337 0.69399995 5.910995e-39
0.01125237 -0.050966676 0.69500005 8.5821516e-39
0.012576189 -0.050966673 0.69500005 1.1258671e-38
0.013899988 -0.05096668 0.69500005 1.2359995e-38
0.015223801 -0.050966669 0.69500005 1.3463087e-38
0.016547604 -0.050966684 0.69500005 1.4013013e-38
-0.079285726 -0.053571451 0.75000006 2.4889821e-39
-0.077857159 -0.053571444 0.75000006 2.4896926e-39
-0.07612288 -0.053357162 0.74699998 2.4893268e-39
-0.074700005 -0.053357158 0.74699998 2.4914834e-39
-0.072884768 -0.053071443 0.74300003 2.3099705e-39
-0.071469553 -0.053071465 0.74299997 2.0326507e-39
-0.069960028 -0.053000037 0.74200004 2.123033e-39
-0.068269536 -0.052785728 0.73899996 2.1187128e-39
-0.066590481 -0.052571442 0.73600006 1.655934e-39
-0.065011434 -0.052428577 0.73399997 1.1049308e-39
-0.063440003 -0.05228572 0.73200005 8.2835937e-40
-0.061791431 -0.052071434 0.72900003 4.6174046e-40
-0.060320009 -0.052000012 0.72800004 7.3725395e-40
-0.058771413 -0.051857136 0.72600001 9.2129068e-40
-0.057309505 -0.051785696 0.72500002 1.0138521e-39
-0.055928558 -0.051785707 0.72500002 1.0149296e-39
-0.05439714 -0.051642854 0.72299999 1.2915137e-39
-0.052800022 -0.051428594 0.72000003 1.56703e-39
-0.051428571 -0.051428575 0.72000003 2.2091723e-39
-0.049987644 -0.051357169 0.71900004 2.7598195e-39
-0.048415262 -0.051142883 0.71599996 2.2091596e-39
-0.046919994 -0.050999995 0.71400005 1.565937e-39
-0.045496184 -0.050928563 0.71300006 1.5662803e-39
-0.044014297 -0.050785724 0.71100003 1.5655741e-39
-0.042600017 -0.050714303 0.71000004 1.380478e-39
-0.041131433 -0.050571427 0.70799994 1.1053386e-39
-0.03972666 -0.050499987 0.70700002 8.2876575e-40
-0.038271438 -0.050357152 0.70500004 5.5433966e-40
-0.036928575 -0.050357148 0.70500004 9.2204458e-40
-0.035535239 -0.050285719 0.70400006 1.2915446e-39
-0.034194287 -0.050285716 0.70400006 1.6614033e-39
-0.032853328 -0.050285708 0.70400006 2.0305333e-39
-0.031467624 -0.050214298 0.70300001 2.1245156e-39
-0.030042861 -0.050071433 0.70100003 2.213833e-39
-0.028584758 -0.049857143 0.69800001 2.5811679e-39
-0.027216213 -0.049785737 0.69699997 2.8538032e-39
-0.025814287 -0.049642853 0.69500005 2.392832e-39
-0.024490472 -0.04964285 0.69500005 1.842182e-39
-0.023133341 -0.049571436 0.69399995 2.3935593e-39
-0.021842867 -0.049642872 0.69500005 2.8512935e-39
-0.020519055 -0.049642865 0.69500005 1.9325713e-39
-0.019195238 -0.049642857 0.69500005 1.0142178e-39
-0.017845716 -0.049571428 0.69400001 1.1978902e-39
-0.01654762 -0.049642857 0.69500005 1.2886523e-39
-0.015201905 -0.049571428 0.69400001 1.4708911e-39
-0.013879991 -0.049571421 0.69399995 1.6563754e-39
-0.012539991 -0.049499992 0.69300002 2.391079e-39
-0.011220002 -0.049499996 0.69299996 3.1300706e-39
-0.0098714381 -0.049357153 0.69099998 2.948196e-39
-0.0085552465 -0.04935715 0.69099998 2.6723224e-39
-0.0072390549 -0.04935715 0.69100004 2.4890017e-39
-0.005914269 -0.049285699 0.69000006 2.2120505e-39
-0.0045999829 -0.049285702 0.69000006 1.9358182e-39
-0.0032856949 -0.049285706 0.69000006 1.6588823e-39
-0.0019685905 -0.049214315 0.68900001 1.6570943e-39
-0.00065618561 -0.049214285 0.68900001 1.565249e-39
0.00065617642 -0.049214307 0.68899995 1.565958e-39
0.0019628555 -0.049071427 0.68700004 1.5666797e-39
0.0032714177 -0.049071442 0.68700004 1.384808e-39
0.0045933351 -0.049214292 0.68900001 1.1993419e-39
0.005905699 -0.0492143 0.68899995 1.3819353e-39
0.0072285626 -0.049285721 0.69000006 1.5673986e-39
0.0085428506 -0.049285725 0.69000006 9.2526757e-40
0.0098714102 -0.049357161 0.69099998 2.9465103e-40
0.011220017 -0.049499985 0.69300002 4.2565268e-39
0.012540013 -0.049499985 0.69300002 8.2108593e-39
0.013860026 -0.049499977 0.69300002 1.0336375e-38
0.01518002 -0.049499977 0.69300002 1.2354256e-38
0.016523795 -0.04957144 0.69399995 1.3737181e-38
-0.079285719 -0.052142866 0.75000006 2.3967781e-39
-0.077857167 -0.052142885 0.75000006 2.580805e-39
-0.076428592 -0.052142881 0.75000006 2.5818784e-39
-0.074999996 -0.052142862 0.75000006 2.5825945e-39
-0.073080935 -0.051795233 0.74500006 2.3999969e-39
-0.071469553 -0.05165622 0.74299997 2.308153e-39
-0.06996002 -0.051586691 0.74200004 2.3974689e-39
-0.068269499 -0.051378075 0.73900002 2.5786232e-39
-0.066590488 -0.051169537 0.73600006 1.7492269e-39
-0.064834289 -0.050891433 0.73199999 9.2270599e-40
-0.063439995 -0.050891433 0.73199999 6.4540444e-40
-0.061791416 -0.050682846 0.72900003 3.6989935e-40
-0.060154293 -0.050474297 0.72600001 6.4504851e-40
-0.058771413 -0.050474271 0.72600001 9.2056481e-40
-0.057309516 -0.050404761 0.72500002 9.2129068e-40
-0.055774283 -0.050265711 0.72300005 9.2201095e-40
-0.0543219 -0.050196186 0.72200006 1.1982377e-39
-0.052800003 -0.05005715 0.71999997 1.4741085e-39
-0.051357161 -0.049987633 0.71899998 1.7499794e-39
-0.049848575 -0.049848575 0.71700001 2.1173213e-39
-0.048415255 -0.049779065 0.71599996 1.8418149e-39
-0.046920005 -0.049640011 0.71399999 1.5652111e-39
-0.045496192 -0.049570478 0.71300006 1.5669838e-39
-0.043828577 -0.04922286 0.708 1.6599109e-39
-0.042480018 -0.049222872 0.70799994 1.4741015e-39
-0.041073337 -0.049153339 0.70700002 1.2897243e-39
-0.039726678 -0.049153343 0.70700002 1.1057044e-39
-0.03827145 -0.049014308 0.70499998 9.2275224e-40
-0.036876187 -0.048944756 0.70400012 1.014229e-39
-0.035535235 -0.048944756 0.70400006 1.106426e-39
-0.034145724 -0.048875254 0.70299995 1.2000566e-39
-0.032806687 -0.048875269 0.70299995 1.3848024e-39
-0.031378087 -0.048736189 0.70100003 1.5691894e-39
-0.030042861 -0.048736196 0.70099998 1.6592313e-39
-0.028584775 -0.048527632 0.69800001 1.9354552e-39
-0.027216211 -0.048458114 0.69699997 2.2091624e-39
-0.025814276 -0.048319034 0.69500005 1.9336503e-39
-0.024455223 -0.048249513 0.69400001 1.6581453e-39
-0.02313333 -0.048249524 0.69399995 1.9336518e-39
-0.021811433 -0.048249535 0.69399995 2.2080764e-39
-0.020489516 -0.048249524 0.69399995 1.4730267e-39
-0.019167623 -0.048249532 0.69399995 8.305524e-40
-0.017845726 -0.048249539 0.69400001 8.2913289e-40
-0.016523808 -0.048249532 0.69399995 8.2841122e-40
-0.015180005 -0.048180006 0.69299996 2.7626908e-39
-0.013859995 -0.048179995 0.69299996 4.6851657e-39
-0.012503836 -0.048040979 0.69099998 4.2349846e-39
-0.011187626 -0.04804096 0.69099998 3.6836171e-39
-0.0098714326 -0.048040956 0.69100004 2.9482185e-39
-0.0085428469 -0.047971427 0.69000006 2.2142393e-39
-0.0072285775 -0.047971446 0.69000006 1.9362091e-39
-0.0059142914 -0.047971439 0.69000006 1.6603229e-39
-0.004599981 -0.047971413 0.69000006 1.382643e-39
-0.0032856949 -0.047971416 0.69000006 1.19753e-39
-0.0019685701 -0.04790191 0.68900001 1.1046113e-39
-0.00065620797 -0.047901921 0.68900001 1.1038855e-39
0.00065620063 -0.047901899 0.68900001 1.1049533e-39
0.0019599814 -0.047693353 0.68599999 1.1964314e-39
0.0032809526 -0.047901906 0.68900001 1.1056721e-39
0.0045933165 -0.047901925 0.68900001 1.0134863e-39
0.0058885682 -0.04776286 0.68700004 1.1049701e-39
0.0072285831 -0.047971424 0.69000006 1.1964426e-39
0.0085304491 -0.047901925 0.68899995 8.3053138e-40
0.0098571405 -0.047971439 0.69000006 5.5542006e-40
0.011187598 -0.048040971 0.69099998 2.4000571e-39
0.012503807 -0.048040949 0.69099998 4.3282788e-39
0.013820002 -0.048040953 0.69099998 5.2592245e-39
0.015136164 -0.048040975 0.69099998 6.2776994e-39
0.01652379 -0.048249546 0.69399995 9.9644246e-39
-0.077857137 -0.05071428 0.75000006 2.5804407e-39
-0.076428592 -0.050714303 0.75 2.6740698e-39
-0.075000003 -0.050714295 0.75000006 2.6744258e-39
-0.07337521 -0.05057903 0.74800003 2.5825875e-39
-0.071661897 -0.050376181 0.74500006 2.4900261e-39
-0.069960013 -0.050173353 0.74200004 2.7640906e-39
-0.068269521 -0.049970482 0.73900002 2.9452393e-39
-0.066590488 -0.049767632 0.736 1.8396162e-39
-0.064834282 -0.049497139 0.73199999 6.4539603e-40
-0.063439995 -0.049497154 0.73199999 4.6100758e-40
-0.061706662 -0.049226668 0.72800004 2.7734359e-40
-0.060154274 -0.049091417 0.72600001 5.5249975e-40
-0.058690473 -0.049023807 0.72500002 8.2872791e-40
-0.057309516 -0.049023803 0.72500002 8.2873212e-40
-0.055774268 -0.04888856 0.72300005 8.2945519e-40
-0.054321911 -0.048820961 0.72200006 1.1053246e-39
-0.052799989 -0.048685703 0.72000003 1.2900746e-39
-0.051357158 -0.048618108 0.71899998 1.3829905e-39
-0.049848571 -0.048482865 0.71699995 1.474826e-39
-0.048415251 -0.048415251 0.71599996 1.5673804e-39
-0.046920013 -0.048280016 0.71400005 1.5673776e-39
-0.045496203 -0.04821239 0.71300006 1.6599263e-39
-0.043828573 -0.04787429 0.70799994 1.659569e-39
-0.042480007 -0.047874294 0.708 1.5666587e-39
-0.041073333 -0.047806665 0.70700002 1.4737498e-39
-0.039726652 -0.047806654 0.70700002 1.3819185e-39
-0.038271442 -0.047671441 0.70500004 1.2897285e-39
-0.036876179 -0.047603793 0.70400006 1.1053428e-39
-0.035484787 -0.047536217 0.70300001 8.305524e-40
-0.034145713 -0.047536191 0.70300001 8.3126987e-40
-0.032713301 -0.047400925 0.70100003 7.4015464e-40
-0.031333346 -0.047333345 0.69999999 9.245473e-40
-0.030000018 -0.047333352 0.69999999 1.1078582e-39
-0.028543821 -0.047130492 0.69700003 1.2918865e-39
-0.027138107 -0.046995249 0.69500005 1.4748358e-39
-0.025814306 -0.046995256 0.69500005 1.4744729e-39
-0.024455233 -0.04692762 0.69399995 1.382636e-39
-0.023099996 -0.046859995 0.69300002 1.4741127e-39
-0.021779984 -0.04685998 0.69300002 1.4730239e-39
-0.020459989 -0.046859983 0.69300002 1.012759e-39
-0.019139973 -0.046859976 0.69300002 5.5288791e-40
-0.017820001 -0.046859998 0.69299996 4.5964131e-40
-0.016452387 -0.04672477 0.69099998 3.8003635e-40
-0.015114282 -0.046657141 0.69000006 4.0656867e-39
-0.013820009 -0.04672477 0.69099998 7.7394625e-39
-0.012485709 -0.046657141 0.69000006 5.9967377e-39
-0.011171421 -0.046657141 0.69000006 4.2410676e-39
-0.009857133 -0.046657134 0.69000006 3.0389231e-39
-0.0085304976 -0.04658955 0.68899995 1.7503395e-39
-0.0072181094 -0.046589538 0.68900001 1.3804696e-39
-0.0059057288 -0.046589542 0.68899995 1.0134765e-39
-0.0045933407 -0.046589527 0.68900001 9.2019767e-40
-0.0032714363 -0.046454292 0.68700004 7.3652528e-40
-0.0019600037 -0.04638667 0.68600005 6.4397091e-40
-0.00065334135 -0.04638667 0.68600005 5.5248995e-40
0.00065427279 -0.046454299 0.68700004 7.3651687e-40
0.0019599926 -0.046386678 0.68600005 8.2835096e-40
0.0032809544 -0.046589524 0.68900001 8.2835096e-40
0.0045933165 -0.046589542 0.68899995 8.287167e-40
0.0059057064 -0.046589531 0.68900001 8.2800624e-40
0.007228585 -0.046657141 0.69000006 7.3652808e-40
0.0085428543 -0.046657152 0.69000006 7.3724414e-40
0.0098571405 -0.046657149 0.69000006 7.3725535e-40
0.011187617 -0.046724763 0.69099998 5.5216064e-40
0.012503812 -0.046724766 0.69100004 3.7173786e-40
0.01381998 -0.046724785 0.69099998 2.7812832e-40
0.01513619 -0.04672477 0.69099998 2.0356523e-40
-0.077857144 -0.049285721 0.75000006 2.7630285e-39
-0.07642857 -0.049285717 0.75000006 2.5811539e-39
-0.075000018 -0.049285736 0.75 2.4903918e-39
-0.073375218 -0.049154278 0.74800003 2.7644606e-39
-0.071854301 -0.049088586 0.74700004 3.0392426e-39
-0.070242852 -0.048957147 0.745 3.68567e-39
-0.068269514 -0.048562851 0.73900002 4.3234822e-39
-0.066409513 -0.04823428 0.73400003 4.1405133e-39
-0.064834289 -0.048102867 0.73199999 3.9503865e-39
-0.063353315 -0.048037123 0.73100001 2.2076659e-39
-0.061706662 -0.047840003 0.72800004 3.6845882e-40
-0.060154293 -0.047708575 0.72599995 5.5250256e-40
-0.058771405 -0.047708552 0.72600001 7.3689101e-40
-0.057309527 -0.047642864 0.72500002 7.3724975e-40
-0.055774286 -0.047511432 0.72300005 7.3761549e-40
-0.054171424 -0.047314283 0.72000003 8.2981672e-40
-0.05272669 -0.047248598 0.71899998 1.0138478e-39
-0.051357154 -0.047248587 0.71900004 1.0145653e-39
-0.049779069 -0.047051448 0.71599996 1.0152856e-39
-0.048415247 -0.047051437 0.71600002 1.2003929e-39
-0.046920009 -0.046920005 0.71400005 1.3851541e-39
-0.045496192 -0.046854284 0.713 1.4762861e-39
-0.043952394 -0.046657164 0.70999998 1.6592271e-39
-0.042480007 -0.046525721 0.70799994 1.7499738e-39
-0.041073326 -0.046459991 0.70700002 1.8403715e-39
-0.039726648 -0.04645998 0.70700002 1.6570565e-39
-0.038217142 -0.046262857 0.70400006 1.4733925e-39
-0.036823809 -0.046197139 0.70300001 1.1971741e-39
-0.035484795 -0.046197172 0.70299995 9.2166343e-40
-0.034048557 -0.046065707 0.70100003 7.3834696e-40
-0.032713328 -0.04606571 0.70100003 5.5468438e-40
-0.031333324 -0.045999993 0.69999999 6.4724575e-40
-0.029914297 -0.045868583 0.69799995 8.3091534e-40
-0.028543815 -0.045802869 0.69700003 9.234655e-40
-0.027138099 -0.045671429 0.69500005 9.2418016e-40
-0.025777135 -0.045605712 0.69400001 1.0156541e-39
-0.024419976 -0.045539971 0.69300002 1.1993223e-39
-0.02303334 -0.045408573 0.69099998 1.0145723e-39
-0.021779984 -0.045539986 0.69300002 8.2980831e-40
-0.020400979 -0.045408592 0.69099998 2.6650651e-39
-0.019084768 -0.045408573 0.69099998 4.500731e-39
-0.017768577 -0.045408573 0.69099998 4.979671e-39
-0.016452411 -0.045408599 0.69099998 5.5339855e-39
-0.015092405 -0.04527716 0.68899995 6.4642501e-39
-0.013740016 -0.045145731 0.68700004 7.4862465e-39
-0.012431435 -0.045145724 0.68700004 4.8014595e-39
-0.011122849 -0.045145709 0.68700004 2.2242558e-39
-0.0098142903 -0.045145724 0.68700004 1.5684229e-39
-0.0084933508 -0.045080017 0.68600005 1.010573e-39
-0.007197151 -0.045145724 0.68699998 8.279572e-40
-0.0058885701 -0.045145709 0.68700004 6.4393168e-40
-0.004580006 -0.045145724 0.68700004 5.5245772e-40
-0.0032666754 -0.045080002 0.68600005 5.5210319e-40
-0.0019542854 -0.044948567 0.68400002 5.5210599e-40
-0.00065143401 -0.044948574 0.68399996 5.5174866e-40
0.00065142853 -0.044948574 0.68400002 6.4394429e-40
0.0019542798 -0.044948582 0.68399996 6.4430162e-40
0.0032809395 -0.045277167 0.68900001 6.4465755e-40
0.0045933258 -0.045277152 0.68900001 6.4430582e-40
0.0059142951 -0.04534284 0.69000006 6.4431283e-40
0.0072285812 -0.045342844 0.69000006 7.35791e-40
0.0085428506 -0.045342863 0.69000006 6.4467296e-40
0.0098571386 -0.045342855 0.69000006 5.5282486e-40
0.011171427 -0.045342859 0.69000006 5.5281084e-40
0.013535248 -0.049154282 0.74800003 4.6026349e-40
0.014939995 -0.049088579 0.74700004 4.6170262e-40
0.016362863 -0.049088564 0.74700004 4.6213422e-40
-0.077857137 -0.047857139 0.75000006 2.854494e-39
-0.076428577 -0.047857158 0.75000006 2.5800707e-39
-0.075000003 -0.047857154 0.75000006 2.303837e-39
-0.073375225 -0.047729518 0.74800003 2.9452421e-39
-0.071854286 -0.047665711 0.74700004 3.5938597e-39
-0.070054315 -0.047410507 0.74299997 4.7081134e-39
-0.068269514 -0.047155235 0.73900002 5.7154032e-39
-0.066861913 -0.047155242 0.73900002 6.5397408e-39
-0.064834297 -0.046708588 0.73199999 7.2754856e-39
-0.063353345 -0.046644773 0.73100001 3.8671536e-39
-0.061791427 -0.046517141 0.72900003 4.624397e-40
-0.060320001 -0.046453338 0.72800004 5.5213682e-40
-0.058771428 -0.046325713 0.72599995 5.5249555e-40
-0.057309527 -0.046261907 0.72500002 6.4504991e-40
-0.055774294 -0.046134297 0.72300005 6.4577158e-40
-0.054321904 -0.046070479 0.72200006 6.4577719e-40
-0.0528 -0.045942854 0.72000003 6.4577018e-40
-0.051357165 -0.045879062 0.71900004 6.4540444e-40
-0.049779069 -0.045687638 0.71599996 5.5537242e-40
-0.048280016 -0.045560017 0.71399999 9.248766e-40
-0.046919994 -0.045559995 0.71400005 1.2007544e-39
-0.045496203 -0.045496203 0.713 1.3837192e-39
-0.04395242 -0.045304805 0.70999998 1.5677433e-39
-0.042480011 -0.045177151 0.70799994 1.9340035e-39
-0.041073326 -0.045113329 0.70700002 2.2084338e-39
-0.039726663 -0.045113333 0.70700002 1.9318525e-39
-0.038271442 -0.04498573 0.70500004 1.6567117e-39
-0.036876202 -0.044921912 0.70400006 1.3797773e-39
-0.03548478 -0.044858117 0.70300001 1.0131486e-39
-0.034048565 -0.044730473 0.70099998 6.4544368e-40
-0.032666672 -0.044666674 0.70000005 2.7918209e-40
-0.031243818 -0.044539046 0.69800001 4.6249716e-40
-0.029871434 -0.044475246 0.69700003 5.5468998e-40
-0.0284619 -0.044347618 0.69500005 4.6357055e-40
-0.027099064 -0.044283818 0.69399995 3.7208818e-40
-0.025739972 -0.044219974 0.69300002 6.479478e-40
-0.024349526 -0.044092383 0.69099998 9.2236548e-40
-0.023033334 -0.044092387 0.69100004 5.5465355e-40
-0.02171715 -0.044092383 0.69099998 9.4078975e-41
-0.02040096 -0.044092383 0.69099998 4.3174734e-39
-0.019084767 -0.044092383 0.69100004 8.476624e-39
-0.017742861 -0.044028576 0.69000006 9.6073569e-39
-0.016428549 -0.04402855 0.69000006 1.0603567e-38
-0.015048567 -0.043837141 0.68700004 8.9541262e-39
-0.013740009 -0.043837152 0.68700004 7.1887774e-39
-0.012431446 -0.043837164 0.68700004 3.6814241e-39
-0.011122864 -0.043837152 0.68700004 9.9083012e-41
-0.0098000038 -0.043773334 0.68600005 1.8406195e-40
-0.0084933396 -0.043773342 0.68600005 2.7624077e-40
-0.0071866848 -0.043773349 0.68599999 2.7658549e-40
-0.0058800038 -0.043773334 0.68600005 2.7658689e-40
-0.0045733415 -0.043773342 0.68600005 2.7658829e-40
-0.0032666866 -0.043773349 0.68599999 2.7659109e-40
-0.0019514188 -0.043581892 0.68300003 4.5990756e-40
-0.00065048778 -0.043581914 0.68299997 5.5174305e-40
0.0007304778 -0.04894191 0.76700002 5.5174445e-40
0.002191423 -0.048941918 0.76700002 4.6062362e-40
0.0036523733 -0.048941918 0.76700002 4.6098095e-40
0.005086679 -0.048686657 0.76300001 3.6878953e-40
0.0059143007 -0.044028558 0.69000006 5.5210599e-40
0.0072285868 -0.044028562 0.69000006 6.4430022e-40
0.008542873 -0.044028554 0.69000006 5.5246472e-40
0.010714283 -0.047857147 0.75000006 3.6950559e-40
0.01214285 -0.04785715 0.75 4.6205154e-40
0.013535239 -0.047729526 0.74800003 5.5353251e-40
0.014960025 -0.0477295 0.74800003 6.4608968e-40
0.016362865 -0.047665708 0.74700004 6.4504711e-40
-0.07806477 -0.046552397 0.75199997 2.394948e-39
-0.076632395 -0.046552401 0.75200003 2.303481e-39
-0.075199999 -0.046552386 0.75200003 2.3020307e-39
-0.073571444 -0.046428587 0.75000006 2.6697146e-39
-0.071854271 -0.046242837 0.74700004 3.1318306e-39
-0.070242845 -0.046119038 0.74500006 5.3542451e-39
-0.068269521 -0.045747619 0.73900002 7.6576211e-39
