# .PCD v0.7 - Point Cloud Data file format
VERSION 0.7
FIELDS x y z rgb
SIZE 4 4 4 4
TYPE F F F F
COUNT 1 1 1 1
WIDTH 954
HEIGHT 1
VIEWPOINT 0 0 0 1 0 0 0
POINTS 954
DATA ascii
-0.01394 -0.041819993 0.69699997 6.4509055e-40
-0.012612381 -0.041819993 0.69699997 4.6178109e-40
-0.011252378 -0.041699979 0.69500005 1.8626199e-40
-0.0099285711 -0.041699991 0.69500011 4.6175727e-40
-0.0085923783 -0.041639984 0.69400001 6.4616254e-40
-0.0072704758 -0.041639999 0.69400001 8.2985035e-40
-0.0059399973 -0.041579977 0.69299996 9.2169426e-40
-0.0046199942 -0.041579969 0.69300002 6.4619618e-40
-0.003290477 -0.041459996 0.69100004 3.7033095e-40
-0.0019714294 -0.0414 0.69000006 4.1402498e-39
-0.00065713673 -0.041399971 0.69000006 7.8338161e-39
0.0006561976 -0.04133996 0.68900001 8.4978873e-39
0.0019685801 -0.041339956 0.68900001 9.1202011e-39
0.0032809556 -0.041339982 0.68900001 4.5972175e-39
0.004593337 -0.041339982 0.68900001 9.5513905e-41
0.0059057232 -0.041339956 0.68900007 7.3803307e-40
0.0072181039 -0.041339952 0.68900001 1.3815962e-39
0.0085428627 -0.041399967 0.69000006 1.2901166e-39
0.009857147 -0.041399989 0.69 1.1982741e-39
0.011171431 -0.041399986 0.69000006 1.1064316e-39
0.012485713 -0.0414 0.69 1.0142318e-39
0.013780004 -0.041339975 0.68900001 7.3800224e-40
0.015114292 -0.041399971 0.69000006 4.6322863e-40
0.016428575 -0.041399993 0.69 9.2349913e-40
0.017742863 -0.041399989 0.69000006 1.2908341e-39
0.019057149 -0.041399986 0.69 1.6592453e-39
0.020371433 -0.041399982 0.69000006 1.9333126e-39
0.021717146 -0.041459985 0.69100004 1.4701849e-39
0.023100004 -0.041579992 0.69300002 9.3214514e-40
0.024420006 -0.04157998 0.69300002 5.8271077e-39
0.025740007 -0.041579966 0.69300002 1.0685708e-38
0.027099051 -0.041639999 0.69400001 5.4212398e-39
0.028461913 -0.041699961 0.69500011 1.0384743e-40
0.029871434 -0.041819997 0.69700003 8.1140828e-39
0.031199051 -0.041819997 0.69699997 1.6140404e-38
0.032573339 -0.041879985 0.69800001 1.9836106e-38
0.034000009 -0.041999973 0.70000005 2.341769e-38
0.035333335 -0.041999988 0.70000005 2.341769e-38
0.036719061 -0.042059958 0.70100009 2.341769e-38
0.038054295 -0.042059965 0.70100003 2.341769e-38
0.039501909 -0.042179998 0.70299995 2.341769e-38
0.040840957 -0.042179983 0.70300001 2.341769e-38
-0.037714284 -0.041828535 0.72000003 2.8476571e-39
-0.036342859 -0.041828565 0.72000003 4.5929575e-39
-0.034971427 -0.04182855 0.72000003 7.1967046e-39
-0.033599999 -0.041828554 0.71999997 9.7759051e-39
-0.032183811 -0.041770462 0.71899998 5.3426045e-39
-0.03068571 -0.041596167 0.71600002 8.2691884e-40
-0.029117143 -0.041305706 0.71100003 1.1986034e-39
-0.027645713 -0.041131422 0.708 1.6613697e-39
-0.026259998 -0.041073304 0.70700002 1.6602949e-39
-0.024842853 -0.040957116 0.70500004 1.7521289e-39
-0.023499995 -0.040957112 0.70500004 1.3833492e-39
-0.022125708 -0.040899016 0.70400006 9.2346129e-40
-0.020755237 -0.040840942 0.70300001 8.305552e-40
-0.019360948 -0.040724739 0.70100003 8.3019647e-40
-0.017999999 -0.040666658 0.70000005 7.3728338e-40
-0.016666658 -0.040666621 0.70000005 7.3621279e-40
-0.01526762 -0.040492374 0.69699997 7.3657712e-40
-0.013939996 -0.040492352 0.69700003 7.3729179e-40
-0.012612376 -0.040492356 0.69700003 5.5325786e-40
-0.011252373 -0.040376153 0.69500011 2.7737162e-40
-0.0099142892 -0.040318109 0.69400001 4.6173765e-40
-0.0085923802 -0.040318087 0.69400001 6.4650866e-40
-0.0072704768 -0.040318098 0.69400001 8.2984475e-40
-0.005939994 -0.040259965 0.69300002 9.2205019e-40
-0.0046199951 -0.040259976 0.69299996 5.5400195e-40
-0.0032904788 -0.040143825 0.69099998 2.7597592e-40
-0.0019714267 -0.040085707 0.69 3.7757609e-39
-0.00065618119 -0.040027574 0.68900001 7.3796833e-39
0.00065619365 -0.0400276 0.68900001 1.0704511e-38
0.001962862 -0.039911404 0.68700004 1.4000039e-38
0.003280957 -0.040027592 0.68900001 8.1037665e-39
0.0045933374 -0.040027596 0.68900001 2.1126354e-39
0.0058885729 -0.039911419 0.68700004 1.6549517e-39
0.0072180997 -0.040027592 0.68900001 1.1972078e-39
0.0085304836 -0.040027589 0.68900001 1.1975651e-39
0.009842868 -0.040027563 0.68900007 1.1975539e-39
0.011155244 -0.040027589 0.68900001 1.2897369e-39
0.012467626 -0.040027589 0.68900001 1.4730421e-39
0.013780008 -0.040027585 0.68900001 1.1971685e-39
0.015092384 -0.040027611 0.68900001 9.2204458e-40
0.016404772 -0.040027589 0.68900007 1.1986497e-39
0.017717153 -0.040027581 0.68900001 1.4745107e-39
0.019029533 -0.040027581 0.68900001 1.5674168e-39
0.020341918 -0.040027577 0.68900001 1.7521556e-39
0.021685723 -0.040085685 0.69000006 1.1986217e-39
0.023000004 -0.040085703 0.69 5.5544528e-40
0.024349526 -0.040143821 0.69100004 5.1720035e-39
0.025740007 -0.040259976 0.69300002 9.7820596e-39
0.027060011 -0.040259961 0.69300002 7.4657104e-39
0.028420955 -0.04031809 0.69400001 5.1551991e-39
0.029785717 -0.040376186 0.69500005 1.088137e-38
0.031199057 -0.040492352 0.69700003 1.6604616e-38
0.032526679 -0.040492352 0.69700003 2.0015472e-38
0.033902861 -0.040550452 0.69800001 2.341769e-38
0.035333339 -0.040666651 0.70000005 2.341769e-38
0.036719058 -0.040724739 0.70100003 2.341769e-38
0.038054299 -0.040724725 0.70100009 2.341769e-38
0.039501913 -0.040840939 0.70300001 2.341769e-38
0.040840957 -0.040840946 0.70300001 2.341769e-38
-0.03781905 -0.040569518 0.72200006 4.4085466e-39
-0.036342859 -0.040457137 0.72000003 8.5717175e-39
-0.034971427 -0.040457118 0.72000003 1.2001997e-38
-0.033553332 -0.04040093 0.71899998 1.5383673e-38
-0.032183811 -0.040400945 0.71899998 7.7354029e-39
-0.030728575 -0.040288575 0.71700001 9.7997006e-41
-0.029076193 -0.039895233 0.71000004 8.2945939e-40
-0.027645713 -0.039782848 0.70799994 1.5680936e-39
-0.026259998 -0.039726645 0.70700002 1.8443218e-39
-0.024842851 -0.03961426 0.70500004 2.1198325e-39
-0.023499997 -0.039614264 0.70500004 1.6606592e-39
-0.022125712 -0.039558072 0.70400006 1.1074952e-39
-0.020755237 -0.039501909 0.70300001 1.0135101e-39
-0.019360946 -0.039389487 0.70100003 9.213145e-40
-0.017948573 -0.039220944 0.69800001 8.2840281e-40
-0.016619051 -0.03922097 0.69800001 6.4473882e-40
-0.015267615 -0.039164737 0.69700003 7.3622259e-40
-0.013939995 -0.039164737 0.69700003 8.2841122e-40
-0.012576189 -0.039052367 0.69500005 6.4473602e-40
-0.011236187 -0.038996175 0.69400007 3.6922253e-40
-0.0099142855 -0.038996186 0.69400007 5.5252918e-40
-0.0085799964 -0.038939979 0.69300002 6.4580661e-40
-0.0072599989 -0.038939986 0.69299996 8.2912448e-40
-0.0059399959 -0.038939975 0.69300002 9.2204878e-40
-0.0046066646 -0.038827602 0.69100004 5.5507814e-40
-0.0032857123 -0.038771413 0.69 9.3383931e-41
-0.0019685666 -0.038715214 0.68900001 3.4902141e-39
-0.00065428339 -0.038602851 0.68700004 6.9241086e-39
0.00065428711 -0.038602848 0.68700004 1.294016e-38
0.0019600047 -0.038546637 0.68600005 1.8888543e-38
0.0032714277 -0.038602863 0.68700004 1.152114e-38
0.0045733363 -0.038546655 0.68600005 4.1491915e-39
0.0058800005 -0.038546659 0.68599999 2.5718479e-39
0.0071866661 -0.03854667 0.68599999 1.0120906e-39
0.0085057151 -0.038602851 0.68700004 1.1046548e-39
0.0098142922 -0.038602836 0.68700004 1.1979154e-39
0.011122857 -0.038602863 0.68700004 1.5656063e-39
0.012431432 -0.038602844 0.68700004 1.8407499e-39
0.013740002 -0.038602851 0.68700004 1.6559985e-39
0.015092392 -0.038715199 0.68900001 1.381585e-39
0.01640477 -0.038715195 0.68900001 1.4745135e-39
0.01766572 -0.03860284 0.68700004 1.5659847e-39
0.019029528 -0.038715221 0.68900001 1.5666965e-39
0.020341916 -0.038715195 0.68900001 1.5677573e-39
0.021654299 -0.038715191 0.68900001 9.2489342e-40
0.022966672 -0.038715217 0.68900001 1.9312275e-40
0.02431429 -0.038771432 0.69 4.5227076e-39
0.025628582 -0.038771402 0.69000006 8.8558462e-39
0.026981907 -0.038827632 0.69099998 9.5966398e-39
0.02838001 -0.03893996 0.69300002 1.0235237e-38
0.029742869 -0.038996175 0.69400001 1.3650783e-38
0.031109529 -0.03905236 0.69500005 1.706128e-38
0.032526676 -0.039164737 0.69700003 2.029528e-38
0.033854291 -0.039164759 0.69700003 2.3417689e-38
0.035333339 -0.039333314 0.70000011 2.341769e-38
0.036719058 -0.039389491 0.70100003 2.341769e-38
0.038054299 -0.03938948 0.70100009 2.341769e-38
0.039501913 -0.039501905 0.70300001 2.341769e-38
0.040840954 -0.039501913 0.70300001 2.341769e-38
-0.039085716 -0.039085697 0.72000003 2.296312e-39
-0.037819047 -0.039194271 0.72200006 7.5596969e-39
-0.036342859 -0.039085709 0.72000003 1.2824189e-38
-0.034971427 -0.039085694 0.72000003 1.4204685e-38
-0.033553332 -0.039031412 0.71899998 1.5582473e-38
-0.032183807 -0.03903142 0.71899998 7.8348251e-39
-0.030728575 -0.038922872 0.71700001 9.2279708e-41
-0.028994286 -0.038434289 0.70799994 9.2164381e-40
-0.027645713 -0.038434282 0.70799994 1.7531939e-39
-0.02618571 -0.038271416 0.70500004 1.7524835e-39
-0.024807617 -0.038217127 0.70400006 1.7521346e-39
-0.023466669 -0.038217157 0.70400006 1.5673972e-39
-0.022094281 -0.038162842 0.70300001 1.3826486e-39
-0.020696186 -0.038054258 0.70100003 1.1978986e-39
-0.019333325 -0.037999965 0.70000005 1.1053456e-39
-0.017948573 -0.037891421 0.69800001 8.2948041e-40
-0.016595233 -0.037837114 0.69700003 5.5326486e-40
-0.015223809 -0.037728552 0.69500005 9.2025652e-40
-0.013899999 -0.037728559 0.69500005 1.2872328e-39
-0.012576184 -0.037728537 0.69500011 9.2024251e-40
-0.01123619 -0.037674278 0.69400001 6.454633e-40
-0.0099000018 -0.037620001 0.69300002 7.3694987e-40
-0.0085552391 -0.03751142 0.69099998 8.2985035e-40
-0.0072390512 -0.037511446 0.69100004 7.3800365e-40
-0.0059228591 -0.037511438 0.69100004 7.3909386e-40
-0.0045999978 -0.037457131 0.69 6.4619618e-40
-0.0032857119 -0.037457127 0.69000006 6.4403958e-40
-0.0019685652 -0.037402824 0.68900001 2.1202192e-39
-0.00065428898 -0.037294298 0.68700004 3.5193961e-39
0.00065333449 -0.037239987 0.68599999 1.2004614e-38
0.0019600007 -0.037239999 0.68599999 2.0378777e-38
0.00326667 -0.037239984 0.68600005 1.5394819e-38
0.0045733396 -0.037239965 0.68600005 1.0308658e-38
0.0058800057 -0.037239969 0.68600005 5.4258977e-39
0.0071866703 -0.03723998 0.68600005 5.51467e-40
0.0084933368 -0.037239987 0.68600005 7.3695547e-40
0.0098000066 -0.037239969 0.68600005 8.3165242e-40
0.011122862 -0.037294269 0.68700004 1.1986273e-39
0.012431432 -0.037294269 0.68700004 1.4741324e-39
0.013740002 -0.037294276 0.68700004 1.197907e-39
0.015092387 -0.037402838 0.68900001 9.2312919e-40
0.016357146 -0.037294284 0.68700004 1.2901222e-39
0.017665721 -0.037294265 0.68700004 1.5645469e-39
0.018974287 -0.037294295 0.68700004 1.5659763e-39
0.020282863 -0.037294276 0.68700004 1.5681062e-39
0.021654295 -0.037402831 0.68900001 9.2380041e-40
0.022966675 -0.037402827 0.68900001 2.7885699e-40
0.024314292 -0.037457108 0.69000006 3.7833699e-39
0.025665721 -0.037511416 0.69100004 7.2057121e-39
0.026981911 -0.037511434 0.69100004 9.0464017e-39
0.02838001 -0.037619971 0.69300002 1.0884572e-38
0.029742865 -0.037674282 0.69400001 1.1532108e-38
0.031109529 -0.037728559 0.69500005 1.2276505e-38
0.032433342 -0.037728541 0.69500011 1.7800652e-38
0.033854291 -0.037837144 0.69699997 2.3325852e-38
0.035232387 -0.037891433 0.69800001 2.3325854e-38
0.036666669 -0.037999988 0.70000005 2.341769e-38
0.038054299 -0.038054261 0.70100003 2.341769e-38
0.039389536 -0.038054246 0.70100009 2.341769e-38
0.040724773 -0.038054258 0.70100003 2.341769e-38
-0.039085716 -0.037714273 0.72000003 4.3386106e-39
-0.037819047 -0.037819028 0.72200006 1.070944e-38
-0.036342859 -0.037714284 0.72000003 1.6960048e-38
-0.034971427 -0.037714265 0.72000003 1.6318331e-38
-0.033553332 -0.037661888 0.71899998 1.5666773e-38
-0.032094289 -0.037557125 0.71700001 7.9291731e-39
-0.030685714 -0.037504766 0.71600002 1.0052074e-40
-0.029199047 -0.037347626 0.713 1.0120248e-39
-0.027645709 -0.03708569 0.708 1.9343454e-39
-0.026185714 -0.036928568 0.70500004 1.6606522e-39
-0.024807619 -0.036876183 0.70400006 1.3840751e-39
-0.023466662 -0.036876164 0.70400006 1.4744827e-39
-0.022094283 -0.036823805 0.70300001 1.5655993e-39
-0.020696186 -0.036719009 0.70100003 1.4730449e-39
-0.019333331 -0.03666665 0.70000005 1.2890152e-39
-0.017948579 -0.036561921 0.69800001 9.2203197e-40
-0.016595233 -0.036509495 0.69699997 4.6178249e-40
-0.015223808 -0.036404748 0.69500005 1.1039177e-39
-0.013880001 -0.036352389 0.69400001 1.6549265e-39
-0.012558095 -0.03635237 0.69400001 1.287223e-39
-0.011219995 -0.03629997 0.69300002 9.2060405e-40
-0.009871427 -0.036195233 0.69100004 9.2025232e-40
-0.0085428562 -0.036142848 0.69000006 9.2096698e-40
-0.0072285687 -0.036142841 0.69 7.3800925e-40
-0.005914283 -0.036142841 0.69000006 4.628699e-40
-0.0046000006 -0.036142863 0.69 8.2950423e-40
-0.0032809461 -0.036090445 0.68900001 1.1957644e-39
-0.001962859 -0.035985719 0.68700004 6.433109e-40
-0.00065332575 -0.035933293 0.68600005 1.164507e-40
0.00065333926 -0.035933301 0.68600005 1.0996564e-38
0.0019542896 -0.035828553 0.68400002 2.1846389e-38
0.0032571445 -0.035828568 0.68400002 1.918671e-38
0.0045600086 -0.035828531 0.68400002 1.6483226e-38
0.0058628628 -0.035828542 0.68400002 8.2714066e-39
0.0071657225 -0.035828538 0.68400007 9.3744065e-41
0.0084685767 -0.035828549 0.68400002 2.7598153e-40
0.0097714299 -0.035828557 0.68400002 4.6251678e-40
0.011074292 -0.035828553 0.68400007 8.3057202e-40
0.012377152 -0.035828538 0.68400002 1.1060785e-39
0.013720008 -0.035933301 0.68600005 8.2949582e-40
0.015048574 -0.035985705 0.68700004 4.6324265e-40
0.016357144 -0.035985712 0.68700004 1.0139109e-39
0.017640011 -0.035933301 0.68599999 1.5649141e-39
0.018974295 -0.035985701 0.68700004 1.5649043e-39
0.020282863 -0.035985701 0.68700004 1.566328e-39
0.021591432 -0.035985705 0.68700004 1.0156639e-39
0.022966675 -0.036090445 0.68900001 3.7212602e-40
0.024279056 -0.036090441 0.68900001 2.9428305e-39
0.025628578 -0.036142841 0.69000006 5.5404637e-39
0.02694286 -0.036142834 0.69 8.4989831e-39
0.028298099 -0.036195252 0.69100004 1.1434129e-38
0.029700007 -0.03629997 0.69300002 9.4087229e-39
0.031064769 -0.03635237 0.69400001 7.3941279e-39
0.032386672 -0.036352374 0.69400001 1.5304225e-38
0.033757146 -0.036404766 0.69500005 2.3134284e-38
0.035080958 -0.036404751 0.69500011 2.3325854e-38
0.03640477 -0.036404759 0.69500005 2.341769e-38
0.038054295 -0.036719013 0.70100003 2.341769e-38
0.039389532 -0.036719024 0.70100003 2.341769e-38
0.040724777 -0.036719013 0.70100009 2.341769e-38
0.04206001 -0.036719028 0.70100003 2.341769e-38
-0.036342859 -0.036342852 0.72000003 1.4671728e-38
-0.034971427 -0.036342837 0.72000003 1.3378154e-38
-0.033553336 -0.03629237 0.71899998 1.2092719e-38
-0.031960007 -0.036040012 0.71400005 6.0849312e-39
-0.030471427 -0.03588856 0.71100003 9.226009e-41
-0.029117139 -0.035888541 0.71100008 9.2088571e-40
-0.027645709 -0.03573712 0.708 1.6584718e-39
-0.026259996 -0.035686631 0.70700008 1.567386e-39
-0.024807617 -0.035535213 0.70400006 1.4755533e-39
-0.023466663 -0.035535216 0.70400006 1.566314e-39
-0.022094283 -0.035484746 0.70299995 1.6567145e-39
-0.020666661 -0.035333298 0.70000005 1.3808479e-39
-0.019333331 -0.035333313 0.70000005 1.1964609e-39
-0.01792286 -0.035181906 0.69699997 9.213131e-40
-0.016547617 -0.03508094 0.69500005 5.5289492e-40
-0.015201908 -0.03503048 0.69400001 8.2875874e-40
-0.013879995 -0.035030447 0.69400001 1.1961007e-39
-0.012539996 -0.034979977 0.69300002 1.0124297e-39
-0.011187622 -0.034879062 0.69100004 9.2095717e-40
-0.009857147 -0.034828585 0.69 1.0124367e-39
-0.0085428553 -0.034828551 0.69 1.1039177e-39
-0.0072285696 -0.034828551 0.69000006 8.2949162e-40
-0.0059142872 -0.03482857 0.69 6.465423e-40
-0.0045933267 -0.034778059 0.68900001 9.2205159e-40
-0.0032714289 -0.034677144 0.68700004 1.2883104e-39
-0.0019599958 -0.034626644 0.68600005 6.4401996e-40
-0.00065142155 -0.034525674 0.68400002 9.2405825e-41
0.00065143331 -0.034525689 0.68400002 9.6925587e-39
0.0019542931 -0.034525678 0.68400007 1.9282926e-38
0.003257147 -0.034525692 0.68400002 1.9184289e-38
0.0045600017 -0.034525704 0.68400002 1.9165894e-38
0.0058628665 -0.03452567 0.68400002 1.0497383e-38
0.0071657212 -0.034525685 0.68400002 1.9290387e-39
0.0084685758 -0.034525692 0.68400002 1.1954085e-39
0.0097714346 -0.034525685 0.68400007 5.5507114e-40
0.011074291 -0.0345257 0.68400002 9.2277045e-40
0.012377148 -0.034525689 0.68400007 1.3819493e-39
0.013680008 -0.034525674 0.68400002 1.0146088e-39
0.014982861 -0.034525689 0.68400002 6.4728218e-40
0.016285723 -0.034525678 0.68400007 1.0146396e-39
0.017588578 -0.034525692 0.68400002 1.473803e-39
0.018891433 -0.034525707 0.68400002 1.473789e-39
0.020253338 -0.034626655 0.68600005 1.5656259e-39
0.02156001 -0.034626637 0.68600005 1.2904796e-39
0.022900008 -0.034677114 0.68700004 1.0160493e-39
0.02420857 -0.03467714 0.68700004 2.3053322e-39
0.025591435 -0.034778081 0.68900001 3.6980028e-39
0.026903819 -0.034778051 0.68900001 7.7553378e-39
0.028257152 -0.034828562 0.69 1.180145e-38
0.029614288 -0.034879066 0.69100004 9.7735047e-39
0.03093048 -0.034879062 0.69100004 7.8317534e-39
0.032340009 -0.034979977 0.69300002 1.4291872e-38
0.033660006 -0.034979988 0.69300002 2.0754449e-38
0.03503048 -0.035030473 0.69400001 2.2040158e-38
0.03640477 -0.035080928 0.69500011 2.341769e-38
0.037891433 -0.035232369 0.69799995 2.341769e-38
0.039333336 -0.03533332 0.70000005 2.341769e-38
0.040666677 -0.035333309 0.70000005 2.341769e-38
0.042000011 -0.035333306 0.70000011 2.341769e-38
0.043333337 -0.03533332 0.70000005 2.341769e-38
-0.031960003 -0.034679998 0.71399999 4.2259336e-39
-0.030471429 -0.034534276 0.71100008 9.368521e-41
-0.029076193 -0.034485724 0.71000004 7.3652387e-40
-0.027645711 -0.03438855 0.708 1.3829821e-39
-0.026185708 -0.034242824 0.70500004 1.4751987e-39
-0.024807621 -0.034194276 0.70400006 1.4751945e-39
-0.023433333 -0.034145702 0.70299995 1.5663084e-39
-0.022031423 -0.034048535 0.70100003 1.657418e-39
-0.020666664 -0.033999983 0.70000005 1.3811856e-39
-0.0192781 -0.033902876 0.69799995 1.1056889e-39
-0.017922854 -0.033854268 0.69700003 9.2166903e-40
-0.016547617 -0.033757135 0.69500005 6.4544368e-40
-0.015201906 -0.033708561 0.69400001 6.4544088e-40
-0.013859999 -0.033659995 0.69300002 6.4543667e-40
-0.012503809 -0.033562846 0.69100004 8.2910346e-40
-0.01118762 -0.033562861 0.69099998 9.2130469e-40
-0.0098571396 -0.033514261 0.69000006 1.1046254e-39
-0.0085428581 -0.033514284 0.69 1.288302e-39
-0.0072285668 -0.033514254 0.69 1.0135185e-39
-0.0059057116 -0.033465695 0.68900001 7.3873232e-40
-0.00459333 -0.033465695 0.68900001 1.0149591e-39
-0.0032714237 -0.033368543 0.68700004 1.2886635e-39
-0.0019599954 -0.033319976 0.68599999 7.3513098e-40
-0.00065142714 -0.033222847 0.68400002 1.0279225e-40
0.0006514368 -0.033222813 0.68400007 8.3985857e-39
0.0019542922 -0.033222824 0.68400002 1.6602464e-38
0.0032571468 -0.033222839 0.68400002 1.9285093e-38
0.0045600049 -0.033222832 0.68400002 2.1835955e-38
0.0058628591 -0.033222839 0.68400002 1.2806577e-38
0.0071657188 -0.033222824 0.68400002 3.6868429e-39
0.0084561938 -0.033174273 0.68300003 2.2045213e-39
0.0097571472 -0.033174261 0.68300003 6.454717e-40
0.011058095 -0.03317428 0.68300003 1.1064442e-39
0.01235905 -0.033174273 0.68300003 1.5663378e-39
0.013659999 -0.033174288 0.68300003 1.1989944e-39
0.014960955 -0.033174284 0.68300003 8.3166223e-40
0.016261907 -0.033174269 0.68300003 1.1071785e-39
0.017588578 -0.033222839 0.68400002 1.2904824e-39
0.018891437 -0.033222828 0.68400002 1.4737862e-39
0.02019429 -0.033222847 0.68400002 1.5652644e-39
0.021497149 -0.033222836 0.68400007 1.5645483e-39
0.022866674 -0.033319972 0.68599999 1.5652616e-39
0.02417334 -0.03331998 0.68599999 1.6560167e-39
0.025517151 -0.03336855 0.68700004 1.7640582e-39
0.026903814 -0.033465691 0.68900001 6.9305868e-39
0.028216196 -0.033465691 0.68900001 1.2075876e-38
0.029571438 -0.033514265 0.69 1.0143735e-38
0.030885724 -0.033514261 0.69000006 8.2148754e-39
0.032246664 -0.033562876 0.69099998 1.3277353e-38
0.033660006 -0.033659976 0.69300002 1.8259812e-38
0.03503048 -0.033708572 0.69400001 2.0846296e-38
0.036352381 -0.033708587 0.69400001 2.341769e-38
0.037728578 -0.033757128 0.69500005 2.341769e-38
0.039220959 -0.033902843 0.69800001 2.341769e-38
0.040666677 -0.033999972 0.70000011 2.341769e-38
0.042000011 -0.033999965 0.70000005 2.341769e-38
-0.031915236 -0.033273309 0.71300006 2.2980594e-39
-0.030471429 -0.03317998 0.71100008 3.7097555e-40
-0.029076191 -0.033133317 0.71000004 8.3125445e-40
-0.027606666 -0.032993309 0.70700002 1.3858674e-39
-0.026185708 -0.032899976 0.70500004 1.4759218e-39
-0.024807617 -0.032853309 0.70400006 1.4751945e-39
-0.023433337 -0.032806668 0.70299995 1.7499738e-39
-0.022031426 -0.032713309 0.70100003 2.0254648e-39
-0.020666664 -0.032666642 0.70000005 1.6573886e-39
-0.019278096 -0.032573327 0.69800001 1.1982307e-39
-0.017922852 -0.03252665 0.69700003 9.2166623e-40
-0.016523806 -0.032386657 0.69400001 6.4579821e-40
-0.015179995 -0.032339968 0.69300002 7.376295e-40
-0.013859998 -0.032339986 0.69300002 8.2873912e-40
-0.012503812 -0.032246668 0.69100004 8.2944678e-40
-0.01118762 -0.032246664 0.69100004 8.2981812e-40
-0.0098571433 -0.032199997 0.69 9.213075e-40
-0.0085428515 -0.032199968 0.69000006 1.1049855e-39
-0.0072285691 -0.032199986 0.69 9.2167884e-40
-0.0059057102 -0.032153308 0.68900001 7.3836938e-40
-0.0045799995 -0.032059997 0.68700004 9.2240191e-40
-0.0032666614 -0.032013305 0.68600005 1.1982573e-39
-0.0019542833 -0.031919979 0.68400002 6.4472341e-40
-0.00065047207 -0.031873312 0.68300009 9.2372193e-41
0.00065048103 -0.031873304 0.68300009 6.1801578e-39
0.0019514296 -0.031873319 0.68300009 1.2279726e-38
0.0032523852 -0.031873312 0.68300009 1.7071714e-38
0.0045533394 -0.031873304 0.68300009 2.1851756e-38
0.0058542886 -0.031873319 0.68300009 1.5390918e-38
0.0071552433 -0.031873308 0.68300009 8.9193292e-39
0.0084561966 -0.031873304 0.68300009 4.6876643e-39
0.0097571453 -0.031873319 0.68300009 4.6036578e-40
0.0110581 -0.031873312 0.68300009 1.0135354e-39
0.012359053 -0.031873308 0.68300009 1.5670553e-39
0.01366 -0.031873319 0.68300009 1.1064372e-39
0.014960955 -0.031873312 0.68300009 7.3981833e-40
0.016261911 -0.031873304 0.68300009 1.0149703e-39
0.017562861 -0.031873323 0.68300009 1.1982797e-39
0.018863816 -0.031873308 0.68300009 1.3815892e-39
0.020194296 -0.031919964 0.68400007 1.5645441e-39
0.021497149 -0.031919979 0.68400002 1.6567398e-39
0.022800004 -0.031919993 0.68400002 1.7492843e-39
0.02417334 -0.032013319 0.68600005 1.6574404e-39
0.025480011 -0.032013297 0.68600005 1.6589314e-39
0.026825724 -0.032059982 0.68700004 4.528488e-39
0.028216198 -0.032153305 0.68900001 7.3058069e-39
0.029528579 -0.032153301 0.68900001 7.9404171e-39
0.030885721 -0.032199994 0.69000006 8.5861607e-39
0.032200005 -0.03219996 0.69000006 1.2634122e-38
0.033562858 -0.032246672 0.69100004 1.6691422e-38
0.034879051 -0.032246664 0.69100004 2.0014396e-38
0.036352385 -0.032386661 0.69400001 2.341769e-38
0.037674297 -0.032386646 0.69400001 2.341769e-38
0.039052382 -0.032433305 0.69500005 2.341769e-38
0.040492389 -0.032526646 0.69699997 2.341769e-38
0.04188 -0.032573342 0.69799995 2.341769e-38
0.043395247 -0.032713301 0.70100003 2.341769e-38
-0.031915233 -0.031915203 0.71300006 3.6989515e-40
-0.030471426 -0.031825691 0.71100003 5.5536401e-40
-0.029076187 -0.031780932 0.71000004 1.0145457e-39
-0.027645711 -0.031691406 0.70799994 1.3840583e-39
-0.02618571 -0.031557124 0.70500004 1.4751959e-39
-0.024807619 -0.031512365 0.70400006 1.4751931e-39
-0.023433328 -0.031467587 0.70300001 1.9332916e-39
-0.022031421 -0.031378042 0.70100009 2.3924579e-39
-0.020666663 -0.031333305 0.70000011 1.8407176e-39
-0.019250475 -0.031199031 0.69700003 1.2893571e-39
-0.017871425 -0.031109497 0.69500011 1.0131458e-39
-0.016523808 -0.031064756 0.69400001 6.4580241e-40
-0.015179999 -0.031019978 0.69299996 8.3018947e-40
-0.013859999 -0.031019995 0.69300002 9.2130329e-40
-0.012503814 -0.030930493 0.69100004 8.3018246e-40
-0.011187621 -0.030930486 0.69100004 6.4615834e-40
-0.0098571358 -0.030885678 0.69000006 8.2983494e-40
-0.0085428553 -0.030885696 0.69 9.213117e-40
-0.0072180899 -0.030840918 0.68900001 8.2983494e-40
-0.0058885738 -0.030751441 0.68700004 6.4617095e-40
-0.0045799986 -0.030751418 0.68700004 9.2168445e-40
-0.0032666614 -0.030706638 0.68600005 1.1057156e-39
-0.001951428 -0.030572375 0.68300003 6.454633e-40
-0.00065047393 -0.030572364 0.68300003 9.3057428e-41
0.00064953085 -0.030527582 0.68200004 3.9498316e-39
0.0019485751 -0.030527601 0.68200004 7.8496844e-39
0.0032523838 -0.030572368 0.68300003 1.4869792e-38
0.0045533329 -0.030572386 0.68300003 2.1755988e-38
0.0058542872 -0.030572373 0.68300003 1.7986039e-38
0.0071552414 -0.030572366 0.68300003 1.4084738e-38
0.0084561957 -0.030572355 0.68300003 7.1664982e-39
0.0097571425 -0.030572375 0.68300003 1.8521382e-40
0.011058096 -0.030572366 0.68300003 8.280693e-40
0.012359045 -0.030572381 0.68300003 1.4723443e-39
0.013640003 -0.030527603 0.68200004 1.1039163e-39
0.014939057 -0.030527571 0.68200004 6.4654089e-40
0.016238103 -0.030527588 0.68200004 9.2277326e-40
0.017562859 -0.030572373 0.68300003 1.1060827e-39
0.018863814 -0.030572366 0.68300003 1.3808689e-39
0.020164762 -0.030572383 0.68300003 1.5645413e-39
0.021497149 -0.030617129 0.68400002 1.7482151e-39
0.02280001 -0.030617118 0.68400002 1.8407639e-39
0.024102863 -0.030617127 0.68400002 1.7492843e-39
0.025480004 -0.030706659 0.68599999 1.5688727e-39
0.026786668 -0.030706665 0.68599999 2.0341809e-39
0.028134294 -0.030751415 0.68700004 2.5048546e-39
0.029528582 -0.030840911 0.68900001 5.7259311e-39
0.030840956 -0.030840939 0.68900001 8.8505352e-39
0.032200005 -0.030885695 0.69000006 1.198088e-38
0.033514287 -0.030885713 0.69 1.50348e-38
0.034879047 -0.030930482 0.69100004 1.9285093e-38
0.036352381 -0.031064771 0.69400001 2.341769e-38
0.037674297 -0.031064749 0.69400001 2.341769e-38
0.039052382 -0.031109503 0.69500005 2.341769e-38
0.040376198 -0.03110951 0.69500011 2.341769e-38
0.041820005 -0.031199034 0.69700003 2.341769e-38
0.043333344 -0.031333305 0.70000011 2.341769e-38
0.044666674 -0.03133332 0.70000005 2.341769e-38
-0.033320006 -0.030599991 0.71400005 1.0134527e-39
-0.031915236 -0.030557124 0.71300006 9.2272421e-40
-0.030471426 -0.030471401 0.71100003 8.3266556e-40
-0.029117139 -0.030471411 0.71100003 1.1074364e-39
-0.027645713 -0.03034284 0.70799994 1.3851205e-39
-0.02618571 -0.030214272 0.70500004 1.4759036e-39
-0.024807615 -0.0301714 0.70400006 1.6595788e-39
-0.023433331 -0.030128554 0.70300001 1.8425365e-39
-0.021999998 -0.029999981 0.70000011 2.0254858e-39
-0.020607619 -0.029914282 0.69800001 1.6574208e-39
-0.019250475 -0.029871412 0.69699997 1.2893669e-39
-0.017871426 -0.029785693 0.69500005 1.0131486e-39
-0.016523806 -0.029742837 0.69400001 8.2911887e-40
-0.015201904 -0.029742848 0.69400001 8.2911887e-40
-0.013859996 -0.029699974 0.69299996 9.2095717e-40
-0.012503807 -0.029614272 0.69100004 8.2948321e-40
-0.011171425 -0.02957141 0.69 8.2984054e-40
-0.0098571396 -0.02957141 0.69000006 8.2947901e-40
-0.0085304705 -0.02952854 0.68900007 9.2095017e-40
-0.0072180894 -0.029528536 0.68900001 8.294664e-40
-0.0058885692 -0.029442843 0.68700004 8.2983634e-40
-0.0045799986 -0.029442849 0.68700004 9.2240051e-40
-0.0032666663 -0.029399998 0.68599999 1.0149661e-39
-0.0019514294 -0.029271428 0.68300003 9.2134954e-40
-0.00064951862 -0.029228548 0.68200004 8.269917e-40
0.00064952922 -0.029228544 0.68200004 2.394281e-39
0.001948577 -0.029228536 0.68200004 3.9731674e-39
0.003247621 -0.029228557 0.68200004 1.2002779e-38
0.004553332 -0.029271435 0.68300003 1.9917856e-38
0.0058542867 -0.029271429 0.68300003 1.6781464e-38
0.0071552396 -0.029271422 0.68300003 1.3542356e-38
0.0084561883 -0.029271439 0.68300003 7.0850589e-39
0.0097428653 -0.029228533 0.68200004 5.5147541e-40
0.011041909 -0.029228551 0.68200004 1.3787221e-39
0.012340958 -0.029228548 0.68200004 2.2066639e-39
0.013599998 -0.029142857 0.67999995 1.5641602e-39
0.014895236 -0.029142855 0.68000001 9.2132431e-40
0.016190477 -0.029142858 0.68000001 1.0138885e-39
0.017537149 -0.029228546 0.68200004 1.1971979e-39
0.018836198 -0.029228542 0.68200004 1.2890292e-39
0.020164767 -0.029271416 0.68300009 1.4727044e-39
0.021465717 -0.029271429 0.68300003 1.5649015e-39
0.02280001 -0.029314265 0.68400002 1.6570971e-39
0.024102867 -0.029314255 0.68400007 1.8414855e-39
0.025405722 -0.029314268 0.68400002 2.0265999e-39
0.026786674 -0.029399978 0.68600005 2.303907e-39
0.02809334 -0.029399985 0.68600005 2.6673254e-39
0.02944286 -0.029442845 0.68700004 3.5964633e-39
0.030751433 -0.029442851 0.68700004 4.5177554e-39
0.032153334 -0.029528551 0.68900001 7.379071e-39
0.033514291 -0.029571421 0.69000006 1.0344738e-38
0.034879055 -0.029614283 0.69099998 1.6884097e-38
0.036300004 -0.029699981 0.69300002 2.341769e-38
0.037620012 -0.029699966 0.69300002 2.341769e-38
0.03899619 -0.029742859 0.69400001 2.341769e-38
0.040376194 -0.029785704 0.69500005 2.341769e-38
0.041820012 -0.029871413 0.69700003 2.341769e-38
0.043209527 -0.029914286 0.69799995 2.341769e-38
0.044539042 -0.029914284 0.69800001 2.341769e-38
-0.033320006 -0.029240007 0.71400005 1.9329119e-39
-0.031825714 -0.029117128 0.71100003 1.5666769e-39
-0.030428573 -0.029076178 0.71000004 1.1071197e-39
-0.029076193 -0.029076191 0.71000004 1.197858e-39
-0.027645713 -0.028994275 0.708 1.2914983e-39
-0.026259996 -0.028953295 0.70700008 1.5677349e-39
-0.024807617 -0.028830457 0.70400006 1.8436057e-39
-0.023433333 -0.028789518 0.70300001 1.7510584e-39
-0.021937145 -0.02858476 0.69800007 1.5666671e-39
-0.020578086 -0.02854377 0.69700003 1.3819171e-39
-0.019250473 -0.028543796 0.69700003 1.1971713e-39
-0.017871425 -0.028461888 0.69500005 1.1039023e-39
-0.016523808 -0.028420942 0.69400001 9.2023691e-40
-0.015179999 -0.028379973 0.69300002 9.1988518e-40
-0.013820003 -0.028298099 0.69100004 8.2840982e-40
-0.012485712 -0.028257124 0.69 9.1988798e-40
-0.011171426 -0.028257117 0.69000006 9.2096138e-40
-0.0098571433 -0.028257139 0.69 9.2095998e-40
-0.0085304687 -0.028216152 0.68900001 9.2131731e-40
-0.0071971389 -0.028134268 0.68700004 9.2095717e-40
-0.0058799931 -0.028093291 0.68600005 9.2168305e-40
-0.0045599951 -0.028011402 0.68400002 9.2276765e-40
-0.0032571398 -0.028011411 0.68400002 9.2277886e-40
-0.0019514252 -0.027970461 0.68300003 1.2890573e-39
-0.0006495163 -0.027929483 0.68200004 1.5623987e-39
0.00064762234 -0.027847603 0.68000001 8.269861e-40
0.0019428605 -0.027847607 0.68000001 1.1570662e-40
0.0032380938 -0.027847625 0.67999995 9.1576452e-39
0.0045466674 -0.027929515 0.68200004 1.8068565e-38
0.0058457176 -0.027929507 0.68200004 1.5587579e-38
0.0071447706 -0.027929477 0.68200004 1.2986339e-38
0.0084438147 -0.027929496 0.68200004 6.987544e-39
0.0097428625 -0.027929494 0.68200004 9.2709206e-40
0.011041912 -0.02792949 0.68200004 1.9290064e-39
0.012304765 -0.027847607 0.68000001 2.8502327e-39
0.013600001 -0.02784761 0.68000001 2.0247908e-39
0.014895241 -0.027847609 0.68000001 1.1060827e-39
0.016190475 -0.027847631 0.67999995 1.1975651e-39
0.017537151 -0.027929481 0.68200004 1.2893894e-39
0.018836197 -0.027929503 0.68200004 1.2883006e-39
0.020164764 -0.027970469 0.68300003 1.2897453e-39
0.021465719 -0.027970459 0.68300003 1.3812305e-39
0.022766672 -0.027970452 0.68300003 1.4737736e-39
0.02406762 -0.027970472 0.68300003 1.9329413e-39
0.02540572 -0.028011415 0.68400002 2.394288e-39
0.026708581 -0.028011406 0.68400007 2.5790506e-39
0.028011439 -0.028011391 0.68400002 2.7620195e-39
0.029400004 -0.028093323 0.68599999 1.4749031e-39
0.030706676 -0.02809331 0.68600005 1.0098738e-40
0.032153338 -0.028216163 0.68900001 2.8567978e-39
0.033514287 -0.028257124 0.69 5.5459287e-39
0.034879051 -0.028298086 0.69100004 1.448884e-38
0.036300004 -0.02837999 0.69300002 2.3412668e-38
0.037620008 -0.02837998 0.69300002 2.341769e-38
0.038996197 -0.028420942 0.69400001 2.341769e-38
0.040318098 -0.028420951 0.69400001 2.341769e-38
0.041820008 -0.028543793 0.69699997 2.341769e-38
0.043209527 -0.028584765 0.69800001 2.341769e-38
0.044539046 -0.028584758 0.69800001 2.341769e-38
-0.031780954 -0.027723808 0.71000004 1.4741506e-39
-0.03042857 -0.027723795 0.71000004 1.1979028e-39
-0.029076193 -0.027723808 0.71000004 1.2897131e-39
-0.027606662 -0.027606634 0.70700002 1.2907893e-39
-0.026259994 -0.027606634 0.70700002 1.4758952e-39
-0.024772381 -0.027450476 0.70300001 1.7528436e-39
-0.023366662 -0.027372342 0.70100009 1.4766253e-39
-0.021937143 -0.027255235 0.69800001 1.2004013e-39
-0.020578092 -0.027216179 0.69700003 1.1071309e-39
-0.019250475 -0.027216176 0.69700003 1.1049757e-39
-0.017871423 -0.027138058 0.69500011 1.0127787e-39
-0.016523808 -0.027099047 0.69400001 9.2023831e-40
-0.015136193 -0.026981901 0.69099998 9.2024952e-40
-0.013820005 -0.026981927 0.69099998 9.2024952e-40
-0.01248571 -0.026942831 0.69000006 8.2877275e-40
-0.01115523 -0.026903767 0.68900001 7.3801205e-40
-0.009842854 -0.026903789 0.68900001 8.2984475e-40
-0.0085057151 -0.026825719 0.68700004 8.2984895e-40
-0.0071971444 -0.026825717 0.68700004 7.3801626e-40
-0.0058799991 -0.026786651 0.68600005 6.4618637e-40
-0.0045599965 -0.026708545 0.68400002 8.3058043e-40
-0.0032571366 -0.02670854 0.68400007 1.1071743e-39
-0.0019485675 -0.026630452 0.68200004 1.7475229e-39
-0.00064761873 -0.026552375 0.67999995 2.3882077e-39
0.00064761954 -0.026552379 0.67999995 3.5910263e-39
0.0019428578 -0.026552379 0.68000001 4.8724885e-39
0.0032380961 -0.026552379 0.68000001 9.5956295e-39
0.0045333332 -0.026552381 0.68000001 1.4386869e-38
0.0058285766 -0.026552355 0.68000001 1.3183689e-38
0.007123814 -0.026552359 0.68000001 1.1970786e-38
0.0084190508 -0.026552357 0.68000001 9.0277154e-39
0.0097142858 -0.026552379 0.67999995 5.9952887e-39
0.011009525 -0.026552383 0.67999995 4.2392305e-39
0.012304761 -0.026552383 0.67999995 2.4857633e-39
0.01358 -0.026513331 0.67900002 2.0262425e-39
0.014873332 -0.026513338 0.67900002 1.5663476e-39
0.016190482 -0.026552359 0.68000001 1.6581831e-39
0.017485717 -0.026552362 0.68000001 1.7492815e-39
0.018780958 -0.026552361 0.68000001 1.9336489e-39
0.020076195 -0.026552364 0.68000001 2.2098883e-39
0.021434292 -0.026630456 0.68200004 2.0265901e-39
0.022766666 -0.02666953 0.68300003 1.7499878e-39
0.02406762 -0.026669525 0.68300003 2.1183849e-39
0.025368575 -0.026669513 0.68300003 2.4871871e-39
0.026669525 -0.026669534 0.68300003 2.6726755e-39
0.028011438 -0.026708543 0.68400007 2.8577913e-39
0.029314294 -0.026708554 0.68400002 2.1195284e-39
0.03070667 -0.026786642 0.68600005 1.4727254e-39
0.032013338 -0.026786648 0.68600005 2.1166403e-39
0.033562854 -0.026981916 0.69100004 2.8503672e-39
0.034879051 -0.026981909 0.69100004 1.2175375e-38
0.036300007 -0.027059972 0.69300002 2.158098e-38
0.037620008 -0.027059985 0.69299996 2.2499335e-38
0.038940009 -0.027059976 0.69300002 2.341769e-38
0.040318098 -0.027099054 0.69400001 2.341769e-38
0.041700006 -0.027138077 0.69500005 2.341769e-38
0.043147627 -0.027216177 0.69700003 2.341769e-38
0.044475242 -0.027216181 0.69700003 2.341769e-38
-0.031780954 -0.026371423 0.71000004 1.4737708e-39
-0.030342858 -0.026297146 0.70799994 1.2897285e-39
-0.028994283 -0.026297119 0.708 1.2882809e-39
-0.027528565 -0.02618568 0.70500004 1.2904319e-39
-0.026148567 -0.026148546 0.70400006 1.4755365e-39
-0.024772381 -0.026111415 0.70299995 1.5684552e-39
-0.023366658 -0.026037097 0.70100003 1.2018376e-39
-0.021905711 -0.025888558 0.69700003 8.3341946e-40
-0.020578094 -0.025888558 0.69700003 9.2525496e-40
-0.019195236 -0.025814276 0.69500005 9.2274523e-40
-0.017845709 -0.025777113 0.69400001 9.213117e-40
-0.016523805 -0.025777124 0.69400001 9.2095857e-40
-0.015136191 -0.025665704 0.69100004 9.2096558e-40
-0.013819998 -0.025665697 0.69100004 9.2096698e-40
-0.012485714 -0.025628559 0.69000006 7.3657993e-40
-0.011155235 -0.025591403 0.68900001 5.5398373e-40
-0.0098428493 -0.025591381 0.68900001 6.4653529e-40
-0.0084933331 -0.025479993 0.68599999 7.3873232e-40
-0.0071866619 -0.025479976 0.68599999 5.5506413e-40
-0.0058799926 -0.025479961 0.68600005 2.7956605e-40
-0.0045599928 -0.025405673 0.68400002 7.3803588e-40
-0.0032523782 -0.025368555 0.68300009 1.1975819e-39
-0.0019485693 -0.025331417 0.68200004 2.2056284e-39
-0.00064761686 -0.025257125 0.68000001 3.1390753e-39
0.0006476214 -0.025257129 0.68000001 6.3687684e-39
0.0019400032 -0.025219986 0.67900002 9.5819682e-39
0.0032333306 -0.025220016 0.67899996 1.014844e-38
0.0045266682 -0.025219992 0.67900002 1.0608698e-38
0.0058199959 -0.025220018 0.67899996 1.0789861e-38
0.0071133333 -0.025219997 0.67900002 1.0969912e-38
0.0084066661 -0.025220001 0.67899996 1.1064587e-38
0.0096999994 -0.025220007 0.67900002 1.105269e-38
0.010993331 -0.02522001 0.67899996 6.6391475e-39
0.012286664 -0.025220012 0.67900002 2.1241583e-39
0.013580001 -0.025219994 0.67900002 2.0276761e-39
0.014873334 -0.025219996 0.67900002 1.9351245e-39
0.01616667 -0.025220003 0.67900002 2.0276789e-39
0.017460002 -0.025220005 0.67900002 2.11915e-39
0.018753335 -0.025220009 0.67900002 2.6712336e-39
0.020076193 -0.025257137 0.67999995 3.1307852e-39
0.02137143 -0.025257137 0.68000001 2.5808639e-39
0.022733336 -0.025331413 0.68200004 2.0283949e-39
0.024067622 -0.025368555 0.68300003 2.3031629e-39
0.025368577 -0.025368547 0.68300003 2.4893661e-39
0.02666953 -0.025368564 0.68300003 2.7666873e-39
0.027970484 -0.025368553 0.68300003 2.9503554e-39
0.029271437 -0.025368545 0.68300003 2.8567221e-39
0.03057239 -0.025368566 0.68300009 2.7602119e-39
0.031873338 -0.025368553 0.68300003 1.4698402e-39
0.033174291 -0.025368545 0.68300003 1.0532019e-40
0.034879047 -0.025665734 0.69099998 9.9648198e-39
0.036195241 -0.025665727 0.69099998 1.9728463e-38
0.037511431 -0.025665715 0.69099998 2.158098e-38
0.038940005 -0.025739981 0.69299996 2.341769e-38
0.040260009 -0.025739972 0.69300002 2.341769e-38
0.041699998 -0.025814276 0.69500005 2.341769e-38
0.043023817 -0.025814256 0.69500011 2.341769e-38
0.044347622 -0.025814261 0.69500005 2.341769e-38
-0.031780954 -0.025019046 0.71000004 1.5666615e-39
-0.030342853 -0.024948556 0.708 1.3826318e-39
-0.028953329 -0.024913292 0.70700008 1.2897187e-39
-0.027489521 -0.024807598 0.704 1.2900746e-39
-0.026148569 -0.024807606 0.70400006 1.3833422e-39
-0.024772381 -0.02477238 0.70299995 1.5684552e-39
-0.023366662 -0.024701878 0.70100003 1.4762679e-39
-0.021937145 -0.024596184 0.69799995 1.3840737e-39
-0.020578094 -0.02456094 0.69699997 1.2918795e-39
-0.019195234 -0.02449045 0.69500005 1.1989734e-39
-0.017871426 -0.024490453 0.69500005 1.0135143e-39
-0.016523808 -0.024455223 0.69400001 9.2168024e-40
-0.015136193 -0.024349533 0.69100004 9.2168024e-40
-0.013820003 -0.024349522 0.69100004 9.2204318e-40
-0.01248571 -0.024314266 0.69 7.3765752e-40
-0.011122856 -0.024208559 0.68700004 6.4582203e-40
-0.0097999936 -0.024173297 0.68600005 7.3837359e-40
-0.0084933294 -0.024173303 0.68600005 8.3128668e-40
-0.0071866633 -0.024173314 0.68600005 7.3981132e-40
-0.005862853 -0.024102835 0.68400002 6.4798984e-40
-0.0045599984 -0.024102844 0.68400002 1.198298e-39
-0.0032523794 -0.024067611 0.68300003 1.7489592e-39
-0.0019428561 -0.023961902 0.67999995 2.5855302e-39
-0.00064667064 -0.023926685 0.67900002 3.5215247e-39
0.0006466668 -0.023926666 0.67900002 5.451924e-39
0.00194 -0.023926668 0.67899996 7.387284e-39
0.0032333324 -0.023926672 0.67900002 6.7401279e-39
0.0045266645 -0.023926673 0.67899996 6.0990717e-39
0.0058200033 -0.023926653 0.67900002 5.9107344e-39
0.0071133305 -0.023926683 0.67899996 5.7385092e-39
0.008406668 -0.023926664 0.67900002 5.7244836e-39
0.0096999956 -0.023926685 0.67899996 5.7258653e-39
0.010993334 -0.023926666 0.67900002 3.5988876e-39
0.012286671 -0.023926646 0.67900002 1.4762861e-39
0.013560011 -0.023891391 0.67800003 1.567421e-39
0.014851435 -0.023891399 0.67800003 1.6589006e-39
0.016166667 -0.023926685 0.67900002 1.6592621e-39
0.017460005 -0.02392666 0.67900002 1.7525423e-39
0.018753337 -0.023926664 0.67899996 1.935863e-39
0.020046668 -0.02392667 0.67900002 2.2142548e-39
0.02134 -0.023926673 0.67899996 1.9376875e-39
0.022666667 -0.023961917 0.67999995 1.6632362e-39
0.024032382 -0.024032369 0.68200004 1.9380028e-39
0.025331436 -0.024032339 0.68200004 2.3082328e-39
0.026630489 -0.024032336 0.68200004 2.4922808e-39
0.027970484 -0.024067609 0.68300003 2.6773713e-39
0.029271437 -0.024067601 0.68300003 2.7656026e-39
0.030572383 -0.024067614 0.68300003 2.946031e-39
0.031873338 -0.024067609 0.68300003 1.565256e-39
0.033174291 -0.024067601 0.68300003 9.4531594e-41
0.034828577 -0.024314268 0.69000006 8.2080609e-39
0.036195241 -0.024349524 0.69100004 1.6419133e-38
0.037511434 -0.024349522 0.69100004 1.9923278e-38
0.038771436 -0.024314256 0.69000006 2.341769e-38
0.040143821 -0.024349503 0.69100004 2.341769e-38
0.041460007 -0.024349524 0.69100004 2.341769e-38
0.04296191 -0.024455229 0.69400001 2.341769e-38
0.044283811 -0.024455234 0.69400001 2.341769e-38
-0.030342855 -0.023599986 0.708 1.4748162e-39
-0.028953327 -0.02356663 0.70700008 1.3808269e-39
-0.027528567 -0.023499982 0.70500004 1.1982321e-39
-0.026148571 -0.023466663 0.70400006 1.3829793e-39
-0.024772381 -0.02343332 0.70300001 1.4755393e-39
-0.023366662 -0.02336663 0.70100003 1.7506954e-39
-0.021905705 -0.023233302 0.69700003 1.934365e-39
-0.020578086 -0.0232333 0.69700003 1.6584998e-39
-0.019195233 -0.023166649 0.69500005 1.3819185e-39
-0.017871426 -0.023166645 0.69500005 1.1042624e-39
-0.01652381 -0.02313333 0.69400001 8.2912308e-40
-0.015136196 -0.023033353 0.69099998 8.2949022e-40
-0.013799997 -0.022999978 0.69 8.3021049e-40
-0.012431426 -0.022899982 0.68700004 7.3802046e-40
-0.011106664 -0.022866646 0.68600005 6.4618356e-40
-0.0097999992 -0.022866657 0.68600005 7.3730159e-40
-0.0084685627 -0.022799952 0.68400007 8.3128808e-40
-0.0071657081 -0.022799965 0.68400002 9.2455711e-40
-0.005862854 -0.022799978 0.68400002 9.2420678e-40
-0.0045533297 -0.02276665 0.68300009 1.5667049e-39
-0.003247617 -0.022733321 0.68200004 2.2120659e-39
-0.0019428547 -0.022666657 0.68000001 3.0493488e-39
-0.00064666412 -0.022633322 0.67900002 3.8809241e-39
0.00064666354 -0.022633348 0.67900002 4.5299061e-39
0.0019400009 -0.022633323 0.67900002 5.0748052e-39
0.0032333343 -0.022633325 0.67899996 3.3259693e-39
0.0045266654 -0.022633333 0.67900002 1.4852979e-39
0.0058199996 -0.022633335 0.67899996 9.2350894e-40
0.0071133324 -0.022633342 0.67900002 3.8036986e-40
0.0083942935 -0.02259995 0.67800003 3.6923234e-40
0.0096857212 -0.02259996 0.67800003 2.84905e-40
0.010977148 -0.022599967 0.67800003 5.5464795e-40
0.012286667 -0.022633331 0.67900002 8.3053278e-40
0.013560004 -0.022599978 0.67800003 1.1064176e-39
0.014851437 -0.02259996 0.67800009 1.2897341e-39
0.016142866 -0.022599969 0.67800009 1.2890194e-39
0.017434293 -0.022599975 0.67800003 1.2897397e-39
0.018725729 -0.022599954 0.67800003 1.2893852e-39
0.020017153 -0.022599962 0.67800003 1.1993405e-39
0.02130858 -0.022599971 0.67800003 1.1996979e-39
0.022600012 -0.02259995 0.67800009 1.2007755e-39
0.023961913 -0.022666639 0.68000001 1.6610319e-39
0.025257146 -0.022666642 0.68000001 2.0305431e-39
0.02666953 -0.02276665 0.68300009 2.2171008e-39
0.027970487 -0.022766639 0.68300003 2.3074972e-39
0.032057144 -0.024933338 0.74800003 2.7663117e-39
0.033481907 -0.024933338 0.74800003 3.1304181e-39
0.034879055 -0.023033332 0.69099998 6.5374105e-39
0.036195245 -0.023033325 0.69099998 1.3005778e-38
0.037511431 -0.023033341 0.69100004 1.8274902e-38
0.03882762 -0.023033334 0.69100004 2.341769e-38
0.040085725 -0.022999983 0.69000006 2.341769e-38
0.041460011 -0.023033321 0.69100004 2.341769e-38
0.042900007 -0.023099963 0.69300002 2.341769e-38
0.044220012 -0.023099981 0.69300002 2.341769e-38
-0.030342853 -0.022251416 0.708 1.3840485e-39
-0.028953329 -0.022219967 0.70700002 1.1074616e-39
-0.027450476 -0.022094274 0.70300001 8.3088311e-40
-0.026037142 -0.022031406 0.70100003 1.1996628e-39
-0.02477238 -0.022094261 0.70300001 1.567372e-39
-0.023266666 -0.021937136 0.69799995 2.1183919e-39
-0.021905709 -0.021905685 0.69700003 2.5764932e-39
-0.020578092 -0.021905707 0.69700003 2.0254788e-39
-0.019195234 -0.021842843 0.69500005 1.4744645e-39
-0.017845711 -0.0218114 0.69400001 1.288997e-39
-0.016499996 -0.021779966 0.69300002 1.1961021e-39
-0.015179998 -0.021779979 0.69300002 1.0135227e-39
-0.01374 -0.021591429 0.68700004 9.2276765e-40
-0.012413329 -0.021559972 0.68599999 8.3129369e-40
-0.011106662 -0.021559982 0.68599999 8.3093496e-40
-0.0097999983 -0.021559993 0.68599999 1.0149647e-39
-0.0084685702 -0.021497127 0.68400002 1.1989902e-39
-0.007165709 -0.021497112 0.68400002 1.0160311e-39
-0.0058542858 -0.021465713 0.68300003 9.2527597e-40
-0.004553332 -0.021465702 0.68300003 1.1071561e-39
-0.0032476138 -0.021434257 0.68200004 1.3815822e-39
-0.0019428571 -0.021371434 0.67999995 1.8461365e-39
-0.00064666738 -0.021340003 0.67899996 2.4018214e-39
0.00064666447 -0.021340007 0.67900002 2.6755412e-39
0.0019399986 -0.021340009 0.67899996 3.034963e-39
0.0032333357 -0.021339988 0.67900002 2.0268956e-39
0.0045266626 -0.021340014 0.67899996 9.1874452e-40
0.005820001 -0.021339996 0.67900002 7.3648043e-40
0.0071028634 -0.021308536 0.67800003 5.5137451e-40
0.0083942907 -0.021308541 0.67800003 4.6025508e-40
0.0096857185 -0.021308549 0.67800003 3.6770772e-40
0.01097715 -0.021308536 0.67800009 5.5281785e-40
0.012268578 -0.021308541 0.67800003 7.3615253e-40
0.013560005 -0.021308545 0.67800003 8.2908524e-40
0.014851433 -0.021308551 0.67800003 9.2056621e-40
0.016142866 -0.02130853 0.67800003 9.2057041e-40
0.017434293 -0.021308539 0.67800003 1.0120444e-39
0.018670481 -0.021245705 0.67600012 1.012759e-39
0.019958097 -0.021245718 0.67600006 9.2090532e-40
0.021245716 -0.021245724 0.67600006 8.2976768e-40
0.022600008 -0.021308541 0.67800003 8.2943417e-40
0.023891438 -0.021308549 0.67800003 1.1071183e-39
0.028042858 -0.02372857 0.75500005 1.4759106e-39
0.029363813 -0.023634268 0.75200009 1.5691964e-39
0.030714294 -0.023571398 0.75000006 1.6606816e-39
0.032057151 -0.023508566 0.74800003 2.1202248e-39
0.033481907 -0.023508586 0.74799997 2.6712392e-39
0.034879051 -0.021717129 0.69100004 4.3329648e-39
0.036195237 -0.02171715 0.69099998 8.3113885e-39
0.037511431 -0.021717142 0.69099998 1.5873906e-38
0.038771432 -0.021685716 0.69 2.341769e-38
0.040085725 -0.02168569 0.69000006 2.341769e-38
0.041460004 -0.021717144 0.69099998 2.341769e-38
0.04296191 -0.021811411 0.69400001 2.341769e-38
0.044283815 -0.02181142 0.69400007 2.341769e-38
-0.027372375 -0.020696152 0.70100003 4.6533198e-40
-0.026037136 -0.020696137 0.70100009 1.1085462e-39
-0.024701905 -0.020696178 0.70100003 1.6599221e-39
-0.023266668 -0.020607617 0.69800001 2.4868059e-39
-0.021905715 -0.02057809 0.69700003 3.2207752e-39
-0.020578094 -0.02057809 0.69699997 2.3921076e-39
-0.019195231 -0.020519014 0.69500005 1.565951e-39
-0.017819995 -0.020459967 0.69300002 1.5645217e-39
-0.016452381 -0.020400958 0.69099998 1.4730548e-39
-0.015092381 -0.02034189 0.68900001 1.2893936e-39
-0.013740002 -0.020282857 0.68700004 1.0156892e-39
-0.012413331 -0.020253312 0.68600005 1.0167738e-39
-0.011106665 -0.020253316 0.68600005 9.2456412e-40
-0.0097714243 -0.02019426 0.68400002 1.2000552e-39
-0.0084685693 -0.020194273 0.68400002 1.4744743e-39
-0.0071657109 -0.020194264 0.68400002 1.1989552e-39
-0.0058542835 -0.020164743 0.68300009 9.2273122e-40
-0.0045533287 -0.020164732 0.68300009 7.3798403e-40
-0.0032476156 -0.020135218 0.68200004 4.6139854e-40
-0.0019428561 -0.020076187 0.68000001 6.436304e-40
-0.00064761873 -0.020076182 0.68000001 8.3052718e-40
0.00064762513 -0.020076159 0.68000001 9.1877255e-40
0.0019399991 -0.020046668 0.67900002 1.012029e-39
0.0032333329 -0.02004667 0.67899996 7.357924e-40
0.004526665 -0.020046677 0.67900002 3.68435e-40
0.0058199982 -0.020046677 0.67899996 5.5173324e-40
0.0071133352 -0.020046657 0.67900002 6.442848e-40
0.0084066633 -0.020046687 0.67899996 5.5316677e-40
0.0097000003 -0.020046663 0.67900002 3.6949858e-40
0.010993334 -0.020046664 0.67899996 5.5281365e-40
0.01226858 -0.020017102 0.67800003 6.4537782e-40
0.013519998 -0.019958105 0.67600006 5.531962e-40
0.014851439 -0.020017091 0.67800009 4.6136491e-40
0.016095245 -0.019958077 0.67600006 6.4468277e-40
0.01949144 -0.022379005 0.75800008 7.368714e-40
0.020880003 -0.022319989 0.75600004 7.3722452e-40
0.022320004 -0.022319989 0.75600004 6.4502049e-40
0.023760004 -0.022319991 0.75600004 5.5281785e-40
0.025200004 -0.022319991 0.7560001 3.6987833e-40
0.026604766 -0.022290468 0.755 6.4575757e-40
