# .PCD v0.7 - Point Cloud Data file format
VERSION 0.7
FIELDS x y z rgb
SIZE 4 4 4 4
TYPE F F F F
COUNT 1 1 1 1
WIDTH 953
HEIGHT 1
VIEWPOINT 0 0 0 1 0 0 0
POINTS 953
DATA ascii
0.020494279 -0.076663777 0.79699999 6.4645121e-40
0.022012373 -0.07666377 0.79699999 6.4609528e-40
0.023559999 -0.076759979 0.79799998 7.3721051e-40
0.025080001 -0.076760001 0.79800004 7.3756644e-40
0.026599996 -0.076759972 0.79799998 8.290418e-40
0.028119998 -0.076759994 0.79800004 8.2939913e-40
0.029602852 -0.076663785 0.79699999 8.2975646e-40
0.031159997 -0.076759987 0.79800004 7.3791817e-40
0.032679997 -0.076759972 0.79800004 6.453638e-40
0.034200002 -0.076760001 0.79800004 5.5316677e-40
0.035720002 -0.076759987 0.79800004 4.6097955e-40
0.037240006 -0.076760016 0.79800004 5.5318079e-40
0.038759999 -0.076759979 0.79800004 7.3615673e-40
0.040279996 -0.076759972 0.79799998 1.195714e-39
0.041800003 -0.076759994 0.79800004 1.6548971e-39
0.043319996 -0.076759957 0.79800004 8.3340404e-40
0.044840004 -0.076760009 0.79800004 9.9119446e-41
-0.0068571498 -0.075428538 0.80000001 3.6913845e-40
-0.0053333337 -0.075428575 0.80000001 2.7730155e-40
-0.003800005 -0.075239979 0.79800004 1.8546606e-40
-0.0022800022 -0.075240001 0.79800004 2.7694282e-40
-0.00076000218 -0.075239994 0.79800004 3.6914405e-40
0.00076000055 -0.075240023 0.79800004 4.6062923e-40
0.0022799948 -0.075239979 0.79800004 5.5209898e-40
0.003799998 -0.075240009 0.79800004 4.5989915e-40
0.0053133266 -0.075145699 0.79699999 3.6842098e-40
0.0068314262 -0.075145714 0.79699999 3.6806225e-40
0.0083495192 -0.075145707 0.79699999 3.6877972e-40
0.0098676123 -0.075145699 0.79699999 3.6913845e-40
0.011385707 -0.075145692 0.79699999 3.6949578e-40
0.012903808 -0.075145707 0.79699999 3.6877832e-40
0.0144219 -0.075145699 0.79699999 2.7730155e-40
0.015939999 -0.075145714 0.79699999 2.7730295e-40
0.017479999 -0.075240009 0.79800004 2.7766309e-40
0.018999998 -0.075240001 0.79800004 2.7802462e-40
0.02051999 -0.075239964 0.79799998 2.7838476e-40
0.022040002 -0.075240009 0.79799998 4.6169982e-40
0.023559995 -0.075239979 0.79799998 6.4536941e-40
0.025079999 -0.075240001 0.79800004 6.4536801e-40
0.026599996 -0.075239994 0.79799998 6.4536661e-40
0.028119996 -0.075239994 0.79800004 6.4500647e-40
0.029639993 -0.075239986 0.79800004 6.4572394e-40
0.031160001 -0.075240009 0.79800004 5.5424717e-40
0.032679997 -0.075239994 0.79799998 4.6169421e-40
0.034200002 -0.075240023 0.79800004 5.5316958e-40
0.035719998 -0.075239986 0.79800004 5.5317518e-40
0.037240002 -0.075240009 0.79800004 7.3721191e-40
0.038759999 -0.075240001 0.79800004 8.2905722e-40
0.040279992 -0.075239971 0.79799998 1.1042148e-39
0.0418 -0.075239994 0.79800004 1.2896836e-39
0.043319996 -0.075239979 0.79799998 7.4082726e-40
0.044840001 -0.075240009 0.79800004 9.7303363e-41
0.046360001 -0.075239994 0.79799998 2.3006812e-39
-0.0083600041 -0.073719993 0.79800004 4.6133128e-40
-0.0068400055 -0.073719986 0.79799998 5.5316677e-40
-0.0053333351 -0.07390476 0.80000001 3.6949578e-40
-0.0038000031 -0.073720001 0.79799998 2.7801902e-40
-0.0022771487 -0.073627599 0.79699999 2.7730155e-40
-0.0007600059 -0.073719986 0.79800004 3.6949718e-40
0.00075999869 -0.073720016 0.79800004 4.6097395e-40
0.0022799985 -0.073720001 0.79800004 6.4428621e-40
0.0037999956 -0.073719993 0.79799998 4.6061521e-40
0.0053199958 -0.073719993 0.79800004 3.6913845e-40
0.0068399943 -0.073719986 0.79799998 3.6877972e-40
0.0083495164 -0.073627584 0.79699999 4.6097395e-40
0.0098676104 -0.073627576 0.79699999 3.6949578e-40
0.011385709 -0.073627599 0.79699999 3.7021325e-40
0.012903804 -0.073627591 0.79699999 3.6949578e-40
0.014421897 -0.073627584 0.79699999 3.6913705e-40
0.015959997 -0.073720001 0.79799998 3.6949578e-40
0.017479997 -0.073720001 0.79800004 4.6169001e-40
0.018999998 -0.073719993 0.79800004 4.6204874e-40
0.020519996 -0.073719986 0.79799998 3.7021465e-40
0.022039998 -0.073720001 0.79800004 5.5352691e-40
0.023559999 -0.073719993 0.79799998 7.3755803e-40
0.025079995 -0.073719993 0.79800004 7.3684057e-40
0.026599996 -0.073719986 0.79799998 6.4500367e-40
0.02812 -0.073720008 0.79800004 6.45361e-40
0.029639995 -0.073719978 0.79800004 5.5352831e-40
0.031160001 -0.073720001 0.79800004 5.5317098e-40
0.032679997 -0.073719986 0.79800004 4.6061942e-40
0.034200002 -0.073720016 0.79800004 4.6097815e-40
0.035720002 -0.073720008 0.79799998 4.6098375e-40
0.037240002 -0.073720001 0.79800004 5.5354092e-40
0.038759999 -0.073719993 0.79800004 6.4645121e-40
0.040279996 -0.073719986 0.79799998 9.2231503e-40
0.041800003 -0.073720008 0.79800004 1.1989005e-39
0.043320004 -0.073720001 0.79799998 9.2339683e-40
0.044840001 -0.073720001 0.79800004 6.4614293e-40
0.046359997 -0.073719986 0.79799998 1.4719898e-39
-0.011457142 -0.072561927 0.80200005 5.5316677e-40
-0.0098800063 -0.072199985 0.79799998 3.6913705e-40
-0.0083600013 -0.072200008 0.79800004 5.5280944e-40
-0.0068571488 -0.072380938 0.79999995 7.3647903e-40
-0.0053333384 -0.072380945 0.80000001 5.5280804e-40
-0.0038095273 -0.072380938 0.80000001 2.7730435e-40
-0.0022800004 -0.072200015 0.79800004 3.6878392e-40
-0.00076000683 -0.072199978 0.79800004 3.6914125e-40
0.00075999775 -0.072200008 0.79800004 5.5281084e-40
0.0022799966 -0.072199993 0.79800004 6.4464774e-40
0.0037999938 -0.072199985 0.79799998 5.5245491e-40
0.0053199995 -0.072200008 0.79800004 3.6914966e-40
0.0068399929 -0.072199978 0.79799998 4.6099216e-40
0.0083599966 -0.0722 0.79800004 4.6134529e-40
0.0098799951 -0.072199993 0.79799998 4.6169842e-40
0.011400001 -0.072200008 0.79800004 3.6985872e-40
0.012919994 -0.072199978 0.79800004 3.7021465e-40
0.014439998 -0.0722 0.79800004 3.6949718e-40
0.015959997 -0.072199993 0.79800004 5.5280944e-40
0.017523803 -0.072380923 0.79999995 6.4572113e-40
0.018999996 -0.072199985 0.79800004 5.5424437e-40
0.020519994 -0.072199978 0.79799998 4.6169141e-40
0.022095235 -0.07238096 0.80000001 6.4464494e-40
0.023619041 -0.07238093 0.80000001 8.2867466e-40
0.025142852 -0.072380923 0.80000001 7.361231e-40
0.026599994 -0.072199978 0.79800004 6.453624e-40
0.02812 -0.0722 0.79800004 5.5424437e-40
0.029639997 -0.072199993 0.79799998 4.6133688e-40
0.031238094 -0.072380953 0.80000001 4.6062222e-40
0.032761898 -0.072380923 0.80000001 4.6062502e-40
0.034200002 -0.072200008 0.79800004 4.6062923e-40
0.035809521 -0.072380953 0.80000001 3.6915106e-40
0.037333328 -0.072380915 0.80000001 4.6170402e-40
0.038759999 -0.072199985 0.79800004 4.6241728e-40
0.040380944 -0.072380923 0.80000001 7.3899717e-40
0.041904751 -0.072380923 0.79999995 1.0152309e-39
0.04332 -0.072199993 0.79799998 1.1081524e-39
0.044840004 -0.072200015 0.79800004 1.1060253e-39
0.046360005 -0.072199985 0.79800004 6.4400454e-40
0.047880001 -0.072200008 0.79800004 1.0460133e-40
-0.011428578 -0.070857123 0.79999995 8.2867326e-40
-0.0098800063 -0.070679978 0.79800004 4.6025648e-40
-0.0083809588 -0.07085713 0.80000001 4.6061521e-40
-0.006857154 -0.0708571 0.80000001 5.5245071e-40
-0.0053333379 -0.070857123 0.80000001 3.6877832e-40
-0.0038095287 -0.070857115 0.80000001 1.8511293e-40
-0.0022799994 -0.070680007 0.79800004 2.7731276e-40
-0.00076000218 -0.07068 0.79800004 3.6914405e-40
0.00076189858 -0.070857123 0.79999995 4.6097535e-40
0.0022857089 -0.070857123 0.80000001 5.5281365e-40
0.0037999947 -0.070679985 0.79799998 6.4501068e-40
0.0053199986 -0.07068 0.79800004 7.3721892e-40
0.0068399976 -0.070679992 0.79799998 6.4467997e-40
0.0083599966 -0.070679992 0.79800004 5.531934e-40
0.0098799951 -0.070679985 0.79800004 4.6098796e-40
0.011400001 -0.070680007 0.79800004 3.6914546e-40
0.012919999 -0.07068 0.79799998 4.6133268e-40
0.014440004 -0.070680022 0.79800004 5.5316817e-40
0.015959997 -0.070679985 0.79800004 5.5316817e-40
0.017523808 -0.070857145 0.80000001 5.5424577e-40
0.019047612 -0.070857115 0.80000001 5.5388704e-40
0.020571422 -0.070857115 0.80000001 6.453624e-40
0.022095237 -0.070857145 0.80000001 7.3647903e-40
0.023619041 -0.070857115 0.80000001 8.2831593e-40
0.02514285 -0.070857108 0.79999995 7.3648043e-40
0.026666665 -0.070857137 0.80000001 5.5352831e-40
0.028190469 -0.070857108 0.80000001 5.5316958e-40
0.029714281 -0.070857108 0.79999995 4.6098095e-40
0.031238094 -0.07085713 0.80000001 4.6098516e-40
0.032761894 -0.070857108 0.80000001 5.5282626e-40
0.034285717 -0.07085713 0.80000001 4.6099637e-40
0.035809513 -0.070857108 0.80000001 3.6915526e-40
0.037333328 -0.0708571 0.79999995 4.6134389e-40
0.038857143 -0.07085713 0.80000001 4.6133828e-40
0.040380951 -0.07085713 0.79999995 6.4607847e-40
0.041904762 -0.070857137 0.80000001 7.3864964e-40
0.04342857 -0.07085713 0.80000001 9.2269618e-40
0.044952374 -0.0708571 0.80000001 1.1070902e-39
0.046476189 -0.07085713 0.80000001 5.5285428e-40
0.048 -0.07085713 0.80000001 9.2382003e-41
0.049523804 -0.070857123 0.79999995 7.5624056e-39
-0.012806673 -0.068553329 0.79100001 1.5640789e-39
-0.011385722 -0.069073297 0.79699999 1.103821e-39
-0.0098800072 -0.069159977 0.79800004 5.5280804e-40
-0.0083600031 -0.069159999 0.79800004 4.6097395e-40
-0.0068571432 -0.069333337 0.80000001 2.7730295e-40
-0.0053333393 -0.069333307 0.80000001 1.8511013e-40
-0.0038095301 -0.069333307 0.79999995 9.3284439e-41
-0.0022800001 -0.069160007 0.79800004 2.7732537e-40
-0.00076000288 -0.069159992 0.79800004 3.6915246e-40
0.00076190324 -0.069333337 0.80000001 4.6133968e-40
0.0022857117 -0.06933333 0.80000001 4.6133828e-40
0.0037999933 -0.069159977 0.79800004 7.372035e-40
0.0053199972 -0.069159999 0.79800004 1.0120023e-39
0.0068399967 -0.069159992 0.79799998 8.2762509e-40
0.0083600003 -0.069160014 0.79800004 6.4430442e-40
0.0098799933 -0.069159977 0.79800004 5.5210179e-40
0.011399999 -0.069160007 0.79800004 3.6914265e-40
0.012919996 -0.069159992 0.79800004 5.5316817e-40
0.014439995 -0.069159985 0.79799998 6.4464494e-40
0.01596 -0.069160007 0.79800004 5.5245071e-40
0.017523807 -0.06933333 0.80000001 3.6914966e-40
0.019047616 -0.069333322 0.80000001 6.4466736e-40
0.02057142 -0.069333293 0.79999995 8.2832714e-40
0.022095235 -0.069333322 0.80000001 8.279586e-40
0.023619043 -0.069333322 0.79999995 8.2832434e-40
0.025142856 -0.069333322 0.80000001 6.4430162e-40
0.026666664 -0.069333322 0.80000001 4.6098516e-40
0.028190475 -0.069333315 0.79999995 4.6062222e-40
0.029714286 -0.069333322 0.80000001 4.6062362e-40
0.031238092 -0.069333315 0.80000001 5.5246192e-40
0.032843813 -0.069506675 0.80200005 5.5246752e-40
0.034285713 -0.069333322 0.80000001 4.6063763e-40
0.035809521 -0.069333315 0.80000001 3.6879653e-40
0.037333336 -0.069333337 0.80000001 4.6062642e-40
0.03885714 -0.069333315 0.80000001 4.6169982e-40
0.040380951 -0.069333307 0.79999995 4.6169561e-40
0.041904759 -0.069333315 0.80000001 4.6242429e-40
0.04342857 -0.069333315 0.80000001 7.3722312e-40
0.044952385 -0.069333345 0.80000001 1.0134471e-39
0.046476189 -0.069333315 0.80000001 5.5175847e-40
0.047999997 -0.069333307 0.80000001 9.2684683e-41
0.049523804 -0.069333315 0.80000001 4.7764001e-39
-0.012839059 -0.06721615 0.79299998 1.1974586e-39
-0.011385724 -0.067555211 0.79700005 9.2122622e-40
-0.0098800045 -0.067639992 0.79799998 7.3647903e-40
-0.0083600041 -0.067639992 0.79800004 4.6097254e-40
-0.0068571446 -0.067809522 0.80000001 2.7730435e-40
-0.0053333426 -0.067809492 0.80000001 2.7694702e-40
-0.0038095333 -0.067809492 0.79999995 1.8512694e-40
-0.0022857182 -0.067809515 0.80000001 2.7697785e-40
-0.00076380942 -0.06797906 0.80200005 3.6916087e-40
0.00076381059 -0.06797906 0.80200005 4.6098516e-40
0.0022857103 -0.067809515 0.80000001 5.5245912e-40
0.003799997 -0.067639992 0.79799998 7.3612591e-40
0.0053199963 -0.067639992 0.79800004 9.1908644e-40
0.0068399948 -0.067639984 0.79800004 7.3577978e-40
0.0083599985 -0.067640007 0.79800004 5.5210319e-40
0.009879997 -0.067639999 0.79799998 4.6061942e-40
0.011399998 -0.067639999 0.79800004 4.6097535e-40
0.012919996 -0.067639984 0.79800004 4.6133128e-40
0.014439994 -0.067639977 0.79799998 5.5280804e-40
0.015999995 -0.067809507 0.79999995 4.6061381e-40
0.017523805 -0.067809515 0.80000001 3.68442e-40
0.01909524 -0.06797906 0.80200005 5.5249415e-40
0.020571426 -0.067809515 0.80000001 8.2762229e-40
0.022150474 -0.067979045 0.80200005 7.3648324e-40
0.023678094 -0.067979045 0.80199999 6.4537922e-40
0.025205716 -0.06797906 0.80200005 5.5283887e-40
0.026733335 -0.06797906 0.80200005 4.6063623e-40
0.02826095 -0.06797903 0.80200005 4.6062642e-40
0.029714286 -0.067809507 0.80000001 4.6062642e-40
0.031238092 -0.0678095 0.80000001 4.6062502e-40
0.03284381 -0.067979053 0.80200005 4.6063063e-40
0.034371432 -0.06797906 0.80200005 4.6063623e-40
0.035899051 -0.06797906 0.80200005 4.6063203e-40
0.037426669 -0.06797906 0.80200005 4.6170262e-40
0.03885714 -0.0678095 0.80000001 4.6242009e-40
0.040481903 -0.067979045 0.80200005 4.6241868e-40
0.042009525 -0.067979053 0.80200005 4.6278162e-40
0.043537147 -0.067979053 0.80199999 7.3793218e-40
0.044952381 -0.06780953 0.80000001 9.2267376e-40
0.046476189 -0.0678095 0.80000001 8.2867887e-40
0.047999997 -0.067809492 0.79999995 6.4328428e-40
0.049523816 -0.067809522 0.80000001 2.6709085e-39
0.051047619 -0.067809522 0.79999995 4.8040365e-39
-0.012839059 -0.065705679 0.79299998 8.2975366e-40
-0.011385722 -0.066037118 0.79699999 8.3010819e-40
-0.0098800054 -0.066119984 0.79800004 8.2867326e-40
-0.008380956 -0.066285707 0.80000001 5.5280804e-40
-0.006857146 -0.066285707 0.80000001 2.7694422e-40
-0.0053333384 -0.0662857 0.79999995 2.7658689e-40
-0.0038190519 -0.066451423 0.80200005 2.7695263e-40
-0.0022857187 -0.0662857 0.80000001 3.684378e-40
-0.0007657191 -0.066617124 0.80400002 3.6879093e-40
0.00076381012 -0.066451438 0.80200005 5.5245772e-40
0.0022914249 -0.066451408 0.80199999 6.4429181e-40
0.0038095175 -0.066285692 0.79999995 7.3576717e-40
0.0053333291 -0.0662857 0.80000001 7.3577138e-40
0.0068399985 -0.066119999 0.79799998 6.4394149e-40
0.0083599975 -0.066119999 0.79800004 4.6062923e-40
0.009879997 -0.066119991 0.79800004 4.6134809e-40
0.011400002 -0.066120006 0.79800004 4.6133968e-40
0.01292 -0.066120006 0.79800004 4.6133128e-40
0.014439994 -0.066119969 0.79799998 3.6949578e-40
0.016000001 -0.066285722 0.80000001 3.6841958e-40
0.017523803 -0.066285692 0.80000001 2.765981e-40
0.01909524 -0.066451438 0.80200005 5.521186e-40
0.020571429 -0.066285722 0.80000001 8.2797261e-40
0.022150474 -0.066451415 0.80199999 6.4429041e-40
0.0236781 -0.066451453 0.80200005 4.6098375e-40
0.025205716 -0.06645143 0.80200005 4.6063203e-40
0.026733335 -0.066451438 0.80199999 3.6879093e-40
0.028260956 -0.066451445 0.80200005 3.6878532e-40
0.029788574 -0.066451438 0.80200005 3.6914405e-40
0.031316187 -0.066451423 0.80200005 3.6914405e-40
0.03284381 -0.066451423 0.80199999 3.6914826e-40
0.034371432 -0.06645143 0.80200005 4.6062782e-40
0.035899047 -0.066451438 0.80200005 5.5353812e-40
0.037426665 -0.066451408 0.80200005 4.6277882e-40
0.038954291 -0.066451445 0.80200005 3.7094753e-40
0.040481903 -0.066451423 0.80200005 4.6278723e-40
0.042009521 -0.066451423 0.80199999 4.6278302e-40
0.043537151 -0.066451438 0.80200005 6.4573235e-40
0.044952378 -0.066285707 0.80000001 8.301222e-40
0.046476189 -0.066285707 0.80000001 1.0134373e-39
0.047999993 -0.066285677 0.79999995 1.1957084e-39
0.049523812 -0.066285707 0.80000001 6.4365422e-40
0.051047616 -0.066285677 0.80000001 1.1537451e-40
-0.011385716 -0.064519055 0.79699999 8.2903199e-40
-0.0098800063 -0.064599983 0.79800004 8.279558e-40
-0.0083600013 -0.064600006 0.79800004 5.5244931e-40
-0.0068571456 -0.064761892 0.80000001 3.6841958e-40
-0.0053333361 -0.064761885 0.79999995 2.7694282e-40
-0.0038190468 -0.06492383 0.80200005 2.7694282e-40
-0.0022857192 -0.064761885 0.80000001 3.6913705e-40
-0.00076381268 -0.064923808 0.80200005 3.6878112e-40
0.00076380733 -0.064923815 0.80199999 4.6061802e-40
0.0022914282 -0.064923815 0.80200005 5.5209478e-40
0.0038190472 -0.064923815 0.80200005 5.5245351e-40
0.0053333282 -0.064761885 0.80000001 5.5245772e-40
0.0068571377 -0.064761885 0.79999995 5.5246052e-40
0.0083600013 -0.064600021 0.79800004 4.6063343e-40
0.0098799951 -0.064599983 0.79800004 5.531948e-40
0.011400001 -0.064600006 0.79800004 6.4465755e-40
0.012919999 -0.064599998 0.79800004 4.6169001e-40
0.014439996 -0.064599991 0.79799998 3.7021325e-40
0.015959997 -0.064599991 0.79800004 3.6913705e-40
0.017567618 -0.064923808 0.80200005 3.6842519e-40
0.019095236 -0.064923815 0.80200005 5.5246052e-40
0.020622859 -0.064923815 0.80199999 6.4429321e-40
0.022150477 -0.06492383 0.80200005 5.5245491e-40
0.023678096 -0.06492383 0.80200005 3.6914265e-40
0.02526857 -0.065085702 0.80400002 3.6914125e-40
0.026733339 -0.064923838 0.80200005 3.6878112e-40
0.028331427 -0.065085694 0.80400002 4.6133268e-40
0.029788572 -0.064923815 0.80200005 4.6169281e-40
0.031316191 -0.06492383 0.80200005 3.6985732e-40
0.032925721 -0.065085724 0.80400002 3.7021745e-40
0.03445714 -0.065085709 0.80400002 4.6169561e-40
0.035988569 -0.065085687 0.80400002 6.4572814e-40
0.037520006 -0.065085731 0.80400002 5.5425418e-40
0.039051432 -0.065085717 0.80400002 4.6242849e-40
0.040582862 -0.065085724 0.80400002 5.5463113e-40
0.042114288 -0.065085702 0.80400002 6.4645542e-40
0.043537151 -0.06492383 0.80200005 7.3792097e-40
0.045064766 -0.064923815 0.80200005 7.3793078e-40
0.046476189 -0.064761892 0.80000001 9.2197031e-40
0.048 -0.064761899 0.80000001 1.1967607e-39
0.049523812 -0.064761892 0.80000001 6.439541e-40
0.051047619 -0.064761885 0.79999995 9.2386206e-41
-0.0098800026 -0.063079998 0.79800004 8.279558e-40
-0.0083809588 -0.063238077 0.80000001 6.4428621e-40
-0.0068571488 -0.063238077 0.80000001 3.6877832e-40
-0.0053333393 -0.063238069 0.79999995 3.6913705e-40
-0.0038190468 -0.063396201 0.80200005 2.7766028e-40
-0.0022914333 -0.063396178 0.80200005 3.6985451e-40
-0.00076381362 -0.063396178 0.80199999 3.6913845e-40
0.00076381385 -0.063396215 0.80200005 3.6878112e-40
0.0022914272 -0.063396193 0.80200005 3.6878112e-40
0.0038190463 -0.063396193 0.80199999 3.6913985e-40
0.005346668 -0.063396208 0.80200005 3.6914125e-40
0.0068571423 -0.063238099 0.80000001 4.6097955e-40
0.0083809467 -0.063238069 0.80000001 4.6134249e-40
0.0099047553 -0.063238069 0.80000001 6.4537642e-40
0.01142857 -0.063238092 0.80000001 7.3720491e-40
0.012952379 -0.063238092 0.80000001 5.5388424e-40
0.014476182 -0.063238062 0.79999995 2.7801902e-40
0.015999999 -0.063238092 0.80000001 3.6913705e-40
0.017567616 -0.063396186 0.80200005 4.6097675e-40
0.019142855 -0.06355428 0.80400002 4.6098095e-40
0.020622859 -0.063396193 0.80200005 4.6062502e-40
0.022205714 -0.06355428 0.80400002 3.6879373e-40
0.023737142 -0.063554287 0.80400002 2.7731136e-40
0.025268568 -0.063554272 0.80400002 3.6949998e-40
0.026799999 -0.06355428 0.80399996 3.6949858e-40
0.028331431 -0.063554294 0.80400002 4.6169141e-40
0.029862855 -0.06355428 0.80400002 5.5388564e-40
0.031394288 -0.06355428 0.80400002 4.6241028e-40
0.032925714 -0.063554265 0.80400002 2.7802182e-40
0.034457143 -0.063554309 0.80400002 4.6169281e-40
0.035988573 -0.063554294 0.80400002 6.4536661e-40
0.037519995 -0.063554272 0.80400002 6.4536941e-40
0.039051428 -0.06355428 0.80400002 5.5425838e-40
0.040582851 -0.063554265 0.80400002 7.3793778e-40
0.042114291 -0.063554302 0.80400002 8.2976487e-40
0.043645713 -0.063554287 0.80400002 7.3792097e-40
0.045064773 -0.063396215 0.80200005 6.4645401e-40
0.046592388 -0.063396193 0.80200005 9.2340664e-40
0.047999997 -0.063238077 0.80000001 1.105277e-39
0.049523808 -0.063238077 0.80000001 6.4322262e-40
0.051047623 -0.063238107 0.80000001 1.0096496e-40
-0.0098800045 -0.061559986 0.79800004 5.5245071e-40
-0.008380956 -0.06171428 0.80000001 4.6097395e-40
-0.0068571502 -0.061714254 0.80000001 3.6913845e-40
-0.0053333342 -0.06171428 0.80000001 2.7766028e-40
-0.0038190477 -0.061868571 0.80200005 2.7766028e-40
-0.0022914342 -0.061868545 0.80199999 2.7766028e-40
-0.00076380849 -0.061868582 0.80200005 3.6949718e-40
0.0007638078 -0.06186856 0.80200005 3.6913845e-40
0.0022914261 -0.061868563 0.80199999 2.7694422e-40
0.0038190526 -0.061868597 0.80200005 3.6913705e-40
0.005346667 -0.061868574 0.80200005 4.6061521e-40
0.0068571405 -0.06171428 0.80000001 4.6097395e-40
0.0083599929 -0.061559971 0.79799998 4.6169281e-40
0.0099047534 -0.061714243 0.80000001 5.5352831e-40
0.011428569 -0.061714273 0.80000001 6.453624e-40
0.012952377 -0.061714273 0.80000001 4.6169001e-40
0.014476188 -0.061714273 0.80000001 2.7801902e-40
0.015999995 -0.061714273 0.80000001 3.6949578e-40
0.017567616 -0.061868556 0.80199999 4.6097535e-40
0.019142855 -0.062022854 0.80400002 5.5281365e-40
0.020674285 -0.062022861 0.80400002 6.4394149e-40
0.022205714 -0.062022839 0.80400002 5.5247313e-40
0.023737136 -0.062022824 0.80400002 4.6062782e-40
0.025268573 -0.062022865 0.80400002 4.6133408e-40
0.026799999 -0.062022846 0.80400002 4.6169141e-40
0.028331429 -0.062022854 0.80400002 4.6169001e-40
0.029862851 -0.062022839 0.80400002 5.5352691e-40
0.031394292 -0.062022876 0.80400002 5.5316817e-40
0.032925718 -0.062022857 0.80400002 5.5245071e-40
0.034457136 -0.062022842 0.80400002 6.4464354e-40
0.036078084 -0.062177088 0.80599999 7.361231e-40
0.037613329 -0.06217711 0.80600005 7.372007e-40
0.039051428 -0.062022846 0.80400002 7.3792517e-40
0.040582854 -0.062022854 0.80400002 6.4573795e-40
0.042114284 -0.062022839 0.80400002 6.4609108e-40
0.04364571 -0.062022842 0.80400002 6.4536661e-40
0.045177151 -0.062022857 0.80400002 7.3757205e-40
0.046592385 -0.061868567 0.80200005 1.0141659e-39
0.048120003 -0.061868567 0.80199999 1.1978229e-39
0.049647626 -0.061868578 0.80200005 6.442848e-40
0.051175248 -0.061868578 0.80200005 9.2324549e-41
-0.008380956 -0.060190465 0.80000001 2.7840577e-40
-0.0068571516 -0.060190439 0.80000001 2.7803303e-40
-0.0053333356 -0.060190465 0.80000001 2.7766028e-40
-0.0038285723 -0.060491428 0.80400002 1.8618352e-40
-0.0022971479 -0.060491413 0.80400002 2.7766169e-40
-0.00076380966 -0.06034096 0.80200005 3.6949998e-40
0.00076571514 -0.060491432 0.80400002 2.7694983e-40
0.002297146 -0.060491446 0.80400002 1.8512274e-40
0.00382857 -0.060491424 0.80400002 3.6916087e-40
0.0053599952 -0.060491409 0.80400002 4.6098796e-40
0.0068742861 -0.06034096 0.80200005 4.6062082e-40
0.0083809476 -0.060190458 0.80000001 3.6949998e-40
0.0099047525 -0.060190428 0.79999995 4.6169281e-40
0.011428568 -0.060190458 0.80000001 4.6169421e-40
0.012984766 -0.060340974 0.80200005 3.6986012e-40
0.01451238 -0.060340948 0.80200005 2.7802182e-40
0.016039995 -0.060340926 0.80200005 3.6913705e-40
0.017611429 -0.060491432 0.80400002 3.6949718e-40
0.019142855 -0.060491417 0.80400002 5.5281224e-40
0.020674279 -0.060491402 0.80400002 7.3612871e-40
0.022205718 -0.060491439 0.80400002 7.3613291e-40
0.023737142 -0.060491417 0.80400002 6.4465054e-40
0.025268568 -0.060491402 0.80400002 5.5352831e-40
0.026799997 -0.060491409 0.80400002 4.6169281e-40
0.028331427 -0.060491428 0.80400002 5.5352691e-40
0.029862858 -0.060491435 0.80400002 5.5353391e-40
0.031394284 -0.060491417 0.80400002 6.4466035e-40
0.032925718 -0.060491417 0.80400002 7.3613011e-40
0.034542847 -0.060641866 0.80599999 7.361231e-40
0.036078088 -0.060641851 0.80599999 7.3684337e-40
0.037613325 -0.060641859 0.80599999 8.290404e-40
0.039148562 -0.060641851 0.80599999 8.2869568e-40
0.040683806 -0.060641874 0.80600005 6.4432124e-40
0.042114288 -0.060491432 0.80400002 3.6952241e-40
0.043645713 -0.060491417 0.80400002 6.4394429e-40
0.045177143 -0.060491424 0.80400002 8.2905582e-40
0.046592381 -0.060340937 0.80199999 1.1052854e-39
0.048120007 -0.060340974 0.80200005 1.2889438e-39
0.049647618 -0.060340952 0.80200005 7.361245e-40
0.05117524 -0.060340952 0.80199999 9.2655256e-41
-0.008380956 -0.05866665 0.80000001 2.7879113e-40
-0.0068571535 -0.05866662 0.80000001 3.7095874e-40
-0.0053333375 -0.05866665 0.80000001 2.7837775e-40
-0.0038285747 -0.058959994 0.80400002 2.7837915e-40
-0.0022971421 -0.058960009 0.80400002 3.6949718e-40
-0.00076571677 -0.058959991 0.80400002 5.5317378e-40
0.00076571328 -0.058959998 0.80400002 4.6098375e-40
0.0022971381 -0.05895998 0.80400002 4.6064324e-40
0.0038285688 -0.058959991 0.80399996 4.6101879e-40
0.0053600008 -0.058960002 0.80400002 4.613607e-40
0.0068914257 -0.058959987 0.80400002 3.6878953e-40
0.0084228553 -0.058959994 0.80400002 2.7694983e-40
0.0099542812 -0.05895998 0.80400002 3.6913985e-40
0.011485718 -0.058960017 0.80400002 4.6133828e-40
0.013017143 -0.058959998 0.80400002 3.6986572e-40
0.014548573 -0.058960006 0.80400002 2.7874209e-40
0.01608 -0.058959987 0.80400002 3.7021325e-40
0.017655233 -0.059106644 0.80599999 3.7021465e-40
0.019142859 -0.058960017 0.80400002 5.5280944e-40
0.020674283 -0.058959994 0.80400002 7.3648043e-40
0.022260942 -0.059106607 0.80599999 6.4464354e-40
0.023796182 -0.059106614 0.80599999 5.5280944e-40
0.025331425 -0.059106641 0.80599999 4.6169281e-40
0.026800001 -0.058960009 0.80400002 4.6169281e-40
0.028331425 -0.058959987 0.80400002 4.6169281e-40
0.029862856 -0.058959994 0.80400002 5.5354232e-40
0.031472366 -0.059106614 0.80599999 5.5283887e-40
0.033007607 -0.059106603 0.80599999 6.4394429e-40
0.034542851 -0.059106652 0.80600005 6.4500787e-40
0.036078088 -0.059106637 0.80599999 7.3792377e-40
0.037613325 -0.059106629 0.80599999 7.3685038e-40
0.039148562 -0.059106637 0.80599999 7.3615393e-40
0.040683802 -0.059106622 0.80599999 5.5286129e-40
0.042219039 -0.059106614 0.80599999 4.6137332e-40
0.043645713 -0.05895998 0.80400002 5.531976e-40
0.045177151 -0.058960021 0.80400002 6.4539183e-40
0.046708573 -0.058960002 0.80400002 9.2161438e-40
0.048239999 -0.058959987 0.80400002 1.105993e-39
0.049647618 -0.058813322 0.80200005 6.4501068e-40
0.051175248 -0.058813356 0.80200005 9.2268497e-41
-0.0083809588 -0.057142835 0.80000001 3.7096434e-40
-0.006857146 -0.057142843 0.80000001 3.7058879e-40
-0.0053333384 -0.057142831 0.80000001 3.7021325e-40
-0.0038190463 -0.05728573 0.80200005 3.6985451e-40
-0.0022914319 -0.0572857 0.80199999 5.5280944e-40
-0.00076571864 -0.057428557 0.80400002 6.4464774e-40
0.00076571119 -0.057428557 0.80399996 6.4429181e-40
0.0023028471 -0.057571381 0.80599999 6.4430162e-40
0.0038380867 -0.057571396 0.80599999 5.5247593e-40
0.0053733233 -0.057571385 0.80599999 4.6098796e-40
0.0069085662 -0.057571407 0.80600005 3.6842519e-40
0.0084438017 -0.057571393 0.80600005 1.8511153e-40
0.0099790422 -0.0575714 0.80599999 2.7694422e-40
0.011514279 -0.057571389 0.80599999 3.6914125e-40
0.013049513 -0.057571381 0.80599999 3.6914265e-40
0.014548573 -0.05742858 0.80400002 2.7838055e-40
0.01611999 -0.057571381 0.80599999 3.7057198e-40
0.017655233 -0.0575714 0.80600005 3.6949718e-40
0.01919047 -0.057571393 0.80600005 5.5209198e-40
0.020725708 -0.0575714 0.80599999 6.4464494e-40
0.022260947 -0.057571393 0.80599999 5.5244931e-40
0.02379618 -0.057571378 0.80599999 3.6985591e-40
0.025331419 -0.05757137 0.80599999 4.6205154e-40
0.026800003 -0.057428569 0.80399996 4.6205154e-40
0.0284019 -0.0575714 0.80600005 4.6169281e-40
0.029862856 -0.057428572 0.80400002 4.6133968e-40
0.031394288 -0.057428572 0.80400002 4.6062923e-40
0.033007611 -0.057571389 0.80599999 4.6169982e-40
0.034542847 -0.057571378 0.80599999 5.5424717e-40
0.036078084 -0.057571366 0.80599999 6.4536661e-40
0.037613332 -0.057571415 0.80600005 6.4429321e-40
0.039148565 -0.0575714 0.80600005 6.4430302e-40
0.040683802 -0.057571393 0.80599999 5.5247593e-40
0.042219039 -0.057571378 0.80599999 4.6171243e-40
0.043754283 -0.057571385 0.80599999 4.6170823e-40
0.045177143 -0.057428557 0.80400002 4.6242849e-40
0.046708573 -0.057428565 0.80400002 7.3758045e-40
0.048239999 -0.057428546 0.80400002 9.2231923e-40
0.049647629 -0.05728573 0.80200005 5.5389265e-40
0.05117524 -0.057285707 0.80200005 9.2977554e-41
-0.0083809588 -0.055619013 0.79999995 2.7838896e-40
-0.0068571432 -0.055619046 0.80000001 2.7802462e-40
-0.0053333403 -0.055619016 0.80000001 3.7021325e-40
-0.0038190528 -0.055758078 0.80200005 3.7021325e-40
-0.0022914279 -0.055758107 0.80200005 4.6169001e-40
-0.00076571235 -0.05589715 0.80400002 6.4464494e-40
0.00076761248 -0.056036156 0.80600005 6.4464634e-40
0.0023028527 -0.056036167 0.80599999 7.361245e-40
0.0038380886 -0.056036156 0.80599999 7.3612591e-40
0.0053733247 -0.056036144 0.80599999 6.4464634e-40
0.0069085606 -0.056036133 0.80599999 4.6097254e-40
0.0084438007 -0.056036148 0.80599999 2.7694282e-40
0.010003809 -0.056175236 0.80799997 3.6913705e-40
0.011542855 -0.056175228 0.80799997 3.6913705e-40
0.013049519 -0.056036163 0.80599999 3.6949578e-40
0.014584755 -0.056036156 0.80599999 3.6985451e-40
0.016119992 -0.056036144 0.80599999 2.7801902e-40
0.017699039 -0.056175206 0.80799997 2.7730295e-40
0.019238088 -0.056175198 0.80799997 3.6913845e-40
0.02072571 -0.056036167 0.80600005 5.5316817e-40
0.022260949 -0.056036152 0.80600005 4.6133128e-40
0.023796188 -0.056036163 0.80599999 4.6240888e-40
0.025331423 -0.056036156 0.80599999 5.5424577e-40
0.026866656 -0.056036141 0.80599999 6.4608127e-40
0.028401894 -0.056036133 0.80599999 5.5388564e-40
0.029937133 -0.056036141 0.80599999 5.5280944e-40
0.031472374 -0.056036163 0.80600005 5.5352551e-40
0.033007614 -0.056036152 0.80600005 4.6276761e-40
0.034542851 -0.056036163 0.80599999 6.464386e-40
0.036078092 -0.056036152 0.80599999 7.371993e-40
0.037706658 -0.056175206 0.80799997 6.4464774e-40
0.03924571 -0.056175221 0.80799997 6.4464634e-40
0.040683802 -0.056036144 0.80599999 5.5352551e-40
0.042219043 -0.056036163 0.80600005 4.6276901e-40
0.043754283 -0.056036148 0.80600005 5.5460731e-40
0.045289528 -0.056036163 0.80599999 6.4716727e-40
0.046708569 -0.055897143 0.80400002 8.3048654e-40
0.048240006 -0.055897143 0.80400002 9.2375136e-40
0.049771428 -0.055897128 0.80400002 5.5461011e-40
0.051302854 -0.055897113 0.80400002 9.2253083e-41
-0.0083809616 -0.054095205 0.79999995 1.8619053e-40
-0.0068571442 -0.054095231 0.80000001 1.8654506e-40
-0.0053333393 -0.054095201 0.80000001 2.7873648e-40
-0.0038190482 -0.054230481 0.80200005 3.7057338e-40
-0.0022971444 -0.054365706 0.80400002 4.6241168e-40
-0.00076571887 -0.054365691 0.80400002 5.5352971e-40
0.00076761015 -0.054500911 0.80599999 7.3684337e-40
0.0023028457 -0.054500896 0.80599999 8.2832013e-40
0.0038476104 -0.054636162 0.80799997 8.279628e-40
0.0053866575 -0.054636154 0.80799997 8.2867747e-40
0.0069257086 -0.054636169 0.80799997 6.4500367e-40
0.0084647546 -0.054636162 0.80799997 3.6913845e-40
0.010003808 -0.054636188 0.80799997 3.6913845e-40
0.011542855 -0.05463618 0.80799997 3.6913705e-40
0.013081901 -0.054636177 0.80799997 3.6949578e-40
0.014620949 -0.054636169 0.80799997 3.6949578e-40
0.016159995 -0.054636162 0.80799997 2.7766028e-40
0.017742854 -0.054771401 0.81000006 9.4350827e-41
0.019238092 -0.054636177 0.80799997 2.7802462e-40
0.020777138 -0.054636169 0.80799997 3.6985732e-40
0.022316184 -0.054636165 0.80799997 4.6097254e-40
0.023855232 -0.054636158 0.80799997 5.5389405e-40
0.025331423 -0.054500915 0.80600005 6.4645682e-40
0.026866661 -0.05450093 0.80599999 7.382825e-40
0.028401898 -0.054500919 0.80599999 7.3791536e-40
0.029937131 -0.054500904 0.80599999 6.4607987e-40
0.031472366 -0.054500896 0.80599999 5.5424437e-40
0.033007611 -0.054500904 0.80599999 4.6276761e-40
0.034542851 -0.054500926 0.80600005 6.4715747e-40
0.036078088 -0.054500915 0.80600005 8.290362e-40
0.037613329 -0.054500926 0.80599999 7.3576717e-40
0.039148565 -0.054500915 0.80599999 5.5317098e-40
0.040683802 -0.054500904 0.80599999 5.546045e-40
0.042219035 -0.054500893 0.80599999 4.6313195e-40
0.04375428 -0.054500908 0.80599999 6.4716727e-40
0.045177151 -0.054365721 0.80400002 8.3012501e-40
0.046708573 -0.054365702 0.80400002 9.2196611e-40
0.048239999 -0.054365683 0.80400002 9.230423e-40
0.049647622 -0.054230478 0.80199999 5.5605905e-40
0.051175248 -0.054230485 0.80200005 9.3675401e-41
-0.006857146 -0.052571416 0.80000001 2.7802042e-40
-0.0053333412 -0.052571386 0.80000001 2.7837775e-40
-0.0038285775 -0.052834269 0.80400002 3.7093491e-40
-0.0022971469 -0.052834276 0.80399996 4.6205575e-40
-0.00076762692 -0.052965682 0.80599999 5.5317518e-40
0.00076761062 -0.052965675 0.80599999 6.4501068e-40
0.0023028459 -0.05296566 0.80599999 8.279642e-40
0.0038476109 -0.05309711 0.80799997 9.2051576e-40
0.0053866627 -0.053097125 0.80799997 1.0127086e-39
0.0069257091 -0.053097118 0.80799997 7.371993e-40
0.0084647546 -0.053097118 0.80799997 4.6133408e-40
0.010003801 -0.053097107 0.80799997 4.6097395e-40
0.011542849 -0.053097099 0.80799997 5.5280944e-40
0.013114281 -0.053228546 0.81000006 4.6133128e-40
0.014657137 -0.053228546 0.81000006 4.6097254e-40
0.016199995 -0.053228546 0.81000006 4.6169001e-40
0.017742852 -0.053228546 0.81000006 4.6205295e-40
0.019285709 -0.053228546 0.81000006 5.5461011e-40
0.020828567 -0.053228542 0.81000006 6.464414e-40
0.022316184 -0.053097118 0.80799997 1.0130617e-39
0.023855232 -0.05309711 0.80799997 1.3804219e-39
0.025394283 -0.053097125 0.80799997 1.1971265e-39
0.026866656 -0.052965656 0.80599999 9.2232064e-40
0.028401896 -0.052965678 0.80600005 8.3046832e-40
0.029937137 -0.052965693 0.80599999 7.3899156e-40
0.03147237 -0.052965682 0.80599999 6.464386e-40
0.033007611 -0.052965667 0.80599999 6.4644e-40
0.034542844 -0.05296566 0.80599999 8.2939493e-40
0.036078088 -0.052965667 0.80599999 1.0119911e-39
0.037613321 -0.05296566 0.80599999 8.2832154e-40
0.039148562 -0.052965682 0.80600005 5.5353111e-40
0.040683806 -0.052965689 0.80599999 4.6241168e-40
0.042219039 -0.052965678 0.80599999 4.6277742e-40
0.04375428 -0.052965667 0.80599999 6.4609668e-40
0.045177143 -0.052834257 0.80400002 9.2088991e-40
0.046708576 -0.052834298 0.80400002 1.0134457e-39
0.048120007 -0.052702848 0.80200005 1.106363e-39
0.049647626 -0.052702859 0.80200005 7.3830913e-40
0.051175244 -0.052702863 0.80200005 3.6809308e-40
-0.015880952 -0.046261933 0.72500002 3.6914405e-40
-0.014460005 -0.046134274 0.72300005 2.7766449e-40
-0.013064766 -0.046070468 0.72200006 2.7837915e-40
-0.011689531 -0.046070445 0.72200006 1.8618492e-40
-0.0068399995 -0.050920006 0.79800004 3.6949578e-40
-0.0053333384 -0.051047605 0.80000001 3.6985451e-40
-0.0038190505 -0.051175233 0.80200005 2.7838055e-40
-0.0022914244 -0.051175263 0.80200005 3.6949998e-40
-0.00076571631 -0.051302854 0.80400002 4.6133688e-40
0.00076761527 -0.05143046 0.80600005 6.4536801e-40
0.0023028501 -0.051430445 0.80600005 8.2904741e-40
0.0038476165 -0.051558089 0.80799997 1.0134443e-39
0.0053866631 -0.051558081 0.80799997 1.196388e-39
0.0069257095 -0.051558074 0.80799997 9.2087309e-40
0.0084647555 -0.051558066 0.80799997 5.5317518e-40
0.010003802 -0.051558059 0.80799997 6.4465335e-40
0.011542854 -0.051558077 0.80799997 6.4500787e-40
0.0130819 -0.051558074 0.80799997 6.4572113e-40
0.014657138 -0.051685691 0.81000006 5.5388564e-40
0.016199995 -0.051685687 0.81000006 7.3755523e-40
0.017742852 -0.051685687 0.81000006 8.301208e-40
0.019285709 -0.051685687 0.81000006 9.2304511e-40
0.020828567 -0.051685687 0.81000006 9.2231503e-40
0.022371422 -0.051685687 0.81000006 1.5640761e-39
0.023855237 -0.051558081 0.80799997 2.2069358e-39
0.025394283 -0.051558077 0.80799997 1.6555753e-39
0.02686666 -0.051430445 0.80599999 1.1052686e-39
0.028401896 -0.051430438 0.80599999 9.2194509e-40
0.029937131 -0.051430423 0.80599999 7.3791536e-40
0.031472366 -0.051430408 0.80599999 8.2975226e-40
0.033007614 -0.051430456 0.80599999 8.2939353e-40
0.034542851 -0.051430445 0.80599999 1.0119897e-39
0.036078088 -0.051430434 0.80599999 1.1956635e-39
0.037613329 -0.051430445 0.80599999 9.2051997e-40
0.039148562 -0.05143043 0.80599999 5.5353251e-40
0.040683798 -0.051430419 0.80599999 4.6241168e-40
0.042219043 -0.051430438 0.80600005 3.7058179e-40
0.043645713 -0.051302876 0.80400002 7.3721191e-40
0.045177147 -0.051302858 0.80400002 1.0130799e-39
0.046592381 -0.051175222 0.80200005 1.1967537e-39
0.048120003 -0.051175226 0.80199999 1.2896808e-39
0.049647629 -0.051175255 0.80200005 1.013831e-39
0.051175244 -0.051175233 0.80200005 6.4432264e-40
-0.015880954 -0.044880971 0.72500002 4.6061381e-40
-0.014500003 -0.044880953 0.72500002 3.6913845e-40
-0.013064769 -0.044695199 0.72200006 2.7766169e-40
-0.011689531 -0.044695206 0.722 1.8618492e-40
-0.0068400064 -0.049399972 0.79799998 3.6985451e-40
-0.0053333356 -0.049523812 0.80000001 2.7801902e-40
-0.0038190444 -0.049647637 0.80200005 1.8618492e-40
-0.002291431 -0.049647614 0.80200005 2.7766169e-40
-0.00076571654 -0.049771424 0.80400002 4.6133548e-40
0.00076760922 -0.049895186 0.80599999 5.5317238e-40
0.0023028492 -0.049895201 0.80599999 6.4538342e-40
0.0038476153 -0.050019037 0.80799997 7.36877e-40
0.0053866622 -0.050019033 0.80799997 8.2833835e-40
0.0069257091 -0.050019026 0.80799997 7.3684617e-40
0.0084647546 -0.050019022 0.80799997 6.4465755e-40
0.010003801 -0.050019015 0.80799997 8.2869148e-40
0.011542853 -0.05001903 0.80799997 1.1045497e-39
0.013081899 -0.050019022 0.80799997 8.2939353e-40
0.014657137 -0.050142832 0.81000006 6.464386e-40
0.016199995 -0.050142828 0.81000006 7.3791396e-40
0.017742852 -0.050142828 0.81000006 8.3012921e-40
0.019285711 -0.050142828 0.81000006 8.3050756e-40
0.020828567 -0.050142828 0.81000006 8.3120541e-40
0.022371421 -0.050142828 0.81000006 1.1970928e-39
0.023855235 -0.050019037 0.80799997 1.563723e-39
0.025331428 -0.049895216 0.80600005 1.2882207e-39
0.02686666 -0.049895208 0.80600005 9.2087309e-40
0.028401898 -0.049895193 0.80599999 8.2939073e-40
0.029937139 -0.049895208 0.80599999 6.4500367e-40
0.031472374 -0.049895197 0.80599999 6.4572254e-40
0.032925718 -0.049771424 0.80400002 5.5424577e-40
0.03445714 -0.049771436 0.80400002 7.3684057e-40
0.036078095 -0.04989522 0.80600005 1.0116352e-39
0.037613329 -0.049895208 0.80599999 7.3649305e-40
0.039051425 -0.049771409 0.80400002 5.5281785e-40
0.040582858 -0.049771424 0.80400002 5.5424717e-40
0.042114288 -0.049771432 0.80400002 6.4680434e-40
0.043645713 -0.049771413 0.80400002 7.3792657e-40
0.04506477 -0.049647618 0.80200005 9.219591e-40
0.046476196 -0.049523816 0.80000001 1.1056315e-39
0.047999997 -0.049523786 0.80000001 1.1982097e-39
0.049647618 -0.049647611 0.80200005 8.3017545e-40
-0.015902858 -0.043559995 0.72600001 5.5210038e-40
-0.014499998 -0.043500032 0.72500002 3.6878672e-40
-0.013082862 -0.043379996 0.72300005 2.7730856e-40
-0.011705717 -0.043380003 0.72300005 1.8547026e-40
-0.0068400083 -0.047879964 0.79799998 3.6950139e-40
-0.0053333361 -0.047999993 0.80000001 2.7802042e-40
-0.0038190472 -0.048120014 0.80200005 9.3990693e-41
-0.0022914326 -0.048119992 0.80200005 2.7658549e-40
-0.00076571631 -0.048239987 0.80400002 3.6878112e-40
0.00076571282 -0.048239995 0.80400002 4.6061802e-40
0.0023028492 -0.048359964 0.80599999 4.6062782e-40
0.0038380849 -0.048359949 0.80599999 4.6063904e-40
0.0053733261 -0.048359964 0.80599999 4.6063063e-40
0.006908562 -0.048359949 0.80599999 5.5281785e-40
0.0084647601 -0.048479997 0.80799997 6.4465475e-40
0.010003807 -0.048479989 0.80799997 1.1038336e-39
0.011542853 -0.048479985 0.80799997 1.5630069e-39
0.0130819 -0.048479978 0.80799997 1.1038252e-39
0.014620947 -0.048479971 0.80799997 6.4572254e-40
0.016159998 -0.048479985 0.80799997 7.3791536e-40
0.017742854 -0.04859997 0.81000006 7.3756644e-40
0.019285711 -0.04859997 0.81000006 7.3793638e-40
0.020828567 -0.04859997 0.81000006 7.3792517e-40
0.022371422 -0.04859997 0.81000006 8.2939213e-40
0.02385523 -0.048479956 0.80799997 9.208759e-40
0.025394276 -0.048479952 0.80799997 8.2904881e-40
0.02686666 -0.04835996 0.80599999 7.3720631e-40
0.028401902 -0.048359979 0.80600005 6.453638e-40
0.029937135 -0.048359971 0.80600005 5.5317518e-40
0.031394292 -0.04824001 0.80400002 4.6134529e-40
0.032925718 -0.048239987 0.80400002 2.7767009e-40
0.034457136 -0.048239972 0.80400002 5.5245631e-40
0.035988569 -0.04823998 0.80399996 7.3613011e-40
0.037519999 -0.048239995 0.80400002 6.4429742e-40
0.039051425 -0.04823998 0.80400002 4.6169982e-40
0.040582854 -0.048239987 0.80400002 6.4608687e-40
0.04211428 -0.048239969 0.80400002 8.30118e-40
0.043537147 -0.048119992 0.80200005 8.2976207e-40
0.044839997 -0.047879975 0.79800004 8.3012641e-40
0.046301901 -0.047819953 0.79699999 1.0141631e-39
0.047819994 -0.047819976 0.79699999 1.1063812e-39
-0.015902864 -0.042177118 0.72599995 4.602733e-40
-0.014499998 -0.042119075 0.72500002 3.68435e-40
-0.013082864 -0.042002838 0.72300005 2.7695403e-40
-0.011705718 -0.042002849 0.72300005 2.7659109e-40
-0.010328573 -0.04200286 0.72300005 2.7694562e-40
-0.00076571165 -0.046708584 0.80400002 3.6842098e-40
0.00076571351 -0.046708565 0.80400002 4.6025648e-40
0.0023028492 -0.046824727 0.80600005 6.4357294e-40
0.0038380895 -0.046824738 0.80599999 5.5210038e-40
0.0053733266 -0.046824727 0.80599999 4.5990756e-40
0.006908562 -0.046824712 0.80599999 4.6062502e-40
0.0084438026 -0.046824727 0.80599999 5.5245772e-40
0.0099790385 -0.046824716 0.80599999 7.3612591e-40
0.011514274 -0.046824701 0.80599999 1.0112737e-39
0.013081899 -0.046940926 0.80799997 7.3648324e-40
0.014584757 -0.046824738 0.80599999 5.5388844e-40
0.016119994 -0.046824727 0.80599999 4.6169281e-40
0.017742854 -0.047057115 0.81000006 4.6097535e-40
0.019285711 -0.047057115 0.81000006 5.5352831e-40
0.020777136 -0.046940919 0.80799997 6.453624e-40
0.022316184 -0.046940912 0.80799997 6.4500227e-40
0.023914279 -0.047057111 0.81000006 6.4465475e-40
0.02539428 -0.046940926 0.80799997 7.3650145e-40
0.026933325 -0.046940919 0.80799997 7.3649305e-40
0.028401893 -0.046824712 0.80599999 6.4500787e-40
0.029937135 -0.046824723 0.80599999 5.5282345e-40
0.03147237 -0.046824712 0.80599999 5.5283186e-40
0.032925714 -0.046708558 0.80399996 5.5246752e-40
0.03445714 -0.046708573 0.80400002 5.5246052e-40
0.035988569 -0.046708558 0.80400002 6.4429601e-40
0.037519999 -0.046708558 0.80400002 5.5317658e-40
0.038954288 -0.046592385 0.80200005 4.6205995e-40
0.040481906 -0.046592388 0.80200005 6.4608968e-40
0.042114291 -0.046708565 0.80400002 8.2976067e-40
0.043537151 -0.046592399 0.80200005 9.2159616e-40
0.044840004 -0.046359997 0.79800004 9.2160738e-40
0.046301909 -0.046301894 0.79699999 1.1056483e-39
0.047819998 -0.046301886 0.79700005 1.3808185e-39
-0.017285716 -0.040794279 0.72600001 3.6880214e-40
-0.015902862 -0.040794265 0.72599995 3.684392e-40
-0.014500001 -0.040738113 0.72500002 3.68435e-40
-0.01308286 -0.04062571 0.72300005 3.6843219e-40
-0.0117381 -0.040738087 0.72500002 2.7659109e-40
-0.010357145 -0.040738102 0.72500002 3.6770352e-40
-0.00076571375 -0.045177151 0.80400002 2.7695123e-40
0.00076571165 -0.045177132 0.80400002 5.5174165e-40
0.0022971367 -0.045177113 0.80400002 7.3577278e-40
0.0038380835 -0.045289468 0.80599999 5.5210179e-40
0.0053733313 -0.045289513 0.80599999 3.6878812e-40
0.0069085672 -0.045289498 0.80599999 3.6878672e-40
0.0084438026 -0.04528949 0.80599999 3.6878392e-40
0.0099790385 -0.045289475 0.80599999 3.6914125e-40
0.011514279 -0.04528949 0.80599999 3.6913985e-40
0.013049515 -0.045289475 0.80599999 3.6842239e-40
0.01458475 -0.045289468 0.80599999 3.6913845e-40
0.016119998 -0.045289513 0.80599999 2.7730295e-40
0.017699044 -0.045401882 0.80799997 1.8583179e-40
0.01923809 -0.045401879 0.80799997 3.6986853e-40
0.020777142 -0.045401897 0.80799997 4.6133968e-40
0.022316186 -0.04540189 0.80799997 4.6097535e-40
0.023855235 -0.045401886 0.80799997 3.6914686e-40
0.02539428 -0.045401882 0.80799997 5.5210739e-40
0.026933325 -0.045401875 0.80799997 7.3613151e-40
0.0284019 -0.045289498 0.80599999 6.4464914e-40
0.029937133 -0.045289487 0.80599999 5.5246192e-40
0.03147237 -0.045289475 0.80599999 6.4394569e-40
0.032925714 -0.045177124 0.80400002 7.3613431e-40
0.03445714 -0.045177136 0.80400002 6.4393448e-40
0.035988566 -0.045177117 0.80400002 4.6098656e-40
0.037426673 -0.045064781 0.80200005 4.6135089e-40
0.038954284 -0.045064759 0.80200005 3.7058739e-40
0.040481903 -0.045064759 0.80200005 6.4644841e-40
-0.017333338 -0.039519999 0.72800004 3.6916227e-40
-0.015902858 -0.039411418 0.72600001 3.6879934e-40
-0.014520004 -0.039411411 0.72600001 4.6063063e-40
-0.01311905 -0.039357144 0.72500002 4.6062642e-40
-0.011738101 -0.039357129 0.72500002 5.5245631e-40
-0.010357146 -0.039357148 0.72500002 6.4392607e-40
-0.00076572027 -0.043645687 0.80400002 2.7695823e-40
0.00076571607 -0.043645728 0.80400002 3.6879653e-40
0.0022971414 -0.043645713 0.80400002 5.5282345e-40
0.003828567 -0.043645695 0.80400002 4.6098516e-40
0.0053599966 -0.043645699 0.80400002 3.6914546e-40
0.006891429 -0.043645713 0.80400002 3.6914125e-40
0.008422859 -0.043645721 0.80400002 3.6878252e-40
0.0099790432 -0.043754261 0.80600005 3.6949858e-40
0.01151428 -0.043754254 0.80599999 4.6169141e-40
0.013049514 -0.043754239 0.80599999 3.6949578e-40
0.014584756 -0.043754254 0.80599999 3.6913705e-40
0.016119992 -0.043754239 0.80599999 2.7730155e-40
0.017699042 -0.043862838 0.80800003 2.7803163e-40
0.019238092 -0.043862831 0.80800003 2.7804284e-40
0.020777142 -0.043862849 0.80799997 3.6915106e-40
0.022316188 -0.043862846 0.80799997 3.6949998e-40
0.023855235 -0.043862838 0.80799997 3.6950419e-40
0.02539428 -0.043862831 0.80799997 5.5246052e-40
0.026933325 -0.043862823 0.80799997 8.2760547e-40
0.028401894 -0.043754227 0.80599999 6.4464774e-40
0.029937135 -0.04375425 0.80600005 4.6062362e-40
0.031472374 -0.043754261 0.80599999 5.5282205e-40
0.032925714 -0.043645695 0.80400002 7.3648884e-40
0.03445714 -0.04364571 0.80400002 6.4464774e-40
0.035899047 -0.043537155 0.80200005 5.5318359e-40
0.037426673 -0.043537155 0.80200005 5.5355353e-40
0.038759995 -0.043319982 0.79800004 6.4645682e-40
0.040279996 -0.04331997 0.79799998 7.3828391e-40
-0.017357156 -0.038185675 0.72899997 2.7733658e-40
-0.01594667 -0.038133334 0.72800004 3.6916367e-40
-0.014520004 -0.038028564 0.72600001 4.6063203e-40
-0.013137151 -0.038028549 0.72600001 6.4429461e-40
-0.011738097 -0.037976202 0.72500002 7.3612731e-40
0.00076571049 -0.042114269 0.80400002 2.7732818e-40
0.0022971407 -0.042114276 0.80399996 2.776799e-40
0.0038285726 -0.042114291 0.80400002 2.7803303e-40
0.0053599984 -0.042114273 0.80400002 2.7766869e-40
0.0068742852 -0.042009518 0.80200005 3.6985872e-40
0.0084018987 -0.042009499 0.80200005 3.6913985e-40
0.0099295266 -0.042009532 0.80200005 4.6133268e-40
0.011457145 -0.042009532 0.80200005 4.6169141e-40
0.01298476 -0.04200951 0.80200005 4.6169001e-40
0.014512385 -0.042009544 0.80200005 3.6913705e-40
0.016119994 -0.042219002 0.80599999 3.6877972e-40
0.017655233 -0.042219017 0.80599999 2.7802742e-40
0.01919047 -0.042219002 0.80599999 2.7911063e-40
0.020725705 -0.042218994 0.80599999 2.7838756e-40
0.022260947 -0.042219006 0.80599999 2.7838195e-40
0.023796188 -0.042219024 0.80600005 2.7766869e-40
0.025331423 -0.042219017 0.80600005 5.5282205e-40
0.026866658 -0.042219002 0.80599999 8.2832714e-40
0.0284019 -0.042219017 0.80599999 6.4501348e-40
0.029937133 -0.042219002 0.80599999 3.6987553e-40
0.031472366 -0.042218994 0.80599999 5.53199e-40
0.032925718 -0.042114288 0.80400002 6.4502189e-40
0.034371439 -0.042009551 0.80200005 6.4465054e-40
0.035899051 -0.042009529 0.80200005 5.5353812e-40
0.037239999 -0.041799981 0.79799998 7.3721612e-40
0.038711432 -0.041747615 0.79699999 8.2976207e-40
0.040229522 -0.041747604 0.79699999 9.2266676e-40
-0.01735715 -0.036797125 0.72900003 3.6882176e-40
-0.015968582 -0.036797095 0.72899997 4.6100337e-40
-0.014580008 -0.036797125 0.72899997 4.6063343e-40
-0.013191441 -0.036797095 0.72899997 5.5245631e-40
0.0022971407 -0.040582847 0.80400002 5.5319059e-40
0.0038285709 -0.040582854 0.80400002 4.6134529e-40
0.0053599961 -0.040582836 0.80400002 3.6914686e-40
0.0068742833 -0.040481891 0.80199999 4.6097675e-40
0.0084019043 -0.040481906 0.80200005 4.6025788e-40
0.0098799942 -0.040279973 0.79800004 4.6097254e-40
0.011399999 -0.040279996 0.79800004 4.6133128e-40
0.012952377 -0.040380936 0.80000001 4.6097254e-40
0.014512384 -0.040481918 0.80200005 5.5209198e-40
0.016039999 -0.040481895 0.80200005 4.6097395e-40
0.017567618 -0.040481906 0.80200005 3.6985872e-40
0.01909524 -0.040481906 0.80200005 3.7021885e-40
0.020622859 -0.040481906 0.80200005 3.7021745e-40
0.022205712 -0.040582843 0.80400002 4.6169281e-40
0.02373714 -0.040582851 0.80400002 4.6134109e-40
0.025268566 -0.040582832 0.80400002 6.4501768e-40
0.026866663 -0.040683787 0.80600005 7.3685458e-40
0.028401898 -0.04068378 0.80600005 5.5354372e-40
0.029937133 -0.040683765 0.80599999 4.6279984e-40
0.031472374 -0.04068378 0.80599999 4.6209779e-40
0.033007611 -0.040683765 0.80599999 5.542724e-40
0.034371432 -0.040481899 0.80200005 6.4572954e-40
0.035899047 -0.040481899 0.80200005 7.3756504e-40
