# .PCD v0.7 - Point Cloud Data file format
VERSION 0.7
FIELDS x y z rgb
SIZE 4 4 4 4
TYPE F F F F
COUNT 1 1 1 1
WIDTH 959
HEIGHT 1
VIEWPOINT 0 0 0 1 0 0 0
POINTS 959
DATA ascii
0.0084857149 -0.053228617 0.81000012 4.6133548e-40
0.010053334 -0.05336003 0.8120001 5.5352551e-40
0.01157143 -0.053228617 0.81000012 7.371965e-40
0.013146668 -0.053359985 0.81200004 7.3791396e-40
0.014693334 -0.053360011 0.8120001 7.3827269e-40
0.0162 -0.053228602 0.81000012 6.4571973e-40
0.017742855 -0.053228624 0.81000012 5.5281785e-40
0.019285714 -0.053228594 0.81000012 5.5354372e-40
0.02077714 -0.053097159 0.80800009 6.4537081e-40
0.022316189 -0.053097151 0.80800003 5.5316677e-40
0.023796188 -0.052965734 0.80600011 5.5316817e-40
0.025331428 -0.052965764 0.80600011 5.5316958e-40
0.026799999 -0.05283431 0.80400008 6.4428621e-40
0.028331429 -0.052834302 0.80400002 6.4500227e-40
0.029788572 -0.052702896 0.80200011 7.3683917e-40
0.031120952 -0.052374326 0.79700011 8.290348e-40
0.032639053 -0.052374333 0.79700011 9.2123043e-40
0.034157153 -0.052374318 0.79700011 9.2158916e-40
0.047708575 -0.047708619 0.72600007 2.341769e-38
0.049091432 -0.047708619 0.72600007 2.341769e-38
-0.026933335 -0.051558129 0.80800009 2.7695963e-40
-0.025457146 -0.051685762 0.81000012 9.2925706e-41
-0.023855239 -0.051558126 0.80800009 1.8439967e-40
-0.022316193 -0.051558122 0.80800003 2.765995e-40
-0.020777144 -0.051558122 0.80800009 1.8441088e-40
-0.019238098 -0.051558122 0.80800003 9.2927108e-41
-0.017611425 -0.051302865 0.80400008 1.8439686e-40
-0.016080001 -0.051302899 0.80400008 2.7695263e-40
-0.014512382 -0.051175296 0.80200011 5.5246332e-40
-0.013017146 -0.051302873 0.80400008 7.3684477e-40
-0.011514287 -0.05143052 0.80600011 5.5388564e-40
-0.0099790487 -0.05143049 0.80600011 3.7093211e-40
-0.008464762 -0.051558115 0.80800009 8.3082566e-40
-0.0069257142 -0.051558107 0.80800003 1.2900031e-39
-0.0053866664 -0.051558115 0.80800003 9.2266115e-40
-0.0038476193 -0.051558141 0.80800009 5.5424577e-40
-0.0023028573 -0.051430501 0.80600011 6.4536521e-40
-0.00076952385 -0.051558137 0.80800009 6.4573094e-40
0.00077142857 -0.051685758 0.81000012 1.0127198e-39
0.0023199997 -0.051813334 0.81200004 1.2882207e-39
0.0038571432 -0.051685754 0.81000012 1.0127086e-39
0.0054000001 -0.05168575 0.81000012 6.4536801e-40
0.0069428575 -0.05168575 0.81000012 5.5281785e-40
0.0084857149 -0.051685736 0.81000006 4.6169561e-40
0.010053334 -0.051813364 0.8120001 5.546031e-40
0.01157143 -0.051685765 0.81000012 6.4571973e-40
0.013146668 -0.051813357 0.8120001 5.5352551e-40
0.014657144 -0.051685728 0.81000012 4.6204874e-40
0.016199999 -0.051685758 0.81000012 4.6133128e-40
0.017742857 -0.051685724 0.81000012 3.6914265e-40
0.019285716 -0.051685747 0.81000012 5.5281785e-40
0.02077714 -0.051558122 0.80800003 7.3648464e-40
0.022316189 -0.051558122 0.80800009 7.361203e-40
0.023796188 -0.051430516 0.80600011 7.3648043e-40
0.025331428 -0.051430486 0.80600011 7.361231e-40
0.026799999 -0.051302876 0.80400008 6.4428621e-40
0.028331432 -0.051302876 0.80400002 8.279558e-40
0.029788572 -0.051175281 0.80200011 9.2051016e-40
0.031120952 -0.050856218 0.79700011 1.0127058e-39
0.032639053 -0.050856225 0.79700011 1.0127086e-39
0.034157149 -0.05085624 0.79700011 1.0127114e-39
0.047708578 -0.046325751 0.72600007 2.341769e-38
0.049226671 -0.04645336 0.7280001 2.341769e-38
-0.025457144 -0.050142884 0.81000012 3.6806926e-40
-0.023796191 -0.049895268 0.80600011 4.6026349e-40
-0.022260956 -0.049895264 0.80600011 4.6061802e-40
-0.020828571 -0.050142899 0.81000012 3.6841958e-40
-0.019238098 -0.050019056 0.80800003 1.8510872e-40
-0.017611427 -0.049771436 0.80400008 2.7694562e-40
-0.016039999 -0.04964767 0.80200011 3.6878112e-40
-0.014512382 -0.049647678 0.80200011 4.6097535e-40
-0.012984764 -0.049647659 0.80200011 5.5352691e-40
-0.011457144 -0.049647667 0.80200011 4.6204874e-40
-0.0099295257 -0.049647674 0.80200011 3.7057198e-40
-0.0084647629 -0.050019078 0.80800003 6.4715466e-40
-0.0069257142 -0.050019082 0.80800009 1.0152141e-39
-0.0053999997 -0.050142899 0.81000012 8.3046692e-40
-0.0038476193 -0.050019078 0.80800009 6.4572254e-40
-0.0023028573 -0.049895279 0.80600011 6.4608267e-40
-0.00076952385 -0.050019078 0.80800009 6.4716868e-40
0.00077142863 -0.050142914 0.81000012 7.3793638e-40
0.0023142854 -0.050142877 0.81000012 9.2159897e-40
0.0038666669 -0.050266668 0.8120001 7.3791817e-40
0.0053999997 -0.050142873 0.81000012 6.4644561e-40
0.0069600004 -0.050266683 0.81200004 5.5317938e-40
0.0084857149 -0.050142892 0.81000012 4.6097955e-40
0.010053334 -0.050266676 0.8120001 5.5352691e-40
0.01157143 -0.050142888 0.81000012 6.453624e-40
0.013146668 -0.050266691 0.8120001 5.5316677e-40
0.014657144 -0.050142881 0.81000012 3.6985451e-40
0.0162 -0.050142907 0.81000012 3.6913705e-40
0.017742857 -0.050142899 0.81000012 4.6061521e-40
0.019285714 -0.050142899 0.81000012 5.5280944e-40
0.02077714 -0.050019059 0.80800003 7.361217e-40
0.022316189 -0.050019085 0.80800009 9.2015002e-40
0.023796188 -0.049895242 0.80600011 1.1038224e-39
0.025331428 -0.049895272 0.80600011 9.2015143e-40
0.026799999 -0.049771443 0.80400008 8.2831593e-40
0.028331431 -0.049771417 0.80400002 8.2831453e-40
0.029640002 -0.049400032 0.7980001 9.2015143e-40
0.031042857 -0.049214318 0.79500008 1.1045413e-39
0.032557148 -0.049214307 0.79500008 1.2882179e-39
0.034157149 -0.049338132 0.79700011 1.1049098e-39
0.048037142 -0.045252383 0.73100007 2.341769e-38
0.049429525 -0.045252375 0.73100007 2.341769e-38
-0.023796191 -0.048360016 0.80600011 6.4393308e-40
-0.022260956 -0.04836002 0.80600011 6.4428761e-40
-0.020828571 -0.048600018 0.81000012 4.6025508e-40
-0.019238096 -0.04848003 0.80800009 2.7694422e-40
-0.017567618 -0.048120052 0.80200011 3.6878112e-40
-0.016040003 -0.048120059 0.80200011 3.6878953e-40
-0.014476191 -0.048000049 0.80000001 3.6879793e-40
-0.012984764 -0.048120044 0.80200011 3.6914826e-40
-0.011457144 -0.048120052 0.80200016 3.6949858e-40
-0.0099295257 -0.048120022 0.80200011 3.7057338e-40
-0.0084647629 -0.048480019 0.80800003 5.5496184e-40
-0.0069257142 -0.048480049 0.80800003 6.464386e-40
-0.0053999997 -0.048600018 0.81000012 6.4571973e-40
-0.0038476193 -0.048480019 0.80800009 6.4572113e-40
-0.0023028571 -0.048360005 0.80600011 6.4608127e-40
-0.00076952379 -0.048480041 0.80800003 6.4572674e-40
0.00077142863 -0.048600033 0.81000012 5.5317938e-40
0.0023142856 -0.048600033 0.81000012 4.6169702e-40
0.0038666667 -0.048720002 0.81200004 5.5388704e-40
0.0054000001 -0.048600052 0.81000012 6.4536941e-40
0.0069599999 -0.048719995 0.81200004 5.5246472e-40
0.0084857149 -0.048600044 0.81000012 4.6133968e-40
0.010028571 -0.048600014 0.81000012 5.5316817e-40
0.011571429 -0.04860004 0.81000012 6.4464354e-40
0.013114286 -0.048600033 0.81000012 4.6061381e-40
0.014657143 -0.048600033 0.81000012 2.7730155e-40
0.0162 -0.048600025 0.81000012 3.6877832e-40
0.017699046 -0.048480026 0.80800003 4.6097395e-40
0.019238096 -0.048480026 0.80800009 5.5281084e-40
0.020777142 -0.048480019 0.80800003 6.4500507e-40
0.022260953 -0.04836005 0.80600011 1.1038238e-39
0.023796186 -0.04836002 0.80600011 1.4711658e-39
0.025268573 -0.048240006 0.80400002 1.1953006e-39
0.026666667 -0.048000056 0.80000007 9.2051016e-40
0.02812 -0.047880039 0.7980001 9.2051016e-40
0.029602859 -0.047820017 0.79700011 9.2087029e-40
0.031042855 -0.047700029 0.79500008 1.1963782e-39
0.032557148 -0.047700044 0.79500008 1.4722476e-39
0.048234288 -0.044040043 0.73400009 2.341769e-38
0.049429525 -0.043860003 0.73100001 2.341769e-38
-0.01752381 -0.04647623 0.80000007 2.7694422e-40
-0.016000003 -0.046476211 0.80000001 3.684378e-40
-0.014476192 -0.046476219 0.80000001 2.7697785e-40
-0.012952383 -0.04647623 0.80000007 2.7696244e-40
-0.011457144 -0.046592407 0.80200011 2.7766449e-40
-0.0099295247 -0.046592433 0.80200011 3.7021745e-40
-0.008443811 -0.046824809 0.80600011 4.6169281e-40
-0.0069085713 -0.046824783 0.80600011 5.5316817e-40
-0.0053866664 -0.046940953 0.80800003 5.5316677e-40
-0.0038476193 -0.046940979 0.80800003 5.5388424e-40
-0.0023028573 -0.046824787 0.80600011 5.5352551e-40
-0.00076952379 -0.046940979 0.80800003 5.5280944e-40
0.00077142869 -0.047057182 0.81000012 4.6133268e-40
0.0023142854 -0.047057152 0.81000012 4.6133268e-40
0.0038571428 -0.047057178 0.81000012 4.6169001e-40
0.0054000001 -0.047057182 0.81000018 4.6134109e-40
0.0069428571 -0.047057174 0.81000012 4.6134949e-40
0.0084857149 -0.047057167 0.81000006 3.6986432e-40
0.010028571 -0.047057167 0.81000012 5.5280804e-40
0.01157143 -0.047057159 0.81000012 6.4392607e-40
0.013114286 -0.047057189 0.81000012 4.6061381e-40
0.014620953 -0.046940964 0.80800003 3.6913705e-40
0.016160002 -0.046940967 0.80800009 4.6133128e-40
0.017699046 -0.046940964 0.80800003 5.5316817e-40
0.019190475 -0.046824776 0.80600011 5.5352831e-40
0.020725712 -0.046824805 0.80600011 5.5424717e-40
0.022260951 -0.046824776 0.80600011 7.372007e-40
0.02373714 -0.046708576 0.80400008 1.0127072e-39
0.025268571 -0.046708606 0.80400008 9.2123043e-40
0.026666665 -0.04647623 0.80000007 9.2194649e-40
0.02812 -0.046360057 0.79800016 9.2122762e-40
0.02964 -0.046360034 0.7980001 9.2122902e-40
0.031042855 -0.046185739 0.79500008 1.1052602e-39
0.032557148 -0.046185717 0.79500002 1.1970999e-39
0.045623817 -0.042816199 0.73700011 2.341769e-38
0.046963811 -0.042758122 0.73600012 2.341769e-38
0.048234288 -0.042641923 0.73400009 2.341769e-38
0.049497146 -0.042525738 0.73200005 2.341769e-38
-0.017523808 -0.044952404 0.80000007 2.7730435e-40
-0.016000001 -0.044952415 0.80000007 3.6879373e-40
-0.014476192 -0.044952415 0.80000001 2.7696944e-40
-0.012952383 -0.044952426 0.80000007 9.328584e-41
-0.011457144 -0.045064814 0.80200011 1.8511013e-40
-0.0099295257 -0.045064792 0.80200011 2.7731416e-40
-0.0084438119 -0.045289535 0.80600011 3.6880214e-40
-0.0069085709 -0.045289561 0.80600011 3.6879093e-40
-0.0053866669 -0.045401946 0.80800009 3.6842239e-40
-0.0038380956 -0.045289539 0.80600011 3.6913845e-40
-0.0023028573 -0.045289569 0.80600011 4.6133128e-40
-0.00076761906 -0.045289539 0.80600011 4.6097395e-40
0.00076952379 -0.045401946 0.80800009 4.6097535e-40
0.0023142858 -0.045514308 0.81000012 3.6949858e-40
0.003857143 -0.04551433 0.81000012 3.6985732e-40
0.0053866669 -0.045401912 0.80800003 2.7766869e-40
0.0069428575 -0.045514323 0.81000012 2.776757e-40
0.0084647629 -0.045401908 0.80800003 2.7730996e-40
0.010003809 -0.045401938 0.80800003 4.6097395e-40
0.011542858 -0.045401908 0.80800003 6.442848e-40
0.013081905 -0.045401931 0.80800003 5.5244931e-40
0.014584763 -0.045289554 0.80600011 3.6913705e-40
0.01612 -0.045289554 0.80600017 4.6169001e-40
0.017655235 -0.045289554 0.80600011 5.5352971e-40
0.019190477 -0.045289557 0.80600011 4.6241448e-40
0.020725712 -0.045289528 0.80600011 3.7022025e-40
0.022205716 -0.045177139 0.80400002 4.6133688e-40
0.023737142 -0.045177143 0.80400008 4.6205715e-40
0.025268573 -0.045177177 0.80400008 6.4644701e-40
0.0266 -0.044840027 0.7980001 8.2975506e-40
0.02812 -0.044840038 0.7980001 9.2158636e-40
0.029602859 -0.044783838 0.79700011 9.2194509e-40
0.031042859 -0.044671439 0.79500002 9.2230522e-40
0.032557145 -0.044671454 0.79500002 9.2231083e-40
0.04556191 -0.041356236 0.73600012 2.341769e-38
0.046836197 -0.041243859 0.73400009 2.341769e-38
0.048234284 -0.041243855 0.73400009 2.341769e-38
0.049497146 -0.041131459 0.73200011 2.341769e-38
-0.0069085718 -0.043754321 0.80600011 3.6844341e-40
-0.0053733331 -0.043754317 0.80600011 3.6878252e-40
-0.0038285714 -0.04364571 0.80400008 3.6878112e-40
-0.002297143 -0.04364574 0.80400008 3.6913705e-40
-0.00076761912 -0.043754324 0.80600011 4.6097535e-40
0.00076952373 -0.043862883 0.80800003 4.6097675e-40
0.002308571 -0.043862853 0.80800003 3.6878252e-40
0.0038476193 -0.043862879 0.80800003 3.6914125e-40
0.0053866669 -0.043862909 0.80800009 3.6950419e-40
0.0069257147 -0.043862879 0.80800003 3.6914826e-40
0.008464762 -0.043862879 0.80800009 3.6842659e-40
0.010003809 -0.043862876 0.80800003 4.6061521e-40
0.011514287 -0.043754302 0.80600011 5.5245071e-40
0.013049524 -0.043754306 0.80600011 4.6097254e-40
0.014584763 -0.043754332 0.80600011 3.6913705e-40
0.01612 -0.043754302 0.80600011 5.5316677e-40
0.017655237 -0.043754309 0.80600011 6.4536661e-40
0.019190475 -0.043754306 0.80600011 8.290432e-40
0.020725712 -0.043754309 0.80600011 1.0123541e-39
0.022205716 -0.04364574 0.80400008 8.2868027e-40
0.023737142 -0.04364571 0.80400008 6.4573094e-40
0.025205716 -0.043537185 0.80200011 7.3721191e-40
0.0266 -0.043320045 0.7980001 8.290404e-40
0.028084762 -0.043265745 0.79700011 8.2974946e-40
0.029602859 -0.04326573 0.79700011 9.2230382e-40
0.030886665 -0.042940017 0.79100007 9.2230382e-40
0.03239334 -0.042940009 0.79100007 1.0137876e-39
0.04556191 -0.039954294 0.73600006 2.341769e-38
0.046836197 -0.039845765 0.73400009 2.341769e-38
0.048234284 -0.039845757 0.73400009 2.341769e-38
0.049497146 -0.03973718 0.73200011 2.341769e-38
-0.0069085713 -0.042219073 0.80600011 3.6915526e-40
-0.0053733331 -0.042219076 0.80600011 3.6878672e-40
-0.0038285714 -0.04211428 0.80400002 2.7694842e-40
-0.0022914289 -0.042009559 0.80200011 3.6842379e-40
-0.00076190481 -0.041904803 0.80000007 4.6062082e-40
0.00076571433 -0.042114288 0.80400008 4.6098095e-40
0.0022971428 -0.042114295 0.80400008 3.6914405e-40
0.0038285712 -0.042114291 0.80400002 3.6878392e-40
0.0053600008 -0.042114299 0.80400008 3.6914546e-40
0.0068914294 -0.042114303 0.80400008 3.6879093e-40
0.0084228581 -0.042114303 0.80400002 3.6878532e-40
0.0099542867 -0.04211431 0.80400008 3.6913985e-40
0.011485714 -0.04211428 0.80400002 3.6913985e-40
0.012984763 -0.042009555 0.80200011 3.6913845e-40
0.014512382 -0.042009559 0.80200011 3.6913845e-40
0.016080001 -0.042114291 0.80400002 5.5244931e-40
0.017655237 -0.042219058 0.80600011 7.3720771e-40
0.019190475 -0.042219065 0.80600011 1.1963978e-39
0.020674285 -0.042114303 0.80400002 1.5633712e-39
0.022150477 -0.042009559 0.80200011 1.195302e-39
0.023678094 -0.042009566 0.80200011 8.2832574e-40
0.025079999 -0.041800022 0.7980001 8.2797541e-40
0.026566666 -0.041747659 0.79700011 8.2868727e-40
0.028084762 -0.041747671 0.79700011 8.290418e-40
0.029602857 -0.041747656 0.79700017 8.2975927e-40
0.031120952 -0.041747633 0.79700011 1.013789e-39
0.032393336 -0.041433349 0.79100007 1.1052728e-39
0.044400007 -0.038761929 0.74000001 2.341769e-38
0.045561906 -0.038552389 0.73600012 2.341769e-38
0.046836197 -0.038447641 0.73400009 2.341769e-38
0.048234284 -0.038447663 0.73400009 2.341769e-38
0.049429532 -0.038290482 0.73100001 2.341769e-38
-0.0038285716 -0.040582847 0.80400002 2.765939e-40
-0.0022914284 -0.04048197 0.80200011 3.6842799e-40
-0.00075142854 -0.039825741 0.78900009 3.6878953e-40
0.00076380954 -0.040481955 0.80200011 4.6062642e-40
0.0022914286 -0.040481929 0.80200011 5.5281785e-40
0.0038190475 -0.040481936 0.80200011 4.6061942e-40
0.005346667 -0.040481944 0.80200011 3.6914686e-40
0.0068742856 -0.040481944 0.80200011 3.6879093e-40
0.0084019061 -0.040481951 0.80200011 3.6878672e-40
0.0099542858 -0.040582877 0.80400008 3.6914125e-40
0.011457143 -0.040481932 0.80200011 4.6097675e-40
0.012952381 -0.040380985 0.80000007 4.6133408e-40
0.014440001 -0.040280022 0.7980001 4.6133268e-40
0.015959999 -0.040280033 0.7980001 5.5316677e-40
0.017611429 -0.040582865 0.80400008 7.3757345e-40
0.018547619 -0.039321013 0.7790001 1.0130968e-39
0.02003143 -0.039321013 0.7790001 1.1963922e-39
0.021901906 -0.040027648 0.7930001 1.103821e-39
0.023412384 -0.040027663 0.7930001 1.0112793e-39
0.025048571 -0.040229574 0.79700011 9.1981371e-40
0.026500003 -0.040128615 0.79500008 8.2833555e-40
0.028014287 -0.040128574 0.79500002 8.2905021e-40
0.029602859 -0.040229548 0.79700011 9.2124444e-40
0.031120956 -0.040229559 0.79700017 1.0134387e-39
0.034466673 -0.038866736 0.7700001 1.1067203e-39
0.035840001 -0.038765717 0.76800001 1.5658964e-39
0.037302859 -0.038765736 0.76800007 2.1172569e-39
0.041580953 -0.037352413 0.74000001 2.0662573e-38
0.04299048 -0.037352398 0.74000007 2.2040158e-38
0.044220004 -0.037200991 0.73700011 2.341769e-38
0.045438103 -0.037049577 0.73400009 2.341769e-38
0.046836197 -0.037049577 0.73400009 2.341769e-38
0.048234284 -0.037049569 0.73400009 2.341769e-38
0.049632385 -0.037049584 0.73400009 2.341769e-38
-0.0022542858 -0.03832287 0.78900009 2.765995e-40
-0.0007514286 -0.038322888 0.78900009 2.765995e-40
0.00075523811 -0.038517185 0.7930001 4.6027189e-40
0.0022714285 -0.038614314 0.79500008 6.4429461e-40
0.0037952384 -0.038711481 0.79700011 5.5209338e-40
0.0053133341 -0.038711462 0.79700011 3.6914265e-40
0.0068314285 -0.038711447 0.79700011 3.6878672e-40
0.0083495239 -0.038711458 0.79700011 3.6878392e-40
0.0099542867 -0.039051443 0.80400002 4.6061661e-40
0.011457143 -0.038954318 0.80200011 4.6097675e-40
0.012952382 -0.038857181 0.80000001 4.6205435e-40
0.014440001 -0.038760036 0.7980001 4.6169421e-40
0.01596 -0.038760047 0.7980001 6.4428761e-40
0.017611427 -0.039051432 0.80400008 7.3720911e-40
0.018547617 -0.037837181 0.7790001 8.2977188e-40
0.020031428 -0.037837159 0.7790001 8.2940474e-40
0.021901904 -0.038517199 0.7930001 1.0127086e-39
0.023412384 -0.038517185 0.7930001 1.1042008e-39
0.024985716 -0.038614314 0.79500008 1.0120234e-39
0.026500003 -0.038614295 0.79500002 8.2906002e-40
0.027239049 -0.037545748 0.77300012 9.2160457e-40
0.028711431 -0.037545729 0.77300012 9.2160037e-40
0.030066665 -0.037400045 0.7700001 1.0134317e-39
0.031451434 -0.037302863 0.76800001 1.1052784e-39
0.032914296 -0.037302878 0.76800007 1.0134541e-39
0.034332391 -0.037254289 0.76700008 9.2234446e-40
0.035793334 -0.037254274 0.76700008 1.6577557e-39
0.037254289 -0.037254281 0.76700002 2.3902789e-39
0.037857149 -0.036428608 0.75000012 1.2860935e-39
0.039023817 -0.036185749 0.74500012 1.1030181e-40
0.040334295 -0.036088608 0.74300009 1.1826994e-38
0.041693337 -0.036040016 0.74200004 2.3413001e-38
0.04299048 -0.035942886 0.74000007 2.341769e-38
0.044160005 -0.035748601 0.73600012 2.341769e-38
0.045438107 -0.035651475 0.73400009 2.341769e-38
0.046836201 -0.035651475 0.73400009 2.341769e-38
-0.0022542861 -0.036820058 0.78900009 3.6879934e-40
-0.00075047615 -0.03677338 0.78800011 4.602761e-40
0.00075142854 -0.036820009 0.78900009 4.6063343e-40
0.0022542852 -0.036820028 0.78900009 5.5281785e-40
0.0037666666 -0.03691335 0.79100007 4.6133128e-40
0.0052733338 -0.036913332 0.79100001 3.6949858e-40
0.0067800004 -0.036913324 0.79100007 4.6097675e-40
0.0083495257 -0.037193354 0.79700011 5.5281084e-40
0.018547619 -0.036353361 0.7790001 7.3792377e-40
0.020031428 -0.036353357 0.7790001 6.4572954e-40
0.02146 -0.036260016 0.77700001 7.3756504e-40
0.022940002 -0.03626002 0.77700001 9.2161578e-40
0.024420001 -0.036260031 0.77700007 9.2127807e-40
0.025833337 -0.03616669 0.7750001 9.2126266e-40
0.027239047 -0.036073338 0.77300012 9.2160457e-40
0.028711431 -0.036073346 0.77300006 1.0141491e-39
0.030066665 -0.03593339 0.7700001 1.013782e-39
0.031410482 -0.035793349 0.76700008 1.0134401e-39
0.032871436 -0.035793334 0.76700002 1.1056497e-39
0.033929534 -0.035373341 0.75800008 1.1053106e-39
0.035280004 -0.035280056 0.7560001 1.196807e-39
0.036428574 -0.035000041 0.75000012 1.2861285e-39
0.037857149 -0.035000019 0.75000006 2.9391647e-39
0.039128579 -0.034860026 0.7470001 4.5923465e-39
0.040442865 -0.034766704 0.74500012 1.4022847e-38
0.041749526 -0.034673356 0.74300009 2.341769e-38
0.043106668 -0.034626707 0.7420001 2.341769e-38
0.044160008 -0.034346692 0.73600012 2.341769e-38
0.0454381 -0.034253355 0.73400009 2.341769e-38
0.046836201 -0.034253377 0.73400009 2.341769e-38
-0.0022542861 -0.035317183 0.78900009 5.5247593e-40
-0.00074857142 -0.035182886 0.78600007 5.5247593e-40
0.00074666645 -0.035093367 0.7840001 5.5247593e-40
0.0022457144 -0.035182901 0.78600007 4.6134949e-40
0.0037333337 -0.035093363 0.78400016 4.6241588e-40
0.0052266666 -0.03509336 0.78400016 3.6950699e-40
0.0067800004 -0.035406664 0.79100007 5.5210319e-40
0.017129527 -0.035003833 0.78200012 7.3758185e-40
0.018547619 -0.034869559 0.7790001 6.4645962e-40
0.02003143 -0.034869563 0.7790001 4.6278723e-40
0.021598095 -0.035003826 0.78200012 5.5426259e-40
0.022940002 -0.034780044 0.77700007 6.461135e-40
0.024420001 -0.034780022 0.77700007 8.297985e-40
0.025833335 -0.034690522 0.7750001 9.2126125e-40
0.027203809 -0.034556214 0.77200007 1.0134415e-39
0.028600002 -0.034466721 0.7700001 1.0137946e-39
0.02998857 -0.034377165 0.76800007 1.013789e-39
0.031246668 -0.034153346 0.76300001 9.2196891e-40
0.032614291 -0.034063816 0.7610001 1.106014e-39
0.033929531 -0.033929519 0.75800002 1.288969e-39
0.035280004 -0.033840053 0.7560001 7.3723994e-40
0.036525715 -0.033660978 0.75200009 1.8479764e-40
0.037857149 -0.033571463 0.75000012 4.5921896e-39
0.039128579 -0.033437185 0.7470001 9.0416976e-39
0.040442869 -0.033347651 0.74500012 1.6254521e-38
0.041693337 -0.033213362 0.7420001 2.341769e-38
0.04299048 -0.033123828 0.74000001 2.341769e-38
0.044220004 -0.032989562 0.73700011 2.341769e-38
0.0454381 -0.032855257 0.73400009 2.341769e-38
0.046836197 -0.032855257 0.73400009 2.341769e-38
-0.00074857136 -0.033685729 0.78600001 7.3615253e-40
0.00074666663 -0.033600032 0.7840001 6.4431844e-40
0.0022399998 -0.033600029 0.7840001 5.5247453e-40
0.0037095239 -0.033385769 0.7790001 5.5318359e-40
0.0051933336 -0.033385772 0.7790001 5.5282766e-40
0.017063811 -0.033385765 0.7790001 8.2943557e-40
0.018547619 -0.033385761 0.7790001 7.3830633e-40
0.020031428 -0.033385765 0.7790001 6.4718689e-40
0.02146 -0.033300027 0.77700007 6.4646663e-40
0.022940002 -0.033300035 0.77700001 6.461163e-40
0.024357142 -0.033214316 0.7750001 8.2943697e-40
0.025766669 -0.033128604 0.77300012 1.0127366e-39
0.027133331 -0.033000048 0.7700001 1.0134415e-39
0.028525714 -0.032914311 0.76800007 1.0137974e-39
0.02994952 -0.032871436 0.76700008 1.1059888e-39
0.03116476 -0.032614306 0.7610001 1.197481e-39
0.03248572 -0.032485723 0.75800002 1.4733616e-39
0.033840004 -0.032400042 0.7560001 1.8403281e-39
0.035233337 -0.03235719 0.75500011 1.0119967e-39
0.036525711 -0.0322286 0.75200009 1.8405775e-40
0.037857153 -0.03214287 0.75000012 8.2060458e-39
0.03902382 -0.031928591 0.74500012 1.6237145e-38
0.040334295 -0.031842865 0.74300009 1.9831801e-38
0.041580956 -0.031714298 0.74000001 2.341769e-38
0.042932384 -0.031671464 0.73900008 2.341769e-38
0.044160008 -0.031542867 0.73600012 2.341769e-38
0.0454381 -0.031457193 0.73400009 2.341769e-38
0.046836197 -0.031457189 0.73400009 2.341769e-38
0.0022200001 -0.031820014 0.77700001 6.4467717e-40
0.0037 -0.031820051 0.77700007 7.3722452e-40
0.0051800008 -0.031820033 0.77700007 7.3686579e-40
0.0066600004 -0.031820033 0.77700007 8.2798382e-40
0.015640002 -0.032024767 0.78200012 8.2836077e-40
0.017085716 -0.031942926 0.78000009 8.2942996e-40
0.018547619 -0.03190193 0.7790001 8.3014042e-40
0.019980002 -0.031820036 0.77700001 8.3050055e-40
0.021459999 -0.031820018 0.77700001 7.3830633e-40
0.022821907 -0.031656202 0.77300012 5.542808e-40
0.024294285 -0.031656243 0.77300012 8.2907403e-40
0.025733335 -0.031615257 0.77200007 1.0130982e-39
0.027133333 -0.031533364 0.7700001 1.0134513e-39
0.028525714 -0.031451412 0.76800001 9.2233045e-40
0.02971524 -0.031164793 0.7610001 1.1989103e-39
0.03112381 -0.031123815 0.76000011 1.474435e-39
0.032400001 -0.030960033 0.75600004 1.9336307e-39
0.033795245 -0.030919088 0.75500011 2.2984406e-39
0.035140004 -0.030837161 0.75300008 1.1942412e-39
0.036525711 -0.030796224 0.75200009 1.0737169e-40
0.037756197 -0.030632412 0.74800009 1.1810746e-38
0.038919054 -0.030427648 0.74300009 2.3404338e-38
0.040280007 -0.03038669 0.7420001 2.341769e-38
0.041580953 -0.03030478 0.74000001 2.341769e-38
0.042816196 -0.030181931 0.73700011 2.341769e-38
0.044160005 -0.030140981 0.73600012 2.341769e-38
0.045561906 -0.030140977 0.73600012 2.341769e-38
-0.0092857145 -0.029285742 0.75000012 3.6988534e-40
-0.0078571439 -0.02928574 0.75000006 3.6988955e-40
-0.0064285719 -0.029285749 0.75000012 4.613593e-40
0.002214286 -0.030261939 0.7750001 7.3616094e-40
0.0036809528 -0.030183822 0.77300012 7.3723433e-40
0.005166667 -0.030261954 0.7750001 8.2906843e-40
0.0066428576 -0.030261936 0.7750001 9.2054379e-40
0.015640002 -0.030535271 0.78200012 7.3759026e-40
0.01702 -0.03034002 0.77700007 7.3830633e-40
0.018380953 -0.030144762 0.77200001 8.3049775e-40
0.019851429 -0.030144775 0.77200007 1.0141729e-39
0.021321904 -0.030144783 0.77200007 6.4647503e-40
0.022733333 -0.030066697 0.7700001 3.7060981e-40
0.024137143 -0.029988587 0.76800007 6.461163e-40
0.025666667 -0.030066725 0.7700001 1.013101e-39
0.027133331 -0.030066708 0.7700001 1.1052952e-39
0.028488573 -0.029949524 0.76700008 1.1056511e-39
0.029793333 -0.029793361 0.76300001 1.382231e-39
0.03112381 -0.029676205 0.76000011 1.7506702e-39
0.032400005 -0.029520029 0.7560001 1.4726736e-39
0.033705719 -0.02940288 0.75300014 1.1942734e-39
0.035093334 -0.029363839 0.75200009 4.5014037e-39
0.036331434 -0.029207662 0.74800014 7.9030683e-39
0.037705719 -0.029168604 0.7470001 1.5673016e-38
0.038919054 -0.02901241 0.74300009 2.341769e-38
0.040280011 -0.028973356 0.7420001 2.341769e-38
0.04152476 -0.028856212 0.73900008 2.341769e-38
0.042816192 -0.028778112 0.73700011 2.341769e-38
0.044160005 -0.028739069 0.73600012 2.341769e-38
0.045561906 -0.028739093 0.73600012 2.341769e-38
0.046836197 -0.02866099 0.73400009 2.341769e-38
-0.010714286 -0.027857171 0.75000006 6.4540444e-40
-0.0092857154 -0.027857175 0.75000012 4.6208798e-40
-0.0078571439 -0.027857183 0.75000012 5.5392067e-40
-0.0064285719 -0.02785716 0.75000012 5.542738e-40
-0.0050000004 -0.027857164 0.75000012 4.6279143e-40
-0.0035714288 -0.027857138 0.75000006 3.6987833e-40
0.0022142855 -0.028785747 0.7750001 7.3689101e-40
0.0036809526 -0.02871144 0.77300012 8.297957e-40
0.0051533338 -0.028711451 0.77300006 8.2943276e-40
0.0066428576 -0.028785734 0.7750001 1.0120248e-39
0.016932381 -0.028711461 0.77300012 6.4682956e-40
0.018333331 -0.028600037 0.7700001 9.2270039e-40
0.019800002 -0.028600043 0.7700001 1.10637e-39
0.021211429 -0.028525714 0.76800007 6.4647363e-40
0.022674285 -0.028525721 0.76800001 9.5817986e-41
0.024105715 -0.028488571 0.76700008 5.5463533e-40
0.025600001 -0.028525727 0.76800007 1.0141673e-39
0.027062856 -0.028525714 0.76800007 1.1971181e-39
0.028525716 -0.028525693 0.76800001 1.2900396e-39
0.029480956 -0.028042885 0.75500005 1.6573928e-39
0.030919047 -0.028042888 0.75500011 1.9314601e-39
0.032142866 -0.02785719 0.75000012 1.0116646e-39
0.033347625 -0.027671417 0.74500012 9.2631434e-41
0.034766667 -0.027671427 0.74500012 7.8983305e-39
0.036185715 -0.027671445 0.74500012 1.5659265e-38
0.03750382 -0.027597193 0.74300009 1.9560599e-38
0.038866676 -0.027560042 0.7420001 2.341769e-38
0.040171433 -0.027485743 0.74000007 2.341769e-38
0.04152476 -0.027448609 0.73900008 2.341769e-38
0.042816192 -0.027374292 0.73700011 2.341769e-38
0.044160005 -0.027337151 0.73600006 2.341769e-38
0.045438103 -0.027262904 0.73400009 2.341769e-38
0.046836197 -0.027262902 0.73400009 2.341769e-38
-0.010714286 -0.026428612 0.75000012 7.3761408e-40
-0.0092857154 -0.026428586 0.75000012 8.3015724e-40
-0.0078571439 -0.026428591 0.75000012 7.379518e-40
-0.0064285719 -0.026428601 0.75000012 5.5463533e-40
-0.0049999999 -0.026428601 0.75000006 5.54271e-40
-0.0035714288 -0.026428606 0.75000012 5.542766e-40
0.0036809528 -0.027239058 0.77300012 9.2199694e-40
0.0051533338 -0.027239075 0.77300012 9.2199273e-40
0.01682286 -0.027062858 0.76800007 6.471897e-40
0.018261906 -0.027027603 0.76700002 7.390364e-40
0.019722858 -0.027027616 0.76700002 9.2341925e-40
0.021128571 -0.026957171 0.7650001 6.4790716e-40
0.022585716 -0.02695716 0.7650001 3.7311533e-40
0.024042856 -0.026957177 0.7650001 7.4009578e-40
0.025433335 -0.026886692 0.76300001 1.2003411e-39
0.026886664 -0.026886683 0.76300001 1.3832862e-39
0.028340001 -0.0268867 0.76300001 1.6591766e-39
0.029480955 -0.026604788 0.75500011 1.3811828e-39
0.030919049 -0.026604816 0.75500011 1.0105814e-39
0.032142863 -0.026428601 0.75000012 3.1231257e-39
0.033437151 -0.026322898 0.7470001 5.2350871e-39
0.034673337 -0.026181959 0.74300009 1.2352082e-38
0.036088578 -0.026181938 0.74300009 1.9560525e-38
0.037453339 -0.026146699 0.74200004 2.1489145e-38
0.038761914 -0.026076213 0.74000007 2.341769e-38
0.040171437 -0.026076198 0.74000001 2.341769e-38
0.041524764 -0.026041031 0.73900008 2.341769e-38
0.042816192 -0.025970496 0.73700011 2.341769e-38
0.044160005 -0.025935246 0.73600006 2.341769e-38
0.04556191 -0.02593524 0.73600012 2.341769e-38
0.046963811 -0.025935257 0.73600006 2.341769e-38
-0.010714286 -0.025000021 0.75000012 9.21634e-40
-0.0092857154 -0.025000026 0.75000012 1.1967762e-39
-0.0078257155 -0.024900032 0.7470001 9.2090532e-40
-0.0064285723 -0.025000036 0.75000012 5.5391927e-40
-0.0050000004 -0.025000041 0.75000012 6.4539323e-40
-0.0035714288 -0.025000015 0.75000012 6.4575617e-40
0.016757146 -0.025500027 0.7650001 6.4646803e-40
0.018214285 -0.025500016 0.7650001 6.4612611e-40
0.019620001 -0.025433341 0.76300001 6.4683377e-40
0.021018095 -0.025366684 0.7610001 6.4790015e-40
0.022467621 -0.025366677 0.7610001 6.4826169e-40
0.023885712 -0.025333377 0.76000011 1.0163253e-39
0.025333334 -0.025333343 0.76000011 1.2921766e-39
0.026639998 -0.025200039 0.7560001 1.6598633e-39
0.027968572 -0.025100043 0.75300008 2.0243466e-39
0.029285716 -0.025000026 0.75000012 1.104928e-39
0.030714288 -0.025000032 0.75000012 9.2976153e-41
0.031928577 -0.024833359 0.74500012 5.2350801e-39
0.033347625 -0.024833374 0.74500012 1.0328813e-38
0.034673337 -0.024766691 0.74300009 1.6897295e-38
0.036040004 -0.024733361 0.7420001 2.3417654e-38
0.037453339 -0.024733376 0.7420001 2.341769e-38
0.038761906 -0.024666663 0.74000001 2.341769e-38
0.040117148 -0.024633376 0.73900008 2.341769e-38
0.04152476 -0.024633367 0.73900008 2.341769e-38
0.042816192 -0.02456668 0.73700011 2.341769e-38
0.044160008 -0.024533335 0.73600012 2.341769e-38
0.04556191 -0.024533357 0.73600012 2.341769e-38
-0.010714287 -0.023571433 0.75000012 8.2942996e-40
-0.0092485724 -0.023477187 0.7470001 1.1042176e-39
-0.0078047621 -0.02341429 0.74500012 8.2906843e-40
-0.0063857152 -0.023414299 0.74500012 5.5356194e-40
-0.0049666669 -0.023414316 0.74500012 5.5391927e-40
-0.0035571433 -0.023477193 0.7470001 6.4540164e-40
-0.0021285713 -0.023414306 0.74500012 5.5393048e-40
-0.00070952385 -0.023414316 0.74500012 5.5357595e-40
0.0007095238 -0.023414299 0.74500012 8.2872651e-40
0.0021600001 -0.023760052 0.7560001 1.1957112e-39
0.0036095239 -0.023822883 0.75800008 9.2199974e-40
0.0050400007 -0.023760049 0.7560001 7.3904621e-40
0.0064800004 -0.023760019 0.7560001 8.2980551e-40
0.0079200007 -0.023760047 0.7560001 9.2164241e-40
0.016669525 -0.023917163 0.7610001 8.2905862e-40
0.018119048 -0.023917152 0.7610001 8.2943837e-40
0.019568572 -0.023917176 0.7610001 8.2870829e-40
0.020879997 -0.023760043 0.7560001 8.3048794e-40
0.022320002 -0.023760034 0.7560001 8.3157395e-40
0.023759998 -0.023760037 0.7560001 1.1996418e-39
0.025166668 -0.023728618 0.75500011 1.6587997e-39
0.026358098 -0.023508616 0.74800009 1.3814799e-39
0.027745713 -0.023477158 0.7470001 1.1023861e-39
0.029090479 -0.023414284 0.74500006 3.031649e-39
0.030509524 -0.023414299 0.74500012 4.9602911e-39
0.031842861 -0.023351455 0.74300009 1.087983e-38
0.033258103 -0.02335147 0.74300009 1.6885809e-38
0.03462667 -0.023320014 0.7420001 2.0200578e-38
0.03589429 -0.023225747 0.73900008 2.341769e-38
0.037301909 -0.023225762 0.73900008 2.341769e-38
0.038709529 -0.023225753 0.73900008 2.341769e-38
0.040117148 -0.023225773 0.73900008 2.341769e-38
0.04141238 -0.023162868 0.73700011 2.341769e-38
0.042816192 -0.023162862 0.73700011 2.341769e-38
0.044160008 -0.023131453 0.73600012 2.341769e-38
0.04556191 -0.023131447 0.73600012 2.341769e-38
-0.0092485724 -0.022054324 0.7470001 9.2091513e-40
-0.007804763 -0.021995237 0.74500012 7.3723854e-40
-0.0064028581 -0.022054311 0.7470001 5.5392768e-40
-0.0049866666 -0.022083852 0.74800009 5.5428921e-40
-0.0035571428 -0.02205433 0.7470001 5.5428921e-40
-0.0021285715 -0.02199525 0.74500012 5.5429061e-40
-0.0007095238 -0.021995263 0.74500012 5.5357595e-40
0.00070952385 -0.021995248 0.74500012 9.1984594e-40
0.0021485714 -0.022201946 0.75200009 1.1960769e-39
0.0035857146 -0.022231443 0.75300008 8.2981672e-40
0.005020001 -0.022231473 0.75300014 4.6246913e-40
0.0064714295 -0.022290515 0.75500005 7.3725255e-40
0.0079095233 -0.022290519 0.75500011 9.2127947e-40
0.0093476186 -0.022290491 0.75500011 9.2091654e-40
0.016669525 -0.022467641 0.7610001 9.2161718e-40
0.018095238 -0.022438126 0.76000011 1.0134653e-39
0.01949143 -0.022379048 0.75800002 1.013817e-39
0.020852381 -0.022290522 0.75500011 1.0134527e-39
0.022290478 -0.022290513 0.75500005 9.2342346e-40
0.023665713 -0.022231441 0.75300008 1.4748078e-39
0.025 -0.022142889 0.75000012 1.932165e-39
0.026358098 -0.022083845 0.74800009 1.0127086e-39
0.02767143 -0.021995256 0.74500012 9.3688013e-41
0.029012382 -0.021936217 0.74300009 4.9595876e-39
0.030386666 -0.0219067 0.7420001 9.7785213e-39
0.031714287 -0.021847645 0.74000001 1.6621782e-38
0.033123814 -0.021847634 0.74000007 2.3414779e-38
0.034486674 -0.021818152 0.73900008 2.341769e-38
0.03589429 -0.021818142 0.73900008 2.341769e-38
0.037301909 -0.021818155 0.73900008 2.341769e-38
0.038709529 -0.021818152 0.73900008 2.341769e-38
0.040008578 -0.021759059 0.73700011 2.341769e-38
0.041356191 -0.021729557 0.73600012 2.341769e-38
0.0427581 -0.021729551 0.73600012 2.341769e-38
0.044160005 -0.021729542 0.73600012 2.341769e-38
0.045561906 -0.021729527 0.73600006 2.341769e-38
-0.0077838101 -0.020520959 0.74300009 8.2907824e-40
-0.0063857143 -0.0205762 0.74500012 6.4577158e-40
-0.0049666665 -0.020576213 0.74500012 5.5430042e-40
-0.0035571428 -0.02063146 0.7470001 5.5429622e-40
-0.0021285715 -0.0205762 0.74500006 5.5429061e-40
-0.0007095238 -0.020576213 0.74500012 4.6210059e-40
0.00070952385 -0.020576196 0.74500012 7.3689382e-40
0.0021371427 -0.020659084 0.74800009 1.0120528e-39
0.0035714288 -0.020714302 0.75000006 8.2911047e-40
0.0050000004 -0.020714307 0.75000012 5.5359277e-40
0.0064457147 -0.020769544 0.75200009 7.3725255e-40
0.0078885723 -0.020797165 0.75300008 8.297971e-40
0.0092857135 -0.020714296 0.75000012 9.2162419e-40
0.010714285 -0.020714305 0.75000012 9.2161999e-40
0.012110475 -0.020659085 0.74800009 1.0134499e-39
0.013535237 -0.020659091 0.74800009 1.1056455e-39
0.01496 -0.020659069 0.74800009 1.1056455e-39
0.016384764 -0.020659078 0.74800009 1.1056511e-39
0.017809521 -0.020659087 0.74800009 1.1985684e-39
0.019414289 -0.020852422 0.75500011 1.2000033e-39
0.020714285 -0.020714309 0.75000006 1.3825981e-39
0.02208381 -0.020659106 0.74800009 1.5670034e-39
0.023571426 -0.020714294 0.75000006 1.2886425e-39
0.024933333 -0.020659093 0.74800009 1.010594e-39
0.026322857 -0.02063147 0.7470001 3.5833906e-39
0.027597142 -0.020520974 0.74300009 6.1563245e-39
0.028973334 -0.020493362 0.7420001 1.1431947e-38
0.030304762 -0.020438116 0.74000001 1.6612828e-38
0.03171429 -0.020438133 0.74000001 2.0017624e-38
0.033079058 -0.020410528 0.73900008 2.341769e-38
0.034486674 -0.020410514 0.73900008 2.341769e-38
0.03589429 -0.020410508 0.73900008 2.341769e-38
0.037301909 -0.020410521 0.73900008 2.341769e-38
0.038604766 -0.020355282 0.73700011 2.341769e-38
0.040008578 -0.02035524 0.73700011 2.341769e-38
0.041412383 -0.020355256 0.73700011 2.341769e-38
-0.0091495244 -0.019002916 0.73900008 1.2882669e-39
-0.0077523808 -0.019028585 0.74000001 1.012036e-39
-0.00636 -0.01908002 0.7420001 6.4541145e-40
-0.0049533332 -0.019105751 0.74300009 6.4576878e-40
-0.0035476193 -0.019157171 0.74500012 5.5429622e-40
-0.0021228576 -0.019105745 0.74300009 4.6210619e-40
-0.00070761907 -0.019105759 0.74300009 3.6990916e-40
0.00070761895 -0.019105747 0.74300009 6.4505412e-40
0.0021285715 -0.019157158 0.74500012 8.2872231e-40
0.0035619051 -0.019234324 0.74800009 7.3688401e-40
0.004986668 -0.019234322 0.74800003 6.4576458e-40
0.0064114295 -0.019234333 0.74800009 7.3652247e-40
0.0078361901 -0.019234339 0.74800009 7.3759166e-40
0.0092609515 -0.019234352 0.74800009 8.2977889e-40
0.010685714 -0.019234328 0.74800009 9.2161718e-40
0.012094285 -0.019208636 0.7470001 1.105291e-39
0.013480951 -0.019157128 0.74500012 1.1974866e-39
0.014900001 -0.01915714 0.74500012 1.2896822e-39
0.01631905 -0.019157153 0.74500012 1.2900494e-39
0.017738095 -0.019157162 0.74500012 1.3826107e-39
0.019105716 -0.019105744 0.74300009 1.3826065e-39
0.020631427 -0.019208629 0.7470001 1.7499457e-39
0.022054285 -0.019208604 0.74700004 2.1151311e-39
0.023477141 -0.019208614 0.7470001 1.1024253e-39
0.024900001 -0.019208623 0.7470001 9.408458e-41
0.026252385 -0.01915714 0.74500012 6.1534897e-39
0.027597141 -0.019105732 0.74300009 1.2260976e-38
0.028973335 -0.019080028 0.7420001 1.7907493e-38
0.030304762 -0.0190286 0.74000007 2.3415504e-38
0.031714287 -0.019028587 0.74000001 2.341769e-38
0.033079054 -0.019002894 0.73900008 2.341769e-38
0.03448667 -0.019002911 0.73900008 2.341769e-38
0.03589429 -0.0190029 0.73900008 2.341769e-38
0.037301909 -0.019002916 0.73900008 2.341769e-38
0.038709529 -0.019002911 0.73900008 2.341769e-38
0.040008578 -0.018951423 0.73700011 2.341769e-38
-0.010528572 -0.017547637 0.73700011 8.2980831e-40
-0.0091247633 -0.017547628 0.73700011 7.3725395e-40
-0.0077419053 -0.017595295 0.73900008 5.5322142e-40
-0.0063428576 -0.017619064 0.74000007 3.7026089e-40
-0.0049466663 -0.017666679 0.7420001 3.6989515e-40
-0.0035333338 -0.017666692 0.7420001 3.7098536e-40
-0.0021200005 -0.017666705 0.7420001 2.7808628e-40
-0.00070666667 -0.017666718 0.7420001 2.7807647e-40
0.00070761907 -0.017690506 0.74300009 4.6137892e-40
0.0021228574 -0.017690515 0.74300009 5.5355633e-40
0.0035476196 -0.017738087 0.74500012 4.6170402e-40
0.0049800007 -0.01778578 0.7470001 4.6350609e-40
0.0063857143 -0.017738109 0.74500012 4.6171944e-40
0.0078257145 -0.017785769 0.7470001 5.5355073e-40
0.0092485724 -0.01778578 0.7470001 6.4573935e-40
0.010671428 -0.017785752 0.74700004 8.2978029e-40
0.012094285 -0.017785762 0.7470001 9.2198432e-40
0.013480951 -0.017738132 0.74500012 1.1060169e-39
0.014900001 -0.017738087 0.74500012 1.1060183e-39
0.016319051 -0.0177381 0.74500012 1.197865e-39
0.017738095 -0.017738109 0.74500012 1.5655769e-39
0.019157143 -0.017738087 0.74500006 1.9329119e-39
0.02057619 -0.0177381 0.74500012 1.4719323e-39
0.021995239 -0.017738109 0.74500012 1.1024141e-39
0.02341429 -0.017738124 0.74500012 5.4226047e-39
0.024833333 -0.0177381 0.74500006 9.7426032e-39
0.026181908 -0.017690485 0.74300009 1.3823327e-38
0.027597142 -0.017690498 0.74300009 1.7907528e-38
0.028973335 -0.017666673 0.7420001 2.0662625e-38
0.030304762 -0.017619055 0.74000001 2.341769e-38
0.031671435 -0.017595299 0.73900008 2.341769e-38
0.033079058 -0.017595289 0.73900008 2.341769e-38
0.034486674 -0.017595306 0.73900008 2.341769e-38
0.03589429 -0.017595265 0.73900008 2.341769e-38
0.037301909 -0.017595282 0.73900008 2.341769e-38
0.038709529 -0.017595273 0.73900008 2.341769e-38
-0.010528572 -0.016143816 0.73700011 5.5540885e-40
-0.0091247624 -0.016143812 0.73700011 1.8732838e-40
-0.0077209524 -0.016143829 0.73700011 1.8479764e-40
-0.0063342853 -0.016187647 0.73900008 9.3665592e-41
-0.0049266666 -0.01618767 0.73900008 9.2216649e-41
-0.0035238096 -0.016209526 0.74000001 9.3299853e-41
-0.0021114287 -0.016187673 0.73900008 1.8478502e-40
-0.00070380955 -0.016187668 0.73900008 1.8513955e-40
0.00070666667 -0.016253376 0.7420001 2.7697225e-40
0.0021200001 -0.016253363 0.7420001 2.7696384e-40
0.0035380954 -0.016275266 0.74300009 2.765967e-40
0.0049533341 -0.016275253 0.74300009 1.8548287e-40
0.0063685719 -0.016275266 0.74300009 2.7696384e-40
0.0077838101 -0.016275279 0.74300009 2.7731697e-40
0.0092238095 -0.016319044 0.74500006 4.6098375e-40
0.010642857 -0.016319057 0.74500012 6.4574916e-40
0.012061903 -0.016319068 0.74500012 8.3015724e-40
0.01344476 -0.016275275 0.74300009 1.0149114e-39
0.01486 -0.016275289 0.74300009 1.014201e-39
0.016275238 -0.016275246 0.74300009 1.0142164e-39
0.017690476 -0.016275255 0.74300009 1.7481983e-39
0.019105716 -0.01627527 0.74300009 2.3902999e-39
0.02052095 -0.016275283 0.74300009 1.2860935e-39
0.021936191 -0.016275296 0.74300009 1.0019564e-40
0.023351431 -0.016275251 0.74300009 9.7429942e-39
0.024766667 -0.016275268 0.74300009 1.9335211e-38
0.026181908 -0.016275277 0.74300009 2.1397277e-38
0.027559999 -0.016253358 0.7420001 2.3417675e-38
0.028973335 -0.016253375 0.7420001 2.341769e-38
0.03030476 -0.016209543 0.74000001 2.341769e-38
0.031671431 -0.01618766 0.73900008 2.341769e-38
0.033079058 -0.016187655 0.73900008 2.341769e-38
0.034486674 -0.016187672 0.73900008 2.341769e-38
0.03589429 -0.016187659 0.73900008 2.341769e-38
0.037301909 -0.016187677 0.73900008 2.341769e-38
-0.010528573 -0.01474 0.73700011 3.1332894e-39
-0.0091123823 -0.014720025 0.73600012 3.9547487e-39
-0.0077209529 -0.014740011 0.73700011 4.5111049e-39
-0.0063171433 -0.014740029 0.73700011 5.0542047e-39
-0.0049133343 -0.01474002 0.73700011 4.6025382e-39
-0.0035190482 -0.01478005 0.73900008 4.2255132e-39
-0.0021057145 -0.014740031 0.73700011 3.9546717e-39
-0.00070380949 -0.01478003 0.73900008 3.6737884e-39
0.000704762 -0.014799999 0.74000001 3.5844668e-39
0.0021142864 -0.014800016 0.74000001 3.3982847e-39
0.0035238096 -0.014800007 0.74000001 3.4940663e-39
0.0049466677 -0.014840035 0.7420001 3.6741499e-39
0.0063600009 -0.014840014 0.7420001 3.7720839e-39
0.0077523817 -0.014800025 0.74000007 3.8581754e-39
0.0091866665 -0.014840046 0.7420001 2.3030649e-39
0.010614284 -0.01486004 0.74300009 7.3794339e-40
0.012029523 -0.014860053 0.74300009 9.237948e-40
0.013444762 -0.014860008 0.74300009 1.1085546e-39
0.01486 -0.014860021 0.74300009 1.5666671e-39
0.016275236 -0.014860038 0.74300009 2.024788e-39
0.017690476 -0.014860049 0.74300009 2.3010316e-39
0.019105716 -0.014860036 0.74300015 2.665812e-39
0.02052095 -0.014860015 0.74300009 4.2341396e-39
0.021936189 -0.014860028 0.74300009 5.8098605e-39
0.023320002 -0.014840042 0.7420001 1.3369237e-38
0.024733333 -0.014840031 0.7420001 2.1029967e-38
0.026146669 -0.014840011 0.74200004 2.2223829e-38
0.027559999 -0.014840024 0.7420001 2.341769e-38
0.028973335 -0.014840038 0.7420001 2.341769e-38
0.030304762 -0.014800005 0.74000001 2.341769e-38
0.031671431 -0.014780058 0.73900008 2.341769e-38
0.032989528 -0.014740009 0.73700011 2.341769e-38
0.034393337 -0.014740026 0.73700011 2.341769e-38
0.03589429 -0.014780054 0.73900008 2.341769e-38
-0.0090628564 -0.013245752 0.73200011 7.6472346e-39
-0.0076685715 -0.01324575 0.73200011 8.851149e-39
-0.0063085719 -0.013318093 0.73600006 9.9492149e-39
-0.0049133333 -0.013336202 0.73700011 9.1305721e-39
-0.0035095243 -0.013336221 0.73700011 8.2911327e-39
-0.0021028572 -0.013318101 0.73600006 7.7350919e-39
-0.00070190482 -0.01333621 0.73700011 7.1822852e-39
0.00070380949 -0.013372438 0.73900008 6.897093e-39
0.0021114287 -0.013372432 0.73900008 6.5387123e-39
0.0035238096 -0.013390491 0.74000001 6.8109818e-39
0.004933334 -0.013390508 0.74000001 7.0943944e-39
0.0063428576 -0.0133905 0.74000007 7.2787954e-39
0.0077523817 -0.01339048 0.74000001 7.3695323e-39
0.0091619045 -0.013390474 0.74000001 4.0630733e-39
0.0106 -0.013426702 0.7420001 7.4588315e-40
0.012029524 -0.013444787 0.74300009 1.0181695e-39
0.013426666 -0.013426702 0.7420001 1.2018432e-39
0.014840002 -0.013426684 0.7420001 2.1187675e-39
0.016253334 -0.013426697 0.7420001 2.9467275e-39
0.017690476 -0.013444781 0.74300009 2.9485267e-39
0.019080002 -0.013426702 0.7420001 2.9528273e-39
0.02049333 -0.013426716 0.7420001 7.1754637e-39
0.021906668 -0.013426695 0.74200004 1.1431934e-38
0.023320002 -0.013426684 0.7420001 1.70767e-38
0.024733333 -0.013426701 0.7420001 2.2675813e-38
0.026146671 -0.013426714 0.7420001 2.3050348e-38
0.027559999 -0.013426701 0.7420001 2.341769e-38
0.028895238 -0.0133905 0.74000001 2.341769e-38
0.030263808 -0.013372436 0.73900008 2.341769e-38
0.031585719 -0.013336197 0.73700011 2.341769e-38
0.032989532 -0.013336213 0.73700011 2.341769e-38
0.03448667 -0.013372429 0.73900008 2.341769e-38
-0.0077104759 -0.011916192 0.73600006 6.0940312e-39
-0.0063085714 -0.011916209 0.73600006 6.7508633e-39
-0.0049133343 -0.011932408 0.73700011 6.8347982e-39
-0.0035095238 -0.011932403 0.73700011 7.0220439e-39
-0.0021028575 -0.011916216 0.73600012 7.2903618e-39
-0.00070095243 -0.011916207 0.73600012 7.5766274e-39
0.00070190476 -0.011932407 0.73700011 7.4743845e-39
0.0021057148 -0.011932427 0.73700011 7.4872834e-39
0.0035238098 -0.011980979 0.74000001 7.7530887e-39
0.004933334 -0.011980969 0.74000007 8.0426124e-39
0.0063428576 -0.011980955 0.74000001 7.2950407e-39
0.0077523813 -0.011980968 0.74000001 6.4720693e-39
0.0091619045 -0.011980958 0.74000001 3.97274e-39
0.010599999 -0.012013346 0.7420001 1.4809735e-39
0.012029524 -0.012029553 0.74300009 1.7546737e-39
0.01344476 -0.01202957 0.74300009 1.9394167e-39
0.01486 -0.012029549 0.74300009 2.6730203e-39
0.016253334 -0.01201334 0.7420001 3.408772e-39
0.017690476 -0.012029547 0.74300009 4.7041449e-39
0.019080002 -0.012013368 0.7420001 6.0002886e-39
0.020493332 -0.012013359 0.7420001 8.0225066e-39
0.021906668 -0.012013372 0.7420001 1.0063031e-38
0.023320001 -0.012013353 0.74200004 1.3749061e-38
0.024733335 -0.01201334 0.7420001 1.7423952e-38
0.026076192 -0.011980953 0.74000001 1.7429011e-38
0.027559999 -0.01201337 0.7420001 1.7356547e-38
0.02889524 -0.011980984 0.74000001 1.9462665e-38
0.030263809 -0.011964798 0.73900008 2.158098e-38
-0.0049066669 -0.010514295 0.73600012 4.6195401e-39
-0.0034952387 -0.01048577 0.73400009 5.721213e-39
-0.0020971433 -0.010485768 0.73400009 6.827192e-39
-0.00069904764 -0.010485727 0.73400009 7.9306627e-39
0.00070095237 -0.010514323 0.73600012 8.1200832e-39
0.0021057148 -0.010528607 0.73700011 8.2998011e-39
0.0035190478 -0.010557206 0.73900008 8.6710822e-39
0.004933334 -0.010571424 0.74000001 8.9444461e-39
0.0063428576 -0.010571443 0.74000001 7.2939295e-39
0.0077419048 -0.010557195 0.73900008 5.5357539e-39
0.0091619045 -0.010571446 0.74000001 3.875155e-39
0.0106 -0.010600045 0.7420001 2.2160008e-39
0.012029523 -0.010614311 0.74300009 2.4882633e-39
0.013444762 -0.010614302 0.74300009 2.6733622e-39
0.01486 -0.010614313 0.74300009 3.3169197e-39
0.016275236 -0.010614326 0.74300009 3.8733277e-39
0.017690476 -0.010614306 0.74300009 6.4594422e-39
0.019080002 -0.010600012 0.7420001 9.0315774e-39
0.020493332 -0.010600025 0.7420001 8.8504414e-39
0.021906668 -0.010600042 0.7420001 8.5857431e-39
0.023320002 -0.01060003 0.7420001 1.0432186e-38
0.024733335 -0.010600043 0.7420001 1.2175627e-38
0.026076192 -0.010571441 0.74000001 1.1701743e-38
0.027485713 -0.010571459 0.74000001 1.1261255e-38
0.02889524 -0.01057145 0.74000007 1.5495769e-38
0.030263808 -0.010557195 0.73900008 1.9729545e-38
-0.0034952383 -0.0090876501 0.73400009 3.8643482e-39
-0.0020971433 -0.0090876706 0.73400009 4.1474133e-39
-0.00070095243 -0.0091123804 0.73600006 4.423661e-39
0.00070095243 -0.0091123804 0.73600006 4.5169553e-39
0.0021028572 -0.0091123972 0.73600006 4.6048461e-39
0.0063342862 -0.0091495793 0.73900008 4.2382104e-39
0.0077209533 -0.0091247782 0.73700011 3.5827923e-39
0.0091495235 -0.0091495514 0.73900008 2.8549088e-39
0.010599999 -0.0091866888 0.7420001 2.2127582e-39
0.012029525 -0.009199081 0.74300009 2.4886038e-39
0.013444761 -0.009199094 0.74300009 2.765534e-39
0.01486 -0.0091990717 0.74300003 3.3168945e-39
0.016275238 -0.0091990586 0.74300009 3.8697376e-39
0.017690476 -0.0091990717 0.74300009 6.5469925e-39
0.019105716 -0.0091990903 0.74300009 9.2145309e-39
0.020493332 -0.0091867018 0.7420001 8.9418971e-39
0.021906668 -0.0091866832 0.7420001 8.6700186e-39
0.024733333 -0.0091866869 0.7420001 1.2083722e-38
0.026076192 -0.0091619287 0.74000007 1.1060582e-38
0.027485712 -0.0091619454 0.74000007 1.0042213e-38
0.02889524 -0.0091619007 0.74000001 1.2261762e-38
0.0021028572 -0.0077104867 0.73600012 8.3270199e-40
0.0063342866 -0.0077419411 0.73900008 1.1942987e-39
0.0077209524 -0.0077209603 0.73700011 1.6549097e-39
0.0093476186 -0.0079095811 0.75500011 1.9322084e-39
0.010757141 -0.0078886058 0.75300008 2.1190982e-39
0.012191428 -0.0078886095 0.75300008 2.4871492e-39
0.013625714 -0.0078885797 0.75300008 2.8559247e-39
0.01504 -0.0078781452 0.75200009 3.406579e-39
0.016472382 -0.0078781173 0.75200009 3.8744067e-39
0.017738095 -0.00780477 0.74500006 6.6438629e-39
0.019105714 -0.0077838227 0.74300009 9.3081727e-39
