# .PCD v0.7 - Point Cloud Data file format
VERSION 0.7
FIELDS x y z rgb
SIZE 4 4 4 4
TYPE F F F F
COUNT 1 1 1 1
WIDTH 956
HEIGHT 1
VIEWPOINT 0 0 0 1 0 0 0
POINTS 956
DATA ascii
0.045177147 -0.039782859 0.708 2.341769e-38
0.046657145 -0.039895259 0.71000004 2.341769e-38
0.048009526 -0.039895263 0.71000004 2.341769e-38
0.049361907 -0.039895285 0.70999998 2.341769e-38
-0.023766667 -0.038705736 0.71300006 1.1049967e-39
-0.022345716 -0.038597181 0.71100003 2.0258558e-39
-0.020902857 -0.038434301 0.708 1.750701e-39
-0.019526668 -0.038379993 0.70700002 1.5666699e-39
-0.018128568 -0.03827145 0.70500004 1.2897271e-39
-0.016761905 -0.038217179 0.704 1.0131472e-39
-0.015355238 -0.038054332 0.70100003 9.213131e-40
-0.014 -0.038000036 0.69999999 9.2166763e-40
-0.012666667 -0.038000043 0.70000005 7.3799243e-40
-0.011300953 -0.037891444 0.69799995 6.4614293e-40
-0.0099571431 -0.037837181 0.69699997 5.5393328e-40
-0.0086047612 -0.037728596 0.69500005 5.5431023e-40
-0.0072809523 -0.037728604 0.69500005 7.3871691e-40
-0.0059400005 -0.037620019 0.69300002 9.2311517e-40
-0.0046066665 -0.037511457 0.69099998 9.2204738e-40
-0.0032904763 -0.037511442 0.69099998 9.2169005e-40
-0.0019742856 -0.037511453 0.69099998 5.536306e-40
-0.00065619056 -0.037402902 0.68899995 9.233576e-41
0.00065619044 -0.037402887 0.68899995 2.4904969e-39
0.0019628571 -0.037294287 0.68700004 4.9095192e-39
0.0032809526 -0.037402879 0.68899995 1.3848862e-38
0.0045799999 -0.037294287 0.68700004 2.2866677e-38
0.0058885715 -0.037294306 0.68700004 2.1299016e-38
0.007197143 -0.037294291 0.68700004 1.9815926e-38
0.0085057132 -0.037294276 0.68700004 1.2708987e-38
0.0098428568 -0.037402894 0.68900001 5.6107024e-39
0.011155237 -0.037402879 0.68900001 3.3101052e-39
0.01246762 -0.037402891 0.68900001 1.1035492e-39
0.013780001 -0.037402876 0.68900001 1.1046324e-39
0.015114286 -0.037457179 0.69000006 1.0146102e-39
0.016404757 -0.037402876 0.68900001 8.3131751e-40
0.01771714 -0.037402887 0.68900001 7.3911488e-40
0.01902952 -0.037402872 0.68900001 8.3058183e-40
0.020341903 -0.037402879 0.68899995 1.0142528e-39
0.021685714 -0.037457187 0.69000006 1.1064471e-39
0.023 -0.037457172 0.69000006 1.1986413e-39
0.024314286 -0.037457187 0.69000006 1.2904768e-39
0.02562857 -0.037457172 0.69000006 1.4745107e-39
0.026981907 -0.037511434 0.69099998 2.1187983e-39
0.028298097 -0.037511446 0.69099998 2.7627146e-39
0.0297 -0.037620023 0.69300002 3.4984649e-39
0.031020001 -0.037620004 0.69300002 4.2454019e-39
0.032386664 -0.037674293 0.69400001 6.8337108e-39
0.033708569 -0.037674278 0.69400001 9.3975013e-39
0.035080951 -0.037728623 0.69500005 4.9685195e-39
0.036509521 -0.037837159 0.69700003 5.5732162e-40
0.037999999 -0.038000032 0.70000005 1.1994921e-38
0.039333332 -0.038000036 0.70000005 2.3417684e-38
0.040899046 -0.038217157 0.70400006 2.341769e-38
0.042300001 -0.038271461 0.70500004 2.341769e-38
0.04376667 -0.03837999 0.70700002 2.341769e-38
0.04530476 -0.03854287 0.71000004 2.341769e-38
0.046657145 -0.038542878 0.71000004 2.341769e-38
0.048009526 -0.0385429 0.70999998 2.341769e-38
0.049361907 -0.0385429 0.70999998 2.341769e-38
-0.023766669 -0.037347637 0.71300006 9.234655e-40
-0.022251431 -0.037085731 0.708 1.5670286e-39
-0.020902859 -0.037085731 0.708 1.5666671e-39
-0.019526666 -0.037033353 0.70700002 1.4744673e-39
-0.018128568 -0.036928602 0.70500004 1.1975216e-39
-0.016761903 -0.036876205 0.70400006 9.2166203e-40
-0.015355239 -0.036719099 0.70099998 9.2166903e-40
-0.014 -0.036666699 0.69999999 9.213075e-40
-0.012630476 -0.036561925 0.69799995 9.213061e-40
-0.011284762 -0.036509559 0.69699997 9.2165642e-40
-0.0099285711 -0.036404792 0.69500005 8.2909365e-40
-0.0086047603 -0.0364048 0.69500005 6.45794e-40
-0.0072704763 -0.036352385 0.69400001 9.213131e-40
-0.0059400001 -0.036300015 0.69299996 1.1053498e-39
-0.0046066665 -0.036195282 0.69099998 1.0128039e-39
-0.0032857142 -0.036142897 0.69000006 9.2169005e-40
-0.0019714285 -0.036142882 0.69000006 5.5542987e-40
-0.00065619044 -0.036090493 0.68899995 9.3759479e-41
0.00065333338 -0.035933342 0.68600005 3.6785066e-40
0.0019599998 -0.035933357 0.68600005 5.8174485e-40
0.0032666668 -0.035933342 0.68600005 1.1456809e-38
0.0045733331 -0.035933331 0.68600005 2.2214848e-38
0.0058800001 -0.035933346 0.68600005 2.2683006e-38
0.0071866666 -0.035933334 0.68600005 2.3037735e-38
0.0084933322 -0.035933349 0.68600005 1.7051511e-38
0.0097999992 -0.035933334 0.68600005 1.1052362e-38
0.011106665 -0.035933346 0.68599999 5.6996484e-39
0.012413333 -0.035933357 0.68599999 2.7776398e-40
0.01374 -0.035985738 0.68700004 8.2769796e-40
0.015092382 -0.036090504 0.68899995 1.3812347e-39
0.016404759 -0.036090516 0.68899995 1.1997287e-39
0.01771714 -0.036090501 0.68899995 1.0146116e-39
0.01902952 -0.036090512 0.68899995 1.1057198e-39
0.020341905 -0.036090501 0.68900001 1.1986329e-39
0.021654285 -0.036090516 0.68900001 1.2911872e-39
0.022966666 -0.036090501 0.68900001 1.2911914e-39
0.024279047 -0.036090512 0.68900001 1.3837472e-39
0.02562857 -0.036142893 0.69000006 1.4755855e-39
0.026942857 -0.036142875 0.69000006 2.1184368e-39
0.028257143 -0.036142889 0.69000006 2.7609139e-39
0.029614288 -0.036195252 0.69100004 3.215774e-39
0.030930478 -0.036195263 0.69100004 3.6021946e-39
0.032386668 -0.036352396 0.69400001 6.6611717e-39
0.033708572 -0.036352407 0.69400001 9.5786471e-39
0.035080951 -0.0364048 0.69499999 4.8676793e-39
0.036404766 -0.036404811 0.69500005 2.0216113e-40
0.037891429 -0.036561932 0.69799995 1.1815202e-38
0.039333332 -0.036666702 0.69999999 2.331796e-38
0.040724766 -0.036719088 0.70100003 2.341769e-38
0.042300005 -0.03692859 0.70500004 2.341769e-38
0.043766666 -0.037033349 0.70700002 2.341769e-38
0.045177147 -0.037085705 0.708 2.341769e-38
0.046525717 -0.037085727 0.70799994 2.341769e-38
0.048009522 -0.037190512 0.70999998 2.341769e-38
0.049361903 -0.037190516 0.70999998 2.341769e-38
-0.022251429 -0.035737142 0.708 1.5684552e-39
-0.020902857 -0.035737168 0.70799994 1.567379e-39
-0.019443808 -0.035535272 0.704 1.5662958e-39
-0.018077141 -0.035484791 0.70299995 1.2897047e-39
-0.016738093 -0.035484768 0.70299995 1.1046085e-39
-0.015289524 -0.035232399 0.69799995 1.0131416e-39
-0.013940001 -0.035181928 0.69700003 9.2094877e-40
-0.012576192 -0.035080981 0.69500005 8.29472e-40
-0.011252381 -0.035080988 0.69500005 7.387099e-40
-0.0099142864 -0.035030469 0.69400001 7.376295e-40
-0.0085799992 -0.034980025 0.69300002 8.2911327e-40
-0.0072599999 -0.03498001 0.69300002 9.213145e-40
-0.0059228572 -0.034879062 0.69099998 1.0127969e-39
-0.0046066665 -0.034879077 0.69099998 9.2096558e-40
-0.0032857142 -0.034828592 0.69000006 9.2169145e-40
-0.0019714283 -0.034828603 0.69000006 8.2986436e-40
-0.00065333326 -0.034626689 0.68600005 7.3623941e-40
0.00065333338 -0.034626681 0.68600005 5.5436488e-40
0.0019542857 -0.034525745 0.68400002 3.7831836e-40
0.0032571428 -0.034525733 0.68400002 9.233e-39
0.0045599998 -0.034525726 0.68400002 1.8169768e-38
0.0058628572 -0.034525741 0.68400002 2.0659397e-38
0.0071657146 -0.034525726 0.68400002 2.3141802e-38
0.0084685711 -0.034525741 0.68400002 1.889905e-38
0.0097714281 -0.034525733 0.68400002 1.4561889e-38
0.011074286 -0.034525719 0.68400002 7.4603337e-39
0.012377143 -0.034525733 0.68400002 4.5965813e-40
0.013680001 -0.034525726 0.68400002 1.0117333e-39
0.015026667 -0.034626674 0.68599999 1.6567398e-39
0.016333332 -0.034626685 0.68599999 1.3815976e-39
0.01764 -0.03462667 0.68599999 1.1053624e-39
0.018946666 -0.034626689 0.68600005 1.1979028e-39
0.020253332 -0.034626674 0.68600005 1.2908187e-39
0.02156 -0.034626693 0.68600005 1.382657e-39
0.0229 -0.034677166 0.68700004 1.4744995e-39
0.024208572 -0.034677152 0.68700004 1.4748652e-39
0.025591427 -0.03477814 0.68899995 1.5677783e-39
0.02690381 -0.034778126 0.68899995 2.11915e-39
0.028216191 -0.034778137 0.68899995 2.7627006e-39
0.029571431 -0.034828618 0.69000006 2.7608915e-39
0.030885717 -0.034828603 0.69000006 2.7659894e-39
0.032246664 -0.034879047 0.69099998 6.1862198e-39
0.033659998 -0.034980025 0.69300002 9.4907451e-39
0.034979999 -0.03498001 0.69300002 7.3586793e-39
0.036352385 -0.03503048 0.69400001 5.3327366e-39
0.03772857 -0.035080999 0.69499999 1.4291179e-38
0.039164763 -0.035181917 0.69700003 2.3325854e-38
0.040550474 -0.035232406 0.69800001 2.3325854e-38
0.042180002 -0.035484802 0.70299995 2.341769e-38
0.04376667 -0.035686679 0.70700002 2.341769e-38
0.045113336 -0.035686657 0.70700002 2.341769e-38
0.046525717 -0.035737142 0.708 2.341769e-38
0.048009526 -0.035838127 0.70999998 2.341769e-38
0.049361907 -0.035838131 0.71000004 2.341769e-38
-0.022251431 -0.034388579 0.708 1.5680908e-39
-0.020902859 -0.034388579 0.708 1.5673762e-39
-0.019443808 -0.034194302 0.70400006 1.5670202e-39
-0.018077141 -0.034145739 0.70299995 1.4744715e-39
-0.016690474 -0.034048609 0.70100003 1.2893669e-39
-0.01526762 -0.033854332 0.69699997 1.1046226e-39
-0.013940001 -0.033854317 0.69699997 9.2095297e-40
-0.012576191 -0.033757191 0.69500005 7.3728338e-40
-0.01123619 -0.033708591 0.69400001 5.5396972e-40
-0.0098999999 -0.033660017 0.69300002 7.3728058e-40
-0.0085799983 -0.033659998 0.69300002 9.2095577e-40
-0.0072390484 -0.03356288 0.69100004 9.2167884e-40
-0.0059228577 -0.033562865 0.69099998 8.2913149e-40
-0.0045999992 -0.033514325 0.69000006 9.2025372e-40
-0.0032857142 -0.033514313 0.69000006 9.2169566e-40
-0.0019685712 -0.033465743 0.68899995 1.1060911e-39
-0.00065333326 -0.033319999 0.68600005 1.2883244e-39
0.00065142853 -0.033222888 0.68400002 7.3515761e-40
0.0019542857 -0.033222873 0.68399996 1.0566211e-40
0.0032571428 -0.033222888 0.68400002 7.1099922e-39
0.0045599993 -0.03322288 0.68400002 1.4118588e-38
0.0058628572 -0.033222895 0.68400002 1.873408e-38
0.0071657142 -0.03322288 0.68400002 2.3232573e-38
0.0084685721 -0.033222873 0.68400002 2.065758e-38
0.0097571425 -0.033174288 0.68300003 1.8058835e-38
0.011058095 -0.033174332 0.68299997 9.3042406e-39
0.012359047 -0.033174317 0.68299997 5.5867388e-40
0.01366 -0.033174306 0.68299997 1.1943183e-39
0.014982858 -0.033222865 0.68400002 1.8393275e-39
0.016285714 -0.03322288 0.68400002 1.4723541e-39
0.017588571 -0.033222873 0.68400002 1.1057198e-39
0.018891428 -0.033222858 0.68400002 1.1975469e-39
0.020194285 -0.033222876 0.68400002 1.290104e-39
0.021497142 -0.033222865 0.68400002 1.4737792e-39
0.022866668 -0.033320013 0.68600005 1.5659777e-39
0.024173334 -0.033320021 0.68599999 1.5645455e-39
0.025517145 -0.03336858 0.68700004 1.5670581e-39
0.02690381 -0.033465747 0.68900001 2.119506e-39
0.028216191 -0.033465728 0.68900001 2.6708595e-39
0.029571429 -0.03351431 0.69000006 2.2995532e-39
0.030885715 -0.033514321 0.69000006 1.9448467e-39
0.032246668 -0.033562869 0.69099998 5.7352932e-39
0.033562858 -0.033562876 0.69100004 9.397888e-39
0.034979999 -0.033660036 0.69299996 9.9273154e-39
0.036352381 -0.033708584 0.69400001 1.0414596e-38
0.037728574 -0.033757176 0.69499999 1.6873693e-38
0.039052382 -0.033757184 0.69500005 2.3228279e-38
0.040492378 -0.033854309 0.69699997 2.3325854e-38
0.04188 -0.033902884 0.69800001 2.341769e-38
0.04364286 -0.034242876 0.70500004 2.341769e-38
0.045177143 -0.034388598 0.70799994 2.341769e-38
0.046525713 -0.034388576 0.70799994 2.341769e-38
0.048009526 -0.034485742 0.70999998 2.341769e-38
0.049361907 -0.034485746 0.71000004 2.341769e-38
-0.022251429 -0.033040009 0.70799994 2.0269054e-39
-0.020873334 -0.03299335 0.70699996 1.7514017e-39
-0.019443808 -0.032853346 0.70400006 1.5681048e-39
-0.018077143 -0.032806691 0.70299995 1.4744911e-39
-0.016666666 -0.032666717 0.69999999 1.2893796e-39
-0.015267619 -0.032526691 0.69699997 1.1049841e-39
-0.0139 -0.032433387 0.69500005 1.0127927e-39
-0.012576191 -0.032433368 0.69500005 7.3728898e-40
-0.01123619 -0.03238669 0.69400001 4.6106503e-40
-0.009899999 -0.032340016 0.69299996 8.2876575e-40
-0.0085552381 -0.03224669 0.69099998 1.1039177e-39
-0.0072390474 -0.032246675 0.69099998 1.0124437e-39
-0.0059142858 -0.032200038 0.69000006 9.2025512e-40
-0.0045999992 -0.03220002 0.69000006 9.2061806e-40
-0.0032809523 -0.032153349 0.68900001 1.0138941e-39
-0.0019628569 -0.032060027 0.68700004 1.1975693e-39
-0.00065142859 -0.031920001 0.68400002 1.3812333e-39
0.00065142853 -0.03192002 0.68400002 8.2913709e-40
0.0019542857 -0.031920005 0.68400002 2.807039e-40
0.0032571431 -0.03192002 0.68400002 5.7277654e-39
0.0045599998 -0.031920012 0.68400002 1.1265932e-38
0.0058628572 -0.031919997 0.68400002 1.6149054e-38
0.0071657142 -0.031920038 0.68399996 2.1121803e-38
0.0084561901 -0.031873353 0.68300003 1.9921125e-38
0.0097571425 -0.031873342 0.68300003 1.871175e-38
0.011058095 -0.03187336 0.68300003 1.0780087e-38
0.012359047 -0.031873371 0.68299997 2.8473922e-39
0.013660001 -0.03187336 0.68299997 2.0215454e-39
0.014960953 -0.031873375 0.68299997 1.2890264e-39
0.016261904 -0.031873364 0.68299997 1.1979196e-39
0.017562857 -0.031873353 0.68299997 1.1989902e-39
0.01889143 -0.031920012 0.68400002 1.2901026e-39
0.020194286 -0.031920031 0.68400002 1.3812263e-39
0.021497143 -0.031920023 0.68400002 1.4741422e-39
0.022800002 -0.031920008 0.68400002 1.5670539e-39
0.024102859 -0.031920027 0.68400002 1.7503661e-39
0.025480002 -0.032013346 0.68599999 1.8429205e-39
0.026825715 -0.032060001 0.68700004 2.580833e-39
0.028134286 -0.032060016 0.68700004 3.2265304e-39
0.029528571 -0.032153357 0.68899995 2.5789973e-39
0.030885717 -0.032200016 0.69000006 1.8461911e-39
0.032200001 -0.032200027 0.69000006 6.0947417e-39
0.033562854 -0.032246675 0.69100004 1.0325626e-38
0.034879047 -0.032246687 0.69100004 1.0600768e-38
0.036300004 -0.032340024 0.69300002 1.0993287e-38
0.037674289 -0.032386672 0.69400001 1.6876563e-38
0.039052378 -0.032433368 0.69499999 2.2866677e-38
0.04037619 -0.032433376 0.69499999 2.3142183e-38
0.041820001 -0.032526683 0.69700003 2.341769e-38
0.04339524 -0.032713361 0.70100003 2.341769e-38
0.045113336 -0.03299335 0.70700002 2.341769e-38
0.046525717 -0.033040013 0.708 2.341769e-38
0.048009522 -0.033133358 0.71000004 2.341769e-38
-0.023566669 -0.03164668 0.70700002 1.7496066e-39
-0.02215714 -0.031557184 0.70500004 2.3935355e-39
-0.02078476 -0.031512421 0.704 2.0265564e-39
-0.019416191 -0.031467661 0.70299995 1.5670272e-39
-0.018025711 -0.031378143 0.70100003 1.4744827e-39
-0.016666664 -0.031333357 0.70000005 1.2893712e-39
-0.01522381 -0.031109557 0.69499999 1.1968126e-39
-0.013900001 -0.031109564 0.69499999 1.0131472e-39
-0.012558095 -0.03106479 0.69400001 7.3800365e-40
-0.01122 -0.031020012 0.69300002 3.7030293e-40
-0.0098999999 -0.031020023 0.69300002 8.2876294e-40
-0.0085552381 -0.030930486 0.69099998 1.2875873e-39
-0.0072285715 -0.030885745 0.69000006 1.1035618e-39
-0.0059142853 -0.030885734 0.69000006 9.2061105e-40
-0.0045999992 -0.030885741 0.69000006 1.0120906e-39
-0.0032714289 -0.030751454 0.68700004 1.0131724e-39
-0.0019599998 -0.030706685 0.68599999 1.2894006e-39
-0.00065142848 -0.030617159 0.68400002 1.4723513e-39
0.00065142853 -0.030617177 0.68400002 1.0110186e-39
0.0019514286 -0.030572411 0.68300003 4.6829713e-40
0.0032571428 -0.030617151 0.68400002 4.4380706e-39
0.0045533334 -0.030572413 0.68300003 8.3099395e-39
0.0058542858 -0.030572401 0.68300003 1.3658351e-38
0.0071657146 -0.03061717 0.68400002 1.8904825e-38
0.0084561901 -0.030572411 0.68300003 1.9101422e-38
0.0097571425 -0.030572399 0.68300003 1.926206e-38
0.011058095 -0.030572385 0.68300003 1.2257376e-38
0.012359048 -0.030572401 0.68300003 5.1572772e-39
0.01364 -0.030527666 0.68199998 2.9391661e-39
0.014960953 -0.030572401 0.68299997 6.4545068e-40
0.016238095 -0.030527644 0.68199998 9.2241032e-40
0.017537141 -0.030527664 0.68199998 1.1982699e-39
0.018863808 -0.030572396 0.68299997 1.2900998e-39
0.020164762 -0.030572413 0.68299997 1.3812249e-39
0.021465713 -0.030572403 0.68299997 1.4737862e-39
0.022800002 -0.030617163 0.68400002 1.5666979e-39
0.024102859 -0.030617151 0.68400002 1.8436407e-39
0.025480002 -0.030706685 0.68599999 2.120222e-39
0.026825717 -0.030751443 0.68700004 2.9499687e-39
0.028134288 -0.030751428 0.68700004 3.7761056e-39
0.029528569 -0.030840974 0.68900001 2.7601502e-39
0.03084095 -0.030840963 0.68900001 1.7608072e-39
0.032199997 -0.030885749 0.69000006 6.4710492e-39
0.033514284 -0.030885734 0.69000006 1.1153578e-38
0.034879047 -0.030930482 0.69099998 1.1340832e-38
0.0363 -0.031020001 0.69300002 1.1530297e-38
0.037620001 -0.031020034 0.69299996 1.6955822e-38
0.038996194 -0.031064782 0.69400001 2.239852e-38
0.040376194 -0.031109553 0.69499999 2.2958513e-38
0.041820005 -0.031199064 0.69699997 2.341769e-38
0.043333333 -0.031333361 0.69999999 2.341769e-38
0.044730477 -0.031378131 0.70099998 2.341769e-38
0.046262857 -0.031512406 0.70400006 2.341769e-38
-0.023566667 -0.030300017 0.70700002 1.5659412e-39
-0.022094283 -0.030128598 0.70299995 2.0254816e-39
-0.020755235 -0.030128602 0.70299995 1.7503381e-39
-0.019416189 -0.030128609 0.70299995 1.5666671e-39
-0.018025713 -0.03004289 0.70100003 1.4741141e-39
-0.016666668 -0.030000053 0.69999999 1.289004e-39
-0.01522381 -0.029785765 0.69499999 1.1049701e-39
-0.013900001 -0.029785747 0.69499999 1.0127829e-39
-0.01254 -0.029700004 0.69300002 7.3800084e-40
-0.011187619 -0.029614313 0.69099998 4.6321182e-40
-0.009871427 -0.029614296 0.69099998 7.3764211e-40
-0.0085428571 -0.029571453 0.69000006 1.1039149e-39
-0.0072285715 -0.02957144 0.69000006 9.2096698e-40
-0.0059057144 -0.02952861 0.68900001 8.3056782e-40
-0.0045999996 -0.029571455 0.69000006 8.2985035e-40
-0.0032666668 -0.029400004 0.68599999 7.37303e-40
-0.00196 -0.029400021 0.68599999 1.1975609e-39
-0.00065142859 -0.029314313 0.68400002 1.6570985e-39
0.00065142853 -0.029314302 0.68400002 1.1042919e-39
0.0019514286 -0.029271465 0.68300003 5.5149783e-40
0.0032523812 -0.02927145 0.68299997 3.8701439e-39
0.0045533334 -0.029271439 0.68300003 7.1834819e-39
0.0058542858 -0.029271455 0.68300003 1.1431316e-38
0.0071552382 -0.029271448 0.68300003 1.5675862e-38
0.0084561892 -0.029271437 0.68300003 1.7340046e-38
0.009742857 -0.029228624 0.68199998 1.8988362e-38
0.011041905 -0.029228613 0.68199998 1.2812365e-38
0.012340953 -0.029228602 0.68199998 6.6255746e-39
0.01364 -0.029228618 0.68199998 3.5855851e-39
0.014939047 -0.029228607 0.68199998 4.6105242e-40
0.016238095 -0.029228596 0.68199998 8.3021329e-40
0.017537141 -0.029228613 0.68199998 1.2897439e-39
0.018836189 -0.029228602 0.68199998 1.0138731e-39
0.020164762 -0.029271467 0.68299997 8.2913569e-40
0.021465713 -0.029271455 0.68299997 1.1979224e-39
0.022766666 -0.029271444 0.68299997 1.5659847e-39
0.024102857 -0.029314309 0.68400002 1.934763e-39
0.025405716 -0.029314326 0.68400002 2.3957313e-39
0.026786668 -0.029400008 0.68600005 3.5009817e-39
0.028093334 -0.029400021 0.68600005 4.6065669e-39
0.029528571 -0.029528618 0.68899995 3.1307138e-39
0.030840952 -0.029528603 0.68899995 1.6592803e-39
0.032199997 -0.02957144 0.69000006 6.4595655e-39
0.033514284 -0.029571479 0.69000006 1.1242542e-38
0.034879047 -0.029614303 0.69099998 1.0232347e-38
0.036300004 -0.029700026 0.69300002 9.2182556e-39
0.037620004 -0.029700007 0.69300002 1.5118372e-38
0.038996194 -0.029742859 0.69400001 2.111927e-38
0.040318098 -0.02974287 0.69400001 2.2223111e-38
0.041699998 -0.029785747 0.69499999 2.341769e-38
0.043147624 -0.02987146 0.69700003 2.341769e-38
0.044666667 -0.030000038 0.69999999 2.341769e-38
0.046197146 -0.030128611 0.70299995 2.341769e-38
-0.022094283 -0.02878955 0.70300001 1.5666657e-39
-0.020755235 -0.02878955 0.70299995 1.5666727e-39
-0.019360952 -0.02870765 0.70099998 1.5663112e-39
-0.017999999 -0.02866669 0.70000005 1.4741141e-39
-0.016619047 -0.028584782 0.69799995 1.2890026e-39
-0.01522381 -0.028461922 0.69500005 1.1046099e-39
-0.01388 -0.028420962 0.69400001 9.2094456e-40
-0.012539999 -0.028380031 0.69300002 7.3835677e-40
-0.011187619 -0.02829811 0.69099998 5.5467877e-40
-0.0098571423 -0.028257182 0.69000006 7.3798543e-40
-0.0085428571 -0.028257171 0.69000006 8.29472e-40
-0.0072180959 -0.028216217 0.68900001 8.2984054e-40
-0.0059057148 -0.028216202 0.68900001 7.3836658e-40
-0.0045800004 -0.028134296 0.68700004 6.4725275e-40
-0.0032714286 -0.028134303 0.68699998 4.6323144e-40
-0.0019599998 -0.028093357 0.68600005 1.1982825e-39
-0.00065142848 -0.028011449 0.68400002 1.8400478e-39
0.00065047626 -0.0279705 0.68299997 1.2886691e-39
0.0019514287 -0.027970489 0.68299997 6.4478647e-40
0.003252381 -0.027970502 0.68300003 3.3069831e-39
0.0045533329 -0.027970495 0.68299997 5.9939435e-39
0.0058542858 -0.027970485 0.68299997 9.2068056e-39
0.0071552382 -0.0279705 0.68300003 1.2364751e-38
0.008456191 -0.027970491 0.68300003 1.5594444e-38
0.009742857 -0.027929546 0.68199998 1.8711034e-38
0.011041905 -0.027929563 0.68199998 1.3469878e-38
0.012340954 -0.027929556 0.68199998 8.1006696e-39
0.013600001 -0.027847659 0.68000001 4.224863e-39
0.014895239 -0.027847648 0.68000001 2.7846743e-40
0.016190475 -0.027847636 0.68000001 8.3093496e-40
0.017485714 -0.027847661 0.68000001 1.2897495e-39
0.018780952 -0.02784765 0.68000001 8.3020908e-40
0.020135237 -0.027929544 0.68200004 2.7884298e-40
0.021465713 -0.02797051 0.68299997 9.2205439e-40
0.022766666 -0.027970502 0.68299997 1.4737876e-39
0.024102859 -0.028011441 0.68400002 2.0255209e-39
0.025405716 -0.02801143 0.68400002 2.5794037e-39
0.026708573 -0.028011447 0.68400002 3.9601647e-39
0.028093334 -0.028093355 0.68599999 5.3384006e-39
0.02944286 -0.02813429 0.68700004 3.4966545e-39
0.030840952 -0.028216224 0.68900001 1.5739216e-39
0.032153331 -0.028216209 0.68900001 6.4656696e-39
0.033465713 -0.02821622 0.68900001 1.1336168e-38
0.034828573 -0.028257184 0.69000006 9.1278004e-39
0.036195237 -0.02829811 0.69099998 6.8326669e-39
0.037620004 -0.028380012 0.69300002 1.3271234e-38
0.03899619 -0.028420966 0.69400001 1.9729887e-38
0.040318094 -0.028420975 0.69400001 2.158098e-38
0.041699998 -0.028461952 0.69499999 2.341769e-38
0.04314762 -0.028543843 0.69699997 2.341769e-38
0.044666667 -0.028666705 0.70000005 2.341769e-38
0.046065718 -0.02870765 0.70099998 2.341769e-38
-0.023499999 -0.027528618 0.70500004 1.2907935e-39
-0.022094285 -0.027450502 0.70299995 1.5670272e-39
-0.020696189 -0.027372416 0.70100003 1.9340203e-39
-0.019333331 -0.027333371 0.69999999 2.3009979e-39
-0.017948572 -0.027255261 0.69799995 1.7489018e-39
-0.016595235 -0.027216226 0.69699997 1.2882837e-39
-0.01522381 -0.027138127 0.69500005 1.1042484e-39
-0.013859999 -0.027060024 0.69300002 9.2022429e-40
-0.012503809 -0.02698192 0.69099998 7.376351e-40
-0.011187618 -0.026981931 0.69099998 6.4614713e-40
-0.0098571423 -0.026942877 0.69000006 6.4613452e-40
-0.0085428571 -0.02694289 0.69000006 7.3798263e-40
-0.0072180955 -0.026903857 0.68899995 8.29472e-40
-0.0059057144 -0.026903842 0.68899995 9.2167324e-40
-0.0045799999 -0.026825704 0.68700004 8.3056221e-40
-0.0032666668 -0.026786676 0.68600005 8.3164962e-40
-0.0019599998 -0.026786665 0.68600005 1.1975679e-39
-0.00065142859 -0.026708603 0.68400002 1.5623847e-39
0.0006504762 -0.026669554 0.68299997 1.7471165e-39
0.0019514287 -0.026669543 0.68299997 2.0241322e-39
0.0032523812 -0.02666956 0.68299997 6.0857734e-39
0.0045466665 -0.026630515 0.68199998 1.0155976e-38
0.0058457144 -0.026630504 0.68199998 1.1716128e-38
0.0071447617 -0.026630521 0.68199998 1.3389639e-38
0.0084438091 -0.02663051 0.68199998 1.4671055e-38
0.0097142858 -0.026552431 0.67999995 1.6046702e-38
0.011009524 -0.02655242 0.67999995 1.1612318e-38
0.012304762 -0.026552413 0.67999995 7.071811e-39
0.013600001 -0.026552429 0.67999995 3.8586141e-39
0.014895239 -0.026552422 0.67999995 6.4797162e-40
0.016190475 -0.026552413 0.67999995 1.0156849e-39
0.017485714 -0.026552431 0.68000001 1.4737848e-39
0.018780952 -0.026552422 0.68000001 1.1057226e-39
0.020076189 -0.026552411 0.67999995 8.2985736e-40
0.021434285 -0.02663051 0.68199998 1.1053638e-39
0.022733333 -0.026630525 0.68199998 1.3812319e-39
0.024067618 -0.026669545 0.68299997 2.0258768e-39
0.025368571 -0.026669556 0.68299997 2.6708819e-39
0.026708573 -0.026708573 0.68400002 3.5006327e-39
0.02801143 -0.026708588 0.68400002 4.4229338e-39
0.029400002 -0.026786679 0.68599999 2.9467499e-39
0.030751431 -0.026825715 0.68700004 1.4702676e-39
0.032153334 -0.026903853 0.68899995 5.3525285e-39
0.033465717 -0.026903838 0.68899995 9.2332761e-39
0.034828573 -0.026942879 0.69000006 8.6729165e-39
0.036195241 -0.026981905 0.69099998 8.1108136e-39
0.037620001 -0.027060013 0.69300002 1.3643214e-38
0.038996194 -0.027099043 0.69400001 1.9183166e-38
0.040318098 -0.027099054 0.69400001 2.1302962e-38
0.041700002 -0.027138108 0.69500005 2.341769e-38
0.043147624 -0.027216204 0.69699997 2.341769e-38
0.044539049 -0.027255259 0.69800001 2.341769e-38
0.046 -0.027333383 0.69999999 2.341769e-38
-0.023433333 -0.026111446 0.70299995 1.2911494e-39
-0.022031428 -0.026037186 0.70100003 1.5666713e-39
-0.020696189 -0.026037164 0.70100003 2.3010134e-39
-0.019333333 -0.026000042 0.69999999 2.9434961e-39
-0.017948572 -0.025925726 0.69799995 2.1158934e-39
-0.016595237 -0.025888585 0.69699997 1.2882936e-39
-0.015201906 -0.025777133 0.69400001 1.1035422e-39
-0.013860001 -0.025740001 0.69300002 8.2875734e-40
-0.012485715 -0.025628602 0.69000006 7.3764211e-40
-0.011171428 -0.025628611 0.69000006 6.4651988e-40
-0.0098571423 -0.0256286 0.69000006 6.4543807e-40
-0.0085304761 -0.025591463 0.68900001 5.5396691e-40
-0.0072180955 -0.025591452 0.68900001 8.2876154e-40
-0.005888572 -0.025517154 0.68700004 1.0135171e-39
-0.0045800004 -0.025517143 0.68700004 1.1046436e-39
-0.0032666668 -0.025480038 0.68599999 1.1064442e-39
-0.0019599998 -0.025480026 0.68599999 1.1972106e-39
-0.0006504762 -0.025368592 0.68299997 1.2872678e-39
0.00065047626 -0.025368612 0.68299997 2.2963975e-39
0.0019485715 -0.02533146 0.68199998 3.3281679e-39
0.0032476191 -0.025331449 0.68199998 8.7644563e-39
0.0045333332 -0.025257166 0.68000001 1.4197108e-38
0.005828572 -0.025257181 0.68000001 1.4295768e-38
0.0071238098 -0.02525717 0.68000001 1.42965e-38
0.0084190471 -0.025257165 0.68000001 1.3836979e-38
0.0096999994 -0.025219994 0.67900002 1.3369499e-38
0.010993334 -0.025220016 0.67900008 9.7684908e-39
0.012286667 -0.025220029 0.67900002 6.0785174e-39
0.01358 -0.025220018 0.67900002 3.4902127e-39
0.014873333 -0.025220037 0.67900002 9.2313199e-40
0.016166667 -0.025220027 0.67900002 1.2933522e-39
0.01746 -0.02522002 0.67900002 1.6581789e-39
0.018780952 -0.025257193 0.67999995 1.47271e-39
0.020076189 -0.025257181 0.67999995 1.289388e-39
0.021371428 -0.025257174 0.67999995 1.288302e-39
0.022733333 -0.025331447 0.68199998 1.2901054e-39
0.024067618 -0.025368597 0.68299997 2.0255181e-39
0.025331428 -0.025331456 0.68199998 2.6708833e-39
0.026669525 -0.025368599 0.68299997 3.1322188e-39
0.02801143 -0.025405746 0.68400002 3.50136e-39
0.029314287 -0.025405731 0.68400002 2.4890214e-39
0.030706668 -0.025480002 0.68599999 1.3852298e-39
0.032059997 -0.025517141 0.68700004 4.2407664e-39
0.033368569 -0.025517158 0.68700004 7.1066922e-39
0.034778092 -0.025591442 0.68900001 8.2194927e-39
0.036142856 -0.025628584 0.69000006 9.3150909e-39
0.037511427 -0.025665741 0.69099998 1.3915147e-38
0.038939998 -0.025739996 0.69300002 1.853315e-38
0.040318098 -0.025777157 0.69400007 2.1029967e-38
0.041699998 -0.025814317 0.69500005 2.341769e-38
0.043147624 -0.025888592 0.69700003 2.341769e-38
0.044539046 -0.025925746 0.69799995 2.341769e-38
0.046 -0.026000049 0.69999999 2.341769e-38
-0.023433331 -0.024772421 0.70299995 1.4740987e-39
-0.022094283 -0.024772398 0.70299995 1.7499864e-39
-0.020696189 -0.024701957 0.70099998 2.2099037e-39
-0.019333333 -0.024666712 0.70000005 2.57688e-39
-0.017948572 -0.024596214 0.69799995 2.0240649e-39
-0.016595237 -0.024560973 0.69700003 1.3794214e-39
-0.015201906 -0.02445526 0.69400001 1.0120766e-39
-0.013820001 -0.024349555 0.69099998 5.5361799e-40
-0.012485715 -0.024314325 0.69000006 6.4653109e-40
-0.011155237 -0.024279056 0.68900001 7.3980431e-40
-0.0098142857 -0.024208581 0.68700004 6.4761149e-40
-0.0085057141 -0.024208566 0.68700004 6.4653389e-40
-0.0071971435 -0.024208579 0.68700004 9.2239771e-40
-0.0058800001 -0.024173345 0.68599999 1.2901082e-39
-0.0045733326 -0.02417336 0.68599999 1.1986399e-39
-0.0032571431 -0.024102863 0.68400002 1.1078834e-39
-0.0019542857 -0.024102876 0.68400002 1.1975693e-39
-0.0006504762 -0.02406765 0.68299997 1.1943869e-39
0.0006495238 -0.024032395 0.68199998 3.5086145e-39
0.0019428573 -0.023961952 0.67999995 5.8300126e-39
0.0032380952 -0.023961945 0.67999995 8.4961525e-39
0.0045333332 -0.023961937 0.67999995 1.1174799e-38
0.0058200001 -0.023926666 0.67900002 1.0889598e-38
0.0071133333 -0.023926681 0.67900002 1.0612662e-38
0.0084066661 -0.023926673 0.67900002 1.0517963e-38
0.0096999994 -0.023926664 0.67900002 1.0427551e-38
0.010993334 -0.023926679 0.67900008 8.7637374e-39
0.012286668 -0.023926677 0.67900002 7.0137707e-39
0.013580001 -0.023926688 0.67900002 3.9626801e-39
0.014873334 -0.023926681 0.67900002 9.2350333e-40
0.016166667 -0.023926698 0.67900002 1.292283e-39
0.01746 -0.02392669 0.67900002 1.7496613e-39
0.018753333 -0.023926679 0.67900002 1.5667021e-39
0.020046666 -0.0239267 0.67900002 1.4744883e-39
0.021371428 -0.023961948 0.67999995 1.567379e-39
0.022666667 -0.023961937 0.67999995 1.6592341e-39
0.023961905 -0.023961954 0.67999995 2.1198647e-39
0.025331428 -0.02403241 0.68199998 2.5794093e-39
0.026669526 -0.024067657 0.68299997 3.2244172e-39
0.02797048 -0.024067646 0.68299997 3.9612634e-39
0.029271433 -0.024067635 0.68299997 3.0400484e-39
0.030617144 -0.024102878 0.68400002 2.2085024e-39
0.031919997 -0.024102895 0.68400002 4.0548925e-39
0.033320002 -0.024173344 0.68600005 5.9059966e-39
0.03467714 -0.024208583 0.68700004 5.3571794e-39
0.036090475 -0.024279071 0.68899995 4.8112195e-39
0.037457146 -0.024314314 0.69000006 1.1253008e-38
0.03882762 -0.024349546 0.69099998 1.7708432e-38
0.040259998 -0.024420008 0.69299996 2.0566844e-38
0.041640002 -0.024455268 0.69400001 2.341769e-38
0.04314762 -0.024560975 0.69699997 2.341769e-38
0.044539046 -0.024596207 0.69799995 2.341769e-38
0.046000004 -0.024666719 0.70000005 2.341769e-38
-0.023433333 -0.023433369 0.70299995 1.6574152e-39
-0.022094285 -0.023433374 0.70299995 1.9340161e-39
-0.020696189 -0.023366701 0.70100003 2.1198577e-39
-0.019278094 -0.023266669 0.69799995 2.209538e-39
-0.017922856 -0.023233349 0.69699997 1.8404009e-39
-0.016595237 -0.023233362 0.69699997 1.4727002e-39
-0.015136191 -0.023033343 0.69099998 9.1989359e-40
-0.013800001 -0.02300003 0.69000006 2.7920031e-40
-0.012485716 -0.023000021 0.69000006 5.5542847e-40
-0.011122857 -0.0229 0.68700004 8.3273983e-40
-0.0098142857 -0.022900017 0.68700004 7.4199174e-40
-0.0084933331 -0.022866679 0.68599999 6.4906884e-40
-0.0071971435 -0.022900019 0.68700004 1.1082351e-39
-0.0058800001 -0.022866685 0.68599999 1.5667021e-39
-0.0045733326 -0.022866698 0.68599999 1.3830395e-39
-0.0032571431 -0.022800021 0.68400002 1.1075275e-39
-0.0019542859 -0.022800034 0.68400002 1.1064471e-39
-0.0006495238 -0.022733361 0.68200004 1.1114987e-39
0.00064761902 -0.022666683 0.68000001 4.7128442e-39
0.0019428573 -0.022666726 0.67999995 8.2062014e-39
0.0032380952 -0.022666715 0.67999995 8.1226392e-39
0.0045266664 -0.022633342 0.67900002 8.0250597e-39
0.0058200001 -0.022633336 0.67900002 7.4744013e-39
0.0071133333 -0.022633351 0.67900002 6.9176514e-39
0.0084066661 -0.022633346 0.67900002 7.1945942e-39
0.0096999994 -0.022633335 0.67900002 7.4700951e-39
0.010993334 -0.022633323 0.67900002 7.7534881e-39
0.012286667 -0.022633344 0.67900008 7.9209755e-39
0.01358 -0.022633333 0.67900008 4.423654e-39
0.014873333 -0.022633351 0.67900002 8.3633416e-40
0.016166665 -0.022633368 0.67900002 1.2947984e-39
0.017459998 -0.022633361 0.67900002 1.7532626e-39
0.018753331 -0.02263335 0.67900002 1.7536269e-39
0.020046664 -0.02263337 0.67900002 1.6614089e-39
0.021371428 -0.022666693 0.68000001 1.8472099e-39
0.022666667 -0.022666685 0.68000001 2.0305319e-39
0.023961905 -0.022666702 0.68000001 2.2152889e-39
0.025257142 -0.022666691 0.68000001 2.3978893e-39
0.026630476 -0.022733351 0.68200004 3.4077281e-39
0.027970478 -0.0227667 0.68299997 4.3282396e-39
0.029228572 -0.022733357 0.68200004 3.6843205e-39
0.030572383 -0.022766706 0.68300003 2.947124e-39
0.03187333 -0.022766691 0.68299997 3.7725659e-39
0.033222858 -0.022800038 0.68400002 4.6059055e-39
0.034626666 -0.022866687 0.68599999 2.4915423e-39
0.035985716 -0.022900004 0.68700004 2.9724203e-40
0.037402857 -0.0229667 0.68900001 8.5775693e-39
0.038771432 -0.023000045 0.69000006 1.6782895e-38
0.04014381 -0.023033358 0.69099998 2.0111612e-38
0.041640002 -0.023133347 0.69400001 2.341769e-38
0.043147624 -0.023233363 0.69700003 2.341769e-38
0.044539046 -0.023266695 0.69799995 2.341769e-38
0.046000004 -0.023333386 0.69999999 2.341769e-38
-0.024842856 -0.022157155 0.70500004 8.3160057e-40
-0.023466667 -0.022125751 0.704 1.6577767e-39
-0.022094283 -0.022094319 0.70299995 2.3924747e-39
-0.020696189 -0.022031466 0.70099998 2.3017294e-39
-0.019333333 -0.022000045 0.69999999 2.1169864e-39
-0.017922856 -0.021905735 0.69699997 1.8429177e-39
-0.016523808 -0.021811435 0.69400001 1.6588908e-39
-0.015201906 -0.021811444 0.69400001 1.2915502e-39
-0.013800001 -0.021685725 0.69000006 9.2457392e-40
-0.012467618 -0.021654306 0.68900001 1.1093267e-39
-0.011122857 -0.021591442 0.68700004 1.2940935e-39
-0.0098142857 -0.021591431 0.68700004 1.016813e-39
-0.0084933341 -0.021560019 0.68599999 6.4981012e-40
-0.0071866666 -0.021560032 0.68599999 9.242194e-40
-0.0058800001 -0.021560021 0.68599999 1.1993728e-39
-0.0045599998 -0.021497158 0.68400002 1.0153486e-39
-0.0032571428 -0.021497175 0.68400002 8.3202517e-40
-0.0019542854 -0.02149716 0.68400002 8.3057763e-40
-0.00064761902 -0.021371465 0.68000001 9.2242713e-40
0.00064761913 -0.021371458 0.68000001 2.5840897e-39
0.0019400001 -0.021340001 0.67900002 4.2407201e-39
0.0032333334 -0.02134002 0.67900002 4.1478112e-39
0.0045266664 -0.021340011 0.67900002 4.0430614e-39
0.0058200001 -0.021340007 0.67900002 3.7750883e-39
0.0071133333 -0.021340024 0.67900002 3.4909708e-39
0.0083942851 -0.021308595 0.67800003 3.6828912e-39
0.0096999984 -0.021340005 0.67900002 3.7697045e-39
0.010977142 -0.02130858 0.67800003 3.8690733e-39
0.012268571 -0.021308597 0.67800003 4.0441263e-39
0.01358 -0.021340003 0.67900008 2.3035483e-39
0.014873333 -0.021340022 0.67900002 5.6047174e-40
0.016166667 -0.021340039 0.67900002 9.274592e-40
0.01746 -0.021340031 0.67900002 1.204416e-39
0.018753333 -0.02134002 0.67900002 1.2944733e-39
0.020046666 -0.021340013 0.67900002 1.3866423e-39
0.02134 -0.021340029 0.67900002 1.5706454e-39
0.022633333 -0.021340018 0.67900002 1.8490231e-39
0.023926666 -0.021340014 0.67900002 2.0319767e-39
0.025219999 -0.021340003 0.67900002 2.216012e-39
0.026552383 -0.021371456 0.68000001 2.9517764e-39
0.027847622 -0.021371448 0.68000001 3.7800909e-39
0.029228572 -0.021434333 0.68199998 3.4105965e-39
0.03052762 -0.021434322 0.68199998 3.0411049e-39
0.031826664 -0.021434311 0.68199998 3.5914018e-39
0.033174284 -0.021465737 0.68300003 4.2331391e-39
0.034475237 -0.021465726 0.68300003 2.2105707e-39
0.035828575 -0.021497147 0.68400002 2.774627e-40
0.037131432 -0.021497164 0.68400002 7.471942e-39
0.038715232 -0.021654326 0.68899995 1.4765018e-38
0.040085718 -0.021685753 0.69000006 1.9096399e-38
0.041579999 -0.021780023 0.69299996 2.341769e-38
0.043023814 -0.021842893 0.69500005 2.341769e-38
0.044539049 -0.02193716 0.69799995 2.341769e-38
0.045868576 -0.021937165 0.69799995 2.341769e-38
0.047400955 -0.022031456 0.70099998 2.341769e-38
-0.026297145 -0.02090285 0.708 9.2448284e-40
-0.024913335 -0.020873345 0.70700002 3.7313635e-40
-0.023466667 -0.020784803 0.704 1.6581425e-39
-0.022094285 -0.020755267 0.70299995 2.8527354e-39
-0.020696189 -0.02069621 0.70100003 2.4854074e-39
-0.019278094 -0.020607622 0.69800001 2.0283907e-39
-0.017922854 -0.02057812 0.69699997 1.9383573e-39
-0.0165 -0.02046001 0.69300002 1.7536045e-39
-0.015114287 -0.020371459 0.69000006 1.6631983e-39
-0.01378 -0.020341935 0.68899995 1.5695664e-39
-0.01243143 -0.020282865 0.68700004 1.6624767e-39
-0.011122858 -0.020282878 0.68700004 1.7510906e-39
-0.0098000001 -0.020253338 0.68599999 1.1975735e-39
-0.0084933331 -0.020253355 0.68599999 6.4761989e-40
-0.0071866666 -0.02025334 0.68599999 7.3943857e-40
-0.0058800001 -0.020253357 0.68600005 7.3906863e-40
-0.0045600003 -0.020194294 0.68400002 6.4686319e-40
-0.003252381 -0.020164805 0.68299997 4.6247754e-40
-0.0019514286 -0.020164793 0.68299997 5.5288091e-40
-0.0006476189 -0.020076236 0.67999995 6.44715e-40
0.00064761913 -0.020076228 0.67999995 4.5960908e-40
0.0019400002 -0.020046672 0.67900002 1.8805005e-40
0.0036238094 -0.022467623 0.76100004 1.8410539e-40
0.0045266664 -0.020046681 0.67900002 9.262723e-41
0.0058200001 -0.020046674 0.67900002 9.2268497e-41
0.0071133333 -0.020046663 0.67900002 9.262723e-41
0.0084066661 -0.020046687 0.67900002 9.2267096e-41
0.010871429 -0.022467643 0.76100004 9.3702026e-41
0.010977142 -0.020017147 0.67800003 9.2625828e-41
0.012268571 -0.020017136 0.67800003 9.4056554e-41
0.01356 -0.020017179 0.67799997 1.8624658e-40
0.014873333 -0.020046666 0.67900002 2.80596e-40
0.016166667 -0.020046681 0.67900002 4.6570473e-40
0.01746 -0.020046702 0.67900002 6.490254e-40
0.018753333 -0.02004669 0.67900002 8.327048e-40
0.020046666 -0.020046679 0.67900002 1.0163772e-39
0.02134 -0.0200467 0.67900002 1.3830031e-39
0.022633333 -0.020046689 0.67900002 1.6613865e-39
0.023926666 -0.020046681 0.67900002 1.847577e-39
0.025257144 -0.020076234 0.67999995 1.9405083e-39
0.026552383 -0.02007623 0.67999995 2.5869637e-39
0.027970478 -0.020164778 0.68299997 3.136532e-39
0.029271431 -0.020164795 0.68299997 3.1365236e-39
0.030572383 -0.020164788 0.68299997 3.1347299e-39
0.03187333 -0.020164773 0.68299997 3.5027893e-39
0.033125717 -0.020135254 0.68199998 3.7750406e-39
0.034475237 -0.020164778 0.68300003 2.0233236e-39
0.03577619 -0.020164795 0.68300003 1.9062143e-40
0.037131429 -0.02019429 0.68400002 6.4505636e-39
0.038434286 -0.020194307 0.68400002 1.2730613e-38
0.040027618 -0.020341933 0.68900001 1.8091231e-38
0.041400004 -0.020371458 0.69000006 2.341769e-38
0.042900003 -0.02046001 0.69300002 2.341769e-38
0.044666667 -0.020666711 0.69999999 2.341769e-38
0.046065718 -0.020696223 0.70100003 2.341769e-38
0.047400955 -0.020696228 0.70100003 2.341769e-38
0.048736192 -0.020696234 0.70100003 2.341769e-38
-0.02626 -0.019526677 0.70700002 1.2921681e-39
-0.024842856 -0.019471463 0.70500004 9.2450526e-40
-0.023433333 -0.019416213 0.70299995 1.5684664e-39
-0.022094285 -0.019416215 0.70299995 2.2113289e-39
-0.020666666 -0.019333374 0.69999999 2.1209409e-39
-0.019278094 -0.019278137 0.69799995 1.9394363e-39
-0.017871428 -0.01919527 0.69499999 1.6632264e-39
-0.0165 -0.019140014 0.69300002 1.4788239e-39
-0.015114287 -0.019057177 0.69000006 1.3851807e-39
-0.013740001 -0.018974319 0.68700004 1.2933354e-39
-0.012413334 -0.018946676 0.68599999 1.2911718e-39
-0.011106667 -0.018946689 0.68600005 1.1971797e-39
-0.009800001 -0.018946674 0.68600005 8.2983213e-40
-0.0084933341 -0.01894669 0.68600005 5.539543e-40
-0.0071657146 -0.018891441 0.68400002 5.5465775e-40
-0.0058628577 -0.018891457 0.68400002 5.5391226e-40
-0.0045533334 -0.018863818 0.68300003 4.6204874e-40
-0.0032476191 -0.018836232 0.68199998 3.6915386e-40
-0.0019485715 -0.018836221 0.68199998 4.6100618e-40
-0.00064761902 -0.018781006 0.67999995 6.4358696e-40
0.00072476198 -0.021018108 0.76100004 5.5173605e-40
0.0021742857 -0.021018108 0.76100004 4.5954042e-40
0.0036238094 -0.021018127 0.76099998 3.6806225e-40
0.0050733336 -0.021018129 0.76099998 2.7586802e-40
0.0065228576 -0.021018129 0.76100004 1.8438986e-40
0.0079723801 -0.021018125 0.76100004 1.8403113e-40
0.0094219046 -0.021018127 0.76100004 1.8474859e-40
0.010871428 -0.021018099 0.76100004 1.8474859e-40
0.012320952 -0.021018118 0.76099998 2.7694282e-40
0.013770476 -0.02101812 0.76100004 2.7694282e-40
0.013580001 -0.018753344 0.67900008 3.6913705e-40
0.014851429 -0.018725738 0.67799997 3.6877972e-40
0.016166667 -0.018753348 0.67900002 4.6205014e-40
0.01746 -0.018753368 0.67900002 6.4464634e-40
0.018753333 -0.018753361 0.67900002 7.3863563e-40
0.020046666 -0.01875335 0.67900002 8.3014182e-40
0.02134 -0.018753342 0.67900002 1.0145583e-39
0.022599999 -0.018725745 0.67800003 1.2907977e-39
0.023891428 -0.018725738 0.67800003 1.3847996e-39
0.028154287 -0.020935256 0.75800002 1.5710167e-39
0.029520001 -0.020880003 0.75600004 2.1234983e-39
0.030960003 -0.020880004 0.75600004 2.6755692e-39
0.029271431 -0.018863853 0.68299997 2.7666676e-39
0.030572383 -0.018863842 0.68299997 2.950696e-39
0.03187333 -0.018863827 0.68299997 3.2272772e-39
0.033174284 -0.018863844 0.68299997 3.5956772e-39
0.034475237 -0.018863833 0.68300003 1.9361629e-39
0.03577619 -0.018863821 0.68299997 2.7597172e-40
0.037131432 -0.018891448 0.68400002 5.5271191e-39
0.038434289 -0.018891465 0.68400002 1.0880955e-38
0.040027618 -0.019029547 0.68899995 1.7161038e-38
0.041400004 -0.019057149 0.69000006 2.341769e-38
0.042900003 -0.019140033 0.69299996 2.341769e-38
0.044666667 -0.019333377 0.69999999 2.341769e-38
0.046 -0.019333383 0.69999999 2.341769e-38
0.047400955 -0.019360995 0.70099998 2.341769e-38
0.048736192 -0.019361002 0.70099998 2.341769e-38
-0.026260002 -0.018180009 0.70699996 1.7524555e-39
-0.024807619 -0.018102907 0.704 1.4773427e-39
-0.023433333 -0.018077167 0.70300001 1.5710055e-39
-0.02203143 -0.018025745 0.70099998 1.5709999e-39
-0.020666666 -0.018000018 0.70000005 1.7557415e-39
-0.019250475 -0.01792286 0.69700003 1.8461449e-39
-0.017845714 -0.017845716 0.69400001 1.4791658e-39
-0.0165 -0.017820012 0.69300002 1.1082211e-39
-0.015114287 -0.0177429 0.69000006 1.1056946e-39
-0.013740001 -0.017665729 0.68699998 1.0138464e-39
-0.012413334 -0.017640011 0.68600005 8.2801185e-40
-0.011106667 -0.017639998 0.68600005 6.4505552e-40
-0.0098000001 -0.01764001 0.68600005 5.5357735e-40
-0.0084933331 -0.01764 0.68600005 3.7025669e-40
-0.0071657146 -0.017588595 0.68400002 3.7096574e-40
-0.0058628572 -0.017588587 0.68400002 2.787561e-40
-0.0045533339 -0.017562872 0.68300003 2.7838195e-40
-0.0032476191 -0.017537158 0.68199998 2.7803443e-40
-0.0019428572 -0.01748574 0.68000001 4.6171523e-40
-0.00072380959 -0.019542886 0.75999999 5.5282486e-40
0.00072380959 -0.019542886 0.75999999 6.4393308e-40
0.0021742857 -0.019568613 0.76099998 6.4393308e-40
0.0036238097 -0.019568611 0.76100004 5.5209758e-40
0.0050733332 -0.019568611 0.76100004 3.6878532e-40
0.0065228571 -0.019568583 0.76100004 3.6914265e-40
0.0079723801 -0.019568581 0.76100004 2.7694983e-40
0.0094219046 -0.019568581 0.76100004 2.7730856e-40
0.010871428 -0.019568602 0.76099998 2.7802322e-40
0.012320952 -0.019568603 0.76100004 3.7021465e-40
0.013770476 -0.019568602 0.76100004 4.6133408e-40
0.01522 -0.0195686 0.76100004 4.6097675e-40
0.016713332 -0.019620042 0.76300001 4.6098656e-40
0.018119045 -0.019568594 0.76099998 5.53192e-40
0.019568568 -0.019568592 0.76099998 5.5354092e-40
0.021018093 -0.019568594 0.76100004 6.464442e-40
0.022438096 -0.019542895 0.75999999 6.4645962e-40
0.023885716 -0.019542895 0.75999999 7.3830913e-40
0.025333336 -0.019542895 0.75999999 8.3014883e-40
0.026780954 -0.019542895 0.76000005 1.0138254e-39
0.028154287 -0.019491458 0.75800002 1.1085504e-39
0.029520001 -0.019440023 0.75600004 1.6606606e-39
0.030960003 -0.019440023 0.75600004 2.1205653e-39
0.032142855 -0.019285729 0.75000006 2.4868409e-39
0.033571426 -0.019285709 0.75000006 2.7648684e-39
0.03187333 -0.017562881 0.68299997 3.0439734e-39
0.033174284 -0.01756287 0.68299997 3.3194603e-39
0.034475237 -0.017562887 0.68300003 1.8489965e-39
0.03577619 -0.017562879 0.68300003 2.7883597e-40
0.037131429 -0.017588602 0.68400002 4.6840811e-39
0.038434286 -0.017588591 0.68400002 9.0428018e-39
0.03991143 -0.017665721 0.68700004 1.6254521e-38
0.041400004 -0.017742895 0.69000006 2.341769e-38
0.04271429 -0.017742906 0.69000006 2.341769e-38
0.04466667 -0.01800002 0.70000005 2.341769e-38
0.046000004 -0.018000025 0.70000005 2.341769e-38
0.047333337 -0.018000057 0.69999999 2.341769e-38
0.048666671 -0.018000035 0.69999999 2.341769e-38
-0.026148571 -0.016761927 0.70400006 1.6613711e-39
-0.02477238 -0.016738109 0.70299995 1.3862555e-39
-0.023366667 -0.016690511 0.70100003 1.4788393e-39
-0.021905715 -0.016595282 0.69699997 1.5720845e-39
-0.020578094 -0.016595263 0.69699997 1.5695482e-39
-0.01919524 -0.01654765 0.69500005 1.5677489e-39
-0.017845716 -0.016523821 0.69400001 1.2911592e-39
-0.0165 -0.016500017 0.69300002 1.1042428e-39
-0.015114287 -0.016428592 0.69000006 1.0123891e-39
-0.01374 -0.016357169 0.68699998 9.1946479e-40
-0.012413334 -0.016333349 0.68600005 8.2797401e-40
-0.011106667 -0.016333356 0.68599999 7.3613992e-40
-0.009800001 -0.016333342 0.68599999 6.4466315e-40
-0.0084933331 -0.016333362 0.68599999 5.5282486e-40
-0.0071657142 -0.016285731 0.68400002 4.6170262e-40
-0.0058628572 -0.016285719 0.68400002 3.7022446e-40
-0.0045533329 -0.016261926 0.68300003 3.7022165e-40
-0.0036190478 -0.018095268 0.75999999 3.7022586e-40
-0.0021714284 -0.018095266 0.75999999 4.6206556e-40
-0.00072380947 -0.018095266 0.76000005 4.6206275e-40
0.00072380959 -0.018095266 0.76000005 6.4465335e-40
0.0021714284 -0.018095262 0.75999999 7.3577278e-40
0.0036238097 -0.018119067 0.76100004 5.5282065e-40
0.0050733336 -0.018119065 0.76100004 3.6950839e-40
0.0065228576 -0.018119065 0.76100004 3.6914826e-40
0.0079723801 -0.018119087 0.76099998 3.6843219e-40
0.0094219046 -0.018119086 0.76099998 4.6134529e-40
0.010871428 -0.018119086 0.76100004 4.6277461e-40
0.012320952 -0.018119058 0.76100004 6.4572254e-40
0.013770476 -0.018119056 0.76100004 9.2015563e-40
0.01522 -0.018119054 0.76100004 7.3648604e-40
0.016669521 -0.018119078 0.76099998 6.4503029e-40
0.018119045 -0.018119076 0.76099998 6.4469118e-40
0.019568568 -0.018119076 0.76100004 6.4467296e-40
0.021018095 -0.018119076 0.76100004 7.3720631e-40
0.022438094 -0.018095275 0.75999999 8.301194e-40
0.023885714 -0.018095249 0.75999999 8.2940194e-40
0.025266668 -0.018047655 0.75800002 8.2832013e-40
0.026710479 -0.018047657 0.75800002 8.2974946e-40
0.028080001 -0.018000016 0.75600004 9.2266816e-40
0.029480953 -0.017976224 0.75500005 1.2910933e-39
0.030919047 -0.017976198 0.75500005 1.6584732e-39
0.032142855 -0.01785716 0.75000006 1.9340175e-39
0.033571426 -0.017857138 0.75000006 2.2102639e-39
0.035 -0.017857168 0.75000006 2.4897388e-39
0.036428571 -0.017857172 0.75000006 2.8610073e-39
0.034525711 -0.016285732 0.68400002 1.6617438e-39
0.035828575 -0.016285725 0.68400002 4.596315e-40
0.037131432 -0.016285738 0.68400002 4.6008384e-39
0.038602859 -0.016357144 0.68700004 8.8512303e-39
0.03991143 -0.016357161 0.68700004 1.6148695e-38
0.041400004 -0.016428616 0.69000006 2.341769e-38
0.04271429 -0.016428601 0.69000006 2.341769e-38
0.04466667 -0.016666714 0.69999999 2.341769e-38
0.046000004 -0.016666692 0.69999999 2.341769e-38
0.047333337 -0.016666701 0.70000005 2.341769e-38
0.048666671 -0.016666705 0.70000005 2.341769e-38
-0.026148569 -0.015420975 0.70400006 1.5698887e-39
-0.024701905 -0.015355252 0.70100003 1.2018446e-39
-0.023333332 -0.01533339 0.69999999 1.3851723e-39
-0.021905715 -0.015267642 0.69699997 1.5681048e-39
-0.020578094 -0.015267652 0.69699997 1.3822618e-39
-0.019195238 -0.015223833 0.69500005 1.197865e-39
-0.017845714 -0.015201923 0.69400001 1.1964216e-39
-0.016499998 -0.015180016 0.69299996 1.1038589e-39
-0.015136192 -0.015136223 0.69099998 9.1982072e-40
-0.0138 -0.0151143 0.69000006 7.3578259e-40
-0.012431429 -0.015048593 0.68700004 7.3577278e-40
-0.011122857 -0.015048578 0.68699998 7.3613151e-40
-0.0098000001 -0.015026681 0.68599999 7.3577418e-40
-0.0084933322 -0.015026698 0.68599999 6.4429461e-40
-0.0071657142 -0.014982885 0.68400002 5.5281505e-40
-0.0058628572 -0.014982877 0.68400002 4.6169561e-40
-0.0045533334 -0.014960978 0.68300003 4.6169421e-40
-0.0036095239 -0.016603854 0.75799996 4.6169842e-40
-0.0021714286 -0.016647644 0.75999999 4.6170262e-40
-0.00072190468 -0.016603854 0.75800002 3.6986993e-40
0.00072380959 -0.016647642 0.75999999 6.4538062e-40
0.0021714284 -0.016647644 0.75999999 8.2832854e-40
0.0036190476 -0.016647642 0.76000005 5.5317658e-40
0.0050733332 -0.016669549 0.76100004 2.7802883e-40
0.0065228571 -0.01666957 0.76099998 3.6950559e-40
0.0079723811 -0.016669542 0.76099998 4.6134669e-40
0.0094219055 -0.016669543 0.76099998 5.5354652e-40
0.010871429 -0.01666954 0.76100004 6.4573094e-40
