# .PCD v0.7 - Point Cloud Data file format
VERSION 0.7
FIELDS x y z rgb
SIZE 4 4 4 4
TYPE F F F F
COUNT 1 1 1 1
WIDTH 955
HEIGHT 1
VIEWPOINT 0 0 0 1 0 0 0
POINTS 955
DATA ascii
0.059757132 -0.04229999 0.70499998 8.8666404e-39
0.061360005 -0.042480007 0.70799994 1.7419914e-38
0.062885724 -0.042600017 0.71000004 1.8158561e-38
0.064328603 -0.042660046 0.71100003 1.8897217e-38
0.065959997 -0.042840004 0.71399999 1.7247432e-38
0.067508571 -0.04296001 0.71600002 1.557785e-38
0.068872377 -0.04296001 0.71600002 1.2716199e-38
0.070236206 -0.042960014 0.71600002 9.8613661e-39
-0.0088771274 -0.041654315 0.71700001 3.6913985e-40
-0.0075114295 -0.041654292 0.71700001 2.7801902e-40
-0.0061199991 -0.041480012 0.71400005 2.7801902e-40
-0.00071619166 -0.043687627 0.75199997 3.6841958e-40
0.000714297 -0.04357145 0.75 4.6025508e-40
0.0021428801 -0.043571472 0.75000006 5.5209338e-40
0.0035714398 -0.043571454 0.75000006 4.6061802e-40
0.0050200056 -0.043745726 0.75300002 3.6913985e-40
0.0064542936 -0.04374573 0.75300002 3.6877832e-40
0.0080456892 -0.044617113 0.76800001 3.6841958e-40
0.0095333504 -0.044733372 0.76999998 5.5209058e-40
0.011071444 -0.045023832 0.77499998 6.4392607e-40
0.012693349 -0.045546692 0.78400004 4.6061381e-40
0.014259037 -0.045779031 0.78800005 2.7696384e-40
0.01575999 -0.045779031 0.78800005 1.8514936e-40
0.017326649 -0.045953311 0.79100001 1.8548988e-40
0.01888098 -0.046069566 0.79300004 4.6133688e-40
0.02039144 -0.046069544 0.79300004 7.3684477e-40
0.021957153 -0.046185732 0.79499996 6.4465054e-40
0.023530474 -0.046301905 0.79699999 5.5318499e-40
0.025048563 -0.046301898 0.79699999 7.3686579e-40
0.026566653 -0.046301883 0.79699999 1.0120009e-39
0.028120009 -0.04636002 0.79799998 8.2831733e-40
0.029640002 -0.046360005 0.79799998 5.5317378e-40
0.031159995 -0.04635999 0.79800004 6.4429601e-40
0.032680005 -0.046360012 0.79800004 7.3540844e-40
0.034199998 -0.046360001 0.79799998 6.4356734e-40
0.035720013 -0.046360023 0.79799998 5.5209058e-40
0.037239984 -0.046359975 0.79799998 4.6061381e-40
0.038711444 -0.046301927 0.79700005 3.6841958e-40
0.040280007 -0.04636002 0.79800004 3.6841958e-40
0.041800003 -0.046360005 0.79799998 3.6841958e-40
0.043320015 -0.046360027 0.79799998 3.6877832e-40
0.044783823 -0.046301931 0.79700005 3.6949718e-40
0.046301916 -0.04630192 0.79700005 4.6133268e-40
0.047820006 -0.04630192 0.79700005 4.6062082e-40
0.049338099 -0.046301909 0.79700005 7.3649164e-40
0.05085621 -0.046301935 0.79699999 1.012029e-39
0.0523743 -0.046301927 0.79700005 1.1978818e-39
0.053892389 -0.04630192 0.79700005 1.474861e-39
0.055410475 -0.046301913 0.79700005 1.7536339e-39
0.058331434 -0.040899057 0.70400006 4.7053038e-39
0.059672382 -0.040899046 0.70400006 1.1162189e-38
0.061273329 -0.041073341 0.70700002 1.7516402e-38
0.062708579 -0.041131452 0.70799994 1.8344701e-38
0.064328589 -0.041305743 0.71100003 1.9264159e-38
0.065959997 -0.041479994 0.71399999 1.6501587e-38
0.067508586 -0.041596208 0.71600002 1.372533e-38
0.0688724 -0.041596223 0.71600002 1.1516947e-38
0.070236214 -0.041596219 0.71600002 9.406492e-39
-0.010271445 -0.040400933 0.71899998 3.6878112e-40
-0.0089019109 -0.040400952 0.71900004 3.6913845e-40
-0.007511423 -0.040288586 0.71700001 2.7801902e-40
-0.0061457129 -0.040288579 0.71700001 1.8582479e-40
-0.0047799936 -0.04028859 0.71700001 2.7694282e-40
-0.002142845 -0.042142879 0.75000006 2.7658969e-40
-0.00071426126 -0.042142902 0.75 2.7694562e-40
0.00071242201 -0.042030547 0.74800003 4.6061381e-40
0.0021371807 -0.042030536 0.74800003 6.4500647e-40
0.0035714412 -0.042142887 0.75000006 5.5317378e-40
0.0050133327 -0.042255245 0.75199997 3.6914125e-40
0.0065828613 -0.043154292 0.76800001 3.6913705e-40
0.0080666747 -0.043266684 0.77000004 3.6877832e-40
0.0095581198 -0.043379087 0.77200001 3.6877832e-40
0.011071417 -0.043547608 0.77500004 2.7694282e-40
0.012628563 -0.043828562 0.78000003 2.7694282e-40
0.014222844 -0.044165697 0.78600001 1.8511853e-40
0.015719993 -0.044165708 0.78600001 1.8476961e-40
0.017282845 -0.04433427 0.78900003 9.3643171e-41
0.018833328 -0.044446658 0.79100001 2.7766449e-40
0.020391462 -0.044559095 0.79300004 3.6914125e-40
0.021957153 -0.04467145 0.79499996 4.6061942e-40
0.023530498 -0.044783846 0.79699999 4.6098375e-40
0.025048589 -0.044783838 0.79700005 1.0123611e-39
0.026566679 -0.044783831 0.79700005 1.5630083e-39
0.028084768 -0.044783819 0.79700005 1.1949419e-39
0.029639993 -0.044839993 0.79800004 8.2831873e-40
0.031160008 -0.044840015 0.79800004 1.0116324e-39
0.032679997 -0.044840004 0.79799998 1.1031064e-39
0.034285717 -0.044952389 0.80000001 9.1907383e-40
0.035809532 -0.044952396 0.80000001 6.4428621e-40
0.037239995 -0.044839997 0.79800004 4.6097395e-40
0.038759984 -0.044839986 0.79799998 2.7659249e-40
0.040279999 -0.044840012 0.79799998 3.68435e-40
0.041800015 -0.044840027 0.79799998 3.6878532e-40
0.043319985 -0.044839982 0.79800004 3.6913705e-40
0.044840001 -0.044840004 0.79800004 3.6949578e-40
0.04630192 -0.044783834 0.79699999 3.6913845e-40
0.047820009 -0.044783827 0.79699999 3.6914125e-40
0.049338102 -0.044783816 0.79700005 6.4465194e-40
0.050856188 -0.044783808 0.79700005 8.2906422e-40
0.052374281 -0.044783801 0.79700005 1.105312e-39
0.053892389 -0.044783827 0.79699999 1.2911704e-39
0.055410482 -0.044783823 0.79699999 1.7532528e-39
0.056928568 -0.044783812 0.79699999 2.2134995e-39
0.058248576 -0.039501913 0.70300001 9.1245339e-39
0.059587639 -0.039501939 0.70300001 1.3375926e-38
0.061099999 -0.03961429 0.70500004 1.7603951e-38
0.062619999 -0.039726671 0.70700002 1.8623115e-38
0.064238109 -0.039895266 0.71000004 1.9542194e-38
0.065867648 -0.040063836 0.71300006 1.5676861e-38
0.067508586 -0.040232394 0.71600002 1.1794987e-38
0.068872392 -0.040232386 0.71600002 1.0310882e-38
0.070236206 -0.040232401 0.71600002 8.8450716e-39
-0.010271421 -0.039031442 0.71900004 3.6877832e-40
-0.0089142947 -0.039085709 0.72000003 3.6877832e-40
-0.0075323777 -0.039031442 0.71900004 2.7730155e-40
-0.006162866 -0.03903142 0.71899998 2.7730155e-40
-0.0047933301 -0.039031439 0.71900004 2.7730155e-40
-0.0021428417 -0.040714312 0.75000006 2.7695263e-40
-0.00071235577 -0.040605761 0.74800003 2.7694842e-40
0.00071240059 -0.040605754 0.74800003 4.6133128e-40
0.0021371592 -0.040605742 0.74800003 6.4608407e-40
0.0035619142 -0.040605735 0.74800003 4.6169982e-40
0.0049866955 -0.040605765 0.74800003 3.6914265e-40
0.0065999962 -0.041800003 0.76999998 3.6877832e-40
0.0080666775 -0.041800022 0.76999998 3.6841958e-40
0.0095581021 -0.041908585 0.77199996 3.6877832e-40
0.01107144 -0.042071447 0.77500004 2.7694282e-40
0.012580001 -0.042180002 0.77700001 2.7694282e-40
0.014186668 -0.042560007 0.78399998 1.8510732e-40
0.015719993 -0.042668566 0.78600001 1.8510732e-40
0.01728286 -0.042831436 0.78900009 2.7766169e-40
0.018833322 -0.042939983 0.79100001 3.6913845e-40
0.020391459 -0.043048616 0.79299998 5.5209338e-40
0.021957153 -0.04315716 0.79500002 5.5245351e-40
0.023471441 -0.043157164 0.79500002 5.5245351e-40
0.025048569 -0.043265712 0.79700005 8.2796e-40
0.026566682 -0.043265738 0.79699999 1.1034651e-39
0.028084772 -0.04326573 0.79699999 9.2015143e-40
0.029602861 -0.043265723 0.79700005 6.453624e-40
0.03112095 -0.043265712 0.79700005 7.3683777e-40
0.032680012 -0.043320026 0.79800004 8.279558e-40
0.034285709 -0.043428566 0.80000001 7.361203e-40
0.035809528 -0.043428581 0.80000001 6.4428621e-40
0.037239987 -0.043319985 0.79799998 5.5245211e-40
0.038760003 -0.043320008 0.79799998 4.5991316e-40
0.040279992 -0.043319996 0.79799998 5.5212e-40
0.041799985 -0.043319982 0.79800004 6.4430022e-40
0.04332 -0.043320008 0.79800004 4.6097254e-40
0.044839993 -0.043319989 0.79799998 2.7766028e-40
0.046360008 -0.043320015 0.79799998 4.6097254e-40
0.047819987 -0.043265697 0.79700005 5.5280944e-40
0.049338102 -0.043265726 0.79699999 6.4500507e-40
0.050856188 -0.043265719 0.79699999 8.2941175e-40
0.052374281 -0.043265712 0.79699999 9.2126546e-40
0.053892374 -0.043265704 0.79700005 1.1060449e-39
0.05541046 -0.043265697 0.79700005 1.5670468e-39
0.056928575 -0.043265719 0.79699999 2.0280264e-39
0.058248594 -0.038162883 0.70300001 1.1529123e-38
0.059672385 -0.038217153 0.70400006 1.4378582e-38
0.061273336 -0.038380016 0.70700002 1.72273e-38
0.062708579 -0.038434293 0.70799994 1.9361064e-38
0.064238101 -0.038542882 0.71000004 2.1482238e-38
0.065682873 -0.038597178 0.71100003 1.6409391e-38
0.067320012 -0.038760014 0.71399999 1.132361e-38
0.068680011 -0.038760014 0.71400005 1.0225855e-38
0.07003998 -0.038759988 0.71399999 9.2263999e-39
-0.010271422 -0.037661921 0.71900004 3.6878392e-40
-0.0089390343 -0.037819073 0.722 2.7694702e-40
-0.0075428691 -0.037714276 0.72000003 2.7694562e-40
-0.0062228478 -0.038028594 0.72600007 2.7694422e-40
-0.0048400033 -0.038028579 0.72600001 2.7730155e-40
-0.0034666492 -0.038133364 0.72800004 2.7694562e-40
-0.0020799695 -0.038133387 0.72800004 2.7694842e-40
-0.00071233528 -0.039181035 0.74800003 2.7694562e-40
0.00071242155 -0.039181028 0.74800003 4.6097254e-40
0.0021371802 -0.039181016 0.74800003 5.5316958e-40
0.0035619352 -0.039181009 0.74800003 4.6169561e-40
0.0049866941 -0.039181005 0.74800003 3.6913985e-40
0.0066000028 -0.040333338 0.76999998 3.6806085e-40
0.0080876257 -0.040438108 0.77200001 3.6841958e-40
0.0095581114 -0.040438119 0.77200001 3.6841958e-40
0.01107144 -0.040595256 0.77499998 2.7694282e-40
0.012547628 -0.040595256 0.77500004 2.7658409e-40
0.014023816 -0.040595248 0.77499998 1.8474859e-40
0.015679993 -0.041066658 0.78400004 2.7658409e-40
0.017282853 -0.041328568 0.78900003 3.6842239e-40
0.018833341 -0.041433346 0.79100001 5.5209478e-40
0.020391455 -0.041538138 0.79300004 7.3576717e-40
0.021901917 -0.041538116 0.79300004 6.4393308e-40
0.023471441 -0.041642878 0.79500002 5.5209478e-40
0.025048571 -0.041747618 0.79699999 6.4392887e-40
0.02656666 -0.041747611 0.79700005 6.4428621e-40
0.028084751 -0.041747604 0.79700005 5.5280944e-40
0.029602865 -0.041747633 0.79699999 4.6169141e-40
0.031159991 -0.041799989 0.79799998 4.6169281e-40
0.032680005 -0.041800011 0.79799998 4.6133268e-40
0.034199998 -0.0418 0.79800004 5.5280804e-40
0.035719987 -0.041799989 0.79799998 6.4428621e-40
0.037240002 -0.041800011 0.79799998 6.4392747e-40
0.038759995 -0.041799996 0.79799998 6.4393448e-40
0.040279984 -0.041799981 0.79800004 7.3577838e-40
0.0418 -0.041800003 0.79800004 8.279642e-40
0.043319993 -0.041799996 0.79799998 5.5280804e-40
0.044840008 -0.041800015 0.79799998 1.8582479e-40
0.046360001 -0.041800003 0.79799998 4.6061381e-40
0.047879986 -0.041799989 0.79800004 7.361217e-40
0.049400002 -0.041800011 0.79800004 7.361231e-40
0.050856192 -0.041747626 0.79700005 7.3649024e-40
0.05244001 -0.041800022 0.79799998 8.2797541e-40
0.053892396 -0.041747645 0.79700005 9.2127947e-40
0.055410489 -0.041747641 0.79700005 1.3812066e-39
0.056928575 -0.04174763 0.79700005 1.7503563e-39
0.059672389 -0.036876205 0.70400006 1.5381225e-38
0.061273314 -0.037033316 0.70700002 1.6868939e-38
0.062620007 -0.037033346 0.70700002 2.0203408e-38
0.064057149 -0.037085716 0.70799994 2.3411528e-38
0.065405726 -0.037085742 0.70799994 1.7154854e-38
0.066754282 -0.037085723 0.70799994 1.0778338e-38
0.068680003 -0.037400007 0.71400005 1.0225844e-38
0.070039995 -0.037399996 0.71399999 9.584775e-39
-0.011738118 -0.036595214 0.72500002 3.6842939e-40
-0.010357164 -0.036595222 0.72500002 3.6842939e-40
-0.008976208 -0.036595229 0.72500002 4.6026209e-40
-0.0075742714 -0.036494311 0.72300005 4.6061802e-40
-0.0062228646 -0.036645718 0.72600001 5.5209338e-40
-0.004853324 -0.036746692 0.72800004 3.6877832e-40
-0.0034666529 -0.036746699 0.72800004 2.7694282e-40
-0.002137115 -0.037756238 0.74800003 2.7694282e-40
-0.0007123567 -0.037756234 0.74800003 3.6877832e-40
0.00071239827 -0.037756227 0.74800003 5.5244931e-40
0.0021371569 -0.03775622 0.74800003 8.279572e-40
0.0035619137 -0.037756212 0.74800003 6.4464494e-40
0.004986695 -0.037756238 0.74800003 5.5280944e-40
0.0066000042 -0.03886668 0.76999998 4.6061381e-40
0.0080876313 -0.038967639 0.77200001 3.6806085e-40
0.0095704775 -0.039018102 0.77300006 4.6025508e-40
0.011071414 -0.039119031 0.77499998 5.5244931e-40
0.012547624 -0.039119061 0.77499998 3.6877832e-40
0.014060017 -0.039220024 0.77700001 2.7658409e-40
0.015600003 -0.039371438 0.77999997 2.7658409e-40
0.017217144 -0.039674293 0.78599995 3.6770632e-40
0.018785724 -0.03982573 0.78900003 4.6026209e-40
0.020288559 -0.039825696 0.78900003 5.5209898e-40
0.02184665 -0.039926644 0.79100001 4.6026489e-40
0.023412397 -0.040027644 0.79299998 4.6026068e-40
0.024985729 -0.040128592 0.79499996 4.6061381e-40
0.026500015 -0.040128596 0.79499996 5.5244931e-40
0.028014304 -0.0401286 0.79499996 4.6097254e-40
0.029602842 -0.040229503 0.79699999 4.6169281e-40
0.031120958 -0.040229533 0.79700005 4.6133688e-40
0.032679975 -0.040279966 0.79799998 4.6133408e-40
0.03419999 -0.040279988 0.79799998 5.5280804e-40
0.035720006 -0.040280011 0.79800004 6.442848e-40
0.037239995 -0.040279996 0.79799998 6.442848e-40
0.03876001 -0.040280018 0.79799998 5.5245071e-40
0.040280003 -0.040280007 0.79800004 7.361231e-40
0.041799992 -0.040279992 0.79799998 9.2015143e-40
0.043320008 -0.040280018 0.79800004 6.4500227e-40
0.044840001 -0.040280003 0.79799998 3.6985451e-40
0.04635999 -0.040279988 0.79800004 4.6133128e-40
0.047879979 -0.040279981 0.79799998 6.4428621e-40
0.049399994 -0.040280003 0.79799998 6.4464494e-40
0.050856195 -0.040229533 0.79700005 6.4464494e-40
0.052374288 -0.040229525 0.79700005 7.3647903e-40
0.053892396 -0.040229555 0.79699999 8.2906703e-40
0.055410489 -0.040229548 0.79699999 1.1971601e-39
0.056785736 -0.040128607 0.79500002 1.6563572e-39
0.058300018 -0.040128607 0.79500002 2.30317e-39
0.0596724 -0.035535276 0.70400006 1.6674799e-38
0.061099984 -0.035585705 0.70500004 1.8336526e-38
0.062620007 -0.035686683 0.70700002 2.0838763e-38
0.063966654 -0.035686661 0.70700002 2.3417655e-38
0.065405719 -0.035737146 0.70799994 1.6495519e-38
0.06722571 -0.03598953 0.71300006 9.5514759e-39
0.068583809 -0.035989519 0.71300006 9.9431501e-39
0.069451429 -0.035737153 0.70799994 1.0325919e-38
0.070800006 -0.035737164 0.70799994 1.1058452e-38
-0.0117057 -0.035117175 0.72299999 2.7659249e-40
-0.010357144 -0.035214294 0.72500002 4.6026209e-40
-0.0089761997 -0.035214279 0.72500002 5.5245491e-40
-0.0075952457 -0.035214283 0.72500002 6.4428761e-40
-0.0062228572 -0.035262868 0.72600007 7.361217e-40
-0.004853325 -0.03536002 0.72800004 5.5209058e-40
-0.0035047589 -0.035748586 0.73600006 2.7694282e-40
-0.0021028651 -0.035748567 0.73600006 3.6913705e-40
-0.00071142492 -0.036282875 0.74699998 3.6878672e-40
0.00071242295 -0.036331497 0.74800003 7.3577698e-40
0.0021371807 -0.03633149 0.74800003 1.1034707e-39
0.0035714523 -0.036428612 0.75000006 9.1979269e-40
0.0050000129 -0.036428597 0.75000006 6.4464354e-40
0.0066000093 -0.037400018 0.76999998 5.5280804e-40
0.0080666672 -0.037400004 0.77000004 3.6913845e-40
0.0095581226 -0.037497189 0.77200001 5.5245071e-40
0.011042884 -0.037545759 0.77300006 7.361217e-40
0.012515245 -0.037545726 0.77300006 5.5244931e-40
0.014023813 -0.037642863 0.77500004 2.7694282e-40
0.015580016 -0.03783717 0.77900004 2.7658409e-40
0.017173337 -0.038080007 0.78400004 2.7658969e-40
0.018714298 -0.038177162 0.78600001 3.6843219e-40
0.020262865 -0.038274299 0.78800005 3.6878672e-40
0.021791428 -0.038322859 0.78900003 3.6878392e-40
0.023353305 -0.038419958 0.79100001 2.7694562e-40
0.024922881 -0.038517181 0.7930001 3.6913705e-40
0.026500015 -0.038614307 0.79499996 3.6913705e-40
0.028084779 -0.038711455 0.79700005 3.6877832e-40
0.029602868 -0.038711447 0.79700005 3.6877972e-40
0.031120958 -0.03871144 0.79700005 3.6806365e-40
0.03267999 -0.038759988 0.79800004 3.6877972e-40
0.034200005 -0.03876001 0.79800004 5.5245071e-40
0.035719998 -0.038759999 0.79799998 6.4428621e-40
0.03724001 -0.038760018 0.79799998 5.5209338e-40
0.038711429 -0.03871144 0.79700005 4.6061661e-40
0.040229522 -0.038711429 0.79700005 7.361245e-40
0.041800011 -0.038760018 0.79800004 1.0116282e-39
0.04332 -0.038760006 0.79799998 7.3647903e-40
0.044840015 -0.038760025 0.79799998 4.6169982e-40
0.046359986 -0.038759977 0.79799998 5.5354372e-40
0.047879998 -0.038760003 0.79799998 5.5353672e-40
0.049399987 -0.038759988 0.79799998 5.5352831e-40
0.050920002 -0.03876001 0.79799998 4.6097675e-40
0.052439991 -0.038759995 0.79800004 6.4429041e-40
0.053892374 -0.038711429 0.79700005 7.3686859e-40
0.055410467 -0.038711421 0.79700005 1.1053134e-39
0.056785736 -0.038614322 0.79500002 1.4741099e-39
0.058300026 -0.038614322 0.79500002 2.3028014e-39
0.059757151 -0.034242876 0.70500004 1.7954429e-38
0.061099991 -0.034242854 0.70500004 1.9725553e-38
0.062619999 -0.03433999 0.70700002 2.158098e-38
0.064057149 -0.034388583 0.708 2.3410478e-38
0.065405719 -0.034388583 0.70799994 1.5858405e-38
0.066942893 -0.034485772 0.71000004 8.2934014e-39
0.068295255 -0.034485746 0.71000004 9.6687282e-39
0.069451436 -0.034388583 0.70799994 1.096483e-38
0.070799999 -0.034388568 0.70799994 1.1513693e-38
-0.011738117 -0.033833314 0.72500002 2.7695123e-40
-0.010357163 -0.033833317 0.72500002 3.6878252e-40
-0.0089762071 -0.033833321 0.72500002 4.6061661e-40
-0.0075952532 -0.033833321 0.72500002 5.5245071e-40
-0.0062228506 -0.033880018 0.72600007 7.361217e-40
-0.0048533268 -0.033973347 0.72799999 4.6061381e-40
-0.0035047515 -0.034346696 0.73600006 1.8474859e-40
-0.0021028577 -0.034346674 0.73600006 2.7730155e-40
-0.00070949708 -0.034766715 0.74500006 2.7731697e-40
0.00071239966 -0.0349067 0.74800003 5.5248014e-40
0.0021371574 -0.034906697 0.74800003 8.2761248e-40
0.0035714314 -0.035000008 0.75000006 6.442848e-40
0.0050333366 -0.035233349 0.75500005 5.5316677e-40
0.0064714281 -0.035233337 0.75500005 3.6949578e-40
0.0080457227 -0.03584002 0.76800001 2.7802042e-40
0.0095581077 -0.036026686 0.77199996 3.6913985e-40
0.011028592 -0.036026698 0.77199996 5.5280944e-40
0.012499075 -0.036026709 0.77199996 4.6133128e-40
0.013987627 -0.036073349 0.77300006 2.7766028e-40
0.015540011 -0.036260016 0.77700001 2.7694282e-40
0.017085735 -0.036400028 0.78000003 3.6878672e-40
0.018666685 -0.036586691 0.78400004 3.6879513e-40
0.020211427 -0.036679994 0.78599995 3.6914686e-40
0.021763822 -0.036773354 0.78800011 3.6913845e-40
0.023294276 -0.036819987 0.78900003 3.6877972e-40
0.024797156 -0.036820017 0.78900003 3.6913705e-40
0.026366662 -0.036913328 0.79100001 3.6913705e-40
0.027943825 -0.037006687 0.79300004 4.6061381e-40
0.02952859 -0.037100028 0.79500002 4.6025508e-40
0.031120962 -0.037193347 0.79699999 4.6025508e-40
0.032639049 -0.037193339 0.79699999 4.6025648e-40
0.034157142 -0.037193332 0.79700005 5.5245071e-40
0.035675231 -0.037193324 0.79700005 6.4392887e-40
0.037193343 -0.037193354 0.79699999 6.4428901e-40
0.038711436 -0.037193347 0.79699999 5.5245351e-40
0.040229525 -0.037193339 0.79699999 6.4428901e-40
0.041747615 -0.037193332 0.79700005 6.4392887e-40
0.043320015 -0.037240028 0.79799998 5.5280804e-40
0.044839986 -0.03723998 0.79800004 4.6170823e-40
0.046359997 -0.037239999 0.79800004 4.6172644e-40
0.047879986 -0.037239987 0.79799998 4.6278723e-40
0.049400002 -0.03724001 0.79799998 4.6205295e-40
0.050920021 -0.037240032 0.79799998 5.5245772e-40
0.052374288 -0.037193343 0.79699999 5.5281925e-40
0.053892381 -0.037193336 0.79699999 6.4431283e-40
0.055410467 -0.037193328 0.79699999 1.0134653e-39
0.056785736 -0.037100036 0.79500002 1.2907865e-39
0.058299996 -0.037100002 0.79499996 1.6585082e-39
0.059757158 -0.03290002 0.70500004 1.8619191e-38
0.061099999 -0.032900006 0.70499998 2.1580934e-38
0.06244285 -0.032900002 0.70500004 2.2499335e-38
0.063966662 -0.032993324 0.70700002 2.3417649e-38
0.065313332 -0.032993328 0.70700002 1.5855528e-38
0.066754282 -0.033040013 0.70799994 8.3798573e-39
0.068102852 -0.033039998 0.70799994 9.8595808e-39
0.069451444 -0.033040028 0.70799994 1.134115e-38
0.070800006 -0.033040013 0.70799994 1.0873724e-38
-0.011738121 -0.032452349 0.72500002 2.7731556e-40
-0.010357167 -0.032452356 0.72500002 3.6950699e-40
-0.0089762108 -0.032452356 0.72500002 3.6878532e-40
-0.0075952681 -0.032452345 0.72500002 5.5245211e-40
-0.0062228674 -0.032497142 0.72600001 6.4428621e-40
-0.0048399977 -0.032497156 0.72600007 3.6877972e-40
-0.0035047664 -0.032944765 0.736 9.3273228e-41
-0.0021057271 -0.032989506 0.73699999 1.8546746e-40
-0.00070669426 -0.033213306 0.74200004 1.8511573e-40
0.00071143016 -0.033437151 0.74699998 3.684364e-40
0.002137182 -0.033481963 0.74800003 4.6062222e-40
0.0035809532 -0.033660959 0.75200003 4.6061381e-40
0.0050333347 -0.033795245 0.75500005 3.6913705e-40
0.0065142978 -0.034019068 0.76000011 2.7730155e-40
0.0080142729 -0.034242842 0.76499999 9.3631961e-41
0.0095085558 -0.034377124 0.76800001 2.7730295e-40
0.011000018 -0.034466695 0.76999998 3.6949718e-40
0.012499083 -0.03455624 0.77200001 3.7021325e-40
0.013987624 -0.034600962 0.77300006 2.7766028e-40
0.0155 -0.034690477 0.77499998 3.6877832e-40
0.017063817 -0.03486954 0.77899998 3.6878252e-40
0.01861904 -0.035003796 0.78200001 3.6878672e-40
0.020160004 -0.035093345 0.78400004 3.6914125e-40
0.021708578 -0.035182867 0.78600001 3.6913845e-40
0.023205707 -0.035182845 0.78599995 3.6913705e-40
0.024765732 -0.035272412 0.78800005 3.6949578e-40
0.026300004 -0.035317145 0.78900003 3.6913845e-40
0.027802857 -0.035317145 0.78900003 4.6025788e-40
0.02945433 -0.035496257 0.79300004 5.5245071e-40
0.03096479 -0.035496231 0.79299998 5.5244931e-40
0.032475248 -0.035496209 0.79300004 5.5245071e-40
0.034071449 -0.03558575 0.79499996 6.4428621e-40
0.035675235 -0.035675231 0.79699999 6.4428761e-40
0.037100025 -0.035585757 0.79499996 6.4428901e-40
0.03861431 -0.035585757 0.79499996 6.4428901e-40
0.040128596 -0.035585761 0.79500002 4.6025788e-40
0.041747641 -0.035675269 0.79700005 2.7694422e-40
0.04326573 -0.035675265 0.79700005 3.6913705e-40
0.044840001 -0.035720002 0.79800004 4.6098375e-40
0.046359994 -0.035719991 0.79799998 3.6879934e-40
0.047880005 -0.035720013 0.79799998 2.7803303e-40
0.04940002 -0.035720035 0.79799998 4.6277321e-40
0.050919987 -0.035719987 0.79800004 5.5353251e-40
0.052374296 -0.035675254 0.79700005 5.5317518e-40
0.053892381 -0.035675243 0.79700005 5.5318219e-40
0.055271424 -0.035585709 0.79499996 8.2905441e-40
0.05678571 -0.035585713 0.79500002 1.1063742e-39
0.058299996 -0.035585713 0.79500002 1.0159932e-39
0.061099987 -0.031557143 0.70500004 2.3413361e-38
0.062619999 -0.031646661 0.70700002 2.341769e-38
0.063966662 -0.031646673 0.70700002 2.3410469e-38
0.065405719 -0.031691436 0.70799994 1.5949864e-38
0.066754296 -0.031691451 0.70799994 8.3884599e-39
0.068102852 -0.031691439 0.70799994 1.0047915e-38
0.069451429 -0.031691436 0.70799994 1.1610551e-38
0.070800021 -0.031691454 0.70799994 1.0226919e-38
-0.011738102 -0.031071426 0.72500002 6.4430442e-40
-0.010371424 -0.031114297 0.72600001 5.5246752e-40
-0.0089885565 -0.031114312 0.72600007 5.5210179e-40
-0.0076057119 -0.031114293 0.72600001 6.4392887e-40
-0.0062399767 -0.031200038 0.72800004 8.2759987e-40
-0.0048599904 -0.031242881 0.72899997 5.5245071e-40
-0.0035047831 -0.031542838 0.73600006 2.7694422e-40
-0.0021028419 -0.031542893 0.73600006 2.7694422e-40
-0.00070476549 -0.031714283 0.74000001 2.7694422e-40
0.00071144133 -0.03201431 0.74699998 3.6877972e-40
0.0021428748 -0.032142892 0.75000006 5.5245071e-40
0.0035857193 -0.032271441 0.75299996 5.5244931e-40
0.0050400184 -0.032400031 0.75600004 5.5244931e-40
0.0064971382 -0.032485712 0.75800002 3.6877832e-40
0.0079723997 -0.032614317 0.76100004 2.7658409e-40
0.0094714109 -0.032785691 0.76500005 3.6913705e-40
0.010971413 -0.032914266 0.76800001 4.6169001e-40
0.012466676 -0.033000022 0.76999998 2.7801902e-40
0.013969549 -0.033085752 0.77199996 1.8618352e-40
0.015500019 -0.033214319 0.77499998 3.6877832e-40
0.017063824 -0.033385735 0.77900004 4.6025508e-40
0.018571438 -0.033428587 0.77999997 5.5244931e-40
0.020108558 -0.033514265 0.78200006 7.3647903e-40
0.021653328 -0.033599995 0.78400004 5.5280804e-40
0.023146678 -0.033600014 0.78400004 3.6913705e-40
0.024702856 -0.033685718 0.78599995 3.6913705e-40
0.02620001 -0.033685725 0.78599995 2.7694562e-40
0.027697137 -0.033685703 0.78600001 3.6878252e-40
0.02937999 -0.033899993 0.79100001 4.6061661e-40
0.030886648 -0.033899978 0.79100001 4.6061381e-40
0.032393329 -0.0339 0.79100001 5.5209198e-40
0.03398573 -0.033985745 0.79300004 5.5209198e-40
0.03549622 -0.033985753 0.79300004 6.4392887e-40
0.037006699 -0.033985768 0.79300004 8.2760127e-40
0.038517162 -0.033985745 0.79299998 1.1031064e-39
0.040128574 -0.034071438 0.79499996 7.3576297e-40
0.041642863 -0.034071442 0.79499996 4.6061521e-40
0.043157149 -0.034071442 0.79499996 4.6061381e-40
0.044783823 -0.034157168 0.79700005 4.6097535e-40
0.046301909 -0.034157157 0.79700005 4.6097815e-40
0.047820002 -0.034157149 0.79700005 4.6062082e-40
0.049399987 -0.034199987 0.79800004 4.6133968e-40
0.050856203 -0.034157168 0.79699999 5.5353251e-40
0.052374296 -0.034157161 0.79699999 4.6169561e-40
0.053892385 -0.034157153 0.79700005 4.6205154e-40
0.055132419 -0.033985775 0.79300004 8.2974946e-40
0.056642879 -0.033985753 0.79300004 1.1063504e-39
0.058153361 -0.033985764 0.79300004 8.3014462e-40
0.061099995 -0.030214284 0.70500004 2.341769e-38
0.062619992 -0.030299991 0.70699996 2.341769e-38
0.063966662 -0.030299995 0.70700002 2.3417638e-38
0.065405719 -0.030342873 0.70799994 1.5756137e-38
0.066754311 -0.030342892 0.708 8.1760847e-39
0.068102866 -0.030342873 0.70799994 9.2131436e-39
0.069451421 -0.030342858 0.70799994 1.0234807e-38
0.070800006 -0.030342855 0.70799994 1.2251952e-38
-0.011754297 -0.029731419 0.72600007 9.1945638e-40
-0.010399969 -0.029813388 0.72800004 8.2726215e-40
-0.0090133334 -0.029813344 0.72800004 6.4394149e-40
-0.0076266509 -0.02981337 0.72799999 8.2724674e-40
-0.0062485738 -0.029854286 0.72900003 1.0112737e-39
-0.0048733046 -0.029936234 0.73100001 7.3576577e-40
-0.0035047738 -0.030140946 0.73600006 3.6878532e-40
-0.0020971198 -0.030059082 0.73400003 3.6878953e-40
-0.00070379878 -0.030263834 0.73900002 3.6878672e-40
0.00071242295 -0.030632449 0.74800003 4.6026068e-40
0.0021428776 -0.030714324 0.75000006 5.5209338e-40
0.0035952402 -0.030919053 0.75500005 6.4392747e-40
0.0050400035 -0.030960012 0.75600004 6.4464354e-40
0.0064800177 -0.030960035 0.75600004 5.5244931e-40
0.0079619242 -0.031123841 0.76000005 3.6913705e-40
0.0094219008 -0.031164762 0.76100004 4.6097254e-40
0.011000002 -0.031533334 0.76999998 4.6133128e-40
0.012466682 -0.03153336 0.76999998 2.7766028e-40
0.01398764 -0.031656224 0.773 9.3989292e-41
0.015460026 -0.031656232 0.77300006 3.6841958e-40
0.017020004 -0.03182001 0.77700001 5.5244931e-40
0.018547643 -0.031901941 0.77900004 8.279558e-40
0.020108575 -0.032024767 0.78200006 1.0116268e-39
0.021598076 -0.032024734 0.78200006 7.3576157e-40
0.023087621 -0.032024767 0.78200006 3.6913705e-40
0.024640024 -0.032106701 0.78400004 2.7658409e-40
0.026133325 -0.032106657 0.78400004 1.8510872e-40
0.027697137 -0.032188561 0.78599995 2.7694562e-40
0.029305723 -0.03231144 0.78900003 2.7694422e-40
0.030808577 -0.03231144 0.78900003 3.6841958e-40
0.032393325 -0.032393325 0.79100001 4.6025648e-40
0.033899985 -0.03239331 0.79099995 5.5209338e-40
0.035496213 -0.032475274 0.79299998 6.4392887e-40
0.037006699 -0.032475289 0.79300004 1.102749e-39
0.038517181 -0.0324753 0.79300004 1.4704483e-39
0.040027644 -0.032475278 0.7930001 1.103105e-39
0.041642863 -0.032557156 0.79500002 6.4428621e-40
0.043265715 -0.032639045 0.79700005 5.5209198e-40
0.044783801 -0.032639038 0.79700005 4.6097535e-40
0.046301916 -0.032639064 0.79699999 5.5317098e-40
0.047820009 -0.03263906 0.79699999 5.5281505e-40
0.049338102 -0.032639049 0.79700005 5.5246052e-40
0.050856184 -0.032639042 0.79700005 4.6133968e-40
0.052242875 -0.032557171 0.79499996 4.6169702e-40
0.053757161 -0.032557171 0.79499996 3.7022165e-40
0.054993317 -0.03239331 0.79100001 7.3756504e-40
0.056499973 -0.032393295 0.79100001 1.1056343e-39
0.058006655 -0.032393318 0.79100001 6.4574916e-40
0.061273329 -0.028953332 0.70700002 2.341769e-38
0.062619999 -0.028953336 0.70700002 2.341769e-38
0.064057142 -0.028994273 0.70799994 2.3407957e-38
0.065405719 -0.028994296 0.70799994 1.5663951e-38
0.066754282 -0.028994299 0.70799994 7.9267727e-39
0.068102852 -0.028994281 0.70799994 8.3941646e-39
0.069451436 -0.028994296 0.70799994 8.8504988e-39
-0.011754278 -0.028348587 0.72600007 7.35791e-40
-0.010399969 -0.028426716 0.72800004 5.521186e-40
-0.009025706 -0.028465731 0.72900003 4.6063483e-40
-0.0076371487 -0.028465716 0.72900003 6.4465615e-40
-0.0062657036 -0.028543836 0.73100001 7.3648884e-40
-0.0048800083 -0.028582854 0.73200005 5.5281505e-40
-0.0035047655 -0.02873905 0.73600006 3.6915106e-40
-0.0020971375 -0.028660964 0.73400003 3.6879793e-40
-0.00070379878 -0.02885621 0.73900002 3.68435e-40
0.00071432238 -0.029285774 0.75000006 4.6026489e-40
0.0021485819 -0.029363832 0.75200003 4.6026068e-40
0.0036000235 -0.029520039 0.75600004 5.5280944e-40
0.0050399895 -0.02951999 0.75600004 5.5352691e-40
0.0064971405 -0.029598091 0.75799996 5.5352551e-40
0.0079619177 -0.02967621 0.76000005 4.6169001e-40
0.0094219055 -0.029715246 0.76100004 5.5316677e-40
0.010899994 -0.029793328 0.76300001 6.4464354e-40
0.012353341 -0.029793352 0.76300001 4.6133128e-40
0.013933344 -0.030066688 0.76999998 2.7801902e-40
0.015460022 -0.030183842 0.77300006 3.6913705e-40
0.017020008 -0.03034001 0.77700001 4.6061381e-40
0.018500023 -0.030340031 0.77700001 6.442848e-40
0.020057144 -0.030457143 0.77999997 8.2723833e-40
0.021598073 -0.030535202 0.78200006 5.5244931e-40
0.023028584 -0.030457158 0.77999997 3.6985451e-40
0.024577139 -0.03053523 0.78200001 2.7730155e-40
0.026066661 -0.030535227 0.78200006 2.7658409e-40
0.027697137 -0.030691419 0.78599995 2.7694282e-40
0.029305713 -0.030808572 0.78900003 3.6913705e-40
0.030808568 -0.03080857 0.78900009 3.6877832e-40
0.032311425 -0.030808568 0.78900003 4.6025648e-40
0.033899978 -0.030886639 0.79100001 4.6025788e-40
0.03540666 -0.030886663 0.79100001 5.5173465e-40
0.036913343 -0.030886684 0.79100001 7.3576437e-40
0.038419977 -0.030886635 0.79100001 1.0112695e-39
0.039926659 -0.030886658 0.79100001 7.361203e-40
0.041538123 -0.03096481 0.79300004 4.6061521e-40
0.043048587 -0.030964788 0.79300004 4.6133268e-40
0.044671461 -0.031042907 0.79499996 4.6169281e-40
0.046185747 -0.031042911 0.79499996 4.6133408e-40
0.047700033 -0.031042915 0.79500002 5.5281645e-40
0.049214296 -0.031042881 0.79499996 5.5282065e-40
0.050728586 -0.031042881 0.79499996 6.4465475e-40
0.052242875 -0.031042883 0.79499996 5.5389265e-40
0.053621925 -0.030964805 0.79300004 5.5461572e-40
0.054993335 -0.030886671 0.79100001 9.2196331e-40
0.056357153 -0.030808594 0.78900003 1.3818597e-39
0.057859987 -0.030808555 0.78900003 7.3686019e-40
0.061273344 -0.027606692 0.70700002 2.341769e-38
0.062619999 -0.027606659 0.70700002 2.341769e-38
0.064057142 -0.027645716 0.70799994 2.3417647e-38
0.065405726 -0.027645735 0.708 1.5666112e-38
0.066942878 -0.027723838 0.71000004 7.9210414e-39
0.068102852 -0.027645724 0.70799994 8.8522714e-39
0.069451451 -0.027645743 0.708 9.8661109e-39
-0.01175431 -0.026965693 0.72600001 4.6064744e-40
-0.010414278 -0.027077161 0.72900003 3.6881055e-40
-0.0090504605 -0.027151452 0.73100001 2.7804284e-40
-0.0076580523 -0.027151499 0.73100001 3.7094612e-40
-0.0062742922 -0.027188569 0.73200005 4.6205855e-40
-0.0048800036 -0.027188573 0.73200005 3.6985872e-40
-0.0035047561 -0.027337158 0.73600006 2.776771e-40
-0.0020971328 -0.027262876 0.73399997 3.6916648e-40
-0.00070477108 -0.027485702 0.74000001 3.6879934e-40
0.00071242341 -0.027782924 0.74800003 3.6843219e-40
0.0021428822 -0.027857186 0.75000006 3.6950419e-40
0.0035857267 -0.027968593 0.75299996 4.6169561e-40
0.0050333468 -0.028042879 0.75500005 4.6205295e-40
0.0064799935 -0.02807999 0.75600004 5.5424717e-40
0.0079200072 -0.028080016 0.75600004 5.5389124e-40
0.0094095282 -0.028228581 0.76000005 7.3649024e-40
0.010871435 -0.028265726 0.7610001 8.290376e-40
0.012353323 -0.028339991 0.76299995 6.45361e-40
0.013806673 -0.028340014 0.76299995 3.6985451e-40
0.015360009 -0.028525729 0.76800001 3.6913705e-40
0.017020008 -0.028860012 0.77700001 3.6913705e-40
0.018500023 -0.028860034 0.77700001 4.6061381e-40
0.020031443 -0.028934311 0.77900004 5.5209198e-40
0.021542856 -0.028971428 0.77999997 4.6025788e-40
0.022999035 -0.028934265 0.77900004 3.6913845e-40
0.024514297 -0.028971441 0.78000003 3.6913845e-40
0.026066655 -0.029045697 0.78200006 2.7694422e-40
0.027556179 -0.029045697 0.78200006 3.6877972e-40
0.029194288 -0.02919429 0.78600001 4.6097675e-40
0.030769514 -0.029268559 0.78800005 4.6133968e-40
0.032270469 -0.029268559 0.78800005 3.6878392e-40
0.033814274 -0.029305696 0.78900003 3.6878112e-40
0.035317153 -0.029305728 0.78900003 3.6878112e-40
0.036820006 -0.029305724 0.78900003 4.6061661e-40
0.038322862 -0.029305723 0.78900009 4.6133268e-40
0.039825715 -0.029305721 0.78900003 3.6949578e-40
0.041328572 -0.029305715 0.78900009 2.7766028e-40
0.042939994 -0.029379994 0.79100001 3.7021465e-40
0.044446673 -0.029380014 0.79100001 4.6205154e-40
0.045953311 -0.029379966 0.79100001 4.6133688e-40
0.04745999 -0.029379986 0.79100001 4.6135089e-40
0.049090497 -0.029454321 0.79300004 6.4431984e-40
0.050600961 -0.029454295 0.79300004 7.3686159e-40
0.05197997 -0.029379951 0.79100001 7.3792798e-40
0.053351413 -0.029305696 0.78900003 6.4645822e-40
0.054854292 -0.029305728 0.78900003 1.105284e-39
0.056357145 -0.029305724 0.78900003 1.5648132e-39
0.057860006 -0.029305723 0.78900009 8.2796981e-40
0.061273333 -0.026259998 0.70700002 2.341769e-38
0.062619999 -0.02626 0.70700002 2.341769e-38
0.064057156 -0.026297156 0.70799994 2.3407225e-38
0.065590493 -0.02637147 0.71000004 1.5661053e-38
0.066942863 -0.026371438 0.71000004 7.9314278e-39
0.068102866 -0.026297167 0.70799994 9.4111807e-39
0.069451429 -0.026297139 0.70799994 1.0789467e-38
-0.010442811 -0.025759123 0.73100001 4.6172504e-40
-0.0090628648 -0.025794279 0.73200005 3.705986e-40
-0.0076685771 -0.025794284 0.73200005 4.6242569e-40
-0.0062742895 -0.025794284 0.73200005 5.5461151e-40
-0.0048933076 -0.025864804 0.73400003 3.7057198e-40
-0.0035047487 -0.025935266 0.73600006 1.8656187e-40
-0.002102854 -0.025935253 0.73600006 2.7769812e-40
-0.00070379878 -0.026040973 0.73900002 3.6952241e-40
0.00071143621 -0.026322871 0.74699998 3.6951119e-40
0.0021485684 -0.026499048 0.75199997 3.7058459e-40
0.0035857211 -0.026534297 0.75300002 3.7022165e-40
0.0050333422 -0.026604783 0.75500005 4.6169842e-40
0.0064800009 -0.026640009 0.75599998 4.6241588e-40
0.0079199933 -0.026639994 0.75600004 4.6278162e-40
0.0094095198 -0.026780948 0.76000005 5.5390526e-40
0.010871437 -0.026816208 0.76100004 6.4608968e-40
0.012320983 -0.02681624 0.76100004 4.6204874e-40
0.013770481 -0.026816202 0.76100004 3.6985451e-40
0.015299983 -0.026957123 0.76499999 3.6949578e-40
0.016976204 -0.027309544 0.77499998 3.6913705e-40
0.018452371 -0.027309507 0.77499998 5.5244931e-40
0.01992858 -0.027309539 0.77500004 7.361231e-40
0.02146003 -0.027380046 0.77700001 5.5245351e-40
0.022939999 -0.027379999 0.77700001 4.6097535e-40
0.024420014 -0.027380019 0.77700001 3.6913845e-40
0.025966676 -0.027450483 0.77899998 3.6877972e-40
0.0274857 -0.027485698 0.78000003 5.5280944e-40
0.029120015 -0.027626691 0.78400004 8.2868307e-40
0.03061334 -0.027626678 0.78400004 5.5318359e-40
0.032270495 -0.027767645 0.78800011 3.6878812e-40
0.033771425 -0.027767614 0.78800005 3.6949718e-40
0.035272375 -0.027767617 0.78800005 3.6985591e-40
0.036773331 -0.027767617 0.78800005 4.6133268e-40
0.038274284 -0.027767621 0.78800005 6.4607987e-40
0.039775237 -0.027767623 0.78800005 4.6169001e-40
0.041276194 -0.027767627 0.78800011 3.6877832e-40
0.042777147 -0.027767628 0.78800011 4.6204874e-40
0.044278096 -0.027767632 0.78800011 6.464414e-40
0.045779053 -0.027767632 0.78800011 6.4572814e-40
0.04728001 -0.027767636 0.78800011 6.4575196e-40
0.048780937 -0.027767602 0.78800005 8.2908805e-40
0.05028189 -0.027767602 0.78800005 1.1045763e-39
0.051782846 -0.027767606 0.78800011 8.2976768e-40
0.053148568 -0.027697135 0.78600001 5.5462833e-40
0.054645717 -0.02769715 0.78600001 1.0141729e-39
0.056142841 -0.027697127 0.78599995 1.5662481e-39
0.061273336 -0.024913339 0.70700002 2.341769e-38
0.062708572 -0.024948578 0.70799994 2.341769e-38
0.064328581 -0.025054302 0.71100003 2.341761e-38
0.065682866 -0.025054306 0.71100003 1.5478781e-38
0.067037158 -0.02505431 0.71100003 7.5486435e-39
0.068391442 -0.025054317 0.71099997 9.3139671e-39
-0.010442845 -0.024366692 0.73100001 4.6244391e-40
-0.0090628592 -0.0244 0.73200005 4.6208798e-40
-0.0076895095 -0.024466695 0.73400003 5.5392768e-40
-0.0062914174 -0.02446669 0.73400003 5.542738e-40
-0.0048933281 -0.024466679 0.73400003 3.7059019e-40
-0.0035047636 -0.024533341 0.73600006 9.437605e-41
-0.0021028446 -0.024533356 0.73600006 1.8550529e-40
-0.00070379878 -0.024633355 0.73899996 2.7733098e-40
0.00070475211 -0.024666658 0.74000001 3.6915667e-40
0.0021428873 -0.025000049 0.75000006 3.6987133e-40
0.0035857137 -0.025100008 0.75299996 3.7058459e-40
0.0050333408 -0.025166681 0.75500005 3.7058459e-40
0.0064714551 -0.025166705 0.75500005 3.7094332e-40
0.0079095457 -0.025166698 0.75500005 3.7094472e-40
0.00936002 -0.025200035 0.75600004 3.7058879e-40
0.010857156 -0.025333354 0.76000005 3.7058179e-40
0.012320966 -0.025366686 0.76100004 3.7021745e-40
0.013770465 -0.025366649 0.76100004 2.7802182e-40
0.01525999 -0.025433321 0.76300001 3.6985591e-40
0.016932396 -0.025766691 0.77300006 3.6913845e-40
0.018380964 -0.025733355 0.77199996 6.4428621e-40
0.019877169 -0.025766704 0.77300006 9.1979269e-40
0.021404769 -0.025833346 0.77500004 7.361231e-40
0.02288096 -0.02583334 0.77499998 4.6097675e-40
0.024420014 -0.025900021 0.77700001 4.6133828e-40
0.025900006 -0.02590001 0.77700001 3.6914125e-40
0.027380019 -0.025900032 0.77700001 7.3648043e-40
0.028971439 -0.026000015 0.77999997 1.1041854e-39
0.030535236 -0.026066665 0.78200006 7.3720631e-40
0.03210666 -0.026133329 0.78400004 2.7766589e-40
0.033685718 -0.026200008 0.78600001 2.7802182e-40
0.035182871 -0.026200023 0.78600001 2.7766589e-40
0.036679972 -0.026199963 0.78600001 5.5245772e-40
0.038274288 -0.026266672 0.78800005 7.3721331e-40
0.039674275 -0.026199987 0.78600001 6.4574636e-40
0.041171424 -0.0262 0.78600001 4.6170402e-40
0.042668551 -0.026199978 0.78599995 6.4607987e-40
0.044278108 -0.026266681 0.78800005 7.3791817e-40
0.045662854 -0.026200002 0.78600001 8.2975646e-40
0.047280014 -0.026266685 0.78800011 8.2940754e-40
0.048780967 -0.026266688 0.78800011 1.1045665e-39
0.050154261 -0.026199969 0.78600001 1.3807821e-39
0.051651414 -0.026199982 0.78600001 9.2159616e-40
0.053013325 -0.026133327 0.78400004 3.7095173e-40
0.054506682 -0.026133347 0.7840001 9.2161718e-40
0.056142844 -0.026199985 0.78600001 1.4736923e-39
0.061273333 -0.023566667 0.70700002 2.341769e-38
0.062885724 -0.023666684 0.71000004 2.341769e-38
0.064328574 -0.023700003 0.71100003 2.3405759e-38
0.065590493 -0.023666702 0.71000004 1.5288269e-38
0.066942878 -0.02366671 0.71000004 7.1041642e-39
0.068102852 -0.023600008 0.70799994 9.3215046e-39
-0.0090876175 -0.023068579 0.73400003 5.5357875e-40
-0.0076895254 -0.023068573 0.73400003 5.539515e-40
-0.0062914351 -0.023068566 0.73400003 5.5429482e-40
-0.0049066721 -0.02313143 0.73600006 3.6989095e-40
-0.0035047794 -0.02313141 0.73600006 1.8550389e-40
-0.0021028605 -0.023131426 0.73600006 3.6917628e-40
-0.00070379785 -0.023225736 0.73900002 4.6064604e-40
0.00070761592 -0.023351431 0.74300003 5.5283186e-40
0.002137156 -0.023508595 0.74800003 5.5282906e-40
0.0035714495 -0.023571465 0.75000006 4.6170682e-40
0.005020021 -0.023665747 0.75299996 3.7058879e-40
0.0064542848 -0.023665715 0.75300002 3.7058879e-40
0.0078885723 -0.023665717 0.75300002 4.6278022e-40
0.0093476307 -0.023728594 0.75500011 3.7094192e-40
0.010800021 -0.023760034 0.75600004 3.7094052e-40
0.012272391 -0.023822874 0.75799996 3.7058039e-40
0.013716185 -0.023822851 0.75800002 3.6986012e-40
0.015220014 -0.023917165 0.76100004 2.7766169e-40
0.016822867 -0.02413716 0.76800001 2.7730295e-40
0.018285701 -0.024137123 0.76800001 4.6097395e-40
0.019800017 -0.024200026 0.76999998 7.361217e-40
0.021321941 -0.024262911 0.77199996 5.5280944e-40
0.022821913 -0.024294298 0.77300006 4.6097955e-40
0.02429432 -0.024294341 0.77300006 3.6914826e-40
0.025766684 -0.024294311 0.77300006 3.6842519e-40
0.027239045 -0.024294285 0.77300006 5.5280804e-40
0.028785734 -0.024357174 0.77500004 8.279572e-40
0.030261902 -0.024357136 0.77500004 6.4464494e-40
0.031820018 -0.02442003 0.77700001 4.6061661e-40
0.03338572 -0.024482869 0.77900004 3.6914125e-40
0.034869537 -0.024482882 0.77900004 3.6878812e-40
0.036400001 -0.024514291 0.77999997 4.6098656e-40
0.037885722 -0.024514299 0.78000003 6.4467717e-40
0.039371442 -0.024514306 0.77999997 4.6174186e-40
0.040804788 -0.024482895 0.77900004 3.7023987e-40
0.04228856 -0.024482837 0.77900004 4.6205014e-40
0.04405335 -0.024640035 0.78400004 6.4608127e-40
0.045430474 -0.024577141 0.78200006 7.3791817e-40
0.046919998 -0.024577141 0.78200001 8.2975226e-40
0.048409514 -0.024577137 0.78200006 9.2194369e-40
0.050026678 -0.024640016 0.78400004 1.0144995e-39
0.051519997 -0.024640003 0.7840001 8.3047113e-40
0.052878086 -0.024577128 0.78200006 6.4645401e-40
0.054367606 -0.024577126 0.78200006 1.1060014e-39
0.061360002 -0.022251427 0.70799994 2.341769e-38
0.062974304 -0.02234575 0.71100003 2.341769e-38
0.064328596 -0.022345753 0.71100003 2.3417585e-38
0.065682873 -0.022345733 0.71100003 1.4827631e-38
0.066942878 -0.022314325 0.71000004 6.3597833e-39
0.06829524 -0.022314299 0.71000004 8.3005564e-39
-0.0090876101 -0.021670494 0.73399997 5.5393468e-40
-0.0076895198 -0.021670485 0.73399997 5.5358856e-40
-0.0063085565 -0.021729553 0.73600006 5.5357735e-40
-0.0049066627 -0.021729534 0.73600006 4.6101458e-40
-0.0035095189 -0.021759057 0.73699999 2.7734639e-40
-0.0021057234 -0.021759039 0.73700005 4.6102019e-40
-0.00070379785 -0.021818118 0.73899996 6.4468417e-40
0.00070664269 -0.021906633 0.74200004 7.3615533e-40
0.002128585 -0.021995261 0.74500006 7.3651126e-40
0.0035619352 -0.022083862 0.74800003 5.5283887e-40
0.005000012 -0.02214288 0.75000006 3.6952661e-40
0.0064457408 -0.022201952 0.75199997 4.6100197e-40
0.0078885676 -0.022231422 0.75299996 4.6207396e-40
0.0093476521 -0.02229053 0.75500005 4.6242709e-40
0.010800007 -0.022320013 0.75600004 3.7094753e-40
0.01227238 -0.022379046 0.75800002 3.7094332e-40
0.013716197 -0.022379061 0.75800002 3.7058179e-40
0.015220016 -0.022467649 0.76100004 2.7766869e-40
0.01675714 -0.022585712 0.76500005 1.858332e-40
0.018261908 -0.022644766 0.76700002 3.6914546e-40
0.019748582 -0.0226743 0.76800001 4.6133688e-40
0.021266678 -0.022733355 0.76999998 4.6133408e-40
0.022792386 -0.022792388 0.77200001 4.6134949e-40
0.02426287 -0.022792399 0.77200001 3.6917208e-40
0.025733355 -0.022792414 0.77200001 2.776785e-40
0.027203839 -0.022792425 0.77200001 3.7021465e-40
0.028711451 -0.022821939 0.77300006 4.6133408e-40
0.030261921 -0.022880979 0.77500004 5.5209478e-40
0.03173811 -0.022880975 0.77499998 5.5245491e-40
0.033214279 -0.022880936 0.77499998 5.5209898e-40
0.034780025 -0.022940041 0.77700001 4.6098235e-40
0.036353339 -0.022999054 0.77900004 4.6170122e-40
0.037740011 -0.022940015 0.77700001 4.6099356e-40
0.039220028 -0.022940038 0.77700001 3.6916928e-40
0.040804766 -0.022999056 0.77900004 2.7803583e-40
0.042288586 -0.022999067 0.77900004 3.6985591e-40
0.043660022 -0.022940036 0.77700001 4.6205295e-40
0.045256201 -0.022999058 0.77899998 6.4608687e-40
0.046740018 -0.022999072 0.77900004 8.301208e-40
0.048223808 -0.022999048 0.77900004 7.3864964e-40
0.049580015 -0.022940021 0.77700001 6.4752741e-40
0.050797172 -0.022821948 0.77300006 7.3971603e-40
0.052269533 -0.02282192 0.77300006 8.3084387e-40
0.053741921 -0.022821927 0.77300006 1.1974782e-39
0.061360002 -0.020902866 0.70799994 2.341769e-38
0.062885717 -0.020961922 0.71000004 2.341769e-38
0.064238116 -0.020961944 0.71000004 2.3397174e-38
0.065590478 -0.020961918 0.71000004 1.4428077e-38
0.066942878 -0.02096194 0.71000004 5.543363e-39
0.068102866 -0.020902876 0.708 7.282869e-39
0.069451436 -0.020902874 0.70799994 8.948088e-39
-0.0077104885 -0.020327605 0.73600006 5.5358296e-40
-0.0063085956 -0.020327589 0.73600006 5.5357735e-40
-0.0049066553 -0.020327643 0.73600006 4.6137752e-40
-0.0035095208 -0.020355249 0.73699999 4.6138172e-40
-0.0021057252 -0.020355225 0.73700005 4.6138593e-40
-0.00070379599 -0.020410499 0.73900002 5.5285849e-40
0.00070663524 -0.020493291 0.74200004 6.4468838e-40
0.0021228536 -0.02052095 0.74300003 7.3652387e-40
0.0035571416 -0.020631429 0.74699998 5.5285288e-40
0.0049866941 -0.020659089 0.74799997 4.6137472e-40
0.0064457231 -0.02076954 0.75199997 5.5320881e-40
0.0078780865 -0.02076951 0.75199997 6.4539603e-40
0.0093228724 -0.020797167 0.75299996 5.5391226e-40
0.010785739 -0.02085242 0.75500005 4.6242989e-40
0.012240009 -0.020880017 0.75600004 4.6278302e-40
0.013680025 -0.02088004 0.75600004 4.6349909e-40
0.015219999 -0.021018093 0.76100004 3.7022726e-40
0.016713334 -0.021073338 0.76299995 2.776757e-40
0.018214278 -0.021128559 0.76500005 3.6986993e-40
0.019722873 -0.021183832 0.76700002 4.6205855e-40
0.021211416 -0.02121141 0.76800001 4.6169281e-40
0.022733344 -0.02126668 0.76999998 4.6172084e-40
0.024200002 -0.021266669 0.76999998 3.6991197e-40
0.025733361 -0.021321945 0.77200001 2.7876731e-40
0.027203823 -0.021321923 0.77199996 3.6985732e-40
0.028674308 -0.021321936 0.77199996 4.6169421e-40
0.030183833 -0.021349562 0.77300006 5.5281365e-40
0.031656194 -0.021349534 0.77300006 5.5245772e-40
0.033214297 -0.02140478 0.77499998 5.5246052e-40
0.034690462 -0.021404743 0.77499998 5.5317658e-40
0.036166672 -0.021404779 0.77499998 7.3684477e-40
0.037642837 -0.021404739 0.77500004 1.0112779e-39
0.03911905 -0.021404771 0.77500004 7.3649164e-40
0.040700018 -0.02146003 0.77699995 5.5353251e-40
0.042180009 -0.021460017 0.77700001 6.4500227e-40
0.043660019 -0.021460038 0.77700001 6.4536661e-40
0.045140013 -0.021460027 0.77700001 8.2940194e-40
0.046620034 -0.021460047 0.77700001 1.0134443e-39
0.048099998 -0.02146 0.77700001 9.2233885e-40
0.049452372 -0.021404754 0.77499998 7.3937412e-40
0.050797168 -0.021349562 0.77300006 8.3083827e-40
0.052201942 -0.021321962 0.77199996 9.2268217e-40
0.053672377 -0.021321904 0.77199996 1.0148834e-39
0.06026572 -0.019637147 0.71100003 2.341769e-38
0.061533339 -0.019609546 0.71000004 2.341769e-38
0.062974297 -0.019637154 0.71099997 2.341769e-38
0.064328574 -0.019637141 0.71099997 2.3417659e-38
0.065682858 -0.019637145 0.71099997 1.8984053e-38
-0.0076895319 -0.018874278 0.73400003 5.5323404e-40
-0.0062914407 -0.018874271 0.73400003 5.5322563e-40
-0.0049066702 -0.018925717 0.73600006 5.5357735e-40
-0.0035095217 -0.018951433 0.73699999 5.5357595e-40
-0.002105729 -0.018951412 0.73700005 4.6209779e-40
-0.00070190913 -0.018951425 0.73700005 3.6954763e-40
0.00070475863 -0.019028572 0.74000001 5.5286129e-40
0.0021228835 -0.019105755 0.74300003 7.3653508e-40
0.0035476543 -0.019157197 0.745 6.4470099e-40
0.0049866922 -0.019234329 0.74800003 4.610286e-40
0.0064285779 -0.019285724 0.75000006 6.4433945e-40
0.0078571597 -0.019285744 0.75 7.3688401e-40
0.0093104765 -0.019337147 0.75199997 6.4539744e-40
0.010757132 -0.019362841 0.75299996 4.6207537e-40
0.012223827 -0.019414315 0.75500005 4.6242429e-40
0.013661917 -0.019414306 0.75500005 4.6242569e-40
0.015200008 -0.019542869 0.76000011 3.7023286e-40
0.016669527 -0.019568574 0.7610001 2.7803723e-40
0.018166667 -0.019620001 0.76300001 3.7094753e-40
0.019671412 -0.019671408 0.76500005 4.6241728e-40
0.021183817 -0.019722866 0.76700002 4.6205014e-40
0.022733346 -0.019800022 0.76999998 3.6987693e-40
0.02413715 -0.019748583 0.76800001 3.6953922e-40
0.025666662 -0.019799996 0.76999998 2.7768831e-40
0.027133344 -0.019800017 0.76999998 3.6879093e-40
0.028674312 -0.019851469 0.77199996 4.6134109e-40
0.0301448 -0.019851482 0.77200001 5.5353251e-40
0.031656191 -0.019877147 0.77300006 5.5281785e-40
0.033128601 -0.01987719 0.77300006 6.4429882e-40
0.034556203 -0.019851448 0.77200001 6.4501348e-40
0.03602669 -0.019851463 0.77200001 1.1041896e-39
0.037497167 -0.019851474 0.77200001 1.4711742e-39
0.038967632 -0.019851454 0.77199996 1.1953104e-39
0.040595237 -0.019928575 0.77500004 8.2868027e-40
