# .PCD v0.7 - Point Cloud Data file format
VERSION 0.7
FIELDS x y z rgb
SIZE 4 4 4 4
TYPE F F F F
COUNT 1 1 1 1
WIDTH 961
HEIGHT 1
VIEWPOINT 0 0 0 1 0 0 0
POINTS 961
DATA ascii
0.0085066659 -0.061093338 0.81200004 2.5822105e-39
0.010053341 -0.061093349 0.81200004 3.2326106e-39
0.0116 -0.061093338 0.81200004 3.8707787e-39
0.013146675 -0.061093353 0.81200004 3.2246848e-39
0.014693337 -0.061093342 0.81200004 2.4892806e-39
0.016239999 -0.061093334 0.81200004 2.674025e-39
0.017786676 -0.061093349 0.81200004 2.8569855e-39
0.019333337 -0.061093342 0.81200004 3.0420999e-39
0.020880008 -0.061093349 0.81200004 3.1328732e-39
0.02242667 -0.061093338 0.81200004 2.9484987e-39
0.023973331 -0.06109333 0.81200004 2.6736845e-39
0.025520006 -0.061093349 0.81200004 2.5821839e-39
0.027066668 -0.061093338 0.81200004 2.488203e-39
0.028613335 -0.061093342 0.81200004 2.1187142e-39
0.030160008 -0.061093349 0.81200004 1.7510079e-39
0.03170668 -0.061093349 0.81200004 1.6598857e-39
0.033335254 -0.061243836 0.81400001 1.5684103e-39
0.034885734 -0.06124384 0.81400001 2.0279479e-39
0.036436204 -0.061243828 0.81400001 2.3953067e-39
0.037986685 -0.061243828 0.81400001 2.3953235e-39
0.039537162 -0.061243836 0.81400001 2.3034698e-39
0.041087627 -0.061243828 0.81400001 2.3970808e-39
0.042638108 -0.061243828 0.81400001 2.3999618e-39
0.044188589 -0.061243836 0.81400001 3.1418331e-39
0.04573907 -0.06124384 0.81400001 3.783255e-39
0.047289539 -0.061243825 0.81400001 4.4304181e-39
0.04884002 -0.061243832 0.81400001 4.9803493e-39
0.050390493 -0.06124384 0.81400001 5.2572851e-39
0.051940963 -0.061243825 0.81400001 5.4427525e-39
0.053491443 -0.061243832 0.81400001 5.6289389e-39
0.055041924 -0.061243836 0.81400001 5.7200793e-39
0.056592405 -0.061243843 0.81400001 6.5476988e-39
0.058142867 -0.061243832 0.81400001 7.2784185e-39
0.059693348 -0.061243836 0.81400001 5.7110998e-39
0.061243828 -0.06124384 0.81400001 4.1480831e-39
0.062640011 -0.061093342 0.81200004 3.4123033e-39
0.064186677 -0.061093349 0.81200004 2.6729432e-39
0.065895259 -0.061243836 0.81400001 2.0264948e-39
0.067445733 -0.061243843 0.81400001 1.2900157e-39
0.068996206 -0.061243828 0.81400001 1.1052686e-39
0.070546687 -0.061243832 0.81400001 9.2302969e-40
0.07209716 -0.061243836 0.81400001 1.4744e-39
0.073647633 -0.061243825 0.81400001 1.9314573e-39
0.075198114 -0.061243828 0.81400001 1.0109808e-39
0.076560006 -0.061093338 0.81200004 1.0849834e-40
0.078106679 -0.061093342 0.81200004 5.7306409e-39
0.0069599976 -0.059546668 0.81200004 1.1989229e-39
0.0085066697 -0.059546679 0.8120001 1.9390173e-39
0.010053349 -0.05954669 0.81200004 2.5844063e-39
0.011600009 -0.059546683 0.81200004 3.136106e-39
0.01314667 -0.059546676 0.81200004 2.5818336e-39
0.014693333 -0.059546664 0.81200004 1.9371914e-39
0.016240006 -0.059546676 0.81200004 2.1197848e-39
0.017786667 -0.059546668 0.81200004 2.2105539e-39
0.01933334 -0.059546679 0.81200004 2.3956697e-39
0.020880001 -0.059546672 0.81200004 2.5800777e-39
0.022426676 -0.059546683 0.81200004 2.3035147e-39
0.023973336 -0.059546676 0.81200004 2.0283347e-39
0.025519999 -0.059546668 0.81200004 1.9357495e-39
0.027066659 -0.059546657 0.81200004 1.9335999e-39
0.028613346 -0.059546694 0.81200004 1.4737078e-39
0.03016001 -0.059546679 0.81200004 1.1052882e-39
0.031784777 -0.059693351 0.81400001 1.1060042e-39
0.033335254 -0.059693359 0.81400001 1.0134485e-39
0.034885719 -0.059693344 0.81400001 1.1985502e-39
0.0364362 -0.059693348 0.81400001 1.2903927e-39
0.037986681 -0.059693355 0.81400001 1.3815177e-39
0.039537162 -0.059693363 0.81400007 1.4715526e-39
0.041087627 -0.059693348 0.81400001 1.3811436e-39
0.042638104 -0.059693348 0.81400001 1.2878928e-39
0.044188585 -0.059693355 0.81400001 1.8453826e-39
0.045739055 -0.05969334 0.81400001 2.4903834e-39
0.047289535 -0.059693344 0.81400001 2.9527895e-39
0.048840027 -0.059693363 0.81400001 3.4155557e-39
0.050390478 -0.05969334 0.81400001 3.6917797e-39
0.051940963 -0.059693348 0.81400001 3.9744664e-39
0.053491443 -0.059693351 0.81400001 4.1545543e-39
0.055041924 -0.059693355 0.81400001 4.2507254e-39
0.056592397 -0.059693355 0.81400001 4.890016e-39
0.058142871 -0.059693351 0.81400001 5.624316e-39
0.059693348 -0.059693359 0.81400001 4.7927476e-39
0.061243828 -0.059693363 0.81400007 3.9640576e-39
0.062794298 -0.059693348 0.81400001 3.227203e-39
0.064344771 -0.059693355 0.81400001 2.4878471e-39
0.065895252 -0.059693355 0.81400001 1.9346719e-39
0.067445725 -0.05969334 0.81400001 1.3818611e-39
0.068996213 -0.059693359 0.81400001 1.1981859e-39
0.070546679 -0.059693351 0.81400001 1.0148736e-39
0.072097145 -0.05969334 0.81400001 1.4736909e-39
0.073647626 -0.059693344 0.81400001 1.9321734e-39
0.075198106 -0.059693348 0.81400001 1.1042414e-39
0.076748602 -0.059693366 0.81400001 2.7596752e-40
0.078299053 -0.059693344 0.81400001 5.3502766e-39
0.0069600013 -0.05800001 0.8120001 8.2906843e-40
0.0085066622 -0.057999998 0.81200004 1.2922032e-39
0.010053341 -0.05800001 0.81200004 1.8453812e-39
0.011571438 -0.05785716 0.81000006 2.3985283e-39
0.01311428 -0.057857137 0.81000006 1.937539e-39
0.014693338 -0.058000006 0.81200004 1.3840134e-39
0.016239999 -0.057999998 0.81200004 1.4729763e-39
0.017786672 -0.05800001 0.81200004 1.565895e-39
0.019333333 -0.057999998 0.81200004 1.7492142e-39
0.020880008 -0.058000017 0.81200004 1.9339726e-39
0.022426669 -0.058000006 0.81200004 1.6574026e-39
0.023973329 -0.057999998 0.81200004 1.290757e-39
0.025519991 -0.057999987 0.81200004 1.290736e-39
0.027066676 -0.058000017 0.81200004 1.2896626e-39
0.028613338 -0.058000013 0.81200004 9.2017104e-40
0.030160001 -0.058000002 0.81200004 4.6170963e-40
0.03170668 -0.058000017 0.81200004 4.6098936e-40
0.033335246 -0.058142871 0.81400001 4.6170682e-40
0.034885727 -0.058142878 0.81400001 3.6986993e-40
0.036436208 -0.058142882 0.81400001 1.8620454e-40
0.037986688 -0.058142882 0.81400001 3.6880494e-40
0.039537154 -0.058142874 0.81400001 5.5246752e-40
0.041087635 -0.058142874 0.81400001 3.6807206e-40
0.042638116 -0.058142882 0.81400001 9.365298e-41
0.044188581 -0.058142867 0.81400001 6.450345e-40
0.045739062 -0.058142871 0.81400001 1.1070874e-39
0.047289543 -0.058142878 0.81400001 1.4740749e-39
0.048840024 -0.058142886 0.81400001 1.7531785e-39
0.050390489 -0.058142871 0.81400001 2.1198129e-39
0.051940966 -0.058142878 0.81400001 2.4911023e-39
0.053491447 -0.058142882 0.81400001 2.6722636e-39
0.055041917 -0.058142871 0.81400001 2.7691325e-39
0.056592397 -0.058142874 0.81400001 3.3212315e-39
0.058142874 -0.058142882 0.81400001 3.8722347e-39
0.059693355 -0.058142889 0.81400001 3.7796733e-39
0.061243821 -0.058142874 0.81400001 3.6871035e-39
0.062794305 -0.058142874 0.81400001 3.0442382e-39
0.064344779 -0.058142889 0.81400001 2.3045222e-39
0.065895244 -0.058142867 0.81400001 1.8421077e-39
0.067445733 -0.058142874 0.81400001 1.381854e-39
0.068996213 -0.058142878 0.81400001 1.2900186e-39
0.070546687 -0.058142882 0.81400001 1.1063448e-39
0.072097152 -0.058142874 0.81400001 1.5648006e-39
0.073647633 -0.058142878 0.81400001 1.9332412e-39
0.075198114 -0.058142882 0.81400001 1.1971461e-39
0.076748587 -0.058142867 0.81400001 3.7604825e-40
0.07839524 -0.058214299 0.81500006 4.9886716e-39
0.079947628 -0.058214311 0.81500006 9.4940367e-39
0.0085276263 -0.056592397 0.81400001 1.2900326e-39
0.010053332 -0.056453336 0.81200004 1.5691208e-39
0.011571425 -0.056314278 0.81000006 1.9407619e-39
0.013146669 -0.056453336 0.81200004 1.6613038e-39
0.014693344 -0.056453347 0.8120001 1.3825659e-39
0.016240004 -0.05645334 0.81200004 1.3818442e-39
0.01778668 -0.056453351 0.81200004 1.2900129e-39
0.019333338 -0.056453343 0.81200004 1.38221e-39
0.020880001 -0.056453336 0.81200004 1.4740497e-39
0.022426678 -0.056453347 0.81200004 1.2893067e-39
0.02397334 -0.05645334 0.81200004 1.1960279e-39
0.025520014 -0.056453351 0.81200004 1.1056175e-39
0.027133336 -0.05659239 0.81400001 1.0134261e-39
0.028683815 -0.056592394 0.81400001 6.4572814e-40
0.030234298 -0.056592401 0.81400001 2.7802462e-40
0.031784777 -0.056592405 0.81400007 3.6949858e-40
0.033335242 -0.05659239 0.81400001 5.5281365e-40
0.034885723 -0.056592397 0.81400001 4.6133828e-40
0.036436204 -0.056592401 0.81400001 3.6878953e-40
0.037986673 -0.056592386 0.81400001 4.6062782e-40
0.03953715 -0.056592394 0.81400001 5.5209758e-40
0.041087627 -0.056592401 0.81400001 3.6877832e-40
0.042638108 -0.056592409 0.81400007 1.8546746e-40
0.044188578 -0.05659239 0.81400001 5.5316958e-40
0.045739055 -0.056592394 0.81400001 9.208801e-40
0.047289535 -0.056592401 0.81400001 1.0130841e-39
0.048840005 -0.056592386 0.81400001 1.1971335e-39
0.050390482 -0.056592397 0.81400001 1.5659286e-39
0.051940963 -0.056592401 0.81400001 1.9325517e-39
0.05349144 -0.056592405 0.81400007 1.9350601e-39
0.055041909 -0.056592394 0.81400001 2.0258109e-39
0.05659239 -0.056592397 0.81400001 2.4882072e-39
0.058142871 -0.056592405 0.81400001 2.9473917e-39
0.05969334 -0.05659239 0.81400001 2.8580743e-39
0.061243821 -0.056592394 0.81400001 2.8587764e-39
0.062794305 -0.056592401 0.81400001 2.3977898e-39
0.064344764 -0.056592386 0.81400001 1.9350166e-39
0.065895252 -0.056592394 0.81400001 1.4743944e-39
0.067445725 -0.056592401 0.81400001 9.2159336e-40
0.068996213 -0.056592412 0.81400001 1.0145093e-39
0.070546679 -0.056592386 0.81400001 1.1981746e-39
0.072097152 -0.056592394 0.81400001 1.3829148e-39
0.073647641 -0.056592397 0.81400001 1.6605975e-39
0.075198114 -0.056592405 0.81400007 9.2198993e-40
0.076748595 -0.056592401 0.81400001 2.7631644e-40
0.078395247 -0.056661934 0.81500006 5.0740471e-39
0.079947613 -0.056661919 0.81500006 9.8653121e-39
0.0085276412 -0.055041943 0.81400001 1.1978299e-39
0.010028571 -0.054771423 0.81000006 1.3836519e-39
0.011571426 -0.05477142 0.81000006 1.4776468e-39
0.013114284 -0.054771423 0.81000006 1.4765776e-39
0.014693336 -0.054906666 0.81200004 1.382933e-39
0.016240012 -0.054906681 0.81200004 1.1978117e-39
0.017786672 -0.05490667 0.81200004 1.0141435e-39
0.019333333 -0.054906663 0.81200004 1.0152211e-39
0.020880008 -0.054906677 0.81200004 9.2267096e-40
0.022481924 -0.055041932 0.81400001 1.0137918e-39
0.024032401 -0.055041935 0.81400001 1.1049056e-39
0.02558287 -0.055041928 0.81400001 9.2158776e-40
0.027133349 -0.055041932 0.81400001 6.4572674e-40
0.028683828 -0.055041935 0.81400001 3.7058459e-40
0.030234309 -0.055041943 0.81400001 9.4356432e-41
0.03178478 -0.055041928 0.81400001 3.6949998e-40
0.033335257 -0.055041935 0.81400001 5.5352971e-40
0.034885738 -0.055041939 0.81400001 5.5352971e-40
0.036436208 -0.055041928 0.81400001 4.6098936e-40
0.037986677 -0.05504192 0.81400001 4.6064464e-40
0.039537158 -0.055041928 0.81400001 4.6063063e-40
0.041087635 -0.055041928 0.81400001 3.6913985e-40
0.042638104 -0.055041917 0.81400001 2.7730716e-40
0.044188581 -0.05504192 0.81400001 4.6133828e-40
0.045739062 -0.055041928 0.81400001 6.4465755e-40
0.047289532 -0.055041913 0.81400001 6.4430582e-40
0.04884002 -0.055041928 0.81400001 5.5356054e-40
0.050390489 -0.055041928 0.81400001 9.2199133e-40
0.05194097 -0.055041932 0.81400001 1.2904109e-39
0.05349144 -0.055041917 0.81400001 1.2925661e-39
0.055041917 -0.055041924 0.81400001 1.2914801e-39
0.056592405 -0.055041939 0.81400001 1.6580962e-39
0.058142863 -0.05504192 0.81400001 1.9357523e-39
0.059693344 -0.055041924 0.81400001 1.9379019e-39
0.061243825 -0.055041928 0.81400001 1.9378991e-39
0.062794305 -0.055041935 0.81400001 1.7535078e-39
0.064344771 -0.05504192 0.81400001 1.5676774e-39
0.065895252 -0.055041928 0.81400001 1.0152239e-39
0.067445733 -0.055041928 0.81400001 4.6385922e-40
0.068996206 -0.055041924 0.81400001 8.3120961e-40
0.070546679 -0.05504192 0.81400001 1.1989019e-39
0.07209716 -0.055041928 0.81400001 1.2918052e-39
0.073647641 -0.055041928 0.81400001 1.2907458e-39
0.075198106 -0.055041917 0.81400001 7.379546e-40
0.076842882 -0.055109549 0.81500006 1.9129966e-40
0.078395262 -0.05510956 0.81500012 5.1651763e-39
0.079947628 -0.055109546 0.81500006 1.0140464e-38
0.010028566 -0.053228565 0.81000006 1.199618e-39
0.011571424 -0.053228568 0.81000006 1.4769378e-39
0.013114293 -0.053228587 0.81000006 1.4765972e-39
0.014693341 -0.053360011 0.81200004 1.565895e-39
0.016240003 -0.053360004 0.81200004 1.1978089e-39
0.017786663 -0.053359997 0.81200004 9.2122762e-40
0.019333338 -0.053360008 0.81200004 7.382741e-40
0.020880001 -0.053359997 0.81200004 6.4608127e-40
0.022481922 -0.053491451 0.81400001 8.2939493e-40
0.024032399 -0.053491458 0.81400001 1.0127072e-39
0.02558287 -0.053491447 0.81400001 7.3684057e-40
0.027133347 -0.053491451 0.81400001 5.5281785e-40
0.02868383 -0.053491458 0.81400001 6.4537642e-40
0.030234296 -0.053491443 0.81400001 6.4537221e-40
0.03178478 -0.053491447 0.81400001 6.4536661e-40
0.033335257 -0.053491458 0.81400001 7.382755e-40
0.034885734 -0.053491462 0.81400001 6.4571973e-40
0.036436204 -0.053491447 0.81400001 6.4430863e-40
0.037986685 -0.053491455 0.81400001 5.5249555e-40
0.039537165 -0.053491455 0.81400001 5.5283466e-40
0.041087627 -0.053491443 0.81400001 3.6914265e-40
0.042638108 -0.053491447 0.81400001 2.7659249e-40
0.044188589 -0.053491451 0.81400001 4.6062502e-40
0.04573907 -0.053491458 0.81400001 7.3613571e-40
0.047289539 -0.053491443 0.81400001 6.4430442e-40
0.04884002 -0.053491455 0.81400001 4.6100057e-40
0.050390497 -0.053491458 0.81400001 7.3723153e-40
0.051940963 -0.053491443 0.81400001 1.1056553e-39
0.053491443 -0.053491451 0.81400001 9.2342486e-40
0.055041924 -0.053491455 0.81400001 8.3193969e-40
0.056592405 -0.053491458 0.81400001 1.2907486e-39
0.058142867 -0.053491451 0.81400001 1.7499135e-39
0.059693348 -0.053491455 0.81400001 1.8442475e-39
0.061243832 -0.053491462 0.81400001 1.9360942e-39
0.062794298 -0.053491447 0.81400001 1.7513568e-39
0.064344779 -0.053491447 0.81400001 1.5662467e-39
0.065895259 -0.053491455 0.81400001 1.1985418e-39
0.06744574 -0.053491462 0.81400001 7.3973425e-40
0.068996213 -0.053491443 0.81400001 1.0148918e-39
0.070546687 -0.053491451 0.81400001 1.1981943e-39
0.072097167 -0.053491455 0.81400001 1.3818554e-39
0.073647633 -0.053491447 0.81400001 1.5648188e-39
0.075290486 -0.053557154 0.81500006 1.0138142e-39
0.076842874 -0.053557169 0.81500006 4.6358036e-40
0.078395255 -0.053557165 0.81500006 5.1687749e-39
0.011571425 -0.051685702 0.81000006 1.4765706e-39
0.013114282 -0.051685706 0.81000006 1.5698494e-39
0.014657135 -0.051685702 0.81000006 1.659157e-39
0.016199989 -0.051685698 0.81000006 1.2892871e-39
0.01778667 -0.051813338 0.81200004 8.3011099e-40
0.019333331 -0.051813331 0.81200004 5.5424577e-40
0.020931439 -0.051940966 0.81400001 2.7838476e-40
0.02248192 -0.05194097 0.81400001 5.5317658e-40
0.024032386 -0.051940963 0.81400001 8.2832574e-40
0.025582869 -0.051940966 0.81400001 6.4393868e-40
0.027133346 -0.05194097 0.81400001 4.6099356e-40
0.028683813 -0.051940959 0.81400001 8.2834536e-40
0.030234296 -0.051940963 0.81400001 1.1956747e-39
0.031784777 -0.051940966 0.81400001 1.0116338e-39
0.033335254 -0.051940978 0.81400001 8.290348e-40
0.034885723 -0.051940959 0.81400001 8.2974946e-40
0.036436204 -0.051940966 0.81400001 7.3649585e-40
0.037986685 -0.051940974 0.81400001 6.4431844e-40
0.039537162 -0.051940974 0.81400007 5.5282906e-40
0.041087627 -0.051940966 0.81400001 3.6950279e-40
0.042638108 -0.051940966 0.81400001 1.8547306e-40
0.044188589 -0.051940974 0.81400001 5.5245772e-40
0.045739055 -0.051940959 0.81400001 8.2796561e-40
0.047289535 -0.051940966 0.81400001 6.4429742e-40
0.048840016 -0.051940974 0.81400001 3.6915246e-40
0.050390482 -0.051940959 0.81400001 6.4430302e-40
0.051940963 -0.051940963 0.81400001 8.2941735e-40
0.053491443 -0.05194097 0.81400001 6.4647363e-40
0.055041924 -0.051940974 0.81400001 3.7132588e-40
0.056661922 -0.052004781 0.81500006 9.2233885e-40
0.058214299 -0.052004777 0.81500006 1.4744168e-39
0.059766687 -0.052004788 0.81500006 1.7524232e-39
0.061319068 -0.052004777 0.81500006 1.9346663e-39
0.062794298 -0.051940966 0.81400001 1.7492072e-39
0.064423829 -0.052004773 0.81500006 1.5648104e-39
0.06597621 -0.052004781 0.81500006 1.288578e-39
0.067445725 -0.051940963 0.81400001 1.0141561e-39
0.068996206 -0.051940966 0.81400001 1.1063588e-39
0.070546679 -0.05194097 0.81400001 1.1978271e-39
0.07218574 -0.052004788 0.81500006 1.5644432e-39
0.073738106 -0.052004777 0.81500006 1.8403225e-39
0.075198114 -0.05194097 0.81400001 1.2889662e-39
0.076842867 -0.052004781 0.81500006 7.451853e-40
0.078395255 -0.052004784 0.81500006 5.1741544e-39
0.013114279 -0.050142847 0.81000006 1.201413e-39
0.014657135 -0.050142847 0.81000006 1.2936003e-39
0.016240001 -0.050266668 0.81200004 1.1077699e-39
0.017786661 -0.050266657 0.81200004 1.0148596e-39
0.019380959 -0.050390486 0.81400001 8.3011239e-40
0.020931438 -0.050390489 0.81400001 7.3720631e-40
0.022481905 -0.050390474 0.81400001 7.3685318e-40
0.024032384 -0.050390482 0.81400001 8.2797401e-40
0.025582865 -0.050390486 0.81400001 5.5282906e-40
0.027133344 -0.050390489 0.81400007 3.6988814e-40
0.028683811 -0.050390482 0.81400001 6.4504851e-40
0.030234292 -0.050390486 0.81400001 9.1981792e-40
0.031784773 -0.050390493 0.81400001 8.2832154e-40
0.033335239 -0.050390478 0.81400001 8.2831873e-40
0.034885719 -0.050390478 0.81400001 8.2867326e-40
0.0364362 -0.050390486 0.81400001 8.2796701e-40
0.037986681 -0.050390493 0.81400007 7.3614132e-40
0.039537147 -0.050390478 0.81400001 6.4465895e-40
0.041087627 -0.050390486 0.81400001 4.6133968e-40
0.042638108 -0.050390489 0.81400001 3.6914405e-40
0.044188574 -0.050390478 0.81400001 6.4428901e-40
0.045739062 -0.050390493 0.81400001 9.197969e-40
0.047289543 -0.050390497 0.81400001 6.4464914e-40
0.048840024 -0.050390504 0.81400001 4.6097535e-40
0.050390489 -0.050390493 0.81400001 6.45361e-40
0.052004784 -0.050452411 0.81500006 8.2976347e-40
0.053557169 -0.050452407 0.81500012 8.2941735e-40
0.055109538 -0.050452404 0.81500006 8.2906703e-40
0.056661922 -0.050452407 0.81500012 1.1971349e-39
0.058214299 -0.0504524 0.81500006 1.6566627e-39
0.059766687 -0.050452415 0.81500012 1.566611e-39
0.061319068 -0.050452404 0.81500006 1.5662551e-39
0.062871456 -0.050452419 0.81500012 1.3815093e-39
0.064423837 -0.050452407 0.81500006 1.2882263e-39
0.065976217 -0.050452411 0.81500012 1.1049e-39
0.067528591 -0.050452404 0.81500006 1.0134303e-39
0.069080964 -0.050452385 0.81500006 1.0145135e-39
0.070633352 -0.0504524 0.81500006 1.0141477e-39
0.07218574 -0.050452415 0.81500012 1.4733168e-39
0.073647641 -0.050390497 0.81400001 2.0243508e-39
0.075198114 -0.050390501 0.81400001 1.5644755e-39
0.076842874 -0.0504524 0.81500006 1.105354e-39
0.078395247 -0.050452396 0.81500006 5.444996e-39
0.013114277 -0.048599992 0.81000006 8.3300608e-40
0.014693334 -0.048719998 0.81200004 9.2592337e-40
0.016239995 -0.048719991 0.81200004 1.017047e-39
0.017830491 -0.04884002 0.81400001 1.1070776e-39
0.01938097 -0.048840027 0.81400001 1.1056315e-39
0.020931451 -0.048840031 0.81400001 1.10527e-39
0.022509539 -0.048900031 0.81500006 1.0119967e-39
0.024061915 -0.048900019 0.81500006 8.2904461e-40
0.025614293 -0.048900012 0.81500006 5.5353952e-40
0.027166683 -0.048900027 0.81500006 1.8656748e-40
0.028719058 -0.048900019 0.81500006 4.6172644e-40
0.030234305 -0.048840027 0.81400001 6.4502609e-40
0.031784788 -0.048840035 0.81400001 7.3756784e-40
0.033335254 -0.048840024 0.81400001 7.3720771e-40
0.034885734 -0.048840031 0.81400001 8.2796561e-40
0.036436215 -0.048840035 0.81400001 9.2016964e-40
0.037986681 -0.04884002 0.81400001 8.2762509e-40
0.039537162 -0.048840027 0.81400001 6.4502469e-40
0.041087639 -0.048840027 0.81400001 6.4502049e-40
0.042638108 -0.048840012 0.81400001 5.5317798e-40
0.044188589 -0.04884002 0.81400001 8.2796e-40
0.04573907 -0.048840024 0.81400001 1.0119953e-39
0.047347628 -0.048900012 0.81500006 7.3649445e-40
0.048900019 -0.048900019 0.81500012 4.6170262e-40
0.050452396 -0.048900016 0.81500006 6.4608828e-40
0.052004784 -0.048900031 0.81500006 7.3757064e-40
0.053557161 -0.048900019 0.81500006 1.0120079e-39
0.055109546 -0.048900038 0.81500006 1.2886018e-39
0.056661919 -0.048900019 0.81500006 1.5644783e-39
0.058214303 -0.048900031 0.81500006 1.7495758e-39
0.05976668 -0.048900016 0.81500006 1.4744196e-39
0.061319068 -0.048900023 0.81500012 1.1981943e-39
0.062871449 -0.048900019 0.81500006 1.1052826e-39
0.064423837 -0.048900034 0.81500012 9.2160317e-40
0.06597621 -0.048900027 0.81500006 9.208773e-40
0.067528591 -0.048900027 0.81500012 9.219591e-40
0.069080971 -0.048900019 0.81500006 9.2340104e-40
0.070633359 -0.048900034 0.81500012 8.3120821e-40
0.072185725 -0.048900019 0.81500006 1.4736994e-39
0.073738106 -0.048900031 0.81500012 2.1165576e-39
0.075290494 -0.048900023 0.81500006 1.7474304e-39
0.076842882 -0.048900034 0.81500012 1.388038e-39
0.078395255 -0.048900034 0.81500006 5.6315411e-39
0.013114278 -0.047057133 0.81000006 8.3301589e-40
0.014657135 -0.047057129 0.81000006 9.2773946e-40
0.016240014 -0.047173355 0.81200004 1.1089175e-39
0.017830489 -0.047289543 0.81400001 1.1992957e-39
0.019380968 -0.04728955 0.81400001 1.1989131e-39
0.020931436 -0.047289535 0.81400001 1.1989033e-39
0.022509543 -0.04734765 0.81500006 1.1059804e-39
0.02406192 -0.047347642 0.81500006 9.2195069e-40
0.025614308 -0.047347654 0.81500006 7.3791957e-40
0.02716667 -0.047347628 0.81500006 5.5425838e-40
0.028719058 -0.047347639 0.81500006 7.3722172e-40
0.030271435 -0.047347631 0.81500006 9.1981371e-40
0.031823829 -0.047347646 0.81500006 8.2905021e-40
0.03333525 -0.047289543 0.81400001 7.3793358e-40
0.034885731 -0.04728955 0.81400001 6.4573935e-40
0.036436196 -0.047289532 0.81400001 6.4538903e-40
0.037986681 -0.047289539 0.81400001 5.5320181e-40
0.039585724 -0.047347631 0.81500006 5.5391507e-40
0.041087639 -0.047289554 0.81400001 5.5391086e-40
0.042690486 -0.047347639 0.81500006 5.5354092e-40
0.044242878 -0.04734765 0.81500006 7.3755943e-40
0.045739066 -0.047289547 0.81400001 9.208829e-40
0.047347646 -0.047347657 0.81500006 7.3722172e-40
0.048900023 -0.047347646 0.81500006 6.4538342e-40
0.050452404 -0.047347646 0.81500006 8.2976908e-40
0.052132398 -0.047463823 0.81700009 1.0130799e-39
0.053688586 -0.047463827 0.81700009 1.4726147e-39
0.055244774 -0.047463819 0.81700009 2.0240005e-39
0.056800961 -0.047463816 0.81700009 1.8417784e-39
0.058214303 -0.047347642 0.81500006 1.7517296e-39
0.059766684 -0.047347646 0.81500006 1.3829443e-39
0.061319064 -0.047347635 0.81500006 1.0145233e-39
0.062871449 -0.04734765 0.81500006 8.3013201e-40
0.064423822 -0.047347631 0.81500006 7.3936851e-40
0.06597621 -0.047347646 0.81500006 1.0141533e-39
0.067528591 -0.047347639 0.81500006 1.2896654e-39
0.069080979 -0.047347654 0.81500006 1.1067175e-39
0.070633344 -0.047347639 0.81500006 9.2341645e-40
0.072185732 -0.047347646 0.81500006 1.3826051e-39
0.073738106 -0.047347646 0.81500006 1.9343342e-39
0.075290494 -0.047347642 0.81500006 2.1162087e-39
0.076842867 -0.047347639 0.81500006 2.2106142e-39
0.014693343 -0.045626681 0.81200004 9.2522693e-40
0.016240003 -0.045626674 0.81200004 1.1078385e-39
0.017830487 -0.045739062 0.81400001 1.292206e-39
0.019380955 -0.045739051 0.81400001 1.2914689e-39
0.020957155 -0.045795258 0.81500006 1.291822e-39
0.022509543 -0.045795269 0.81500012 1.1996236e-39
0.02406192 -0.045795262 0.81500006 1.0148834e-39
0.02561431 -0.045795273 0.81500012 9.2198012e-40
0.027166687 -0.045795269 0.81500006 8.3014182e-40
0.02871906 -0.045795258 0.81500012 1.0130925e-39
0.030271439 -0.045795251 0.81500006 1.1964006e-39
0.031823818 -0.045795247 0.81500006 9.2089131e-40
0.033335246 -0.045739062 0.81400001 6.4610509e-40
0.034928598 -0.045795269 0.81500012 4.6315577e-40
0.036436196 -0.045739051 0.81400001 2.7841558e-40
0.038033336 -0.045795236 0.81500006 3.6954202e-40
0.039585724 -0.045795251 0.81500006 3.7024828e-40
0.041087624 -0.045739051 0.81400001 4.6279003e-40
0.042690489 -0.045795258 0.81500006 4.6313755e-40
0.044242866 -0.045795251 0.81500006 6.4715747e-40
0.045795258 -0.045795262 0.81500006 8.2976067e-40
0.047347631 -0.045795254 0.81500006 8.2905301e-40
0.048900027 -0.045795266 0.81500006 7.3793358e-40
0.050452404 -0.045795262 0.81500006 1.0141575e-39
0.052132383 -0.045907617 0.81700009 1.1978271e-39
0.053688578 -0.045907624 0.81700003 2.0247053e-39
0.055244774 -0.045907632 0.81700003 2.759755e-39
0.056800969 -0.045907632 0.81700003 2.2101854e-39
0.058357157 -0.045907628 0.81700003 1.6588081e-39
0.059913337 -0.04590762 0.81700003 1.2907444e-39
0.061319068 -0.045795254 0.81500006 8.3048794e-40
0.062871449 -0.045795251 0.81500006 6.4537922e-40
0.064423829 -0.045795258 0.81500006 4.6278022e-40
0.065976202 -0.045795247 0.81500006 1.0141477e-39
0.067528598 -0.045795258 0.81500006 1.5651677e-39
0.069080971 -0.045795251 0.81500006 1.2900284e-39
0.070633352 -0.045795266 0.81500006 9.2341785e-40
0.072185725 -0.045795251 0.81500006 1.3826093e-39
0.073738113 -0.045795262 0.81500006 1.7485178e-39
0.075290486 -0.045795254 0.81500006 2.3892167e-39
0.014693336 -0.044080004 0.81200004 9.2450946e-40
0.016240012 -0.044080019 0.81200004 1.5691642e-39
0.017830502 -0.044188607 0.81400001 2.2123546e-39
0.01938097 -0.044188593 0.81400001 1.7524428e-39
0.020957157 -0.044242878 0.81500012 1.3851009e-39
0.022509534 -0.04424287 0.81500006 1.3829485e-39
0.024061924 -0.044242885 0.81500006 1.3826065e-39
0.025614301 -0.044242878 0.81500006 1.1982335e-39
0.027166693 -0.044242892 0.81500006 1.1067413e-39
0.028719066 -0.044242885 0.81500006 1.4733504e-39
0.030271456 -0.044242892 0.81500006 1.8403309e-39
0.031823821 -0.044242866 0.81500006 1.3807919e-39
0.033335265 -0.044188607 0.81400001 9.2090252e-40
0.034928586 -0.04424287 0.81500006 7.3831333e-40
0.036436211 -0.044188593 0.81400001 6.4576878e-40
0.038033355 -0.044242878 0.81500006 5.5394029e-40
0.039585739 -0.044242892 0.81500006 5.5392347e-40
0.041138105 -0.044242863 0.81500006 5.5462272e-40
0.042690493 -0.044242878 0.81500012 5.5568911e-40
0.04424287 -0.04424287 0.81500006 7.3863143e-40
0.045795258 -0.044242881 0.81500012 8.301166e-40
0.047347635 -0.044242874 0.81500006 8.2976487e-40
0.048900027 -0.044242885 0.81500012 8.3048374e-40
0.050576195 -0.044351432 0.81700003 9.2267937e-40
0.05213239 -0.044351444 0.81700003 1.1070678e-39
0.053688571 -0.044351429 0.81700003 1.4744098e-39
0.055244766 -0.044351436 0.81700003 1.8417532e-39
0.056800961 -0.044351429 0.81700003 1.5669656e-39
0.058357149 -0.044351425 0.81700003 1.2907402e-39
0.059766687 -0.044242881 0.81500006 1.1067091e-39
0.061319064 -0.04424287 0.81500006 9.219591e-40
0.062871456 -0.044242885 0.81500006 7.3792517e-40
0.064423822 -0.044242866 0.81500006 6.4572674e-40
0.06597621 -0.044242881 0.81500006 1.013782e-39
0.067528583 -0.044242863 0.81500006 1.3814939e-39
0.069080964 -0.044242874 0.81500006 1.1985502e-39
0.070633344 -0.04424287 0.81500006 1.0159722e-39
0.072185732 -0.044242885 0.81500006 1.1982237e-39
0.073738113 -0.044242878 0.81500006 1.2879138e-39
0.075290494 -0.044242874 0.81500006 3.0399685e-39
0.014693345 -0.042533349 0.81200004 9.2450246e-40
0.01628002 -0.042638123 0.81400001 2.0319094e-39
0.017830485 -0.042638108 0.81400001 3.1346514e-39
0.019380964 -0.042638116 0.81400001 2.3045418e-39
0.020931445 -0.042638119 0.81400001 1.3829499e-39
0.022509532 -0.042690493 0.81500006 1.5644601e-39
0.024061913 -0.042690486 0.81500006 1.6566683e-39
0.025614303 -0.042690497 0.81500006 1.4737288e-39
0.027166678 -0.042690493 0.81500006 1.290764e-39
0.028719068 -0.042690504 0.81500006 1.9336027e-39
0.030271444 -0.042690497 0.81500006 2.4842485e-39
0.031823836 -0.042690512 0.81500006 1.8403155e-39
0.033376195 -0.042690482 0.81500006 1.1978383e-39
0.034928586 -0.042690493 0.81500012 1.1063742e-39
0.036480967 -0.042690489 0.81500006 9.2235006e-40
0.038033351 -0.042690501 0.81500006 8.3016284e-40
0.039585728 -0.042690497 0.81500006 6.4647784e-40
0.04113812 -0.042690508 0.81500006 6.4646382e-40
0.042795241 -0.042795237 0.81700003 6.4717148e-40
0.044351436 -0.042795248 0.81700003 7.3792097e-40
0.045795247 -0.042690482 0.81500006 8.2976207e-40
0.047347635 -0.042690493 0.81500012 9.2160317e-40
0.049020015 -0.042795248 0.81700003 9.2232344e-40
0.050576195 -0.042795233 0.81700003 9.2268357e-40
0.05213239 -0.042795241 0.81700003 9.2376678e-40
0.053688563 -0.042795226 0.81700003 9.2341645e-40
0.055244781 -0.042795256 0.81700009 9.2376678e-40
0.056800976 -0.042795263 0.81700009 9.2447723e-40
0.058357157 -0.042795248 0.81700009 9.2375416e-40
0.059766684 -0.042690501 0.81500012 9.230325e-40
0.061319068 -0.042690489 0.81500006 9.2231643e-40
0.062871456 -0.042690504 0.81500012 9.219591e-40
0.064423829 -0.042690497 0.81500006 8.2976207e-40
0.06597621 -0.042690501 0.81500012 1.013789e-39
0.067528591 -0.042690493 0.81500006 1.1059958e-39
0.069080971 -0.042690508 0.81500012 1.1060084e-39
0.070633344 -0.042690489 0.81500006 1.1067427e-39
0.072362863 -0.042795241 0.81700003 1.0138478e-39
0.07391905 -0.042795237 0.81700003 8.3123624e-40
0.075290494 -0.042690508 0.81500012 3.6860119e-39
0.016239995 -0.040986661 0.81200004 3.1349919e-39
0.017786672 -0.040986676 0.81200004 5.5309783e-39
0.019380964 -0.041087635 0.81400001 5.529556e-39
0.020931432 -0.041087624 0.81400001 5.5119613e-39
0.022481913 -0.041087624 0.81400001 3.5873437e-39
0.024061913 -0.041138105 0.81500006 1.7467003e-39
0.02561429 -0.041138098 0.81500006 1.288969e-39
0.02716668 -0.041138113 0.81500006 8.3229702e-40
0.028719056 -0.041138109 0.81500006 1.0148862e-39
0.030271446 -0.04113812 0.81500006 1.2914549e-39
0.031823825 -0.041138113 0.81500006 1.4740357e-39
0.033376209 -0.041138124 0.81500006 1.5662509e-39
0.035014287 -0.041239046 0.81700003 1.4740763e-39
0.036570482 -0.041239057 0.81700003 1.4737218e-39
0.038220018 -0.04134002 0.81900007 1.1971433e-39
0.039682861 -0.041239046 0.81700003 1.0138212e-39
0.041239053 -0.041239057 0.81700003 9.2233325e-40
0.042795233 -0.041239042 0.81700003 8.3156554e-40
0.044351432 -0.041239049 0.81700003 8.3083827e-40
0.045907628 -0.041239049 0.81700009 9.2160177e-40
0.047463823 -0.04123906 0.81700009 9.2232344e-40
0.049020022 -0.041239072 0.81700009 1.013803e-39
0.050576203 -0.041239053 0.81700009 1.2907472e-39
0.052132398 -0.041239064 0.81700009 1.6595396e-39
0.053688578 -0.041239049 0.81700009 1.2911354e-39
0.055109546 -0.041138127 0.81500006 9.2305912e-40
0.056661926 -0.041138116 0.81500006 9.2340104e-40
0.058214307 -0.041138131 0.81500006 9.2339263e-40
0.059766684 -0.041138113 0.81500006 8.3083126e-40
0.061319076 -0.04113812 0.81500006 8.2976207e-40
0.062794305 -0.041087639 0.81400001 9.2160317e-40
0.064344771 -0.041087624 0.81400001 1.1052742e-39
0.065895252 -0.041087627 0.81400001 1.1059902e-39
0.067445733 -0.041087635 0.81400001 1.1067231e-39
0.068996213 -0.041087639 0.81400001 1.2907668e-39
0.070546679 -0.041087627 0.81400001 1.4751721e-39
0.07236287 -0.041239053 0.81700003 1.1053358e-39
0.073919058 -0.041239049 0.81700003 7.3544347e-40
0.016240001 -0.039440006 0.81200004 4.3313575e-39
0.017786676 -0.039440017 0.81200004 7.9226963e-39
0.019333337 -0.039440006 0.81200004 8.863004e-39
0.020931428 -0.039537143 0.81400001 9.6661764e-39
0.022481924 -0.039537173 0.81400001 5.7096873e-39
0.024061928 -0.039585751 0.81500012 1.758212e-39
0.025614304 -0.039585743 0.81500006 1.0109359e-39
0.027166666 -0.039585713 0.81500006 2.7876871e-40
0.028789526 -0.039682865 0.81700003 1.8550529e-40
0.030420011 -0.039780017 0.81900012 9.5089311e-41
0.031980012 -0.039780017 0.81900012 1.0137876e-39
0.033458102 -0.039682861 0.81700003 1.9321524e-39
0.035100017 -0.039780017 0.81900012 1.9339572e-39
0.036660001 -0.039779998 0.81900007 1.9318132e-39
0.038220018 -0.039780017 0.81900007 1.6548816e-39
0.039780017 -0.039780021 0.81900012 1.2882557e-39
0.041340001 -0.039780002 0.81900007 1.1053022e-39
0.042900022 -0.039780021 0.81900012 9.2377238e-40
0.044460021 -0.039780024 0.81900012 1.0155967e-39
0.046020009 -0.039780002 0.81900012 1.0152463e-39
0.047580019 -0.039780024 0.81900012 1.0159708e-39
0.049020015 -0.039682869 0.81700009 1.0152477e-39
0.05057621 -0.039682876 0.81700003 1.6580892e-39
0.05213239 -0.039682865 0.81700003 2.3009391e-39
0.053688586 -0.039682876 0.81700003 1.5658964e-39
0.055109534 -0.039585728 0.81500006 8.3084948e-40
0.056661926 -0.039585739 0.81500006 8.3120541e-40
0.058214299 -0.039585736 0.81500006 8.3048374e-40
0.059766687 -0.039585747 0.81500006 7.3864404e-40
0.061243825 -0.039537165 0.81400001 6.4609808e-40
0.062794305 -0.039537169 0.81400001 1.0127296e-39
0.064344771 -0.039537162 0.81400001 1.2889508e-39
0.065895252 -0.039537162 0.81400001 1.1981901e-39
0.067445733 -0.039537169 0.81400001 1.1070874e-39
0.068826675 -0.039440013 0.81200004 1.4744462e-39
0.070373349 -0.03944001 0.81200004 1.8410862e-39
0.07236287 -0.039682873 0.81700009 1.2882964e-39
0.016240008 -0.037893344 0.81200004 2.3041523e-39
0.017786669 -0.037893336 0.81200004 4.0574051e-39
0.019333346 -0.037893351 0.81200004 5.8124501e-39
0.020880006 -0.03789334 0.81200004 7.6509117e-39
0.022481922 -0.037986692 0.81400001 6.9176206e-39
0.024032401 -0.037986699 0.81400001 6.2789914e-39
0.025614306 -0.038033366 0.81500012 5.8064539e-39
0.027166681 -0.038033359 0.81500006 5.4226299e-39
0.028789522 -0.038126662 0.81700003 4.6025858e-39
0.030345717 -0.038126674 0.81700003 3.8581993e-39
0.031901915 -0.038126674 0.81700009 3.5830333e-39
0.03345811 -0.038126681 0.81700009 3.306452e-39
0.035100017 -0.038220018 0.81900012 2.7568754e-39
0.036660001 -0.03822 0.81900007 2.2051589e-39
0.038220018 -0.038220022 0.81900012 2.2051715e-39
0.039780017 -0.038220022 0.81900012 2.2048226e-39
0.041340001 -0.038220003 0.81900012 1.8403589e-39
0.042900022 -0.038220022 0.81900012 1.4765916e-39
0.044460006 -0.038220007 0.81900007 1.5676971e-39
0.046020009 -0.038220007 0.81900012 1.659185e-39
0.047463812 -0.038126666 0.81700003 1.2911368e-39
0.049020011 -0.038126674 0.81700003 1.0152562e-39
0.050576206 -0.038126677 0.81700003 1.3825827e-39
0.052132387 -0.038126666 0.81700003 1.7491946e-39
0.053557146 -0.038033333 0.81500006 1.1978089e-39
0.055109534 -0.038033348 0.81500006 6.4644701e-40
0.056661911 -0.03803334 0.81500006 8.2976768e-40
0.058214299 -0.038033355 0.81500006 1.0120051e-39
0.059693351 -0.037986692 0.81400001 1.0130813e-39
0.061243832 -0.037986699 0.81400001 1.0130897e-39
0.062794305 -0.037986681 0.81400001 1.1049322e-39
0.064344779 -0.037986692 0.81400001 1.2889578e-39
0.065895259 -0.037986692 0.81400001 1.382224e-39
0.067280017 -0.037893355 0.81200004 1.3840359e-39
0.068826675 -0.037893344 0.81200004 1.7503185e-39
0.070373349 -0.037893344 0.81200004 2.0247642e-39
0.016239999 -0.036346667 0.81200004 3.6773995e-40
0.017786676 -0.036346678 0.81200004 9.9824299e-41
0.019333337 -0.03634667 0.81200004 2.8610451e-39
0.02082858 -0.036257155 0.81000006 5.5314561e-39
0.022426672 -0.036346674 0.81200004 8.1225887e-39
0.024032388 -0.0364362 0.81400001 1.069037e-38
0.025582869 -0.036436204 0.81400001 1.0604608e-38
0.027166685 -0.036480982 0.81500006 1.0502726e-38
0.02871906 -0.036480974 0.81500006 9.1273463e-39
0.030345725 -0.036570493 0.81700009 7.6432564e-39
0.031901907 -0.036570478 0.81700009 6.1534267e-39
0.033458106 -0.036570486 0.81700009 4.6047676e-39
0.035100017 -0.036660019 0.81900012 3.4901763e-39
0.036660004 -0.036660001 0.81900007 2.4007185e-39
0.038220022 -0.036660019 0.81900012 2.7562364e-39
0.039780006 -0.036660001 0.81900007 3.1303747e-39
0.041340008 -0.036660004 0.81900012 2.5750387e-39
0.042900022 -0.036660027 0.81900012 1.9343342e-39
0.04446001 -0.036660004 0.81900007 2.119789e-39
0.046020009 -0.036660004 0.81900012 2.3013118e-39
0.047580007 -0.036660008 0.81900007 1.6570326e-39
0.049020007 -0.036570471 0.81700003 9.2269899e-40
0.050576203 -0.036570482 0.81700003 1.0152435e-39
0.052132383 -0.036570467 0.81700003 1.1063518e-39
0.053557165 -0.036480978 0.81500006 8.2976067e-40
0.055109549 -0.036480993 0.81500006 4.6278022e-40
0.056661915 -0.03648096 0.81500006 8.2976487e-40
0.058142871 -0.036436208 0.81400001 1.1049182e-39
0.059693351 -0.036436215 0.81400001 1.196402e-39
0.061243817 -0.036436196 0.81400001 1.288955e-39
0.062794298 -0.036436204 0.81400001 1.288955e-39
0.064344779 -0.036436211 0.81400001 1.290034e-39
0.065895259 -0.036436211 0.81400001 1.4744252e-39
0.067280002 -0.036346678 0.81200004 1.659178e-39
0.068826668 -0.036346681 0.81200004 1.9346901e-39
0.016240006 -0.034800008 0.81200004 8.2766012e-40
0.017786669 -0.0348 0.81200004 4.5994679e-40
0.019333329 -0.034799989 0.81200004 1.7488597e-39
0.020828567 -0.034714278 0.81000006 3.1232224e-39
0.022371421 -0.034714274 0.81000006 4.2428837e-39
0.024032386 -0.034885719 0.81400001 5.4493358e-39
0.025582865 -0.034885723 0.81400001 6.0954479e-39
0.027133344 -0.034885731 0.81400007 6.846614e-39
0.028683813 -0.034885719 0.81400001 7.2964434e-39
0.030345719 -0.035014294 0.81700003 7.6680804e-39
0.031901918 -0.035014302 0.81700003 7.2906827e-39
0.033376206 -0.034928594 0.81500006 6.9387437e-39
0.035100006 -0.035100002 0.81900007 6.7414185e-39
0.036660004 -0.035100002 0.81900012 6.569241e-39
0.038220022 -0.035100024 0.81900012 5.9070335e-39
0.039780006 -0.035100006 0.81900007 5.3520283e-39
0.041340008 -0.035100006 0.81900012 3.2246989e-39
0.042900011 -0.035100006 0.81900007 1.1067371e-39
0.04446001 -0.035100006 0.81900007 1.4740735e-39
0.046020009 -0.035100009 0.81900012 1.8399778e-39
0.047580007 -0.035100009 0.81900007 1.3811548e-39
0.049020011 -0.035014294 0.81700009 1.0134527e-39
0.050576206 -0.035014302 0.81700009 1.1978397e-39
0.052132402 -0.035014309 0.81700009 1.3818653e-39
0.053557165 -0.034928598 0.81500006 1.0138016e-39
0.055041909 -0.034885719 0.81400001 7.3829091e-40
0.056592405 -0.034885745 0.81400001 9.219563e-40
0.058142867 -0.034885731 0.81400001 1.1981915e-39
0.059693348 -0.034885734 0.81400007 1.2893207e-39
0.061243817 -0.034885716 0.81400001 1.4729847e-39
0.062794298 -0.034885723 0.81400001 1.5655306e-39
0.064344771 -0.034885731 0.81400001 1.7499289e-39
0.065895244 -0.034885712 0.81400001 1.9336083e-39
0.019333337 -0.033253338 0.81200004 7.3545048e-40
0.020828566 -0.033171419 0.81000006 6.4399474e-40
0.022371421 -0.033171419 0.81000006 3.677932e-40
0.024032401 -0.033335265 0.81400001 1.0270677e-40
0.025582882 -0.033335272 0.81400001 1.6639284e-39
0.027166674 -0.033376198 0.81500006 3.1465779e-39
0.028683828 -0.033335261 0.81400001 5.4521581e-39
0.030271441 -0.033376206 0.81500006 7.6540632e-39
0.031823821 -0.033376202 0.81500006 8.4942215e-39
0.033376209 -0.033376213 0.81500006 9.2242349e-39
0.035014287 -0.033458095 0.81700003 9.9675215e-39
0.036570482 -0.033458106 0.81700003 1.0599258e-38
0.038220018 -0.033540025 0.81900012 9.1334854e-39
0.039780006 -0.033540007 0.81900007 7.5496216e-39
0.041340023 -0.033540029 0.81900012 3.9568563e-39
0.042900011 -0.033540007 0.81900007 2.8019944e-40
0.04446001 -0.033540007 0.81900012 8.2905301e-40
0.046020024 -0.033540033 0.81900012 1.288948e-39
0.047580011 -0.033540014 0.81900007 1.1971125e-39
0.049020004 -0.033458095 0.81700009 1.0134471e-39
0.050576203 -0.033458102 0.81700009 1.2882403e-39
0.052004777 -0.033376206 0.81500006 1.5648174e-39
0.053557158 -0.033376198 0.81500006 1.2893067e-39
0.055041924 -0.033335261 0.81400001 9.219577e-40
0.056592405 -0.033335265 0.81400001 1.105263e-39
0.058142882 -0.033335272 0.81400001 1.2900186e-39
0.059693348 -0.033335257 0.81400001 1.473698e-39
0.061243836 -0.033335265 0.81400001 1.565895e-39
0.062794313 -0.033335265 0.81400001 1.8414029e-39
0.064344779 -0.033335257 0.81400001 2.1176394e-39
0.065895259 -0.033335261 0.81400001 2.4839164e-39
-0.00073810143 -0.030261893 0.77500004 1.9379593e-39
0.00073808141 -0.030261885 0.77500004 1.5670426e-39
0.020828564 -0.031628564 0.81000006 1.287534e-39
0.022371436 -0.031628583 0.81000006 9.1945918e-40
0.024032397 -0.031784784 0.81400001 6.4323663e-40
0.025582863 -0.031784773 0.81400001 1.105284e-39
0.027166691 -0.031823844 0.81500012 1.6538223e-39
0.028683824 -0.031784784 0.81400001 2.7644928e-39
0.030271443 -0.031823829 0.81500012 3.8586491e-39
0.031784773 -0.031784777 0.81400001 4.2407215e-39
0.03333525 -0.031784784 0.81400001 4.7006249e-39
0.03492859 -0.031823829 0.81500006 4.9790096e-39
0.036570489 -0.031901926 0.81700009 5.3384637e-39
0.038126688 -0.031901933 0.81700009 4.6055762e-39
0.039682873 -0.031901915 0.81700009 3.8575463e-39
0.041239064 -0.031901926 0.81700003 2.0239907e-39
0.042900011 -0.031980008 0.81900007 2.7946516e-40
0.044460014 -0.031980008 0.81900012 7.3863143e-40
0.045907639 -0.031901926 0.81700003 1.2896486e-39
0.047463816 -0.031901915 0.81700003 1.0141463e-39
0.049020015 -0.031901918 0.81700003 8.3012781e-40
0.050576199 -0.031901903 0.81700003 1.01381e-39
0.052004781 -0.031823825 0.81500006 1.2900284e-39
0.053557172 -0.03182384 0.81500006 1.1981859e-39
0.05504192 -0.03178478 0.81400001 1.19746e-39
0.056661922 -0.031823825 0.81500006 1.3818386e-39
0.058142863 -0.031784777 0.81400001 1.4751161e-39
0.059693344 -0.03178478 0.81400001 1.5669572e-39
0.061243825 -0.031784788 0.81400001 1.5669684e-39
-0.0022142758 -0.02878573 0.77500004 1.6606396e-39
-0.00073809118 -0.028785722 0.77500004 1.9354412e-39
0.00073809281 -0.028785713 0.77499998 1.7499878e-39
0.025582865 -0.030234294 0.81400001 6.4394709e-40
0.02716668 -0.03027145 0.81500006 9.2964943e-41
0.028613338 -0.030160012 0.81200004 9.2995771e-41
0.03023429 -0.03023429 0.81400001 9.2998574e-41
0.031784773 -0.030234298 0.81400001 9.2285313e-41
0.03333525 -0.030234305 0.81400001 9.6587299e-41
0.03492859 -0.03027145 0.81500012 9.2279708e-41
0.036480963 -0.030271444 0.81500006 9.5515306e-41
0.037986677 -0.0302343 0.81400001 9.2295122e-41
0.039585732 -0.03027145 0.81500006 9.2978956e-41
0.04123906 -0.030345729 0.81700003 1.8513955e-40
0.042795245 -0.030345714 0.81700003 2.7911623e-40
0.04435144 -0.030345721 0.81700003 7.3971883e-40
0.045907635 -0.030345729 0.81700003 1.1981831e-39
0.047463812 -0.030345717 0.81700003 9.2268217e-40
0.049020011 -0.030345721 0.81700003 6.4646242e-40
0.050576195 -0.030345706 0.81700003 8.3049635e-40
0.052004781 -0.030271454 0.81500006 9.2304651e-40
0.053557172 -0.030271465 0.81500012 1.1989089e-39
0.055041917 -0.030234301 0.81400001 1.4740525e-39
0.056661922 -0.030271454 0.81500006 1.5662411e-39
0.058142863 -0.030234298 0.81400001 1.6587955e-39
0.05969334 -0.030234301 0.81400001 1.6602332e-39
0.061243821 -0.030234309 0.81400001 1.5684117e-39
0.00073808909 -0.02730952 0.77500004 1.4751903e-39
0.002214276 -0.027309511 0.77499998 1.5659552e-39
0.00368094 -0.02723903 0.77300006 1.4741253e-39
0.0051533347 -0.027239051 0.77300006 1.2893543e-39
0.028613348 -0.028613353 0.81200004 1.4712275e-39
0.030234305 -0.028683836 0.81400001 1.2871823e-39
0.031706672 -0.028613335 0.81200004 1.010943e-39
0.033253331 -0.028613327 0.81200004 7.3542245e-40
0.034885716 -0.028683811 0.81400001 6.4357294e-40
0.036436211 -0.028683839 0.81400001 6.4394429e-40
0.037986677 -0.028683821 0.81400001 6.4431563e-40
0.039537158 -0.028683828 0.81400001 6.4539744e-40
0.041138113 -0.028719066 0.81500006 7.3759727e-40
0.042690493 -0.028719081 0.81500006 7.3902239e-40
0.044242878 -0.028719071 0.81500006 1.0141589e-39
0.045795251 -0.028719062 0.81500012 1.2893137e-39
0.047347624 -0.028719055 0.81500006 1.1056483e-39
0.049020015 -0.028789544 0.81700009 9.2089832e-40
0.050576199 -0.02878953 0.81700009 1.0141659e-39
0.05213239 -0.028789537 0.81700009 1.1992733e-39
0.053688586 -0.028789544 0.81700009 1.3825855e-39
0.05524477 -0.02878953 0.81700009 1.5662565e-39
0.056661922 -0.028719073 0.81500006 1.6577319e-39
0.058142878 -0.028683839 0.81400001 1.8410413e-39
0.059693344 -0.028683824 0.81400001 2.0272207e-39
0.00073618523 -0.025766663 0.77300006 1.2014747e-39
0.0022085651 -0.02576666 0.77300006 1.6595858e-39
0.0036809295 -0.025766635 0.773 1.6592383e-39
0.0051466599 -0.025733324 0.77200001 1.6574208e-39
0.0066171447 -0.025733335 0.77200001 1.5634091e-39
0.0080876118 -0.025733324 0.77200007 1.3793667e-39
0.030234301 -0.027133355 0.81400001 2.4860702e-39
0.031706676 -0.02706668 0.81200004 1.9293049e-39
0.033253334 -0.027066672 0.81200004 1.2871683e-39
0.034885731 -0.027133353 0.81400001 1.2868054e-39
0.036436211 -0.027133359 0.81400001 1.1960503e-39
0.037986688 -0.027133364 0.81400001 1.195337e-39
0.039537158 -0.027133351 0.81400001 1.1960559e-39
0.041138113 -0.027166685 0.81500006 1.1967747e-39
0.042690486 -0.027166681 0.81500006 1.1978425e-39
0.044188585 -0.027133351 0.81400001 1.2885934e-39
0.045739062 -0.027133355 0.81400001 1.3815135e-39
0.047347642 -0.0271667 0.81500006 1.2896864e-39
0.048900019 -0.027166693 0.81500006 1.106014e-39
0.050452393 -0.027166683 0.81500006 1.2900424e-39
0.052004769 -0.027166674 0.81500006 1.3825939e-39
0.053557161 -0.027166689 0.81500006 1.474428e-39
0.055244781 -0.027233355 0.81700003 1.5662663e-39
0.0036809493 -0.024294281 0.77300006 1.935828e-39
0.0051466748 -0.02426287 0.77200007 2.0262047e-39
0.0066171447 -0.024262859 0.77200007 2.0265396e-39
0.0080876267 -0.024262872 0.77200007 2.1143996e-39
0.0095580956 -0.024262859 0.77200007 1.4718805e-39
0.031706668 -0.025520002 0.81200004 3.5931114e-39
0.033253338 -0.025520014 0.81200004 2.6657938e-39
0.034885727 -0.025582876 0.81400001 2.6704615e-39
0.036436208 -0.02558288 0.81400001 2.6686636e-39
0.037986677 -0.025582867 0.81400001 2.761211e-39
0.039537158 -0.02558287 0.81400001 2.8487389e-39
0.041138116 -0.02561431 0.81500006 2.2998755e-39
0.042690486 -0.025614303 0.81500006 1.8417686e-39
0.044242866 -0.025614295 0.81500006 1.5658964e-39
0.045739062 -0.025582874 0.81400001 1.3825953e-39
0.047289543 -0.025582882 0.81400001 1.2907696e-39
0.048840009 -0.025582867 0.81400001 1.1992929e-39
0.050390486 -0.025582874 0.81400001 1.3829639e-39
0.052004784 -0.025614318 0.81500006 1.4751553e-39
0.053557146 -0.02561429 0.81500006 1.5673453e-39
0.0051466618 -0.022792375 0.77200001 2.3060272e-39
0.0065999986 -0.022733333 0.77000004 2.5854741e-39
0.0080876146 -0.022792378 0.77200001 2.8562933e-39
0.0095580984 -0.02279239 0.77200001 1.7481451e-39
0.044242878 -0.024061939 0.81500006 1.8424987e-39
0.045739077 -0.02403242 0.81400001 1.2911284e-39
0.047289528 -0.024032382 0.81400001 1.2907724e-39
0.048719998 -0.023973333 0.81200004 1.2911312e-39
0.050266661 -0.023973323 0.81200004 1.4751623e-39
0.006617147 -0.021321913 0.77200007 3.2290681e-39
0.0080876313 -0.021321924 0.77200007 4.1509922e-39
0.0095580984 -0.021321911 0.77200007 4.3317751e-39
0.045739058 -0.022481922 0.81400001 1.5673635e-39
0.047289539 -0.022481926 0.81400001 1.7503101e-39
0.048720006 -0.022426676 0.81200004 1.8425057e-39
0.050266679 -0.022426685 0.81200004 1.9339839e-39
0.009558103 -0.019851441 0.77200001 6.9269238e-39
0.010857153 -0.018095253 0.76000005 6.6554208e-39
0.012304762 -0.018095242 0.75999999 6.3716425e-39
0.013752387 -0.018095247 0.76000005 6.0881472e-39
0.0079409601 -0.016603822 0.75800002 2.4896968e-39
0.0094095357 -0.016647639 0.76000005 3.688254e-39
0.010857158 -0.016647642 0.76000005 4.8053873e-39
0.012304769 -0.016647628 0.75999999 7.8535772e-39
0.01371619 -0.016603811 0.75800002 1.0782941e-38
0.015160009 -0.016603822 0.75800002 9.2242027e-39
0.0079409573 -0.015160009 0.75800002 2.3917068e-39
0.0094095403 -0.015200022 0.76000005 2.581451e-39
0.01082858 -0.015160013 0.75800002 2.7695305e-39
0.012272385 -0.015160004 0.75800002 4.7103751e-39
0.013680007 -0.015120009 0.75600004 6.648972e-39
0.015120018 -0.015120027 0.7560001 6.7429655e-39
0.016560003 -0.015120003 0.75600004 6.7515555e-39
0.018000014 -0.015120021 0.7560001 6.921575e-39
0.0079409555 -0.013716196 0.75800002 2.2108944e-39
0.0093847597 -0.013716186 0.75800002 1.4765524e-39
0.010800015 -0.01368002 0.7560001 6.5224138e-40
0.012239997 -0.013679995 0.75600004 1.5685e-39
0.01368001 -0.013680015 0.7560001 2.4997805e-39
0.015120009 -0.013680015 0.75600004 4.1635926e-39
0.016560009 -0.013680008 0.7560001 5.8184561e-39
0.018000007 -0.013680009 0.75600004 8.678303e-39
0.019440018 -0.013680026 0.7560001 1.1428319e-38
0.010800005 -0.012240007 0.75600004 1.4779929e-39
0.012240019 -0.012240026 0.7560001 2.0282969e-39
0.013680003 -0.012240002 0.75600004 2.5771742e-39
0.015120001 -0.012240001 0.75600004 3.1343025e-39
0.016559998 -0.012239996 0.7560001 3.7718527e-39
0.017999997 -0.012239996 0.75600004 5.0726976e-39
0.019414289 -0.01222381 0.75500011 6.3673671e-39
0.020852391 -0.012223822 0.75500011 6.0943759e-39
0.010799996 -0.010799996 0.75600004 2.3048739e-39
0.012240009 -0.010800011 0.75600004 2.4889065e-39
0.013679995 -0.01079999 0.75600004 2.578235e-39
0.015120006 -0.010800008 0.7560001 2.2076687e-39
