# .PCD v0.7 - Point Cloud Data file format
VERSION 0.7
FIELDS x y z rgb
SIZE 4 4 4 4
TYPE F F F F
COUNT 1 1 1 1
WIDTH 960
HEIGHT 1
VIEWPOINT 0 0 0 1 0 0 0
POINTS 960
DATA ascii
0.019642858 -0.071500003 0.82500005 5.5284728e-40
0.021265713 -0.071673341 0.82699996 5.5247313e-40
0.022840951 -0.071673334 0.82699996 4.6062362e-40
0.02441619 -0.071673341 0.82700002 2.7695263e-40
0.025991431 -0.071673334 0.82699996 5.5245912e-40
0.027566668 -0.071673334 0.82699996 8.2832013e-40
0.029141907 -0.071673334 0.82699996 6.4464634e-40
0.03071714 -0.071673334 0.82699996 3.6985732e-40
0.032292388 -0.071673334 0.82700002 4.6133408e-40
0.03386762 -0.071673334 0.82699996 4.6098095e-40
0.035442859 -0.071673334 0.82699996 4.6062923e-40
0.037018102 -0.071673341 0.82700002 3.6878953e-40
0.038593337 -0.071673334 0.82699996 8.2760547e-40
0.040168572 -0.071673341 0.82700002 1.1949447e-39
0.041743807 -0.071673334 0.82699996 7.3576577e-40
0.04331905 -0.071673334 0.82699996 1.8511153e-40
0.044894289 -0.071673334 0.82700002 2.7730576e-40
0.046469525 -0.071673326 0.82699996 3.6878252e-40
0.04804476 -0.071673326 0.82699996 3.6878252e-40
0.049620006 -0.071673341 0.82700002 3.6878672e-40
0.051195245 -0.071673334 0.82699996 6.4429742e-40
0.052770484 -0.071673341 0.82700002 8.2906002e-40
0.054345723 -0.071673334 0.82699996 4.6281105e-40
0.056428578 -0.065000005 0.75000006 2.3417689e-38
0.057857148 -0.065000005 0.75 2.3417689e-38
0.059285726 -0.065000013 0.75000006 2.3325494e-38
0.060714293 -0.065000005 0.75000006 2.3325494e-38
0.061977156 -0.064826667 0.74799997 2.3325494e-38
-0.014856189 -0.06958954 0.82100004 4.6063623e-40
-0.013324765 -0.069759049 0.82299995 5.5246752e-40
-0.011757143 -0.069759063 0.82300001 5.5317938e-40
-0.010189525 -0.069759056 0.82299995 6.4500928e-40
-0.0086219059 -0.069759056 0.82299995 6.4500227e-40
-0.0070542824 -0.069759063 0.82300001 6.4429041e-40
-0.0054866653 -0.069759056 0.82299995 5.5246052e-40
-0.0039190464 -0.069759056 0.82300001 5.5246052e-40
-0.0023457129 -0.069589533 0.82100004 4.6062502e-40
-0.00078190392 -0.069589525 0.82099998 4.6062642e-40
0.00078190706 -0.069589533 0.82100004 4.6098516e-40
0.0023457166 -0.069589533 0.82100004 5.5282205e-40
0.0039095255 -0.069589525 0.82100004 4.6098656e-40
0.0054733348 -0.069589525 0.82100004 4.6099356e-40
0.0070371428 -0.069589525 0.82099998 3.6880634e-40
0.008621905 -0.069759041 0.82299995 3.6880354e-40
0.010189525 -0.069759049 0.82299995 5.5247173e-40
0.011757145 -0.069759049 0.82300001 7.3613571e-40
0.013324764 -0.069759049 0.82299995 5.5245631e-40
0.014928573 -0.069928579 0.82500005 4.6098656e-40
0.016500002 -0.069928579 0.82500005 5.5282906e-40
0.01807143 -0.069928572 0.82500005 5.531934e-40
0.019690476 -0.070098095 0.82699996 5.5283887e-40
0.021265715 -0.070098087 0.82699996 6.4395129e-40
0.022840954 -0.070098102 0.82700002 4.602747e-40
0.024416192 -0.070098095 0.82699996 3.684364e-40
0.025991431 -0.070098087 0.82699996 4.6062642e-40
0.027566666 -0.070098095 0.82700002 6.4465194e-40
0.029141905 -0.070098087 0.82699996 5.5316958e-40
0.030717144 -0.070098095 0.82700002 5.5352831e-40
0.032292385 -0.070098095 0.82699996 5.5316958e-40
0.03386762 -0.070098087 0.82699996 6.4464634e-40
0.035442859 -0.070098102 0.82700002 5.5245071e-40
0.037018098 -0.070098087 0.82699996 3.6878112e-40
0.038593337 -0.070098087 0.82699996 6.4428901e-40
0.040168572 -0.070098095 0.82699996 9.1943676e-40
0.041743811 -0.070098087 0.82699996 6.4428901e-40
0.04331905 -0.070098095 0.82700002 2.7730576e-40
0.044894289 -0.070098095 0.82699996 3.6914125e-40
0.046469525 -0.07009808 0.82699996 3.6878252e-40
0.048044764 -0.070098095 0.82700002 3.6878252e-40
0.049620006 -0.070098087 0.82699996 3.6879093e-40
0.051195245 -0.070098087 0.82699996 5.5282766e-40
0.052770484 -0.070098095 0.82699996 7.3723573e-40
0.054345723 -0.070098087 0.82699996 3.6955463e-40
0.057857152 -0.063571423 0.75000006 2.3325852e-38
0.05952286 -0.063825712 0.75299996 2.3325136e-38
0.060876198 -0.063740939 0.75199997 2.3325494e-38
0.06214286 -0.063571431 0.75000006 2.3325494e-38
0.063571431 -0.063571431 0.75 2.3325494e-38
-0.014856191 -0.068025723 0.82099998 4.6063203e-40
-0.013324764 -0.068191431 0.82300001 5.5282906e-40
-0.011757144 -0.068191431 0.82299995 5.5283186e-40
-0.010189524 -0.068191439 0.82299995 5.5318219e-40
-0.008621905 -0.068191439 0.82300001 5.5317518e-40
-0.0070542879 -0.068191431 0.82299995 5.5281785e-40
-0.0054866662 -0.068191439 0.82300001 5.5281785e-40
-0.0039190496 -0.068191431 0.82299995 5.5281925e-40
-0.0023457138 -0.068025723 0.82100004 5.5282065e-40
-0.0007819031 -0.068025723 0.82100004 4.6098516e-40
0.00078190473 -0.068025716 0.82099998 5.5282205e-40
0.0023457166 -0.068025731 0.82100004 5.5282205e-40
0.0039095255 -0.068025723 0.82100004 5.5246332e-40
0.0054733357 -0.068025723 0.82100004 4.6063483e-40
0.0070371442 -0.068025723 0.82100004 4.6028451e-40
0.0086219041 -0.068191431 0.82299995 4.6064184e-40
0.010189524 -0.068191431 0.82300001 7.3614692e-40
0.011757142 -0.068191424 0.82299995 1.0116422e-39
0.013324763 -0.068191439 0.82299995 8.279614e-40
0.014928576 -0.068357155 0.82500005 5.5282065e-40
0.016500004 -0.068357155 0.82500005 6.4502049e-40
0.018071432 -0.068357155 0.82500005 6.4502609e-40
0.01964286 -0.068357147 0.82500005 6.4467156e-40
0.021265715 -0.068522863 0.82700002 6.4430722e-40
0.022840953 -0.068522856 0.82699996 5.5210739e-40
0.024416188 -0.068522848 0.82699996 3.6879373e-40
0.025991431 -0.068522856 0.82700002 4.6062782e-40
0.027566668 -0.068522848 0.82699996 4.6098375e-40
0.029141905 -0.068522848 0.82699996 5.5317518e-40
0.030717144 -0.068522848 0.82700002 6.4501628e-40
0.032292385 -0.068522848 0.82699996 7.3649865e-40
0.03386762 -0.068522856 0.82700002 8.2796841e-40
0.035442863 -0.068522856 0.82699996 6.4393308e-40
0.037018098 -0.068522848 0.82699996 3.6878812e-40
0.038593337 -0.068522856 0.82700002 5.5246192e-40
0.040168572 -0.068522848 0.82699996 6.4393588e-40
0.041743811 -0.068522848 0.82699996 5.5209898e-40
0.04331905 -0.068522856 0.82700002 3.6878532e-40
0.044894286 -0.068522848 0.82699996 3.6878392e-40
0.046469525 -0.068522848 0.82700002 3.6878392e-40
0.048044764 -0.068522856 0.82699996 3.6878392e-40
0.049619999 -0.068522848 0.82699996 3.6914826e-40
0.051195242 -0.068522856 0.82700002 4.6099076e-40
0.052770477 -0.068522848 0.82699996 5.5355073e-40
0.05434572 -0.068522848 0.82699996 3.6988674e-40
0.057857152 -0.062142864 0.75000006 2.3325852e-38
0.059443817 -0.062308569 0.75199997 2.3233659e-38
0.06071429 -0.06214286 0.75 2.3325494e-38
0.061977156 -0.061977148 0.74799997 2.3325494e-38
-0.011757143 -0.066623814 0.82299995 6.450359e-40
-0.010189524 -0.066623822 0.82300001 7.3722172e-40
-0.0086219059 -0.066623814 0.82299995 6.4537782e-40
-0.007054287 -0.066623822 0.82299995 6.4501488e-40
-0.0054866676 -0.066623814 0.82299995 6.4501068e-40
-0.0039190487 -0.066623814 0.82299995 7.3720771e-40
-0.0023457129 -0.066461913 0.82100004 6.4465755e-40
-0.00078190229 -0.066461913 0.82100004 5.5246332e-40
0.00078190648 -0.066461913 0.82100004 5.5246332e-40
0.0023457182 -0.066461921 0.82100004 5.5246332e-40
0.0039095259 -0.066461913 0.82100004 6.4429882e-40
0.0054733357 -0.066461913 0.82100004 6.4430722e-40
0.0070371442 -0.066461913 0.82100004 5.5247874e-40
0.008600954 -0.066461906 0.82100004 4.6028451e-40
0.010189523 -0.066623807 0.82299995 5.5247874e-40
0.011757143 -0.066623807 0.82299995 6.4394289e-40
0.013324764 -0.066623822 0.82300001 6.4428901e-40
0.014892382 -0.066623807 0.82299995 5.5281785e-40
0.0165 -0.066785708 0.82500005 5.5318219e-40
0.01807143 -0.066785708 0.82500005 5.5282906e-40
0.019642856 -0.066785716 0.82500005 6.4466876e-40
0.021214286 -0.066785708 0.82500005 8.2833415e-40
0.022785716 -0.066785708 0.82500005 6.4429882e-40
0.024357144 -0.066785708 0.82500005 5.5282205e-40
0.025991429 -0.066947609 0.82699996 5.5282205e-40
0.027500002 -0.066785716 0.82500005 5.5246332e-40
0.029141905 -0.066947617 0.82700002 5.5282205e-40
0.03071714 -0.066947609 0.82699996 5.5283326e-40
0.032292385 -0.066947609 0.82699996 5.5320181e-40
0.033867624 -0.066947617 0.82700002 6.4430863e-40
0.035442859 -0.066947617 0.82699996 5.5282065e-40
0.037018098 -0.066947617 0.82700002 4.6098936e-40
0.038593333 -0.066947617 0.82699996 6.4430442e-40
0.040265724 -0.067109533 0.82900006 7.3577698e-40
0.041743811 -0.066947617 0.82700002 5.5210179e-40
0.043423817 -0.067109533 0.82900006 3.6842799e-40
0.044894286 -0.066947609 0.82699996 3.6914265e-40
0.046581913 -0.067109533 0.82900006 3.6914265e-40
0.048160955 -0.067109525 0.829 4.6097815e-40
0.049620003 -0.066947617 0.82700002 5.5281925e-40
0.051195242 -0.066947617 0.82699996 6.4501768e-40
0.052898102 -0.067109533 0.82900006 7.3720631e-40
0.054477151 -0.067109533 0.82900006 4.6097675e-40
0.058011431 -0.060876183 0.75199997 2.3325493e-38
0.059443817 -0.060876191 0.75200003 2.32333e-38
0.060714293 -0.060714297 0.75 2.32333e-38
0.062142868 -0.060714301 0.75000006 2.3325136e-38
-0.010189527 -0.065056197 0.82299995 8.2941735e-40
-0.0086219069 -0.065056197 0.82299995 7.3721892e-40
-0.0070542861 -0.065056205 0.82300001 6.4573375e-40
-0.0054866653 -0.065056197 0.82299995 8.290376e-40
-0.0039190464 -0.065056205 0.82300001 9.2052978e-40
-0.0023457119 -0.064898103 0.82100004 7.3615814e-40
-0.0007819024 -0.064898103 0.82100004 5.5248154e-40
0.00078190636 -0.064898103 0.82100004 5.5247733e-40
0.0023457159 -0.064898096 0.82100004 5.5246893e-40
0.0039095269 -0.064898111 0.82100004 7.3613291e-40
0.0054733357 -0.064898103 0.82100004 8.2797541e-40
0.0070371442 -0.064898103 0.82100004 6.4431143e-40
0.008621905 -0.065056197 0.82299995 4.6064744e-40
0.010189524 -0.065056197 0.82299995 3.6917909e-40
0.011757144 -0.065056205 0.82300001 2.7732958e-40
0.013324763 -0.065056205 0.82299995 4.6098796e-40
0.014892383 -0.065056205 0.82299995 5.5318639e-40
0.016500002 -0.065214291 0.82500005 5.53192e-40
0.01807143 -0.065214291 0.82500005 4.6099917e-40
0.019595241 -0.065056205 0.82300001 7.3614973e-40
0.02121429 -0.065214291 0.82500005 9.1981652e-40
0.022785719 -0.065214291 0.82500005 8.2797682e-40
0.024357144 -0.065214291 0.82500005 7.3649865e-40
0.025928577 -0.065214299 0.82500005 6.4466315e-40
0.027500002 -0.065214299 0.82500005 5.5282486e-40
0.029071432 -0.065214299 0.82500005 4.6134669e-40
0.030717142 -0.06537237 0.82699996 3.6987693e-40
0.032292388 -0.065372378 0.82700002 4.6207817e-40
0.03386762 -0.065372378 0.82699996 4.613537e-40
0.035442859 -0.065372378 0.82699996 5.5318079e-40
0.037018098 -0.065372385 0.82699996 5.5283466e-40
0.038686674 -0.065530486 0.82900006 7.357994e-40
0.04026572 -0.065530494 0.82900006 8.2798102e-40
0.041743811 -0.065372378 0.82699996 6.4429742e-40
0.043423813 -0.065530479 0.829 3.6878672e-40
0.044894293 -0.065372378 0.82700002 3.6950139e-40
0.046581913 -0.065530486 0.82900006 2.7766869e-40
0.048160955 -0.065530486 0.82900006 4.6134249e-40
0.049620003 -0.065372385 0.82699996 6.4501768e-40
0.051195245 -0.06537237 0.82699996 8.2905021e-40
0.052898098 -0.065530486 0.82900006 9.208773e-40
0.054477151 -0.065530486 0.82900006 5.5209338e-40
0.056056194 -0.065530479 0.829 9.2672071e-41
0.058011435 -0.059443809 0.75200003 2.3325493e-38
0.059285726 -0.05928573 0.75000006 2.3233299e-38
0.060714297 -0.059285723 0.75000006 2.32333e-38
0.062142868 -0.059285726 0.75 2.32333e-38
-0.008621905 -0.06348858 0.82300001 7.3794199e-40
-0.007054287 -0.063488573 0.82299995 6.4645261e-40
-0.0054866662 -0.063488573 0.82300001 6.453624e-40
-0.0039190487 -0.063488573 0.82299995 6.4431703e-40
-0.0023457112 -0.063334301 0.82100004 5.5251097e-40
-0.00078190252 -0.063334301 0.82100004 4.6030693e-40
0.00078190624 -0.063334301 0.82100004 5.5248995e-40
0.0023457166 -0.063334294 0.82100004 6.4431143e-40
0.0039095255 -0.063334294 0.82099998 6.4429601e-40
0.0054733371 -0.063334301 0.82100004 7.3613712e-40
0.0070371456 -0.063334294 0.82100004 6.4430722e-40
0.008621905 -0.063488573 0.82299995 5.5248714e-40
0.010189524 -0.06348858 0.82300001 5.5286129e-40
0.011757143 -0.063488565 0.82299995 5.5284728e-40
0.013324764 -0.06348858 0.82299995 4.613565e-40
0.014892382 -0.063488573 0.82299995 4.624369e-40
0.016500002 -0.063642859 0.82500005 4.6136491e-40
0.018071432 -0.063642859 0.82500005 5.5248294e-40
0.019595239 -0.063488573 0.82299995 7.3651266e-40
0.021162858 -0.06348858 0.82299995 9.1982212e-40
0.022785718 -0.063642859 0.82500005 7.3686439e-40
0.024357142 -0.063642859 0.82500005 6.4538763e-40
0.025928577 -0.063642859 0.82500005 6.4538622e-40
0.027500004 -0.063642859 0.82500005 7.3685878e-40
0.029071432 -0.063642867 0.82500005 6.4537642e-40
0.030642862 -0.063642859 0.82500005 5.5390386e-40
0.032292385 -0.063797139 0.82699996 5.5354933e-40
0.03386762 -0.063797131 0.82699996 5.5246893e-40
0.035442859 -0.063797146 0.82700002 7.3649445e-40
0.037018098 -0.063797139 0.82699996 8.2906843e-40
0.038686674 -0.063951448 0.82900006 8.2837058e-40
0.04026572 -0.063951448 0.82900006 9.1982632e-40
0.041844767 -0.063951448 0.82900006 6.4429742e-40
0.043423817 -0.06395144 0.829 3.6878812e-40
0.044894289 -0.063797131 0.82699996 3.6914265e-40
0.046581913 -0.06395144 0.82900006 3.6914826e-40
0.048160963 -0.063951433 0.82900006 5.5318359e-40
0.049620003 -0.063797139 0.82699996 7.3721612e-40
0.051195249 -0.063797139 0.82700002 8.2977048e-40
0.052898098 -0.06395144 0.82900006 1.0145079e-39
0.054477155 -0.06395144 0.82900006 5.5244931e-40
0.056056198 -0.06395144 0.82900006 9.2341365e-41
0.059285726 -0.05785716 0.75000006 2.3233299e-38
0.060714297 -0.057857152 0.75000006 2.3233299e-38
0.062142864 -0.057857148 0.75000006 2.32333e-38
-0.0086009512 -0.061770491 0.82100004 7.3830212e-40
-0.0070542861 -0.06192096 0.82300001 5.5426259e-40
-0.0054866676 -0.061920952 0.82299995 4.6134249e-40
-0.0039190487 -0.061920956 0.82299995 2.7768831e-40
-0.0023457136 -0.06177048 0.82099998 2.7734779e-40
-0.00078190159 -0.061770491 0.82100004 2.7734499e-40
0.00078190706 -0.061770488 0.82100004 4.6101458e-40
0.0023457166 -0.061770484 0.82100004 6.4467296e-40
0.0039095245 -0.061770484 0.82100004 6.4466175e-40
0.0054733362 -0.061770491 0.82100004 6.4430442e-40
0.0070371446 -0.061770488 0.82100004 6.4430582e-40
0.008600954 -0.061770488 0.82100004 6.4431003e-40
0.010189523 -0.061920948 0.82299995 7.3614973e-40
0.011757143 -0.061920952 0.82299995 7.3650285e-40
0.013324763 -0.061920956 0.82300001 5.5282626e-40
0.014892381 -0.061920948 0.82299995 3.695168e-40
0.016500002 -0.062071435 0.82500005 4.6063904e-40
0.018071432 -0.062071435 0.82500005 5.531948e-40
0.019595241 -0.061920956 0.82299995 7.3722733e-40
0.02116286 -0.06192096 0.82300001 8.2870409e-40
0.022785718 -0.062071431 0.82500005 6.4539323e-40
0.024357146 -0.062071435 0.82500005 4.6207537e-40
0.025928576 -0.062071439 0.82500005 6.4610089e-40
0.027500004 -0.062071443 0.82500005 8.2905161e-40
0.029071428 -0.062071428 0.82499999 7.3721331e-40
0.030717144 -0.0622219 0.82699996 6.4537922e-40
0.032292385 -0.062221892 0.82699996 6.4538202e-40
0.03386762 -0.0622219 0.82700002 6.4466315e-40
0.035442863 -0.0622219 0.82699996 9.1980811e-40
0.037107624 -0.062372386 0.829 1.1038504e-39
0.03868667 -0.06237239 0.82900006 1.0116688e-39
0.04026572 -0.062372394 0.82900006 9.2017805e-40
0.041743811 -0.062221892 0.82699996 6.4429882e-40
0.043423813 -0.062372386 0.829 3.6878672e-40
0.044894286 -0.062221892 0.82699996 4.6061802e-40
0.046469528 -0.062221907 0.82700002 4.6098095e-40
0.048044764 -0.0622219 0.82699996 6.4501628e-40
0.049619999 -0.0622219 0.82699996 8.2905441e-40
0.051195242 -0.0622219 0.82700002 9.2125705e-40
0.052770477 -0.062221896 0.82699996 1.0123639e-39
0.05434572 -0.062221903 0.82700002 5.5138292e-40
0.059443813 -0.056579039 0.75199997 2.3233299e-38
0.060714293 -0.056428581 0.75000006 2.3233299e-38
0.06214286 -0.056428578 0.75000006 2.3233299e-38
-0.008621905 -0.060353339 0.82299995 9.2233325e-40
-0.0070542861 -0.060353342 0.82300001 8.2977468e-40
-0.0054866662 -0.060353335 0.82299995 6.4609808e-40
-0.0039190473 -0.060353339 0.82300001 4.624327e-40
-0.0023457138 -0.060206674 0.82100004 4.6207817e-40
-0.0007819017 -0.060206681 0.82100004 4.6172644e-40
0.00078190694 -0.060206678 0.82100004 5.5320881e-40
0.0023457166 -0.060206678 0.82100004 6.4539463e-40
0.0039095255 -0.060206674 0.82100004 5.5283326e-40
0.0054733348 -0.060206674 0.82100004 4.6063623e-40
0.007054287 -0.060353339 0.82299995 5.5246893e-40
0.008621905 -0.060353335 0.82299995 5.5246192e-40
0.010214285 -0.060500003 0.82500005 6.4428901e-40
0.011757145 -0.060353342 0.82300001 6.4429181e-40
0.013324762 -0.060353335 0.82299995 5.5317658e-40
0.014892383 -0.060353339 0.82300001 3.6986853e-40
0.016500004 -0.060500007 0.82500005 5.5354232e-40
0.018027619 -0.060353339 0.82299995 6.4538342e-40
0.019595239 -0.060353354 0.82300001 7.3722312e-40
0.021162858 -0.060353342 0.82299995 9.2089972e-40
0.022785718 -0.060500007 0.82500005 6.4575617e-40
0.024357146 -0.060500007 0.82500005 4.6279423e-40
0.025928576 -0.060500003 0.82500005 6.4609668e-40
0.027500002 -0.060500003 0.82500005 7.3721471e-40
0.02907143 -0.0605 0.82500005 6.4501908e-40
0.030717144 -0.060646664 0.82699996 6.4537922e-40
0.032292388 -0.060646668 0.82700002 6.4537922e-40
0.033867624 -0.060646664 0.82699996 7.3685598e-40
0.035442859 -0.060646661 0.82699996 9.2052697e-40
0.037107624 -0.060793336 0.829 1.0120079e-39
0.03868667 -0.06079334 0.82900006 8.2869989e-40
0.04026572 -0.06079334 0.82900006 7.3721752e-40
0.041743811 -0.060646668 0.82700002 5.5318079e-40
0.04331905 -0.060646664 0.82699996 3.6914546e-40
0.044894289 -0.060646668 0.82700002 4.6133268e-40
0.046469525 -0.060646664 0.82699996 5.5317238e-40
0.04804476 -0.060646661 0.82699996 7.3720631e-40
0.049620003 -0.060646668 0.82700002 9.2125145e-40
0.051195242 -0.060646661 0.82699996 7.3723573e-40
0.052770481 -0.060646653 0.82699996 6.4359677e-40
0.054345723 -0.060646668 0.82699996 3.6772034e-40
0.055920955 -0.060646664 0.82699996 9.2356779e-41
0.059443817 -0.055146668 0.75199997 2.3233299e-38
0.060876198 -0.055146672 0.75200003 2.3233299e-38
-0.0086219059 -0.058785722 0.82300001 1.106007e-39
-0.007054287 -0.058785714 0.82299995 1.0141659e-39
-0.0054866653 -0.058785722 0.82300001 8.3013061e-40
-0.0039190487 -0.058785714 0.82299995 6.4646102e-40
-0.0023457129 -0.058642868 0.82100004 6.4646102e-40
-0.0007819031 -0.058642868 0.82099998 5.531976e-40
0.00078190776 -0.058642872 0.82100004 5.5212841e-40
0.0023514284 -0.058785714 0.82300001 5.5284588e-40
0.0039095255 -0.058642868 0.82100004 4.6065025e-40
0.0054733353 -0.058642864 0.82100004 2.7733098e-40
0.0070542847 -0.058785714 0.82299995 3.6880074e-40
0.008621905 -0.058785722 0.82299995 4.6063063e-40
0.010189525 -0.058785725 0.82300001 5.5245912e-40
0.011757143 -0.058785718 0.82299995 5.5282205e-40
0.013324763 -0.058785722 0.82299995 4.6134949e-40
0.014892381 -0.058785714 0.82299995 3.6987133e-40
0.016460001 -0.058785722 0.82299995 5.5425838e-40
0.01802762 -0.058785725 0.82300001 7.3721612e-40
0.019595239 -0.058785722 0.82299995 8.2905582e-40
0.02116286 -0.058785725 0.82299995 9.2126125e-40
0.022730477 -0.058785718 0.82299995 7.3760147e-40
0.024298096 -0.058785722 0.82299995 4.6244251e-40
0.025865719 -0.058785725 0.82300001 5.5426679e-40
0.027433338 -0.058785722 0.82299995 6.4538342e-40
0.029071428 -0.058928572 0.82499999 6.4430582e-40
0.030642856 -0.058928568 0.82499999 5.5318919e-40
0.032292385 -0.059071422 0.82700002 7.3722032e-40
0.033867624 -0.059071429 0.82699996 8.2905582e-40
0.035442863 -0.059071433 0.82700002 9.2125145e-40
0.037018098 -0.059071425 0.82699996 9.2089131e-40
0.038593341 -0.059071422 0.82699996 7.3721892e-40
0.04026572 -0.059214301 0.82900006 4.6206696e-40
0.041743811 -0.059071422 0.82699996 3.7022726e-40
0.043319046 -0.059071418 0.82699996 2.7766729e-40
0.044894289 -0.059071422 0.82700002 4.6169141e-40
0.046469528 -0.059071418 0.82699996 6.4572394e-40
0.048044764 -0.059071425 0.82700002 8.2939913e-40
0.049620003 -0.059071425 0.82699996 9.2125565e-40
0.051195245 -0.059071422 0.82699996 5.5393609e-40
0.052770484 -0.059071425 0.82700002 1.8480464e-40
0.054345723 -0.059071422 0.82699996 1.8408998e-40
0.055920955 -0.059071418 0.82699996 1.1642408e-40
0.058011431 -0.053714283 0.75199997 2.3233299e-38
0.059443813 -0.053714283 0.75200003 2.3233299e-38
0.060714293 -0.053571433 0.75000006 2.3233299e-38
-0.0086428579 -0.05735714 0.82500005 1.1982027e-39
-0.0070714313 -0.057357144 0.82500005 9.2305071e-40
-0.0054866676 -0.057218093 0.82299995 8.3049215e-40
-0.0039190464 -0.057218097 0.82299995 7.3829512e-40
-0.0023457119 -0.057079062 0.82100004 7.3757345e-40
-0.00078380917 -0.057218093 0.82299995 7.3650566e-40
0.00078380987 -0.057218097 0.82300001 6.4467717e-40
0.0023514275 -0.057218093 0.82299995 5.5320741e-40
0.0039190478 -0.057218097 0.82299995 3.6990216e-40
0.0054866676 -0.057218101 0.82300001 2.7805545e-40
0.0070542856 -0.057218093 0.82299995 4.613565e-40
0.008621905 -0.057218097 0.82300001 5.5282906e-40
0.010214286 -0.057357147 0.82500005 5.5282345e-40
0.011757143 -0.057218093 0.82299995 6.4502329e-40
0.013357145 -0.057357147 0.82500005 4.613565e-40
0.014892382 -0.057218093 0.82299995 3.695154e-40
0.016460001 -0.057218097 0.82300001 4.6134529e-40
0.01802762 -0.057218093 0.82299995 6.4466035e-40
0.019595239 -0.057218097 0.82299995 7.3757485e-40
0.02116286 -0.057218101 0.82300001 8.3014603e-40
0.022730477 -0.057218093 0.82299995 6.4613312e-40
0.024298098 -0.057218097 0.82300001 4.6244951e-40
0.025928576 -0.057357144 0.82500005 7.3758326e-40
0.027500002 -0.057357147 0.82500005 9.2053538e-40
0.02907143 -0.057357147 0.82500005 6.4466736e-40
0.030717146 -0.057496194 0.82700002 4.6099917e-40
0.032292385 -0.057496186 0.82699996 6.4503029e-40
0.03386762 -0.057496183 0.82699996 9.2089692e-40
0.035442863 -0.05749619 0.82700002 9.2125705e-40
0.037107628 -0.057635251 0.82900006 9.2125145e-40
0.03868667 -0.05763524 0.829 7.3757345e-40
0.040265724 -0.057635248 0.82900006 5.5390105e-40
0.041844767 -0.057635244 0.82900006 4.6134529e-40
0.043423817 -0.057635255 0.82900006 3.6914405e-40
0.044894289 -0.057496179 0.82699996 5.5388424e-40
0.046469528 -0.057496179 0.82699996 7.382755e-40
0.048044764 -0.057496183 0.82700002 8.2975506e-40
0.049619999 -0.057496183 0.82699996 9.2161999e-40
0.051195245 -0.05749619 0.82700002 5.5323123e-40
0.052770484 -0.057496183 0.82699996 1.841138e-40
0.05434572 -0.057496183 0.82699996 3.3094073e-39
0.055920955 -0.057496186 0.82700002 6.44091e-39
0.057857148 -0.052142862 0.75 2.3233299e-38
0.059285723 -0.052142862 0.75000006 2.3233299e-38
0.06071429 -0.052142859 0.75000006 2.3233299e-38
-0.01023905 -0.055920951 0.82699996 1.5644727e-39
-0.0086428588 -0.055785719 0.82500005 1.1978509e-39
-0.0070714299 -0.055785719 0.82500005 8.3086209e-40
-0.0055000023 -0.055785719 0.82500005 8.3085648e-40
-0.0039285696 -0.055785723 0.82500005 8.3013902e-40
-0.0023514298 -0.055650473 0.82299995 8.2906142e-40
-0.00078380987 -0.05565048 0.82299995 8.2906422e-40
0.00078380766 -0.055650473 0.82299995 6.4467857e-40
0.0023514275 -0.055650476 0.82299995 4.6172224e-40
0.0039190478 -0.05565048 0.82300001 3.706014e-40
0.0054866653 -0.055650473 0.82299995 2.7840437e-40
0.0070714313 -0.05578573 0.82500005 4.613565e-40
0.0086428598 -0.055785727 0.82500005 6.4502749e-40
0.010214285 -0.055785716 0.82499999 6.4502749e-40
0.011785714 -0.055785712 0.82499999 6.4503029e-40
0.013389524 -0.055920944 0.82700002 4.6100197e-40
0.014928574 -0.055785716 0.82499999 2.7804424e-40
0.01646 -0.055650473 0.82299995 4.6099356e-40
0.01802762 -0.055650476 0.82299995 5.5318919e-40
0.019595241 -0.055650488 0.82300001 6.4574356e-40
0.021214288 -0.055785712 0.82499999 6.4610649e-40
0.022785716 -0.055785708 0.82500005 5.542738e-40
0.024357144 -0.055785716 0.82499999 4.6207537e-40
0.025928574 -0.055785712 0.82500005 8.2905582e-40
0.0275 -0.055785712 0.82500005 1.1964006e-39
0.029141905 -0.055920951 0.82700002 7.3686859e-40
0.030717144 -0.055920951 0.82699996 2.7769392e-40
0.032292385 -0.055920944 0.82699996 6.450401e-40
0.03386762 -0.055920951 0.82700002 9.2126125e-40
0.035442859 -0.055920944 0.82699996 9.2197592e-40
0.037107628 -0.056056205 0.82900006 8.2977748e-40
0.038686674 -0.056056201 0.829 7.3793778e-40
0.04026572 -0.056056201 0.82900006 6.4537922e-40
0.041844767 -0.056056201 0.82900006 5.5246332e-40
0.043423813 -0.056056205 0.82900006 4.6134249e-40
0.044894289 -0.055920944 0.82699996 6.4572954e-40
0.046469528 -0.055920951 0.82700002 7.3792938e-40
0.048044764 -0.055920944 0.82699996 8.2977048e-40
0.049620003 -0.05592094 0.82699996 9.2161438e-40
0.051195245 -0.055920947 0.82699996 5.5356334e-40
0.052770484 -0.055920944 0.82699996 9.3002778e-41
0.054345723 -0.055920955 0.82700002 6.4289864e-39
0.055920959 -0.055920947 0.82699996 1.2813454e-38
0.056278102 -0.05057906 0.74800003 2.32333e-38
0.057857152 -0.050714292 0.75 2.3233299e-38
0.059285719 -0.050714292 0.75 2.3233299e-38
0.06071429 -0.050714299 0.75000006 2.3233299e-38
-0.010214288 -0.054214284 0.82500005 2.5735813e-39
-0.0086428616 -0.054214284 0.82500005 1.8399876e-39
-0.0070714317 -0.054214284 0.82500005 1.1067329e-39
-0.0055000032 -0.05421428 0.82500005 1.0145331e-39
-0.0039285705 -0.054214291 0.82500005 9.2270039e-40
-0.0023514288 -0.054082859 0.82299995 8.3014883e-40
-0.00078381103 -0.054082852 0.82299995 8.2978869e-40
0.00078380882 -0.054082856 0.82299995 6.4575617e-40
0.0023571425 -0.054214291 0.82500005 4.6207256e-40
0.0039190459 -0.054082852 0.82299995 4.6241728e-40
0.0055000009 -0.054214291 0.82500005 3.7058879e-40
0.0070714299 -0.054214291 0.82500005 4.6207256e-40
0.0086428588 -0.054214291 0.82500005 5.5355493e-40
0.010214287 -0.054214295 0.82500005 5.5356054e-40
0.011785716 -0.054214291 0.82500005 5.5391927e-40
0.013389524 -0.054345712 0.82699996 4.6208237e-40
0.014928574 -0.054214291 0.82500005 3.7096154e-40
0.016460001 -0.054082856 0.82299995 5.5355213e-40
0.01802762 -0.054082863 0.82300001 7.3650706e-40
0.019595239 -0.054082867 0.82299995 6.4574776e-40
0.021214288 -0.054214288 0.82500005 6.4609668e-40
0.022785718 -0.054214291 0.82500005 6.4608547e-40
0.024357146 -0.054214288 0.82500005 7.3756784e-40
0.025928574 -0.054214284 0.82500005 8.2905021e-40
0.027566664 -0.054345705 0.82699996 9.2089552e-40
0.029141905 -0.054345712 0.82700002 7.3723433e-40
0.030717144 -0.054345708 0.82699996 4.6209078e-40
0.032292388 -0.054345712 0.82700002 7.3760147e-40
0.03386762 -0.054345705 0.82699996 1.0138198e-39
0.035442859 -0.054345701 0.82699996 9.2233605e-40
0.037018102 -0.054345716 0.82700002 8.3013902e-40
0.03868667 -0.054477148 0.829 7.3758326e-40
0.040168576 -0.054345705 0.82699996 6.4466456e-40
0.041743815 -0.054345712 0.82699996 5.5282205e-40
0.04331905 -0.054345708 0.82699996 4.6098936e-40
0.044894289 -0.05434572 0.82700002 7.3721471e-40
0.046469525 -0.054345716 0.82699996 9.2197171e-40
0.048044764 -0.054345708 0.82699996 7.3830913e-40
0.049620003 -0.054345716 0.82700002 5.5534299e-40
0.051071431 -0.054214295 0.82500005 2.7731276e-40
0.052770484 -0.054345716 0.82700002 9.2293721e-41
0.054345723 -0.054345712 0.82699996 9.1320771e-39
0.053571433 -0.049285714 0.75000006 2.3417689e-38
0.055000007 -0.049285717 0.75000006 2.3325493e-38
0.056278102 -0.049154297 0.74800003 2.3233299e-38
0.057702862 -0.049154285 0.74799997 2.3233299e-38
0.059285723 -0.049285717 0.75 2.3233299e-38
0.06071429 -0.049285725 0.75000006 2.3233299e-38
-0.010214286 -0.05264286 0.82500005 3.5949177e-39
-0.0087057166 -0.053025708 0.83099997 2.4820947e-39
-0.0071228575 -0.053025708 0.83099997 1.2889634e-39
-0.0055266684 -0.052898105 0.82900006 1.1063798e-39
-0.0039476184 -0.052898102 0.82900006 9.2270739e-40
-0.0023628599 -0.052770466 0.82699996 9.2270459e-40
-0.00078571582 -0.052642856 0.82499999 8.3051317e-40
0.00078571617 -0.052642863 0.82500005 6.4612611e-40
0.0023571425 -0.052642852 0.82499999 4.6244391e-40
0.0039285691 -0.052642848 0.82499999 4.624327e-40
0.0055000009 -0.05264286 0.82499999 4.624327e-40
0.007071428 -0.052642856 0.82499999 4.624341e-40
0.008642857 -0.05264286 0.82499999 4.6208377e-40
0.010214286 -0.052642856 0.82499999 4.6209218e-40
0.011785714 -0.05264286 0.82499999 4.6208658e-40
0.013357142 -0.052642856 0.82500005 4.6172224e-40
0.014928573 -0.052642852 0.82499999 4.624397e-40
0.016460001 -0.052515246 0.82300001 6.461107e-40
0.01802762 -0.052515239 0.82299995 8.2942856e-40
0.019595241 -0.05251525 0.82299995 7.3760007e-40
0.021214286 -0.052642852 0.82500005 5.542738e-40
0.022785714 -0.052642852 0.82500005 7.3793218e-40
0.024357144 -0.052642852 0.82500005 9.2124864e-40
0.025928572 -0.052642852 0.82500005 8.2906002e-40
0.027566664 -0.052770477 0.82700002 6.4575617e-40
0.029141903 -0.052770469 0.82699996 6.4540724e-40
0.03071714 -0.052770466 0.82699996 6.4613031e-40
0.032292385 -0.052770469 0.82699996 8.2980691e-40
0.03386762 -0.052770466 0.82699996 1.0141856e-39
0.035442859 -0.052770473 0.82700002 9.2269899e-40
0.037018098 -0.052770473 0.82699996 8.3014042e-40
0.038593337 -0.052770469 0.82699996 7.3794199e-40
0.040168572 -0.052770473 0.82700002 6.4502749e-40
0.041743811 -0.052770469 0.82699996 5.5283046e-40
0.04331905 -0.052770477 0.82700002 4.6099917e-40
0.044894289 -0.052770477 0.82699996 8.2870409e-40
0.046469528 -0.052770473 0.82699996 1.106007e-39
0.048044764 -0.052770481 0.82700002 6.4647503e-40
0.049619999 -0.052770473 0.82699996 9.4017318e-41
0.051195242 -0.052770469 0.82699996 9.2215248e-41
0.052770481 -0.052770473 0.82700002 1.170925e-40
0.054345723 -0.052770466 0.82699996 1.1825884e-38
0.055920959 -0.052770477 0.82700002 2.3411908e-38
0.052142866 -0.047857147 0.75000006 2.341769e-38
0.053571437 -0.047857147 0.75000006 2.341733e-38
0.055000003 -0.047857143 0.75 2.3325134e-38
0.056278102 -0.047729533 0.74800003 2.3233299e-38
0.057857152 -0.047857154 0.75000006 2.3233299e-38
0.059127621 -0.047729522 0.74799997 2.3233299e-38
-0.0086219041 -0.050947621 0.82300001 4.4192259e-39
-0.0070885727 -0.051195238 0.82700002 7.3543226e-40
-0.0055000009 -0.051071435 0.82500005 8.2909085e-40
-0.003947618 -0.051319059 0.82900006 1.0149086e-39
-0.0023628594 -0.051195234 0.82700002 8.308719e-40
-0.00078571256 -0.051071435 0.82500005 7.3904341e-40
0.00078571617 -0.051071435 0.82500005 7.3869028e-40
0.0023571439 -0.051071435 0.82500005 7.3796301e-40
0.0039285724 -0.051071431 0.82500005 6.4647643e-40
0.0055000014 -0.051071435 0.82500005 6.4647223e-40
0.0070714294 -0.051071435 0.82500005 6.4610789e-40
0.0086428579 -0.051071435 0.82500005 5.5428361e-40
0.010214286 -0.051071431 0.82500005 5.5429482e-40
0.011785716 -0.051071431 0.82500005 4.6244811e-40
0.013357144 -0.051071431 0.82500005 4.624369e-40
0.014928574 -0.051071431 0.82500005 5.5463533e-40
0.016500002 -0.051071431 0.82500005 6.461163e-40
0.01807143 -0.051071431 0.82500005 8.297985e-40
0.019642858 -0.051071431 0.82500005 7.3797422e-40
0.02121429 -0.051071435 0.82500005 6.4612331e-40
0.022785719 -0.051071435 0.82500005 7.3758326e-40
0.024357146 -0.051071435 0.82500005 8.2906562e-40
0.025991432 -0.051195234 0.82700002 8.2942856e-40
0.027566666 -0.05119523 0.82699996 8.3015443e-40
0.029141901 -0.051195223 0.82699996 1.0138324e-39
0.030717144 -0.051195238 0.82700002 1.2897061e-39
0.032292388 -0.05119523 0.82699996 1.1982363e-39
0.03386762 -0.051195227 0.82699996 1.1982237e-39
0.035442863 -0.051195234 0.82699996 1.0145387e-39
0.037018098 -0.051195227 0.82699996 9.2197872e-40
0.038593337 -0.051195242 0.82700002 7.3722312e-40
0.040168576 -0.051195238 0.82699996 6.4467156e-40
0.041743811 -0.05119523 0.82699996 8.2834396e-40
0.04331905 -0.051195238 0.82700002 1.0116632e-39
0.044894289 -0.05119523 0.82699996 1.4747938e-39
0.046469532 -0.051195238 0.82700002 1.9350446e-39
0.048044764 -0.051195234 0.82699996 1.0130996e-39
0.049619999 -0.051195227 0.82699996 9.2229261e-41
0.051195245 -0.051195234 0.82700002 4.1401601e-39
0.053280964 -0.051690474 0.83499998 8.2022511e-39
0.054871436 -0.051690478 0.83499998 1.5774537e-38
0.056461912 -0.051690482 0.83499998 2.341769e-38
0.052142866 -0.046428584 0.75000006 2.3325496e-38
0.053571437 -0.046428576 0.75000006 2.3325136e-38
0.055000007 -0.04642858 0.75000006 2.3233299e-38
0.056278102 -0.046304766 0.74799997 2.3233299e-38
0.057702865 -0.046304766 0.74799997 2.3233299e-38
0.059127621 -0.046304762 0.74799997 2.3233299e-38
-0.0086219059 -0.049380008 0.82300001 6.3575384e-39
-0.0070885746 -0.049619995 0.82699996 1.9377295e-40
-0.0055000018 -0.049499996 0.82499999 6.4323803e-40
-0.0039285701 -0.0495 0.82499999 1.0123891e-39
-0.0023571434 -0.049500003 0.82499999 8.3016845e-40
-0.00078571442 -0.0495 0.82499999 5.5538082e-40
0.00078571524 -0.0495 0.82499999 7.3905322e-40
0.0023571434 -0.049499996 0.82499999 9.2307453e-40
0.003928571 -0.049500003 0.82499999 9.2270739e-40
0.0055 -0.0495 0.82499999 8.3050756e-40
0.0070714289 -0.0495 0.82500005 7.379504e-40
0.008642857 -0.049499996 0.82499999 6.4647784e-40
0.010214285 -0.0495 0.82500005 5.5428921e-40
0.011785714 -0.049499996 0.82500005 4.6244531e-40
0.013357143 -0.049499992 0.82500005 5.5391507e-40
0.014928572 -0.049499996 0.82500005 5.54278e-40
0.0165 -0.049499996 0.82500005 7.3759447e-40
0.01807143 -0.049499996 0.82500005 8.3015163e-40
0.019642856 -0.049499992 0.82500005 7.3867907e-40
0.021214288 -0.049500003 0.82500005 6.4612051e-40
0.022785718 -0.0495 0.82500005 6.4539744e-40
0.024357144 -0.0495 0.82500005 6.4612191e-40
0.025991429 -0.049619995 0.82699996 8.2943977e-40
0.027566664 -0.049619988 0.82699996 9.2199413e-40
0.029141905 -0.049619991 0.82700002 1.381173e-39
0.030717144 -0.049619995 0.82699996 1.8414337e-39
0.032292385 -0.049619988 0.82699996 1.566293e-39
0.03386762 -0.049619995 0.82700002 1.2907739e-39
0.035442859 -0.049619991 0.82699996 1.1063728e-39
0.037018098 -0.049619984 0.82699996 9.2126406e-40
0.038593337 -0.049619999 0.82699996 8.2834956e-40
0.040168572 -0.049619995 0.82699996 6.4432544e-40
0.041743811 -0.049619999 0.82700002 1.1035085e-39
0.04331905 -0.049619995 0.82699996 1.5669992e-39
0.044894289 -0.049619988 0.82699996 2.1234002e-39
0.046469528 -0.049619999 0.82700002 2.6711635e-39
0.048044764 -0.049619991 0.82699996 1.3789884e-39
0.049620003 -0.049619995 0.82700002 9.2642644e-41
0.051195245 -0.049619991 0.82699996 8.1738776e-39
0.048367627 -0.045480005 0.75800002 1.6216039e-38
0.049811434 -0.045480005 0.75800002 1.9836106e-38
0.050849527 -0.045119997 0.75199997 2.3417689e-38
0.052142866 -0.045000002 0.75 2.3325494e-38
0.05357144 -0.045000009 0.75000006 2.3141463e-38
0.054853342 -0.044880006 0.74800003 2.3233299e-38
0.056278102 -0.044879999 0.74799997 2.3233299e-38
0.057702865 -0.044880003 0.74799997 2.3233299e-38
0.059127625 -0.044879999 0.74799997 2.3233299e-38
-0.0054999995 -0.047928579 0.82500005 4.2366311e-39
-0.003928571 -0.047928579 0.82500005 6.4324504e-40
-0.0023514277 -0.047812387 0.82300001 4.6176288e-40
-0.00078571407 -0.047928579 0.82500005 3.7279444e-40
0.00078571466 -0.047928579 0.82500005 6.4757926e-40
0.0023571434 -0.047928575 0.82500005 1.0163492e-39
0.003928571 -0.047928575 0.82500005 1.1071015e-39
0.0055133319 -0.048044749 0.82699996 1.1070973e-39
0.0070714289 -0.047928575 0.82500005 1.0145387e-39
0.0086428579 -0.047928572 0.82500005 9.2234446e-40
0.010214285 -0.047928572 0.82500005 8.3050756e-40
0.011785714 -0.047928575 0.82500005 8.3014462e-40
0.013357144 -0.047928583 0.82500005 8.3049775e-40
0.014928574 -0.047928579 0.82500005 9.2198012e-40
0.016500002 -0.047928579 0.82500005 1.0141786e-39
0.018071432 -0.047928579 0.82500005 1.1982055e-39
0.019642858 -0.047928579 0.82500005 1.1063658e-39
0.02121429 -0.047928575 0.82500005 1.0138184e-39
0.022785718 -0.047928579 0.82500005 8.3015303e-40
0.024357146 -0.047928587 0.82500005 6.4756665e-40
0.025991429 -0.048044749 0.82699996 8.3016845e-40
0.027566664 -0.048044745 0.82699996 9.227158e-40
0.029141905 -0.048044749 0.82699996 1.8446525e-39
0.030717144 -0.048044752 0.82699996 2.7612208e-39
0.032292388 -0.04804476 0.82700002 2.0276186e-39
0.03386762 -0.048044756 0.82699996 1.3836827e-39
0.035442859 -0.048044749 0.82699996 1.1060126e-39
0.037018102 -0.048044752 0.82700002 9.2019066e-40
0.038593337 -0.04804476 0.82699996 1.0116688e-39
0.040168576 -0.048044764 0.82700002 1.1949923e-39
0.041743811 -0.048044756 0.82699996 1.6574082e-39
0.04331905 -0.048044752 0.82699996 2.2123756e-39
0.044894289 -0.04804476 0.82700002 1.8479119e-39
0.046469525 -0.048044756 0.82699996 1.3897714e-39
0.048044764 -0.048044749 0.82699996 3.3096666e-39
0.049620003 -0.048044752 0.82700002 5.327322e-39
0.046800002 -0.043919995 0.75599998 1.2535834e-38
0.048367623 -0.044036191 0.75800002 1.9836072e-38
0.049811434 -0.044036195 0.75800002 2.158098e-38
0.050849527 -0.043687616 0.75199997 2.3325853e-38
0.052281909 -0.043687608 0.75199997 2.3233297e-38
0.053571437 -0.043571424 0.75 2.323294e-38
0.055000007 -0.043571435 0.75000006 2.3233299e-38
0.056278102 -0.043455236 0.74799997 2.3233299e-38
-0.0023514288 -0.046244767 0.82299995 1.8406756e-40
-0.00078571547 -0.046357144 0.82500005 9.439707e-41
0.00078761805 -0.046469517 0.82699996 6.4578139e-40
0.0023628566 -0.046469528 0.82700002 1.1060365e-39
0.0039285701 -0.04635714 0.82500005 1.2904277e-39
0.0055133309 -0.046469513 0.82699996 1.3829737e-39
0.0070714275 -0.046357136 0.82500005 1.2907739e-39
0.008642856 -0.046357144 0.82500005 1.1067385e-39
0.010214283 -0.04635714 0.82500005 1.1070916e-39
0.011785712 -0.04635714 0.82500005 1.107449e-39
0.013357143 -0.046357147 0.82500005 1.1989243e-39
0.014928573 -0.046357144 0.82500005 1.2907654e-39
0.0165 -0.046357144 0.82500005 1.3822478e-39
0.018115237 -0.046469517 0.82699996 1.474805e-39
0.019642856 -0.046357147 0.82500005 1.4744504e-39
0.021265713 -0.046469513 0.82699996 1.3808171e-39
0.022840954 -0.046469525 0.82700002 1.0138296e-39
0.024416192 -0.046469525 0.82699996 6.4577719e-40
0.025991429 -0.046469517 0.82699996 8.2873772e-40
0.027566668 -0.046469525 0.82700002 9.2957095e-40
0.029141903 -0.046469521 0.82699996 2.3135914e-39
0.030717144 -0.046469528 0.82700002 3.5985401e-39
0.032292388 -0.046469521 0.82699996 2.5822203e-39
0.03386762 -0.046469513 0.82699996 1.4747938e-39
0.035442863 -0.046469521 0.82700002 1.1971139e-39
0.037018102 -0.046469517 0.82699996 8.2836077e-40
0.038593337 -0.046469513 0.82699996 1.2868432e-39
0.040168572 -0.046469517 0.82700002 1.6563432e-39
0.041743815 -0.04646951 0.82699996 2.3024259e-39
0.04331905 -0.046469528 0.82700002 2.857724e-39
0.044894289 -0.046469521 0.82699996 1.4826831e-39
0.046469525 -0.046469517 0.82699996 9.8728483e-41
0.04804476 -0.046469521 0.82700002 5.326931e-39
0.045360006 -0.042480003 0.75599998 1.0513589e-38
0.046738107 -0.042423822 0.75500005 1.6989172e-38
0.048176203 -0.042423822 0.75500005 2.3417672e-38
0.049417146 -0.042255241 0.75199997 2.3325853e-38
0.050849527 -0.04225523 0.75199997 2.3233657e-38
0.052142866 -0.042142868 0.75000006 2.3232939e-38
0.053571437 -0.042142861 0.75000006 2.3232939e-38
0.055000007 -0.042142861 0.75 2.323294e-38
-0.00078762084 -0.044894282 0.82699996 5.1438934e-39
0.00078761909 -0.044894289 0.82700002 2.8483928e-39
0.0023628557 -0.044894286 0.82699996 6.447108e-40
0.0039285719 -0.044785716 0.82500005 6.4651567e-40
0.0055000014 -0.044785716 0.82500005 7.4193148e-40
0.0070714289 -0.044785716 0.82500005 6.4721772e-40
0.0086428579 -0.044785716 0.82500005 6.4792538e-40
0.010214286 -0.044785716 0.82500005 6.4755684e-40
0.011785715 -0.044785716 0.82500005 6.504281e-40
0.013357145 -0.044785719 0.82500005 6.4791837e-40
0.014928574 -0.044785719 0.82500005 7.411958e-40
0.016500002 -0.044785719 0.82500005 7.3940915e-40
0.018115239 -0.044894286 0.82700002 8.3340825e-40
0.019690476 -0.044894278 0.82699996 7.3799664e-40
0.021265715 -0.044894286 0.82700002 7.3583023e-40
0.022840953 -0.044894282 0.82699996 2.4810494e-39
0.024357146 -0.044785723 0.82500005 4.2248546e-39
0.025928576 -0.044785723 0.82500005 5.0675226e-39
0.027566664 -0.044894286 0.82699996 5.9891735e-39
0.029141903 -0.044894278 0.82699996 4.7125107e-39
0.030717144 -0.044894286 0.82700002 3.4310513e-39
0.032292385 -0.044894278 0.82699996 2.1237617e-39
0.03386762 -0.044894282 0.82700002 8.2799083e-40
0.035442863 -0.044894282 0.82699996 1.1960209e-39
0.037018098 -0.044894274 0.82699996 1.6538082e-39
0.038593337 -0.044894282 0.82700002 2.3002889e-39
0.040168572 -0.044894274 0.82699996 2.8516606e-39
0.041743811 -0.044894271 0.82699996 2.2138344e-39
0.04331905 -0.044894286 0.82699996 1.484125e-39
0.044894286 -0.044894278 0.82699996 3.2217771e-39
0.046357147 -0.044785716 0.82499999 4.961024e-39
0.043920003 -0.041040011 0.75599998 1.0972774e-38
0.045300007 -0.040985733 0.75500005 1.6982325e-38
0.046738099 -0.04098573 0.75500005 2.0201654e-38
0.048048574 -0.04087713 0.75299996 2.3417689e-38
0.049417142 -0.040822845 0.75199997 2.3325133e-38
0.050849527 -0.040822856 0.75199997 2.3232939e-38
0.052142866 -0.040714297 0.75000006 2.3232939e-38
0.05357144 -0.040714297 0.75000006 2.3232939e-38
-0.000787622 -0.043319039 0.82699996 1.0220038e-38
0.00078571407 -0.043214284 0.82500005 5.1432334e-39
0.0023571423 -0.04321428 0.82500005 9.9810286e-41
0.0039285705 -0.043214284 0.82500005 9.2274103e-41
0.0054999995 -0.04321428 0.82500005 9.4412484e-41
0.007071428 -0.043214284 0.82500005 9.2246077e-41
0.008642856 -0.04321428 0.82500005 9.3674e-41
0.010214285 -0.04321428 0.82500005 9.2590796e-41
0.011785714 -0.043214276 0.82500005 9.4387261e-41
0.013357143 -0.043214284 0.82500005 9.2596401e-41
0.014928574 -0.043214284 0.82500005 9.4039739e-41
0.01654 -0.043319043 0.82700002 9.2254484e-41
0.018115239 -0.043319046 0.82699996 9.405235e-41
0.019690476 -0.043319043 0.82699996 9.2262892e-41
0.021265713 -0.043319046 0.82700002 9.6246784e-41
0.022840953 -0.043319043 0.82699996 3.9494308e-39
0.024416192 -0.043319046 0.82700002 7.7394401e-39
0.025928572 -0.043214291 0.82500005 9.410417e-39
0.027566666 -0.043319039 0.82699996 1.1057698e-38
0.029141905 -0.043319043 0.82700002 7.2074063e-39
0.030717144 -0.043319039 0.82699996 3.2340693e-39
0.032214288 -0.043214288 0.82500005 1.6541936e-39
0.033867624 -0.043319039 0.82700002 9.477542e-41
0.035442859 -0.043319035 0.82699996 1.2893473e-39
0.037018102 -0.043319046 0.82700002 2.4857395e-39
0.038593341 -0.043319039 0.82699996 3.3173009e-39
0.040168572 -0.043319039 0.82699996 4.0498114e-39
0.041743811 -0.043319043 0.82700002 2.1244736e-39
0.04331905 -0.043319039 0.82699996 1.0017883e-40
0.044894293 -0.043319039 0.82699996 4.9596002e-39
0.042592388 -0.039704766 0.75799996 9.7781766e-39
0.043920003 -0.039600007 0.75599998 1.6620364e-38
0.045300007 -0.03954763 0.75500005 2.3415505e-38
0.046552382 -0.039390471 0.75200003 2.341769e-38
0.047984768 -0.039390463 0.75199997 2.3416971e-38
0.049417149 -0.039390475 0.75199997 2.3324415e-38
0.050714288 -0.039285716 0.75000006 2.3232939e-38
-0.00078762096 -0.041743807 0.82700002 1.0802702e-38
0.00078190729 -0.041440971 0.82100004 9.2209741e-39
0.0023514284 -0.041541908 0.82299995 7.6515016e-39
0.0039190482 -0.041541912 0.82300001 7.1847711e-39
0.0055000018 -0.041642863 0.82500005 6.614367e-39
0.0070714294 -0.041642863 0.82500005 6.1659304e-39
0.0086428588 -0.041642863 0.82500005 5.6027164e-39
0.010214286 -0.041642863 0.82500005 5.427292e-39
0.011785715 -0.041642863 0.82500005 5.1435403e-39
0.013357146 -0.041642871 0.82500005 5.3361838e-39
0.014928575 -0.041642871 0.82500005 5.511255e-39
0.01654 -0.0417438 0.82699996 6.0733985e-39
0.018115237 -0.041743807 0.82699996 6.6136467e-39
0.019690476 -0.041743811 0.82700002 7.0875294e-39
0.021265713 -0.041743804 0.82699996 7.6382747e-39
0.022840951 -0.0417438 0.82699996 8.4824618e-39
0.024416188 -0.041743807 0.82700002 9.2401018e-39
0.025928574 -0.041642867 0.82500005 7.4808739e-39
0.027500002 -0.041642867 0.82500005 5.736616e-39
0.029071432 -0.041642863 0.82500005 3.9708342e-39
0.030642858 -0.041642852 0.82499999 2.296305e-39
0.032214284 -0.041642852 0.82499999 1.5645231e-39
0.03386762 -0.041743796 0.82699996 9.2384105e-40
0.035442855 -0.041743793 0.82699996 1.6610488e-39
0.037018098 -0.041743804 0.82699996 2.4889975e-39
0.038593337 -0.0417438 0.82699996 2.3049622e-39
0.040168576 -0.041743807 0.82700002 2.1194569e-39
0.041743811 -0.0417438 0.82699996 4.2309138e-39
0.04331905 -0.041743796 0.82699996 6.4347191e-39
0.041148577 -0.038260967 0.75800002 1.1524525e-38
0.042480007 -0.038160011 0.75599998 1.6612123e-38
0.043861911 -0.038109526 0.75500005 2.0016907e-38
0.045000009 -0.037857145 0.75000006 2.341769e-38
0.04642858 -0.037857145 0.75000006 2.3416973e-38
0.04785715 -0.037857145 0.75 2.3324418e-38
0.049285721 -0.037857153 0.75000006 2.3324774e-38
0.050714295 -0.037857145 0.75000006 2.3232939e-38
0.00078000064 -0.039780002 0.81900007 1.3286214e-38
0.0023457159 -0.039877154 0.82100004 1.5201842e-38
0.0039190464 -0.03997428 0.82299995 1.4197389e-38
0.0055 -0.040071432 0.82500005 1.3173905e-38
0.0070714285 -0.040071428 0.82500005 1.2170154e-38
0.008642857 -0.040071428 0.82500005 1.1148118e-38
0.010214285 -0.040071428 0.82500005 1.068714e-38
0.011785714 -0.040071428 0.82500005 1.0227241e-38
0.013357144 -0.040071435 0.82500005 1.059745e-38
0.014928575 -0.040071432 0.82500005 1.0873681e-38
0.016500002 -0.040071435 0.82500005 1.1984684e-38
0.01807143 -0.040071432 0.82500005 1.3080624e-38
0.019690478 -0.040168568 0.82699996 1.4189837e-38
0.02121429 -0.040071428 0.82500005 1.519896e-38
0.022840954 -0.040168568 0.82700002 1.3009624e-38
0.024416188 -0.040168565 0.82699996 1.0690037e-38
0.025991429 -0.040168557 0.82699996 5.536463e-39
0.027566666 -0.040168565 0.82700002 3.8502497e-40
0.029141905 -0.040168557 0.82699996 8.2694406e-40
0.030717146 -0.040168565 0.82700002 1.2893641e-39
0.032292385 -0.040168561 0.82699996 1.4755589e-39
0.03386762 -0.040168554 0.82699996 1.6603131e-39
0.035528582 -0.040265724 0.82900006 2.0334018e-39
0.03719715 -0.040362865 0.83100003 2.3964488e-39
0.038780004 -0.040362857 0.83100003 1.294434e-39
0.040362861 -0.040362857 0.83099997 1.0059501e-40
0.037857149 -0.036428567 0.75 6.4290158e-39
0.039600004 -0.03672 0.75599998 1.2812365e-38
0.041040003 -0.036719989 0.75599998 1.8182653e-38
0.042423818 -0.036671441 0.75500005 2.3415152e-38
0.043571435 -0.036428571 0.75 2.341769e-38
0.044820003 -0.036282849 0.74699998 2.3416971e-38
0.04630477 -0.036331426 0.74799997 2.3324418e-38
0.047729529 -0.03633143 0.74799997 2.3232581e-38
0.0007799989 -0.038219996 0.81900007 9.0392649e-39
0.0023457166 -0.038313344 0.82100004 9.7847249e-39
0.0039190478 -0.03840667 0.82299995 9.8751381e-39
0.0055000028 -0.038500011 0.82500005 1.0070629e-38
0.0070714308 -0.038500015 0.82500005 1.015563e-38
0.0086428598 -0.038500015 0.82500005 1.0254989e-38
0.010214288 -0.038500011 0.82500005 1.0061623e-38
0.011814285 -0.038593326 0.82699996 9.8883439e-39
0.013389524 -0.038593329 0.82700002 9.9708397e-39
0.014964761 -0.038593326 0.82699996 9.9826835e-39
0.016539998 -0.038593322 0.82699996 9.7875387e-39
0.018115239 -0.038593329 0.82700002 9.7072106e-39
0.019690474 -0.038593322 0.82699996 9.5989015e-39
0.021265713 -0.038593326 0.82700002 9.51919e-39
0.022840951 -0.038593326 0.82699996 7.4703964e-39
0.024416188 -0.038593326 0.82699996 5.5152599e-39
0.025991431 -0.038593329 0.82700002 3.315468e-39
0.027566664 -0.038593326 0.82699996 1.1943057e-39
0.029141903 -0.038593322 0.82699996 1.7496444e-39
0.030717144 -0.038593337 0.82699996 2.3957159e-39
0.032292388 -0.038593329 0.82699996 1.9390425e-39
0.033867624 -0.038593333 0.82700002 1.4741253e-39
0.035528582 -0.038686678 0.82900006 2.1176913e-39
0.037376191 -0.038966671 0.83499998 2.758414e-39
0.038966671 -0.038966671 0.83499998 6.0770741e-39
0.036331434 -0.034906674 0.74799997 9.476868e-39
0.037857149 -0.035000004 0.75000006 1.3825866e-38
0.039285716 -0.034999996 0.75 1.8183048e-38
0.040714294 -0.035000008 0.75000006 2.0754461e-38
0.042030483 -0.034906678 0.74800003 2.341769e-38
0.043455239 -0.03490667 0.74799997 2.3325137e-38
0.044700008 -0.034766667 0.745 2.3324418e-38
0.0037238095 -0.035003807 0.78200001 5.6308937e-39
0.0052133314 -0.0350038 0.78200001 6.9230464e-39
0.0067028552 -0.0350038 0.78200001 8.1258762e-39
0.008192379 -0.035003796 0.78200001 9.2228743e-39
0.010214287 -0.036928575 0.82500005 9.4162254e-39
0.011785715 -0.036928575 0.82500005 9.5008821e-39
0.013389524 -0.03701809 0.82699996 9.3222291e-39
0.01496476 -0.037018087 0.82699996 9.0388235e-39
0.01654 -0.03701809 0.82700002 7.6594904e-39
0.018115237 -0.037018083 0.82699996 6.1836667e-39
0.019690476 -0.037018079 0.82699996 4.9790447e-39
0.021265713 -0.037018087 0.82699996 3.7854999e-39
