# .PCD v0.7 - Point Cloud Data file format
VERSION 0.7
FIELDS x y z rgb
SIZE 4 4 4 4
TYPE F F F F
COUNT 1 1 1 1
WIDTH 958
HEIGHT 1
VIEWPOINT 0 0 0 1 0 0 0
POINTS 958
DATA ascii
0.015048572 -0.029442864 0.68700004 1.1053526e-39
0.016357142 -0.029442865 0.68700004 1.2890362e-39
0.017717136 -0.02952859 0.68900001 1.3808605e-39
0.019029515 -0.029528597 0.68900001 1.2897313e-39
0.020341909 -0.029528582 0.68900001 1.2012071e-39
0.021685708 -0.029571453 0.69 5.5419505e-39
0.022999994 -0.029571449 0.69 9.8782882e-39
0.024314281 -0.029571453 0.69 1.042354e-38
0.025628567 -0.029571448 0.69 1.0873744e-38
0.026981909 -0.0296143 0.69100004 1.0047218e-38
0.0282981 -0.029614298 0.69099998 9.3107721e-39
0.029742854 -0.029742872 0.69400001 1.1990177e-38
0.03106476 -0.029742872 0.69400001 1.4764285e-38
0.032433335 -0.029785728 0.69499999 1.5589042e-38
0.033757146 -0.029785721 0.69500005 1.6319771e-38
0.035181902 -0.02987144 0.69700003 1.7520439e-38
0.036666654 -0.030000025 0.69999999 1.8731186e-38
0.037999984 -0.030000029 0.69999999 2.102925e-38
0.039389521 -0.030042872 0.70100003 2.341769e-38
-0.049848586 -0.029362878 0.71699995 2.2995168e-39
-0.048415251 -0.029321924 0.71599996 1.1942356e-39
-0.047051445 -0.029321922 0.71599996 1.0521369e-40
-0.045560006 -0.029240005 0.71399999 6.9391557e-39
-0.044200003 -0.029239999 0.71400005 1.3728536e-38
-0.042780012 -0.029199058 0.713 6.9965753e-39
-0.041247629 -0.029076202 0.71000004 2.0393657e-40
-0.039782867 -0.028994305 0.708 8.0325132e-39
-0.038380012 -0.028953353 0.70700002 1.5757139e-38
-0.036928587 -0.028871445 0.70500004 1.5037922e-38
-0.035535246 -0.028830491 0.704 1.4177947e-38
-0.034194298 -0.028830493 0.70400006 7.1635583e-39
-0.032806676 -0.028789541 0.70300001 9.2956535e-41
-0.031378098 -0.028707629 0.70100003 5.5430042e-40
-0.030000011 -0.028666683 0.69999999 1.0127716e-39
-0.028584778 -0.028584782 0.69799995 8.2803567e-40
-0.027255243 -0.028584767 0.69799995 5.5290053e-40
-0.025925728 -0.028584776 0.69799995 4.6036018e-40
-0.024560958 -0.028543817 0.69700003 3.699512e-40
-0.023233343 -0.028543826 0.69700003 7.3836238e-40
-0.02190572 -0.028543821 0.69700003 1.1053512e-39
-0.020519054 -0.028461916 0.69500005 8.2985175e-40
-0.019195238 -0.028461905 0.69500005 5.536278e-40
-0.017871428 -0.028461905 0.69500005 8.2913569e-40
-0.016523816 -0.028420964 0.69400001 1.104645e-39
-0.015180012 -0.028380021 0.69299996 1.1042891e-39
-0.013820003 -0.028298102 0.69099998 1.104282e-39
-0.012503816 -0.028298104 0.69100004 1.104275e-39
-0.011187624 -0.028298108 0.69099998 1.0135255e-39
-0.009871427 -0.028298097 0.69100004 1.1968462e-39
-0.0085428627 -0.028257154 0.69000006 1.2893936e-39
-0.007228577 -0.028257152 0.69000006 1.2897467e-39
-0.00591429 -0.028257152 0.69000006 1.2893908e-39
-0.0046000034 -0.02825715 0.69000006 1.0124522e-39
-0.0032857254 -0.02825716 0.69000006 6.4618917e-40
-0.001971439 -0.028257161 0.69000006 6.4619337e-40
-0.00065428438 -0.028134288 0.68700004 6.4727658e-40
0.00065428513 -0.028134288 0.68700004 8.2951824e-40
0.0019628559 -0.028134294 0.68700004 9.2063067e-40
0.0032714254 -0.028134294 0.68700004 5.5148942e-40
0.0045799948 -0.028134298 0.68700004 1.0062304e-40
0.0058799936 -0.028093349 0.68599999 4.7918284e-39
0.0071971444 -0.028134292 0.68700004 9.499136e-39
0.0084933285 -0.028093347 0.68599999 1.2282922e-38
0.0097999945 -0.028093344 0.68599999 1.5013854e-38
0.011106652 -0.028093359 0.68599999 7.7411749e-39
0.012431431 -0.028134288 0.68700004 3.7961876e-40
0.013719985 -0.028093359 0.68599999 1.0106221e-39
0.015048572 -0.028134296 0.68700004 1.5634483e-39
0.016357141 -0.028134296 0.68700004 1.5638253e-39
0.01771714 -0.028216204 0.68900001 1.4727044e-39
0.019029513 -0.028216207 0.68899995 8.3021329e-40
0.020341903 -0.028216207 0.68900001 9.9511809e-41
0.021654276 -0.028216215 0.68899995 3.8752082e-39
0.022999991 -0.028257163 0.69 7.6595072e-39
0.024314282 -0.028257167 0.69 9.9726446e-39
0.025628567 -0.028257161 0.69 1.2169513e-38
0.026942845 -0.028257176 0.69 1.1244334e-38
0.028298102 -0.0282981 0.69100004 1.0239184e-38
0.029742856 -0.028420961 0.69400001 1.1896189e-38
0.031064766 -0.028420961 0.69400001 1.3471404e-38
0.032433335 -0.028461916 0.69499999 1.5780587e-38
0.033757143 -0.028461922 0.69500005 1.8067858e-38
0.035181902 -0.028543824 0.69700003 1.6036348e-38
0.036561903 -0.028584773 0.69799995 1.3940665e-38
0.037999991 -0.02866669 0.69999999 1.8734078e-38
0.039333317 -0.02866669 0.69999999 2.341769e-38
0.040724758 -0.02870764 0.70100003 2.341769e-38
-0.048482861 -0.027997149 0.71699995 1.9300098e-39
-0.047117159 -0.02799716 0.71699995 1.7457222e-39
-0.045560002 -0.02788 0.71400005 7.296847e-39
-0.044200003 -0.027880004 0.71400005 1.2730529e-38
-0.042780008 -0.027840963 0.713 9.025144e-39
-0.041305721 -0.027762871 0.71100003 5.3273892e-39
-0.039895244 -0.027723817 0.71000004 9.4055167e-39
-0.038434293 -0.027645724 0.708 1.3558553e-38
-0.037033346 -0.027606683 0.70700002 1.3650739e-38
-0.035585724 -0.027528584 0.70500004 1.3817071e-38
-0.034194298 -0.027489537 0.704 6.9913485e-39
-0.032853346 -0.027489541 0.704 9.2220853e-41
-0.031378109 -0.027372397 0.70099998 5.5392207e-40
-0.030000016 -0.027333356 0.70000005 1.014194e-39
-0.028584767 -0.027255246 0.69799995 8.2982373e-40
-0.027255243 -0.027255243 0.69799995 6.4652688e-40
-0.025925718 -0.027255241 0.69799995 5.5434807e-40
-0.024560964 -0.027216205 0.69700003 5.5469979e-40
-0.023233339 -0.027216198 0.69700003 9.2203337e-40
-0.021905717 -0.027216194 0.69700003 1.3808619e-39
-0.020578101 -0.027216202 0.69700003 9.2133552e-40
-0.019195246 -0.027138105 0.69500005 5.5398933e-40
-0.017871436 -0.027138105 0.69500005 9.2096838e-40
-0.016523812 -0.027099052 0.69400001 1.3801515e-39
-0.015136197 -0.026981914 0.69099998 1.1961273e-39
-0.013820007 -0.026981918 0.69100004 1.1042792e-39
-0.012503818 -0.026981918 0.69099998 1.0131486e-39
-0.011171437 -0.02694287 0.69 1.0145975e-39
-0.0098571498 -0.02694287 0.69 1.1060869e-39
-0.0085428711 -0.026942879 0.69 1.1979196e-39
-0.0072285766 -0.026942866 0.69 1.2901096e-39
-0.0059142979 -0.026942877 0.69 1.2901096e-39
-0.0046000127 -0.026942877 0.69000006 1.1060799e-39
-0.0032857261 -0.026942875 0.69 9.2241172e-40
-0.0019685754 -0.026903816 0.68900001 8.3165382e-40
-0.00065429206 -0.026825728 0.68699998 8.3273563e-40
0.00065428583 -0.026825719 0.68700004 9.2278166e-40
0.0019599933 -0.026786679 0.68600005 1.1060869e-39
0.0032666619 -0.026786681 0.68600005 8.2913849e-40
0.0045733275 -0.026786679 0.68600005 6.4368645e-40
0.0058799954 -0.026786678 0.68600005 2.6737644e-39
0.0071866633 -0.026786679 0.68599999 4.7993506e-39
0.0084933285 -0.026786678 0.68599999 8.8595792e-39
0.0097999964 -0.026786679 0.68599999 1.3002143e-38
0.011106664 -0.026786678 0.68599999 9.5926713e-39
0.012413321 -0.026786687 0.68599999 6.2660939e-39
0.013719989 -0.026786687 0.68599999 3.4966264e-39
0.015026657 -0.026786687 0.68599999 8.2875874e-40
0.016333323 -0.026786691 0.68599999 1.196842e-39
0.017665718 -0.026825717 0.68700004 1.5649085e-39
0.018974278 -0.026825732 0.68700004 1.0128249e-39
0.020282857 -0.02682572 0.68700004 3.6853449e-40
0.021654287 -0.026903823 0.68900001 2.1234464e-39
0.022966661 -0.026903827 0.68900001 3.9735107e-39
0.024279043 -0.026903829 0.68900001 7.3883658e-39
0.025628559 -0.026942877 0.69 1.0800977e-38
0.026942853 -0.026942877 0.69 1.024529e-38
0.028257139 -0.026942879 0.69000006 9.7914988e-39
0.029614288 -0.026981922 0.69100004 1.0060554e-38
0.030930482 -0.026981907 0.69100004 1.0341814e-38
0.032339998 -0.027060008 0.69299996 1.2642736e-38
0.033757143 -0.027138112 0.69500005 1.4950456e-38
0.035080962 -0.027138099 0.69500005 1.5125869e-38
0.036509518 -0.027216205 0.69700003 1.5392805e-38
0.037891425 -0.027255246 0.69799995 1.8165127e-38
0.039333325 -0.027333355 0.69999999 2.0846295e-38
0.040666658 -0.027333358 0.69999999 2.2131993e-38
-0.048618112 -0.026705731 0.71899998 2.5717989e-39
-0.047248594 -0.026705736 0.71899998 3.4217382e-39
-0.045687634 -0.026594305 0.71599996 7.5881587e-39
-0.044200014 -0.026520019 0.71399999 1.1706718e-38
-0.042780016 -0.026482878 0.71299994 1.1046603e-38
-0.041305721 -0.026408589 0.71099997 1.0409909e-38
-0.039895244 -0.026371432 0.70999998 1.0887439e-38
-0.038434297 -0.026297158 0.708 1.125514e-38
-0.037033334 -0.026260003 0.70700002 1.2372232e-38
-0.035686675 -0.026260013 0.70700002 1.3448306e-38
-0.034242868 -0.026185723 0.70500004 6.8008714e-39
-0.032853343 -0.026148587 0.704 9.4387261e-41
-0.031467631 -0.026111446 0.70300001 5.5465916e-40
-0.030000012 -0.026000019 0.70000005 9.2236828e-40
-0.028584775 -0.025925731 0.69799995 8.2982373e-40
-0.027255248 -0.025925728 0.69799995 6.4723594e-40
-0.025925724 -0.025925728 0.69799995 6.4724435e-40
-0.024596198 -0.025925724 0.69799995 6.4652408e-40
-0.023233335 -0.025888575 0.69700003 1.1053414e-39
-0.02190572 -0.025888583 0.69700003 1.5641672e-39
-0.020578105 -0.025888586 0.69700003 1.0128025e-39
-0.019250482 -0.025888583 0.69700003 4.617895e-40
-0.017871436 -0.025814293 0.69500005 1.0120864e-39
-0.016523816 -0.025777154 0.69400001 1.5634609e-39
-0.015136193 -0.025665717 0.69100004 1.3797927e-39
-0.013820012 -0.025665732 0.69099998 1.1049967e-39
-0.012485724 -0.025628585 0.69 1.0127941e-39
-0.011171445 -0.025628597 0.69 9.2240892e-40
-0.0098571582 -0.025628597 0.69 1.0146186e-39
-0.008542873 -0.025628595 0.69 1.1064471e-39
-0.007228585 -0.025628593 0.69 1.1982755e-39
-0.0059142988 -0.025628593 0.69 1.2901082e-39
-0.0046000127 -0.025628591 0.69 1.2908243e-39
-0.0032809631 -0.025591448 0.68900001 1.1989916e-39
-0.0019685805 -0.025591444 0.68900001 1.1082365e-39
-0.0006533431 -0.025480021 0.68599999 9.2385366e-40
0.00065332366 -0.025480019 0.68599999 1.1068128e-39
0.0019542729 -0.025405737 0.68400002 1.2901208e-39
0.0032571338 -0.025405729 0.68400002 1.1982825e-39
0.0045599877 -0.025405737 0.68400002 1.1053779e-39
0.0058628498 -0.025405731 0.68400002 6.4369766e-40
0.0071657011 -0.025405737 0.68400002 1.0529637e-40
0.0084685637 -0.025405733 0.68400002 5.5372785e-39
0.0097714178 -0.025405737 0.68399996 1.0880958e-38
0.011074279 -0.025405731 0.68399996 1.1544257e-38
0.012377131 -0.025405739 0.68399996 1.2065052e-38
0.013679991 -0.025405729 0.68399996 6.0651701e-39
0.015026659 -0.025480019 0.68599999 9.4804848e-41
0.016333325 -0.025480017 0.68599999 9.2134253e-40
0.017639993 -0.025480023 0.68599999 1.656388e-39
0.018946659 -0.025480021 0.68599999 1.1961372e-39
0.020253327 -0.025480019 0.68599999 6.4476545e-40
0.021591423 -0.025517153 0.68700004 4.6001966e-40
0.022966662 -0.025591446 0.68899995 1.9818844e-40
0.024279047 -0.025591442 0.68900001 4.8065098e-39
0.025591422 -0.02559145 0.68899995 9.4072585e-39
0.026903804 -0.025591446 0.68900001 9.3279843e-39
0.028257139 -0.025628593 0.69 9.2221582e-39
0.029571421 -0.025628587 0.69 8.2126866e-39
0.030885711 -0.025628591 0.69 7.1978368e-39
0.032246668 -0.025665725 0.69100004 9.4980332e-39
0.033757143 -0.025814297 0.69500005 1.1717191e-38
0.035030466 -0.025777167 0.69399995 1.4307997e-38
0.036404766 -0.0258143 0.69500005 1.6866111e-38
0.03783714 -0.025888588 0.69700003 1.7595407e-38
0.039220948 -0.025925731 0.69799995 1.8258372e-38
0.04055047 -0.025925726 0.69799995 2.0846296e-38
0.041999992 -0.026000019 0.70000005 2.341769e-38
-0.048618112 -0.025336208 0.71899998 3.6892657e-39
-0.047314297 -0.02537144 0.72000003 6.3723305e-39
-0.045496203 -0.025124779 0.71300006 7.5709592e-39
-0.044138111 -0.025124783 0.713 8.849424e-39
-0.042780016 -0.025124785 0.713 9.956056e-39
-0.041305717 -0.025054295 0.71100003 1.1163964e-38
-0.039895244 -0.025019052 0.70999998 9.3151133e-39
-0.038434297 -0.024948591 0.708 7.5591266e-39
-0.037033342 -0.02491335 0.70700002 1.0610511e-38
-0.035686675 -0.024913346 0.70700002 1.3640239e-38
-0.034242868 -0.024842869 0.70500004 6.9056297e-39
-0.032853343 -0.024807634 0.704 9.2248879e-41
-0.031378105 -0.024701918 0.70099998 6.4615414e-40
-0.030000007 -0.02466668 0.70000005 1.1071239e-39
-0.028584771 -0.024596209 0.69799995 9.2309275e-40
-0.027255248 -0.024596203 0.69799995 7.4014063e-40
-0.025925722 -0.024596201 0.69799995 6.4722893e-40
-0.024596198 -0.024596199 0.69800001 6.4615554e-40
-0.023233339 -0.024560964 0.69700003 9.213061e-40
-0.021905724 -0.024560967 0.69699997 1.1960993e-39
-0.020578103 -0.024560964 0.69700003 9.2095577e-40
-0.019250486 -0.024560971 0.69700003 7.3729038e-40
-0.017871432 -0.024490481 0.69500005 1.0124437e-39
-0.016547624 -0.024490485 0.69500005 1.2879516e-39
-0.015136195 -0.024349533 0.69099998 1.1049981e-39
-0.013820007 -0.024349535 0.69100004 1.014236e-39
-0.012485726 -0.024314303 0.69000006 8.3020348e-40
-0.01117144 -0.024314301 0.69000006 7.3874353e-40
-0.0098571526 -0.024314301 0.69000006 8.3059584e-40
-0.0085428655 -0.024314301 0.69000006 1.014257e-39
-0.0072285784 -0.024314299 0.69000006 1.105724e-39
-0.0059057218 -0.024279062 0.68900001 1.2897495e-39
-0.0045933384 -0.024279056 0.68900001 1.2901026e-39
-0.0032809547 -0.024279052 0.68900001 1.2908257e-39
-0.0019685784 -0.024279062 0.68900001 1.1071603e-39
-0.00065144087 -0.024102878 0.68399996 9.2277886e-40
0.00065141189 -0.024102883 0.68399996 1.198291e-39
0.0019542731 -0.02410288 0.68399996 1.4741562e-39
0.0032571258 -0.024102885 0.68399996 1.3830367e-39
0.0045599868 -0.02410288 0.68399996 1.3841171e-39
0.0058628405 -0.024102883 0.68399996 1.1061023e-39
0.0071657025 -0.02410288 0.68399996 8.2810153e-40
0.0084685544 -0.024102885 0.68399996 3.138355e-39
0.009771416 -0.02410288 0.68399996 5.5419448e-39
0.01107427 -0.024102887 0.68399996 8.5851531e-39
0.012377132 -0.024102878 0.68399996 1.1619557e-38
0.013679984 -0.024102885 0.68399996 8.3833171e-39
0.014982853 -0.024102869 0.68400002 5.2368878e-39
0.016285706 -0.024102876 0.68400002 3.2175943e-39
0.017588558 -0.024102883 0.68400002 1.290125e-39
0.01889142 -0.024102876 0.68400002 1.197212e-39
0.020253327 -0.024173347 0.68600005 1.1046674e-39
0.021559991 -0.024173349 0.68600005 9.2064608e-40
0.022900004 -0.024208577 0.68700004 7.3626604e-40
0.024208566 -0.024208587 0.68700004 2.8606864e-39
0.025591429 -0.024279056 0.68900001 4.9786635e-39
0.026903804 -0.024279064 0.68900001 4.8872078e-39
0.028216191 -0.02427906 0.68900001 4.7813789e-39
0.029528569 -0.024279064 0.68900001 4.2371776e-39
0.030885708 -0.024314307 0.69000006 3.7697451e-39
0.032199994 -0.024314307 0.69000006 4.7939205e-39
0.033659995 -0.024420025 0.69299996 5.9075114e-39
0.034979995 -0.024420023 0.69300002 1.0149608e-38
0.036352381 -0.024455253 0.69399995 1.4382598e-38
0.037728582 -0.024490478 0.69500005 1.5579635e-38
0.039164759 -0.024560971 0.69700003 1.6868258e-38
0.040492371 -0.024560975 0.69700003 2.0100491e-38
0.041880004 -0.024596203 0.69800001 2.341769e-38
0.043209527 -0.024596198 0.69800001 2.341769e-38
-0.047314301 -0.024000015 0.71999997 9.3103475e-39
-0.045751441 -0.023900023 0.71699995 7.6577136e-39
-0.044385731 -0.023900023 0.71699989 5.9106573e-39
-0.042840011 -0.023800008 0.71400005 8.8561811e-39
-0.041305721 -0.023700012 0.71100003 1.1797104e-38
-0.039895244 -0.023666672 0.71000004 7.8338638e-39
-0.038434297 -0.023600008 0.708 3.798141e-39
-0.037033342 -0.02356668 0.70700002 8.8706341e-39
-0.035686672 -0.02356668 0.70700002 1.3817087e-38
-0.034242872 -0.023500012 0.70500004 6.9967589e-39
-0.03285335 -0.023466693 0.704 9.7638273e-41
-0.031467631 -0.023433352 0.70300001 7.3907284e-40
-0.030042864 -0.023366673 0.70100003 1.2900802e-39
-0.028666679 -0.023333354 0.69999999 1.0145681e-39
-0.027333349 -0.023333358 0.69999999 7.3905322e-40
-0.025925722 -0.023266673 0.69799995 7.3832875e-40
-0.024596203 -0.023266682 0.69799995 6.4614713e-40
-0.023266677 -0.023266682 0.69799995 7.3691764e-40
-0.021905722 -0.023233345 0.69700003 8.2911467e-40
-0.020578105 -0.023233349 0.69700003 9.2095157e-40
-0.019195242 -0.02316667 0.69500005 9.2059704e-40
-0.017871439 -0.023166681 0.69499999 1.012078e-39
-0.016523816 -0.023133347 0.69400001 1.0128025e-39
-0.015136193 -0.023033336 0.69100004 9.2169005e-40
-0.013820011 -0.023033347 0.69099998 8.3020348e-40
-0.012485725 -0.023000019 0.69 6.4652128e-40
-0.011171439 -0.023000017 0.69 4.628657e-40
-0.0098571526 -0.023000017 0.69 6.465507e-40
-0.0085428664 -0.023000015 0.69 8.3022029e-40
-0.0072285794 -0.023000015 0.69 1.1046478e-39
-0.0059057199 -0.022966677 0.68900001 1.289039e-39
-0.0045933449 -0.022966683 0.68900001 1.2886831e-39
-0.0032809607 -0.022966681 0.68900001 1.2901166e-39
-0.0019628569 -0.022900004 0.68700004 1.1060869e-39
-0.00065144227 -0.022800025 0.68400002 9.2241873e-40
0.00065141864 -0.022800017 0.68400002 1.2890475e-39
0.0019542724 -0.022800026 0.68400002 1.5659903e-39
0.0032571345 -0.022800021 0.68400002 1.5670665e-39
0.0045599882 -0.022800025 0.68400002 1.5681455e-39
0.0058542783 -0.022766681 0.68300003 1.5688643e-39
0.007165703 -0.022800023 0.68400002 1.4738044e-39
0.0084685627 -0.022800019 0.68399996 8.2916652e-40
0.0097714169 -0.022800026 0.68399996 1.099669e-40
0.011074279 -0.022800019 0.68399996 5.6345048e-39
0.012377133 -0.022800026 0.68399996 1.1061378e-38
0.013679992 -0.022800021 0.68399996 1.0795166e-38
0.014982844 -0.022800025 0.68399996 1.0401606e-38
0.016285701 -0.022800032 0.68399996 5.6056815e-39
0.01758856 -0.022800023 0.68399996 8.2987558e-40
0.018891413 -0.02280003 0.68399996 1.1979322e-39
0.020194273 -0.022800026 0.68399996 1.5645595e-39
0.021497127 -0.022800034 0.68399996 1.38089e-39
0.022866663 -0.022866679 0.68600005 1.1972232e-39
0.024208564 -0.022900017 0.68700004 9.2172088e-40
0.025517143 -0.02290001 0.68700004 5.5833056e-40
0.026903801 -0.022966687 0.68899995 4.6076095e-40
0.028216187 -0.022966687 0.68900001 3.7035898e-40
0.029528569 -0.022966683 0.68899995 3.6784785e-40
0.030885711 -0.023000021 0.69 2.7779341e-40
0.032199994 -0.023000021 0.69 1.8415164e-40
0.033514284 -0.023000019 0.69 1.0745157e-40
0.034879059 -0.023033334 0.69100004 5.9997e-39
0.0363 -0.023100017 0.69300002 1.1802558e-38
0.037674282 -0.023133356 0.69399995 1.3655773e-38
0.039052382 -0.023166679 0.69500005 1.5402481e-38
0.040492378 -0.023233335 0.69700003 1.9453328e-38
0.041879997 -0.023266688 0.69799995 2.341374e-38
0.043209516 -0.023266682 0.69799995 2.341769e-38
-0.047314297 -0.022628577 0.72000003 9.2256853e-39
-0.045751438 -0.022534302 0.71699989 8.0242778e-39
-0.04438572 -0.02253429 0.71699995 6.9122088e-39
-0.042840004 -0.022440003 0.71400005 9.5001043e-39
-0.041305717 -0.02234572 0.71100003 1.2170881e-38
-0.039895244 -0.02231429 0.71000004 8.2079782e-39
-0.038434301 -0.022251451 0.70799994 4.2454467e-39
-0.037085719 -0.022251444 0.70799994 7.4772922e-39
-0.035686675 -0.022220014 0.70700002 1.0700054e-38
-0.034340009 -0.022220008 0.70700002 5.4380764e-39
-0.032853343 -0.022125728 0.70400006 2.7593669e-40
-0.031467628 -0.022094296 0.70299995 8.2983774e-40
-0.030042861 -0.022031436 0.70100003 1.4733939e-39
-0.028584771 -0.021937156 0.69799995 1.1060421e-39
-0.027255245 -0.021937154 0.69799995 7.3796721e-40
-0.02592572 -0.021937151 0.69799995 7.3831053e-40
-0.024596194 -0.021937149 0.69799995 7.3797282e-40
-0.023233339 -0.021905724 0.69700003 6.4615834e-40
-0.021905724 -0.02190573 0.69700003 5.5360538e-40
-0.02051905 -0.021842858 0.69500005 1.0124241e-39
-0.01919524 -0.021842858 0.69500005 1.4708869e-39
-0.01784572 -0.021811435 0.69400001 1.195742e-39
-0.016500007 -0.021780008 0.69300002 1.0124423e-39
-0.015180005 -0.021780007 0.69300002 9.2133552e-40
-0.013800006 -0.021685725 0.69000006 9.2131731e-40
-0.012485719 -0.021685723 0.69000006 7.376281e-40
-0.011171433 -0.021685721 0.69000006 5.5432845e-40
-0.0098428605 -0.021654295 0.68900001 8.2984755e-40
-0.0085304854 -0.0216543 0.68900001 1.1057184e-39
-0.0072181015 -0.021654299 0.68900001 1.1972007e-39
-0.0058885743 -0.021591436 0.68700004 1.2886873e-39
-0.0045800046 -0.02159144 0.68700004 1.3812501e-39
-0.0032714349 -0.02159144 0.68699998 1.4741548e-39
-0.001962858 -0.021591432 0.68700004 1.2897593e-39
-0.00065144227 -0.021497166 0.68399996 1.0142542e-39
0.00065141887 -0.021497158 0.68399996 1.2901208e-39
0.0019542726 -0.021497166 0.68399996 1.6581831e-39
0.0032571256 -0.021497173 0.68399996 1.6596194e-39
0.0045599863 -0.021497166 0.68399996 1.7521738e-39
0.0058542802 -0.021465724 0.68299997 1.6599796e-39
0.0071552293 -0.02146573 0.68300003 1.5674182e-39
0.0084561873 -0.021465721 0.68300003 1.1078736e-39
0.0097571388 -0.021465724 0.68300003 7.4020929e-40
0.011058097 -0.021465717 0.68300003 3.2334345e-39
0.01235904 -0.021465732 0.68300003 5.8192296e-39
0.013659997 -0.021465726 0.68300003 8.0305066e-39
0.014960948 -0.021465726 0.68299997 1.0233768e-38
0.016261905 -0.021465719 0.68300003 6.0795726e-39
0.017562848 -0.021465732 0.68299997 1.8379178e-39
0.018863805 -0.021465724 0.68300003 1.4723653e-39
0.020164756 -0.021465728 0.68299997 1.1975721e-39
0.021465708 -0.021465732 0.68300003 1.1979266e-39
0.022799995 -0.021497158 0.68400002 1.2901208e-39
0.024102848 -0.021497166 0.68399996 1.1064499e-39
0.025479995 -0.021560017 0.68599999 8.3093356e-40
0.026825715 -0.021591444 0.68700004 1.0138773e-39
0.028134292 -0.021591432 0.68700004 1.2893866e-39
0.029442852 -0.021591445 0.68700004 1.1971951e-39
0.030751429 -0.02159144 0.68700004 1.1053386e-39
0.032153334 -0.021654293 0.68900001 6.4506393e-40
0.033465713 -0.0216543 0.68900001 1.8450476e-40
0.0347781 -0.021654299 0.68900001 3.0490349e-39
0.036090475 -0.021654306 0.68900001 6.0086361e-39
0.037402857 -0.021654302 0.68900001 1.0063446e-38
0.03899619 -0.021811439 0.69399995 1.4112127e-38
0.040376194 -0.021842873 0.69500005 1.8073275e-38
0.041700002 -0.021842867 0.69500005 2.2040148e-38
0.043147616 -0.02190573 0.69700003 2.2774842e-38
0.044347618 -0.021842871 0.69500005 2.341769e-38
-0.041305713 -0.020991439 0.71100003 1.2536781e-38
-0.039895251 -0.02096192 0.70999998 8.6728758e-39
-0.038434304 -0.020902881 0.70799994 4.7078121e-39
-0.037085723 -0.020902874 0.70799994 6.0921661e-39
-0.035686679 -0.020873355 0.70700002 7.4664111e-39
-0.034242876 -0.020814305 0.70500004 3.9629715e-39
-0.032853343 -0.020784775 0.704 4.6570473e-40
-0.031467624 -0.020755246 0.70300001 1.0145821e-39
-0.030000012 -0.020666687 0.69999999 1.5655853e-39
-0.028584771 -0.02060763 0.69800001 1.1060393e-39
-0.027255246 -0.02060763 0.69800001 6.4650166e-40
-0.025925729 -0.020607635 0.69799995 7.3833575e-40
-0.02456096 -0.020578105 0.69700003 8.3054399e-40
-0.023233345 -0.020578111 0.69700003 5.5648785e-40
-0.021905722 -0.020578107 0.69700003 1.87348e-40
-0.020519055 -0.020519061 0.69500005 1.1046226e-39
-0.019195246 -0.020519059 0.69500005 1.9304204e-39
-0.017845724 -0.020489536 0.69400001 1.4712401e-39
-0.016500009 -0.020460013 0.69300002 9.2059844e-40
-0.015136192 -0.020400954 0.69100004 1.0128053e-39
-0.013800006 -0.020371439 0.69 1.0131528e-39
-0.012485729 -0.02037145 0.69 8.283944e-40
-0.011171442 -0.02037145 0.69 6.4580942e-40
-0.0098571545 -0.020371448 0.69 1.0128039e-39
-0.0085428683 -0.020371448 0.69 1.2890306e-39
-0.0072285817 -0.020371445 0.69 1.2890334e-39
-0.0059057237 -0.02034192 0.68899995 1.2890404e-39
-0.0045799986 -0.020282859 0.68700004 1.4730772e-39
-0.0032714352 -0.020282872 0.68700004 1.6571041e-39
-0.0019600047 -0.020253344 0.68600005 1.3812361e-39
-0.00065143645 -0.020194298 0.68400002 1.1064499e-39
0.00065141724 -0.020194305 0.68400002 1.382678e-39
0.0019542701 -0.020194313 0.68400002 1.658902e-39
0.0032571321 -0.020194305 0.68400002 1.844368e-39
0.0045533245 -0.02016478 0.68299997 1.9362035e-39
0.0058542825 -0.020164773 0.68300003 1.7514563e-39
0.0071552345 -0.020164775 0.68299997 1.5684972e-39
0.008456191 -0.020164765 0.68300003 1.478091e-39
0.0097571351 -0.020164782 0.68299997 1.2926432e-39
0.011058094 -0.020164775 0.68300003 9.2352435e-40
0.01235905 -0.020164767 0.68300003 4.7946408e-40
0.013659991 -0.020164778 0.68300003 5.2728983e-39
0.01496095 -0.020164775 0.68300003 1.0044003e-38
0.0162619 -0.020164775 0.68299997 6.4577172e-39
0.017562859 -0.020164767 0.68300003 2.8621199e-39
0.018863801 -0.020164778 0.68299997 1.8400688e-39
0.02016476 -0.020164771 0.68300003 7.3875334e-40
0.021465711 -0.020164775 0.68299997 1.1060869e-39
0.022766668 -0.020164767 0.68300003 1.3823109e-39
0.024102839 -0.02019432 0.68399996 1.2911914e-39
0.025405701 -0.020194313 0.68399996 1.1071575e-39
0.026786661 -0.020253351 0.68599999 1.6581649e-39
0.02813429 -0.020282863 0.68700004 2.1177025e-39
0.02944286 -0.020282865 0.68700004 2.0265859e-39
0.030751429 -0.02028287 0.68700004 1.9332972e-39
0.032060001 -0.020282872 0.68700004 1.1056819e-39
0.033368569 -0.020282874 0.68700004 2.7883317e-40
0.034677137 -0.020282874 0.68700004 1.870285e-40
0.035985719 -0.020282865 0.68700004 1.1677861e-40
0.037402861 -0.02034192 0.68900001 6.4764484e-39
0.038771424 -0.02037145 0.69000006 1.2729554e-38
0.040143814 -0.020400966 0.69100004 1.6687132e-38
0.041579999 -0.020460013 0.69300002 2.0651852e-38
0.042899996 -0.020460019 0.69299996 2.2040158e-38
0.044347622 -0.020519057 0.69500005 2.341769e-38
0.045671429 -0.020519065 0.69500005 2.341769e-38
-0.039895248 -0.019609539 0.70999998 7.9292039e-39
-0.038542863 -0.019609533 0.70999998 4.6873237e-39
-0.037085727 -0.019554304 0.70799994 4.2378166e-39
-0.035737157 -0.019554308 0.70799994 3.8751115e-39
-0.034340005 -0.019526677 0.70700002 2.3985423e-39
-0.03285335 -0.01944383 0.704 9.2559967e-40
-0.031467631 -0.019416206 0.70300001 1.2911606e-39
-0.030000009 -0.01933335 0.70000005 1.657418e-39
-0.028584767 -0.019278103 0.69799995 1.2900662e-39
-0.027255245 -0.019278102 0.69799995 9.2201936e-40
-0.025888581 -0.019250484 0.69700003 9.2167184e-40
-0.024560964 -0.019250492 0.69700003 9.2168164e-40
-0.023233343 -0.019250488 0.69700003 6.4725976e-40
-0.021842862 -0.019195246 0.69500005 4.6358036e-40
-0.020519054 -0.019195247 0.69500005 9.213131e-40
-0.019195244 -0.019195247 0.69500005 1.4712415e-39
-0.017845728 -0.019167636 0.69399995 1.1038897e-39
-0.016500011 -0.019140014 0.69300002 7.3620298e-40
-0.01513619 -0.019084761 0.69100004 8.2948601e-40
-0.013820007 -0.019084772 0.69100004 9.2203477e-40
-0.01248573 -0.019057164 0.69 7.3800084e-40
-0.011171442 -0.019057164 0.69 6.4653249e-40
-0.0098571545 -0.019057162 0.69 1.1053582e-39
-0.0085428692 -0.019057162 0.69 1.5652546e-39
-0.0072181066 -0.019029541 0.68900001 1.1975539e-39
-0.0058885766 -0.018974295 0.68700004 9.2169285e-40
-0.0045733443 -0.018946685 0.68599999 1.2897551e-39
-0.0032666705 -0.018946674 0.68600005 1.6567412e-39
-0.0019600033 -0.018946674 0.68600005 1.4734303e-39
-0.0006514425 -0.018891452 0.68399996 1.3816004e-39
0.00065141026 -0.018891459 0.68399996 1.7493053e-39
0.0019514249 -0.01886382 0.68300003 2.2092003e-39
0.0032523759 -0.01886382 0.68300003 2.0273229e-39
0.0045533329 -0.018863812 0.68300003 1.8458029e-39
0.0058542755 -0.018863825 0.68299997 1.4766659e-39
0.0071552331 -0.018863818 0.68300003 1.1096812e-39
0.0084561836 -0.018863821 0.68299997 1.2940669e-39
0.0097571425 -0.018863814 0.68300003 1.4777351e-39
0.011058086 -0.018863829 0.68299997 1.0156849e-39
0.012340937 -0.018836217 0.68199998 5.5440692e-40
0.013639984 -0.018836217 0.68199998 3.3242317e-39
0.014960952 -0.018863814 0.68300003 5.9978643e-39
0.0162619 -0.018863818 0.68300003 6.2762393e-39
0.017537132 -0.018836206 0.68200004 6.4552061e-39
0.018836182 -0.018836211 0.68200004 3.9601802e-39
0.020135228 -0.01883621 0.68200004 1.3823179e-39
0.021465711 -0.01886382 0.68300003 1.3815892e-39
0.022766661 -0.018863823 0.68299997 1.4744995e-39
0.024067618 -0.018863812 0.68300003 1.3823039e-39
0.02536856 -0.018863829 0.68299997 1.2908271e-39
0.026669521 -0.018863825 0.68300003 1.7503633e-39
0.028093323 -0.018946692 0.68599999 2.1187815e-39
0.029399991 -0.018946694 0.68599999 2.1184228e-39
0.030751428 -0.018974297 0.68700004 2.1184059e-39
0.032013323 -0.01894669 0.68599999 1.8425239e-39
0.033319995 -0.018946689 0.68599999 1.566307e-39
0.034626659 -0.018946694 0.68599999 1.1092889e-39
0.035985716 -0.018974295 0.68700004 7.4416515e-40
0.03740285 -0.019029543 0.68900001 4.713245e-39
0.038715236 -0.019029543 0.68900001 8.7748707e-39
0.040085711 -0.019057162 0.69 1.301048e-38
0.041460007 -0.019084767 0.69100004 1.7248558e-38
0.042961903 -0.019167639 0.69399995 1.9825702e-38
0.044347614 -0.019195259 0.69499999 2.24075e-38
0.045802861 -0.01925048 0.69700003 2.2866677e-38
0.047130477 -0.019250486 0.69700003 2.341769e-38
-0.040063825 -0.018334299 0.713 7.1959745e-39
-0.038597155 -0.018282879 0.71099997 4.6084026e-39
-0.037190489 -0.01825716 0.70999998 2.3888902e-39
-0.035737149 -0.018205727 0.70799994 1.8984091e-40
-0.034340013 -0.018180018 0.70700002 7.3904061e-40
-0.032900006 -0.018128579 0.70500004 1.2914997e-39
-0.031467635 -0.018077165 0.70300001 1.4748218e-39
-0.030042861 -0.018025717 0.70100003 1.6581341e-39
-0.028584767 -0.017948579 0.69800001 1.3826262e-39
-0.027255243 -0.017948577 0.69800001 1.1056932e-39
-0.025888577 -0.017922858 0.69700003 1.0127913e-39
-0.024560969 -0.017922876 0.69699997 9.213145e-40
-0.023233339 -0.017922862 0.69700003 8.3019787e-40
-0.021842869 -0.017871445 0.69499999 6.4652688e-40
-0.020519054 -0.017871436 0.69500005 8.2912308e-40
-0.019195244 -0.017871436 0.69499999 9.2059564e-40
-0.017845729 -0.017845737 0.69399995 7.3656171e-40
-0.016500011 -0.017820014 0.69299996 4.6178109e-40
-0.015136191 -0.017768573 0.69100004 6.4653809e-40
-0.013820003 -0.017768575 0.69100004 7.3872812e-40
-0.012485723 -0.017742869 0.69000006 6.4724715e-40
-0.011171436 -0.017742869 0.69000006 5.5434526e-40
-0.0098571489 -0.017742869 0.69000006 1.1968462e-39
-0.0085304808 -0.017717151 0.68900001 1.7482095e-39
-0.0072181048 -0.017717158 0.68899995 1.1053526e-39
-0.0058885785 -0.017665725 0.68700004 4.6358456e-40
-0.0045733498 -0.017640026 0.68599999 1.0153206e-39
-0.0032666835 -0.017640028 0.68599999 1.5656203e-39
-0.0019600163 -0.017640026 0.68599999 1.5656245e-39
-0.00065048091 -0.017562866 0.68300003 1.5656329e-39
0.00065046962 -0.017562868 0.68299997 2.1159383e-39
0.0019514197 -0.017562874 0.68300003 2.6680218e-39
0.0032523773 -0.017562866 0.68300003 2.2091989e-39
0.0045533283 -0.01756287 0.68300003 1.7514549e-39
0.0058542863 -0.017562861 0.68300003 1.1997245e-39
0.0071552289 -0.017562876 0.68300003 6.5049956e-40
0.0084561864 -0.017562868 0.68300003 1.110749e-39
0.0097571379 -0.017562868 0.68299997 1.5684916e-39
0.011041902 -0.017537152 0.68200004 1.1071631e-39
0.012340948 -0.017537152 0.68200004 6.4728919e-40
0.013639996 -0.017537152 0.68200004 1.2872888e-39
0.014939044 -0.017537152 0.68200004 1.9473915e-39
0.016238092 -0.017537152 0.68200004 6.0107899e-39
0.017537139 -0.017537154 0.68200004 1.0034298e-38
0.018836185 -0.017537156 0.68199998 6.0706281e-39
0.020135231 -0.017537152 0.68199998 2.0276831e-39
0.021434281 -0.017537158 0.68199998 1.7471249e-39
0.022666659 -0.017485736 0.68000001 1.4730506e-39
0.0239619 -0.01748573 0.67999995 1.4730491e-39
0.025331423 -0.017537156 0.68199998 1.4741366e-39
0.026630469 -0.017537154 0.68199998 1.8418485e-39
0.028011421 -0.017588591 0.68400002 2.1187885e-39
0.029314276 -0.017588599 0.68400002 2.2102653e-39
0.030706657 -0.017640019 0.68599999 2.3031728e-39
0.032013327 -0.017640024 0.68599999 2.5790338e-39
0.033319995 -0.017640024 0.68599999 2.8556151e-39
0.034626659 -0.017640023 0.68599999 2.1230821e-39
0.035933327 -0.017640021 0.68599999 1.2969522e-39
0.037402857 -0.01771716 0.68899995 3.0404225e-39
0.038715236 -0.017717157 0.68900001 4.7179183e-39
0.040027611 -0.017717162 0.68899995 9.2387271e-39
0.041399997 -0.017742878 0.69000006 1.3741916e-38
0.042776193 -0.017768582 0.69100004 1.7514008e-38
0.044283811 -0.017845726 0.69399995 2.1294342e-38
0.045802854 -0.017922865 0.69700003 2.24075e-38
0.047198091 -0.017948583 0.69799995 2.341769e-38
-0.040063828 -0.016976206 0.713 5.4443038e-39
-0.038542867 -0.016904771 0.71000004 4.2532575e-39
-0.037085727 -0.016857157 0.70799994 2.6722692e-39
-0.035737153 -0.016857158 0.70799994 1.1953552e-39
-0.034388572 -0.016857149 0.70799994 1.3818835e-39
-0.032900009 -0.016785726 0.70500004 1.5673565e-39
-0.031512398 -0.016761927 0.704 1.5666475e-39
-0.030042857 -0.016690478 0.70100003 1.5659384e-39
-0.028666679 -0.016666684 0.69999999 1.3822744e-39
-0.027255248 -0.016619062 0.69799995 1.1971741e-39
-0.025925726 -0.016619058 0.69799995 1.1053442e-39
-0.024560956 -0.016595243 0.69700003 9.2094877e-40
-0.023233343 -0.016595248 0.69699997 9.2165782e-40
-0.021842862 -0.016547624 0.69500005 8.2983354e-40
-0.02048954 -0.016523829 0.69399995 9.2096138e-40
-0.019167632 -0.016523829 0.69399995 9.2096278e-40
-0.017820008 -0.016500011 0.69300002 1.0127983e-39
-0.016500011 -0.016500017 0.69299996 1.1971923e-39
-0.015136196 -0.016452389 0.69100004 1.1057212e-39
-0.013800009 -0.016428586 0.69 1.0138815e-39
-0.012485723 -0.016428586 0.69 9.2168305e-40
-0.011171443 -0.016428595 0.69 8.291427e-40
-0.0098571489 -0.016428584 0.69 1.196856e-39
-0.0085304882 -0.016404778 0.68900001 1.5645399e-39
-0.0072181043 -0.016404776 0.68900001 1.1060617e-39
-0.0058885789 -0.016357154 0.68700004 7.4016164e-40
-0.0045733405 -0.016333345 0.68599999 1.2904628e-39
-0.0032666731 -0.016333345 0.68599999 1.932242e-39
-0.0019600145 -0.016333358 0.68599999 1.6574586e-39
-0.00065047905 -0.016261911 0.68299997 1.3826836e-39
0.00065047055 -0.016261915 0.68300003 1.7503969e-39
0.001951423 -0.016261917 0.68299997 2.1173718e-39
0.0032523805 -0.016261909 0.68300003 1.9344085e-39
0.0045533231 -0.016261922 0.68299997 1.6592607e-39
0.0058542811 -0.016261915 0.68300003 1.4763058e-39
0.0071552387 -0.016261907 0.68300003 1.2025859e-39
0.0084561892 -0.016261911 0.68300003 1.3862485e-39
0.0097428504 -0.016238108 0.68200004 1.5684902e-39
0.011041898 -0.016238106 0.68200004 1.3844647e-39
0.012340947 -0.01623811 0.68199998 1.2011426e-39
0.013639993 -0.01623811 0.68199998 1.2897383e-39
0.014939041 -0.01623811 0.68199998 1.4734822e-39
0.01623809 -0.01623811 0.68199998 5.4396991e-39
0.017485701 -0.016190499 0.67999995 9.3857276e-39
0.018780937 -0.016190508 0.67999995 6.4473224e-39
0.020076178 -0.016190503 0.67999995 3.5942745e-39
0.02137142 -0.016190497 0.68000001 2.8534416e-39
0.022633335 -0.016166672 0.67900002 2.1162451e-39
0.023961896 -0.016190503 0.68000001 1.9340063e-39
0.025257137 -0.016190497 0.67999995 1.7503577e-39
0.026630469 -0.016238116 0.68199998 2.0280376e-39
0.028011411 -0.016285742 0.68399996 2.3957369e-39
0.029314274 -0.016285738 0.68399996 2.396453e-39
0.030617125 -0.016285745 0.68399996 2.4890144e-39
0.031919986 -0.01628574 0.68399996 2.6730525e-39
0.033319995 -0.016333351 0.68599999 2.8585073e-39
0.034626659 -0.016333353 0.68599999 2.5840672e-39
0.035933327 -0.016333351 0.68599999 2.3099929e-39
0.037239995 -0.016333353 0.68599999 2.5854966e-39
0.038602859 -0.016357152 0.68700004 2.9600833e-39
0.040027622 -0.016404772 0.68900001 6.3709796e-39
0.0414 -0.016428595 0.69 9.8639879e-39
0.04277619 -0.016452396 0.69100004 1.3095479e-38
0.044347622 -0.016547626 0.69500005 1.6419157e-38
0.045802854 -0.016595254 0.69699997 1.9920408e-38
0.047198094 -0.01661906 0.69800001 2.341769e-38
0.048736189 -0.016690493 0.70100003 2.341769e-38
-0.038542863 -0.01555239 0.71000004 3.7779105e-39
-0.037190478 -0.015552386 0.71000004 2.9431149e-39
-0.035737157 -0.015508591 0.70799994 2.1158752e-39
-0.034388587 -0.015508593 0.70799994 2.0254718e-39
-0.032900002 -0.01544286 0.70500004 1.8425155e-39
-0.031512391 -0.015420964 0.70400006 1.6581242e-39
-0.030042857 -0.015355239 0.70100003 1.3829835e-39
-0.028666683 -0.015333356 0.69999999 1.3826318e-39
-0.027255241 -0.015289526 0.69800001 1.2900858e-39
-0.025925718 -0.015289522 0.69800001 1.1064232e-39
-0.02456096 -0.015267629 0.69700003 9.2167043e-40
-0.023233337 -0.015267624 0.69700003 1.013143e-39
-0.02184286 -0.01522381 0.69500005 1.0131472e-39
-0.02051905 -0.01522381 0.69500005 1.0120766e-39
-0.019167628 -0.015201918 0.69399995 9.2095998e-40
-0.017820008 -0.015180013 0.69300002 1.3801403e-39
-0.01645238 -0.015136191 0.69100004 1.840038e-39
-0.015114289 -0.015114292 0.69000006 1.5648931e-39
-0.013800012 -0.015114303 0.69000006 1.289025e-39
-0.012485724 -0.015114302 0.69000006 1.1964693e-39
-0.011171438 -0.0151143 0.69000006 1.0131654e-39
-0.0098571507 -0.015114301 0.69000006 1.1972021e-39
-0.0085304845 -0.015092393 0.68900001 1.2890306e-39
-0.0071971426 -0.015048572 0.68700004 1.1053526e-39
-0.0058885803 -0.015048585 0.68700004 9.2276064e-40
-0.0045733466 -0.015026689 0.68599999 1.6570901e-39
-0.0032666801 -0.015026687 0.68599999 2.2999414e-39
-0.0019600131 -0.015026687 0.68599999 1.7492913e-39
-0.00065047719 -0.014960957 0.68300003 1.1997231e-39
0.00065047335 -0.014960959 0.68299997 1.3848402e-39
0.0019514235 -0.014960961 0.68300003 1.5674294e-39
0.0032523745 -0.014960965 0.68299997 1.5674238e-39
0.0045533315 -0.014960958 0.68300003 1.5677825e-39
0.0058542835 -0.01496096 0.68299997 1.6592579e-39
0.007144752 -0.014939062 0.68199998 1.7536003e-39
0.0084438007 -0.014939063 0.68199998 1.6624767e-39
0.0097428486 -0.014939064 0.68199998 1.5702867e-39
0.011041896 -0.014939065 0.68199998 1.6614089e-39
0.012340942 -0.014939066 0.68199998 1.6596138e-39
0.013599988 -0.014895263 0.67999995 1.2886845e-39
0.014939039 -0.014939068 0.68199998 9.2603548e-40
0.016190462 -0.014895262 0.67999995 4.8886231e-39
0.017485697 -0.01489527 0.67999995 8.7492928e-39
0.018780941 -0.014895264 0.67999995 6.9215428e-39
0.020076171 -0.014895272 0.67999995 5.0701024e-39
0.021340001 -0.014873341 0.67900002 3.8647391e-39
0.022633333 -0.014873344 0.67900002 2.6701672e-39
0.023961898 -0.014895258 0.67999995 2.3042672e-39
0.025219999 -0.014873343 0.67900002 1.9372811e-39
0.026552372 -0.01489526 0.67999995 2.3071314e-39
0.027970474 -0.014960956 0.68300003 2.6726755e-39
0.029271431 -0.01496096 0.68299997 2.6741063e-39
0.030617133 -0.014982877 0.68400002 2.5808372e-39
0.03191999 -0.014982885 0.68400002 2.673393e-39
0.033222847 -0.014982875 0.68400002 2.7655774e-39
0.0345257 -0.014982883 0.68400002 3.0443041e-39
0.035828564 -0.014982879 0.68399996 3.2261856e-39
0.037239999 -0.015026685 0.68599999 2.2152833e-39
0.038602863 -0.015048575 0.68700004 1.1175916e-39
0.039911427 -0.015048586 0.68700004 3.6039953e-39
0.04133999 -0.015092403 0.68899995 6.0014418e-39
0.042776193 -0.015136199 0.69100004 8.7687428e-39
0.04409238 -0.015136207 0.69099998 1.144745e-38
0.045868568 -0.015289541 0.69799995 1.7437617e-38
0.047198087 -0.015289539 0.69799995 2.3413741e-38
0.048666663 -0.015333349 0.70000005 2.341769e-38
-0.038705721 -0.014260008 0.713 3.1249909e-39
-0.037242863 -0.014220008 0.71100003 2.5750583e-39
-0.035838101 -0.01420001 0.71000004 2.0236936e-39
-0.034388579 -0.014160013 0.70799994 1.7510626e-39
-0.032993343 -0.014140015 0.70700002 1.4759008e-39
-0.031512395 -0.014080022 0.704 1.475528e-39
-0.030042864 -0.014020011 0.70100003 1.4755351e-39
-0.028666677 -0.014000021 0.69999999 1.4748246e-39
-0.027255248 -0.013960009 0.69799995 1.4744757e-39
-0.025925724 -0.013960007 0.69799995 1.1064246e-39
-0.024560958 -0.013940005 0.69700003 8.2984054e-40
-0.023233343 -0.01394001 0.69700003 1.0138675e-39
-0.021842858 -0.0139 0.69500005 1.1971797e-39
-0.02048954 -0.01388002 0.69399995 1.1049855e-39
-0.019167634 -0.013880018 0.69399995 1.0127941e-39
-0.017820008 -0.013860012 0.69299996 1.1964679e-39
-0.016452383 -0.013820006 0.69099998 1.380499e-39
-0.015136196 -0.013820007 0.69100004 1.1053512e-39
-0.013800012 -0.013800018 0.69 9.2132011e-40
-0.012485726 -0.013800017 0.69 9.2131871e-40
-0.011171439 -0.013800016 0.69 1.0127983e-39
-0.0098428661 -0.013780015 0.68900001 1.289025e-39
-0.0085304845 -0.013780013 0.68900001 1.6563698e-39
-0.0071971435 -0.013740001 0.68700004 1.1060771e-39
-0.0058885803 -0.013740014 0.68700004 6.4690103e-40
-0.0045733456 -0.013720018 0.68599999 1.1986315e-39
-0.0032571601 -0.013680026 0.68399996 1.7492871e-39
-0.0019542994 -0.013680021 0.68399996 1.4748582e-39
-0.00065048278 -0.013660012 0.68300003 1.2919117e-39
0.00065047474 -0.013660004 0.68300003 1.4755897e-39
0.0019514258 -0.013660006 0.68299997 1.7514535e-39
0.0032523759 -0.013660011 0.68300003 1.8432876e-39
0.0045533264 -0.013660011 0.68299997 2.0280348e-39
0.0058457032 -0.013640017 0.68199998 2.0283921e-39
0.0071447501 -0.013640018 0.68199998 2.1223786e-39
0.0084437979 -0.013640019 0.68199998 1.7550338e-39
0.0097142719 -0.013600024 0.67999995 1.4802476e-39
0.011009513 -0.013600017 0.67999995 1.2007979e-39
0.012304748 -0.013600025 0.67999995 9.2601866e-40
0.013599991 -0.013600022 0.67999995 8.2988679e-40
0.014895223 -0.013600025 0.67999995 6.4476825e-40
0.016190466 -0.01360002 0.67999995 3.2290639e-39
0.017485697 -0.013600027 0.67999995 5.7193955e-39
0.018753329 -0.013580015 0.67900002 4.7999755e-39
0.020046659 -0.013580019 0.67900002 3.8787549e-39
0.021339998 -0.013580009 0.67900002 3.0421951e-39
0.022633329 -0.013580017 0.67899996 2.3028645e-39
0.023926668 -0.013580007 0.67900002 2.1199264e-39
0.025219996 -0.013580011 0.67900002 1.9380224e-39
0.026552375 -0.01360002 0.67999995 1.9369196e-39
0.027929517 -0.013640018 0.68199998 2.0276719e-39
0.029228564 -0.013640018 0.68199998 1.9361867e-39
0.030572383 -0.013660008 0.68299997 1.8439897e-39
0.03187333 -0.013660014 0.68300003 2.0276565e-39
0.033174284 -0.013660017 0.68299997 2.1187661e-39
0.034475237 -0.01366001 0.68300003 2.1209087e-39
0.035828561 -0.013680028 0.68399996 2.0290858e-39
0.037131425 -0.013680018 0.68400002 1.6617564e-39
0.038546667 -0.013720013 0.68600005 1.2929697e-39
0.039853327 -0.013720019 0.68600005 2.4936358e-39
0.041220002 -0.013740007 0.68700004 3.696872e-39
0.04265238 -0.01378002 0.68900001 7.2903407e-39
0.044539042 -0.013960015 0.69799995 1.0878824e-38
0.045868572 -0.013960013 0.69800001 1.448058e-38
0.047198094 -0.013960009 0.69800001 1.8177682e-38
0.04866666 -0.014000017 0.70000005 2.0844861e-38
0.049999997 -0.014000015 0.70000005 2.341769e-38
-0.040120006 -0.012920006 0.71399999 2.3927858e-39
-0.038705729 -0.012901923 0.713 2.3917096e-39
-0.03734763 -0.012901916 0.713 2.116922e-39
-0.035888582 -0.012865722 0.71100003 1.8471846e-39
-0.03448572 -0.012847623 0.71000004 1.4784385e-39
-0.033040002 -0.012811434 0.708 1.1099909e-39
-0.031646684 -0.012793358 0.70700002 1.3836729e-39
-0.030042864 -0.012684773 0.70100003 1.5666419e-39
-0.028707629 -0.012684776 0.70100003 1.5666573e-39
-0.027333345 -0.012666685 0.70000005 1.5663112e-39
-0.026000014 -0.012666687 0.70000005 1.1071463e-39
-0.024596198 -0.012630481 0.69800001 6.4724575e-40
-0.023233345 -0.012612396 0.69699997 1.0145821e-39
-0.021842856 -0.012576188 0.69500005 1.2893697e-39
-0.020519054 -0.0125762 0.69500005 1.1971741e-39
-0.01916763 -0.012558107 0.69399995 1.01315e-39
-0.017845733 -0.012558116 0.69399995 1.0127969e-39
-0.016500009 -0.01254001 0.69300002 9.2132151e-40
-0.015136198 -0.01250382 0.69099998 7.3800925e-40
-0.013800014 -0.012485732 0.69 4.6249856e-40
-0.012485726 -0.01248573 0.69 7.3764351e-40
-0.011155241 -0.012467623 0.68900001 1.0138633e-39
-0.0098428652 -0.01246763 0.68899995 1.473754e-39
-0.0085057206 -0.01243144 0.68700004 1.9329441e-39
-0.0071971505 -0.012431441 0.68699998 1.1986329e-39
-0.0058885734 -0.012431433 0.68700004 3.7247074e-40
-0.0045733433 -0.012413349 0.68600005 7.4052879e-40
-0.0032666763 -0.012413349 0.68600005 1.1071547e-39
-0.0019600098 -0.012413349 0.68600005 1.2919033e-39
-0.0006504879 -0.012359066 0.68299997 1.3833857e-39
0.00065046962 -0.012359058 0.68300003 1.6574628e-39
0.0019514272 -0.012359053 0.68300003 1.8425702e-39
0.0032523787 -0.012359055 0.68300003 2.1184368e-39
0.0045533292 -0.012359059 0.68300003 2.3953782e-39
0.0058457004 -0.012340977 0.68199998 2.3953796e-39
0.0071447482 -0.012340978 0.68199998 2.3960929e-39
0.0084190331 -0.012304787 0.68000001 1.8465106e-39
0.0097142737 -0.012304781 0.67999995 1.2926306e-39
0.011009507 -0.012304787 0.67999995 7.3587928e-40
0.012304748 -0.012304781 0.67999995 1.870299e-40
0.013579997 -0.01228668 0.67900002 2.7600675e-40
0.014895227 -0.012304787 0.67999995 3.7681476e-40
0.016190458 -0.01230479 0.67999995 1.5717566e-39
0.017459994 -0.01228668 0.67900002 2.6823893e-39
0.018753333 -0.012286672 0.67900002 2.6795181e-39
0.020046666 -0.012286678 0.67900002 2.585519e-39
0.021340005 -0.012286671 0.67900002 2.3053378e-39
0.022633327 -0.012286685 0.67900002 1.9354818e-39
0.023926664 -0.01228668 0.67900002 1.9340441e-39
0.025219996 -0.012286684 0.67899996 1.8421974e-39
0.026513334 -0.012286674 0.67900002 1.6577991e-39
0.02784761 -0.012304787 0.67999995 1.3822828e-39
0.029228561 -0.012340974 0.68199998 1.2904389e-39
0.03052761 -0.012340976 0.68199998 1.1067651e-39
0.03187333 -0.012359057 0.68299997 1.290076e-39
0.033174288 -0.012359058 0.68300003 1.4737316e-39
0.03447523 -0.01235906 0.68299997 1.1989285e-39
0.03577619 -0.012359057 0.68300003 8.330355e-40
0.037131421 -0.012377167 0.68399996 1.2014677e-39
0.038546659 -0.012413356 0.68599999 1.4751749e-39
0.039853327 -0.01241336 0.68599999 1.3801066e-39
0.041220002 -0.012431437 0.68700004 1.3012387e-39
0.042652376 -0.012467638 0.68899995 5.8173743e-39
0.043964759 -0.012467632 0.68900001 1.0233408e-38
0.045868561 -0.012630498 0.69799995 1.1611696e-38
0.047198091 -0.012630491 0.69799995 1.2923636e-38
0.048527613 -0.012630489 0.69799995 1.8183067e-38
0.04985714 -0.012630491 0.69799995 2.341769e-38
0.051186658 -0.012630491 0.69799995 2.341769e-38
-0.040120009 -0.011560011 0.71400005 1.2892969e-39
-0.038760006 -0.011560004 0.71400005 1.2889353e-39
-0.037347633 -0.011543831 0.713 3.5923519e-39
-0.035888582 -0.01151144 0.71100003 5.9022845e-39
-0.03448572 -0.011495242 0.70999998 5.6261152e-39
-0.033040009 -0.011462866 0.708 5.4287662e-39
-0.031646676 -0.011446679 0.70700002 3.3132749e-39
-0.030128578 -0.011381912 0.70300001 1.1982125e-39
-0.028789537 -0.011381922 0.70300001 1.3819073e-39
-0.027372392 -0.011349542 0.70100003 1.6574292e-39
-0.026000012 -0.011333348 0.70000005 1.2908201e-39
-0.024596203 -0.011300967 0.69799995 9.234697e-40
-0.023233343 -0.011284773 0.69700003 1.1978916e-39
-0.021842862 -0.011252389 0.69500005 1.4723191e-39
-0.020519052 -0.011252389 0.69499999 1.2890026e-39
-0.019195247 -0.011252389 0.69500005 1.1971769e-39
-0.017845728 -0.011236207 0.69399995 1.1053498e-39
-0.016523819 -0.011236205 0.69399995 1.0135157e-39
-0.015136196 -0.011187624 0.69100004 9.2168024e-40
-0.013800006 -0.011171438 0.69000006 8.3019787e-40
-0.012485729 -0.011171449 0.69000006 9.223851e-40
-0.011155247 -0.011155251 0.68900001 1.1064036e-39
-0.0098428652 -0.011155248 0.68900001 1.3818989e-39
-0.0085057225 -0.011122867 0.68700004 1.6577879e-39
-0.0071971514 -0.011122868 0.68699998 1.2904698e-39
-0.0058800154 -0.011106689 0.68599999 8.3272442e-40
-0.0045733489 -0.011106689 0.68599999 1.0149563e-39
-0.0032666815 -0.011106689 0.68599999 1.105717e-39
-0.0019542994 -0.011074308 0.68399996 1.2908243e-39
-0.00065047859 -0.011058101 0.68300003 1.4755771e-39
0.00065047242 -0.011058101 0.68299997 1.6592523e-39
0.0019514225 -0.011058106 0.68300003 1.9344042e-39
0.0032523796 -0.011058099 0.68300003 2.2113485e-39
0.0045466563 -0.011041921 0.68200004 2.487934e-39
0.0058457041 -0.011041922 0.68200004 2.3950251e-39
0.007144752 -0.011041922 0.68200004 2.3928671e-39
0.0084190359 -0.011009544 0.68000001 2.4846956e-39
0.0097142765 -0.011009537 0.67999995 2.5765325e-39
0.01099333 -0.010993343 0.67900002 4.5133301e-39
0.01228666 -0.010993345 0.67899996 6.4322024e-39
0.013579993 -0.010993352 0.67900002 6.4501516e-39
0.014873332 -0.010993345 0.67900002 6.5455954e-39
0.016166663 -0.01099335 0.67900002 4.5241594e-39
0.01746 -0.010993341 0.67900002 2.5959573e-39
0.018753333 -0.010993343 0.67899996 2.5855386e-39
0.020046663 -0.010993347 0.67900002 2.4890144e-39
0.021339994 -0.01099335 0.67899996 2.0276579e-39
0.022599993 -0.010977162 0.67799997 1.4744715e-39
0.02392667 -0.010993337 0.67900002 1.4733728e-39
0.025219992 -0.010993352 0.67900002 1.563779e-39
0.026513331 -0.010993347 0.67900002 1.3808297e-39
0.02784761 -0.011009542 0.67999995 1.1960727e-39
0.029142845 -0.01100955 0.67999995 1.0134667e-39
0.03052761 -0.011041921 0.68200004 8.2836077e-40
0.03182666 -0.011041921 0.68200004 1.1045847e-39
0.033174284 -0.011058103 0.68300003 1.3793527e-39
0.034475237 -0.011058103 0.68300003 1.1970956e-39
0.03577619 -0.011058107 0.68300003 9.2232204e-40
0.037131425 -0.011074305 0.68400002 1.2914731e-39
0.038546659 -0.01110669 0.68599999 1.750652e-39
0.039853327 -0.011106689 0.68599999 1.3822338e-39
0.041159991 -0.01110669 0.68599999 1.0149521e-39
0.04531429 -0.011851437 0.73199999 5.7197864e-39
