# .PCD v0.7 - Point Cloud Data file format
VERSION 0.7
FIELDS x y z rgb
SIZE 4 4 4 4
TYPE F F F F
COUNT 1 1 1 1
WIDTH 950
HEIGHT 1
VIEWPOINT 0 0 0 1 0 0 0
POINTS 950
DATA ascii
0.043739997 -0.032631461 0.72900003 2.341769e-38
-0.028154291 -0.032485723 0.75800002 4.6133688e-40
-0.026710477 -0.032485716 0.75800002 2.7802883e-40
-0.025166674 -0.032357164 0.75500005 4.6134389e-40
-0.023979995 -0.032699984 0.76300001 6.4465194e-40
-0.02252667 -0.032700013 0.76299995 6.4464774e-40
-0.021073334 -0.032700002 0.76300001 7.361245e-40
-0.019722862 -0.032871448 0.76700002 6.4428901e-40
-0.018285714 -0.032914277 0.76800007 5.5209478e-40
-0.016866669 -0.033000007 0.7700001 4.6061802e-40
-0.015440001 -0.033085704 0.77200001 3.6878112e-40
-0.01406001 -0.033300038 0.77700001 3.6913705e-40
-0.012612386 -0.033385731 0.77900004 4.6133128e-40
-0.011142865 -0.033428594 0.78000009 4.6097254e-40
-0.0096571455 -0.033428576 0.78000003 4.6061521e-40
-0.0081923809 -0.033514276 0.78200012 4.6133268e-40
-0.0067199976 -0.033599984 0.7840001 4.6169141e-40
-0.0052400068 -0.033685748 0.78600007 3.6949578e-40
-0.0037333269 -0.033599969 0.78400004 2.7730295e-40
-0.002234289 -0.033514302 0.78200012 3.6913845e-40
-0.00074475765 -0.033514265 0.78200012 3.6914125e-40
0.00074476545 -0.033514269 0.78200012 4.6097815e-40
0.0022342876 -0.033514276 0.78200012 5.5245912e-40
0.0037142874 -0.033428565 0.78000003 5.5282065e-40
0.0051999972 -0.033428583 0.78000009 5.5318079e-40
0.0066857073 -0.033428606 0.78000009 5.5318219e-40
0.0081714252 -0.033428591 0.78000003 4.6134109e-40
0.0096447626 -0.03338572 0.77900004 4.6169281e-40
0.011142864 -0.03342855 0.78000009 4.6205014e-40
0.012612379 -0.033385739 0.77900004 6.45361e-40
0.014059993 -0.033300038 0.77700001 8.2831453e-40
0.01546 -0.033128574 0.773 6.4500227e-40
0.016910477 -0.033085719 0.77200001 5.5354232e-40
0.018333325 -0.033000041 0.7700001 8.2942436e-40
0.019748578 -0.032914273 0.76800001 1.1052826e-39
0.021183811 -0.03287144 0.76700002 8.2941034e-40
0.022644754 -0.032871481 0.76700002 5.5355914e-40
0.024042852 -0.03278574 0.76500005 6.4576738e-40
0.025433332 -0.032700032 0.76300001 8.2906843e-40
0.026816189 -0.032614313 0.76100004 8.2905722e-40
0.028228579 -0.032571413 0.76000011 8.2905301e-40
0.029598096 -0.032485709 0.75800002 1.0134359e-39
0.030837145 -0.032271441 0.75300002 1.2900354e-39
0.032142859 -0.032142859 0.75000012 1.289692e-39
0.033481903 -0.032057159 0.74800003 1.2868222e-39
0.03486 -0.032014277 0.74700004 7.3544908e-40
0.036185712 -0.031928591 0.74500012 1.8422731e-40
0.037453331 -0.031800002 0.7420001 1.1817352e-38
0.038709529 -0.031671416 0.73900002 2.3417686e-38
0.040008571 -0.031585723 0.73700005 2.341769e-38
0.04124381 -0.031457137 0.73400009 2.341769e-38
0.042467624 -0.031328529 0.73100001 2.341769e-38
0.043739997 -0.031242881 0.72900003 2.341769e-38
-0.029598091 -0.031041874 0.75800002 5.5318359e-40
-0.028080009 -0.030960035 0.75600004 3.6915106e-40
-0.026604766 -0.030919053 0.75500005 9.4360636e-41
-0.025166674 -0.030919066 0.75500011 2.7803023e-40
-0.023822855 -0.031041883 0.75800002 4.6133968e-40
-0.022379043 -0.031041868 0.75800002 4.6097815e-40
-0.020935239 -0.031041902 0.75800002 3.6914125e-40
-0.01972286 -0.031410486 0.76700002 3.6878112e-40
-0.018261908 -0.031410486 0.76700002 3.6914265e-40
-0.016822856 -0.031451423 0.76800001 3.6914546e-40
-0.015400006 -0.031533349 0.77000004 3.6914405e-40
-0.013987624 -0.031656206 0.77300006 4.6097675e-40
-0.01258001 -0.031820048 0.77700001 4.6133688e-40
-0.01112858 -0.031901941 0.77900004 4.6097955e-40
-0.0096447673 -0.03190193 0.77900004 4.6097955e-40
-0.0081609562 -0.031901918 0.77900004 4.6097955e-40
-0.0067028548 -0.032024749 0.78200012 4.6133828e-40
-0.0052266573 -0.032106619 0.78400004 3.6986152e-40
-0.0037333299 -0.032106649 0.78400004 2.7802462e-40
-0.0022285697 -0.031942848 0.78000009 3.6949998e-40
-0.00074191176 -0.031901941 0.77900004 3.6914405e-40
0.00074285798 -0.031942852 0.78000009 4.6134109e-40
0.0022285671 -0.031942874 0.78000009 5.5282205e-40
0.0037095237 -0.031901903 0.7790001 6.4502189e-40
0.0051933266 -0.031901937 0.77900004 6.4538622e-40
0.0066771391 -0.031901922 0.77900004 4.624397e-40
0.0081609497 -0.031901915 0.7790001 1.869206e-40
0.009644757 -0.031901941 0.77900004 2.7910222e-40
0.011128568 -0.03190193 0.77900004 3.7057618e-40
0.012580004 -0.031819995 0.77700001 4.6240888e-40
0.014060003 -0.031819999 0.77700001 4.6205014e-40
0.015460005 -0.031656183 0.77300006 3.6985591e-40
0.016910478 -0.031615224 0.77200001 2.7839176e-40
0.018333338 -0.031533327 0.7700001 4.624341e-40
0.019748574 -0.031451423 0.76800001 5.5426539e-40
0.021128576 -0.03132857 0.76500005 4.6278442e-40
0.022585716 -0.031328585 0.76500005 3.7023426e-40
0.023979999 -0.031246688 0.76300001 6.4610369e-40
0.025366664 -0.031164777 0.76100004 8.2941455e-40
0.026816186 -0.031164784 0.76100004 8.2905441e-40
0.028154293 -0.031041905 0.75800002 7.3721892e-40
0.029402852 -0.030837175 0.75300002 1.0127254e-39
0.030796198 -0.030796165 0.75200003 1.2903913e-39
0.032142866 -0.030714255 0.75000012 8.3265715e-40
0.033481907 -0.03063238 0.74800009 3.6955744e-40
0.03476667 -0.030509517 0.74500006 3.677876e-40
0.036185715 -0.030509528 0.74500012 3.0514255e-40
0.037453335 -0.030386655 0.74200004 1.1938249e-38
0.038709518 -0.030263824 0.73899996 2.3417689e-38
0.039954286 -0.030140968 0.73600006 2.341769e-38
0.04124381 -0.030059047 0.73400009 2.341769e-38
0.042467624 -0.02993615 0.73100007 2.341769e-38
0.043739993 -0.029854307 0.72900009 2.341769e-38
0.045128565 -0.029854322 0.72900003 2.341769e-38
-0.031041913 -0.029598111 0.75800008 5.5320181e-40
-0.029520003 -0.029519998 0.75600004 6.4503029e-40
-0.028042866 -0.029480979 0.75500005 4.6171103e-40
-0.026534291 -0.029402876 0.75300008 2.7911063e-40
-0.025066668 -0.029363818 0.75200003 4.6205715e-40
-0.023634288 -0.029363813 0.75200009 7.3684617e-40
-0.022142855 -0.029285705 0.75000006 5.5317378e-40
-0.020714289 -0.029285718 0.75000012 3.6949998e-40
-0.019491436 -0.029598117 0.75800002 4.6133128e-40
-0.018095236 -0.029676173 0.76000011 5.5317378e-40
-0.016757147 -0.02987144 0.76500005 4.6098516e-40
-0.015340004 -0.029949529 0.76700002 4.6062502e-40
-0.013969522 -0.030144747 0.77200001 4.6133968e-40
-0.012499047 -0.030144751 0.77200001 4.6205995e-40
-0.011042858 -0.030183807 0.77300006 3.6950839e-40
-0.0096200053 -0.030340021 0.77700007 3.6879093e-40
-0.0081399977 -0.030339982 0.77700001 4.6062502e-40
-0.0066771493 -0.030418128 0.77900004 4.6062642e-40
-0.0051999995 -0.030457135 0.78000003 3.6950839e-40
-0.0037238151 -0.030535266 0.78200012 3.7022305e-40
-0.0022257217 -0.030418133 0.77900004 3.6950139e-40
-0.00074000924 -0.030340046 0.77700001 3.6878812e-40
0.00074190262 -0.030418109 0.7790001 4.6098656e-40
0.0022285755 -0.03045712 0.78000009 6.4430442e-40
0.0036999974 -0.030340018 0.77700001 6.4502749e-40
0.0051799961 -0.030340021 0.77700001 7.368756e-40
0.0066599958 -0.030340025 0.77700001 5.5357455e-40
0.0081399959 -0.030340029 0.77700001 3.706014e-40
0.0096199941 -0.030340035 0.77700001 3.7094052e-40
0.011099994 -0.030340038 0.77700001 4.6241308e-40
0.012547611 -0.030261943 0.77500004 3.7021465e-40
0.014023808 -0.030261923 0.7750001 3.7057478e-40
0.01544 -0.030144762 0.77200001 3.7021605e-40
0.016866658 -0.030066717 0.7700001 2.7803023e-40
0.018285718 -0.029988576 0.76800001 3.7023146e-40
0.019722853 -0.029949559 0.76700002 5.5354372e-40
0.021128574 -0.029871438 0.76500005 4.6206556e-40
0.022585724 -0.029871412 0.76500005 3.6986432e-40
0.023979994 -0.029793372 0.76300001 6.4572113e-40
0.02536667 -0.029715247 0.7610001 9.2123603e-40
0.026780961 -0.029676164 0.76000005 9.2124444e-40
0.028154291 -0.029598091 0.75800008 9.2125004e-40
0.029402858 -0.029402861 0.75300002 1.1974782e-39
0.0307962 -0.029363781 0.75200003 1.4751371e-39
0.032142852 -0.029285736 0.75000012 8.3049355e-40
0.0334819 -0.029207643 0.74800009 2.7594229e-40
0.034766667 -0.029090494 0.74500012 3.3130199e-39
0.036088567 -0.029012429 0.74300003 6.4541958e-39
0.037453335 -0.028973306 0.7420001 1.4952323e-38
0.038709518 -0.028856238 0.73900002 2.341769e-38
0.039954294 -0.028739048 0.73600012 2.341769e-38
0.041243814 -0.028660953 0.73400009 2.341769e-38
0.042467628 -0.028543772 0.73100001 2.341769e-38
0.043739993 -0.028465748 0.72900009 2.341769e-38
0.045128573 -0.028465727 0.72900003 2.341769e-38
-0.030960003 -0.02808 0.7560001 6.4502889e-40
-0.029520005 -0.028080007 0.7560001 6.4502469e-40
-0.028042858 -0.02804284 0.75500005 5.5318499e-40
-0.026534295 -0.027968604 0.75300002 3.7022726e-40
-0.025066659 -0.02793139 0.75200009 6.4573094e-40
-0.023571428 -0.027857129 0.75000006 9.2088851e-40
-0.022142859 -0.027857145 0.75000012 6.4539043e-40
-0.020714281 -0.027857117 0.75000012 2.776799e-40
-0.019285722 -0.027857166 0.75000012 4.6134109e-40
-0.018000005 -0.028080018 0.7560001 6.4501908e-40
-0.016647616 -0.028228547 0.76000011 5.5247313e-40
-0.015300003 -0.028414281 0.76500005 4.6099496e-40
-0.013897143 -0.028525706 0.76800007 4.6171103e-40
-0.012466677 -0.028600037 0.7700001 3.6987693e-40
-0.011000005 -0.028600013 0.7700001 3.6916087e-40
-0.0095704738 -0.02871141 0.77300006 2.7732257e-40
-0.0080876146 -0.028674262 0.77200007 3.684378e-40
-0.0065999986 -0.028599989 0.7700001 4.6063623e-40
-0.0051466632 -0.028674265 0.77200007 4.613593e-40
-0.0036761875 -0.028674269 0.77200007 3.6987553e-40
-0.0022000093 -0.028600045 0.7700001 3.6950979e-40
-0.00073619693 -0.028711462 0.77300006 2.7732117e-40
0.00073619315 -0.028711416 0.77300006 4.6063763e-40
0.0022142786 -0.028785756 0.7750001 6.4467016e-40
0.0036904726 -0.028785734 0.77500004 7.3686859e-40
0.0051666587 -0.028785754 0.77500004 7.3651407e-40
0.0066428543 -0.028785734 0.7750001 6.4432544e-40
0.0081190392 -0.028785754 0.7750001 4.6171523e-40
0.0095952349 -0.028785734 0.77500004 4.6277602e-40
0.011042858 -0.028711421 0.77300006 4.6169702e-40
0.012515233 -0.028711457 0.77300006 3.6842379e-40
0.013987626 -0.028711408 0.77300006 2.7802462e-40
0.015399998 -0.02860002 0.7700001 2.7838476e-40
0.016822854 -0.028525732 0.76800001 2.7874909e-40
0.018261895 -0.028488638 0.76700002 3.7059019e-40
0.019671431 -0.028414279 0.76500005 4.6206696e-40
0.021073336 -0.028339997 0.76300001 4.6170823e-40
0.022526672 -0.028339989 0.76300001 3.7022726e-40
0.023917137 -0.028265752 0.76100004 6.4572954e-40
0.025333339 -0.028228547 0.76000005 9.2160177e-40
0.02671048 -0.028154287 0.75800002 1.0134429e-39
0.028080001 -0.028080013 0.75600004 1.0138086e-39
0.029363817 -0.027931396 0.75200009 1.2889634e-39
0.030714285 -0.027857162 0.75000012 1.5655348e-39
0.032057147 -0.027782839 0.74800009 8.2940614e-40
0.033437144 -0.027745701 0.74700004 9.2990166e-41
0.034673329 -0.027597163 0.74300009 6.3371481e-39
0.036039997 -0.027560003 0.74200004 1.2540457e-38
0.037301902 -0.027448582 0.73900002 1.7999396e-38
0.038604759 -0.027374299 0.73700005 2.341769e-38
0.03995429 -0.027337132 0.73600006 2.341769e-38
0.041243806 -0.027262857 0.73400009 2.341769e-38
0.04246762 -0.027151393 0.73100007 2.341769e-38
0.043739997 -0.027077153 0.72900003 2.341769e-38
0.045128565 -0.02707717 0.72900003 2.341769e-38
-0.030960005 -0.026640009 0.7560001 5.5390245e-40
-0.029480958 -0.026604766 0.75500011 3.6987133e-40
-0.027968576 -0.026534298 0.75300002 3.6986853e-40
-0.026534297 -0.02653433 0.75300002 3.6986853e-40
-0.025066659 -0.026499007 0.75200003 5.5318079e-40
-0.02357143 -0.026428569 0.75000012 8.2834816e-40
-0.022083817 -0.026358124 0.74800003 6.4505412e-40
-0.020714292 -0.026428593 0.75000012 5.5284447e-40
-0.019337142 -0.026499037 0.75200009 5.5282766e-40
-0.017976193 -0.02660476 0.75500005 6.4538763e-40
-0.016560001 -0.026639989 0.7560001 5.532004e-40
-0.015199997 -0.026780922 0.76000011 3.6917068e-40
-0.01380667 -0.026886672 0.76300001 3.6917068e-40
-0.012385716 -0.026957139 0.76500005 3.6953081e-40
-0.010957143 -0.027027613 0.76700002 2.7769532e-40
-0.0095333392 -0.027133359 0.7700001 1.8621295e-40
-0.0080666775 -0.027133377 0.7700001 3.6916087e-40
-0.006582859 -0.027062861 0.76800001 5.5212421e-40
-0.0051333341 -0.027133331 0.7700001 4.6101458e-40
-0.0036666708 -0.027133351 0.7700001 3.6988674e-40
-0.0021999995 -0.027133329 0.7700001 2.776827e-40
-0.00073523913 -0.027203817 0.77200001 2.7768831e-40
0.00073523633 -0.027203819 0.77200001 3.6917068e-40
0.0022085679 -0.027239062 0.77300006 5.5248434e-40
0.0036809498 -0.027239056 0.77300006 6.4467857e-40
0.0051533314 -0.027239051 0.77300006 7.3615393e-40
0.0066257138 -0.027239045 0.77300006 5.5248014e-40
0.0080980966 -0.027239041 0.77300006 3.6915667e-40
0.0095704785 -0.027239034 0.77300006 5.5317518e-40
0.01104286 -0.02723903 0.77300006 7.3648744e-40
0.012499052 -0.027203798 0.77200001 6.4429181e-40
0.013969528 -0.027203804 0.77200001 4.6134109e-40
0.015360012 -0.027062804 0.76800001 4.6205995e-40
0.016800953 -0.027027639 0.76700002 4.6278162e-40
0.018214291 -0.026957128 0.76500005 6.4609668e-40
0.019619998 -0.026886694 0.76300001 8.2976768e-40
0.021018095 -0.026816208 0.76100004 7.3757345e-40
0.022467617 -0.026816215 0.76100004 6.4609668e-40
0.023885721 -0.026780937 0.76000011 7.3793218e-40
0.02526667 -0.02671048 0.75800002 9.2196611e-40
0.026640004 -0.026640015 0.7560001 1.0141645e-39
0.028042858 -0.026604757 0.75500005 1.1982041e-39
0.029285716 -0.026428591 0.75000012 1.5651957e-39
0.03071429 -0.02642856 0.75000006 2.0250697e-39
0.03205714 -0.026358096 0.74800009 1.0123471e-39
0.033437144 -0.026322858 0.74699998 9.2272701e-41
0.03462667 -0.026146665 0.7420001 9.0341109e-39
0.03594286 -0.026076186 0.74000007 1.7993555e-38
0.037301902 -0.026040951 0.73900002 2.0753026e-38
0.038604762 -0.025970494 0.73700011 2.341769e-38
0.039845705 -0.025864787 0.73400003 2.341769e-38
0.041131429 -0.025794279 0.73200011 2.341769e-38
0.042467616 -0.025759052 0.73100001 2.341769e-38
0.043860011 -0.025759013 0.73100001 2.341769e-38
0.045252386 -0.025759012 0.73100007 2.341769e-38
-0.029480955 -0.025166668 0.75500005 9.4729177e-41
-0.027968576 -0.025100023 0.75299996 1.8620314e-40
-0.02537143 -0.024 0.72000003 2.776743e-40
-0.024 -0.023999982 0.72000003 4.6026349e-40
-0.023571424 -0.024999967 0.75000012 6.4466736e-40
-0.022083813 -0.024933342 0.74800009 7.3651827e-40
-0.020714287 -0.024999993 0.75000006 7.3614973e-40
-0.019337142 -0.025066651 0.75200009 7.3578119e-40
-0.017904762 -0.025066648 0.75200003 6.4467016e-40
-0.016472381 -0.025066644 0.75200009 4.6136631e-40
-0.015039997 -0.025066644 0.75200003 2.7733799e-40
-0.013770484 -0.025366697 0.76100004 2.7662332e-40
-0.012353332 -0.025433313 0.76300001 2.7734779e-40
-0.010928568 -0.025499977 0.76500005 1.8552071e-40
-0.0095085697 -0.025599984 0.76800001 9.4028528e-41
-0.0080457106 -0.025599977 0.76800007 3.695196e-40
-0.006582852 -0.02559997 0.76800001 5.5283887e-40
-0.0051199938 -0.025599964 0.76800001 4.6065305e-40
-0.0036666766 -0.025666717 0.7700001 3.6953221e-40
-0.0021942842 -0.025599994 0.76800007 2.7733518e-40
-0.00073333416 -0.025666673 0.7700001 1.8585842e-40
0.0007333291 -0.025666693 0.7700001 2.7769532e-40
0.0022000002 -0.025666669 0.7700001 3.6953081e-40
0.0036761917 -0.025733327 0.77200001 5.5356054e-40
0.0051466669 -0.025733329 0.77200001 7.3651266e-40
0.0066171428 -0.025733331 0.77200001 5.5248154e-40
0.0080876183 -0.025733335 0.77200001 2.7696384e-40
0.0095333299 -0.02566668 0.7700001 6.4429461e-40
0.010999994 -0.025666695 0.77000004 1.0116338e-39
0.012466664 -0.025666676 0.7700001 8.2760127e-40
0.01389715 -0.02559996 0.76800001 6.4501348e-40
0.015300004 -0.025500001 0.76500005 6.4502049e-40
0.016757153 -0.025499975 0.76500005 5.5354793e-40
0.018166667 -0.025433347 0.76299995 8.2905862e-40
0.019568572 -0.025366671 0.76100004 1.1042092e-39
0.020990483 -0.025333308 0.76000005 1.0120178e-39
0.022379054 -0.025266644 0.75800002 9.2089131e-40
0.023822868 -0.025266636 0.75800002 9.2124164e-40
0.0252 -0.025200021 0.7560001 8.3012921e-40
0.026604762 -0.025166687 0.75500011 1.1063602e-39
0.027968572 -0.025100004 0.75300002 1.2900466e-39
0.029207619 -0.024933347 0.74800003 1.8403575e-39
0.030632375 -0.024933374 0.74800009 2.3899257e-39
0.032014284 -0.024900015 0.74700004 1.2860963e-39
0.033258092 -0.024766704 0.74300009 1.04897e-40
0.034533337 -0.024666654 0.74000001 1.1805421e-38
0.03589429 -0.024633346 0.73900002 2.340616e-38
0.037200946 -0.024566691 0.73700005 2.341769e-38
0.038604762 -0.024566682 0.73700005 2.341769e-38
0.03995429 -0.024533335 0.73600006 2.341769e-38
0.04124381 -0.024466677 0.73400003 2.341769e-38
0.042525712 -0.024400001 0.73200011 2.341769e-38
0.043860007 -0.024366632 0.73100007 2.341769e-38
0.04525239 -0.024366634 0.73100001 2.341769e-38
-0.028192377 -0.02269139 0.72200006 2.7768971e-40
-0.026742861 -0.022628564 0.72000003 3.6987833e-40
-0.025371427 -0.022628549 0.72000003 4.6098516e-40
-0.023999998 -0.022628551 0.72000003 6.4464494e-40
-0.023571433 -0.023571448 0.75000006 9.2016404e-40
-0.022142857 -0.02357142 0.75000006 9.1981652e-40
-0.020659054 -0.023508592 0.74800003 9.1945498e-40
-0.019285714 -0.023571404 0.75000012 7.3577978e-40
-0.017857151 -0.023571458 0.75000012 6.4431143e-40
-0.016472379 -0.023634264 0.75200003 5.5284307e-40
-0.015100006 -0.023728587 0.75500005 5.5356614e-40
-0.013680005 -0.023760021 0.75600004 4.6137612e-40
-0.012304764 -0.023885719 0.76000005 4.6139013e-40
-0.010857141 -0.023885693 0.76000005 3.6956865e-40
-0.0094219157 -0.023917187 0.76100004 2.7770793e-40
-0.0080142822 -0.024042837 0.76500005 3.695182e-40
-0.0065571433 -0.024042852 0.76500005 5.5283747e-40
-0.005113347 -0.024105782 0.76700002 4.6136631e-40
-0.0036523866 -0.024105743 0.76700008 4.6172925e-40
-0.0021857158 -0.024042863 0.76499999 3.6989795e-40
-0.00073048234 -0.024105743 0.76700002 3.6989515e-40
0.00073047 -0.024105744 0.76700002 4.6172644e-40
0.0021914225 -0.024105746 0.76700002 6.4539744e-40
0.0036523747 -0.024105748 0.76700002 6.4539603e-40
0.005113326 -0.02410575 0.76700008 7.368728e-40
0.0065742782 -0.02410575 0.76700008 5.5284167e-40
0.0080142841 -0.02404286 0.76499999 4.6063623e-40
0.0094714323 -0.024042835 0.76500005 6.4429601e-40
0.010928573 -0.024042854 0.76499999 9.1943817e-40
0.012353338 -0.023979984 0.76300001 8.2867326e-40
0.013806663 -0.023980018 0.76299995 8.2976207e-40
0.015199999 -0.023885729 0.76000005 6.4538622e-40
0.016647624 -0.023885708 0.76000011 5.5248014e-40
0.01809524 -0.023885719 0.76000005 8.2834956e-40
0.019491432 -0.023822848 0.75800002 1.0116674e-39
0.020879997 -0.023760008 0.7560001 9.2019627e-40
0.022320008 -0.023759972 0.7560001 7.3722592e-40
0.023760008 -0.02375998 0.7560001 9.208801e-40
0.025166668 -0.023728572 0.75500005 1.105277e-39
0.026499057 -0.023634251 0.75200003 1.1060014e-39
0.027931435 -0.02363429 0.75200003 1.1989356e-39
0.029168574 -0.023477135 0.74700004 1.1971643e-39
0.030591421 -0.023477176 0.74700004 1.2861313e-39
0.031842846 -0.023351477 0.74300003 3.2146768e-39
0.033213332 -0.023320014 0.7420001 5.1433623e-39
0.034486666 -0.023225732 0.73900002 1.4292972e-38
0.035797138 -0.02316289 0.73700005 2.341769e-38
0.037200946 -0.023162883 0.73700005 2.341769e-38
0.038552389 -0.023131415 0.73600006 2.341769e-38
0.039845709 -0.023068601 0.73400003 2.341769e-38
0.041131422 -0.023005739 0.73200005 2.341769e-38
0.042525709 -0.023005728 0.73200005 2.341769e-38
0.043860003 -0.022974256 0.73100001 2.341769e-38
0.045252383 -0.022974253 0.73100007 2.341769e-38
-0.029608583 -0.021345755 0.72300005 5.5320181e-40
-0.02823144 -0.021345753 0.72300005 3.6988534e-40
-0.026928585 -0.021404808 0.72500002 5.5391086e-40
-0.02547715 -0.021345736 0.72300005 6.4538062e-40
-0.024100006 -0.021345738 0.72300005 9.208815e-40
-0.022722865 -0.021345738 0.72300005 1.1038462e-39
-0.021434288 -0.021434283 0.72600001 1.1034973e-39
-0.02065905 -0.022083817 0.74800009 1.0116576e-39
-0.019234287 -0.022083804 0.74800009 8.2762369e-40
-0.017809521 -0.022083793 0.74800003 6.4431984e-40
-0.016428569 -0.022142828 0.75000006 7.3616234e-40
-0.015060007 -0.022231452 0.75300002 7.3688121e-40
-0.013661913 -0.022290502 0.75500005 6.4540724e-40
-0.012272381 -0.022379037 0.75800008 5.5322142e-40
-0.010828578 -0.022379071 0.75800002 5.5358996e-40
-0.0094095217 -0.02243807 0.76000005 4.6137752e-40
-0.0079933424 -0.022526704 0.76300001 4.613607e-40
-0.0065571438 -0.022585716 0.76499999 4.6172224e-40
-0.0050999965 -0.022585694 0.76500005 4.6208377e-40
-0.0036428566 -0.022585711 0.76499999 4.6173205e-40
-0.0021800012 -0.02252667 0.76300001 4.6173905e-40
-0.00072856917 -0.022585703 0.76499999 4.6173765e-40
0.00072857848 -0.022585679 0.76500005 6.4540584e-40
0.0021799959 -0.022526687 0.76300001 8.2907543e-40
0.0036428573 -0.022585712 0.76499999 7.3759727e-40
0.0051000048 -0.02258569 0.76500005 6.4540164e-40
0.0065400009 -0.022526665 0.76300001 6.4504151e-40
0.0079933349 -0.022526655 0.76300001 6.4467577e-40
0.0094466619 -0.022526689 0.76300001 7.3614552e-40
0.010871431 -0.022467606 0.76100004 7.3685738e-40
0.012320946 -0.022467652 0.76100004 8.2940474e-40
0.013679995 -0.022320027 0.75600004 9.2124864e-40
0.015119995 -0.022320032 0.7560001 7.3722873e-40
0.016559994 -0.02232004 0.7560001 5.5284027e-40
0.018000001 -0.022320006 0.75600004 7.3651266e-40
0.019439999 -0.02232001 0.75600004 9.2054659e-40
0.020852385 -0.02229047 0.75500011 7.3652247e-40
0.022290476 -0.022290487 0.75500005 5.5320321e-40
0.023728576 -0.022290461 0.75500005 9.1946339e-40
0.025066668 -0.022201911 0.75200003 1.2882473e-39
0.026428577 -0.022142841 0.75000006 1.197495e-39
0.027782854 -0.022083845 0.74800009 1.1067315e-39
0.02916857 -0.02205429 0.74700004 6.471911e-40
0.03042762 -0.021936208 0.74300009 9.3322274e-41
0.031714283 -0.021847628 0.74000001 5.1432124e-39
0.03307905 -0.021818083 0.73900002 1.0145163e-38
0.03439334 -0.021759046 0.73700005 1.6805534e-38
0.035797149 -0.021759037 0.73700005 2.341769e-38
0.037150484 -0.021729499 0.73600006 2.341769e-38
0.038552381 -0.021729542 0.73600006 2.341769e-38
0.039845712 -0.021670464 0.73400009 2.341769e-38
0.041131429 -0.021611424 0.73200005 2.341769e-38
0.042525712 -0.021611417 0.73200005 2.341769e-38
0.043860003 -0.021581875 0.73100007 2.341769e-38
0.045252386 -0.021581877 0.73100001 2.341769e-38
0.04664477 -0.02158187 0.73100007 2.341769e-38
-0.029608572 -0.019968564 0.72300005 4.6136631e-40
-0.028231429 -0.019968571 0.72300005 3.7060421e-40
-0.026854286 -0.019968569 0.72300005 5.5355353e-40
-0.0254419 -0.01994092 0.72200006 7.3686579e-40
-0.024066668 -0.01994095 0.72200006 8.2905862e-40
-0.022817142 -0.020051405 0.72600001 9.2018646e-40
-0.021434288 -0.020051422 0.72600001 1.0120304e-39
-0.020051429 -0.020051423 0.72600001 1.1038617e-39
-0.019234292 -0.020659067 0.74800003 8.2834956e-40
-0.017809527 -0.020659052 0.74800003 4.6065585e-40
-0.016384764 -0.020659041 0.74800003 6.4433385e-40
-0.015040006 -0.020769529 0.75200003 7.3616794e-40
-0.013625721 -0.020797163 0.75300002 8.2836077e-40
-0.012240003 -0.020880003 0.7560001 8.2836498e-40
-0.010800004 -0.02088001 0.7560001 7.3653368e-40
-0.0093847653 -0.020935249 0.75800002 6.4468838e-40
-0.0079723913 -0.021018138 0.76100004 5.5320181e-40
-0.0065228678 -0.021018147 0.76100004 4.6208377e-40
-0.0050733374 -0.021018112 0.76100004 4.6172504e-40
-0.0036333404 -0.021073367 0.76300001 5.5357035e-40
-0.0021742927 -0.021018129 0.76100004 5.5358016e-40
-0.00072476169 -0.021018095 0.76100004 5.5286269e-40
0.00072476076 -0.021018103 0.76100004 8.2872651e-40
0.0021742834 -0.02101811 0.76100004 1.1042302e-39
0.0036238052 -0.021018118 0.7610001 7.3724414e-40
0.0050733355 -0.021018084 0.76100004 4.6209498e-40
0.0065228487 -0.021018133 0.76100004 4.6137472e-40
0.0079723718 -0.02101814 0.76100004 5.5285008e-40
0.0094095245 -0.020990472 0.76000005 5.5284728e-40
0.010857148 -0.020990448 0.76000011 6.4539463e-40
0.012272385 -0.020935226 0.75800008 7.3722452e-40
0.013680001 -0.020879993 0.75600004 9.2161859e-40
0.01512 -0.020880001 0.75600004 8.2906983e-40
0.016560001 -0.020880006 0.75600004 7.3651407e-40
0.017976191 -0.020852383 0.75500005 9.2053959e-40
0.019414285 -0.0208524 0.75500005 1.1971279e-39
0.020852378 -0.020852413 0.75500005 8.2907263e-40
0.022231424 -0.020797178 0.75300002 5.5357035e-40
0.023634298 -0.020769488 0.75200003 8.2872091e-40
0.025000006 -0.020714268 0.75000006 1.1964286e-39
0.026428575 -0.020714281 0.75000012 1.3811814e-39
0.027782865 -0.020659022 0.74800003 1.5669754e-39
0.029090481 -0.020576194 0.74500012 8.2939073e-40
0.030386668 -0.020493329 0.74200004 9.2222255e-41
0.031714283 -0.020438099 0.74000001 8.4844348e-39
0.032989521 -0.020355245 0.73700011 1.6794264e-38
0.034393329 -0.020355279 0.73700005 2.0108742e-38
0.035748575 -0.020327624 0.73600012 2.341769e-38
0.03715048 -0.020327622 0.73600006 2.341769e-38
0.038552396 -0.020327585 0.73600006 2.341769e-38
0.039845712 -0.020272372 0.73400009 2.341769e-38
0.041131429 -0.02021716 0.73200011 2.341769e-38
0.042525712 -0.020217147 0.73200011 2.341769e-38
0.043860007 -0.020189498 0.73100001 2.341769e-38
0.045252383 -0.020189496 0.73100007 2.341769e-38
-0.029690487 -0.018642899 0.72500002 4.6029572e-40
-0.028309533 -0.018642902 0.72500002 3.6953642e-40
-0.026928583 -0.018642891 0.72500002 6.4504431e-40
-0.025477149 -0.018591447 0.72300005 8.2907403e-40
-0.024066661 -0.018565675 0.72200006 7.37956e-40
-0.02281715 -0.018668586 0.72600001 6.4504571e-40
-0.021434292 -0.018668585 0.72600007 9.1983754e-40
-0.020106666 -0.018719992 0.72800004 1.1956943e-39
-0.01920858 -0.019208591 0.74700004 7.3722733e-40
-0.017785711 -0.019208547 0.74700004 2.7770092e-40
-0.01638476 -0.019234262 0.74800009 5.5285709e-40
-0.015039996 -0.019337106 0.75200003 7.3652948e-40
-0.013607622 -0.019337142 0.75200003 9.1984314e-40
-0.012223817 -0.019414317 0.75500005 1.1038785e-39
-0.010742859 -0.019337138 0.75200003 9.1985435e-40
-0.0093476241 -0.019414302 0.75500005 7.3653508e-40
-0.0079409517 -0.019491423 0.75800002 6.4505131e-40
-0.0064971405 -0.019491412 0.75800002 4.6174326e-40
-0.0050533288 -0.019491404 0.75800008 5.5322423e-40
-0.0036190483 -0.019542858 0.76000011 5.5358436e-40
-0.0021714326 -0.019542873 0.76000005 6.4577859e-40
-0.00072380813 -0.019542847 0.76000011 6.4506252e-40
0.00072380778 -0.019542864 0.76000005 1.0124059e-39
0.0021742759 -0.019568622 0.76100004 1.2879096e-39
0.0036190557 -0.019542813 0.76000011 7.3725255e-40
0.0050666719 -0.019542828 0.76000005 1.8623957e-40
0.0064971461 -0.01949141 0.75800002 2.7664014e-40
0.0079409489 -0.01949144 0.75800002 3.6883717e-40
0.0093600033 -0.019439984 0.75600004 4.610342e-40
0.010800001 -0.019439992 0.7560001 4.6102439e-40
0.012240001 -0.019439999 0.7560001 7.3616234e-40
0.013661905 -0.019414283 0.75500011 9.2126966e-40
0.015099999 -0.019414298 0.75500005 9.2091373e-40
0.0165381 -0.019414272 0.75500005 8.2907263e-40
0.017976183 -0.019414328 0.75500005 1.1038575e-39
0.019414283 -0.019414298 0.75500005 1.3800842e-39
0.020797145 -0.019362872 0.75300002 9.2126826e-40
0.022201916 -0.019337106 0.75200009 4.6208798e-40
0.023571428 -0.019285733 0.75000012 7.3723433e-40
0.025000004 -0.019285709 0.75000012 1.0127548e-39
0.026358096 -0.0192343 0.74800003 1.4719477e-39
0.027782859 -0.019234285 0.74800003 1.9307469e-39
0.029012378 -0.019105745 0.74300009 1.0105786e-39
0.03038667 -0.019079983 0.74200004 1.073787e-40
0.031714279 -0.019028576 0.74000001 1.1815775e-38
0.032989513 -0.018951476 0.73700011 2.3407211e-38
0.034393329 -0.01895147 0.73700011 2.341769e-38
0.035748575 -0.0189257 0.73600006 2.341769e-38
0.037150476 -0.018925706 0.73600012 2.341769e-38
0.038447626 -0.018874265 0.73400003 2.341769e-38
0.039845712 -0.01887428 0.73400009 2.341769e-38
0.041131433 -0.018822845 0.73200011 2.341769e-38
0.04252572 -0.018822838 0.73200011 2.341769e-38
-0.029690484 -0.017261928 0.72500002 8.287195e-40
-0.028309533 -0.017261939 0.72500002 6.4541145e-40
-0.026854288 -0.017214298 0.72300005 6.4541565e-40
-0.025477147 -0.017214298 0.72300005 6.4505832e-40
-0.024100002 -0.0172143 0.72300005 6.4541705e-40
-0.022817144 -0.017285703 0.72600001 6.4505412e-40
-0.021493332 -0.017333321 0.72800004 8.2836077e-40
-0.02010666 -0.017333305 0.72800004 1.0116632e-39
-0.018720001 -0.017333329 0.72800004 7.3686439e-40
-0.017738109 -0.017738147 0.74500006 4.6244531e-40
-0.016319055 -0.017738115 0.74500006 5.5357455e-40
-0.014960001 -0.017809512 0.74800003 7.3760848e-40
-0.013571428 -0.017857129 0.75000012 8.2908945e-40
-0.012175231 -0.017904712 0.75200003 9.2093195e-40
-0.010742859 -0.017904755 0.75200003 7.365491e-40
-0.0093104756 -0.017904751 0.75200009 6.447108e-40
-0.0079095224 -0.017976176 0.75500005 6.4542406e-40
-0.0064800023 -0.018000007 0.75600004 6.457912e-40
-0.0050400035 -0.018000014 0.75600004 6.4508214e-40
-0.0036000041 -0.01800002 0.75600004 6.44715e-40
-0.0021599976 -0.017999984 0.7560001 5.5322983e-40
-0.00071999902 -0.017999992 0.7560001 5.5323263e-40
0.00072191021 -0.018047592 0.75800002 8.2838319e-40
0.0021657136 -0.018047623 0.75800002 1.1035281e-39
0.0036000065 -0.017999969 0.7560001 7.3725956e-40
0.0050400044 -0.017999977 0.7560001 4.6247333e-40
0.0064800037 -0.017999981 0.7560001 4.6139994e-40
0.0079200026 -0.017999986 0.7560001 4.6068948e-40
0.0093600014 -0.017999994 0.7560001 5.5289072e-40
0.010799999 -0.017999999 0.7560001 6.447122e-40
0.012223812 -0.017976172 0.75500005 9.2092214e-40
0.0136619 -0.017976224 0.75500005 1.1978636e-39
0.015099999 -0.0179762 0.75500005 8.3016144e-40
0.016494287 -0.017928591 0.75300002 5.5464935e-40
0.017928572 -0.01792858 0.75300002 8.2943276e-40
0.019362861 -0.017928567 0.75300002 1.1960573e-39
0.020769525 -0.017904766 0.75200003 9.2126826e-40
0.022142855 -0.01785716 0.75000012 6.461135e-40
0.023571433 -0.017857132 0.75000012 8.2941875e-40
0.024933342 -0.01780949 0.74800003 1.1042302e-39
0.0263581 -0.017809521 0.74800009 1.1038939e-39
0.027745714 -0.017785719 0.74699998 1.1024505e-39
0.029012376 -0.017690506 0.74300003 2.0207971e-39
0.030386666 -0.017666673 0.74200004 2.939302e-39
0.031671427 -0.01759525 0.73900002 1.2452317e-38
0.032989521 -0.017547626 0.73700005 2.1948322e-38
0.034393337 -0.017547617 0.73700011 2.2683006e-38
0.035748575 -0.017523786 0.73600006 2.341769e-38
0.03715048 -0.017523786 0.73600006 2.341769e-38
0.038447611 -0.01747621 0.73400009 2.341769e-38
0.039845709 -0.017476184 0.73400009 2.341769e-38
0.041131429 -0.017428579 0.73200005 2.341769e-38
0.042467616 -0.017404741 0.73100007 2.341769e-38
-0.029690487 -0.015881006 0.72500002 1.2871851e-39
-0.028309537 -0.015881008 0.72500002 9.2127667e-40
-0.026928583 -0.015880989 0.72500002 7.3724554e-40
-0.025547625 -0.015880978 0.72500002 4.6174186e-40
-0.024200005 -0.015902864 0.72600001 5.5393889e-40
-0.022879997 -0.015946638 0.72800004 6.4577438e-40
-0.021493332 -0.01594666 0.72800004 7.3653508e-40
-0.020106664 -0.01594664 0.72800004 8.2836498e-40
-0.018797142 -0.016012365 0.73100007 7.3652387e-40
-0.017666668 -0.016253326 0.74200004 6.4541986e-40
-0.01625333 -0.016253321 0.74200004 6.4507374e-40
-0.014940009 -0.016362889 0.74700004 6.4542826e-40
-0.013535242 -0.016384764 0.74800003 6.4614012e-40
-0.012142861 -0.016428582 0.75000012 6.4542826e-40
-0.010714285 -0.016428553 0.75000012 5.5252358e-40
-0.0092857145 -0.016428569 0.75000012 4.6139994e-40
-0.007878093 -0.016472362 0.75200003 6.4614293e-40
-0.0064542941 -0.016494323 0.75300002 8.2944958e-40
-0.005020007 -0.016494311 0.75300002 7.3688961e-40
-0.0035952439 -0.016538119 0.75500005 6.4505972e-40
-0.0021514306 -0.016494291 0.75300002 5.5322983e-40
-0.00071905047 -0.016538108 0.75500005 4.6139714e-40
0.00071999797 -0.016560007 0.75600004 6.447136e-40
0.0021599971 -0.016560014 0.75600004 8.2837899e-40
0.0035999962 -0.016560018 0.75600004 7.3689802e-40
0.0050399941 -0.016560026 0.75600004 6.4578139e-40
0.0064714276 -0.016538095 0.75500011 5.5358856e-40
0.0079095205 -0.01653811 0.75500005 4.6139854e-40
0.0093476214 -0.016538082 0.75500005 6.447136e-40
0.010785705 -0.016538139 0.75500005 8.2873212e-40
0.012223805 -0.016538113 0.75500005 1.1045847e-39
0.013625705 -0.016494337 0.75300002 1.3808143e-39
0.015059994 -0.016494323 0.75300002 8.3016424e-40
0.016494283 -0.016494311 0.75300002 2.7914706e-40
0.017904762 -0.01647239 0.75200003 6.4720231e-40
0.019337155 -0.016472343 0.75200003 9.2199133e-40
0.020714285 -0.016428588 0.75000012 9.216326e-40
0.022142861 -0.01642856 0.75000012 8.3015443e-40
0.023508573 -0.016384767 0.74800009 1.013108e-39
0.024899999 -0.016362885 0.74700004 1.1038617e-39
0.026252383 -0.016319066 0.74500012 6.4432124e-40
0.027597146 -0.016275238 0.74300003 1.8590746e-40
0.028973335 -0.016253332 0.7420001 3.0310604e-39
0.030304763 -0.016209519 0.74000001 5.8134492e-39
0.031671427 -0.016187616 0.73900002 1.3105823e-38
0.032989513 -0.016143858 0.73700005 2.0372717e-38
0.034393329 -0.016143851 0.73700005 2.1948322e-38
0.035748571 -0.016121911 0.73600006 2.341769e-38
0.037150484 -0.016121868 0.73600006 2.341769e-38
0.038447615 -0.016078116 0.73400009 2.341769e-38
0.039845712 -0.016078087 0.73400009 2.341769e-38
0.041131426 -0.016034305 0.73200011 2.341769e-38
-0.028309532 -0.014500019 0.72500002 1.0152646e-39
-0.026928585 -0.014500068 0.72500008 7.3759867e-40
-0.025547631 -0.014500047 0.72500008 4.6173905e-40
-0.024166677 -0.014500055 0.72500002 6.4613172e-40
-0.022879997 -0.014559974 0.72800004 8.3052578e-40
-0.021493332 -0.014559996 0.72800004 7.3726096e-40
-0.020189524 -0.014619987 0.73100007 7.3618476e-40
-0.018797135 -0.014619944 0.73100007 6.4506533e-40
-0.017595245 -0.014780018 0.73900002 6.4543947e-40
-0.016209526 -0.014800004 0.74000007 6.4509616e-40
-0.014860013 -0.014860046 0.74300003 6.4436468e-40
-0.013480959 -0.014900015 0.74500006 7.3690363e-40
-0.012110482 -0.014960014 0.74800009 7.3690923e-40
-0.010685718 -0.014960003 0.74800009 6.4472061e-40
-0.0092857173 -0.015000009 0.75000006 5.5252077e-40
-0.0078781014 -0.01504002 0.75200003 6.4542686e-40
-0.0064457101 -0.015039976 0.75200003 7.3724134e-40
-0.0050133364 -0.015040011 0.75200003 7.3722032e-40
-0.0035857207 -0.015060028 0.75300002 6.4576317e-40
-0.0021485738 -0.015040006 0.75200003 6.4506533e-40
-0.00071618339 -0.015039963 0.75200003 5.528753e-40
0.00071714347 -0.015059994 0.75300002 7.365491e-40
0.0021571361 -0.015100037 0.75500005 8.2837759e-40
0.0035952362 -0.01510001 0.75500005 8.2908805e-40
0.005033338 -0.015099985 0.75500005 7.3761268e-40
0.0064542792 -0.015060033 0.75300002 6.4541845e-40
0.0078885676 -0.015060023 0.75300002 5.5358296e-40
0.0093228538 -0.015060009 0.75300002 6.4541845e-40
0.010785715 -0.015099999 0.75500005 7.3760287e-40
0.012191425 -0.015060029 0.75300002 9.2126406e-40
0.013607628 -0.015039972 0.75200003 1.0134695e-39
0.01504 -0.015040011 0.75200003 7.3797282e-40
0.016472392 -0.015039965 0.75200003 4.6210479e-40
0.017857146 -0.015000003 0.75000006 6.4649045e-40
0.019234283 -0.014960029 0.74800003 9.227144e-40
0.020659048 -0.014960014 0.74800003 9.2235567e-40
0.022054287 -0.014940006 0.74699998 1.0145555e-39
0.023477146 -0.01494 0.74700004 8.2873632e-40
0.024899997 -0.014940041 0.74700004 6.4324084e-40
0.026181897 -0.014860055 0.74300003 2.2062057e-39
0.027597137 -0.014860041 0.74300003 3.7721736e-39
0.028973328 -0.01484003 0.74200004 6.8232922e-39
0.030304758 -0.014800037 0.74000001 9.8714148e-39
0.031671435 -0.014779984 0.73900002 1.2819451e-38
0.032989524 -0.014740006 0.73700005 1.5764389e-38
0.034393337 -0.014740002 0.73700005 1.7247493e-38
0.035748571 -0.01471999 0.73600012 1.873408e-38
0.03715048 -0.014719994 0.73600006 2.1121803e-38
0.038447615 -0.014680021 0.73400009 2.341769e-38
0.039737143 -0.014640003 0.73200011 2.341769e-38
-0.026928583 -0.013119095 0.72500002 7.3581482e-40
-0.025547625 -0.013119084 0.72500002 4.6174326e-40
-0.024199998 -0.013137124 0.72600001 7.3832594e-40
-0.022911437 -0.013191464 0.72900003 9.2200675e-40
-0.021522863 -0.013191436 0.72900003 7.3798683e-40
-0.020189514 -0.01322757 0.73100007 5.5359417e-40
-0.018822864 -0.01324574 0.73200005 6.4506673e-40
-0.017428577 -0.013245729 0.73200005 6.4507374e-40
-0.016187618 -0.013372361 0.73900002 6.4472341e-40
-0.014800006 -0.013390484 0.74000007 6.4507514e-40
-0.013390476 -0.013390453 0.74000001 7.3618756e-40
-0.01206191 -0.01348096 0.74500012 8.2874613e-40
-0.010685722 -0.013535266 0.74800009 7.3691764e-40
-0.0092609581 -0.013535256 0.74800003 6.4507794e-40
-0.007857142 -0.013571418 0.75000012 6.4507514e-40
-0.0064285644 -0.01357139 0.75000012 6.4542126e-40
-0.0050000036 -0.013571444 0.75000012 6.4540865e-40
-0.003580946 -0.013607585 0.75200003 6.4541845e-40
-0.0021428575 -0.013571427 0.75000012 6.447122e-40
-0.00071428862 -0.01357144 0.75000006 6.44715e-40
0.00071619096 -0.013607617 0.75200003 7.365533e-40
0.0021514217 -0.013625749 0.75300002 8.2838599e-40
0.0035809544 -0.013607611 0.75200003 8.2910066e-40
0.005013335 -0.013607607 0.75200003 8.2873912e-40
0.0064457175 -0.013607605 0.75200003 7.3654349e-40
0.0078780977 -0.0136076 0.75200003 5.5358576e-40
0.0093104718 -0.013607639 0.75200003 6.4577719e-40
0.010742863 -0.013607596 0.75200003 6.4613172e-40
0.012175236 -0.013607633 0.75200003 6.4612751e-40
0.013571434 -0.013571401 0.75000006 6.4613732e-40
0.015000002 -0.013571418 0.75000012 6.4614853e-40
0.016428575 -0.013571431 0.75000006 5.5430603e-40
0.017809531 -0.013535223 0.74800003 7.3797142e-40
0.019234287 -0.013535251 0.74800009 9.2236127e-40
0.020631427 -0.013517166 0.74700004 1.0145583e-39
0.02205429 -0.01351712 0.74700004 1.1049547e-39
0.023414288 -0.01348096 0.74500006 6.4433945e-40
0.024766665 -0.013444788 0.74300009 9.2617421e-41
0.026181905 -0.013444775 0.74300003 3.67385e-39
0.027597139 -0.013444803 0.74300009 7.2852905e-39
0.028895235 -0.013390507 0.74000001 1.0617638e-38
0.030304754 -0.013390512 0.74000001 1.3826828e-38
0.03167142 -0.013372432 0.73900002 1.2444244e-38
0.032989513 -0.013336238 0.73700005 1.107142e-38
0.034393325 -0.013336235 0.73700005 1.2542269e-38
0.035748579 -0.013318074 0.73600006 1.4028899e-38
0.037150472 -0.013318117 0.73600006 1.8734077e-38
0.038447618 -0.013281929 0.73400003 2.3413743e-38
0.039845712 -0.013281903 0.73400003 2.341769e-38
-0.02554764 -0.011738173 0.72500002 9.2092494e-40
-0.024200002 -0.011754283 0.72600007 9.216368e-40
-0.022911439 -0.011802907 0.72900003 1.013845e-39
-0.021522867 -0.011802883 0.72900003 8.294706e-40
-0.020189524 -0.01183523 0.73100007 7.3726936e-40
-0.018822858 -0.011851425 0.73200005 7.3690222e-40
-0.017523801 -0.011916137 0.73600006 6.44708e-40
-0.016143817 -0.011932404 0.73700005 7.3726096e-40
-0.014780007 -0.011964786 0.73900002 9.2165082e-40
-0.013372384 -0.011964764 0.73900002 9.2093475e-40
-0.012013336 -0.012013341 0.74200004 9.2165922e-40
-0.010614295 -0.012029567 0.74300009 8.29472e-40
-0.0092485817 -0.012094331 0.74700004 7.3727637e-40
-0.0078047705 -0.012061938 0.74500006 8.2875173e-40
-0.0064114253 -0.01211045 0.74800009 8.2874753e-40
-0.0049866769 -0.012110521 0.74800003 7.3690783e-40
-0.0035714288 -0.012142855 0.75000012 6.4507374e-40
-0.0021371474 -0.012110497 0.74800003 7.365519e-40
-0.00071238267 -0.012110482 0.74800003 9.1986696e-40
0.00071428664 -0.012142851 0.75000012 9.1986836e-40
0.002142864 -0.012142825 0.75000006 1.0113465e-39
0.0035714246 -0.012142877 0.75000006 1.1042596e-39
0.0050000022 -0.012142847 0.75000006 1.1957322e-39
0.006428571 -0.01214286 0.75000012 1.0120556e-39
0.0078571476 -0.012142832 0.75000012 7.3690082e-40
0.009285708 -0.012142886 0.75000012 7.3761128e-40
0.010714286 -0.012142857 0.75000006 7.3797142e-40
0.012142864 -0.012142829 0.75000006 6.4613732e-40
0.013535238 -0.012110484 0.74800003 5.5431303e-40
0.014959996 -0.01211051 0.74800003 6.4615974e-40
0.016384762 -0.012110501 0.74800003 8.2982092e-40
0.017785715 -0.012094288 0.74700004 1.0138394e-39
0.019208575 -0.012094283 0.74700004 1.1982321e-39
0.020576188 -0.012061913 0.74500006 1.1049659e-39
0.021995235 -0.012061927 0.74500012 1.012043e-39
0.023351423 -0.012029563 0.74300003 1.8378338e-39
0.024766665 -0.012029548 0.74300003 2.5718479e-39
0.026146676 -0.0120133 0.74200004 8.4823693e-39
0.027560001 -0.012013338 0.74200004 1.438358e-38
0.028895244 -0.011980939 0.74000007 1.5672928e-38
0.030263811 -0.011964782 0.73900002 1.7047198e-38
0.031585708 -0.011932394 0.73700005 1.4470389e-38
0.032989521 -0.011932387 0.73700005 1.1983286e-38
0.034346666 -0.011916195 0.73600012 1.2536798e-38
0.035748571 -0.011916199 0.73600006 1.3084669e-38
0.03715048 -0.011916156 0.73600006 1.5033389e-38
0.038342852 -0.011851472 0.73200011 1.6973777e-38
0.039954294 -0.011916158 0.73600006 1.918393e-38
0.041243814 -0.011883785 0.73400003 2.1489145e-38
-0.021522867 -0.010414324 0.72900003 1.0120542e-39
-0.020189516 -0.010442807 0.73100007 9.2057322e-40
-0.018822862 -0.010457157 0.73200011 8.2837619e-40
-0.017476192 -0.010485704 0.73400003 6.4541845e-40
-0.016143817 -0.010528595 0.73700011 9.2127947e-40
-0.014780005 -0.010557155 0.73900002 1.1053162e-39
-0.01337238 -0.010557129 0.73900002 1.0127702e-39
-0.011964766 -0.010557151 0.73899996 9.213061e-40
-0.010599999 -0.010599987 0.7420001 9.2131871e-40
-0.0091990558 -0.010614314 0.74300009 8.2911747e-40
-0.0077838139 -0.010614299 0.74300003 9.1986977e-40
-0.0064028599 -0.010671434 0.74700004 1.0120584e-39
-0.0049800016 -0.010671434 0.7470001 8.2802306e-40
-0.0035619084 -0.010685732 0.74800009 5.5323404e-40
-0.0021342854 -0.010671421 0.74700004 8.2838319e-40
-0.00071143551 -0.01067146 0.74700004 1.1038911e-39
0.00071237673 -0.010685734 0.74800009 1.195728e-39
0.0021428533 -0.010714303 0.75000006 1.1960881e-39
0.0035714307 -0.010714275 0.75000006 1.3801192e-39
0.0049999999 -0.010714288 0.75000012 1.5634273e-39
0.006428577 -0.01071426 0.75000012 1.2875565e-39
0.0078571374 -0.010714314 0.75000012 9.205578e-40
0.0092857145 -0.010714284 0.75000006 9.2090252e-40
0.010714284 -0.010714297 0.75000012 8.297957e-40
0.012110476 -0.010685717 0.74800009 6.4649605e-40
0.01353524 -0.010685702 0.74800009 3.7063223e-40
0.014960007 -0.010685691 0.74800003 7.3797702e-40
0.016362865 -0.010671408 0.74700004 1.1053204e-39
0.017785711 -0.010671443 0.74700004 1.2889942e-39
0.01915714 -0.010642883 0.74500006 1.3804836e-39
0.020576185 -0.010642893 0.74500012 1.1953889e-39
0.021936191 -0.010614299 0.74300003 9.1951804e-40
0.023351423 -0.010614323 0.74300009 3.0310114e-39
0.024733335 -0.010600003 0.74200004 5.0794575e-39
0.026146673 -0.010599996 0.74200004 1.3299895e-38
0.027560005 -0.01059999 0.74200004 2.1379646e-38
0.028895244 -0.010571414 0.74000001 2.082722e-38
0.030263809 -0.010557148 0.73900002 2.0272586e-38
0.031585712 -0.01052859 0.73700011 1.6589806e-38
0.032989521 -0.010528582 0.73700011 1.2815205e-38
0.03434667 -0.010514279 0.73600006 1.2537171e-38
0.035748575 -0.010514281 0.73600012 1.2168436e-38
0.037049524 -0.010485684 0.73400003 1.1340166e-38
0.038342852 -0.010457159 0.73200011 1.0436535e-38
0.039737143 -0.010457155 0.73200011 1.5038368e-38
0.041243818 -0.010485693 0.73400003 1.9545507e-38
-0.020189522 -0.0090504689 0.73100001 1.0127604e-39
-0.018822854 -0.0090628462 0.73200011 8.2908945e-40
-0.017428569 -0.0090628387 0.73200011 6.4577018e-40
-0.016034281 -0.0090628257 0.73200011 1.105298e-39
-0.014680008 -0.0090876417 0.73400003 1.5648468e-39
-0.013318092 -0.009112346 0.73600006 1.2886355e-39
-0.011916194 -0.0091123851 0.73600006 1.0127885e-39
-0.010557148 -0.0091495356 0.73900002 9.2132992e-40
-0.0091619082 -0.0091619147 0.74000007 9.2095857e-40
-0.0077733346 -0.0091866674 0.74200004 9.2058583e-40
-0.0063685803 -0.0091990912 0.74300003 9.1986136e-40
-0.0049533481 -0.0091991154 0.74300003 6.4506533e-40
-0.003538107 -0.0091991043 0.74300003 4.6175447e-40
-0.0021228576 -0.0091990503 0.74300003 7.3690222e-40
-0.00070952676 -0.0092238253 0.74500006 1.1038869e-39
0.00071142049 -0.0092486097 0.74700004 9.2057462e-40
0.002134287 -0.0092485631 0.74700004 8.2981672e-40
0.0035571367 -0.0092486003 0.74700004 1.1053246e-39
0.0049799951 -0.0092485966 0.74700004 1.4723037e-39
0.006411422 -0.0092609888 0.74800009 1.1960741e-39
0.0078257108 -0.0092485854 0.74700004 9.2090392e-40
0.0092485687 -0.0092485817 0.74700004 8.2904461e-40
0.010671419 -0.0092486208 0.74700004 7.3759026e-40
0.012110471 -0.0092609795 0.74800009 7.3761268e-40
0.013517144 -0.0092485687 0.74700004 7.3724694e-40
0.014939995 -0.0092486059 0.74700004 1.0134639e-39
0.016362863 -0.0092485594 0.74700004 1.2893445e-39
0.017738091 -0.0092238476 0.74500006 1.9318497e-39
0.019157143 -0.0092238197 0.74500006 2.5740003e-39
0.020520952 -0.0091990726 0.74300003 2.8520375e-39
0.021936184 -0.0091990968 0.74300003 3.1228805e-39
0.023320002 -0.0091866618 0.74200004 4.5133273e-39
0.024733339 -0.0091866525 0.7420001 5.9146566e-39
0.026146673 -0.0091866488 0.7420001 1.2371602e-38
0.027485721 -0.0091618812 0.74000001 1.8824462e-38
0.02885619 -0.0091495393 0.73900002 1.8171549e-38
0.030181903 -0.0091247866 0.73699999 1.7534407e-38
0.031585712 -0.0091247773 0.73700005 1.4754196e-38
0.032989517 -0.0091247698 0.73700005 1.2078388e-38
0.03434667 -0.0091123609 0.73600006 1.2353871e-38
0.035748575 -0.0091123609 0.73600006 1.2630095e-38
0.037049528 -0.0090875858 0.73400003 1.21702e-38
-0.020189514 -0.0076580499 0.73100001 1.1053218e-39
-0.018797142 -0.007658089 0.73100001 9.2092915e-40
-0.017428579 -0.0076686055 0.73200011 6.4613312e-40
-0.016034292 -0.0076685981 0.73200011 1.2893347e-39
-0.014680008 -0.0076895491 0.73400003 1.9318315e-39
-0.013281909 -0.007689523 0.73400003 1.4726624e-39
-0.011916192 -0.0077104685 0.73600006 1.0134961e-39
-0.010528582 -0.0077209868 0.73700005 1.0135073e-39
-0.0091495281 -0.0077419174 0.73900002 9.2166623e-40
-0.0077523855 -0.0077524004 0.74000007 9.2094316e-40
-0.0063599972 -0.0077733123 0.7420001 8.2946079e-40
-0.004946671 -0.0077733495 0.7420001 5.5430883e-40
-0.0035381066 -0.007783866 0.74300003 2.784338e-40
-0.0021199938 -0.0077732936 0.74200004 6.4504991e-40
-0.000707625 -0.0077838344 0.74300003 1.0120332e-39
0.00070952199 -0.0078047705 0.74500006 7.3688541e-40
0.0021285666 -0.0078047835 0.74500012 3.7026089e-40
0.0035476205 -0.0078047519 0.74500006 9.2235006e-40
0.0049799937 -0.0078257499 0.74700004 1.3797311e-39
0.0064028595 -0.0078257034 0.74700004 1.1953412e-39
0.007825708 -0.0078257406 0.74700004 9.205522e-40
0.0092485659 -0.0078257369 0.74700004 8.2835937e-40
0.010671425 -0.0078257313 0.7470001 6.4577859e-40
0.012094283 -0.0078257257 0.74700004 8.2874613e-40
0.013444751 -0.0077838604 0.74300003 1.0134891e-39
0.014859994 -0.0077838474 0.74300003 1.1971573e-39
0.016275225 -0.0077838735 0.74300003 1.3819171e-39
0.01766667 -0.0077733365 0.7420001 2.5754324e-39
0.019080004 -0.007773329 0.74200004 3.7746875e-39
0.020493336 -0.0077733235 0.74200004 4.6069579e-39
0.021906672 -0.007773316 0.7420001 5.3412873e-39
0.023320006 -0.0077733104 0.7420001 6.0770517e-39
0.024733331 -0.0077733477 0.74200004 6.7415068e-39
0.026076192 -0.0077523873 0.74000007 1.1446724e-38
0.02748571 -0.0077523985 0.74000007 1.6136065e-38
0.028856192 -0.0077419062 0.73900002 1.5499667e-38
0.030181902 -0.0077209775 0.73700005 1.4750603e-38
0.031585712 -0.0077209701 0.73700005 1.2997448e-38
0.032989521 -0.0077209645 0.73700005 1.1250419e-38
0.034393337 -0.0077209533 0.73700011 1.2170206e-38
0.035748579 -0.0077104424 0.73600006 1.3090357e-38
-0.018797137 -0.0062656705 0.73100001 1.3815458e-39
-0.017404756 -0.0062656649 0.73100007 1.0145569e-39
-0.016034288 -0.0062742871 0.73200011 1.2889816e-39
-0.014640001 -0.0062742797 0.73200011 1.5637748e-39
-0.013281909 -0.0062914309 0.73400003 1.1971531e-39
-0.011916189 -0.0063085505 0.73600006 9.2272701e-40
-0.010514284 -0.0063085542 0.73600006 1.0138478e-39
-0.0091495262 -0.0063342866 0.73899996 1.1060449e-39
-0.0077419099 -0.0063343053 0.73900002 7.376295e-40
-0.0063428557 -0.0063428399 0.74000001 4.6283767e-40
-0.0049466682 -0.0063599986 0.7420001 3.7028051e-40
-0.0035333331 -0.006359993 0.74200004 1.8695003e-40
-0.0021142894 -0.0063428697 0.74000007 3.6916788e-40
-0.00070666388 -0.0063599837 0.7420001 5.5176267e-40
0.00070761604 -0.0063685798 0.74300003 5.5212e-40
0.0021228492 -0.0063686115 0.74300003 4.6064184e-40
0.0035380903 -0.0063685947 0.74300003 1.3825827e-39
0.0049666609 -0.0063857441 0.74500006 2.2966329e-39
0.0063857059 -0.0063857534 0.74500006 2.0268661e-39
0.0078047598 -0.0063857236 0.74500006 1.839633e-39
0.0092238048 -0.0063857348 0.74500006 1.4741085e-39
0.01064285 -0.0063857478 0.74500012 1.1071309e-39
0.012061903 -0.0063857161 0.74500012 1.2904487e-39
0.01344476 -0.0063685798 0.74300003 1.5663154e-39
