# .PCD v0.7 - Point Cloud Data file format
VERSION 0.7
FIELDS x y z rgb
SIZE 4 4 4 4
TYPE F F F F
COUNT 1 1 1 1
WIDTH 961
HEIGHT 1
VIEWPOINT 0 0 0 1 0 0 0
POINTS 961
DATA ascii
-0.019858094 -0.058204763 0.71900004 9.2202216e-40
-0.01841143 -0.057961918 0.71599996 1.0138478e-39
-0.017047621 -0.0579619 0.71599996 1.1971377e-39
-0.015618098 -0.057719048 0.71300006 1.472263e-39
-0.014200003 -0.057476189 0.71000004 1.7481731e-39
-0.012811431 -0.057314292 0.70799994 2.1173536e-39
-0.011446669 -0.057233326 0.70700002 2.485399e-39
-0.010071429 -0.057071418 0.70500004 2.0247726e-39
-0.0087161921 -0.056990471 0.704 1.5652308e-39
-0.007375238 -0.056990489 0.704 1.2897173e-39
-0.0060257148 -0.056909516 0.70299995 1.0135031e-39
-0.0046866671 -0.056909513 0.70299995 7.3800645e-40
-0.0033380955 -0.056747649 0.70099998 5.5362219e-40
-0.0020000001 -0.056666676 0.69999999 5.5398373e-40
-0.00066476187 -0.056504775 0.69799995 5.5434386e-40
0.00066476199 -0.056504771 0.69799989 8.2913429e-40
0.0019914287 -0.056423802 0.69700003 1.1031988e-39
0.0033190481 -0.056423828 0.69699997 9.2095437e-40
0.0046466668 -0.056423794 0.69700003 7.3836378e-40
0.0059742862 -0.056423802 0.69700003 8.2948601e-40
0.0073019052 -0.056423832 0.69699997 9.2096558e-40
0.0086047631 -0.056261908 0.69499999 9.2060965e-40
0.009928572 -0.056261919 0.69499999 9.1989499e-40
0.011236191 -0.056180932 0.69400001 1.1039275e-39
0.012558095 -0.056180902 0.69400001 1.2876041e-39
0.01388 -0.056180935 0.69400001 1.1046562e-39
0.015180001 -0.056100015 0.69300002 1.0138885e-39
0.01652381 -0.056180913 0.69400001 1.104638e-39
0.017845718 -0.056180947 0.69400001 1.2883118e-39
0.019195238 -0.056261893 0.69499999 1.3808675e-39
0.020519048 -0.056261893 0.69500005 1.4723373e-39
0.021842858 -0.056261893 0.69499999 1.289018e-39
0.023166668 -0.056261901 0.69499999 1.1971839e-39
0.024560954 -0.056423817 0.69700003 1.0135129e-39
0.025888575 -0.056423821 0.69700003 7.3728618e-40
0.027255239 -0.056504775 0.69799995 4.6213562e-40
0.028584765 -0.056504775 0.69799995 1.8452158e-40
0.030000001 -0.056666683 0.69999999 3.3177339e-39
0.03146762 -0.056909531 0.70299995 6.5613895e-39
0.032806668 -0.056909524 0.70299995 6.4620164e-39
0.034194291 -0.056990478 0.704 6.3544513e-39
0.035585716 -0.057071436 0.70499998 1.2627299e-38
0.037085716 -0.057314303 0.70799994 1.8903362e-38
0.038434289 -0.057314288 0.70799994 2.1210051e-38
0.040120002 -0.057800017 0.71399999 2.341769e-38
0.041596197 -0.057961904 0.71599996 2.341769e-38
0.043020003 -0.058042839 0.71700001 2.341769e-38
0.044385716 -0.058042847 0.71700001 2.341769e-38
-0.021257145 -0.056914259 0.71999997 3.713553e-40
-0.019802859 -0.056677129 0.71699995 6.4686459e-40
-0.01841143 -0.05659809 0.71599996 9.2345148e-40
-0.017000003 -0.056440007 0.71399999 1.1063952e-39
-0.015618098 -0.056360941 0.71300006 1.5652041e-39
-0.014160002 -0.055965729 0.70799994 1.9332902e-39
-0.012793334 -0.055886652 0.70699996 1.9347532e-39
-0.011414287 -0.055728585 0.70499998 1.9343818e-39
-0.010057144 -0.055649512 0.704 1.6574292e-39
-0.0087161921 -0.055649526 0.704 1.3811982e-39
-0.0073647625 -0.055570465 0.70299995 1.0134905e-39
-0.0060257148 -0.055570487 0.70299995 6.4615834e-40
-0.0046733338 -0.055412378 0.70100003 5.5433265e-40
-0.0033333334 -0.055333346 0.69999993 4.6214543e-40
-0.0019914287 -0.055096183 0.69700003 4.6215244e-40
-0.00066380959 -0.055096194 0.69700003 4.617909e-40
0.00066380965 -0.055096213 0.69700003 1.0117249e-39
0.0019857143 -0.054938104 0.69499999 1.5627266e-39
0.0033095242 -0.054938074 0.69500005 1.2875677e-39
0.0046333335 -0.054938104 0.69500005 9.2095297e-40
0.0059571434 -0.054938074 0.69500005 1.0120808e-39
0.0072809532 -0.054938078 0.69499999 1.1046366e-39
0.0085923811 -0.054859038 0.69400001 1.0128039e-39
0.0099142855 -0.054859038 0.69400001 9.2025232e-40
0.011236191 -0.054859012 0.69400001 1.1957602e-39
0.01254 -0.054779992 0.69300002 1.4712709e-39
0.013860001 -0.054780025 0.69299996 1.1957686e-39
0.01513619 -0.054621909 0.69099998 8.2914129e-40
0.016500004 -0.054780003 0.69299996 1.1957616e-39
0.017820003 -0.054780006 0.69300002 1.4723443e-39
0.019167621 -0.054859031 0.69399995 1.6567328e-39
0.02051905 -0.054938093 0.69500005 1.7492787e-39
0.021842858 -0.054938097 0.69499999 1.5645245e-39
0.02316667 -0.054938067 0.69500005 1.2893768e-39
0.024490476 -0.054938104 0.69499999 1.1968252e-39
0.025888573 -0.055096179 0.69700003 1.0135171e-39
0.027216194 -0.055096213 0.69700003 6.4725416e-40
0.028584765 -0.055175222 0.69799995 2.7742627e-40
0.029914288 -0.055175249 0.69799995 3.1229169e-39
0.031333335 -0.055333368 0.69999999 5.9992502e-39
0.032713335 -0.05541236 0.70100003 6.8372659e-39
0.03414572 -0.055570453 0.70299995 7.5590593e-39
0.035484772 -0.055570479 0.70299995 1.1970057e-38
0.036928572 -0.055728577 0.70500004 1.6414454e-38
0.038380001 -0.055886656 0.70700002 1.9927941e-38
0.039726671 -0.055886652 0.70699996 2.341769e-38
0.041421913 -0.056360956 0.71300006 2.341769e-38
0.042780008 -0.056360941 0.713 2.341769e-38
0.04438572 -0.056677137 0.71699995 2.341769e-38
0.045879055 -0.056835212 0.71900004 2.341769e-38
-0.01977524 -0.055234279 0.71599996 7.3761549e-40
-0.01836 -0.055080011 0.71399999 1.0142136e-39
-0.016976193 -0.05500282 0.71300006 1.290083e-39
-0.015574289 -0.05484857 0.71100003 1.6577865e-39
-0.014160001 -0.054617133 0.70799994 2.0251383e-39
-0.012757144 -0.054385714 0.70500004 2.0262229e-39
-0.011414288 -0.054385711 0.70500004 2.027648e-39
-0.010057145 -0.054308563 0.704 1.5659496e-39
-0.0087038111 -0.054231416 0.70299995 1.1964482e-39
-0.0073647625 -0.054231431 0.70299995 9.2129348e-40
-0.0060085715 -0.054077167 0.70099998 7.3834977e-40
-0.0046666665 -0.054000009 0.69999999 5.5432985e-40
-0.0033238092 -0.053845707 0.69799995 3.7031134e-40
-0.0019857143 -0.053614296 0.69499999 4.6179791e-40
-0.00066095241 -0.053537127 0.69399995 5.5398513e-40
0.00066095241 -0.053537127 0.69400001 9.2024251e-40
0.0019828572 -0.053537127 0.69400001 1.1953763e-39
0.0033047623 -0.053537101 0.69400001 1.0124073e-39
0.0046200007 -0.053460013 0.69300002 7.3691624e-40
0.005948572 -0.053537104 0.69400001 7.3729038e-40
0.0072704772 -0.053537108 0.69400001 7.3801205e-40
0.0085800001 -0.053460021 0.69299996 7.3729739e-40
0.0099000009 -0.053460002 0.69300002 7.3657993e-40
0.011220002 -0.053460006 0.69299996 1.012085e-39
0.01254 -0.053460002 0.69300002 1.1954015e-39
0.013860002 -0.053460017 0.69300002 1.1042862e-39
0.015136191 -0.053305712 0.69099998 9.2097679e-40
0.016452383 -0.053305712 0.69100004 1.1046492e-39
0.017768575 -0.053305726 0.69099998 1.3815878e-39
0.01914 -0.053459998 0.69300002 2.0265859e-39
0.020489525 -0.053537115 0.69399995 2.671221e-39
0.021842858 -0.05361427 0.69500005 2.0269292e-39
0.023133337 -0.053537123 0.69400001 1.4744827e-39
0.024490476 -0.053614277 0.69499999 1.1060659e-39
0.025814286 -0.053614277 0.69500005 7.3765752e-40
0.027138097 -0.053614277 0.69499999 7.3766733e-40
0.028543813 -0.05376859 0.69699997 7.3588068e-40
0.029871428 -0.053768564 0.69700003 2.857071e-39
0.031333338 -0.054000027 0.69999999 4.9955127e-39
0.032666672 -0.053999994 0.69999999 6.4645584e-39
0.034048572 -0.054077137 0.70100003 8.0135579e-39
0.035484768 -0.05423142 0.70299995 1.1515138e-38
0.036928568 -0.054385703 0.70500004 1.5131246e-38
0.038379997 -0.054539997 0.70699996 1.9279712e-38
0.039782863 -0.054617137 0.70799994 2.341769e-38
0.041247621 -0.054771442 0.70999998 2.341769e-38
0.042660002 -0.054848567 0.71100003 2.341769e-38
0.044138107 -0.055002842 0.71300006 2.341769e-38
0.045687627 -0.055234294 0.71599996 2.341769e-38
-0.019719999 -0.053720012 0.71399999 8.2945519e-40
-0.018334284 -0.053644761 0.71300006 1.1053316e-39
-0.016928574 -0.053494293 0.71099997 1.3815598e-39
-0.015552384 -0.053419046 0.71000004 1.7499822e-39
-0.014100001 -0.053042848 0.70500004 2.0255013e-39
-0.012739049 -0.052967619 0.704 2.0258712e-39
-0.011381906 -0.052892368 0.70299995 2.0262187e-39
-0.010042857 -0.052892383 0.70299995 1.4737596e-39
-0.0086790491 -0.0527419 0.70100003 9.2202216e-40
-0.0073438101 -0.052741896 0.70099998 9.2093755e-40
-0.0060000005 -0.052666675 0.69999999 8.3018526e-40
-0.0046533332 -0.052516181 0.69799995 5.5432845e-40
-0.0033190474 -0.052440953 0.69700003 2.7846743e-40
-0.0019828572 -0.052215192 0.69400001 4.6106643e-40
-0.00066000002 -0.052140009 0.69300002 6.4509335e-40
0.00066000008 -0.05214002 0.69299996 7.3620998e-40
0.0019800002 -0.05213999 0.69300002 8.2875734e-40
0.0032904767 -0.051989514 0.69099998 7.3727497e-40
0.004606667 -0.051989526 0.69099998 5.5361659e-40
0.0059228577 -0.051989522 0.69100004 4.617923e-40
0.0072600008 -0.052140035 0.69299996 2.7848145e-40
0.0085552391 -0.051989511 0.69099998 4.6179371e-40
0.0098714288 -0.051989544 0.69099998 5.5361939e-40
0.01118762 -0.051989526 0.69099998 7.3728058e-40
0.012503809 -0.051989529 0.69099998 9.2060264e-40
0.013820002 -0.051989507 0.69099998 1.0135241e-39
0.015114286 -0.051914278 0.69 1.0128095e-39
0.016428575 -0.051914293 0.69 1.1039303e-39
0.017742863 -0.051914271 0.69 1.1993531e-39
0.019084761 -0.051989529 0.69099998 2.3964432e-39
0.020489527 -0.052215222 0.69400001 3.4991754e-39
0.021811431 -0.052215222 0.69400001 2.5811694e-39
0.023100004 -0.052140001 0.69299996 1.5677545e-39
0.02445524 -0.05221523 0.69400001 1.0145933e-39
0.025777146 -0.052215233 0.69399995 3.7067427e-40
0.027138097 -0.052290481 0.69499999 7.373044e-40
0.028461909 -0.052290455 0.69499999 1.1042919e-39
0.029785715 -0.052290481 0.69499999 2.573664e-39
0.03124381 -0.052516203 0.69799995 3.974203e-39
0.032573339 -0.05251617 0.69799995 6.1955217e-39
0.034000006 -0.052666683 0.69999999 8.3859291e-39
0.035383817 -0.052741889 0.70100003 1.1037306e-38
0.036823813 -0.05289235 0.70299995 1.374331e-38
0.038271427 -0.053042844 0.70500004 1.8642244e-38
0.039726671 -0.053193327 0.70699996 2.341769e-38
0.041247621 -0.05341905 0.71000004 2.341769e-38
0.042660002 -0.053494282 0.71100003 2.341769e-38
0.04401429 -0.05349429 0.71100003 2.341769e-38
0.045560006 -0.053720012 0.71400005 2.341769e-38
-0.019720001 -0.052360024 0.71399999 9.2129348e-40
-0.018334284 -0.052286655 0.71300006 1.1971657e-39
-0.016928576 -0.052140027 0.71099997 1.4730365e-39
-0.015508573 -0.05192 0.70799994 1.6570719e-39
-0.014080002 -0.051626686 0.704 1.841117e-39
-0.012720954 -0.051553335 0.70299995 1.9340427e-39
-0.011381906 -0.051553331 0.70299995 2.0262243e-39
-0.010014286 -0.051406667 0.70099998 1.5663168e-39
-0.0086790491 -0.051406689 0.70099998 1.1064134e-39
-0.0073333331 -0.051333338 0.70000005 9.2237529e-40
-0.0059828577 -0.051186655 0.69799995 6.4723314e-40
-0.0046466663 -0.051113352 0.69700003 5.5504311e-40
-0.0033095239 -0.050966639 0.69500005 4.6248875e-40
-0.0019828572 -0.050893307 0.69400001 5.5396271e-40
-0.00065809535 -0.050673321 0.69100004 6.4580241e-40
0.00065809535 -0.05067334 0.69099998 8.2911747e-40
0.0019742858 -0.050673336 0.69100004 1.0138689e-39
0.0032857147 -0.050600018 0.69 6.4545489e-40
0.0046000001 -0.050600015 0.69 3.7067427e-40
0.0059142862 -0.050600033 0.69 2.7812972e-40
0.0072285719 -0.050600011 0.69 1.8701029e-40
0.0085428581 -0.050599992 0.69 2.7812552e-40
0.0098571433 -0.050600018 0.69 3.7101759e-40
0.01117143 -0.050599996 0.69 7.3690503e-40
0.012485716 -0.050600011 0.69 1.1035464e-39
0.013800002 -0.050599981 0.69 8.2877275e-40
0.015114287 -0.050600022 0.69 6.4582343e-40
0.016428573 -0.050600003 0.69 1.0142458e-39
0.017742861 -0.050600011 0.68999994 1.3844605e-39
0.019057142 -0.050600011 0.69 2.029104e-39
0.020400954 -0.05067334 0.69100004 2.5822568e-39
0.021717144 -0.050673347 0.69099998 2.1216317e-39
0.023033336 -0.050673317 0.69099998 1.6603089e-39
0.024349524 -0.050673336 0.69099998 1.1993433e-39
0.025740003 -0.050819989 0.69300002 6.4653949e-40
0.027060004 -0.050820027 0.69300002 1.1053596e-39
0.028420959 -0.050893314 0.69400001 1.656374e-39
0.029742859 -0.050893318 0.69400001 2.394288e-39
0.031109527 -0.050966654 0.69500005 3.2341394e-39
0.032526668 -0.051113334 0.69700003 5.9121357e-39
0.033902865 -0.051186681 0.69799995 8.6643111e-39
0.035333343 -0.051333342 0.69999999 1.104771e-38
0.03671905 -0.051406674 0.70099998 1.346888e-38
0.038162861 -0.051553316 0.70299995 1.845104e-38
0.039558094 -0.05162669 0.704 2.341769e-38
0.041073337 -0.051846649 0.70700002 2.341769e-38
0.042600002 -0.052066684 0.70999998 2.341769e-38
0.04401429 -0.052140001 0.71100003 2.341769e-38
0.045687627 -0.052506663 0.71599996 2.341769e-38
-0.019637143 -0.050785705 0.71100003 1.013122e-39
-0.018205717 -0.05057143 0.708 1.2882767e-39
-0.016785717 -0.050357118 0.70500004 1.5648622e-39
-0.015420955 -0.050285723 0.704 1.6563432e-39
-0.014060001 -0.050214283 0.70299995 1.6585082e-39
-0.012720954 -0.050214279 0.70299995 1.8432694e-39
-0.011349524 -0.050071422 0.70100003 1.9347378e-39
-0.010000001 -0.050000012 0.69999999 1.6581481e-39
-0.0086666681 -0.050000038 0.69999999 1.2908047e-39
-0.0073333336 -0.050000001 0.70000005 9.2310396e-40
-0.0059742858 -0.0497857 0.69700003 4.6356775e-40
-0.0046333335 -0.049642868 0.69499999 5.5576338e-40
-0.0033095239 -0.049642839 0.69500005 5.5467877e-40
-0.0019799999 -0.049500015 0.69299996 5.5467037e-40
-0.00065809535 -0.049357135 0.69099998 5.5324104e-40
0.0006571429 -0.049285714 0.69 8.2803707e-40
0.001971429 -0.049285721 0.68999994 1.1035478e-39
0.0032809526 -0.049214303 0.68899995 6.4329969e-40
0.0045933342 -0.049214307 0.68900001 9.3012587e-41
0.0059057153 -0.049214322 0.68899995 9.2662262e-41
0.0072180964 -0.049214303 0.68899995 9.3374122e-41
0.0085304771 -0.0492143 0.68900001 1.8448795e-40
0.0098428568 -0.049214311 0.68899995 1.851886e-40
0.011155238 -0.049214292 0.68900001 7.3582603e-40
0.012467619 -0.0492143 0.68899995 1.1950231e-39
0.013780001 -0.049214307 0.68900001 7.36224e-40
0.015092381 -0.049214322 0.68899995 2.7884438e-40
0.016404763 -0.0492143 0.68900001 9.2313059e-40
0.017717145 -0.049214281 0.68900001 1.5677727e-39
0.019057143 -0.049285721 0.68999994 1.6610417e-39
0.02037143 -0.049285702 0.69 1.6617522e-39
0.021685718 -0.049285743 0.68999994 1.7546569e-39
0.023000004 -0.049285725 0.69 1.7528674e-39
0.024314286 -0.049285728 0.68999994 1.3840933e-39
0.025628572 -0.049285728 0.69 9.234739e-40
0.026981909 -0.04935712 0.69100004 1.5645231e-39
0.028380005 -0.049500022 0.69299996 2.1151788e-39
0.029700002 -0.049499992 0.69300002 2.2966988e-39
0.031064764 -0.049571402 0.69400001 2.4072486e-39
0.032386668 -0.049571406 0.69400001 5.6455877e-39
0.033854287 -0.049785726 0.69700003 8.8429668e-39
0.035181906 -0.049785718 0.69699997 1.1020828e-38
0.036509525 -0.049785715 0.69700003 1.3187286e-38
0.038000003 -0.049999997 0.69999999 1.8366738e-38
0.039389525 -0.050071418 0.70100003 2.341769e-38
0.040957145 -0.050357137 0.70499998 2.341769e-38
0.042480007 -0.05057143 0.70799994 2.341769e-38
0.043952383 -0.050714318 0.70999998 2.341769e-38
0.045368575 -0.05078572 0.71100003 2.341769e-38
0.046722863 -0.050785735 0.71100003 2.341769e-38
-0.019637143 -0.049431417 0.71100003 8.3016144e-40
-0.018180003 -0.049153298 0.70700002 1.2897047e-39
-0.016761908 -0.048944764 0.704 1.7499597e-39
-0.015399049 -0.048875231 0.70299995 1.842154e-39
-0.014020002 -0.048736185 0.70100003 2.0272725e-39
-0.012684762 -0.048736207 0.70099998 1.9354496e-39
-0.011333336 -0.048666675 0.69999999 1.7521346e-39
-0.010000002 -0.048666675 0.69999999 1.5677419e-39
-0.0086419061 -0.048527628 0.69799995 1.3830017e-39
-0.0073019052 -0.048458096 0.69699997 9.2275504e-40
-0.0059571429 -0.048319034 0.69499999 3.7066306e-40
-0.0046266667 -0.048249517 0.69400001 4.6285309e-40
-0.0033000004 -0.048180025 0.69299996 5.5431584e-40
-0.0019714287 -0.047971439 0.68999994 7.3725395e-40
-0.00065714284 -0.047971442 0.69 9.1949982e-40
0.00065619044 -0.047901932 0.68899995 1.7492563e-39
0.0019685717 -0.04790191 0.68900001 2.6636708e-39
0.0032809528 -0.047901921 0.68899995 3.1293111e-39
0.0045933337 -0.047901902 0.68900001 3.5820412e-39
0.0059057148 -0.047901943 0.68899995 3.773254e-39
0.007197144 -0.04776286 0.68699998 4.0412187e-39
0.0085057151 -0.047762871 0.68699998 3.6792492e-39
0.0098142857 -0.047762852 0.68700004 3.3983492e-39
0.011155238 -0.04790191 0.68900001 3.0320694e-39
0.012431429 -0.047762867 0.68700004 2.7555105e-39
0.013740001 -0.047762882 0.68699998 1.8386129e-39
0.015092381 -0.04790194 0.68899995 9.2241312e-40
0.016404763 -0.047901921 0.68900001 1.3826696e-39
0.017717145 -0.047901932 0.68899995 1.8432792e-39
0.019029522 -0.04790191 0.68900001 1.9351105e-39
0.020341907 -0.047901943 0.68899995 2.1187801e-39
0.021654287 -0.047901917 0.68899995 1.9365426e-39
0.02296667 -0.047901895 0.68900001 1.7532318e-39
0.024279047 -0.04790194 0.68899995 1.3848136e-39
0.02562857 -0.047971416 0.69 1.01638e-39
0.026942858 -0.047971424 0.69 1.6577781e-39
0.028257145 -0.047971431 0.69 2.3002693e-39
0.029614286 -0.04804096 0.69099998 2.1173171e-39
0.031020001 -0.04818001 0.69300002 2.034513e-39
0.032340001 -0.048180021 0.69299996 5.7255738e-39
0.03375715 -0.048319042 0.69499999 9.3979315e-39
0.035080958 -0.048319038 0.69500005 1.1698138e-38
0.036404774 -0.048319042 0.69499999 1.4117491e-38
0.037891433 -0.048527632 0.69799995 1.8727981e-38
0.039389525 -0.048736203 0.70099998 2.341769e-38
0.040899049 -0.048944779 0.704 2.341769e-38
0.042420004 -0.04915332 0.70699996 2.341769e-38
0.043828577 -0.049222853 0.70799994 2.341769e-38
0.045368575 -0.049431454 0.71100003 2.341769e-38
-0.019637143 -0.048077151 0.71100003 6.4685479e-40
-0.018128572 -0.04767143 0.70500004 1.2907837e-39
-0.016738098 -0.047536179 0.70299995 1.8425155e-39
-0.015355239 -0.047400977 0.70099998 2.1183835e-39
-0.014020002 -0.04740094 0.70100003 2.3946173e-39
-0.012666668 -0.047333341 0.70000005 2.0269278e-39
-0.011300954 -0.047198102 0.69799995 1.5688279e-39
-0.0099714296 -0.047198106 0.69799995 1.5688307e-39
-0.0086295251 -0.047130506 0.69699997 1.474847e-39
-0.0072809528 -0.046995234 0.69499999 9.2204598e-40
-0.005948571 -0.046927605 0.69399995 2.7919471e-40
-0.0046199998 -0.046859998 0.69300002 3.7067007e-40
-0.0033 -0.046860017 0.69299996 4.6249295e-40
-0.0019714287 -0.046657145 0.69 8.2802866e-40
-0.00065619056 -0.046589546 0.68899995 1.2007909e-39
0.0006561905 -0.04658955 0.68900001 2.6780902e-39
0.0019685717 -0.046589557 0.68899995 4.1521272e-39
0.0032714289 -0.046454292 0.68699998 5.6283153e-39
0.0045800004 -0.046454269 0.68700004 7.0976804e-39
0.0058885724 -0.046454281 0.68699998 7.5604424e-39
0.007197144 -0.046454284 0.68700004 7.920244e-39
0.0085057151 -0.046454299 0.68699998 7.2770298e-39
0.0098142857 -0.046454288 0.68699998 6.6298723e-39
0.011122858 -0.046454262 0.68700004 5.4216574e-39
0.012431429 -0.046454303 0.68699998 4.2335174e-39
0.013740001 -0.046454284 0.68700004 2.9406276e-39
0.015048572 -0.046454292 0.68699998 1.5656175e-39
0.016404765 -0.046589531 0.68900001 1.8411338e-39
0.017717145 -0.04658955 0.68899995 2.0258768e-39
0.019029524 -0.046589527 0.68900001 2.3013805e-39
0.020341907 -0.046589557 0.68899995 2.577603e-39
0.021654289 -0.046589535 0.68900001 2.2106184e-39
0.02296667 -0.046589542 0.68899995 1.7528772e-39
0.024279049 -0.046589524 0.68899995 1.477012e-39
0.025591429 -0.046589527 0.68900001 1.1082239e-39
0.026903814 -0.046589546 0.68899995 1.749985e-39
0.028257146 -0.04665716 0.69 2.391753e-39
0.029571429 -0.046657141 0.69 2.021537e-39
0.030885715 -0.046657156 0.69 1.6682486e-39
0.032246668 -0.046724778 0.69099998 5.8238665e-39
0.033660006 -0.046860009 0.69300002 9.9564862e-39
0.03503048 -0.046927605 0.69399995 1.244037e-38
0.036352389 -0.046927601 0.69400001 1.4944019e-38
0.037728574 -0.046995215 0.69500005 1.9193257e-38
0.039052382 -0.046995241 0.69499999 2.341769e-38
0.040957145 -0.047671415 0.70500004 2.341769e-38
0.042420004 -0.047806658 0.70699996 2.341769e-38
0.04376667 -0.047806673 0.70699996 2.341769e-38
0.045177151 -0.047874298 0.70799994 2.341769e-38
-0.018102858 -0.046262871 0.704 1.3829793e-39
-0.016738096 -0.046197146 0.70299995 1.7517604e-39
-0.01535524 -0.046065729 0.70099998 1.9354342e-39
-0.014020002 -0.046065725 0.70099998 2.2116666e-39
-0.012666668 -0.046 0.70000005 1.9361685e-39
-0.011300954 -0.045868549 0.69799995 1.7532234e-39
-0.0099571431 -0.045802858 0.69700003 1.5684846e-39
-0.0086047631 -0.045671429 0.69500005 1.382664e-39
-0.0072809523 -0.045671437 0.69499999 9.2312919e-40
-0.0059485715 -0.045605678 0.69400001 4.6359297e-40
-0.0046199993 -0.045540024 0.69299996 5.5614593e-40
-0.0032904767 -0.045408558 0.69099998 7.3944838e-40
-0.0019714287 -0.045342855 0.69 1.1071379e-39
-0.00065619044 -0.045277163 0.68899995 1.5706902e-39
0.00065428577 -0.045145702 0.68699998 3.143083e-39
0.0019628576 -0.045145702 0.68700004 4.8115517e-39
0.0032714291 -0.045145728 0.68699998 5.8210289e-39
0.004573334 -0.045079973 0.68599999 6.9355964e-39
0.0058885724 -0.045145743 0.68699998 7.0148609e-39
0.007197144 -0.045145724 0.68699998 7.2006787e-39
0.008493335 -0.045079973 0.68600005 7.1056076e-39
0.0098142857 -0.04514572 0.68699998 7.0241809e-39
0.011155237 -0.045277152 0.68899995 6.5485073e-39
0.012431429 -0.045145739 0.68699998 6.1836176e-39
0.013740001 -0.04514572 0.68699998 4.2403039e-39
0.015048572 -0.045145702 0.68700004 2.3942852e-39
0.016357144 -0.045145743 0.68699998 2.2099149e-39
0.017717145 -0.045277167 0.68900001 2.116999e-39
0.019029522 -0.04527713 0.68900001 2.2099065e-39
0.020282859 -0.045145709 0.68699998 2.301742e-39
0.021654287 -0.045277152 0.68900001 2.0280278e-39
0.02296667 -0.045277163 0.68899995 1.8461519e-39
0.024279047 -0.045277145 0.68900001 1.6599698e-39
0.025591429 -0.04527716 0.68899995 1.5663336e-39
0.026903812 -0.045277163 0.68900001 1.9333098e-39
0.028216194 -0.045277175 0.68899995 2.3017182e-39
0.029571431 -0.045342859 0.69 1.7492605e-39
0.030885717 -0.045342866 0.69 1.2933733e-39
0.032246668 -0.045408543 0.69100004 5.4479149e-39
0.033562861 -0.04540858 0.69099998 9.5923798e-39
0.034980007 -0.045540001 0.69299996 1.1435218e-38
0.036352389 -0.045605715 0.69399995 1.3382463e-38
0.037674285 -0.045605686 0.69400001 1.8448529e-38
0.039052382 -0.045671437 0.69499999 2.341769e-38
0.040899049 -0.046262871 0.704 2.341769e-38
0.042300001 -0.046328556 0.70500004 2.341769e-38
0.04376667 -0.04645998 0.70700002 2.341769e-38
0.045177151 -0.046525702 0.70799994 2.341769e-38
0.046460006 -0.046459988 0.70700002 2.341769e-38
-0.022251435 -0.045177162 0.70799994 1.2896906e-39
-0.020784764 -0.044921916 0.704 1.2889676e-39
-0.019416193 -0.044858102 0.70299995 1.2900578e-39
-0.018077144 -0.044858094 0.70299995 1.4748204e-39
-0.01669048 -0.044730458 0.70100003 1.5673832e-39
-0.01535524 -0.044730481 0.70100003 1.7517814e-39
-0.014000003 -0.044666674 0.69999999 1.9361755e-39
-0.012666669 -0.044666667 0.70000005 1.9369e-39
-0.011284764 -0.04447525 0.69699997 1.9369126e-39
-0.0099571431 -0.044475242 0.69700003 1.5688643e-39
-0.0086047621 -0.04434761 0.69499999 1.2000804e-39
-0.0072704763 -0.044283781 0.69400001 9.2456692e-40
-0.0059400001 -0.044220004 0.69300002 6.4906463e-40
-0.0046066665 -0.044092376 0.69100004 8.3381603e-40
-0.0032904765 -0.044092383 0.69099998 9.2384385e-40
-0.0019685717 -0.043964796 0.68899995 1.4737666e-39
-0.00065428566 -0.043837126 0.68700004 1.9379916e-39
0.00065428583 -0.043837164 0.68699998 3.6958056e-39
0.0019628573 -0.043837141 0.68699998 5.3524473e-39
0.003266667 -0.043773301 0.68599999 6.0006921e-39
0.004573334 -0.043773305 0.68600005 6.640305e-39
0.0058885724 -0.043837141 0.68700004 6.5466688e-39
0.007197144 -0.04383716 0.68699998 6.4551907e-39
0.0085057151 -0.043837141 0.68699998 6.9197491e-39
0.0098142857 -0.043837126 0.68700004 7.2867324e-39
0.011155238 -0.04396477 0.68899995 7.7473448e-39
0.012431429 -0.043837141 0.68700004 8.1085533e-39
0.013740001 -0.043837149 0.68699998 5.62609e-39
0.015048572 -0.043837156 0.68700004 3.1329138e-39
0.016357146 -0.043837141 0.68700004 2.670163e-39
0.017665718 -0.04383716 0.68699998 2.118071e-39
0.018974287 -0.043837141 0.68699998 2.0269502e-39
0.020282859 -0.043837111 0.68700004 1.9362007e-39
0.021591432 -0.043837156 0.68699998 1.9369266e-39
0.022900004 -0.043837141 0.68700004 1.9362021e-39
0.024208574 -0.043837149 0.68699998 1.9340427e-39
0.025591431 -0.04396477 0.68899995 1.9336658e-39
0.026903814 -0.043964777 0.68900001 2.0236894e-39
0.028216196 -0.043964792 0.68899995 2.1169626e-39
0.029528573 -0.04396477 0.68900001 1.5638e-39
0.030885717 -0.044028606 0.69 9.2961159e-40
0.032246668 -0.044092383 0.69099998 5.081991e-39
0.033562858 -0.044092383 0.69099998 9.128522e-39
0.034980007 -0.044219989 0.69299996 1.0508596e-38
0.036300007 -0.044220023 0.69299996 1.1812997e-38
0.037674285 -0.044283796 0.69399995 1.7616979e-38
0.039052378 -0.044347588 0.69500005 2.3414098e-38
0.040492382 -0.044475231 0.69700003 2.341769e-38
0.042300005 -0.044985715 0.70500004 2.341769e-38
0.04364286 -0.044985734 0.70499998 2.341769e-38
0.04511334 -0.04511331 0.70700002 2.341769e-38
0.046460006 -0.045113329 0.70700002 2.341769e-38
-0.022251433 -0.043828592 0.70799994 1.5633909e-39
-0.020784764 -0.043580949 0.704 1.2889452e-39
-0.019416193 -0.043519046 0.70299995 1.0145443e-39
-0.018077144 -0.043519031 0.70300001 1.1989608e-39
-0.016690478 -0.043395244 0.70099998 1.4744827e-39
-0.015333334 -0.04333334 0.69999999 1.6603215e-39
-0.014000002 -0.043333337 0.69999999 1.8443568e-39
-0.012630477 -0.043209542 0.69799995 1.7536017e-39
-0.011284764 -0.043147635 0.69700003 1.6624991e-39
-0.0099285711 -0.043023806 0.69499999 1.2930201e-39
-0.0085923821 -0.042961884 0.69400001 9.2458654e-40
-0.0072599999 -0.042900022 0.69300002 7.4054e-40
-0.0059228567 -0.042776179 0.69100004 5.5831234e-40
-0.004606666 -0.042776179 0.69099998 5.5688582e-40
-0.0032857147 -0.042714298 0.69 5.5615014e-40
-0.0019685715 -0.042652413 0.68899995 8.3020348e-40
-0.00065333338 -0.042466637 0.68600005 1.0120626e-39
0.00065333344 -0.042466644 0.68599999 1.9382915e-39
0.0019600003 -0.042466652 0.68600005 2.9528133e-39
0.003266667 -0.042466637 0.68600005 3.1357921e-39
0.004573334 -0.042466652 0.68599999 3.4048428e-39
0.005880001 -0.04246664 0.68600005 3.3173121e-39
0.0071866675 -0.042466674 0.68599999 3.3173177e-39
0.0084933341 -0.042466655 0.68600005 3.5049403e-39
0.0098142857 -0.042528573 0.68700004 3.6896819e-39
0.011122858 -0.042528562 0.68700004 3.8747808e-39
0.014186667 -0.048533347 0.78399998 4.1524299e-39
0.013720002 -0.042466644 0.68600005 2.9510253e-39
0.015026668 -0.042466659 0.68599999 1.7492815e-39
0.016333332 -0.04246664 0.68600005 1.6581733e-39
0.017640002 -0.042466644 0.68600005 1.5663364e-39
0.018946664 -0.042466663 0.68599999 1.5674112e-39
0.020253332 -0.042466652 0.68600005 1.5703007e-39
0.02156 -0.042466659 0.68599999 1.6610782e-39
0.022866668 -0.042466637 0.68599999 1.8440163e-39
0.024173331 -0.042466652 0.68600005 1.9358364e-39
0.025517143 -0.042528596 0.68699998 1.9347308e-39
0.026825717 -0.042528573 0.68700004 2.118731e-39
0.028134288 -0.042528581 0.68699998 2.210582e-39
0.029528573 -0.042652391 0.68900001 1.8421792e-39
0.030840954 -0.042652395 0.68899995 1.4727254e-39
0.032200001 -0.042714298 0.68999994 3.140513e-39
0.033562858 -0.042776182 0.69100004 4.8111607e-39
0.034879051 -0.042776201 0.69099998 7.9371857e-39
0.036300007 -0.042900007 0.69299996 1.1069692e-38
0.037620001 -0.042900015 0.69299996 1.7153129e-38
0.038996186 -0.042961907 0.69400001 2.3325846e-38
0.04037619 -0.043023821 0.69499999 2.3325854e-38
0.041700002 -0.043023795 0.69500005 2.341769e-38
0.04339524 -0.04339524 0.70099998 2.341769e-38
0.044921909 -0.043580938 0.704 2.341769e-38
0.046328574 -0.043642867 0.70499998 2.341769e-38
-0.022220002 -0.042419996 0.70699996 1.7499485e-39
-0.020784765 -0.042240009 0.704 1.1974964e-39
-0.019416193 -0.042179979 0.70300001 6.4829952e-40
-0.018077146 -0.042179972 0.70299995 1.0153052e-39
-0.016690478 -0.042059999 0.70099998 1.2933452e-39
-0.015333334 -0.042000007 0.69999999 1.5710279e-39
-0.013960003 -0.041880019 0.69799995 1.7536045e-39
-0.012612382 -0.041820016 0.69699997 1.5702754e-39
-0.011252382 -0.041700002 0.69500005 1.2926194e-39
-0.0099142864 -0.041639995 0.69400001 9.2348652e-40
-0.0085800001 -0.041580033 0.69299996 5.5540745e-40
-0.0072599999 -0.04158001 0.69300002 5.5467037e-40
-0.0059228577 -0.041459981 0.69099998 4.631922e-40
-0.0046066665 -0.041460019 0.69099998 3.7027911e-40
-0.0032857147 -0.041400004 0.69 1.8660251e-40
-0.0019685712 -0.041340008 0.68899995 1.8623957e-40
-0.00065333338 -0.041159984 0.68599999 9.3676802e-41
0.00065333332 -0.041159987 0.68600005 2.7626319e-40
0.0019542859 -0.041040014 0.68400002 4.6317118e-40
0.0032666668 -0.041159984 0.68599999 2.7592267e-40
0.0045600007 -0.041039981 0.68400002 9.4045344e-41
0.0058800005 -0.041160006 0.68599999 9.2251682e-41
0.0071866671 -0.041159984 0.68600005 9.5124344e-41
0.0097685708 -0.047340002 0.78900003 9.2257287e-41
0.011257145 -0.047280017 0.78799999 9.6200541e-41
0.012693334 -0.047039997 0.78400004 9.2610414e-41
0.014186668 -0.047039993 0.78400004 9.7627063e-41
0.01568 -0.047040012 0.78400004 1.8479483e-40
0.017173337 -0.047040004 0.78400004 2.7807507e-40
0.018666666 -0.047039997 0.78400004 6.4614433e-40
0.020160001 -0.047039993 0.78400004 9.2201515e-40
0.018891428 -0.041040022 0.68400002 1.014215e-39
0.020194286 -0.04104 0.68400002 1.1082211e-39
0.021497143 -0.041039985 0.68400002 1.4770176e-39
0.022800004 -0.041040029 0.68400002 1.7525227e-39
0.024102857 -0.041040007 0.68400002 1.8461519e-39
0.025480002 -0.041159976 0.68600005 1.937623e-39
0.026825717 -0.041220013 0.68699998 2.1216457e-39
0.02813429 -0.041219991 0.68699998 2.304958e-39
0.029442858 -0.041220035 0.68699998 2.1209283e-39
0.030840954 -0.041340012 0.68899995 1.9344014e-39
0.032200001 -0.041399997 0.69 1.1954267e-39
0.033514287 -0.041399978 0.69 4.7800953e-40
0.034828577 -0.041400012 0.69 5.3596892e-39
0.036195241 -0.04146 0.69099998 1.0241737e-38
0.037620004 -0.041580025 0.69299996 1.6691446e-38
0.038940001 -0.041580003 0.69300002 2.3136797e-38
0.040318098 -0.041639991 0.69400001 2.3325854e-38
0.041640002 -0.041639965 0.69400001 2.341769e-38
0.043395244 -0.042059995 0.70100003 2.341769e-38
0.044985719 -0.042299997 0.70500004 2.341769e-38
0.046328574 -0.042299993 0.70500004 2.341769e-38
0.047603808 -0.042240012 0.704 2.341769e-38
-0.022220002 -0.041073304 0.70700002 1.8421596e-39
-0.020784765 -0.040899042 0.704 1.4766183e-39
-0.019416193 -0.04084095 0.70300001 1.1107266e-39
-0.018077144 -0.040840942 0.70299995 1.110742e-39
-0.01669048 -0.040724751 0.70100003 1.2040433e-39
-0.01526762 -0.040492404 0.69699997 1.1108037e-39
-0.013940002 -0.040492378 0.69700003 1.1104057e-39
-0.012576192 -0.040376175 0.69499999 1.0160199e-39
-0.011236191 -0.040318076 0.69399995 9.2202216e-40
-0.0099142855 -0.040318068 0.69400001 7.3798122e-40
-0.0085800001 -0.040260021 0.69299996 5.5285288e-40
-0.0072600003 -0.040259998 0.69300002 4.613523e-40
-0.0059228572 -0.04014381 0.69099998 4.6062502e-40
-0.0046066665 -0.040143792 0.69100004 3.6913705e-40
-0.0032857144 -0.040085722 0.69 2.7659249e-40
-0.0019628573 -0.039911434 0.68700004 1.8512274e-40
-0.00065333338 -0.03985332 0.68600005 1.8512274e-40
0.00065333338 -0.039853331 0.68599999 2.765995e-40
0.0019542859 -0.039737139 0.68400002 4.5954602e-40
0.0032571431 -0.039737154 0.68400002 3.6806085e-40
0.0045600007 -0.039737135 0.68400002 2.7586662e-40
0.0058628581 -0.039737124 0.68400002 2.7622535e-40
0.0082552386 -0.045779031 0.78800005 2.7586662e-40
0.0097561898 -0.045779046 0.78800005 3.6806085e-40
0.011228573 -0.045662858 0.78599995 4.5953761e-40
0.012693333 -0.045546677 0.78399998 3.6806085e-40
0.014150477 -0.045430455 0.78200001 2.7622535e-40
0.015640002 -0.045430478 0.78200006 2.7658409e-40
0.017217146 -0.045662846 0.78599995 3.6842939e-40
0.018666666 -0.045546677 0.78399998 4.6135089e-40
0.020108575 -0.045430467 0.78200001 6.4539463e-40
0.021598099 -0.045430463 0.78200001 7.3760147e-40
0.02314667 -0.045546684 0.78399998 8.3017265e-40
0.024577145 -0.045430478 0.78200001 1.107491e-39
0.026000002 -0.045314278 0.78000003 1.3840891e-39
0.027450478 -0.04525619 0.77899998 1.4773736e-39
0.028934283 -0.045256156 0.77900004 1.5720957e-39
0.026825715 -0.039911412 0.68700004 1.8465428e-39
0.028134288 -0.039911445 0.68699998 2.1231101e-39
0.029442856 -0.039911427 0.68700004 2.2138526e-39
0.030840954 -0.04002763 0.68900001 2.3053167e-39
0.032153334 -0.040027637 0.68899995 1.3847968e-39
0.033465717 -0.040027644 0.68900001 4.6435528e-40
0.034828577 -0.040085699 0.69 3.6933715e-39
0.036142863 -0.040085737 0.69 6.9277674e-39
0.037457142 -0.040085711 0.69 1.4757884e-38
0.03899619 -0.040318098 0.69400001 2.2591168e-38
0.040318098 -0.040318068 0.69400001 2.2958513e-38
0.041640002 -0.040318076 0.69399995 2.341769e-38
0.043333344 -0.040666651 0.69999999 2.341769e-38
0.044858102 -0.040840942 0.70300001 2.341769e-38
0.046262864 -0.040899049 0.704 2.341769e-38
0.047603812 -0.040899046 0.704 2.341769e-38
-0.022220004 -0.039726634 0.70700002 1.9379692e-39
-0.020784764 -0.039558101 0.704 1.7561058e-39
-0.019416193 -0.039501887 0.70299995 1.4802364e-39
-0.018077144 -0.039501909 0.70299995 1.2962039e-39
-0.01669048 -0.03938951 0.70100003 1.0178275e-39
-0.015267619 -0.039164763 0.69699997 7.4088612e-40
-0.013900002 -0.039052371 0.69500005 3.7172805e-40
-0.012558095 -0.038996179 0.69399995 4.6174746e-40
-0.011220002 -0.038940001 0.69299996 4.6173625e-40
-0.0099000009 -0.038940039 0.69299996 4.6100618e-40
-0.0085552391 -0.038827632 0.69099998 4.6063763e-40
-0.0072390479 -0.038827609 0.69099998 4.6062642e-40
-0.0059228572 -0.038827617 0.69099998 3.6878532e-40
-0.0045999996 -0.038771447 0.69 3.6841958e-40
-0.0032857144 -0.038771428 0.69 2.7658829e-40
-0.0022400001 -0.04405335 0.78399998 2.765939e-40
-0.00074666669 -0.044053342 0.78399998 2.7659249e-40
0.00074857147 -0.044165727 0.78599995 3.6878672e-40
0.0022400005 -0.044053357 0.78399998 3.6878252e-40
0.0037428578 -0.044165712 0.78599995 3.6913705e-40
0.0052400003 -0.044165727 0.78599995 3.6877832e-40
0.0067371433 -0.044165719 0.78599995 3.6877832e-40
0.0082342857 -0.044165712 0.78599995 3.6841958e-40
0.0097314287 -0.044165727 0.78599995 6.442848e-40
0.011200001 -0.044053342 0.78399998 8.279558e-40
0.012693333 -0.044053361 0.78399998 6.442848e-40
0.014150478 -0.043940924 0.78200001 3.6877832e-40
0.01568 -0.04405335 0.78399998 3.6877832e-40
0.017173337 -0.044053365 0.78399998 3.6878532e-40
0.018619047 -0.043940935 0.78200001 3.6879093e-40
0.020108573 -0.043940958 0.78200001 3.6915807e-40
0.021598097 -0.043940954 0.78200001 4.6064464e-40
0.023087623 -0.04394095 0.78200001 4.6172925e-40
0.024514286 -0.043828588 0.77999997 7.3796161e-40
0.025966669 -0.043772381 0.77900004 9.2235427e-40
0.027450478 -0.043772377 0.77900004 1.1067483e-39
0.028860003 -0.043659978 0.77699995 1.2007628e-39
0.030340003 -0.043660004 0.77699995 1.5695664e-39
0.031738099 -0.043547627 0.77499998 1.937623e-39
0.02944286 -0.038602863 0.68699998 2.3063985e-39
0.030751431 -0.038602851 0.68700004 2.6737405e-39
0.032153334 -0.038715258 0.68899995 1.5735096e-39
0.033465717 -0.03871524 0.68900001 3.7249456e-40
0.034778096 -0.038715269 0.68899995 1.9290555e-39
0.036090482 -0.038715251 0.68900001 3.5201276e-39
0.037457146 -0.038771451 0.69 1.2728524e-38
0.038940001 -0.038940012 0.69299996 2.1938269e-38
0.040318098 -0.038996182 0.69399995 2.2683006e-38
0.041640002 -0.038996156 0.69400001 2.341769e-38
0.043333337 -0.03933334 0.70000005 2.341769e-38
0.044730484 -0.039389499 0.70100003 2.341769e-38
0.046262864 -0.039558087 0.704 2.341769e-38
0.047603808 -0.039558105 0.704 2.341769e-38
-0.023600001 -0.038434293 0.70799994 2.7695221e-39
-0.022220002 -0.038379975 0.70699996 1.6642858e-39
-0.020784765 -0.038217131 0.704 1.296962e-39
-0.019416193 -0.038162857 0.70299995 1.0235869e-39
-0.018025715 -0.038054299 0.70099998 8.3343627e-40
-0.016666669 -0.037999991 0.69999999 6.4614713e-40
-0.01522381 -0.037728544 0.69500005 4.6208518e-40
-0.013900002 -0.037728574 0.69499999 3.6809308e-40
-0.012558095 -0.037674252 0.69400001 3.6880494e-40
-0.011220002 -0.037620015 0.69300002 4.6062782e-40
-0.0098714288 -0.037511427 0.69099998 3.6877832e-40
-0.008542859 -0.037457164 0.69 3.6842239e-40
-0.0072285715 -0.037457149 0.69 3.6878252e-40
-0.0059142858 -0.037457157 0.69 3.6878112e-40
-0.0045999996 -0.037457135 0.69 3.6877832e-40
-0.0037333332 -0.04256 0.78400004 3.6842098e-40
-0.0022342857 -0.042451419 0.78200001 2.7658689e-40
-0.00074476202 -0.042451415 0.78200001 2.7622676e-40
0.00074666669 -0.042560007 0.78400004 2.7730155e-40
0.0022400005 -0.042560004 0.78400004 3.6985451e-40
0.0037333341 -0.042559996 0.78400004 3.6949578e-40
0.005226667 -0.042559989 0.78400004 3.6913705e-40
0.0067200004 -0.042560007 0.78400004 3.6877832e-40
0.0082342867 -0.04266857 0.78599995 3.6806085e-40
0.0097066667 -0.042559996 0.78400004 4.6097254e-40
0.011200001 -0.042559993 0.78400004 5.5280804e-40
0.012693334 -0.042560007 0.78400004 4.6097254e-40
0.014186668 -0.04256 0.78400004 3.6913705e-40
0.01568 -0.042559993 0.78400004 3.6913705e-40
0.017173337 -0.042559993 0.78399998 3.6949858e-40
0.018666668 -0.042560007 0.78400004 3.6914265e-40
0.020108573 -0.042451423 0.78200001 4.6098235e-40
0.021598099 -0.042451423 0.78200001 4.6098656e-40
0.023087623 -0.042451415 0.78200001 4.6134529e-40
0.024514288 -0.042342875 0.77999997 5.5317938e-40
0.025966669 -0.042288538 0.77900004 7.3612731e-40
0.027380005 -0.042179983 0.77699995 7.3755663e-40
0.028860003 -0.042179983 0.77699995 8.2978729e-40
0.030261906 -0.042071413 0.77500004 1.1996768e-39
0.031656191 -0.041962828 0.77300006 1.5677489e-39
0.033128574 -0.041962836 0.77300006 1.8447015e-39
0.034600958 -0.04196284 0.773 2.121657e-39
0.035840005 -0.041691434 0.76799995 1.3848346e-39
0.037302855 -0.041691411 0.76799995 7.3694146e-40
0.034778096 -0.037402891 0.68900001 1.7535653e-39
0.036090478 -0.037402872 0.68900001 2.7807395e-39
0.038940001 -0.037620027 0.69300002 1.9832504e-38
0.040318098 -0.037674259 0.69400001 2.1580263e-38
0.041640002 -0.037674263 0.69399995 2.341769e-38
0.04333334 -0.038000003 0.70000005 2.341769e-38
0.044858102 -0.038162854 0.70299995 2.341769e-38
0.046328574 -0.038271427 0.70500004 2.341769e-38
0.047603812 -0.038217138 0.704 2.341769e-38
0.049014285 -0.038271431 0.70499998 2.341769e-38
-0.023600001 -0.037085701 0.70799994 2.1263023e-39
-0.022220002 -0.037033316 0.70699996 1.2958451e-39
-0.020784764 -0.03687619 0.704 9.2671931e-40
-0.019416193 -0.036823828 0.70299995 5.5683537e-40
-0.017948573 -0.036561903 0.69799995 4.5958806e-40
-0.016619049 -0.036561903 0.69799995 2.7698065e-40
-0.01522381 -0.036404748 0.69500005 2.7660931e-40
-0.013880001 -0.036352362 0.69400001 2.7660371e-40
-0.012558096 -0.036352366 0.69399995 3.68435e-40
-0.011220002 -0.036300004 0.69300002 3.6878532e-40
-0.0098714298 -0.03619526 0.69099998 3.6877832e-40
-0.008530478 -0.03609046 0.68900001 2.7694562e-40
-0.0072180955 -0.036090501 0.68900001 3.6914265e-40
-0.0066771433 -0.040804747 0.77900004 3.6913985e-40
-0.0052000005 -0.040857162 0.77999997 3.6877972e-40
-0.003714286 -0.040857159 0.77999997 3.6877972e-40
-0.0022285716 -0.040857185 0.77999997 3.6878112e-40
-0.00074190483 -0.040804733 0.77900004 2.7694422e-40
0.00074285711 -0.040857147 0.77999997 2.7802042e-40
0.0022285716 -0.040857144 0.77999997 2.7766729e-40
0.00372381 -0.040961895 0.78200001 2.7803163e-40
0.0052133342 -0.040961914 0.78200001 2.7730856e-40
0.006702858 -0.04096191 0.78200001 3.6877972e-40
0.0081923809 -0.040961903 0.78200001 3.6913845e-40
0.0096819038 -0.040961903 0.78200001 2.7802042e-40
0.011171429 -0.040961895 0.78200001 1.8582619e-40
0.012660952 -0.040961917 0.78200001 2.7801902e-40
0.014150478 -0.040961917 0.78200001 3.6949578e-40
0.015640002 -0.04096188 0.78200006 3.6949578e-40
0.017129527 -0.040961899 0.78200006 3.6913845e-40
0.018619049 -0.040961895 0.78200006 4.6097675e-40
0.020108573 -0.040961891 0.78200001 4.6097815e-40
0.021598099 -0.040961888 0.78200001 4.6062082e-40
0.023028575 -0.040857155 0.78000003 4.6097955e-40
0.024482856 -0.040804759 0.77900004 4.6097955e-40
0.025966667 -0.040804762 0.77899998 4.6097675e-40
0.027380003 -0.040699985 0.77699995 4.6097395e-40
0.028860003 -0.040699989 0.77699995 4.6242989e-40
0.030261904 -0.04059523 0.77500004 8.3158656e-40
0.031615242 -0.040438116 0.77199996 1.1074658e-39
0.033085719 -0.04043809 0.77199996 1.2907921e-39
0.034377147 -0.04022859 0.76799995 1.4755603e-39
0.035840001 -0.040228572 0.76799995 1.2908341e-39
0.037302855 -0.040228583 0.76799995 1.0156723e-39
0.043395244 -0.036719039 0.70100003 2.341769e-38
0.044730484 -0.036719035 0.70100003 2.341769e-38
0.04626286 -0.036876176 0.704 2.341769e-38
0.047536194 -0.036823805 0.70300001 2.341769e-38
-0.019416193 -0.035484735 0.70300001 4.6029572e-40
-0.018000001 -0.035333354 0.69999999 3.6841958e-40
-0.016595239 -0.035181921 0.69699997 2.7623236e-40
-0.01522381 -0.035080951 0.69499999 2.765967e-40
-0.013860002 -0.034980018 0.69299996 3.6878672e-40
-0.012503811 -0.034879047 0.69100004 3.6878112e-40
-0.011187621 -0.034879059 0.69099998 4.6097395e-40
-0.0098571442 -0.034828585 0.69 3.6877832e-40
-0.0096200006 -0.039219987 0.77699995 3.6878112e-40
-0.0081609525 -0.039320964 0.77899998 3.6914265e-40
-0.0066600004 -0.039219987 0.77700001 3.6985872e-40
-0.0051933341 -0.039320931 0.77900004 3.6913845e-40
-0.0037095239 -0.039320931 0.77900004 3.6877972e-40
-0.0022200001 -0.039219987 0.77699995 2.7694422e-40
-0.00074000005 -0.039219983 0.77700001 1.8510872e-40
0.00074190483 -0.039320957 0.77899998 3.6913845e-40
0.0022257147 -0.039320953 0.77899998 5.5246192e-40
0.0037142865 -0.039371453 0.77999997 4.6099637e-40
0.0052000009 -0.03937142 0.78000003 3.6879233e-40
0.0067028576 -0.039472375 0.78200001 3.6878112e-40
0.0081923828 -0.039472375 0.78200001 4.6097535e-40
0.0096819056 -0.039472394 0.78200001 4.6097535e-40
0.01117143 -0.03947239 0.78200001 4.6061521e-40
0.012628571 -0.039371457 0.77999997 3.6913705e-40
0.014114288 -0.039371457 0.77999997 3.6913705e-40
0.015600001 -0.039371457 0.77999997 3.6877832e-40
0.017063811 -0.039320935 0.77900004 4.6025648e-40
0.018547619 -0.039320957 0.77900004 4.6061521e-40
0.020031428 -0.039320957 0.77899998 5.5245071e-40
0.021515239 -0.039320953 0.77899998 5.5244931e-40
0.022999048 -0.039320923 0.77900004 5.5209058e-40
0.024420002 -0.039219987 0.77699995 5.5244931e-40
0.025900003 -0.03921999 0.77699995 5.5280804e-40
0.027380005 -0.039219994 0.77699995 5.5316677e-40
0.028785717 -0.03911905 0.77500004 5.5317238e-40
0.030183809 -0.039018065 0.77300006 6.4644841e-40
0.031615239 -0.038967602 0.77199996 8.3085368e-40
0.032914288 -0.038765728 0.76799995 1.0148988e-39
0.034332383 -0.038715225 0.76700002 1.1989566e-39
0.035700001 -0.038614258 0.76499999 1.3833731e-39
0.03706 -0.038513351 0.76300001 1.6613879e-39
0.038513336 -0.038513336 0.76300001 1.3876708e-39
0.04339524 -0.035383828 0.70099998 2.341769e-38
0.044730484 -0.035383794 0.70100003 2.341769e-38
0.046065722 -0.035383813 0.70100003 2.341769e-38
0.047400951 -0.035383809 0.70099998 2.341769e-38
0.048736189 -0.035383839 0.70099998 2.341769e-38
0.050071433 -0.035383802 0.70100003 2.341769e-38
-0.019416193 -0.034145705 0.70299995 3.6879934e-40
-0.018000001 -0.034000013 0.69999999 3.6877832e-40
-0.016595241 -0.033854276 0.69700003 2.7694562e-40
-0.01522381 -0.033757117 0.69500005 3.6878532e-40
-0.013860002 -0.033660028 0.69299996 3.6878252e-40
-0.01250381 -0.03356285 0.69099998 4.6025648e-40
-0.01118762 -0.033562828 0.69100004 5.5245071e-40
-0.0098714279 -0.033562865 0.69099998 4.6061381e-40
-0.0096447617 -0.037837129 0.77900004 3.6913845e-40
-0.0081400014 -0.037739988 0.77700001 3.6914125e-40
-0.0066600009 -0.037739988 0.77700001 2.7730435e-40
-0.0051933331 -0.037837151 0.77899998 3.6877972e-40
-0.0037095239 -0.037837118 0.77900004 3.6877972e-40
-0.0022200004 -0.037739959 0.77700001 2.7658549e-40
-0.00074000005 -0.037739962 0.77700001 9.3273228e-41
0.00074000005 -0.037739988 0.77700001 4.6061521e-40
0.0022257145 -0.03783714 0.77900004 8.279628e-40
0.0037095244 -0.037837137 0.77899998 6.4429742e-40
0.0051933336 -0.037837137 0.77899998 3.6878532e-40
0.0066857152 -0.037885729 0.77999997 4.6025788e-40
0.0081714289 -0.037885752 0.77999997 5.5209618e-40
0.0096571427 -0.037885748 0.77999997 6.4393448e-40
0.011142859 -0.037885744 0.77999997 6.4428901e-40
0.012612381 -0.037837129 0.77899998 5.5245071e-40
0.014096191 -0.037837151 0.77899998 3.6877972e-40
0.015580001 -0.037837122 0.77900004 4.6025788e-40
0.017063811 -0.037837122 0.77900004 4.6061661e-40
0.018547617 -0.037837122 0.77900004 5.5245071e-40
0.019980004 -0.037739966 0.77700001 6.4428621e-40
0.021460004 -0.037739988 0.77700001 6.4428761e-40
0.022940006 -0.037739992 0.77699995 6.4428901e-40
0.024357142 -0.037642863 0.77500004 6.4393308e-40
0.025833335 -0.037642866 0.77499998 6.4500507e-40
0.027309526 -0.03764287 0.77499998 6.45361e-40
0.028711431 -0.037545692 0.77300006 5.5388844e-40
0.030144764 -0.037497137 0.77199996 5.5424998e-40
0.031451426 -0.037302867 0.76799989 5.5461852e-40
0.032871429 -0.037254296 0.76700002 7.3829932e-40
0.034242865 -0.037157144 0.76499999 9.2270739e-40
0.035606675 -0.037060022 0.76299995 1.5655755e-39
0.037060004 -0.037060004 0.76300001 2.2095016e-39
0.038361903 -0.036914296 0.75999999 1.288997e-39
0.039809521 -0.036914319 0.75999999 2.9036305e-40
0.043395244 -0.034048583 0.70099998 2.341769e-38
0.044730484 -0.03404858 0.70099998 2.341769e-38
0.046065722 -0.034048568 0.70100003 2.341769e-38
0.047400951 -0.034048568 0.70100003 2.341769e-38
0.048736192 -0.034048561 0.70099998 2.341769e-38
-0.018000003 -0.032666679 0.69999999 4.6061381e-40
-0.016595241 -0.032526661 0.69700003 3.6877832e-40
-0.015201907 -0.032386653 0.69400001 3.6877832e-40
-0.013820003 -0.032246653 0.69099998 3.6877832e-40
-0.01250381 -0.032246683 0.69099998 5.5244931e-40
-0.01118762 -0.03224666 0.69099998 8.2759706e-40
-0.011042858 -0.036073331 0.773 5.5244931e-40
-0.0095704766 -0.036073301 0.77300006 3.6913845e-40
-0.0080980966 -0.036073308 0.773 3.6913845e-40
-0.0066257147 -0.036073338 0.773 3.6877972e-40
-0.005166667 -0.036166638 0.77500004 3.6877972e-40
-0.0037000002 -0.036259964 0.77700001 3.6877972e-40
-0.0022142855 -0.036166672 0.77500004 2.7694282e-40
-0.00073809526 -0.036166675 0.77499998 1.8510732e-40
0.00074000005 -0.036259998 0.77699995 3.6877832e-40
0.0022200006 -0.036259998 0.77699995 6.442848e-40
0.0037000002 -0.036259964 0.77700001 4.6061381e-40
0.0051933341 -0.036353327 0.77900004 3.6877972e-40
0.0066771437 -0.036353324 0.77899998 3.6842239e-40
0.0081609525 -0.03635335 0.77899998 4.5990475e-40
0.0096447626 -0.036353316 0.77900004 4.6062642e-40
0.011128573 -0.036353316 0.77900004 5.5281505e-40
0.012612382 -0.036353316 0.77900004 3.6913845e-40
0.014096193 -0.036353339 0.77900004 2.7730576e-40
0.01554 -0.036259998 0.77699995 3.6878392e-40
0.017020004 -0.036259998 0.77699995 4.6097675e-40
0.018500002 -0.036259968 0.77700001 4.6097395e-40
0.019980002 -0.036259968 0.77700001 5.5245211e-40
0.021404762 -0.036166653 0.77499998 5.5281224e-40
0.022880955 -0.036166683 0.77499998 6.4536941e-40
0.024294287 -0.036073316 0.77300006 7.3685038e-40
0.025766671 -0.036073323 0.773 9.208745e-40
0.027203813 -0.036026668 0.77199996 7.3755523e-40
0.028674288 -0.036026675 0.77199996 6.4572113e-40
0.030066667 -0.035933346 0.76999998 5.5424577e-40
0.031410478 -0.035793338 0.76699996 4.6277181e-40
0.032785717 -0.035699997 0.76499999 7.3863983e-40
0.034153339 -0.03560669 0.76299995 1.0137988e-39
0.035606671 -0.035606675 0.76300001 1.4740637e-39
0.036962859 -0.035513345 0.76099998 1.9343258e-39
0.038260955 -0.03537333 0.75800002 1.0141856e-39
0.039704766 -0.035373323 0.75800002 1.881061e-40
-0.018000003 -0.031333342 0.69999999 5.5244931e-40
-0.016547622 -0.031109517 0.69500005 4.6061381e-40
-0.015180001 -0.031020034 0.69299996 3.6806085e-40
-0.013820002 -0.030930486 0.69099998 2.7694282e-40
-0.013716192 -0.033929501 0.75800002 6.442848e-40
-0.012272381 -0.033929527 0.75800002 1.0116268e-39
-0.010828572 -0.033929516 0.75800002 6.4392607e-40
-0.0095580956 -0.034556188 0.77199996 2.7730155e-40
-0.0080876201 -0.034556195 0.77199996 3.6949718e-40
-0.0066171428 -0.034556203 0.77199996 3.6913845e-40
-0.0051533333 -0.034600925 0.773 3.6913845e-40
-0.0036904761 -0.034690488 0.77499998 2.7730155e-40
-0.0022085716 -0.034600928 0.77300006 2.7730155e-40
-0.00073809526 -0.034690466 0.77500004 2.7694282e-40
0.00073809526 -0.03469047 0.77499998 3.6842098e-40
0.0022142862 -0.034690499 0.77499998 3.6877972e-40
