# .PCD v0.7 - Point Cloud Data file format
VERSION 0.7
FIELDS x y z rgb
SIZE 4 4 4 4
TYPE F F F F
COUNT 1 1 1 1
WIDTH 950
HEIGHT 1
VIEWPOINT 0 0 0 1 0 0 0
POINTS 950
DATA ascii
-0.015355237 -0.062088564 0.70100003 4.2432635e-39
-0.013999986 -0.061999969 0.70000005 3.8575799e-39
-0.012666658 -0.061999977 0.70000005 2.4882507e-39
-0.011284745 -0.061734244 0.69699997 1.1024323e-39
-0.011299999 -0.07006 0.79100001 7.3541405e-40
-0.0097933142 -0.070059955 0.79099995 3.6770772e-40
-0.0083076069 -0.070237115 0.79299998 2.7622535e-40
-0.0067971232 -0.070237093 0.79299998 2.7586662e-40
-0.0052733268 -0.070059985 0.79100001 1.8438986e-40
-0.0037761687 -0.070237093 0.79299998 9.2554362e-41
-0.0022599867 -0.070059977 0.79099995 2.7694282e-40
-0.00075332011 -0.07005997 0.79100001 4.6063063e-40
0.00075334933 -0.07005997 0.79100001 4.6136491e-40
0.002260003 -0.07006 0.79100001 5.5320181e-40
0.0037857255 -0.07041426 0.79500002 3.7024828e-40
0.0053133317 -0.070591442 0.79700005 2.7841558e-40
0.0068314145 -0.070591465 0.79699999 2.7770092e-40
0.0083495323 -0.070591412 0.79699999 3.6954062e-40
0.0098676141 -0.070591442 0.79699999 4.6173905e-40
0.011357162 -0.070414238 0.79500002 6.4577719e-40
0.012806683 -0.07005997 0.79100001 5.5502489e-40
0.014277151 -0.06988284 0.78900003 4.6034616e-40
0.013940022 -0.061734244 0.69699997 1.662125e-39
0.015289527 -0.061822861 0.69799995 2.8599577e-39
0.016666681 -0.061999969 0.69999999 4.7074534e-39
0.018000014 -0.06199998 0.69999999 6.4678486e-39
0.019360961 -0.062088557 0.70100003 1.3194534e-38
0.020696197 -0.062088557 0.70100003 1.9904088e-38
0.0220943 -0.062265679 0.70299995 1.5017616e-38
0.023466678 -0.062354259 0.704 1.0198846e-38
0.024807615 -0.0623543 0.704 1.0035346e-38
0.026148582 -0.062354267 0.704 9.8696688e-39
-0.050579052 -0.06482666 0.74799997 5.4319864e-39
-0.049088564 -0.064739965 0.74699998 3.6853225e-39
-0.04753809 -0.064566657 0.74500006 2.3942501e-39
-0.045933332 -0.064306647 0.7420001 1.1110573e-39
-0.044519998 -0.064306654 0.74200004 2.4885828e-39
-0.04310666 -0.064306647 0.74200004 3.8639642e-39
-0.040962867 -0.063180014 0.72899997 2.9438184e-39
-0.039574292 -0.063180007 0.72900003 1.9332664e-39
-0.038028557 -0.062919959 0.72599995 1.6570396e-39
-0.036595225 -0.062833302 0.72500002 1.2893347e-39
-0.035117131 -0.062659957 0.72300005 1.4715652e-39
-0.033599995 -0.062399976 0.71999997 1.6563264e-39
-0.032183811 -0.062313333 0.71900004 1.381194e-39
-0.030685725 -0.06205336 0.71600002 1.1060365e-39
-0.029199041 -0.061793316 0.71300006 9.2199834e-40
-0.027762849 -0.061619982 0.71099997 7.3943017e-40
-0.026297145 -0.061360009 0.708 9.2384525e-40
-0.024913345 -0.061273359 0.70700002 1.1071533e-39
-0.023500005 -0.061100006 0.70500004 1.1071491e-39
-0.022125708 -0.061013319 0.704 1.1071491e-39
-0.02075522 -0.060926627 0.70299995 8.3200275e-40
-0.019416183 -0.060926646 0.70299995 5.5576618e-40
-0.01802572 -0.060753338 0.70100003 3.6921412e-40
-0.016690474 -0.060753323 0.70100003 9.9811687e-41
-0.015333327 -0.060666651 0.69999999 9.2283912e-41
-0.013939986 -0.060406633 0.69699997 9.2261491e-41
-0.012612371 -0.060406648 0.69699997 9.2240471e-41
-0.011284749 -0.060406633 0.69700003 9.2579586e-41
-0.011328556 -0.068726629 0.79300004 2.7658969e-40
-0.0098180715 -0.068726614 0.79300004 3.6842239e-40
-0.0083076032 -0.068726629 0.79300004 3.6913705e-40
-0.006779986 -0.068553299 0.79099995 3.6877832e-40
-0.0052733165 -0.068553291 0.79100001 2.7694282e-40
-0.0037761668 -0.068726614 0.79300004 9.3271827e-41
-0.0022656799 -0.068726592 0.79300004 1.8618492e-40
-0.00075330987 -0.068553276 0.79099995 2.776729e-40
0.00075335958 -0.068553269 0.79100001 3.6987833e-40
0.0022600105 -0.068553306 0.79100001 3.695196e-40
0.0037762111 -0.068726629 0.79299998 2.7804284e-40
0.0053133299 -0.069073334 0.79699999 9.3655783e-41
0.0068314294 -0.069073327 0.79700005 9.2939719e-41
0.0083495304 -0.069073312 0.79699999 9.3657184e-41
0.0098676141 -0.069073342 0.79699999 1.8549408e-40
0.011357157 -0.068899967 0.79500002 2.7805405e-40
0.01280669 -0.068553276 0.79100001 4.6173205e-40
0.014277152 -0.068379983 0.78900003 5.528753e-40
0.013900009 -0.060233317 0.69500005 3.6815334e-40
0.015223823 -0.06023331 0.69499999 1.8772074e-40
0.016619064 -0.060493313 0.69799995 1.8521803e-40
0.01800002 -0.060666621 0.70000005 1.1679963e-40
0.019333351 -0.060666628 0.69999999 8.4986832e-39
0.020696202 -0.060753308 0.70099998 1.6773491e-38
0.022094296 -0.060926639 0.70300001 1.4476814e-38
0.023466675 -0.061013322 0.704 1.2076553e-38
0.024807634 -0.061013304 0.704 1.4286004e-38
0.026185716 -0.061099999 0.70500004 1.6496181e-38
0.027528571 -0.061099999 0.70500004 1.65945e-38
-0.050579064 -0.063401915 0.74800003 7.0954439e-39
-0.049088571 -0.063317135 0.74700004 6.6323148e-39
-0.047665719 -0.06331715 0.74700004 3.8707857e-39
-0.045995239 -0.062978089 0.74300003 1.1128524e-39
-0.04457999 -0.062978067 0.74299997 2.2141609e-39
-0.043106664 -0.062893316 0.74200004 3.3143918e-39
-0.040794291 -0.061537143 0.72599995 2.670107e-39
-0.039411414 -0.061537106 0.72599995 2.0265382e-39
-0.037976179 -0.061452348 0.72500002 1.7499527e-39
-0.036494277 -0.061282821 0.72300005 1.4744434e-39
-0.034971423 -0.061028544 0.71999997 1.2900522e-39
-0.033599995 -0.061028548 0.71999997 1.1982237e-39
-0.032049537 -0.060689557 0.71600002 1.1063952e-39
-0.030599991 -0.060519982 0.71399999 1.0145737e-39
-0.029076179 -0.060180929 0.71000004 9.2275224e-40
-0.027645713 -0.060011409 0.708 8.3094196e-40
-0.026259994 -0.059926651 0.70699996 9.2423761e-40
-0.02484286 -0.059757154 0.70500004 1.0156934e-39
-0.023466656 -0.059672348 0.704 9.2275924e-40
-0.022094278 -0.059587602 0.70300001 8.3091113e-40
-0.020696182 -0.059418082 0.70099998 7.3798683e-40
-0.019360952 -0.059418101 0.70100003 5.5212701e-40
-0.01799999 -0.059333298 0.69999999 4.6025508e-40
-0.016666649 -0.059333287 0.70000005 3.6770212e-40
-0.015289516 -0.05916379 0.69800001 2.7622535e-40
-0.013939991 -0.059079025 0.69700003 1.8439406e-40
-0.012612376 -0.059079032 0.69700003 1.847556e-40
-0.01128476 -0.05907904 0.69699997 1.8511153e-40
-0.011299978 -0.067046613 0.79099995 2.7694282e-40
-0.0097933095 -0.067046613 0.79100001 3.6877832e-40
-0.0083076013 -0.06721615 0.79299998 3.6877832e-40
-0.0067971325 -0.067216165 0.79300004 3.6877832e-40
-0.0052866475 -0.06721615 0.79299998 2.7694282e-40
-0.0037761808 -0.067216173 0.79300004 1.8474999e-40
-0.0022656948 -0.067216143 0.79299998 2.7730295e-40
-0.00075331359 -0.067046627 0.79100001 3.6914405e-40
0.00075333816 -0.067046657 0.79100001 3.6914966e-40
0.0022600235 -0.067046613 0.79099995 3.6914966e-40
0.003776212 -0.067216143 0.79300004 2.7731276e-40
0.0052999971 -0.067385718 0.79500002 1.847612e-40
0.0068314341 -0.067555226 0.79700005 1.8511993e-40
0.0083495192 -0.067555249 0.79700005 1.8511713e-40
0.0097933514 -0.067046627 0.79099995 1.8583039e-40
0.011300018 -0.067046627 0.79100001 2.7839036e-40
0.01280669 -0.067046627 0.79100001 3.7023146e-40
0.01427716 -0.066877119 0.78900003 4.6245091e-40
0.015719986 -0.066622898 0.78599995 4.6068248e-40
0.01712952 -0.066283815 0.78200001 4.5960067e-40
0.016547626 -0.058909506 0.69500005 2.7807507e-40
0.017871445 -0.058909491 0.69499999 1.0024889e-40
0.01919526 -0.058909476 0.69499999 5.4486954e-39
0.020755259 -0.059587583 0.70299995 1.0898233e-38
0.022094302 -0.059587587 0.70299995 1.3197383e-38
0.023433352 -0.05958759 0.70299995 1.5589004e-38
0.024807626 -0.059672367 0.704 1.5952711e-38
0.026185712 -0.059757143 0.70500004 1.6418341e-38
0.027528567 -0.059757151 0.70500004 1.6410086e-38
-0.050579071 -0.061977178 0.74800003 8.6807553e-39
-0.04908856 -0.061894249 0.74699998 9.4892877e-39
-0.047538087 -0.061728537 0.74500006 5.3430067e-39
-0.045933321 -0.061479963 0.74200004 1.114639e-39
-0.044520002 -0.061479997 0.7420001 1.940811e-39
-0.040794268 -0.060154248 0.72599995 2.3956837e-39
-0.039357152 -0.060071446 0.72500002 2.1190982e-39
-0.037871409 -0.059905667 0.72300005 1.842154e-39
-0.036443803 -0.059822839 0.722 1.5662901e-39
-0.034922857 -0.059574272 0.71900004 1.1071127e-39
-0.033553332 -0.059574269 0.71900004 6.479464e-40
-0.031960007 -0.059160005 0.71399999 8.316286e-40
-0.03055715 -0.059077159 0.71300006 9.234669e-40
-0.028994288 -0.058662858 0.708 9.234697e-40
-0.027645726 -0.058662884 0.708 8.3164401e-40
-0.026185712 -0.058414273 0.70500004 8.3380762e-40
-0.024807615 -0.058331415 0.704 8.3055941e-40
-0.023466662 -0.058331419 0.704 7.3691063e-40
-0.022031421 -0.05808283 0.70100003 5.5358296e-40
-0.020666668 -0.057999995 0.70000005 5.5285148e-40
-0.019333335 -0.057999998 0.70000005 5.5247033e-40
-0.017948566 -0.057834268 0.69799995 5.5244931e-40
-0.016595233 -0.057751417 0.69700003 5.5209058e-40
-0.015267618 -0.057751425 0.69700003 4.6025508e-40
-0.013939994 -0.057751417 0.69700003 2.7658549e-40
-0.012612378 -0.057751425 0.69700003 2.7658829e-40
-0.011284763 -0.057751432 0.69700003 1.8510872e-40
-0.011328553 -0.065705664 0.79300004 2.7730155e-40
-0.0098180836 -0.065705687 0.79300004 2.7694282e-40
-0.0083285654 -0.065871418 0.79500002 2.7658409e-40
-0.0067971149 -0.06570565 0.79299998 2.7694282e-40
-0.0052866456 -0.065705664 0.79300004 2.7658409e-40
-0.0037761612 -0.065705642 0.79300004 2.7694422e-40
-0.0022656939 -0.065705664 0.79300004 3.6913845e-40
-0.00075332198 -0.065539971 0.79099995 3.6914125e-40
0.00075334747 -0.065539964 0.79100001 3.6878672e-40
0.0022600151 -0.065539956 0.79100001 3.6878532e-40
0.003776198 -0.065705702 0.79300004 2.7694983e-40
0.0052866819 -0.065705679 0.79299998 1.8511433e-40
0.0067971474 -0.065705694 0.79300004 1.8547306e-40
0.0083076349 -0.065705679 0.79300004 1.8582899e-40
0.0098181153 -0.065705657 0.79299998 2.7802182e-40
0.011300031 -0.065539934 0.79100001 2.7874209e-40
0.01280668 -0.065539971 0.79099995 3.7058179e-40
0.014277161 -0.065374255 0.78900003 3.6987693e-40
0.015720008 -0.065125704 0.78599995 5.5248434e-40
0.017173355 -0.064959958 0.78399998 6.4361218e-40
0.016523812 -0.057502858 0.69400001 3.6775677e-40
0.017845711 -0.057502862 0.69400001 9.4455924e-41
0.019195249 -0.057585698 0.69500005 2.4807971e-39
0.020755252 -0.058248546 0.70300001 4.9019564e-39
0.022094296 -0.05824855 0.70300001 1.2008161e-38
0.023433348 -0.05824855 0.70300001 1.898691e-38
-0.049088575 -0.060471423 0.74700004 8.852207e-39
-0.047538094 -0.060309526 0.74500006 4.9778003e-39
-0.045933321 -0.060066633 0.74200004 1.1128398e-39
-0.044519994 -0.06006664 0.74200004 1.7557093e-39
-0.040569518 -0.058447592 0.722 2.3038552e-39
-0.039194275 -0.058447585 0.722 2.3031349e-39
-0.037819047 -0.058447611 0.722 2.0261907e-39
-0.036292378 -0.058204751 0.71900004 1.841089e-39
-0.034922868 -0.058204785 0.71900004 1.4744687e-39
-0.033459991 -0.058042824 0.71699995 1.1082183e-39
-0.031915236 -0.057719033 0.71300006 1.0163968e-39
-0.030471416 -0.057557106 0.71099997 1.0153136e-39
-0.028994288 -0.057314288 0.708 9.2311097e-40
-0.027606664 -0.05723333 0.70699996 9.223893e-40
-0.026260007 -0.05723336 0.70700002 7.3835397e-40
-0.024772374 -0.056909494 0.70299995 6.4399053e-40
-0.023433326 -0.056909509 0.70299995 5.5249695e-40
-0.021999996 -0.056666657 0.70000005 4.6064464e-40
-0.020666666 -0.056666657 0.70000005 3.6879093e-40
-0.019278092 -0.05650476 0.69799995 3.6806786e-40
-0.017922858 -0.056423813 0.69700003 4.6025508e-40
-0.016595235 -0.056423806 0.69700003 4.5989635e-40
-0.01526762 -0.056423813 0.69700003 3.6877832e-40
-0.013939996 -0.056423798 0.69700003 2.7658409e-40
-0.012612368 -0.056423768 0.69699997 1.8474859e-40
-0.011284753 -0.056423783 0.69699997 1.8474859e-40
-0.0099571273 -0.056423776 0.69699997 2.7658409e-40
-0.0098428419 -0.064357102 0.79500002 3.6806085e-40
-0.0083495155 -0.064519025 0.79699999 2.7694282e-40
-0.0068142884 -0.064357147 0.79500002 2.7801902e-40
-0.0053000036 -0.064357147 0.79500002 2.7730155e-40
-0.0037857026 -0.064357117 0.79500002 3.6913845e-40
-0.0022714168 -0.064357117 0.79500002 3.6913845e-40
-0.00075522094 -0.064195201 0.79300004 3.6878112e-40
0.00075526506 -0.064195186 0.79299998 3.6878112e-40
0.0022657325 -0.064195201 0.79300004 3.6878112e-40
0.0037762157 -0.064195178 0.79300004 2.7694422e-40
0.0052866857 -0.064195201 0.79300004 1.8546746e-40
0.0067971698 -0.064195178 0.79300004 1.8582479e-40
0.0083076367 -0.064195201 0.79300004 1.8618352e-40
0.0097933551 -0.064033285 0.79100001 2.7873648e-40
0.011300009 -0.064033322 0.79099995 3.7200691e-40
0.012806676 -0.064033315 0.79100001 3.7093071e-40
0.01427715 -0.063871428 0.78900003 3.6877832e-40
0.015719999 -0.063628584 0.78599995 4.6097254e-40
0.017173335 -0.063466668 0.78399998 5.521172e-40
0.018714292 -0.063628569 0.78599995 4.6066706e-40
0.020211441 -0.063628547 0.78600001 4.5959227e-40
-0.040625695 -0.057151373 0.72300005 2.3034965e-39
-0.039194275 -0.057072341 0.722 2.3956935e-39
-0.037714288 -0.056914292 0.72000003 2.3024273e-39
-0.036292382 -0.056835238 0.71900004 2.1180444e-39
-0.034825709 -0.056677118 0.71700001 1.8414687e-39
-0.033320002 -0.056439981 0.71399999 1.4762974e-39
-0.03191524 -0.056360945 0.71300006 1.2944382e-39
-0.03042856 -0.056123782 0.71000004 1.1082309e-39
-0.028994279 -0.055965692 0.708 1.0149339e-39
-0.027606661 -0.055886649 0.70699996 9.2129208e-40
-0.026260005 -0.055886678 0.70700002 6.4433805e-40
-0.024701897 -0.05541236 0.70100003 3.6881895e-40
-0.023366673 -0.055412397 0.70100003 3.6844901e-40
-0.021999987 -0.055333294 0.70000005 2.7696244e-40
-0.020607624 -0.055175252 0.69800001 2.765939e-40
-0.019278094 -0.05517523 0.69800001 1.8475279e-40
-0.017922845 -0.055096164 0.69699997 2.7622535e-40
-0.018880937 -0.06268473 0.79299998 3.6841958e-40
-0.017370468 -0.062684745 0.79300004 2.7766169e-40
-0.015859986 -0.062684722 0.79299998 1.8546606e-40
-0.012612369 -0.055096164 0.69699997 1.8510732e-40
-0.011284755 -0.055096172 0.69699997 9.3271827e-41
-0.011357131 -0.062842831 0.79500002 2.7658549e-40
-0.0098428465 -0.062842831 0.79500002 3.6842098e-40
-0.0083495136 -0.063000925 0.79699999 2.7694422e-40
-0.0068314276 -0.063000955 0.79699999 1.8546606e-40
-0.0052999933 -0.062842838 0.79500002 2.7730155e-40
-0.0037857073 -0.062842846 0.79500002 3.6913705e-40
-0.0022714233 -0.062842846 0.79500002 3.6913845e-40
-0.00075521908 -0.062684715 0.79300004 3.6877972e-40
0.000755266 -0.0626847 0.79300004 3.6842098e-40
0.0022657511 -0.062684678 0.79300004 2.7694422e-40
0.0037762036 -0.062684737 0.79299998 2.7694422e-40
0.0052866875 -0.062684715 0.79299998 1.8582479e-40
0.0067971549 -0.06268473 0.79300004 1.8582479e-40
0.0083076386 -0.062684715 0.79299998 1.8654225e-40
0.0097933365 -0.062526673 0.79100001 2.7873648e-40
0.011300021 -0.062526628 0.79099995 3.7129365e-40
0.012806688 -0.062526621 0.79100001 3.7165658e-40
0.014277146 -0.062368564 0.78900003 3.7057758e-40
0.015719991 -0.062131461 0.78599995 4.6169141e-40
0.017173352 -0.061973296 0.78399998 4.6134809e-40
0.018714277 -0.062131453 0.78599995 6.4610929e-40
0.020211428 -0.062131427 0.78600001 7.3651967e-40
0.021708567 -0.062131442 0.78599995 4.5994819e-40
-0.04062571 -0.05577426 0.72300005 2.4878835e-39
-0.039085716 -0.055542849 0.72000003 2.5815225e-39
-0.03766191 -0.055465709 0.71900004 3.0396336e-39
-0.036191415 -0.055311378 0.71699995 3.405549e-39
-0.03477715 -0.055234294 0.71599996 2.3950083e-39
-0.033319999 -0.055079982 0.71399999 1.3859164e-39
-0.03182571 -0.054848544 0.71099997 1.1093561e-39
-0.030428568 -0.054771412 0.71000004 9.2456552e-40
-0.028953336 -0.054540005 0.70699996 8.3017405e-40
-0.02760667 -0.054540008 0.70700002 8.2835937e-40
-0.026260002 -0.054540001 0.70700002 5.5283186e-40
-0.024560941 -0.053768538 0.69699997 3.6915526e-40
-0.023233322 -0.05376853 0.69699997 3.6878953e-40
-0.021905705 -0.053768549 0.69699997 2.7695123e-40
-0.020578088 -0.053768557 0.69699997 2.7694842e-40
-0.019195227 -0.053614259 0.69499999 2.7694562e-40
-0.01787143 -0.053614281 0.69500005 3.6841958e-40
-0.018928558 -0.061328538 0.79500002 3.6806225e-40
-0.01741429 -0.061328579 0.79500002 2.7694422e-40
-0.015899988 -0.061328545 0.79500002 1.8546746e-40
-0.014385704 -0.061328545 0.79500002 1.8510732e-40
-0.012903812 -0.061482862 0.79699999 1.8510872e-40
-0.011385712 -0.06148285 0.79699999 2.7694422e-40
-0.0098676281 -0.061482877 0.79699999 4.6061521e-40
-0.0083495257 -0.061482865 0.79700005 3.6877972e-40
-0.0068314415 -0.061482891 0.79699999 2.7658549e-40
-0.0052999971 -0.061328568 0.79500002 3.6877832e-40
-0.0037952412 -0.061482869 0.79699999 3.6877832e-40
-0.0022771407 -0.061482854 0.79700005 3.6877832e-40
-0.00075712829 -0.061328538 0.79500002 4.6061381e-40
0.00075715565 -0.061328541 0.79500002 3.6841958e-40
0.0022714406 -0.061328545 0.79500002 3.6841958e-40
0.0037857264 -0.061328553 0.79499996 2.7730155e-40
0.0052866885 -0.061174233 0.79300004 2.7801902e-40
0.0067971577 -0.061174251 0.79300004 2.7766028e-40
0.0083076432 -0.061174233 0.79300004 2.7837775e-40
0.009793344 -0.061019979 0.79100001 3.7021325e-40
0.011300012 -0.061019972 0.79100001 4.6241588e-40
0.012806681 -0.061019972 0.79099995 4.6242429e-40
0.014277151 -0.0608657 0.78900003 4.6313475e-40
0.015719999 -0.0606343 0.78600001 4.6205154e-40
0.017173331 -0.060480002 0.78399998 5.5281365e-40
0.01866667 -0.060479995 0.78399998 6.4572814e-40
0.020160008 -0.060479984 0.78400004 8.2977748e-40
0.021653347 -0.060479984 0.78399998 4.6137752e-40
-0.038922843 -0.053945657 0.71699995 2.7641103e-39
-0.037504777 -0.053870492 0.71600002 3.7768287e-39
-0.03614096 -0.053870492 0.71599996 4.694476e-39
-0.03467999 -0.053719968 0.71399999 3.0382197e-39
-0.033273339 -0.05364478 0.71300006 1.2922718e-39
-0.031825714 -0.053494275 0.71099997 1.0156934e-39
-0.030342855 -0.05326857 0.708 6.4687721e-40
-0.028871426 -0.053042851 0.70500004 6.4468698e-40
-0.027528582 -0.053042874 0.70500004 6.4467156e-40
-0.026260005 -0.053193338 0.70699996 5.5282065e-40
-0.024560947 -0.052440934 0.69699997 3.6878812e-40
-0.023233322 -0.052440919 0.69699997 3.6842659e-40
-0.021905707 -0.052440934 0.69699997 2.765967e-40
-0.020578083 -0.052440926 0.69700003 3.6879653e-40
-0.019250469 -0.052440934 0.69700003 3.6842939e-40
-0.020442849 -0.059814259 0.79500002 3.6806225e-40
-0.018928563 -0.059814263 0.79499996 3.6806225e-40
-0.017414281 -0.059814267 0.79500008 2.7658689e-40
-0.015899995 -0.059814274 0.79500002 1.8474999e-40
-0.01438571 -0.059814274 0.79500002 2.7658409e-40
-0.012903796 -0.05996472 0.79699999 2.7694422e-40
-0.01138571 -0.05996475 0.79699999 3.6878112e-40
-0.0098676262 -0.059964776 0.79699999 4.6061661e-40
-0.0083495257 -0.059964761 0.79699999 4.6025788e-40
-0.0068314238 -0.05996475 0.79700005 3.6877972e-40
-0.0053133382 -0.05996478 0.79700005 3.6877832e-40
-0.0037952384 -0.059964769 0.79699999 3.6877832e-40
-0.0022771379 -0.059964754 0.79699999 4.6061381e-40
-0.00075713295 -0.059814267 0.79500002 4.6025648e-40
0.00075715006 -0.059814271 0.79500002 4.5989775e-40
0.002271435 -0.059814274 0.79500002 3.6877972e-40
0.0037857357 -0.059814237 0.79500002 3.6913705e-40
0.0053000194 -0.059814237 0.79500002 2.7766169e-40
0.0068142866 -0.059814285 0.79500002 2.7694562e-40
0.0083285728 -0.059814289 0.79500002 2.7766169e-40
0.0098181125 -0.059663765 0.79299998 3.6949578e-40
0.011300023 -0.059513278 0.79100001 4.6133688e-40
0.012806674 -0.059513316 0.79100001 4.6098235e-40
0.014277156 -0.059362836 0.78900003 4.6205435e-40
0.015759995 -0.059287637 0.78799999 5.546031e-40
0.017173352 -0.058986638 0.78399998 5.5388704e-40
0.018666672 -0.058986664 0.78399998 7.3791817e-40
0.02016001 -0.05898666 0.78399998 8.2940474e-40
0.021653349 -0.058986653 0.78399998 5.5426679e-40
-0.038922854 -0.052579969 0.71700001 2.4875192e-39
-0.037504774 -0.052506685 0.71599996 3.0435796e-39
-0.036140952 -0.052506659 0.71599996 3.5985513e-39
-0.034679994 -0.052359968 0.71399999 2.3056909e-39
-0.033273347 -0.052286685 0.71300006 1.015315e-39
-0.031646676 -0.051846687 0.70700002 6.4688141e-40
-0.030300003 -0.051846676 0.70699996 3.6990776e-40
-0.028830471 -0.051626652 0.704 4.6099216e-40
-0.027489526 -0.051626664 0.70400006 5.5245912e-40
-0.026148567 -0.05162666 0.704 3.6877832e-40
-0.023233326 -0.051113307 0.69700003 3.6842098e-40
-0.025080005 -0.058520012 0.79800004 4.5991316e-40
-0.023560008 -0.058520012 0.79800004 4.6028591e-40
-0.021957137 -0.058299989 0.79500002 3.684364e-40
-0.020442838 -0.058299951 0.79500002 3.6842239e-40
-0.018928552 -0.058299951 0.79500002 3.6806365e-40
-0.01741427 -0.058299959 0.79500002 2.7622816e-40
-0.015899999 -0.058300003 0.79500002 2.7622676e-40
-0.014385716 -0.058300003 0.79500002 3.6841958e-40
-0.012871414 -0.058299966 0.79500002 4.6097535e-40
-0.011385722 -0.05844669 0.79700005 5.5245351e-40
-0.0098676225 -0.058446676 0.79699999 6.4393028e-40
-0.0083495229 -0.058446661 0.79699999 5.5245351e-40
-0.0068399846 -0.058519967 0.79800004 3.6878112e-40
-0.0053199851 -0.058519967 0.79800004 3.6877832e-40
-0.0038000012 -0.058520004 0.79800004 3.6877832e-40
-0.0022800027 -0.058519997 0.79800004 3.6877832e-40
-0.00075904961 -0.058446683 0.79699999 4.5989775e-40
0.00075905089 -0.058446668 0.79699999 3.6842239e-40
0.0022771338 -0.05844669 0.79699999 3.6877972e-40
0.0037857301 -0.058299966 0.79500002 3.6913705e-40
0.0053000147 -0.058299966 0.79500002 3.6985732e-40
0.0068142847 -0.058300011 0.79500002 2.7730576e-40
0.0083285831 -0.058299974 0.79500008 2.7730435e-40
0.0098181125 -0.058153283 0.79300004 3.6913705e-40
0.011300002 -0.058006667 0.79100001 4.6025648e-40
0.012806687 -0.058006622 0.79099995 3.6949858e-40
0.014277158 -0.057859972 0.78900003 3.6985591e-40
0.015719997 -0.05764002 0.78599995 4.6169001e-40
0.017173333 -0.057493344 0.78399998 4.6169001e-40
0.018619053 -0.057346661 0.78200006 6.4500227e-40
0.020108575 -0.057346664 0.78200006 9.2015002e-40
0.021460002 -0.056980003 0.77700001 7.371965e-40
0.02294001 -0.056979991 0.77700001 5.5281365e-40
-0.034631427 -0.050928563 0.71300006 1.5706272e-39
-0.033179991 -0.050785676 0.71099997 6.479492e-40
-0.031691432 -0.050571427 0.708 3.7063223e-40
-0.030300001 -0.050499998 0.70699996 9.4383057e-41
-0.028830469 -0.050285697 0.704 2.7731276e-40
-0.027489515 -0.05028569 0.704 3.6878392e-40
-0.026148576 -0.050285734 0.704 2.7658409e-40
-0.026600001 -0.056999996 0.79800004 4.6061521e-40
-0.025079999 -0.056999996 0.79800004 6.4393448e-40
-0.023619032 -0.057142813 0.79999995 5.5210739e-40
-0.02204 -0.056999996 0.79800004 3.6878812e-40
-0.020494292 -0.056928579 0.79699999 3.6878112e-40
-0.018976191 -0.056928568 0.79700005 3.6842239e-40
-0.017458105 -0.056928597 0.79700005 3.6806505e-40
-0.01593999 -0.056928545 0.79699999 2.7658969e-40
-0.014421906 -0.056928568 0.79699999 4.6026068e-40
-0.012919997 -0.056999989 0.79800004 5.5245772e-40
-0.011399997 -0.056999989 0.79800004 7.3577138e-40
-0.009879997 -0.056999989 0.79799998 8.279628e-40
-0.0083600124 -0.057000026 0.79800004 6.4428901e-40
-0.0068400106 -0.057000026 0.79800004 3.6878112e-40
-0.0053199935 -0.056999989 0.79800004 3.6878112e-40
-0.0037999956 -0.056999989 0.79800004 2.7694562e-40
-0.0022799924 -0.056999989 0.79800004 3.6878112e-40
-0.00075904961 -0.056928575 0.79700005 3.6843079e-40
0.00075905089 -0.05692856 0.79699999 3.684392e-40
0.0022771347 -0.05692859 0.79699999 3.6878812e-40
0.003795237 -0.056928575 0.79699999 3.6877972e-40
0.0053133206 -0.056928605 0.79699999 3.6914405e-40
0.0068314211 -0.05692859 0.79700005 2.7731556e-40
0.0083285794 -0.056785703 0.79500002 1.8583179e-40
0.0098181199 -0.056642804 0.79299998 2.7766169e-40
0.011300011 -0.056499973 0.79100001 3.6949718e-40
0.012806677 -0.056499969 0.79100001 3.6985732e-40
0.014277157 -0.056357108 0.78900003 2.7802182e-40
0.015719997 -0.056142863 0.78600001 3.6913985e-40
0.017085705 -0.055714328 0.77999997 3.6913985e-40
0.018571423 -0.055714309 0.77999997 6.4428901e-40
0.019980015 -0.055499967 0.77700001 9.2015143e-40
0.021404751 -0.055357181 0.77500004 9.2086749e-40
0.022880958 -0.055357143 0.77500004 8.290404e-40
0.024357142 -0.055357147 0.77500004 7.3757205e-40
-0.034485713 -0.049361888 0.71000004 1.1085574e-39
-0.033040009 -0.049222864 0.70800006 4.6102719e-40
-0.031691432 -0.049222849 0.708 3.6988955e-40
-0.030299997 -0.04915332 0.70699996 1.8656047e-40
-0.028789511 -0.048875198 0.70299995 2.7766169e-40
-0.027450465 -0.048875205 0.70299995 3.6877972e-40
-0.025925716 -0.048527613 0.69799995 2.7694282e-40
-0.024596181 -0.048527598 0.69799995 2.7694282e-40
-0.026599996 -0.055479981 0.79800004 3.6877832e-40
-0.025079994 -0.055479981 0.79800004 5.5209198e-40
-0.023559993 -0.055479977 0.79800004 4.6025788e-40
-0.022040011 -0.055480018 0.79800004 3.6878112e-40
-0.020494288 -0.055410478 0.79699999 2.7694422e-40
-0.018976189 -0.055410467 0.79700005 2.7658829e-40
-0.017458105 -0.055410489 0.79699999 2.7658969e-40
-0.015940005 -0.055410482 0.79700005 2.7659249e-40
-0.014421904 -0.055410467 0.79699999 4.6062502e-40
-0.01291999 -0.055479974 0.79800004 5.5246332e-40
-0.011400008 -0.055480011 0.79800004 8.2832994e-40
-0.0098800063 -0.055480011 0.79800004 1.0123541e-39
-0.0083809346 -0.055619001 0.80000001 6.4464634e-40
-0.0068571339 -0.055619024 0.79999995 3.6914125e-40
-0.0053333337 -0.055619046 0.79999995 2.7730576e-40
-0.0038095166 -0.055619031 0.80000001 2.7730576e-40
-0.0022799887 -0.05547997 0.79800004 3.6878252e-40
-0.00075904682 -0.055410475 0.79700005 3.6879793e-40
0.00075905368 -0.05541046 0.79699999 3.6881335e-40
0.0022771533 -0.055410452 0.79700005 3.6915526e-40
0.0037857348 -0.05527138 0.79500002 3.6913845e-40
0.0053133373 -0.055410467 0.79700005 3.6914966e-40
0.0068143043 -0.055271387 0.79500002 2.7732537e-40
0.0083076395 -0.055132337 0.79300004 2.776729e-40
0.0098181227 -0.055132322 0.79300004 2.7766169e-40
0.011300022 -0.054993279 0.79100001 2.7802042e-40
0.012806691 -0.054993279 0.79100001 2.7837915e-40
0.01427716 -0.054854244 0.78900003 1.8618632e-40
0.015680006 -0.054506652 0.78399998 2.7766449e-40
0.017085703 -0.054228619 0.77999997 3.6914265e-40
0.018499998 -0.05402001 0.77700001 6.4465054e-40
0.019928576 -0.05388096 0.77499998 9.2015423e-40
0.021349529 -0.053741895 0.77300006 9.2086749e-40
0.022821903 -0.053741913 0.77300006 8.2976067e-40
0.024294291 -0.053741895 0.773 6.4574075e-40
-0.034388568 -0.047874276 0.708 6.4434506e-40
-0.032993343 -0.047806688 0.70700002 2.7734079e-40
-0.031646673 -0.047806673 0.70699996 2.7803723e-40
-0.030171426 -0.047603797 0.704 2.7767009e-40
-0.02870761 -0.047400929 0.70100003 2.7730295e-40
-0.027255245 -0.047198106 0.69800001 2.7694282e-40
-0.025925716 -0.047198091 0.69800001 2.7694282e-40
-0.028119991 -0.053959966 0.79800004 2.7730155e-40
-0.026599988 -0.053959966 0.79800004 3.6913705e-40
-0.025080001 -0.053960003 0.79800004 3.6877972e-40
-0.023560004 -0.053960003 0.79800004 3.6842098e-40
-0.022040004 -0.053960003 0.79800004 2.7658549e-40
-0.020494288 -0.053892378 0.79699999 1.8475139e-40
-0.018976185 -0.053892367 0.79699999 9.2922904e-41
-0.017480001 -0.053959999 0.79799998 1.8476541e-40
-0.01596 -0.053959996 0.7980001 2.7731416e-40
-0.01444 -0.053959996 0.79800004 4.6133968e-40
-0.012920001 -0.053959996 0.79800004 5.5317518e-40
-0.011400002 -0.053959996 0.79800004 9.2015983e-40
-0.0098799998 -0.053959996 0.79800004 1.1956649e-39
-0.0083809504 -0.054095235 0.79999995 7.3648604e-40
-0.0068571339 -0.054095216 0.80000001 2.7730576e-40
-0.0053333337 -0.054095238 0.80000001 2.7694562e-40
-0.0038094998 -0.054095186 0.80000001 2.7694562e-40
-0.0022799971 -0.053959996 0.79800004 3.6842379e-40
-0.00075904402 -0.053892374 0.79700005 3.6879093e-40
0.00075903971 -0.0538924 0.79700005 3.6879793e-40
0.0022771412 -0.053892389 0.79700005 3.6914686e-40
0.0037857301 -0.053757109 0.79500002 3.6985591e-40
0.0053000157 -0.053757109 0.79500002 2.7730856e-40
0.006797153 -0.053621881 0.79299998 3.6879233e-40
0.0083076395 -0.053621858 0.79299998 3.6914405e-40
0.0097933505 -0.05348663 0.79100001 2.7766169e-40
0.011300018 -0.05348663 0.79100001 1.8618492e-40
0.012774296 -0.05335141 0.78900003 1.8690239e-40
0.014277167 -0.053351384 0.78900003 9.4708158e-41
0.015680008 -0.053013321 0.78399998 1.8618632e-40
0.017063834 -0.052675184 0.77900004 2.7766449e-40
0.01845238 -0.052404776 0.77499998 6.4464914e-40
0.019851429 -0.052201901 0.77199996 9.2015423e-40
0.021266684 -0.052066635 0.76999998 9.2015423e-40
0.022674304 -0.051931396 0.76800001 8.2904461e-40
0.024105731 -0.051863771 0.76699996 5.5390666e-40
0.025433347 -0.051593307 0.76300001 2.7804424e-40
0.026816189 -0.051458113 0.76099998 1.8441788e-40
0.028265728 -0.051458072 0.76099998 9.4101396e-41
-0.034388565 -0.046525702 0.708 5.5285428e-40
-0.032899994 -0.046328552 0.70500004 3.6844341e-40
-0.031557154 -0.046328578 0.70499998 3.6913705e-40
-0.030128567 -0.046197124 0.70300001 3.6913705e-40
-0.028707609 -0.046065681 0.70100003 3.6913705e-40
-0.030964749 -0.052111387 0.79299998 3.6877832e-40
-0.029640013 -0.052440025 0.79800004 3.6913705e-40
-0.028119998 -0.052439988 0.79800004 3.6913705e-40
-0.026599998 -0.052439988 0.79800004 3.6913705e-40
-0.025079995 -0.052439988 0.79800004 3.6877832e-40
-0.023559997 -0.052439984 0.79800004 2.7658409e-40
-0.022039996 -0.052439984 0.79800004 2.7658549e-40
-0.020519996 -0.052439984 0.79799998 2.7694562e-40
-0.019000012 -0.052440021 0.79800004 2.765995e-40
-0.01748001 -0.052440021 0.79800004 4.613579e-40
-0.01596001 -0.052440021 0.79800004 6.4609388e-40
-0.014476186 -0.052571416 0.79999995 6.4572394e-40
-0.012952369 -0.052571401 0.80000001 7.372007e-40
-0.011428569 -0.052571423 0.79999995 8.2831733e-40
-0.0099047525 -0.052571401 0.80000001 9.2015703e-40
-0.0083809523 -0.052571427 0.80000001 6.4465335e-40
-0.0068571358 -0.052571408 0.79999995 3.6878392e-40
-0.0053333198 -0.052571394 0.80000001 2.7694282e-40
-0.0038095184 -0.052571416 0.79999995 2.7694562e-40
-0.0022799906 -0.05243998 0.79800004 3.6878252e-40
-0.00075903937 -0.052374274 0.79700005 3.6914125e-40
0.00075904437 -0.0523743 0.79699999 4.6097675e-40
0.002277144 -0.052374288 0.79700005 5.5281084e-40
0.0037857245 -0.052242838 0.79500002 4.6097254e-40
0.0053000092 -0.052242838 0.79500002 3.6913985e-40
0.0067971586 -0.052111395 0.79300004 3.6878252e-40
0.0083076442 -0.052111376 0.79300004 4.6061661e-40
0.0097933589 -0.051979937 0.79100001 3.6949578e-40
0.011300012 -0.051979974 0.79099995 2.7802042e-40
0.012774298 -0.051848546 0.78899997 3.6985591e-40
0.014259049 -0.051782854 0.78799999 4.6205014e-40
0.015640009 -0.051388562 0.78200001 3.6949578e-40
0.017019998 -0.05106001 0.77700001 3.6913845e-40
0.018404771 -0.05079712 0.773 5.5316958e-40
0.019851429 -0.050731428 0.77200001 7.3648464e-40
0.021211443 -0.050468542 0.76799995 7.3648604e-40
0.022644768 -0.050402846 0.76699996 8.2868868e-40
0.02404285 -0.050271459 0.76500005 7.3757905e-40
0.025433345 -0.050139982 0.76300001 6.4681695e-40
0.026816189 -0.050008576 0.76099998 3.6987133e-40
0.028265713 -0.050008576 0.76099998 9.2267096e-41
-0.034242854 -0.044985697 0.70499998 4.6063904e-40
-0.032853335 -0.044921905 0.704 3.6879093e-40
-0.031512372 -0.044921875 0.704 3.6913705e-40
-0.030128563 -0.044858057 0.70299995 3.6913705e-40
-0.028707618 -0.044730466 0.70100003 3.6877832e-40
-0.030964745 -0.050600905 0.79300004 3.6877832e-40
-0.029602868 -0.05085621 0.79699999 3.6913705e-40
-0.028120007 -0.05092001 0.79800004 3.6913705e-40
-0.02659999 -0.050919972 0.79800004 3.6949578e-40
-0.02507999 -0.050919972 0.79800004 2.7730155e-40
-0.023559989 -0.050919972 0.79800004 2.7658409e-40
-0.022040008 -0.050920006 0.79800004 2.7694422e-40
-0.020520007 -0.050920006 0.79800004 3.6913985e-40
-0.019000007 -0.050920006 0.79800004 3.6914546e-40
-0.017480003 -0.050920006 0.79800004 6.4537642e-40
-0.015999986 -0.051047586 0.80000001 9.2159336e-40
-0.014476188 -0.051047608 0.80000001 9.2194649e-40
-0.012952387 -0.051047631 0.79999995 9.2051016e-40
-0.01142857 -0.051047616 0.80000001 8.279572e-40
-0.0099047543 -0.051047601 0.79999995 6.4428761e-40
-0.0083809393 -0.051047582 0.80000001 5.5245491e-40
-0.0068571386 -0.051047608 0.79999995 3.6878112e-40
-0.0053333375 -0.051047627 0.79999995 3.6877832e-40
-0.0038095193 -0.051047612 0.80000001 2.7694422e-40
-0.0022857033 -0.051047593 0.79999995 3.6913985e-40
-0.00075903657 -0.050856173 0.79699999 3.6949858e-40
0.00075904623 -0.050856199 0.79699999 5.5316958e-40
0.0022714341 -0.050728559 0.79500002 6.4464494e-40
0.0037762227 -0.050600875 0.79300004 5.5245071e-40
0.0052866922 -0.050600894 0.79300004 3.6878112e-40
0.0067971605 -0.050600912 0.79299998 4.6061802e-40
0.0082866866 -0.050473295 0.79100001 4.6097535e-40
0.0097933365 -0.050473325 0.79100001 4.6133268e-40
0.011300009 -0.050473321 0.79100001 3.6949718e-40
0.012774285 -0.050345719 0.78900003 6.4464494e-40
0.01422284 -0.050154325 0.78599995 8.2832294e-40
0.015580021 -0.049707577 0.77900004 6.4430022e-40
0.016976194 -0.049452376 0.77499998 3.6914686e-40
0.018404774 -0.049324729 0.773 4.6169281e-40
0.019851429 -0.049260952 0.77200001 4.6133548e-40
0.021211445 -0.049005687 0.76800001 6.4464774e-40
0.022585712 -0.048814304 0.76500005 8.2868447e-40
0.023980008 -0.048686642 0.76300001 9.2088571e-40
0.025366666 -0.048559055 0.76099998 9.2232624e-40
0.02681621 -0.048559006 0.76099998 5.5534859e-40
0.02826572 -0.048559044 0.76099998 9.3686611e-41
0.032720957 -0.046644751 0.73100001 2.3229347e-38
0.034020003 -0.046517149 0.72899997 2.3325854e-38
-0.034242857 -0.043642852 0.70499998 3.6913985e-40
-0.032806668 -0.043519042 0.70299995 3.6913845e-40
-0.031467613 -0.043519024 0.70300001 4.6133128e-40
-0.030042861 -0.043395244 0.70100003 5.5280804e-40
-0.032475214 -0.049090404 0.79300004 5.5280804e-40
-0.031042846 -0.049214255 0.79500002 5.5244931e-40
-0.029602865 -0.04933811 0.79699999 5.5244931e-40
-0.028084764 -0.049338095 0.79699999 5.5244931e-40
-0.026599986 -0.049399957 0.79800004 4.6097254e-40
-0.025079999 -0.049399994 0.79800004 3.6913705e-40
-0.023560001 -0.049399994 0.79800004 2.7694282e-40
-0.02204 -0.049399994 0.79800004 2.7730295e-40
-0.02052 -0.049399994 0.79800004 2.7766169e-40
-0.018999999 -0.049399991 0.79800004 2.7730435e-40
-0.017479999 -0.049399991 0.79799998 4.6133408e-40
-0.016000004 -0.049523816 0.79999995 6.4607987e-40
-0.014476189 -0.049523801 0.80000001 6.45361e-40
-0.012952372 -0.049523786 0.79999995 6.442848e-40
-0.011428556 -0.049523771 0.80000001 5.5244931e-40
-0.0099047562 -0.049523793 0.79999995 5.5173184e-40
-0.0083809569 -0.049523816 0.79999995 3.6877832e-40
-0.0068571405 -0.049523801 0.80000001 2.7658409e-40
-0.0053333254 -0.049523786 0.79999995 2.7658409e-40
-0.0038095072 -0.049523767 0.80000001 2.7622535e-40
-0.0022857061 -0.049523793 0.79999995 2.7730155e-40
-0.00075999304 -0.049399983 0.79800004 3.6949578e-40
0.00075904903 -0.049338099 0.79699999 4.6097254e-40
0.0022714294 -0.049214289 0.79500002 5.5280944e-40
0.0037762101 -0.04909043 0.79300004 4.6061521e-40
0.0052866777 -0.049090452 0.79300004 3.6842239e-40
0.006780012 -0.048966639 0.79100001 3.6878112e-40
0.0082866801 -0.048966635 0.79099995 3.6878112e-40
0.0097933467 -0.048966631 0.79099995 3.6949718e-40
0.011271433 -0.048842847 0.78900003 2.7730295e-40
0.012758113 -0.048780918 0.78800005 4.6097395e-40
0.014222868 -0.048657127 0.78599995 6.4430162e-40
0.015540001 -0.048100006 0.77700001 4.6064464e-40
0.016976191 -0.0479762 0.77500004 3.6879513e-40
0.01840478 -0.047852341 0.773 5.5316958e-40
0.019800033 -0.047666598 0.77000004 6.453638e-40
0.021211443 -0.047542833 0.76800001 7.3683917e-40
0.022585731 -0.047357112 0.76499999 7.3684477e-40
0.023980007 -0.047233321 0.76300001 8.301208e-40
0.02543335 -0.047233302 0.76300001 9.2304651e-40
0.026816195 -0.047109518 0.76099998 7.390308e-40
0.028265722 -0.047109511 0.76099998 6.4468277e-40
0.031714294 -0.045809515 0.74000001 1.2179669e-38
0.032720972 -0.045252338 0.73100001 2.3234013e-38
0.034020007 -0.045128569 0.72899997 2.3325854e-38
0.035359986 -0.045066692 0.72800004 2.341769e-38
-0.034340002 -0.042420007 0.70700002 3.6985591e-40
-0.032853328 -0.042239971 0.704 3.6985872e-40
-0.031557161 -0.042300034 0.70500004 5.5460871e-40
-0.030128563 -0.042179964 0.70299995 7.372007e-40
-0.032557137 -0.047699977 0.79500002 7.3683917e-40
-0.031042852 -0.04769998 0.79500002 6.4464354e-40
-0.029602846 -0.047819968 0.79699999 6.442848e-40
-0.028084764 -0.047819994 0.79699999 6.4464494e-40
-0.026599994 -0.047879979 0.79800004 5.5280944e-40
-0.025079994 -0.047879979 0.79800004 3.6913845e-40
-0.023559993 -0.047879979 0.79800004 3.6878112e-40
-0.022039993 -0.047879975 0.79800004 2.7766169e-40
-0.020519992 -0.047879975 0.79800004 1.8654365e-40
-0.019000011 -0.047880016 0.79800004 9.3990693e-41
-0.017480006 -0.047880016 0.79800004 2.7694422e-40
-0.01599999 -0.047999978 0.79999995 3.6949718e-40
-0.014476174 -0.047999959 0.80000001 3.6913705e-40
-0.012952373 -0.047999978 0.80000001 3.6913705e-40
-0.011428572 -0.048 0.79999995 3.6877832e-40
-0.0099047562 -0.047999986 0.80000001 3.6877972e-40
-0.0083809411 -0.047999971 0.79999995 2.7730295e-40
-0.0068571237 -0.047999956 0.80000001 1.8510872e-40
-0.0053333244 -0.047999978 0.79999995 1.8474859e-40
-0.0038095231 -0.048 0.79999995 1.8474859e-40
-0.002285707 -0.047999986 0.80000001 2.7730155e-40
-0.00075904961 -0.047820009 0.79700005 3.6913705e-40
0.00075903413 -0.047820035 0.79699999 3.6877832e-40
0.0022657451 -0.047579929 0.79300004 3.6878392e-40
0.0037666701 -0.047459994 0.79100001 3.6878812e-40
0.0052733552 -0.047459953 0.79100001 2.7694842e-40
0.0067800069 -0.047459986 0.79099995 2.7658549e-40
0.0082657151 -0.047339998 0.78900003 2.7730716e-40
0.009768567 -0.047340009 0.78900003 2.7802883e-40
0.011271436 -0.047339983 0.78900003 1.8583039e-40
0.01275811 -0.047279969 0.78800005 2.7730295e-40
0.014186682 -0.047039967 0.78399998 3.6914686e-40
0.015499994 -0.046500016 0.77500004 3.6879653e-40
0.016932378 -0.046380013 0.773 3.6914686e-40
0.018333351 -0.046199966 0.76999998 6.4464634e-40
0.019748587 -0.046079978 0.76799995 8.2831733e-40
0.021183815 -0.046019997 0.76699996 7.361231e-40
0.022585718 -0.045900002 0.76499999 6.4572534e-40
0.023980003 -0.045779996 0.76300001 8.3083406e-40
0.025366656 -0.04566003 0.76099998 9.2339823e-40
0.026780961 -0.045599997 0.76000005 1.0159624e-39
0.028228585 -0.045599982 0.76000005 1.1049252e-39
0.029480979 -0.045299947 0.75500005 6.4323383e-40
0.03042764 -0.044579953 0.74299997 1.0816483e-40
0.031800006 -0.044519976 0.74199998 1.172695e-38
0.033079062 -0.044339966 0.73899996 2.3227197e-38
0.034113348 -0.043859988 0.73100001 2.3325854e-38
0.035408571 -0.043740001 0.72899997 2.341769e-38
-0.034340009 -0.041073348 0.70700002 4.6169001e-40
-0.032900009 -0.04095716 0.70500004 4.6169702e-40
-0.031557139 -0.040957123 0.70500004 5.5389685e-40
-0.033985693 -0.046069458 0.79300004 6.4536801e-40
-0.032557141 -0.046185702 0.79500002 5.5316817e-40
-0.031120962 -0.04630192 0.79699999 5.5316817e-40
-0.029602861 -0.046301905 0.79700005 5.5280804e-40
-0.028084761 -0.046301894 0.79699999 5.5280944e-40
-0.026600001 -0.046360001 0.79799998 4.6097535e-40
-0.025079984 -0.046359964 0.79800004 3.6914125e-40
-0.023560001 -0.046360001 0.7980001 3.6914125e-40
-0.02204 -0.046360001 0.79800004 3.6913985e-40
-0.02052 -0.046360001 0.79800004 2.7766169e-40
-0.019000001 -0.046360001 0.79800004 1.8546746e-40
-0.017479999 -0.046360001 0.79800004 2.7694282e-40
-0.015959999 -0.046360001 0.79799998 4.6061381e-40
-0.014476193 -0.046476193 0.79999995 3.6913705e-40
-0.012952377 -0.046476178 0.80000001 2.7730155e-40
-0.011399999 -0.046359997 0.79800004 2.7730155e-40
-0.0099047432 -0.046476141 0.80000001 3.6949718e-40
-0.0083809439 -0.046476163 0.80000001 2.7730435e-40
-0.0068571432 -0.046476185 0.79999995 2.7766169e-40
-0.0053199972 -0.046359994 0.79800004 2.7694282e-40
-0.00380951 -0.046476156 0.79999995 2.7658409e-40
-0.002280012 -0.046360031 0.79800004 2.7694282e-40
-0.00075904635 -0.046301909 0.79699999 3.6913705e-40
0.00075903832 -0.046301931 0.79699999 3.6877832e-40
0.0022600119 -0.045953307 0.79099995 3.6878812e-40
0.0037666808 -0.045953304 0.79100001 2.7696104e-40
0.0052599977 -0.045837153 0.78900003 1.8511713e-40
0.0067628659 -0.045837123 0.78900009 2.7694282e-40
0.0082657188 -0.045837134 0.78900003 2.7695263e-40
0.0097685717 -0.045837149 0.78900003 2.7731977e-40
0.011257157 -0.04577902 0.78799999 2.7731136e-40
0.012693346 -0.045546647 0.78399998 3.6949578e-40
0.014114282 -0.045314297 0.77999997 4.6097535e-40
0.015499989 -0.045023836 0.77500004 4.6097675e-40
0.01686668 -0.044733301 0.76999998 4.6097675e-40
0.018333342 -0.044733323 0.76999998 5.5316958e-40
0.019748583 -0.044617124 0.76800001 7.3648184e-40
0.02112858 -0.044442847 0.76499999 6.453638e-40
0.02252667 -0.044326656 0.76300001 5.5460591e-40
0.023917152 -0.04421046 0.76099998 7.3863563e-40
0.025366681 -0.044210456 0.76099998 9.230325e-40
0.026710492 -0.044036154 0.75799996 1.1985474e-39
0.028042881 -0.043861866 0.755 1.4729735e-39
0.029480977 -0.043861866 0.75500005 7.3577278e-40
0.030427637 -0.04316473 0.74299997 9.2373595e-41
0.03180002 -0.04310663 0.74200004 1.1716905e-38
0.033123802 -0.042990487 0.74000001 2.332585e-38
0.03434667 -0.0427581 0.73600006 2.341769e-38
0.035505716 -0.042467609 0.73100001 2.341769e-38
-0.034242861 -0.039614283 0.70500004 5.5281084e-40
-0.032806672 -0.039501909 0.70300001 4.6133688e-40
-0.031512376 -0.039558079 0.704 4.6241588e-40
-0.030128576 -0.039501913 0.70300001 4.6133548e-40
-0.032639042 -0.044783793 0.79699999 4.6097395e-40
-0.031120958 -0.044783816 0.79699999 3.6913705e-40
-0.029602857 -0.044783805 0.79700005 3.6913705e-40
-0.028084774 -0.044783831 0.79699999 3.6877972e-40
-0.026600013 -0.044840023 0.79800004 3.6877972e-40
-0.025080012 -0.044840023 0.79800004 3.6878112e-40
-0.023559995 -0.044839986 0.79800004 3.6878252e-40
-0.022039996 -0.044839986 0.79800004 3.6878252e-40
-0.020519996 -0.044839986 0.79800004 3.6878392e-40
-0.018999994 -0.044839986 0.79800004 2.7694702e-40
-0.017479992 -0.044839986 0.79799998 3.6842239e-40
-0.01596001 -0.044840023 0.79800004 4.6025648e-40
-0.014440008 -0.044840023 0.79800004 2.7694282e-40
-0.012919992 -0.044839982 0.79800004 9.3271827e-41
-0.011399994 -0.044839978 0.79800004 2.7694282e-40
-0.0098799914 -0.044839978 0.79800004 3.6877972e-40
-0.008359991 -0.044839978 0.79800004 3.6877972e-40
-0.0068399911 -0.044839978 0.79800004 2.7694422e-40
-0.0053200074 -0.044840015 0.79800004 2.7694282e-40
-0.0038000068 -0.044840015 0.79800004 2.7694282e-40
-0.002280006 -0.044840015 0.79800004 3.6877832e-40
-0.00075904449 -0.044783808 0.79699999 3.6877832e-40
0.00075714261 -0.044671427 0.79500002 3.6877972e-40
0.0022600072 -0.044446655 0.79100001 3.6878392e-40
0.0037666906 -0.04444661 0.79100001 2.7695263e-40
0.00526 -0.044334289 0.78900003 9.3636165e-41
0.0067628687 -0.044334263 0.78900003 1.8546746e-40
0.0082657216 -0.04433427 0.78900003 2.7730716e-40
0.009756187 -0.044278108 0.78799999 2.7695263e-40
0.011228582 -0.044165697 0.78599995 2.7766589e-40
0.012693341 -0.044053316 0.78400004 4.6169001e-40
0.014114283 -0.043828588 0.77999997 5.5316817e-40
0.015440009 -0.043379035 0.77199996 5.5316958e-40
0.016866675 -0.043266654 0.76999998 4.6133688e-40
0.018285723 -0.043154269 0.76800001 5.5353391e-40
0.01972286 -0.043098088 0.7669999 6.4536661e-40
0.021128586 -0.042985696 0.76500005 5.5352831e-40
0.022526668 -0.042873338 0.76300001 3.7057758e-40
0.023917144 -0.042760968 0.76099998 6.4608687e-40
0.025333349 -0.042704742 0.76000005 8.3048374e-40
0.026640018 -0.04247997 0.75599998 1.2900284e-39
0.028042875 -0.042423781 0.75500005 1.7477625e-39
0.029168576 -0.041974287 0.74700004 9.187235e-40
0.030427631 -0.0417495 0.74299997 1.0708162e-40
0.031800009 -0.041693315 0.74200004 1.1814485e-38
0.033079054 -0.041524749 0.73899996 2.3409795e-38
0.034346689 -0.041356158 0.73600006 2.341769e-38
0.035505731 -0.0410752 0.73100001 2.341769e-38
0.036797136 -0.040962867 0.72899997 2.341769e-38
-0.034242868 -0.038271435 0.70500004 4.6061802e-40
-0.032806657 -0.038162827 0.70299995 4.6061802e-40
-0.035496172 -0.043048516 0.79300004 3.6914125e-40
-0.0339857 -0.043048535 0.79300004 3.6878112e-40
-0.032679994 -0.04331997 0.79800004 3.6877832e-40
-0.031160008 -0.043320008 0.79800004 2.7658409e-40
-0.029602854 -0.043265704 0.79699999 2.7694282e-40
-0.02808477 -0.04326573 0.79699999 2.7658409e-40
-0.026566669 -0.043265719 0.79700005 4.6025508e-40
-0.025080005 -0.043320008 0.79800004 7.3576297e-40
-0.023559989 -0.04331997 0.79800004 5.5209338e-40
-0.022039989 -0.04331997 0.79800004 3.6842519e-40
-0.020519989 -0.04331997 0.79800004 2.7659249e-40
-0.019000003 -0.043320008 0.79800004 2.7623236e-40
-0.017480003 -0.043320008 0.79800004 3.6806646e-40
-0.015939998 -0.043265708 0.79699999 3.6806365e-40
-0.014440002 -0.043320004 0.79800004 2.7658409e-40
-0.012920002 -0.043320004 0.79799998 1.8474859e-40
-0.011399986 -0.043319963 0.79800004 2.7694282e-40
-0.0098800007 -0.04332 0.79800004 3.6841958e-40
-0.0083600013 -0.04332 0.79800004 3.6877832e-40
-0.0068400009 -0.04332 0.79800004 2.7658409e-40
-0.0053200009 -0.04332 0.79800004 3.6877832e-40
-0.0037999994 -0.04332 0.79800004 3.6877832e-40
-0.0022799994 -0.04332 0.79799998 3.6877832e-40
-0.00075712969 -0.043157112 0.79500002 3.6877972e-40
0.00075525389 -0.043048546 0.79300004 3.6877972e-40
0.002260016 -0.042939961 0.79100001 3.6842098e-40
0.0037571506 -0.042831413 0.78900003 2.7730155e-40
0.0052600028 -0.042831425 0.78900003 1.8618492e-40
0.0067628715 -0.042831395 0.78900003 2.7766169e-40
0.0082552498 -0.042777121 0.78800005 3.6913845e-40
0.0097314334 -0.042668559 0.78600001 3.6913845e-40
0.011200006 -0.042559996 0.78399998 3.6949718e-40
0.012660958 -0.042451419 0.78200006 4.6133128e-40
0.014114281 -0.042342875 0.77999997 6.4500227e-40
0.015440006 -0.041908558 0.77200001 4.6097254e-40
0.016866682 -0.04179997 0.77000004 3.6914405e-40
0.018285725 -0.041691411 0.76799995 4.6134529e-40
0.019722857 -0.041637145 0.76699996 6.4572814e-40
0.021128567 -0.041528583 0.76499999 6.453638e-40
0.022526678 -0.041419975 0.76300001 6.4608547e-40
0.023917144 -0.041311435 0.76099998 7.3792517e-40
0.025266681 -0.04114854 0.75799996 8.2976908e-40
0.026640015 -0.041039973 0.75600004 1.1974782e-39
0.028042886 -0.040985655 0.75500005 1.564809e-39
0.029168589 -0.040551402 0.74700004 8.2760127e-40
0.030386673 -0.040279992 0.74200004 9.2374996e-41
0.031800002 -0.040280007 0.74200004 1.1807673e-38
0.032989543 -0.040008537 0.73699999 2.341769e-38
0.034253322 -0.039845735 0.73400003 2.341769e-38
0.035505712 -0.039682873 0.73100001 2.341769e-38
0.03679714 -0.039574288 0.72899997 2.341769e-38
-0.032806665 -0.036823805 0.70299995 3.6878112e-40
-0.035496183 -0.041538071 0.79300004 3.6878112e-40
-0.0339857 -0.041538052 0.79299998 2.7694422e-40
-0.032475233 -0.041538067 0.79300004 2.7658409e-40
-0.031120969 -0.041747652 0.79700005 1.8474859e-40
-0.029602854 -0.0417476 0.79699999 1.8474859e-40
-0.028014271 -0.041642822 0.79500002 9.2913095e-41
-0.026566667 -0.041747615 0.79700005 6.4356734e-40
-0.025048582 -0.041747645 0.79699999 1.103105e-39
-0.023530483 -0.04174763 0.79700005 7.3576297e-40
-0.022012381 -0.041747622 0.79699999 2.7658969e-40
-0.020494282 -0.041747607 0.79699999 2.7659249e-40
-0.018976197 -0.041747633 0.79699999 2.765967e-40
-0.017458096 -0.041747622 0.79700005 2.7624217e-40
-0.015940012 -0.041747648 0.79700005 2.7659249e-40
-0.014421896 -0.041747596 0.79699999 2.7658549e-40
-0.012903812 -0.041747622 0.79699999 2.7694422e-40
-0.011357126 -0.041642815 0.79500002 3.6877832e-40
-0.0098428577 -0.04164286 0.79500002 3.6877832e-40
-0.0083285738 -0.04164286 0.79500002 3.6913705e-40
-0.0068314266 -0.041747611 0.79699999 2.7694282e-40
-0.0053133266 -0.0417476 0.79699999 3.6841958e-40
-0.0037952426 -0.041747626 0.79699999 4.6061521e-40
-0.00075713574 -0.041642841 0.79499996 3.6878112e-40
0.00075334235 -0.041433312 0.79100001 3.6878252e-40
0.0022542847 -0.041328579 0.78900003 3.6913845e-40
0.0037571515 -0.041328549 0.78900003 2.7730155e-40
0.005253341 -0.041276172 0.78799999 1.8618492e-40
0.0067371354 -0.04117145 0.78600001 2.7802182e-40
0.0081923855 -0.040961899 0.78200006 3.6949858e-40
0.0096819075 -0.040961903 0.78200006 3.6913985e-40
0.011171445 -0.040961869 0.78200001 3.6949718e-40
0.012612379 -0.04080477 0.77900004 5.5280804e-40
0.014060009 -0.040699981 0.77699995 6.4464354e-40
0.015440007 -0.040438086 0.77200001 4.6061381e-40
0.016866688 -0.040333282 0.77000004 2.7730576e-40
0.018285725 -0.040228557 0.76800001 4.6098095e-40
0.019722853 -0.040176205 0.76699996 5.5317238e-40
0.02107333 -0.039966669 0.76300001 7.3648043e-40
0.022467624 -0.03986191 0.76099998 8.2975646e-40
