# .PCD v0.7 - Point Cloud Data file format
VERSION 0.7
FIELDS x y z rgb
SIZE 4 4 4 4
TYPE F F F F
COUNT 1 1 1 1
WIDTH 947
HEIGHT 1
VIEWPOINT 0 0 0 1 0 0 0
POINTS 947
DATA ascii
-0.0085276142 -0.073647611 0.81400001 3.7057198e-40
-0.0069771372 -0.073647611 0.81400001 2.7873648e-40
-0.0054266625 -0.073647618 0.81399995 3.7057198e-40
-0.003880962 -0.07373812 0.81500006 3.7129645e-40
-0.0023257078 -0.073647611 0.81399995 6.4645261e-40
-0.00077619927 -0.073738113 0.81500006 8.2977748e-40
0.00077524537 -0.073647611 0.81399995 1.3804457e-39
0.0023257195 -0.073647611 0.81399995 1.8392491e-39
0.003876196 -0.073647611 0.81399995 1.2871445e-39
0.0054266709 -0.073647603 0.81399995 6.4429041e-40
0.0069771474 -0.073647611 0.81399995 4.6025648e-40
0.0085276254 -0.073647611 0.81399995 2.7694562e-40
0.0100781 -0.073647603 0.81399995 2.7658829e-40
0.011628566 -0.073647626 0.81400001 2.7802883e-40
0.013179045 -0.073647626 0.81400001 1.1056287e-39
0.014693337 -0.073466666 0.81200004 1.9321454e-39
0.016240008 -0.073466651 0.81199998 1.4726077e-39
0.017786674 -0.073466666 0.81200004 1.012717e-39
-0.048900012 -0.07218574 0.81500006 1.2907248e-39
-0.047347628 -0.072185732 0.81500006 8.3084107e-40
-0.045739047 -0.072097138 0.81399995 8.3192708e-40
-0.044188567 -0.072097123 0.81399995 7.3974406e-40
-0.042533327 -0.071919985 0.81200004 8.3158936e-40
-0.040885702 -0.07174284 0.81 1.0145289e-39
-0.039342847 -0.071742833 0.81 1.0155911e-39
-0.037799992 -0.07174284 0.81 1.0163057e-39
-0.036257137 -0.07174284 0.81 6.4931827e-40
-0.034799989 -0.071919985 0.81199998 2.8305949e-40
-0.033253327 -0.071919993 0.81200004 6.4753862e-40
-0.031706657 -0.071919985 0.81199998 1.0141659e-39
-0.030159995 -0.071919993 0.81200004 1.4740637e-39
-0.02868381 -0.072097138 0.81400001 1.8442881e-39
-0.027133331 -0.072097138 0.81400001 2.0286878e-39
-0.025582857 -0.072097138 0.81400001 2.2083861e-39
-0.02403238 -0.072097138 0.81400001 1.4729567e-39
-0.022481903 -0.072097138 0.81400001 7.3647903e-40
-0.020931428 -0.072097138 0.81400001 6.4500227e-40
-0.019380949 -0.072097138 0.81399995 4.6133128e-40
-0.017830474 -0.072097138 0.81399995 5.5244931e-40
-0.016279995 -0.072097138 0.81399995 5.5245071e-40
-0.014729521 -0.072097138 0.81399995 4.6133408e-40
-0.013179043 -0.07209713 0.81399995 2.7873928e-40
-0.011628567 -0.072097138 0.81399995 2.7838055e-40
-0.010078091 -0.072097138 0.81399995 3.7057338e-40
-0.0085276151 -0.072097138 0.81399995 2.7873648e-40
-0.0069857212 -0.07218574 0.81500006 2.7873648e-40
-0.0054266565 -0.072097123 0.81399995 3.7093071e-40
-0.0038809602 -0.072185732 0.81500006 3.7129505e-40
-0.0023285772 -0.072185725 0.815 4.6277742e-40
-0.00077523768 -0.072097138 0.81400001 5.5425979e-40
0.00077524444 -0.07209713 0.81400001 9.2160597e-40
0.0023257204 -0.072097123 0.81400001 1.2882235e-39
0.0038761969 -0.072097123 0.81400001 9.2015563e-40
0.0054266718 -0.072097123 0.81400001 5.5209338e-40
0.0069771484 -0.072097123 0.81400001 4.6025508e-40
0.0085276272 -0.072097123 0.81400001 3.6913985e-40
0.010078105 -0.072097123 0.81400001 2.7730716e-40
0.011628579 -0.072097123 0.81399995 2.7803583e-40
0.013179058 -0.072097123 0.81399995 8.3013482e-40
0.014693337 -0.071919993 0.81200004 1.4733294e-39
0.01624001 -0.071919993 0.81199998 1.1974502e-39
-0.048900016 -0.070633367 0.81500006 8.3262773e-40
-0.047347624 -0.070633344 0.81500006 5.5641218e-40
-0.045795247 -0.070633359 0.81500006 5.5713945e-40
-0.044188563 -0.070546642 0.81399995 4.6423196e-40
-0.042533331 -0.070373327 0.81199998 7.3902519e-40
-0.040986657 -0.070373312 0.81199998 9.2269338e-40
-0.039439999 -0.070373341 0.81199998 1.0156023e-39
-0.037893333 -0.070373327 0.81199998 1.0159596e-39
-0.036257137 -0.070199996 0.81 5.5713945e-40
-0.034799993 -0.070373327 0.81199998 9.6527043e-41
-0.033253331 -0.070373334 0.81200004 6.439527e-40
-0.031706657 -0.070373319 0.81199998 1.105298e-39
-0.030159997 -0.070373327 0.81200004 1.7492395e-39
-0.028613323 -0.070373312 0.81199998 2.3985395e-39
-0.027133329 -0.070546657 0.81399995 2.5883048e-39
-0.025582854 -0.070546657 0.81399995 2.7665752e-39
-0.024032377 -0.070546664 0.81399995 1.8417434e-39
-0.022481902 -0.070546657 0.81399995 8.2975646e-40
-0.020931425 -0.070546657 0.81399995 6.4500787e-40
-0.019380948 -0.070546657 0.81399995 4.6097675e-40
-0.017830471 -0.070546657 0.81399995 4.6025788e-40
-0.016280003 -0.070546679 0.81400001 3.6913985e-40
-0.014729527 -0.070546679 0.81400001 3.6913985e-40
-0.013179045 -0.070546664 0.81400001 2.7802182e-40
-0.011628567 -0.070546664 0.81400001 2.7802182e-40
-0.010078093 -0.070546664 0.81400001 2.7837915e-40
-0.008527616 -0.070546664 0.81400001 2.7801902e-40
-0.0069857263 -0.070633367 0.81500006 2.7873648e-40
-0.0054333396 -0.070633352 0.81500006 3.7057198e-40
-0.0038904829 -0.07080669 0.81699997 3.7093632e-40
-0.0023285823 -0.070633359 0.81500006 2.7874769e-40
-0.00077522837 -0.070546642 0.81399995 1.869178e-40
0.00077524816 -0.070546649 0.81399995 4.6278723e-40
0.0023257227 -0.070546649 0.81399995 7.3721051e-40
0.0038761992 -0.070546649 0.81399995 5.5245631e-40
0.0054266741 -0.070546642 0.81399995 3.6842379e-40
0.0069771525 -0.070546642 0.81399995 3.6806225e-40
0.0085276291 -0.070546649 0.81399995 3.6878112e-40
0.010078108 -0.070546642 0.81399995 3.6914265e-40
0.011628582 -0.070546642 0.81399995 2.7874629e-40
0.013179052 -0.070546664 0.81400001 6.4680994e-40
0.014729526 -0.070546664 0.81400001 9.2266956e-40
0.016280001 -0.070546664 0.81400001 9.2194649e-40
-0.048900012 -0.069080971 0.81500006 1.0152253e-39
-0.047347635 -0.069080994 0.81500006 7.3936851e-40
-0.045739044 -0.068996184 0.81399995 7.3937552e-40
-0.04418857 -0.068996184 0.81399995 6.4717989e-40
-0.042533323 -0.068826646 0.81199998 8.3013061e-40
-0.040885713 -0.068657137 0.81 1.0134513e-39
-0.039439991 -0.068826646 0.81199998 1.2893249e-39
-0.037893329 -0.068826646 0.81199998 1.5662677e-39
-0.036257133 -0.068657123 0.81 1.7502989e-39
-0.034799989 -0.068826646 0.81199998 1.8410511e-39
-0.033253327 -0.068826653 0.81200004 2.3041663e-39
-0.031784765 -0.068996198 0.81400001 2.7583509e-39
-0.03023429 -0.068996206 0.81400001 3.5935094e-39
-0.028683813 -0.068996206 0.81400001 4.3306835e-39
-0.027133331 -0.068996191 0.81400001 3.8761471e-39
-0.025582856 -0.068996184 0.81400001 3.5098701e-39
-0.024032379 -0.068996191 0.81400001 2.3988632e-39
-0.022481903 -0.068996191 0.81400001 1.3814953e-39
-0.020931426 -0.068996191 0.81400001 8.290432e-40
-0.019380949 -0.068996191 0.81399995 3.6914546e-40
-0.017830474 -0.068996184 0.81399995 3.6914125e-40
-0.016279999 -0.068996191 0.81399995 4.6169421e-40
-0.014729522 -0.068996184 0.81399995 4.6169281e-40
-0.013179044 -0.068996184 0.81399995 4.6169281e-40
-0.011628563 -0.068996176 0.81399995 3.6985732e-40
-0.010078085 -0.068996176 0.81399995 3.6985591e-40
-0.0085276086 -0.068996169 0.81399995 3.7021325e-40
-0.0069771316 -0.068996176 0.81399995 3.7128944e-40
-0.0054333489 -0.069080994 0.81500006 5.5424297e-40
-0.0038904676 -0.069250457 0.81699997 6.4608407e-40
-0.0023285805 -0.069080971 0.81500006 4.6241868e-40
-0.00077523675 -0.068996191 0.81400001 3.7058879e-40
0.00077523978 -0.068996191 0.81400001 5.5426399e-40
0.0023257162 -0.068996191 0.81400001 8.2868727e-40
0.0038761927 -0.068996191 0.81400001 6.4465054e-40
0.0054266676 -0.068996191 0.81400001 5.5209478e-40
0.0069771442 -0.068996191 0.81400001 5.5245071e-40
0.0085276226 -0.068996184 0.81399995 5.5245211e-40
0.010078097 -0.068996191 0.81399995 4.6133548e-40
0.011628576 -0.068996184 0.81399995 3.7129225e-40
0.01317905 -0.068996191 0.81399995 7.3899016e-40
0.014729528 -0.068996184 0.81399995 1.1070524e-39
0.016279999 -0.068996184 0.81399995 1.0145023e-39
0.017830478 -0.068996184 0.81399995 9.2232344e-40
-0.050452396 -0.067528605 0.81500006 1.4740441e-39
-0.048900012 -0.067528583 0.815 1.1974558e-39
-0.047289521 -0.067445695 0.81399995 9.219605e-40
-0.045739044 -0.067445695 0.81399995 9.2125425e-40
-0.044188574 -0.06744571 0.81400001 8.2978309e-40
-0.042533327 -0.067279987 0.81199998 9.2090673e-40
-0.040885706 -0.067114264 0.81 1.0123947e-39
-0.039439995 -0.06727998 0.81199998 1.5623441e-39
-0.037893325 -0.067279965 0.81199998 2.1173087e-39
-0.036346663 -0.06727998 0.81199998 2.8523584e-39
-0.034799989 -0.06727998 0.81199998 3.5960065e-39
-0.033253327 -0.067279994 0.81200004 4.064867e-39
-0.031706657 -0.06727998 0.81199998 4.4275468e-39
-0.030234283 -0.067445703 0.81399995 5.3523604e-39
-0.028683804 -0.067445695 0.81399995 6.2671266e-39
-0.027133325 -0.067445695 0.81399995 5.2594459e-39
-0.02558285 -0.067445695 0.81399995 4.152727e-39
-0.024032373 -0.067445695 0.81399995 3.0456507e-39
-0.022481898 -0.067445695 0.81399995 1.9346579e-39
-0.020931423 -0.067445695 0.81399995 1.1041938e-39
-0.019380946 -0.067445695 0.81399995 1.8547446e-40
-0.017830469 -0.067445695 0.81399995 3.6842239e-40
-0.016279994 -0.067445695 0.81399995 4.6133408e-40
-0.014729526 -0.06744571 0.81400001 5.5424577e-40
-0.01317905 -0.06744571 0.81400001 5.5388704e-40
-0.011628572 -0.067445718 0.81400001 5.5352831e-40
-0.010078095 -0.067445718 0.81400001 4.6169141e-40
-0.0085276179 -0.06744571 0.81400001 4.6204874e-40
-0.0069857207 -0.067528591 0.81500006 4.6205014e-40
-0.0054333452 -0.067528598 0.815 7.371979e-40
-0.0038809634 -0.067528605 0.81500006 9.2123603e-40
-0.0023285768 -0.067528583 0.81500006 7.3757345e-40
-0.00077523629 -0.06744571 0.81399995 4.624397e-40
0.00077524025 -0.06744571 0.81399995 6.4612471e-40
0.0023257148 -0.06744571 0.81399995 8.2941735e-40
0.0038761913 -0.06744571 0.81399995 7.3756364e-40
0.0054266681 -0.06744571 0.81399995 6.4500647e-40
0.0069771446 -0.06744571 0.81399995 6.4464494e-40
0.0085276179 -0.06744571 0.81399995 6.4428621e-40
0.010078104 -0.06744568 0.81399995 5.5209338e-40
0.011628583 -0.06744568 0.81399995 3.7021605e-40
0.013179049 -0.06744571 0.81400001 8.3082846e-40
0.014729528 -0.067445703 0.81400001 1.2900087e-39
0.016280007 -0.067445703 0.81400001 1.1059832e-39
0.017830482 -0.067445703 0.81400001 9.2160738e-40
-0.050576195 -0.066138089 0.81699997 1.3818456e-39
-0.04902 -0.066138104 0.81699997 1.0137792e-39
-0.047347631 -0.065976225 0.81500006 6.4537501e-40
-0.045739047 -0.065895237 0.81399995 9.2089552e-40
-0.044188567 -0.065895222 0.81399995 1.1971335e-39
-0.042533327 -0.065733321 0.81199998 1.8392785e-39
-0.040986668 -0.065733328 0.81200004 2.5732604e-39
-0.039439995 -0.065733321 0.81199998 3.1314621e-39
-0.037986662 -0.065895215 0.81399995 3.6821289e-39
-0.036346663 -0.065733314 0.81199998 3.96518e-39
-0.034799986 -0.065733306 0.81199998 4.2478611e-39
-0.033253331 -0.065733328 0.81199998 4.0645489e-39
-0.031784754 -0.065895215 0.81399995 3.7900934e-39
-0.030234287 -0.065895237 0.81400001 3.8779562e-39
-0.028613325 -0.065733314 0.81199998 3.9730385e-39
-0.027133334 -0.065895237 0.81400001 3.2322743e-39
-0.025582856 -0.065895244 0.81400001 2.5915334e-39
-0.024032379 -0.065895237 0.81400001 1.9385955e-39
-0.022481903 -0.065895237 0.81400001 1.2892969e-39
-0.020957157 -0.065976225 0.81500006 8.2869008e-40
-0.019380951 -0.065895237 0.81399995 3.6878672e-40
-0.017830476 -0.065895237 0.81399995 5.5244931e-40
-0.016279999 -0.065895237 0.81399995 6.4464494e-40
-0.014729523 -0.065895237 0.81399995 7.3684057e-40
-0.013195253 -0.065976232 0.81500006 7.371993e-40
-0.011642864 -0.06597621 0.81500006 6.453624e-40
-0.010078091 -0.06589523 0.81399995 5.5352691e-40
-0.0085381074 -0.065976217 0.81500006 5.5388424e-40
-0.0069857189 -0.065976202 0.81500006 5.5352691e-40
-0.0054333503 -0.065976232 0.81500006 6.4572254e-40
-0.003880962 -0.06597621 0.81500006 7.3685178e-40
-0.0023285842 -0.065976217 0.81500006 6.4538482e-40
-0.00077524281 -0.065895259 0.81400001 6.4612611e-40
0.00077523373 -0.065895252 0.81400001 8.2946079e-40
0.0023257083 -0.065895252 0.81400001 1.1045791e-39
0.0038761979 -0.06589523 0.81400001 7.3720631e-40
0.0054333205 -0.065976217 0.81500006 4.6169561e-40
0.0069771493 -0.06589523 0.81400001 4.6097254e-40
0.0085276216 -0.065895222 0.81400001 4.6025508e-40
0.010078099 -0.065895222 0.81400001 4.6061381e-40
0.011628577 -0.065895222 0.81399995 4.6133408e-40
0.013179054 -0.065895222 0.81399995 7.3755943e-40
0.01472953 -0.06589523 0.81399995 1.1052644e-39
0.016280008 -0.065895222 0.81399995 1.0137918e-39
0.017830484 -0.065895222 0.81399995 9.2160878e-40
-0.050452396 -0.064423844 0.81500006 1.29002e-39
-0.048900016 -0.064423844 0.81500006 8.2976908e-40
-0.047347631 -0.064423837 0.81500006 2.7805545e-40
-0.045739044 -0.064344741 0.81399995 9.2020187e-40
-0.044188567 -0.064344741 0.81399995 1.5648524e-39
-0.042533331 -0.064186655 0.81199998 2.849483e-39
-0.040986665 -0.064186662 0.81200004 4.0541176e-39
-0.039537147 -0.064344764 0.81400001 4.7073805e-39
-0.03798667 -0.064344764 0.81400001 5.2558978e-39
-0.036436193 -0.064344764 0.81400001 5.0783421e-39
-0.034799986 -0.06418664 0.81199998 4.8921389e-39
-0.033253323 -0.064186648 0.81199998 4.0638048e-39
-0.031784758 -0.064344749 0.81399995 3.140052e-39
-0.030234283 -0.064344749 0.81399995 2.3960256e-39
-0.028613325 -0.064186648 0.81199998 1.5705809e-39
-0.027133327 -0.064344749 0.81399995 1.2889746e-39
-0.025582854 -0.064344749 0.81399995 1.0170358e-39
-0.024032377 -0.064344749 0.81399995 8.2832294e-40
-0.0224819 -0.064344749 0.81399995 5.5353531e-40
-0.020931423 -0.064344749 0.81399995 5.5281925e-40
-0.019380946 -0.064344741 0.81399995 5.5281505e-40
-0.017830465 -0.064344734 0.81399995 7.3648043e-40
-0.016279988 -0.064344734 0.81399995 8.2832294e-40
-0.01474764 -0.064423859 0.81500006 9.1980531e-40
-0.013195251 -0.064423844 0.81500006 9.2051717e-40
-0.011642862 -0.064423822 0.81500006 8.290348e-40
-0.010090491 -0.064423852 0.81500006 6.4572113e-40
-0.0085381037 -0.064423829 0.81500006 6.4571973e-40
-0.0069857151 -0.064423814 0.81500006 5.5424437e-40
-0.0054333466 -0.064423844 0.81500006 5.546031e-40
-0.0038904801 -0.064581916 0.81699997 4.6169842e-40
-0.0023342872 -0.064581908 0.81699997 6.4465895e-40
-0.00077620067 -0.064423837 0.81500006 8.2906142e-40
0.00077617483 -0.064423844 0.81500006 1.1038659e-39
0.0023285651 -0.064423829 0.815 1.2878788e-39
0.0038809429 -0.064423822 0.81500006 8.2868587e-40
0.0054266732 -0.064344749 0.81399995 2.7730716e-40
0.0069771493 -0.064344749 0.81399995 2.7658409e-40
0.0085276254 -0.064344749 0.81399995 2.7658549e-40
0.0100781 -0.064344741 0.81399995 3.6878112e-40
0.011628576 -0.064344749 0.81399995 4.6097675e-40
0.013179045 -0.064344764 0.81400001 7.3648464e-40
0.014729519 -0.064344764 0.81400001 9.2123323e-40
0.016279994 -0.064344764 0.81400001 9.219535e-40
0.017786676 -0.064186655 0.81199998 8.2976347e-40
0.019333346 -0.06418664 0.81199998 4.6063343e-40
-0.050452396 -0.062871456 0.81500006 1.3825813e-39
-0.048900012 -0.062871456 0.81500006 1.3811604e-39
-0.047347628 -0.062871449 0.815 1.379385e-39
-0.045739051 -0.062794283 0.81399995 2.1176745e-39
-0.04418857 -0.062794283 0.81399995 2.9449156e-39
-0.042638097 -0.06279429 0.81399995 3.8718829e-39
-0.040986668 -0.062640004 0.81199998 4.8006496e-39
-0.039537139 -0.062794268 0.81399995 5.4431477e-39
-0.037986666 -0.062794268 0.81399995 6.1785688e-39
-0.036436185 -0.062794276 0.81399995 5.1687566e-39
-0.034885708 -0.062794268 0.81399995 4.1578067e-39
-0.033335231 -0.062794268 0.81399995 3.3237118e-39
-0.031784754 -0.062794268 0.81399995 2.4939581e-39
-0.030234279 -0.062794268 0.81399995 1.7528114e-39
-0.028683811 -0.06279429 0.81400001 1.1034847e-39
-0.027133334 -0.06279429 0.81400001 9.2050876e-40
-0.025582854 -0.062794276 0.81400001 7.3612591e-40
-0.024032377 -0.062794283 0.81400001 6.4501348e-40
-0.022481902 -0.062794276 0.81400001 4.6241588e-40
-0.02095715 -0.062871449 0.815 5.5317238e-40
-0.019404771 -0.062871456 0.81500006 5.5317098e-40
-0.017852392 -0.062871456 0.81500006 6.4500507e-40
-0.016300002 -0.062871441 0.815 6.4501628e-40
-0.014747635 -0.062871471 0.81500006 7.3650426e-40
-0.013195246 -0.062871449 0.81500006 7.3613431e-40
-0.011642865 -0.062871456 0.81500006 6.453638e-40
-0.010090489 -0.062871464 0.81500006 4.6240888e-40
-0.0085380999 -0.062871449 0.81500006 5.546017e-40
-0.0069857314 -0.062871471 0.81500006 6.4679593e-40
-0.0054333429 -0.062871456 0.81500006 5.5424297e-40
-0.0038904829 -0.063025728 0.81699997 5.5281084e-40
-0.0023342881 -0.063025728 0.81699997 7.372021e-40
-0.00077619508 -0.062871449 0.81500006 9.2159757e-40
0.00077618042 -0.062871456 0.815 9.2088571e-40
0.0023285619 -0.062871456 0.81500006 9.1980811e-40
0.0038809485 -0.062871441 0.81500006 6.4465755e-40
0.005433328 -0.062871449 0.815 3.6878532e-40
0.0069771428 -0.06279429 0.81400001 3.6841958e-40
0.0085276198 -0.06279429 0.81399995 4.6025788e-40
0.010078094 -0.06279429 0.81399995 3.6878252e-40
0.011628568 -0.062794283 0.81399995 2.7694842e-40
0.013179047 -0.06279429 0.81399995 4.6133688e-40
0.014729526 -0.062794283 0.81399995 6.4572534e-40
0.016279995 -0.062794283 0.81399995 7.3863703e-40
0.017830485 -0.062794261 0.81399995 8.3118859e-40
0.019333344 -0.062639974 0.81199998 4.6133408e-40
-0.050390471 -0.061243791 0.81399995 1.3825855e-39
-0.048839998 -0.061243791 0.81399995 1.9321776e-39
-0.047289521 -0.061243791 0.81399995 2.3945991e-39
-0.045739044 -0.061243791 0.81399995 3.4101859e-39
-0.04418857 -0.061243795 0.81400001 4.3324954e-39
-0.04263809 -0.061243799 0.81400001 4.8921263e-39
-0.041087616 -0.061243799 0.81400001 5.4427778e-39
-0.039537143 -0.061243795 0.81400001 6.2692958e-39
-0.03798667 -0.061243795 0.81400001 7.0043455e-39
-0.036436189 -0.061243799 0.81400001 5.2601956e-39
-0.034885712 -0.061243799 0.81400001 3.4141362e-39
-0.033335231 -0.061243799 0.81400001 2.5797022e-39
-0.031784758 -0.061243791 0.81400001 1.7531701e-39
-0.030234281 -0.061243799 0.81399995 1.2007096e-39
-0.028683804 -0.061243795 0.81399995 6.4681275e-40
-0.027166676 -0.061319068 0.81500006 5.5388704e-40
-0.025582852 -0.061243799 0.81399995 4.6133828e-40
-0.024032377 -0.061243795 0.81399995 4.6170262e-40
-0.022481902 -0.061243795 0.81399995 3.6986292e-40
-0.020957155 -0.061319079 0.81500006 4.6097675e-40
-0.019404778 -0.061319087 0.81500006 5.5352971e-40
-0.01785239 -0.061319064 0.81500006 5.5352831e-40
-0.016300008 -0.061319072 0.81500006 4.6133968e-40
-0.014747633 -0.061319079 0.81500006 5.5282065e-40
-0.013195244 -0.061319057 0.81500006 5.5317378e-40
-0.011642863 -0.061319061 0.81500006 4.6133408e-40
-0.010090485 -0.061319068 0.81500006 2.7909662e-40
-0.0085380962 -0.061319053 0.815 4.638438e-40
-0.0069857277 -0.061319079 0.81500006 6.4679593e-40
-0.0054333392 -0.061319064 0.81500006 6.464372e-40
-0.0038904871 -0.061469547 0.81699997 5.5388704e-40
-0.0023342946 -0.061469544 0.81699997 7.3755943e-40
-0.00077619322 -0.061319057 0.81500006 9.2124304e-40
0.00077617529 -0.061319087 0.81500006 7.3794479e-40
0.0023285637 -0.061319068 0.81500006 4.6135089e-40
0.0038809411 -0.061319072 0.81500006 4.6134109e-40
0.0054333229 -0.061319072 0.81500006 3.6914125e-40
0.0069856984 -0.061319079 0.81500006 5.5209058e-40
0.0085380888 -0.061319064 0.81500006 6.4428621e-40
0.010078106 -0.06124378 0.81399995 3.6913985e-40
0.011628582 -0.061243776 0.81399995 9.3993496e-41
0.013195237 -0.061319057 0.81500006 2.7802462e-40
0.014729526 -0.061243799 0.81400001 3.7093772e-40
0.016280001 -0.061243799 0.81400001 6.4716447e-40
0.01783048 -0.061243802 0.81400001 8.301152e-40
-0.050266661 -0.059546653 0.81199998 1.5669768e-39
-0.048720002 -0.059546661 0.81200004 2.2105567e-39
-0.047173329 -0.059546649 0.81199998 2.8559289e-39
-0.045739047 -0.059693322 0.81399995 4.1480957e-39
-0.044188567 -0.059693322 0.81399995 5.3473521e-39
-0.042638093 -0.059693318 0.81399995 5.0736519e-39
-0.041087616 -0.059693318 0.81399995 4.8906872e-39
-0.039537143 -0.059693318 0.81399995 4.9807164e-39
-0.037986666 -0.059693318 0.81399995 5.0746987e-39
-0.036436189 -0.059693318 0.81399995 3.6878322e-39
-0.034885712 -0.059693318 0.81399995 2.3928054e-39
-0.033335231 -0.059693322 0.81399995 1.9336251e-39
-0.031784758 -0.059693314 0.81399995 1.5644713e-39
-0.030234279 -0.059693318 0.81399995 1.1985446e-39
-0.028719055 -0.059766687 0.81500006 9.2267236e-40
-0.027166668 -0.059766665 0.81500006 7.3755943e-40
-0.025614301 -0.059766691 0.81500006 5.5281645e-40
-0.024032373 -0.05969331 0.81400001 3.6950839e-40
-0.022481896 -0.05969331 0.81400001 2.7730996e-40
-0.020957155 -0.059766687 0.81500006 5.5316958e-40
-0.019404776 -0.059766695 0.81500006 9.2158776e-40
-0.017852386 -0.059766676 0.815 6.4572254e-40
-0.016300006 -0.059766684 0.81500006 3.6985591e-40
-0.014747629 -0.059766691 0.81500006 4.6133128e-40
-0.01319525 -0.059766691 0.81500006 5.5352691e-40
-0.011642861 -0.059766669 0.81500006 4.6240888e-40
-0.010090485 -0.059766676 0.81500006 2.7981408e-40
-0.0085381046 -0.059766684 0.81500006 3.7164958e-40
-0.0069857268 -0.059766691 0.81500006 5.546031e-40
-0.0054466645 -0.059913322 0.81699997 4.6240747e-40
-0.0038904718 -0.059913319 0.81699997 4.6169141e-40
-0.0023400031 -0.060060009 0.81900001 8.2939353e-40
-0.00077809358 -0.05991333 0.81699997 1.1963964e-39
0.00077809894 -0.059913326 0.81699997 7.368798e-40
0.0023342806 -0.059913345 0.81699997 3.6880214e-40
0.0038809439 -0.059766684 0.815 3.6949998e-40
0.0054333229 -0.059766684 0.81500006 4.6097535e-40
0.0069857012 -0.059766695 0.81500006 4.6061381e-40
0.0085380916 -0.059766676 0.815 5.5280804e-40
0.010078097 -0.059693322 0.81400001 3.6985451e-40
0.011628576 -0.059693325 0.81399995 2.7873928e-40
0.013179051 -0.059693322 0.81399995 4.6312914e-40
0.014729529 -0.059693322 0.81399995 6.4788194e-40
0.016280007 -0.059693318 0.81399995 7.3900417e-40
0.017830482 -0.059693325 0.81399995 9.219535e-40
-0.050266661 -0.057999991 0.81199998 1.6588333e-39
-0.048720006 -0.057999998 0.81200004 2.4871604e-39
-0.047289517 -0.058142841 0.81399995 3.3187176e-39
-0.045739044 -0.058142837 0.81399995 4.8863936e-39
-0.04418857 -0.058142841 0.81399995 6.3568335e-39
-0.042638101 -0.058142863 0.81400001 5.3480724e-39
-0.041087616 -0.058142848 0.81400001 4.2442486e-39
-0.039537143 -0.058142848 0.81400001 3.6882092e-39
-0.03798667 -0.058142845 0.81400001 3.0424796e-39
-0.036436189 -0.058142848 0.81400001 2.2076981e-39
-0.034885712 -0.058142848 0.81400001 1.290055e-39
-0.033335242 -0.058142859 0.81399995 1.2893333e-39
-0.031784765 -0.058142859 0.81399995 1.2896836e-39
-0.03023429 -0.058142859 0.81399995 1.2896752e-39
-0.028719053 -0.058214296 0.81500006 1.1974712e-39
-0.027166676 -0.058214299 0.81500006 9.2123883e-40
-0.025614295 -0.058214303 0.81500006 5.5354092e-40
-0.024032373 -0.058142833 0.81399995 3.6987273e-40
-0.022564771 -0.058357161 0.81699997 9.4000502e-41
-0.021060001 -0.058499996 0.81900001 6.4500787e-40
-0.019499995 -0.058499984 0.81900001 1.1967439e-39
-0.017896192 -0.058357146 0.81699997 7.3721331e-40
-0.016300004 -0.058214292 0.81500006 2.7802883e-40
-0.014783805 -0.058357131 0.81699997 4.6097535e-40
-0.013227623 -0.058357149 0.81699997 5.5388704e-40
-0.011642868 -0.058214311 0.81500006 4.6312774e-40
-0.010115237 -0.058357134 0.81699997 2.7981548e-40
-0.0085590426 -0.058357127 0.81699997 3.7129084e-40
-0.006985723 -0.058214307 0.81500006 3.7129084e-40
-0.0054466673 -0.058357138 0.81699997 3.7057338e-40
-0.0038904746 -0.058357138 0.81699997 2.7873788e-40
-0.0023342904 -0.058357157 0.81699997 8.3010959e-40
-0.00077619834 -0.058214299 0.81500006 1.3800576e-39
0.00077617995 -0.058214307 0.81500006 8.2797962e-40
0.0023285684 -0.058214288 0.81500006 1.858388e-40
0.0038809378 -0.058214318 0.81500006 3.6986012e-40
0.0054333257 -0.058214296 0.81500006 4.6098516e-40
0.0069857039 -0.058214303 0.815 4.6063483e-40
0.0085276235 -0.058142845 0.81399995 3.6914826e-40
0.0100781 -0.058142841 0.81399995 4.6169281e-40
0.011628577 -0.058142841 0.81399995 4.6276901e-40
0.013179056 -0.058142845 0.81399995 7.3899296e-40
0.014729527 -0.058142841 0.81399995 9.2266956e-40
0.016279995 -0.058142863 0.81400001 9.219577e-40
0.017830482 -0.058142837 0.81400001 9.2159616e-40
-0.050390474 -0.056592375 0.81400001 1.3826318e-39
-0.048839998 -0.056592371 0.81400001 2.2131085e-39
-0.047289521 -0.056592371 0.81400001 3.1372228e-39
-0.045739047 -0.056592375 0.81399995 4.243213e-39
-0.04418857 -0.056592371 0.81399995 5.4374108e-39
-0.04263809 -0.056592371 0.81399995 4.7948972e-39
-0.041087616 -0.056592371 0.81399995 4.0602175e-39
-0.039537139 -0.056592368 0.81399995 3.2261674e-39
-0.037986666 -0.056592368 0.81399995 2.3928152e-39
-0.036436182 -0.056592356 0.81399995 1.6577557e-39
-0.034885705 -0.056592356 0.81399995 1.0152604e-39
-0.033335228 -0.056592356 0.81399995 1.1070888e-39
-0.031784754 -0.056592356 0.81399995 1.198567e-39
-0.030234274 -0.056592356 0.81399995 1.1978509e-39
-0.028719049 -0.056661908 0.815 1.1964048e-39
-0.027166683 -0.056661937 0.81500006 9.2124584e-40
-0.025614293 -0.056661915 0.81500006 6.4538342e-40
-0.024061928 -0.056661945 0.81500006 4.613551e-40
-0.022509534 -0.05666193 0.81500006 3.6879373e-40
-0.020957148 -0.056661911 0.81500006 6.4500928e-40
-0.019500002 -0.056940008 0.81900007 9.2124584e-40
-0.017896194 -0.056800965 0.81699997 7.3794479e-40
-0.016339999 -0.056800958 0.81699997 5.5461992e-40
-0.014783807 -0.056800947 0.81699997 7.3755943e-40
-0.013227625 -0.056800965 0.81699997 8.2975366e-40
-0.011671432 -0.056800961 0.81699997 7.382769e-40
-0.010115239 -0.056800958 0.81699997 5.5532197e-40
-0.0085381102 -0.056661934 0.81500006 5.5532057e-40
-0.0070028636 -0.056800969 0.81699997 6.475148e-40
-0.0054466687 -0.056800958 0.81699997 5.5496184e-40
-0.0038904774 -0.05680095 0.81700003 5.546031e-40
-0.0023342839 -0.05680095 0.81699991 9.2158495e-40
-0.00077620393 -0.056661937 0.81500006 1.2882123e-39
0.00077618274 -0.056661915 0.81500006 8.2867887e-40
0.0023285521 -0.056661945 0.81500006 4.6169561e-40
0.0038809406 -0.056661926 0.81500006 4.6133688e-40
0.0054333284 -0.056661911 0.81500006 4.6099637e-40
0.0069856979 -0.056661941 0.81500006 4.6065445e-40
0.0085276179 -0.056592386 0.81399995 5.5247173e-40
0.010078093 -0.056592386 0.81399995 5.5388844e-40
0.011628581 -0.056592364 0.81400001 6.4715747e-40
0.013179057 -0.05659236 0.81399995 8.3046692e-40
0.01472953 -0.056592356 0.81399995 9.2230943e-40
-0.050266657 -0.054906648 0.81199998 1.1078357e-39
-0.048720002 -0.054906659 0.81200004 2.0283529e-39
-0.047289517 -0.055041883 0.81399995 2.8606219e-39
-0.04573904 -0.055041879 0.81399995 3.694686e-39
-0.044188563 -0.055041879 0.81399995 4.5197579e-39
-0.042638093 -0.055041902 0.81400001 4.2417291e-39
-0.041087616 -0.055041898 0.81400001 3.8707983e-39
-0.039537143 -0.055041898 0.81400001 2.8552241e-39
-0.037986666 -0.055041898 0.81400001 1.7506716e-39
-0.036436189 -0.055041898 0.81400001 1.1992845e-39
-0.034885712 -0.055041898 0.81400001 6.4898616e-40
-0.033335235 -0.055041898 0.81400001 8.3301308e-40
-0.031784758 -0.055041898 0.81399995 1.0148904e-39
-0.030234283 -0.055041898 0.81399995 1.106007e-39
-0.028719064 -0.055109568 0.81500006 1.1056371e-39
-0.027166676 -0.055109546 0.81500006 9.219563e-40
-0.025614288 -0.055109527 0.815 7.3721191e-40
-0.024061922 -0.05510956 0.81500006 6.4466315e-40
-0.02250953 -0.055109542 0.81500006 5.5317798e-40
-0.021060003 -0.055380005 0.81900001 6.4536521e-40
-0.019500006 -0.055380013 0.81900007 6.4573235e-40
-0.017896198 -0.055244777 0.81699997 7.3793638e-40
-0.016300008 -0.055109542 0.815 8.2976207e-40
-0.014783813 -0.055244766 0.81699997 1.0127058e-39
-0.013227622 -0.055244766 0.81699991 1.1052587e-39
-0.01164287 -0.055109553 0.81500006 1.0134233e-39
-0.010090481 -0.055109538 0.81500006 8.301138e-40
-0.0085381046 -0.055109546 0.81500006 8.301166e-40
-0.0070028594 -0.055244762 0.81699997 8.3083126e-40
-0.0054466655 -0.055244755 0.81699997 8.3118859e-40
-0.0038809578 -0.055109534 0.81500006 8.3083967e-40
-0.0023342886 -0.05524477 0.81699997 1.0134443e-39
-0.00077619927 -0.055109549 0.81500006 1.1045553e-39
0.0007761874 -0.055109527 0.81500006 9.2051857e-40
0.0023285586 -0.05510956 0.81500006 6.4500928e-40
0.0038809453 -0.055109538 0.81500006 5.5281365e-40
0.0054333229 -0.055109546 0.815 4.6098516e-40
0.0069857026 -0.055109549 0.81500006 5.5247033e-40
0.0085380916 -0.055109534 0.81500006 6.4465475e-40
0.010090471 -0.055109542 0.815 7.3755803e-40
0.011628581 -0.055041876 0.81399995 8.3010959e-40
0.013179057 -0.055041883 0.81399995 9.2194369e-40
-0.050266657 -0.05335997 0.81199998 9.2272281e-40
-0.048840001 -0.053491425 0.81400001 1.4766141e-39
-0.047289524 -0.053491421 0.81399995 2.12341e-39
-0.045739051 -0.053491421 0.81399995 2.9542356e-39
-0.044188574 -0.053491421 0.81399995 3.6946593e-39
-0.042638093 -0.053491425 0.81399995 3.5981603e-39
-0.04108762 -0.053491421 0.81399995 3.4995019e-39
-0.039537143 -0.053491417 0.81399995 2.6704629e-39
-0.03798667 -0.053491417 0.81399995 1.8410596e-39
-0.036436189 -0.053491417 0.81399995 1.4747784e-39
-0.034885716 -0.053491417 0.81399995 1.1088727e-39
-0.033335235 -0.053491417 0.81399995 1.1077979e-39
-0.031784762 -0.053491414 0.81399995 1.1978369e-39
-0.030271433 -0.05355715 0.815 1.1063574e-39
-0.028789535 -0.053688589 0.81699997 1.0148708e-39
-0.027233338 -0.053688586 0.81699997 7.382769e-40
-0.025614295 -0.053557158 0.81500006 5.5317658e-40
-0.02406192 -0.053557169 0.81500006 6.4537501e-40
-0.022620011 -0.053820025 0.81900001 7.3792097e-40
-0.021060003 -0.05382001 0.81900001 8.2939073e-40
-0.019500006 -0.053820018 0.81900001 9.208745e-40
-0.017940002 -0.053819995 0.81900001 1.1056273e-39
-0.016339999 -0.053688571 0.81699997 1.1974572e-39
-0.014783806 -0.05368856 0.81699997 1.1970928e-39
-0.013227625 -0.053688582 0.81699997 1.1052573e-39
-0.011671431 -0.053688575 0.81699997 1.0134205e-39
-0.010115238 -0.053688567 0.81699997 9.2159196e-40
-0.0085381009 -0.053557154 0.815 1.0141519e-39
-0.0070028622 -0.053688582 0.81699997 1.1059832e-39
-0.0054466692 -0.053688575 0.81699997 9.2302549e-40
-0.003880955 -0.053557146 0.815 8.3156975e-40
-0.0023342932 -0.053688586 0.81699997 8.297957e-40
-0.00077619695 -0.053557161 0.81500006 9.1982072e-40
0.00077618135 -0.053557161 0.81500006 7.3649164e-40
0.0023285614 -0.053557169 0.81500006 6.4465335e-40
0.0038809481 -0.05355715 0.81500006 6.4464914e-40
0.0054333187 -0.053557176 0.81500006 6.4464634e-40
0.0070028631 -0.053688549 0.81699997 5.5280804e-40
0.0085380841 -0.053557169 0.815 5.5280804e-40
0.010090465 -0.053557172 0.81500006 6.4607847e-40
0.011642854 -0.053557158 0.81500006 8.3010819e-40
0.013195232 -0.053557165 0.815 9.2194369e-40
-0.050390471 -0.051940933 0.81399995 6.4721352e-40
-0.048839994 -0.051940925 0.81399995 1.0159974e-39
-0.047347635 -0.052004796 0.81500006 1.3851429e-39
-0.045795243 -0.052004777 0.81500006 2.1209115e-39
-0.044188559 -0.051940918 0.81399995 2.8620596e-39
-0.04263809 -0.051940937 0.81400001 3.0486075e-39
-0.041087616 -0.051940937 0.81400001 3.134685e-39
-0.039537139 -0.051940937 0.81400001 2.4857199e-39
-0.037986666 -0.051940937 0.81400001 1.8424903e-39
-0.036480963 -0.052004788 0.815 1.7499163e-39
-0.034885712 -0.051940933 0.81400001 1.5673299e-39
-0.033335231 -0.051940937 0.81400001 1.4751455e-39
-0.031823818 -0.052004781 0.815 1.290757e-39
-0.03034571 -0.052132372 0.81699997 1.10637e-39
-0.02878953 -0.052132387 0.81699997 9.2340945e-40
-0.027233332 -0.052132383 0.81699997 6.4717849e-40
-0.025740007 -0.052260015 0.81900007 2.7840297e-40
-0.024179999 -0.052259997 0.81900001 5.531948e-40
-0.022620002 -0.052260004 0.81900007 8.2977188e-40
-0.021059994 -0.052259985 0.81900001 1.0137974e-39
-0.019500006 -0.052260019 0.81900001 1.1978257e-39
-0.017940002 -0.05226 0.81900001 1.3825715e-39
-0.016340004 -0.052132387 0.81699997 1.565881e-39
-0.014783811 -0.052132379 0.81699997 1.3807722e-39
-0.013259999 -0.052259997 0.81900001 1.1059818e-39
-0.011700002 -0.05226 0.81900001 1.01271e-39
-0.010140005 -0.052260008 0.81900001 9.2267376e-40
-0.0085800048 -0.052260011 0.81900007 1.1067091e-39
-0.0070199999 -0.052259993 0.81900001 1.2903759e-39
-0.0054600001 -0.052260004 0.81900007 1.106342e-39
-0.0038904704 -0.052132364 0.81699997 8.3048514e-40
-0.0023342872 -0.052132387 0.81699997 7.3722312e-40
-0.00077809312 -0.052132376 0.81699997 6.4501908e-40
0.00077809754 -0.052132368 0.81699997 6.4500928e-40
0.0023342802 -0.052132387 0.81699997 6.4500787e-40
0.0038809509 -0.052004762 0.815 7.3648324e-40
0.0054466678 -0.052132376 0.81699997 8.2867606e-40
0.0070028501 -0.052132394 0.81699997 6.442848e-40
0.0085590445 -0.052132387 0.81699997 3.6985451e-40
0.010090468 -0.052004784 0.81500006 6.4679733e-40
0.011642857 -0.052004766 0.81500006 8.3046832e-40
0.013195226 -0.052004796 0.81500006 9.2230522e-40
-0.050390471 -0.05039046 0.81400001 6.4721072e-40
-0.048839998 -0.050390463 0.81400001 9.2272281e-40
-0.047463816 -0.050576206 0.81699997 1.1986048e-39
-0.04579524 -0.050452385 0.815 1.7525045e-39
-0.04424287 -0.050452415 0.81500006 2.3996718e-39
-0.042690482 -0.050452396 0.81500006 2.7691788e-39
-0.041087613 -0.05039046 0.81399995 3.0453747e-39
-0.039537143 -0.050390456 0.81399995 2.7651767e-39
-0.037986662 -0.050390456 0.81399995 2.4864121e-39
-0.036480967 -0.050452419 0.81500006 2.211235e-39
-0.034928579 -0.0504524 0.81500006 1.935388e-39
-0.033376198 -0.050452407 0.81500006 1.3843918e-39
-0.031823821 -0.050452415 0.81500006 8.3266556e-40
-0.030271435 -0.050452393 0.81500006 9.2378639e-40
-0.02878953 -0.050576206 0.81699997 1.108172e-39
-0.027233336 -0.050576203 0.81699997 8.3122643e-40
-0.025677143 -0.050576195 0.81699997 6.4612051e-40
-0.024120949 -0.050576184 0.81699997 8.297915e-40
-0.022620004 -0.050700005 0.81900001 1.1056539e-39
-0.021008575 -0.050576199 0.81699997 1.5648272e-39
-0.019500008 -0.05070002 0.81900001 1.933237e-39
-0.0178962 -0.050576214 0.81699997 2.6714999e-39
-0.016339995 -0.050576184 0.81699997 3.4958669e-39
-0.014819996 -0.050699994 0.81900001 2.577512e-39
-0.013259999 -0.050699998 0.81900001 1.7509911e-39
-0.011700012 -0.050700027 0.81900007 1.4751231e-39
-0.010140006 -0.050700009 0.81900001 1.2921737e-39
-0.0085800067 -0.050700016 0.81900001 1.2918178e-39
-0.0070028584 -0.050576195 0.81699997 1.2907388e-39
-0.0054333457 -0.050452411 0.81500006 1.1067049e-39
-0.0038809583 -0.050452393 0.81500006 9.2267096e-40
-0.002334289 -0.050576203 0.81699997 6.4608407e-40
-0.00077619974 -0.050452407 0.81500006 4.6169281e-40
0.00077809661 -0.050576188 0.81699997 4.6169001e-40
0.0023342792 -0.050576206 0.81699997 5.5352691e-40
0.0038904736 -0.050576199 0.81699997 6.4572254e-40
0.005446665 -0.050576191 0.81699997 8.2975086e-40
0.0070028594 -0.050576191 0.81699997 5.5352551e-40
0.0085590426 -0.050576206 0.81699997 3.6985591e-40
0.010115234 -0.050576203 0.81699997 5.5424437e-40
0.011671429 -0.050576195 0.81699997 8.3011099e-40
0.013195228 -0.050452407 0.81500006 8.3047113e-40
-0.047463812 -0.049019996 0.81699997 9.2237669e-40
-0.045907617 -0.049019992 0.81699997 1.4744827e-39
-0.044242866 -0.048900027 0.81500006 1.9368972e-39
-0.042690486 -0.048900012 0.81500006 2.4915073e-39
-0.041138113 -0.048900034 0.81500006 2.9521015e-39
-0.039585724 -0.048900019 0.81500006 3.0435614e-39
-0.038033348 -0.048900027 0.815 3.1339438e-39
-0.036480967 -0.048900031 0.81500006 2.672953e-39
-0.034928579 -0.048900012 0.81500006 2.2137853e-39
-0.033376198 -0.048900019 0.815 1.2940066e-39
-0.031823821 -0.048900027 0.81500006 2.8237986e-40
-0.030345717 -0.049020007 0.81699997 8.3088031e-40
-0.028789535 -0.049020022 0.81699997 1.29185e-39
-0.027233331 -0.049019996 0.81699997 1.1071015e-39
-0.025677141 -0.049019989 0.81699997 9.2307173e-40
-0.024120959 -0.049020007 0.81699991 1.1978608e-39
-0.022564765 -0.04902 0.81699997 1.3815303e-39
-0.021008573 -0.049019996 0.81699997 2.022225e-39
-0.019499999 -0.049139995 0.81900001 2.670837e-39
-0.017896196 -0.049020004 0.81699997 4.0584364e-39
-0.016340001 -0.049020004 0.81699997 5.3390915e-39
-0.014783809 -0.049019996 0.81699997 3.8664739e-39
-0.013260001 -0.049139999 0.81900001 2.3041873e-39
-0.011700004 -0.049140003 0.81900007 1.9361222e-39
-0.010139996 -0.049139988 0.81900001 1.5680614e-39
-0.007002864 -0.049020011 0.81699997 1.291106e-39
-0.0054466696 -0.049020007 0.81699997 1.1067049e-39
-0.0038809648 -0.048900027 0.81500006 9.2231503e-40
-0.0023342937 -0.049020018 0.81699997 6.4573094e-40
-0.00077619741 -0.048900016 0.81500006 2.7802742e-40
0.00077809242 -0.049020004 0.81699997 3.6986152e-40
0.0023342727 -0.049020026 0.81699997 3.7022446e-40
0.0038809383 -0.048900034 0.81500006 5.5461572e-40
0.0054466692 -0.049019989 0.81699997 7.3792377e-40
0.0070199952 -0.049140014 0.81900001 5.5388984e-40
0.0085590463 -0.049020004 0.81699997 2.7838476e-40
0.01011524 -0.049019996 0.81699997 5.5425278e-40
0.011671431 -0.049019992 0.81699997 8.2976207e-40
-0.047463812 -0.047463819 0.81699997 5.5467317e-40
-0.04590762 -0.047463812 0.81699997 1.1057002e-39
-0.044242866 -0.047347639 0.81500006 1.6567187e-39
-0.042690486 -0.047347642 0.81500006 2.3063873e-39
-0.041138109 -0.047347646 0.81500006 3.0439356e-39
-0.039585724 -0.047347631 0.81500006 3.0460809e-39
-0.038033351 -0.047347657 0.81500006 3.0471487e-39
-0.036480963 -0.047347639 0.81500006 2.4003458e-39
-0.034928575 -0.04734762 0.81500006 1.8504118e-39
-0.033458102 -0.047463816 0.81699997 1.2943794e-39
-0.031901907 -0.047463808 0.81699997 7.4300208e-40
-0.030420003 -0.047580004 0.81900001 1.2010964e-39
-0.028860005 -0.047580007 0.81900007 1.7535457e-39
-0.027299996 -0.047579993 0.81900001 1.4766042e-39
-0.025677143 -0.047463808 0.81699997 1.2918571e-39
-0.024120949 -0.047463797 0.81699997 1.3829751e-39
-0.022675248 -0.047696207 0.82100004 1.4758882e-39
-0.021008575 -0.047463808 0.81699997 1.7488849e-39
-0.019452382 -0.047463808 0.81699997 2.0269572e-39
-0.0178962 -0.047463827 0.81699997 2.8585536e-39
-0.016340004 -0.047463819 0.81699997 3.6900547e-39
-0.014783812 -0.047463808 0.81699997 2.9488729e-39
-0.013227619 -0.047463804 0.81699997 2.2134602e-39
-0.011671437 -0.047463823 0.81699997 1.9357901e-39
-0.010090487 -0.047347642 0.81500006 1.7506786e-39
-0.0085380981 -0.04734762 0.81500006 1.4748064e-39
-0.0069857277 -0.04734765 0.81500006 1.1978439e-39
-0.0054333401 -0.047347631 0.81500006 9.219563e-40
-0.003880963 -0.047347642 0.815 7.3828671e-40
-0.0023285833 -0.047347646 0.81500006 5.5389965e-40
-0.00077620486 -0.047347646 0.81500006 4.6134669e-40
0.00077999325 -0.047580015 0.81900001 4.6134529e-40
0.0023399929 -0.047580019 0.81900007 4.6135089e-40
0.0038904736 -0.047463812 0.81699997 6.4538622e-40
0.0054599969 -0.047580007 0.81900007 9.2088571e-40
0.0070200046 -0.047579989 0.81900001 7.3720631e-40
0.0085800029 -0.047579996 0.81900007 4.6206275e-40
0.010115234 -0.047463816 0.81699997 6.4573655e-40
-0.045907613 -0.045907605 0.81699997 7.3655891e-40
-0.044242863 -0.045795251 0.81500006 1.2915235e-39
-0.042690482 -0.045795251 0.81500006 2.2170602e-39
-0.041138109 -0.045795258 0.81500006 3.0475439e-39
-0.039585721 -0.045795243 0.815 2.9575217e-39
-0.038126674 -0.045907624 0.81699997 2.8660183e-39
-0.036570478 -0.04590762 0.81699997 2.2148924e-39
-0.034928579 -0.045795251 0.81500006 1.4791294e-39
-0.033458106 -0.045907632 0.81699997 1.3819115e-39
-0.031901907 -0.045907628 0.81699997 1.2014635e-39
-0.030420005 -0.046020005 0.81900001 1.6609941e-39
-0.028860008 -0.046020009 0.81900001 2.119094e-39
-0.0273 -0.046019994 0.81900001 1.937574e-39
-0.025740001 -0.046019997 0.81900001 1.6584816e-39
-0.024120953 -0.04590762 0.81699997 1.6581242e-39
-0.022564771 -0.045907639 0.81699997 1.5644993e-39
-0.021008577 -0.045907632 0.81699997 1.4708757e-39
-0.019452376 -0.045907598 0.81699997 1.2897537e-39
-0.017852386 -0.045795251 0.815 1.6582083e-39
-0.016300006 -0.045795251 0.81500006 1.9365651e-39
-0.014783807 -0.045907609 0.81699997 2.024795e-39
-0.013227625 -0.045907628 0.81699997 2.0298004e-39
-0.011642871 -0.045795269 0.81500006 2.026555e-39
-0.010090483 -0.045795254 0.81500006 1.9336265e-39
-0.0085380943 -0.045795236 0.815 1.5655517e-39
-0.0070199952 -0.046019983 0.81900001 1.1056441e-39
-0.0054600076 -0.046020012 0.81900001 8.2905021e-40
-0.0039000011 -0.046019997 0.81900001 4.6170682e-40
-0.0023400022 -0.046020001 0.81900001 5.5318359e-40
-0.00077999581 -0.046019983 0.81900001 5.5282626e-40
0.00078000303 -0.04601999 0.81900001 5.5246893e-40
0.0023399896 -0.04602002 0.81900001 4.6100337e-40
0.003890469 -0.045907635 0.81699997 8.2835797e-40
0.0054599936 -0.046020009 0.81900001 1.1042078e-39
-0.045907617 -0.044351429 0.81699997 8.2910486e-40
-0.044188567 -0.044188563 0.81399995 1.1986076e-39
-0.042690489 -0.044242889 0.81500006 1.7553673e-39
-0.041138101 -0.044242874 0.81500006 2.3182633e-39
-0.039585721 -0.044242878 0.81500006 4.8950817e-39
-0.038033348 -0.044242885 0.81500006 7.3771077e-39
-0.036570478 -0.04435144 0.81699997 7.1880109e-39
-0.035014287 -0.044351432 0.81699997 6.8981481e-39
-0.033458106 -0.044351447 0.81699997 6.3535839e-39
-0.03198 -0.044460002 0.81900007 5.7028391e-39
-0.030494289 -0.04456858 0.82099998 5.3372852e-39
-0.028860006 -0.044460014 0.81900001 5.0520901e-39
-0.0273 -0.044459995 0.81900001 4.6865376e-39
-0.025740001 -0.044460002 0.81900001 4.4088815e-39
-0.024120945 -0.044351414 0.81699997 4.5950665e-39
-0.022564765 -0.044351432 0.81699997 4.7758774e-39
-0.021008572 -0.044351425 0.81699997 4.9670902e-39
-0.019452378 -0.044351418 0.81699997 5.2372353e-39
-0.017852392 -0.044242885 0.81500006 5.9837771e-39
-0.016300013 -0.044242892 0.81500006 6.7098543e-39
-0.014783809 -0.044351425 0.81699997 5.9873686e-39
-0.013227627 -0.044351444 0.81699997 5.2515874e-39
-0.011671433 -0.04435144 0.81699997 3.1293041e-39
-0.010115239 -0.044351432 0.81699997 1.1060267e-39
-0.0085590575 -0.044351447 0.81699997 9.2197031e-40
-0.0070199948 -0.044459987 0.81900001 8.2977468e-40
-0.0054600071 -0.044460017 0.81900001 6.4502469e-40
-0.0039000006 -0.044460002 0.81900001 4.6063483e-40
-0.0023457112 -0.044568565 0.82099998 4.6099076e-40
-0.00078000373 -0.04446001 0.81900007 5.5282906e-40
0.0007800021 -0.044459995 0.81900001 6.4466736e-40
-0.04418857 -0.042638082 0.81399995 1.1049659e-39
-0.042690486 -0.042690501 0.81500006 1.3797507e-39
-0.041138101 -0.042690482 0.815 1.5788934e-39
-0.039585721 -0.042690486 0.81500006 6.7428941e-39
-0.038033344 -0.042690493 0.81500006 1.1882808e-38
-0.036570478 -0.042795233 0.81699997 1.217015e-38
-0.035014283 -0.04279523 0.81699997 1.234521e-38
-0.033458102 -0.042795245 0.81699997 1.134004e-38
-0.031901911 -0.042795241 0.81699997 1.0225813e-38
-0.030345712 -0.042795233 0.81699997 9.1162495e-39
-0.02886001 -0.042900018 0.81900001 7.9184279e-39
-0.0273 -0.0429 0.81900001 7.5309829e-39
-0.025740003 -0.042900007 0.81900001 7.0875827e-39
-0.024061918 -0.042690497 0.815 7.5367086e-39
-0.022509534 -0.042690501 0.81500006 7.9212922e-39
-0.020957148 -0.042690482 0.81500006 8.5673917e-39
-0.019404769 -0.042690489 0.815 9.212408e-39
-0.017852388 -0.042690493 0.81500006 1.0422069e-38
-0.01630001 -0.042690501 0.81500006 1.1516166e-38
-0.014747622 -0.042690482 0.815 9.9628187e-39
-0.013195245 -0.042690486 0.81500006 8.37289e-39
-0.011671429 -0.042795237 0.81699991 4.3170362e-39
-0.010115236 -0.04279523 0.81699997 2.7769111e-40
-0.008580002 -0.042900007 0.81900001 3.7058599e-40
-0.0070199962 -0.042899989 0.81900001 4.6206135e-40
-0.0054599973 -0.042899992 0.81900001 4.6098516e-40
-0.0039000006 -0.0429 0.81900007 3.6878953e-40
-0.038126677 -0.041239057 0.81699997 5.9956727e-39
-0.036570478 -0.041239053 0.81699997 6.460985e-39
-0.035014287 -0.041239046 0.81699997 7.0335276e-39
-0.033458106 -0.04123906 0.81699997 7.6677721e-39
-0.031901911 -0.041239057 0.81699997 8.4078328e-39
-0.030345716 -0.041239049 0.81699997 8.4924895e-39
-0.028789535 -0.041239072 0.81699997 8.5972155e-39
-0.027233342 -0.041239064 0.81699997 8.6732416e-39
-0.025677148 -0.041239057 0.81699997 8.7822794e-39
-0.024061922 -0.041138131 0.81500006 8.4916893e-39
-0.022509532 -0.041138113 0.81500006 8.3252739e-39
-0.020957155 -0.04113812 0.815 7.4790592e-39
-0.019452378 -0.041239034 0.81699997 6.5621518e-39
-0.017852386 -0.041138101 0.81500006 6.4670989e-39
-0.016300008 -0.041138113 0.815 6.2966267e-39
-0.014783809 -0.041239042 0.81699997 5.259097e-39
-0.013227616 -0.041239034 0.81699997 4.2248406e-39
-0.011671432 -0.041239053 0.81699997 2.2966231e-39
-0.010140004 -0.041340005 0.81900001 4.6026349e-40
-0.0085800048 -0.041340008 0.81900001 3.6949578e-40
-0.007019999 -0.04133999 0.81900001 2.7802042e-40
-0.038126677 -0.039682876 0.81699997 9.913486e-41
-0.036570482 -0.039682869 0.81699997 8.2810013e-40
-0.03501429 -0.039682861 0.81699997 1.5832459e-39
-0.033458099 -0.039682861 0.81699991 4.0728628e-39
-0.031901907 -0.039682854 0.81699997 6.5517149e-39
-0.03034571 -0.03968285 0.81699997 7.8481864e-39
-0.028789517 -0.039682839 0.81699997 9.1302835e-39
-0.027233332 -0.039682861 0.81699997 9.7817303e-39
-0.025677141 -0.039682854 0.81699997 1.0325557e-38
-0.024061918 -0.039585739 0.81500006 9.5065615e-39
-0.022509528 -0.039585724 0.81500006 8.6674906e-39
-0.020957157 -0.039585751 0.81500006 6.2769021e-39
-0.01945238 -0.039682854 0.81699997 3.8794878e-39
-0.017852392 -0.039585743 0.81500006 2.4947751e-39
-0.016300011 -0.039585747 0.81500006 1.0271532e-39
-0.014747636 -0.039585751 0.81500006 5.5142636e-40
-0.013227629 -0.039682876 0.81699997 9.2596401e-41
-0.011671434 -0.039682869 0.81699997 3.6845181e-40
-0.010115241 -0.039682865 0.81699997 5.5247453e-40
-0.038126674 -0.038126674 0.81699997 1.8410119e-40
-0.036570475 -0.038126666 0.81699997 6.4364161e-40
-0.034928586 -0.038033355 0.81500006 1.1024828e-39
-0.033458102 -0.038126677 0.81699997 2.2124233e-39
-0.031901907 -0.03812667 0.81699997 3.3065851e-39
-0.030345714 -0.038126666 0.81699997 3.9616585e-39
-0.028789531 -0.038126681 0.81699997 4.5994862e-39
-0.027233338 -0.038126677 0.81699997 4.8832435e-39
-0.025677145 -0.03812667 0.81699997 5.2423318e-39
-0.024061915 -0.038033355 0.81500006 4.7896073e-39
-0.022509525 -0.038033333 0.81500006 4.4086055e-39
-0.020957157 -0.038033362 0.81500006 3.4981146e-39
-0.019404769 -0.038033344 0.81500006 2.5718451e-39
-0.017852388 -0.038033351 0.815 1.840726e-39
-0.016300008 -0.038033355 0.81500006 1.0105996e-39
-0.014747633 -0.038033362 0.81500006 5.5175987e-40
-0.013227613 -0.038126647 0.81699997 9.295093e-41
-0.011671429 -0.038126666 0.81699997 6.4433105e-40
-0.036570482 -0.036570486 0.81699997 4.5960348e-40
-0.034885708 -0.036436174 0.81400001 5.5181312e-40
-0.033376202 -0.036480982 0.81500006 3.6780021e-40
-0.031823814 -0.036480963 0.815 9.2646848e-41
-0.030345719 -0.036570482 0.81699997 9.2283912e-41
-0.028719056 -0.036480971 0.81500006 9.4446115e-41
-0.027166668 -0.036480952 0.815 9.2662262e-41
-0.025614299 -0.036480982 0.81500006 9.4457326e-41
-0.024061911 -0.036480963 0.81500006 9.2306332e-41
-0.022509541 -0.036480993 0.81500006 9.2296523e-41
-0.020931423 -0.036436174 0.81399995 7.3513519e-40
-0.019452378 -0.036570467 0.81699997 1.2861342e-39
-0.017852396 -0.036480986 0.81500006 1.1942846e-39
-0.016300006 -0.036480967 0.81500006 1.0105954e-39
-0.014747629 -0.036480974 0.815 5.5139833e-40
-0.034885708 -0.034885697 0.81399995 2.2970323e-39
-0.033376198 -0.03492859 0.81500006 1.7496164e-39
-0.031901907 -0.035014283 0.81699997 1.1035015e-39
-0.030271444 -0.034928601 0.81500006 9.2050876e-40
-0.028719053 -0.034928586 0.815 6.4430442e-40
-0.027166672 -0.034928586 0.81500006 5.5248854e-40
-0.025614295 -0.034928594 0.81500006 5.5177668e-40
-0.024061907 -0.034928575 0.815 3.681113e-40
-0.022509538 -0.034928605 0.81500006 1.8444871e-40
-0.02093143 -0.034885716 0.81400001 8.2730559e-40
-0.019452382 -0.035014287 0.81699997 1.4701499e-39
-0.017852392 -0.034928598 0.81500006 1.837845e-39
-0.031901907 -0.033458102 0.81699997 2.121252e-39
-0.030271443 -0.033376213 0.81500006 1.6588193e-39
-0.028719058 -0.033376217 0.81500006 1.1996516e-39
-0.027166672 -0.033376198 0.81500006 1.1045959e-39
-0.022509536 -0.033376217 0.81500006 1.8589485e-40
-0.020931419 -0.033335213 0.81399995 9.1986416e-40
-0.030271437 -0.031823825 0.815 2.5825945e-39
-0.028719056 -0.031823829 0.81500006 2.8606107e-39
0.0035714258 -0.025000012 0.75000006 3.042879e-39
0.0050000031 -0.024999993 0.75000006 3.5967674e-39
0.0064114309 -0.024933329 0.74800003 3.4156132e-39
0.0078257164 -0.024899995 0.74699998 3.1368669e-39
0.0092485789 -0.024899986 0.74699998 5.7932691e-39
-0.00070665975 -0.023319986 0.74199998 3.1415346e-39
0.00070952426 -0.023414286 0.745 3.0453817e-39
0.0021285715 -0.023414286 0.74500006 2.8617177e-39
0.0035476179 -0.02341429 0.74500006 3.3205421e-39
0.0049800114 -0.023477118 0.74699998 3.6886071e-39
