# .PCD v0.7 - Point Cloud Data file format
VERSION 0.7
FIELDS x y z rgb
SIZE 4 4 4 4
TYPE F F F F
COUNT 1 1 1 1
WIDTH 960
HEIGHT 1
VIEWPOINT 0 0 0 1 0 0 0
POINTS 960
DATA ascii
0.0060857129 -0.062885717 0.71000004 4.6109446e-40
0.0074380948 -0.062885709 0.71000004 4.6074133e-40
0.0087657142 -0.062708572 0.708 5.5401596e-40
0.010114283 -0.062708564 0.708 6.4728358e-40
0.011446667 -0.062619999 0.70700002 8.313105e-40
0.012793331 -0.062619992 0.70700002 1.0146242e-39
0.014099998 -0.06244285 0.7050001 1.1068184e-39
0.015442858 -0.062442858 0.70500004 1.1990168e-39
0.016785711 -0.06244285 0.70500004 1.2000958e-39
0.018128566 -0.062442843 0.7050001 1.2011734e-39
0.019443812 -0.062354285 0.70400006 1.0171437e-39
0.020784767 -0.0623543 0.70400006 8.323881e-40
0.022125714 -0.062354293 0.70400012 1.1997203e-39
0.023466667 -0.062354285 0.70400006 1.6578342e-39
0.024807617 -0.062354285 0.70400006 1.5663686e-39
0.026148571 -0.062354285 0.70400006 1.4738171e-39
0.027489526 -0.062354293 0.70400006 1.381983e-39
0.028789522 -0.062265713 0.70300001 1.28943e-39
0.030128572 -0.062265713 0.70300001 1.4727409e-39
0.031467617 -0.062265705 0.70300007 1.6564147e-39
-0.0048000054 -0.062399987 0.72000003 1.2908005e-39
-0.0034238216 -0.062313315 0.7190001 9.2311517e-40
-0.0020485721 -0.062140003 0.71700001 6.4726537e-40
-0.00068190548 -0.062053338 0.71600002 3.7140575e-40
0.00067904551 -0.061793335 0.71300006 5.5472362e-40
0.0020314348 -0.061620016 0.71099997 6.4547451e-40
0.0033857175 -0.061620008 0.71100003 5.5291454e-40
0.0047333329 -0.061533336 0.71000004 4.6144618e-40
0.006085712 -0.061533332 0.71000004 3.6926176e-40
0.0074171466 -0.061360016 0.708 2.777878e-40
0.008765717 -0.061360005 0.708 4.6253779e-40
0.010100001 -0.061273333 0.70700002 5.5544809e-40
0.011446666 -0.061273329 0.70700002 7.3983514e-40
0.01279333 -0.061273325 0.70700002 8.3095458e-40
0.014100001 -0.061099999 0.7050001 1.0142696e-39
0.015442855 -0.061099995 0.7050001 1.1993812e-39
0.016785709 -0.061099987 0.7050001 1.1075499e-39
0.01810286 -0.061013337 0.70400006 1.016429e-39
0.01944381 -0.061013337 0.70400006 7.4127848e-40
0.020784762 -0.061013337 0.70400006 3.7357356e-40
0.022125714 -0.061013333 0.70400006 1.0164192e-39
0.023433335 -0.060926665 0.70300001 1.5674406e-39
0.024772378 -0.060926657 0.70300007 1.5678078e-39
0.026111426 -0.060926661 0.70300001 1.5667316e-39
0.027450476 -0.060926665 0.70300007 1.4738199e-39
0.028707625 -0.060753349 0.70100003 1.3812655e-39
0.030128574 -0.060926672 0.70300007 1.2890713e-39
0.031467624 -0.060926672 0.70300001 1.105759e-39
0.032853343 -0.061013345 0.70400006 1.0139235e-39
0.034194291 -0.061013345 0.704 8.3061406e-40
0.035535246 -0.061013345 0.70400006 1.5656596e-39
-0.0047933427 -0.060943794 0.7190001 6.4652688e-40
-0.0034238161 -0.060943797 0.7190001 5.5542146e-40
-0.002045712 -0.060689535 0.71600008 3.7068548e-40
-0.00067999907 -0.060520008 0.71400005 2.7885559e-40
0.0006790483 -0.060435239 0.71300006 3.6997923e-40
0.0020314273 -0.06026572 0.71100003 4.6252799e-40
0.0033809557 -0.060180966 0.71000004 3.6996942e-40
0.0047333357 -0.060180958 0.71000004 3.7069249e-40
0.0060685738 -0.060011443 0.70799994 3.696219e-40
0.0074171452 -0.060011435 0.708 4.6181753e-40
0.0087533323 -0.059926663 0.70700002 5.5472922e-40
0.010099999 -0.059926663 0.70700002 7.3911768e-40
0.011446671 -0.05992667 0.70700002 8.3131191e-40
0.012757144 -0.059757143 0.7050001 9.2279287e-40
0.014080004 -0.059672389 0.70400006 8.3203778e-40
0.015420955 -0.059672385 0.70400006 8.3383845e-40
0.016761906 -0.059672385 0.70400006 1.0164388e-39
0.018102858 -0.059672382 0.704 1.1990266e-39
0.019416189 -0.059587616 0.70300007 1.0157074e-39
0.020755235 -0.05958762 0.70300001 8.3203918e-40
0.022094281 -0.059587609 0.70300007 1.1997413e-39
0.023433331 -0.059587613 0.70300001 1.6596418e-39
0.02477238 -0.059587616 0.70300007 1.7518417e-39
0.026111426 -0.059587616 0.70300001 1.9347938e-39
0.027372388 -0.059418108 0.70099998 1.7500438e-39
0.028707622 -0.059418101 0.70100003 1.4731024e-39
0.03012857 -0.059587616 0.70300001 1.2897887e-39
0.03146762 -0.05958762 0.70300001 1.1983106e-39
0.032806665 -0.059587609 0.70300001 1.1064737e-39
0.03414572 -0.059587624 0.70300001 1.0149983e-39
0.035484761 -0.059587616 0.70300001 1.7521948e-39
0.036928572 -0.059757132 0.7050001 2.491901e-39
0.038271427 -0.059757132 0.70500004 2.8596018e-39
-0.0047933408 -0.05957428 0.7190001 9.2254484e-41
-0.0034142877 -0.059408579 0.71700001 9.3347497e-41
-0.0020457176 -0.05932571 0.71600002 9.2286714e-41
-0.00068 -0.059160005 0.71400011 9.3009784e-41
0.00067904923 -0.059077147 0.71300006 1.8413342e-40
0.0020314283 -0.058911435 0.71100003 2.7704792e-40
0.0033809529 -0.058828577 0.71000004 2.7740945e-40
0.0047199964 -0.058662858 0.708 1.8558236e-40
0.0060685682 -0.058662858 0.70799994 3.6890443e-40
0.0074066645 -0.058579996 0.70700002 5.5329149e-40
0.0087533304 -0.058579993 0.70700002 7.3839741e-40
0.010100001 -0.058580004 0.70700002 9.2278727e-40
0.011414286 -0.058414284 0.70500004 1.0153416e-39
0.01275714 -0.058414277 0.70500004 1.0153444e-39
0.014060001 -0.058248568 0.70300001 7.4019948e-40
0.015399049 -0.058248576 0.70300001 3.7357916e-40
0.016738096 -0.058248576 0.70300001 8.3276085e-40
0.018077141 -0.058248568 0.70300001 1.2912167e-39
0.019360954 -0.05808286 0.70100003 1.2908523e-39
0.020696191 -0.05808286 0.70100003 1.2908579e-39
0.022031425 -0.058082849 0.70100003 1.4741758e-39
0.023366665 -0.05808286 0.70100003 1.6592887e-39
0.024701906 -0.05808286 0.70100003 2.0280726e-39
0.026037151 -0.058082875 0.70099998 2.3024959e-39
0.027372384 -0.05808286 0.70100003 1.9340721e-39
0.028707622 -0.05808286 0.70100003 1.5660099e-39
0.030042857 -0.05808286 0.70099998 1.3823347e-39
0.031378094 -0.058082849 0.70100003 1.1983022e-39
0.032713339 -0.058082864 0.70100003 1.1986581e-39
0.03414572 -0.058248583 0.70300001 1.1993812e-39
0.035484761 -0.058248576 0.70300007 1.9362231e-39
0.036876194 -0.058331434 0.70400006 2.6748518e-39
0.03821715 -0.058331449 0.70400006 3.0454223e-39
0.03961429 -0.05841428 0.7050001 3.413486e-39
0.040957145 -0.058414284 0.70500004 3.5971626e-39
-0.0061714337 -0.058285709 0.72000003 5.1431858e-39
-0.0047933408 -0.058204751 0.7190001 6.3463644e-39
-0.0034142896 -0.058042858 0.71700001 7.6227554e-39
-0.0020457138 -0.057961911 0.71600002 8.0005202e-39
-0.00067904912 -0.057719048 0.71300012 8.3574646e-39
0.00067714002 -0.057557143 0.71100003 5.3365832e-39
0.0020285747 -0.057476204 0.71000004 2.2963372e-39
0.0033714301 -0.057314295 0.708 1.2868754e-39
0.0047199992 -0.057314292 0.708 2.7669759e-40
0.0060600024 -0.057233341 0.70700002 5.5257402e-40
0.0074066683 -0.057233337 0.70700002 8.2807911e-40
0.0087533342 -0.057233334 0.70700002 9.2170687e-40
0.010071428 -0.057071425 0.70500004 1.0146214e-39
0.011414289 -0.057071432 0.7050001 1.0153416e-39
0.01273905 -0.056990482 0.70400006 1.015343e-39
0.014020002 -0.056747627 0.70100003 9.2350894e-40
0.01535524 -0.056747627 0.70099998 7.3984075e-40
0.016690478 -0.056747627 0.70100003 1.1082603e-39
0.018025715 -0.056747627 0.70100003 1.3834053e-39
0.019360954 -0.056747627 0.70099998 1.3830437e-39
0.020696187 -0.056747612 0.70100003 1.4745289e-39
0.021999998 -0.056666669 0.70000005 1.5660141e-39
0.023333335 -0.056666669 0.70000005 1.6582167e-39
0.024701906 -0.056747627 0.70099998 2.0270021e-39
0.026037145 -0.056747627 0.70100003 2.394693e-39
0.027372383 -0.056747627 0.70100003 1.9344295e-39
0.028666668 -0.056666676 0.70000005 1.5663644e-39
0.030042853 -0.056747612 0.70100003 1.2901335e-39
0.031378098 -0.056747627 0.70100003 1.0131878e-39
0.032713339 -0.056747627 0.70100003 1.1979294e-39
0.03404858 -0.056747634 0.70099998 1.3826864e-39
0.035383813 -0.056747623 0.70100003 2.0287733e-39
0.036876198 -0.056990482 0.70400006 2.6752091e-39
0.038271431 -0.057071421 0.70500004 3.0457783e-39
0.03961429 -0.057071429 0.7050001 3.4145566e-39
0.040957145 -0.057071421 0.7050001 3.5975115e-39
0.042420004 -0.057233337 0.70700002 3.780828e-39
-0.0061714347 -0.056914281 0.72000003 1.022368e-38
-0.0047733313 -0.056598105 0.71600002 1.2711131e-38
-0.0034095258 -0.056598093 0.71600008 1.5101733e-38
-0.0020371466 -0.056360949 0.71300006 1.5928981e-38
-0.00067619182 -0.056123812 0.71000004 1.6663657e-38
0.00067428552 -0.055965718 0.708 1.0508518e-38
0.0020228592 -0.055965725 0.708 4.2346119e-39
0.0033666608 -0.05588666 0.70700002 2.2963442e-39
0.0047133281 -0.05588666 0.70700002 2.7669479e-40
0.0060599986 -0.055886667 0.70700002 6.4404939e-40
0.0073857154 -0.055728573 0.70500004 1.0124676e-39
0.0087285712 -0.055728566 0.7050001 1.1057394e-39
0.010071426 -0.055728562 0.7050001 1.106817e-39
0.011398098 -0.05564953 0.70400006 1.1075359e-39
0.01272095 -0.055570468 0.70300007 1.015699e-39
0.014020002 -0.055412389 0.70099998 1.1071743e-39
0.015355241 -0.055412386 0.70100003 1.1078974e-39
0.016666666 -0.055333335 0.70000005 1.2926502e-39
0.018000001 -0.055333342 0.70000011 1.4755981e-39
0.019360948 -0.055412378 0.70100003 1.5674266e-39
0.020666668 -0.055333335 0.70000005 1.5663602e-39
0.021999998 -0.055333328 0.70000005 1.6574867e-39
0.023333337 -0.055333342 0.70000005 1.6585699e-39
0.024666667 -0.055333335 0.70000005 2.026279e-39
0.026037145 -0.055412389 0.70100003 2.3932552e-39
0.027372384 -0.055412389 0.70099998 2.0255475e-39
0.028666666 -0.055333339 0.70000005 1.5660071e-39
0.030042859 -0.055412393 0.70100003 1.1983036e-39
0.031378102 -0.055412389 0.70099998 8.3060145e-40
0.032713342 -0.055412401 0.70099998 1.1975833e-39
0.034048576 -0.055412386 0.70100003 1.5674406e-39
0.035383813 -0.055412386 0.70100003 2.1213291e-39
0.036823809 -0.055570472 0.70300001 2.6766482e-39
0.03821715 -0.055649526 0.70400006 3.0482964e-39
0.03961429 -0.055728573 0.70500004 3.4142035e-39
0.040957145 -0.05572857 0.70500004 3.5975157e-39
0.042300001 -0.055728566 0.7050001 3.7801161e-39
0.043766674 -0.055886671 0.70700002 3.7794043e-39
0.045113336 -0.055886667 0.70700002 3.7793916e-39
-0.007511429 -0.055311438 0.71700001 1.0890323e-38
-0.0061371452 -0.055234287 0.71600008 1.2752511e-38
-0.0047599985 -0.055080015 0.71400005 1.2829647e-38
-0.0033952403 -0.055002861 0.71300006 1.2940138e-38
-0.0020285738 -0.054771427 0.71000004 1.2368318e-38
-0.0006742882 -0.054617148 0.708 1.1931003e-38
0.00067333091 -0.054539997 0.70700002 7.0106079e-39
0.0020200009 -0.054540005 0.70700002 2.2045872e-39
0.0033666664 -0.054540005 0.70700002 1.3783438e-39
0.0046999981 -0.054385711 0.70500004 5.5291594e-40
0.0060428544 -0.054385703 0.7050001 6.4440672e-40
0.0073752427 -0.054308578 0.70400006 8.2843924e-40
0.008716194 -0.054308578 0.70400006 1.0139053e-39
0.010057146 -0.054308575 0.70400006 1.1997287e-39
0.011381901 -0.05423142 0.70300001 1.19937e-39
0.012720952 -0.054231424 0.70300007 1.2915614e-39
0.014019999 -0.054077141 0.70100003 1.1993629e-39
0.015333335 -0.054000001 0.70000005 1.1993728e-39
0.016666668 -0.054000005 0.70000005 1.2915754e-39
0.018000005 -0.054000009 0.70000005 1.4748778e-39
0.019333335 -0.054000001 0.70000005 1.3819563e-39
0.02066667 -0.054000005 0.70000005 1.3819662e-39
0.021999998 -0.053999998 0.70000005 1.4738115e-39
0.023333335 -0.054000005 0.70000005 1.6589244e-39
0.024666669 -0.054000009 0.70000005 1.8415248e-39
0.026000002 -0.054000001 0.70000005 2.0248342e-39
0.027333336 -0.054000005 0.70000005 1.6578468e-39
0.02866667 -0.054000009 0.70000005 1.3816214e-39
0.029999999 -0.054000001 0.70000005 1.014278e-39
0.031333335 -0.053999994 0.70000005 7.3913309e-40
0.032713339 -0.054077152 0.70100003 1.3823417e-39
0.03404858 -0.054077152 0.70100003 2.0269838e-39
0.035383813 -0.054077148 0.70099998 2.5819429e-39
0.036823817 -0.054231431 0.70300001 3.1376236e-39
0.03821715 -0.054308582 0.70400006 3.5049684e-39
0.03961429 -0.054385714 0.7050001 3.9641444e-39
0.040957145 -0.054385707 0.7050001 3.7801133e-39
0.042300008 -0.054385725 0.70500004 3.6875688e-39
0.04376667 -0.054540001 0.70700002 3.5957417e-39
0.045113333 -0.054540001 0.70700002 3.5953619e-39
0.046525717 -0.054617152 0.70799994 3.6875351e-39
-0.0075009516 -0.053870484 0.71600002 1.5865922e-38
-0.0061200024 -0.053720009 0.71400005 1.5209092e-38
-0.0047533275 -0.053644773 0.71300006 1.291465e-38
-0.0033857147 -0.053494286 0.71100003 1.0606899e-38
-0.0020228545 -0.053268585 0.708 8.856977e-39
-0.00067333266 -0.053193342 0.70700002 7.1027517e-39
0.00067333278 -0.053193338 0.70700002 3.5821281e-39
0.0020142817 -0.053042848 0.7050001 9.2338562e-41
0.0033571417 -0.053042855 0.7050001 4.5963991e-40
0.0046999967 -0.053042848 0.7050001 7.3658974e-40
0.0060342839 -0.052967615 0.70400006 7.3624081e-40
0.0073647606 -0.052892383 0.70300001 6.4584165e-40
0.0087038046 -0.052892368 0.70300001 9.2170967e-40
0.010042859 -0.052892383 0.70300001 1.1979378e-39
0.011381903 -0.052892376 0.70300001 1.3819732e-39
0.012684762 -0.052741904 0.70100003 1.566356e-39
0.014020004 -0.052741919 0.70100003 1.3823221e-39
0.015333336 -0.052666675 0.70000005 1.1993742e-39
0.016666664 -0.052666668 0.70000005 1.291574e-39
0.018000001 -0.052666672 0.70000011 1.381969e-39
0.019333335 -0.052666675 0.70000005 1.2876167e-39
0.020666666 -0.052666668 0.70000005 1.1057478e-39
0.021999994 -0.05266666 0.70000005 1.3809026e-39
0.023333335 -0.052666675 0.70000005 1.5656526e-39
0.024666665 -0.052666668 0.70000005 1.6560573e-39
0.025999999 -0.05266666 0.70000005 1.6574909e-39
0.027333338 -0.052666675 0.70000005 1.3823431e-39
0.028666666 -0.052666668 0.70000005 1.1064765e-39
0.029999996 -0.05266666 0.70000005 9.2172789e-40
0.031333331 -0.052666668 0.70000005 6.47299e-40
0.032713339 -0.052741911 0.70100003 1.565654e-39
0.034048576 -0.052741911 0.70099998 2.3954034e-39
0.035383813 -0.052741896 0.70100003 2.9492863e-39
0.036823809 -0.052892372 0.70300001 3.5028202e-39
0.038217142 -0.052967619 0.70400006 4.0534842e-39
0.039558098 -0.052967627 0.70400006 4.5140868e-39
0.040899049 -0.052967627 0.70400006 4.0545422e-39
0.042300001 -0.053042848 0.7050001 3.5035334e-39
0.04376667 -0.053193327 0.70700002 3.5038964e-39
0.045113333 -0.053193327 0.70700002 3.4116895e-39
0.046525724 -0.053268585 0.708 3.5946304e-39
0.04800953 -0.05341905 0.71000004 3.776505e-39
0.049361903 -0.05341905 0.71000004 3.2193921e-39
-0.010242859 -0.05258001 0.71700001 1.4654157e-38
-0.0088771461 -0.052579995 0.71700001 1.3718915e-38
-0.0075009535 -0.052506674 0.71600002 1.4460747e-38
-0.0061199986 -0.052360002 0.71400005 1.5169972e-38
-0.0047399984 -0.052140012 0.71099997 1.4085893e-38
-0.0033809547 -0.052066669 0.71000004 1.2950096e-38
-0.00202 -0.051846672 0.70700002 1.2795073e-38
-0.00067143276 -0.051699996 0.7050001 1.2673795e-38
0.00067142822 -0.0517 0.7050001 8.6473554e-39
0.0020142826 -0.0517 0.7050001 4.5922456e-39
0.0033523827 -0.051626679 0.70400006 2.4818229e-39
0.0046933345 -0.051626679 0.70400006 4.6323985e-40
0.0060257078 -0.05155332 0.70300007 5.5471941e-40
0.0073647615 -0.051553335 0.70300001 6.4799264e-40
0.0086790463 -0.051406667 0.70100003 9.2242433e-40
0.01001429 -0.051406678 0.70099998 1.1968658e-39
0.011349523 -0.051406667 0.70100003 1.1983106e-39
0.01266667 -0.051333334 0.70000005 1.2908565e-39
0.013999998 -0.051333327 0.70000005 1.1986553e-39
0.01528952 -0.051186655 0.69800007 1.1990168e-39
0.016619043 -0.051186662 0.69800007 1.2908537e-39
0.018000005 -0.051333342 0.70000005 1.4738073e-39
0.019333333 -0.051333338 0.70000005 1.2897761e-39
0.020666664 -0.051333327 0.70000005 1.1071869e-39
0.021999998 -0.051333334 0.70000005 1.4745345e-39
0.02326666 -0.051186655 0.69800007 1.750041e-39
0.02459619 -0.05118667 0.69800001 1.7503997e-39
0.026000001 -0.051333334 0.70000005 1.842238e-39
0.027333336 -0.051333342 0.70000005 1.4745401e-39
0.028584752 -0.051186647 0.69800007 1.1071967e-39
0.029999999 -0.051333334 0.70000005 1.1068366e-39
0.031333331 -0.051333327 0.70000005 1.1990308e-39
0.032666668 -0.051333334 0.70000005 1.9347896e-39
0.034048572 -0.051406663 0.70100003 2.7634629e-39
0.035383813 -0.051406663 0.70100003 3.2255116e-39
0.036719054 -0.051406678 0.70099998 3.6875758e-39
0.038162861 -0.051553331 0.70300001 3.6875912e-39
0.039558098 -0.051626675 0.70400006 3.6882918e-39
0.040899046 -0.051626671 0.70400006 3.6875561e-39
0.042240001 -0.051626671 0.70400006 3.6868401e-39
0.043642864 -0.051700003 0.7050001 3.6868401e-39
0.045113336 -0.051846668 0.70700002 3.7786714e-39
0.046460003 -0.051846664 0.70700002 3.1358173e-39
0.047874294 -0.051920019 0.70799994 2.4915297e-39
0.049361899 -0.052066658 0.71000004 2.9460394e-39
0.05078572 -0.052140016 0.71100003 3.5017622e-39
0.052140005 -0.052140001 0.71100003 8.7644114e-39
-0.010228569 -0.051142864 0.71600002 1.2614028e-38
-0.0088399965 -0.05100001 0.71400005 1.1066093e-38
-0.0074799978 -0.05100001 0.71400005 1.3088622e-38
-0.0061199968 -0.051000014 0.71400005 1.5111884e-38
-0.0047400012 -0.050785713 0.71100003 1.5216645e-38
-0.003380951 -0.050714292 0.71000004 1.5298052e-38
-0.0020200009 -0.050500002 0.70700002 1.6790714e-38
-0.00067142997 -0.050357144 0.70500004 1.8234246e-38
0.00067047827 -0.050285727 0.70400006 1.3649639e-38
0.0020114309 -0.050285723 0.704 9.0215679e-39
0.0033476152 -0.050214283 0.70300007 4.5951043e-39
0.0046866653 -0.050214287 0.70300001 9.4820262e-41
0.0060085705 -0.050071429 0.70100003 3.7105823e-40
0.0073333341 -0.050000008 0.70000005 6.4763671e-40
0.0086666653 -0.050000001 0.70000005 9.2349913e-40
0.010000001 -0.050000001 0.70000005 1.1982896e-39
0.011300949 -0.049857136 0.69800007 1.1071743e-39
0.012630473 -0.049857136 0.69800007 9.231446e-40
0.013959992 -0.049857125 0.69800007 1.0135452e-39
0.015289521 -0.049857136 0.69800007 1.1064583e-39
0.016619043 -0.04985714 0.69800001 1.382685e-39
0.017948572 -0.049857143 0.69800007 1.5663532e-39
0.019278094 -0.049857143 0.69800001 1.3826808e-39
0.020607615 -0.049857128 0.69800007 1.1082645e-39
0.021937137 -0.049857132 0.69800001 1.5681735e-39
0.023266662 -0.049857136 0.69800007 1.9362273e-39
0.024560953 -0.049785722 0.69700003 1.9365819e-39
0.02588857 -0.049785715 0.69700003 1.9351483e-39
0.027255235 -0.04985714 0.69800007 1.4741786e-39
0.028543809 -0.049785715 0.69700003 1.0149997e-39
0.02991428 -0.049857128 0.69800007 1.3823403e-39
0.03124381 -0.049857143 0.69800001 1.750041e-39
0.032573331 -0.049857132 0.69800007 2.3939643e-39
0.033902861 -0.049857143 0.69800001 3.0396812e-39
0.035333335 -0.050000004 0.70000011 3.4102504e-39
0.036666673 -0.050000008 0.70000005 3.7793972e-39
0.038054295 -0.050071444 0.70100003 3.3213058e-39
0.039501905 -0.050214279 0.70300001 2.8621185e-39
0.04084095 -0.050214283 0.70300001 3.3209274e-39
0.042240001 -0.050285719 0.70400006 3.7786714e-39
0.043642856 -0.050357129 0.7050001 3.9612662e-39
0.044985712 -0.050357129 0.70500004 4.0538191e-39
0.046460006 -0.050500005 0.70700002 2.6777202e-39
0.047874294 -0.050571438 0.70799994 1.2018909e-39
0.04922286 -0.05057143 0.708 2.7555567e-39
0.050785717 -0.050785717 0.71100008 4.344454e-39
0.052140005 -0.050785717 0.71100003 1.0804937e-38
0.053644769 -0.050928582 0.71300006 1.7142275e-38
-0.01301048 -0.049987614 0.7190001 1.1723292e-38
-0.011608572 -0.049848583 0.71700001 1.5681896e-38
-0.010228575 -0.049779043 0.71600008 1.4938953e-38
-0.0088400021 -0.049640004 0.71400005 1.4209311e-38
-0.0074695298 -0.049570467 0.71300006 1.3469623e-38
-0.0060942848 -0.049431436 0.71099997 1.2840059e-38
-0.0047333385 -0.049361896 0.7100001 1.3648294e-38
-0.0033714301 -0.04922286 0.708 1.4581358e-38
-0.0020142873 -0.049014285 0.70500004 1.6514927e-38
-0.00066952914 -0.048875228 0.70300001 1.8343399e-38
0.0006695246 -0.048875246 0.70300001 1.1434943e-38
0.0020028618 -0.048736207 0.70099998 4.6171047e-39
0.0033380953 -0.048736196 0.70100003 2.6708511e-39
0.0046733352 -0.048736192 0.70100003 7.3587367e-40
0.0060000024 -0.048666675 0.70000005 7.3804989e-40
0.0073333322 -0.048666667 0.70000005 7.3983514e-40
0.0086419014 -0.04852761 0.69800007 1.0149731e-39
0.0099714249 -0.04852761 0.69800001 1.1982797e-39
0.011300945 -0.048527602 0.69800007 1.1071547e-39
0.012630475 -0.048527617 0.69800007 1.0153262e-39
0.013939997 -0.048458088 0.69700003 1.1064513e-39
0.015289518 -0.048527606 0.69800007 1.2894076e-39
0.016619047 -0.048527617 0.69800001 1.5659917e-39
0.017948568 -0.04852761 0.69800007 1.9336896e-39
0.01927809 -0.04852761 0.69800001 1.7507333e-39
0.020578094 -0.048458092 0.69700003 1.5688783e-39
0.021905711 -0.048458084 0.69700003 2.029153e-39
0.023233334 -0.048458092 0.69700003 2.4904745e-39
0.024560953 -0.048458096 0.69700003 2.1216878e-39
0.025888575 -0.048458103 0.69700003 1.7521934e-39
0.02721619 -0.048458099 0.69700003 1.1993854e-39
0.028543809 -0.048458088 0.69700003 7.3841423e-40
0.029871425 -0.048458081 0.69700003 1.2901433e-39
0.031199047 -0.048458088 0.69700003 1.841515e-39
0.032526668 -0.048458096 0.69700003 2.4865144e-39
0.033902861 -0.04852761 0.69800001 3.1318698e-39
0.035333339 -0.048666675 0.70000005 3.3184065e-39
0.036666669 -0.048666667 0.70000005 3.5967884e-39
0.038054295 -0.048736203 0.70099998 3.4131217e-39
0.039389528 -0.048736192 0.70100003 3.3212848e-39
0.040840954 -0.048875239 0.70300001 3.5038767e-39
0.042240001 -0.04894476 0.70400012 3.6861142e-39
0.043642864 -0.049014289 0.7050001 3.8697852e-39
0.045113333 -0.049153324 0.70700002 4.0527429e-39
0.046460003 -0.049153332 0.70700002 2.4901074e-39
0.047806665 -0.049153332 0.70700002 1.015713e-39
0.049222864 -0.049222864 0.708 4.6980969e-39
0.050714292 -0.049361914 0.71000004 8.4885602e-39
0.052140005 -0.049431432 0.71100003 1.3012273e-38
0.053644769 -0.049570475 0.71300006 1.7526523e-38
0.055002861 -0.049570471 0.71300006 1.6688487e-38
0.056440003 -0.049640011 0.71400005 1.5863811e-38
-0.013010484 -0.048618082 0.71900004 1.421326e-38
-0.011608575 -0.048482861 0.71700001 1.7243471e-38
-0.010200003 -0.048280004 0.71400005 1.7249927e-38
-0.0088276202 -0.048212383 0.71300006 1.7235935e-38
-0.0074695288 -0.048212375 0.71300012 1.3831563e-38
-0.0060942904 -0.04807714 0.71100003 1.0414296e-38
-0.0047199973 -0.047874298 0.708 1.2138384e-38
-0.0033666645 -0.047806676 0.70700002 1.3838429e-38
-0.0020114272 -0.04760382 0.704 1.6160158e-38
-0.00066952728 -0.047536183 0.70300007 1.8425487e-38
0.00066762656 -0.04740097 0.70099998 9.3129007e-39
0.0020028581 -0.047400959 0.70100003 1.0776966e-40
0.0033380971 -0.047400955 0.70100003 7.3513519e-40
0.0046666632 -0.04733333 0.70000005 1.3797955e-39
0.0059999996 -0.047333334 0.70000005 1.1057436e-39
0.0073123774 -0.047198091 0.69800001 8.3095037e-40
0.0086418977 -0.04719808 0.69800007 1.0138997e-39
0.0099714287 -0.047198094 0.69800001 1.1986483e-39
0.011284762 -0.047130477 0.69700003 1.1990084e-39
0.012612383 -0.047130484 0.69700003 1.1071729e-39
0.01394 -0.047130477 0.69700003 1.2904866e-39
0.01528952 -0.047198087 0.69800007 1.3819633e-39
0.016619043 -0.047198087 0.69800001 1.8411422e-39
0.01794857 -0.047198091 0.69800007 2.3010372e-39
0.019250475 -0.047130477 0.69700003 2.2099205e-39
0.020578096 -0.047130484 0.69700003 2.0280558e-39
0.021905715 -0.047130477 0.69700003 2.5808751e-39
0.02323333 -0.047130469 0.69700003 3.0411232e-39
0.024560945 -0.047130462 0.69700003 2.3075098e-39
0.025814286 -0.046995241 0.69500005 1.5692371e-39
0.027216189 -0.047130477 0.69700003 1.0164276e-39
0.028461905 -0.046995234 0.69500005 3.717869e-40
0.029871428 -0.047130477 0.69700003 1.1975903e-39
0.031199044 -0.047130469 0.69700003 1.9344295e-39
0.032526668 -0.047130477 0.69700003 2.5790758e-39
0.033902861 -0.047198091 0.69800007 3.1329488e-39
0.03523238 -0.047198083 0.69800007 3.318761e-39
0.036666673 -0.047333341 0.70000005 3.412037e-39
0.038054287 -0.047400955 0.70100003 3.5964311e-39
0.039389528 -0.047400955 0.70100003 3.6875491e-39
0.040840954 -0.047536198 0.70300001 3.5953549e-39
0.042180002 -0.047536191 0.70300007 3.5028005e-39
0.043580957 -0.04760382 0.704 3.778307e-39
0.044985719 -0.04767143 0.70500004 4.0530933e-39
0.046460003 -0.047806662 0.70700002 2.3975404e-39
0.047806665 -0.047806662 0.70700002 7.4200996e-40
0.04922286 -0.04787429 0.70799994 6.6241649e-39
0.050714284 -0.048009526 0.7100001 1.2535433e-38
0.052140005 -0.048077144 0.71099997 1.5228154e-38
0.053644765 -0.048212383 0.71300006 1.7792002e-38
0.055002861 -0.048212379 0.71300012 1.7790555e-38
0.056440011 -0.048280008 0.71400005 1.7707358e-38
0.057961904 -0.04841524 0.71600008 2.057079e-38
-0.014400005 -0.047314275 0.72000003 8.3217819e-39
-0.013010486 -0.047248557 0.7190001 1.1080455e-38
-0.011608573 -0.047117155 0.71700001 1.3838754e-38
-0.010199998 -0.046920013 0.71400005 1.1717216e-38
-0.0088276174 -0.046854287 0.71300012 9.6024678e-39
-0.0074695223 -0.046854291 0.71300006 1.0223052e-38
-0.0060857185 -0.046657134 0.7100001 1.0837229e-38
-0.004720001 -0.046525721 0.708 1.2806336e-38
-0.0033666664 -0.046460003 0.70700002 1.4860822e-38
-0.0020114328 -0.046262857 0.70400006 1.2090714e-38
-0.00066762086 -0.046065718 0.70099998 9.3146985e-39
0.00066761911 -0.046065722 0.70100003 4.7030491e-39
0.001999998 -0.046000008 0.70000005 1.84111e-40
0.0033333316 -0.046 0.70000005 7.3585545e-40
0.0046666614 -0.045999993 0.70000005 1.2886761e-39
0.0059828558 -0.045868572 0.69800007 1.0139011e-39
0.0073123802 -0.045868572 0.69800001 8.3166643e-40
0.0086295214 -0.045802858 0.69700003 9.2278447e-40
0.009971424 -0.045868557 0.69800001 1.1071813e-39
0.011284765 -0.045802865 0.69700003 1.0153542e-39
0.012612381 -0.045802861 0.69700003 1.0157074e-39
0.013940004 -0.045802869 0.69700003 1.1075373e-39
0.01526762 -0.045802861 0.69700003 1.2908495e-39
0.016619047 -0.045868564 0.69800001 1.6581915e-39
0.01792285 -0.04580285 0.69700003 2.0258964e-39
0.019250479 -0.045802865 0.69700003 1.7518277e-39
0.020519046 -0.045671426 0.69500005 1.5692371e-39
0.021905718 -0.045802865 0.69700003 2.029495e-39
0.023233334 -0.045802858 0.69700003 2.397553e-39
0.024490474 -0.045671422 0.69500005 1.9372965e-39
0.025814278 -0.045671415 0.69500011 1.4766813e-39
0.027138095 -0.045671429 0.69500005 1.199377e-39
0.028461905 -0.045671429 0.69500011 9.2279708e-40
0.02987143 -0.045802865 0.69700003 1.5663658e-39
0.031199047 -0.045802858 0.69700003 2.2117338e-39
0.032526664 -0.04580285 0.69700003 2.6730721e-39
0.033902861 -0.045868561 0.69800007 3.1347439e-39
0.035232384 -0.045868564 0.69800007 3.3187568e-39
0.036561906 -0.045868564 0.69800007 3.5027935e-39
0.037999995 -0.045999993 0.70000005 3.6871876e-39
0.039389521 -0.046065718 0.70099998 3.961978e-39
0.040724766 -0.046065714 0.70100003 3.4113252e-39
0.042179994 -0.046197131 0.70300007 2.9507114e-39
0.043519046 -0.046197142 0.70300001 3.5031565e-39
0.044985719 -0.046328567 0.7050001 4.0552372e-39
0.046460003 -0.046460006 0.70700002 2.4882857e-39
0.047806669 -0.046460003 0.70700002 9.1995104e-40
0.049153335 -0.046459999 0.70700002 6.9151291e-39
0.050571427 -0.046525717 0.708 1.2913191e-38
0.052066669 -0.046657149 0.71000004 1.2820693e-38
0.053494293 -0.046722863 0.71100003 1.2632371e-38
0.055002868 -0.046854299 0.71300006 1.5389601e-38
0.056440007 -0.046920016 0.71400005 1.816548e-38
0.057961904 -0.047051433 0.71600008 2.0750156e-38
0.059408583 -0.047117151 0.71700001 2.341769e-38
-0.014400004 -0.045942847 0.72000003 5.4540302e-39
-0.01295619 -0.045687627 0.71600008 7.9476086e-39
-0.01156 -0.045560002 0.71400005 1.0419988e-38
-0.010200005 -0.045559995 0.71400005 6.1779732e-39
-0.0088276165 -0.045496192 0.71300006 1.8591896e-39
-0.0074485675 -0.045368586 0.71099997 6.620642e-39
-0.0060685752 -0.045177143 0.708 1.1330832e-38
-0.0047199992 -0.045177151 0.708 1.3572585e-38
-0.0033571455 -0.044985715 0.7050001 1.5758651e-38
-0.0020085745 -0.044858094 0.70300001 7.9353654e-39
-0.000667619 -0.044730481 0.70100003 1.1134998e-40
0.0006666673 -0.044666678 0.70000005 1.84111e-40
0.0019999989 -0.044666667 0.70000005 2.7631784e-40
0.0033333334 -0.044666674 0.70000005 7.351478e-40
0.0046533332 -0.044539049 0.69800001 1.1050177e-39
0.0059828521 -0.044539038 0.69800007 1.0135564e-39
0.0073019038 -0.044475239 0.69700003 8.3059865e-40
0.0086295269 -0.044475246 0.69700003 9.2242854e-40
0.0099571431 -0.044475239 0.69700003 9.2279147e-40
0.011252381 -0.044347618 0.69500011 9.2279428e-40
0.012576192 -0.044347618 0.69500005 8.3203217e-40
0.013899996 -0.04434761 0.69500005 1.0171353e-39
0.015223801 -0.044347603 0.69500011 1.1993728e-39
0.016547617 -0.044347618 0.69500005 1.4745219e-39
0.017871423 -0.044347607 0.69500011 1.6599894e-39
0.019195238 -0.044347622 0.69500005 1.3862779e-39
0.020519046 -0.04434761 0.69500011 1.1107757e-39
0.021842849 -0.044347603 0.69500011 1.4788393e-39
0.023166658 -0.044347607 0.69500005 1.7525493e-39
0.024490472 -0.04434761 0.69500011 1.567442e-39
0.025814286 -0.044347625 0.69500005 1.2908509e-39
0.027138093 -0.044347614 0.69500011 1.3812431e-39
0.0284619 -0.044347603 0.69500011 1.4734457e-39
0.029785708 -0.044347607 0.69500005 1.9337064e-39
0.031109521 -0.04434761 0.69500011 2.3961181e-39
0.032526672 -0.044475242 0.69700003 2.7666957e-39
0.033854287 -0.044475239 0.69700003 3.1343866e-39
0.035232376 -0.044539031 0.69800007 3.410242e-39
0.036561899 -0.044539031 0.69800007 3.5949906e-39
0.037999999 -0.044666667 0.70000005 3.8708572e-39
0.039333329 -0.044666659 0.70000005 4.1467252e-39
0.040724762 -0.044730481 0.70100003 3.320926e-39
0.042060003 -0.044730481 0.70100003 2.4014907e-39
0.04351905 -0.044858102 0.70300001 3.2287248e-39
0.044985719 -0.044985715 0.70500004 4.0537981e-39
0.046328567 -0.044985712 0.7050001 2.5801142e-39
0.047806669 -0.045113329 0.70700002 1.0261442e-39
0.049153343 -0.045113344 0.70700002 7.2028591e-39
0.05057143 -0.045177151 0.708 1.3276231e-38
0.051920004 -0.045177154 0.70799994 1.0417167e-38
0.05349429 -0.045368578 0.71100003 7.4791461e-39
0.055002864 -0.045496188 0.71300006 1.2969902e-38
0.056440003 -0.045560002 0.71400005 1.8528494e-38
0.058042858 -0.04575143 0.71700001 2.1029967e-38
0.059408575 -0.04575143 0.71700001 2.341769e-38
0.06102857 -0.045942843 0.72000003 2.341769e-38
-0.036523812 -0.040238082 0.65000004 1.2537151e-38
-0.012974285 -0.04438572 0.71700001 4.4316344e-39
-0.01156 -0.044200003 0.71400005 5.8181226e-39
-0.010185713 -0.044138107 0.71300006 3.5975549e-39
-0.0088028545 -0.044014301 0.71100003 1.3827551e-39
-0.0074380944 -0.043952387 0.71000004 4.6142306e-39
-0.0060685729 -0.043828573 0.708 7.864747e-39
-0.0047000088 -0.043642845 0.7050001 7.9429927e-39
-0.0033523799 -0.04358096 0.704 7.9310326e-39
-0.0020028595 -0.043395232 0.70100003 4.0587517e-39
-0.00066667091 -0.043333333 0.70000005 9.2268497e-41
0.0006666659 -0.043333337 0.70000005 3.6851347e-40
0.0020000017 -0.04333334 0.70000005 6.443885e-40
0.0033238051 -0.043209516 0.69800007 8.291455e-40
0.0046533304 -0.043209516 0.69800001 1.0146284e-39
0.0059828549 -0.043209519 0.69800007 1.0142879e-39
0.0073019075 -0.043147631 0.69700003 1.0135606e-39
0.0086047603 -0.04302381 0.69500005 1.0139081e-39
0.0099285664 -0.043023799 0.69500011 1.013548e-39
0.011252376 -0.043023802 0.69500005 9.2242854e-40
0.012576188 -0.043023806 0.69500005 8.3095177e-40
0.013899992 -0.043023799 0.69500011 1.0153402e-39
0.015223809 -0.043023814 0.69500005 1.1071785e-39
0.016547615 -0.043023799 0.69500011 1.2919285e-39
0.017871423 -0.043023806 0.69500005 1.4773946e-39
0.019195236 -0.043023806 0.69500005 1.3855591e-39
0.020519042 -0.043023799 0.69500011 1.2937278e-39
0.021842856 -0.043023814 0.69500005 1.3844913e-39
0.023166662 -0.043023806 0.69500011 1.4745303e-39
0.024490474 -0.043023806 0.69500005 1.3823333e-39
0.025814278 -0.043023799 0.69500005 1.2890503e-39
0.02713809 -0.043023799 0.69500011 1.3805144e-39
0.028461905 -0.043023814 0.69500005 1.5638393e-39
0.029785709 -0.043023806 0.69500011 2.1180935e-39
0.031109521 -0.043023806 0.69500005 2.6723392e-39
0.032433331 -0.043023799 0.69500011 3.0414777e-39
0.033854287 -0.043147627 0.69700003 3.4098945e-39
0.035181902 -0.04314762 0.69700003 3.4109679e-39
0.036509518 -0.043147616 0.69700003 3.5045942e-39
0.037891436 -0.043209527 0.69800001 3.6879023e-39
0.039333332 -0.043333333 0.70000005 3.8715775e-39
0.040724769 -0.04339524 0.70100003 3.4116853e-39
0.042059999 -0.043395232 0.70100003 2.8603094e-39
0.043395244 -0.043395247 0.70100003 2.952498e-39
0.044921905 -0.043580957 0.70400006 3.0443195e-39
0.046328571 -0.04364286 0.70500004 3.5910137e-39
0.047806669 -0.043766674 0.70700002 4.2386028e-39
0.049153335 -0.04376667 0.70700002 9.5077414e-39
0.050500002 -0.043766666 0.70700002 1.4766051e-38
0.051920012 -0.043828581 0.708 1.2269642e-38
0.053494297 -0.044014305 0.71100003 9.7850444e-39
0.055002861 -0.0441381 0.71300012 1.539596e-38
0.056440003 -0.044199999 0.71400011 2.102991e-38
0.058042862 -0.044385724 0.71700001 2.2223829e-38
0.059408583 -0.04438572 0.71700001 2.341769e-38
0.061028562 -0.044571422 0.72000003 2.341769e-38
0.062659994 -0.044757143 0.72300011 2.341769e-38
-0.037587631 -0.038819984 0.64700007 1.2905946e-38
-0.036523812 -0.03899999 0.65000004 1.2721189e-38
-0.015749533 -0.04313999 0.71900004 3.6780581e-40
-0.014279999 -0.042840008 0.71400005 6.4620458e-40
-0.01292 -0.042840008 0.71400005 9.2926687e-40
-0.011559997 -0.042840008 0.71400005 1.1132924e-39
-0.010185712 -0.042780016 0.71300006 1.0110495e-39
-0.0088028526 -0.042660009 0.71100003 8.3276926e-40
-0.007438099 -0.042600002 0.71000004 2.5887756e-39
-0.0060599986 -0.042420004 0.70700002 4.339408e-39
-0.0046933363 -0.042239998 0.70400006 2.2193191e-39
-0.0033523804 -0.042240005 0.70400006 1.0417253e-40
-0.0020028544 -0.042060006 0.70100003 9.2274103e-41
-0.00066666718 -0.042000003 0.70000005 9.2998574e-41
0.0006666687 -0.042000007 0.70000005 5.5254039e-40
0.0019942806 -0.041879993 0.69800001 9.2024812e-40
0.0033238064 -0.041879997 0.69800007 9.2169145e-40
0.0046466626 -0.041819993 0.69700003 8.3058743e-40
0.0059742858 -0.041820001 0.69700003 1.0146326e-39
0.007280949 -0.041699991 0.69500005 1.1061037e-39
0.0086047547 -0.041699979 0.69500011 1.1053807e-39
0.009928572 -0.041699994 0.69500005 1.0139039e-39
0.011252382 -0.041700002 0.69500011 9.2242573e-40
0.012558096 -0.041640002 0.69399995 8.313049e-40
0.013879998 -0.041639999 0.69399995 9.2242013e-40
0.015201907 -0.041640002 0.69400001 1.0157018e-39
0.016547618 -0.041699998 0.69500005 1.2001e-39
0.017845718 -0.04164001 0.69400001 1.2930089e-39
0.019167619 -0.041640002 0.69400001 1.3848416e-39
0.020489523 -0.041639995 0.69400001 1.4756023e-39
0.021811429 -0.041640002 0.69400001 1.2904964e-39
0.023133334 -0.041639999 0.69400001 1.1068254e-39
0.02445524 -0.04164001 0.69400001 1.1979434e-39
0.025777142 -0.041640002 0.69400001 1.1975763e-39
0.027099047 -0.041639995 0.69400001 1.3798053e-39
0.0284619 -0.041699987 0.69500011 1.5652798e-39
0.029785709 -0.041699987 0.69500005 2.2102905e-39
0.031109523 -0.041699994 0.69500005 2.8563718e-39
0.032433331 -0.041699983 0.69500011 3.2255116e-39
0.033854287 -0.041820005 0.69700003 3.5935683e-39
0.035181902 -0.041820001 0.69700003 3.5024474e-39
0.036509525 -0.041820008 0.69700003 3.3202058e-39
0.037891429 -0.041879993 0.69800001 3.5038711e-39
0.039333329 -0.041999992 0.70000005 3.5949878e-39
0.04066667 -0.042000011 0.70000005 3.5017173e-39
0.042060003 -0.042060006 0.70100003 3.3198414e-39
0.04339524 -0.042060006 0.70100003 2.6769943e-39
0.044858098 -0.042179998 0.70300001 1.9380084e-39
0.046328574 -0.042300012 0.7050001 4.6848266e-39
0.047806669 -0.042420004 0.70700002 7.4700951e-39
0.049153332 -0.04242 0.70700002 1.1915218e-38
0.050500005 -0.042420007 0.70700002 1.6223581e-38
0.051920012 -0.042480018 0.708 1.4110633e-38
0.053494293 -0.042660009 0.71100003 1.1992699e-38
0.055002868 -0.042780016 0.71300006 1.7706613e-38
0.056598097 -0.042959992 0.71600008 2.3413357e-38
0.058042862 -0.043020003 0.71700001 2.341769e-38
0.059574287 -0.043139994 0.71900004 2.341769e-38
0.06102857 -0.04319999 0.72000003 2.341769e-38
0.062573336 -0.043319989 0.72200012 2.341769e-38
0.064214297 -0.043500002 0.72500002 2.341769e-38
0.065685712 -0.043559987 0.72600007 2.341769e-38
-0.037587628 -0.037587605 0.64700007 1.3273301e-38
-0.015683817 -0.041596185 0.71600002 2.7593248e-40
-0.014280001 -0.041480005 0.71400005 3.6813652e-40
-0.012920003 -0.041479994 0.71400005 9.2167043e-40
-0.011543807 -0.041421913 0.71300006 1.3783424e-39
-0.010157141 -0.041305725 0.71100003 1.1031988e-39
-0.0087904744 -0.041247629 0.71000004 7.3550513e-40
-0.0074171452 -0.041131433 0.708 1.658888e-39
-0.0060428637 -0.040957134 0.7050001 2.664052e-39
-0.0046933386 -0.040899042 0.70400006 1.4737736e-39
-0.0033476194 -0.040840957 0.70300001 3.6780441e-40
-0.0020000013 -0.040666673 0.70000005 2.7668918e-40
-0.00066667091 -0.040666666 0.70000005 2.7703951e-40
0.00066475483 -0.040550459 0.69800007 5.5253759e-40
0.0019942839 -0.040550474 0.69800001 9.1988518e-40
0.0033190465 -0.040492382 0.69700003 8.3020628e-40
0.0046466631 -0.040492374 0.69700003 8.3093636e-40
0.0059571411 -0.040376186 0.69500005 1.0142598e-39
0.0072809514 -0.04037619 0.69500011 1.1982896e-39
0.0086047621 -0.04037619 0.69500005 1.1068114e-39
0.0099285683 -0.040376183 0.69500005 1.1064527e-39
0.011236194 -0.040318105 0.69400001 1.0153346e-39
0.012558096 -0.040318098 0.69400001 1.0160465e-39
0.013880003 -0.040318105 0.69400001 1.0156821e-39
0.015201907 -0.040318098 0.69400001 1.1082533e-39
0.016523806 -0.040318098 0.69400001 1.29266e-39
0.017845713 -0.040318087 0.69400001 1.4770429e-39
0.019167619 -0.040318098 0.69400001 1.4756009e-39
0.020489523 -0.04031809 0.69400001 1.5656399e-39
0.021811428 -0.040318102 0.69400001 1.3823249e-39
0.023133334 -0.040318094 0.69400001 1.1986567e-39
0.024455234 -0.04031809 0.69400001 1.1068226e-39
0.025777142 -0.040318098 0.69400001 1.0146256e-39
0.027099047 -0.040318094 0.69400001 1.197935e-39
0.028420953 -0.040318102 0.69400001 1.3826892e-39
0.029785713 -0.040376186 0.69500005 2.0284146e-39
0.031109521 -0.040376179 0.69500011 2.6741385e-39
0.032433331 -0.040376183 0.69500005 3.1343978e-39
0.033854287 -0.040492382 0.69700003 3.5939312e-39
0.035181902 -0.040492378 0.69700003 3.4106147e-39
0.036509521 -0.040492382 0.69700003 3.3202072e-39
0.037891433 -0.040550474 0.69800001 3.4120342e-39
0.039333332 -0.040666666 0.70000005 3.5031467e-39
0.040666666 -0.040666673 0.70000005 3.4116643e-39
0.042060006 -0.040724769 0.70100003 3.4138251e-39
0.043395236 -0.040724758 0.70100003 2.5837267e-39
0.044858098 -0.040840957 0.70300001 1.753641e-39
0.046328574 -0.040957142 0.70500004 4.981176e-39
0.04767143 -0.040957134 0.70500004 8.2155705e-39
0.049153339 -0.041073341 0.70700002 8.2156335e-39
0.050500002 -0.041073333 0.70700002 8.2145195e-39
0.051920004 -0.041131433 0.708 9.584122e-39
0.05341905 -0.041247621 0.71000004 1.0959566e-38
0.055002861 -0.041421909 0.71300006 1.7153505e-38
0.056598097 -0.041596193 0.71600008 2.341769e-38
0.058042858 -0.041654281 0.71700001 2.341769e-38
0.059574287 -0.041770469 0.7190001 2.341769e-38
0.061028562 -0.041828554 0.72000009 2.341769e-38
0.062573329 -0.041944746 0.72200012 2.341769e-38
0.064214297 -0.042119052 0.72500002 2.341769e-38
0.065595239 -0.042119052 0.72500002 2.341769e-38
0.067345716 -0.042351414 0.72900003 1.8986985e-38
-0.03882001 -0.036355227 0.64700007 1.3365136e-38
-0.037587628 -0.036355212 0.64700007 1.3548083e-38
-0.015640004 -0.040120002 0.71400005 1.8413622e-40
-0.014260002 -0.040063806 0.71300012 1.0160395e-40
-0.01286571 -0.03995144 0.71100003 9.1877255e-40
-0.011511428 -0.039951436 0.71100003 1.6545551e-39
-0.010157141 -0.039951436 0.71100003 1.1964763e-39
-0.0087657161 -0.039782859 0.708 6.454675e-40
-0.0074066636 -0.039726682 0.70700002 8.3021749e-40
-0.0060342867 -0.039558101 0.70400006 9.2025652e-40
-0.0046866713 -0.039501902 0.70300007 8.2805949e-40
-0.0033380957 -0.039389525 0.70100003 6.443857e-40
-0.0020000031 -0.039333332 0.70000005 5.5290753e-40
-0.00066476822 -0.03922094 0.69800007 3.6923514e-40
0.00066380767 -0.039164759 0.69700003 6.4402276e-40
0.0019914233 -0.039164752 0.69700003 8.2949162e-40
0.0033095167 -0.039052367 0.69500011 8.3164682e-40
0.004633334 -0.039052382 0.69500005 8.3093916e-40
0.0059571387 -0.039052371 0.69500011 1.0135424e-39
0.0072704735 -0.038996186 0.69400001 1.1986455e-39
0.0086047547 -0.039052363 0.69500005 1.2000776e-39
0.0099142855 -0.03899619 0.69400001 1.1078862e-39
0.011236194 -0.038996197 0.69400001 1.2004419e-39
0.012558096 -0.038996194 0.69400001 1.2004391e-39
0.013879999 -0.038996186 0.69400001 1.2000776e-39
0.015201901 -0.038996182 0.69400001 1.1086121e-39
0.016523808 -0.03899619 0.69400001 1.3848472e-39
0.017845718 -0.038996197 0.69400001 1.568514e-39
0.019167619 -0.038996194 0.69400001 1.5670763e-39
0.020489523 -0.038996186 0.69400001 1.5667161e-39
0.021811424 -0.038996182 0.69400001 1.3830452e-39
0.023133334 -0.03899619 0.69400001 1.1993742e-39
0.024455236 -0.038996186 0.69400001 1.0153444e-39
0.025777142 -0.038996194 0.69400001 8.313105e-40
0.027099049 -0.038996186 0.69400001 1.0149773e-39
0.028420949 -0.038996182 0.69400001 1.2008077e-39
0.029742857 -0.03899619 0.69400001 1.8465344e-39
0.031109523 -0.039052375 0.69500005 2.4919024e-39
0.032433331 -0.039052367 0.69500011 3.0443587e-39
0.033854283 -0.039164763 0.69700003 3.5031719e-39
0.035181906 -0.039164767 0.69700003 3.4098945e-39
0.036561906 -0.03922094 0.69800007 3.3194869e-39
0.037999999 -0.039333336 0.70000005 3.3201973e-39
0.039333336 -0.03933334 0.70000005 3.3198358e-39
0.040666662 -0.039333332 0.70000011 3.410951e-39
0.042060003 -0.039389521 0.70100003 3.5031467e-39
0.043395236 -0.039389521 0.70100003 2.582282e-39
0.044858098 -0.039501902 0.70300001 1.5753341e-39
0.046328574 -0.039614294 0.7050001 5.2702919e-39
0.047671434 -0.039614286 0.7050001 8.8508127e-39
0.049014289 -0.039614294 0.70500004 4.5169791e-39
0.050500013 -0.039726678 0.70700002 1.1462902e-40
0.051846668 -0.039726675 0.70700002 4.9596815e-39
0.053268574 -0.039782856 0.70799994 9.873315e-39
0.054848574 -0.03995144 0.71099997 1.6713699e-38
0.056440007 -0.040120017 0.71400005 2.341769e-38
0.058042862 -0.040288575 0.71700007 2.341769e-38
0.059657134 -0.040457133 0.72000003 2.341769e-38
0.061198093 -0.04056951 0.72200006 2.341769e-38
0.062659994 -0.04062571 0.72300005 2.341769e-38
0.064214297 -0.040738102 0.72500002 2.341769e-38
0.065685712 -0.040794265 0.72600007 2.3417689e-38
0.067345709 -0.040962841 0.72900009 1.8182705e-38
0.068734288 -0.040962845 0.72900009 1.2791574e-38
-0.03882001 -0.035122849 0.64700001 1.3180375e-38
-0.037587628 -0.035122849 0.64700001 1.3179299e-38
-0.015618102 -0.038705707 0.71300012 9.2217196e-39
-0.014220003 -0.03859714 0.71100003 8.3937077e-39
-0.01286571 -0.038597155 0.71099997 4.6097409e-39
-0.011495239 -0.038542863 0.7100001 9.2093615e-40
-0.010142854 -0.03854287 0.71000004 1.0128123e-39
-0.008753336 -0.038379997 0.70700002 1.1057254e-39
-0.007375245 -0.038217138 0.70400006 1.1050079e-39
-0.0060257185 -0.038162854 0.70300001 1.0117361e-39
-0.0046733338 -0.038054287 0.70100003 9.2025652e-40
-0.0033380948 -0.038054287 0.70100003 7.3693866e-40
-0.0019942918 -0.037891418 0.69800007 5.5361939e-40
-0.00066381035 -0.037837144 0.69700003 4.6214823e-40
0.00066380628 -0.037837137 0.69700003 6.454661e-40
0.0019914284 -0.037837144 0.69700003 9.2169285e-40
0.0033095204 -0.037728563 0.69500005 9.2277045e-40
0.0046333298 -0.037728567 0.69500011 1.014613e-39
0.0059571359 -0.037728559 0.69500011 9.2242433e-40
0.0072704735 -0.037674282 0.69400001 9.2277746e-40
0.008592383 -0.037674289 0.69400001 1.0160423e-39
0.0099142855 -0.037674285 0.69400001 1.2000776e-39
0.011236188 -0.037674282 0.69400001 1.2926362e-39
0.012558096 -0.037674289 0.69400001 1.3848304e-39
0.013879998 -0.037674282 0.69400001 1.2926362e-39
0.015201907 -0.037674289 0.69400001 1.2004476e-39
0.016523808 -0.037674289 0.69400001 1.3848402e-39
0.017819995 -0.037619997 0.69300002 1.5688685e-39
0.019140001 -0.037620008 0.69300002 1.5677909e-39
0.020489523 -0.037674282 0.69400001 1.5670749e-39
0.021811429 -0.037674293 0.69400001 1.383764e-39
0.023133334 -0.037674285 0.69400001 1.2000916e-39
0.024455236 -0.037674282 0.69400001 1.0153416e-39
0.025777137 -0.037674274 0.69400001 8.3059024e-40
0.027099045 -0.037674282 0.69400001 1.1997203e-39
0.028420955 -0.037674289 0.69400001 1.4777463e-39
0.029742859 -0.037674289 0.69400001 2.2156659e-39
0.031064758 -0.037674282 0.69400001 2.8617555e-39
0.032433331 -0.037728563 0.69500005 3.2291087e-39
0.033757143 -0.037728567 0.69500011 3.6882778e-39
0.035181906 -0.037837144 0.69700003 3.595715e-39
0.036561903 -0.037891421 0.69800007 3.5035152e-39
0.037891433 -0.037891421 0.69800001 3.3201959e-39
0.039333336 -0.038000014 0.70000005 3.1368837e-39
0.04066667 -0.038000003 0.70000005 3.4116713e-39
0.042060003 -0.038054284 0.70100003 3.6875309e-39
0.04339524 -0.038054284 0.70100003 2.577966e-39
0.044858098 -0.038162857 0.70300001 1.46985e-39
0.046328571 -0.038271431 0.70500004 6.5527379e-39
0.04767143 -0.03827142 0.7050001 1.1706967e-38
0.049153335 -0.038379997 0.70700002 8.2046249e-39
0.050500005 -0.038380008 0.70700002 4.7152993e-39
0.051920008 -0.038434293 0.70799994 9.3060623e-39
0.053419046 -0.038542863 0.71000004 1.3931285e-38
0.054848574 -0.03859714 0.71100003 1.8727264e-38
0.056360967 -0.038705733 0.71300006 2.341769e-38
0.057961904 -0.038868569 0.71600008 2.341769e-38
0.059574284 -0.039031412 0.7190001 2.341769e-38
0.061198093 -0.039194282 0.72200012 2.341769e-38
0.062660001 -0.039248571 0.72300005 2.341769e-38
0.064214297 -0.039357144 0.72500002 2.341769e-38
0.065685712 -0.039411411 0.72600007 2.3417687e-38
0.067345716 -0.039574277 0.72900009 1.778989e-38
0.068734288 -0.03957428 0.72900003 1.2214743e-38
-0.038820002 -0.033890471 0.64700001 1.2995631e-38
-0.015618094 -0.037347626 0.71300006 1.8259013e-38
-0.014219997 -0.037242867 0.71100003 1.6582569e-38
-0.012865716 -0.03724286 0.71100003 8.3893931e-39
-0.011495237 -0.037190486 0.71000004 1.0089209e-40
-0.010071431 -0.036928575 0.7050001 8.2769515e-40
-0.0087285768 -0.036928568 0.7050001 1.5638169e-39
-0.0073752413 -0.036876194 0.70400006 1.3801487e-39
-0.0060257181 -0.036823805 0.70300001 1.1042792e-39
-0.0046733362 -0.03671905 0.70100003 1.0127997e-39
-0.0033380957 -0.03671905 0.70099998 8.2876294e-40
-0.0019942895 -0.036561903 0.69800007 6.4544508e-40
-0.00066381175 -0.036509521 0.69700003 4.617839e-40
0.00066381047 -0.036509529 0.69700003 7.3766033e-40
0.0019857106 -0.036404759 0.69500005 9.2169426e-40
0.00330476 -0.036352381 0.69400001 1.0142514e-39
0.0046266629 -0.036352377 0.69400001 1.1060925e-39
0.0059485715 -0.036352385 0.69400001 9.2278587e-40
0.0072704735 -0.036352377 0.69400001 6.4799264e-40
0.0085800001 -0.036300004 0.69300002 9.2421239e-40
0.0099000009 -0.036300004 0.69300002 1.2007979e-39
0.01122 -0.0363 0.69300002 1.3848304e-39
0.012539995 -0.036299992 0.69300008 1.4770246e-39
0.013859996 -0.036299989 0.69300002 1.3851905e-39
0.015179999 -0.0363 0.69300002 1.2926418e-39
0.0165 -0.0363 0.69300002 1.4770358e-39
0.017819999 -0.0363 0.69300002 1.5681539e-39
0.019139998 -0.0363 0.69300002 1.567435e-39
0.020459995 -0.036299985 0.69300002 1.5677965e-39
0.021779997 -0.0363 0.69300002 1.3844885e-39
0.0231 -0.0363 0.69300002 1.1079016e-39
0.024419999 -0.0363 0.69300002 1.0149871e-39
0.025777141 -0.036352385 0.69400001 8.3167064e-40
0.027099049 -0.036352377 0.69400001 1.2915628e-39
0.028420949 -0.036352377 0.69400001 1.7543304e-39
0.029742852 -0.03635237 0.69400001 2.4922472e-39
0.031064758 -0.036352377 0.69400001 3.2290905e-39
0.032433335 -0.036404762 0.69500011 3.5053229e-39
0.033854283 -0.036509518 0.69700003 3.780465e-39
0.035181899 -0.03650951 0.69700003 3.7811783e-39
0.036561903 -0.036561888 0.69800007 3.6878995e-39
0.037891433 -0.036561903 0.69800001 3.3201903e-39
0.039333336 -0.036666673 0.70000005 2.8599395e-39
0.040666666 -0.036666665 0.70000005 3.3194799e-39
0.042000011 -0.03666668 0.70000005 3.7750616e-39
0.04339524 -0.03671905 0.70100003 2.5718647e-39
0.044858098 -0.036823813 0.70300001 1.3016339e-39
0.04626286 -0.036876198 0.70400006 7.9475497e-39
0.047671434 -0.036928572 0.7050001 1.4468568e-38
0.049153335 -0.037033338 0.70700002 1.1879218e-38
0.050500002 -0.037033334 0.70700002 9.2178184e-39
0.051920012 -0.037085727 0.70799994 1.3617708e-38
0.05341905 -0.037190486 0.71000004 1.7976371e-38
0.05484857 -0.037242852 0.71100003 2.0754461e-38
0.05636096 -0.037347626 0.71300006 2.341769e-38
0.057961904 -0.03750477 0.71600008 2.341769e-38
0.059574284 -0.037661899 0.7190001 2.341769e-38
0.061198097 -0.037819047 0.72200012 2.341769e-38
0.062659986 -0.037871413 0.72300011 2.341769e-38
0.064214289 -0.03797619 0.72500002 2.341769e-38
0.065595232 -0.037976179 0.72500002 2.3414808e-38
