# .PCD v0.7 - Point Cloud Data file format
VERSION 0.7
FIELDS x y z rgb
SIZE 4 4 4 4
TYPE F F F F
COUNT 1 1 1 1
WIDTH 963
HEIGHT 1
VIEWPOINT 0 0 0 1 0 0 0
POINTS 963
DATA ascii
-0.0153 -0.10418575 0.76500005 1.934379e-39
-0.013806667 -0.10391338 0.76299995 1.9350937e-39
-0.012320953 -0.10364097 0.76100004 1.9350979e-39
-0.010857144 -0.10350478 0.76000005 2.1191318e-39
-0.0093847644 -0.10323244 0.75800002 2.211326e-39
-0.0079619056 -0.10350478 0.76000005 2.2116862e-39
-0.0065142862 -0.10350475 0.75999999 2.1191276e-39
-0.0050533335 -0.10323242 0.75800002 2.0269292e-39
-0.0036000004 -0.10296005 0.75599998 1.934742e-39
-0.0021571433 -0.10282385 0.75500005 1.9340315e-39
-0.00071714283 -0.10255147 0.75299996 1.8418443e-39
0.00071619067 -0.10241527 0.75199997 2.9449534e-39
0.0021428573 -0.10214287 0.75 4.0484073e-39
0.0035714293 -0.10214289 0.75 3.2218822e-39
0.0050000004 -0.1021429 0.75 2.3035287e-39
0.0064457152 -0.10241527 0.75200003 2.0273061e-39
0.0078571429 -0.10214287 0.75 1.6592439e-39
0.0093104774 -0.10241526 0.75199997 1.8418373e-39
0.010714286 -0.10214288 0.75 1.9358294e-39
0.012142858 -0.1021429 0.75 2.0280292e-39
0.013571429 -0.10214292 0.75 2.1209353e-39
0.015000002 -0.10214289 0.75 2.3046007e-39
0.016428573 -0.10214292 0.75 2.4879199e-39
0.017857146 -0.10214287 0.75 2.5794051e-39
0.019285714 -0.10214289 0.75 2.6697903e-39
0.020714289 -0.1021429 0.75 1.3822842e-39
0.022201909 -0.10241526 0.75199997 9.8036242e-41
0.023665713 -0.10255142 0.75299996 2.9549937e-39
0.026710477 -0.10323241 0.75799996 1.1068928e-38
0.028228572 -0.10350476 0.76000005 1.6227532e-38
0.029793333 -0.10391338 0.76299995 1.973202e-38
0.031246668 -0.10391336 0.76299995 2.3130284e-38
0.032614287 -0.10364099 0.76100004 2.2671098e-38
-0.019722858 -0.10299714 0.76700002 1.5670693e-39
-0.018261908 -0.10299712 0.76699996 1.4762974e-39
-0.016800955 -0.10299715 0.76700002 1.8429079e-39
-0.015260001 -0.10246004 0.76299995 2.1184059e-39
-0.013716191 -0.1017886 0.75799996 1.9347265e-39
-0.012240001 -0.10152006 0.75600004 1.8421806e-39
-0.0108 -0.10152003 0.75599998 1.8429051e-39
-0.0093228575 -0.10111716 0.75299996 1.9351035e-39
-0.0078885714 -0.10111714 0.75299996 1.8439883e-39
-0.0064542862 -0.10111716 0.75299996 1.7510682e-39
-0.0050133336 -0.10098287 0.75199997 1.7503423e-39
-0.0035809525 -0.10098289 0.75199997 1.7496346e-39
-0.0021485717 -0.10098287 0.75199997 1.8411212e-39
-0.00071428565 -0.10071433 0.75 1.9322505e-39
0.00071238098 -0.10044574 0.74800003 2.4850669e-39
0.0021285715 -0.10004289 0.745 3.0375036e-39
0.0035380959 -0.099774323 0.74299997 2.7619859e-39
0.0049666674 -0.10004292 0.74500006 2.4857633e-39
0.0063685724 -0.099774286 0.74299997 2.1184228e-39
0.0078047626 -0.10004291 0.745 1.8418345e-39
0.0092238104 -0.10004293 0.74500006 2.0265747e-39
0.01067143 -0.10031141 0.74699998 2.1198563e-39
0.012061905 -0.10004291 0.745 2.0291082e-39
0.013517144 -0.10031144 0.74699998 1.937979e-39
0.014940001 -0.10031147 0.74699998 2.1198437e-39
0.016319048 -0.10004292 0.745 2.3942824e-39
0.017738098 -0.10004292 0.74500006 2.5786778e-39
0.019208573 -0.10031142 0.74699998 2.7626908e-39
0.020576192 -0.10004289 0.745 2.0254788e-39
0.022054287 -0.10031144 0.74699998 1.2886341e-39
0.023508575 -0.10044573 0.74799997 2.2137965e-39
0.025000004 -0.10071433 0.75 3.0464873e-39
0.02649905 -0.10098289 0.75199997 7.7466708e-39
0.028042858 -0.10138576 0.75500005 1.235607e-38
0.029520001 -0.10152003 0.75599998 1.6504855e-38
0.030960003 -0.10152005 0.75600004 2.0741845e-38
0.032571431 -0.10205717 0.76000005 2.1569442e-38
0.034153339 -0.10246004 0.76299995 2.2488502e-38
0.035606671 -0.10246003 0.76299995 2.2304458e-38
-0.022674287 -0.10166857 0.76800001 3.5841894e-39
-0.021183813 -0.10153617 0.76699996 2.2077415e-39
-0.019671427 -0.10127144 0.76499999 1.6581719e-39
-0.018214289 -0.10127147 0.76500005 1.1078652e-39
-0.016713336 -0.10100671 0.76299995 1.7510612e-39
-0.015200001 -0.10060953 0.75999999 2.3020685e-39
-0.013716191 -0.10034479 0.75799996 2.0265564e-39
-0.012240001 -0.10008003 0.75599998 1.6592201e-39
-0.010757145 -0.09968289 0.75299996 1.6581509e-39
-0.0093104774 -0.09955053 0.75200003 1.6592313e-39
-0.0078780949 -0.099550501 0.75199997 1.5691936e-39
-0.0064457147 -0.099550515 0.75199997 1.3840835e-39
-0.0050133336 -0.099550493 0.75199997 1.4741211e-39
-0.0035714288 -0.099285759 0.75 1.4741296e-39
-0.0021371427 -0.099020965 0.74800003 1.7485682e-39
-0.00071142858 -0.098888576 0.74699998 1.9329609e-39
0.00070952391 -0.098623872 0.745 2.0248006e-39
0.0021228574 -0.098359063 0.74300003 2.0262327e-39
0.0035380956 -0.098359048 0.74299997 2.3024525e-39
0.0049533336 -0.098359056 0.74300003 2.5783177e-39
0.0063600009 -0.098226674 0.74200004 2.3020924e-39
0.0077838101 -0.098359033 0.74299997 2.0273005e-39
0.0091990493 -0.098359048 0.74300003 2.2109687e-39
0.010614286 -0.098359071 0.74299997 2.3042447e-39
0.012029525 -0.098359063 0.74300003 2.0298201e-39
0.013444763 -0.098359048 0.74299997 1.7532304e-39
0.014900001 -0.098623872 0.74500006 2.0265775e-39
0.016275236 -0.098359086 0.74300003 2.2106114e-39
0.017690478 -0.098359041 0.74299997 2.4861235e-39
0.019105714 -0.098359041 0.74300003 2.7619803e-39
0.020520952 -0.098359063 0.74300003 2.6687029e-39
0.022054289 -0.098888583 0.74699998 2.4843102e-39
0.023508573 -0.099021003 0.74799997 1.3819227e-39
0.024933336 -0.099020995 0.74800003 2.8460092e-40
0.026428573 -0.099285744 0.75 4.4233387e-39
0.027931431 -0.099550501 0.75199997 8.4885364e-39
0.029480956 -0.099947609 0.75500005 1.3373079e-38
0.030960001 -0.10008002 0.75599998 1.8254016e-38
0.032400005 -0.10008005 0.75599998 2.0559613e-38
0.034019053 -0.10060952 0.75999999 2.2764364e-38
0.035606671 -0.1010067 0.76300001 2.2488481e-38
0.037060011 -0.10100669 0.76299995 2.2212987e-38
-0.022674289 -0.10020574 0.76800001 3.5899347e-39
-0.021128574 -0.099814311 0.76499999 2.2988554e-39
-0.019671429 -0.099814333 0.76500005 1.932228e-39
-0.018166671 -0.099553369 0.76299995 1.6574292e-39
-0.016669525 -0.099292412 0.76100004 1.7496136e-39
-0.01512 -0.098640047 0.75599998 1.9340007e-39
-0.013661906 -0.09850952 0.75500005 1.6592088e-39
-0.01219143 -0.098248601 0.75299996 1.3847842e-39
-0.010742858 -0.098118126 0.75199997 1.4755477e-39
-0.0092857154 -0.0978572 0.75 1.6585068e-39
-0.007857142 -0.097857147 0.75 1.6595886e-39
-0.0064285719 -0.097857177 0.75 1.6606648e-39
-0.0049866675 -0.097596236 0.74800003 1.6588697e-39
-0.0035619049 -0.097596213 0.74800003 1.7499962e-39
-0.0021285715 -0.097204819 0.745 1.8418387e-39
-0.0007095238 -0.097204834 0.74500006 1.9340315e-39
0.00070666685 -0.096813351 0.74199998 1.8421932e-39
0.0021200001 -0.096813351 0.74200004 1.8425561e-39
0.0035333338 -0.096813351 0.74200004 2.1198605e-39
0.0049466668 -0.096813336 0.74199998 2.3964404e-39
0.0063428581 -0.096552402 0.73999989 2.2120491e-39
0.0077523817 -0.096552402 0.73999995 2.0298145e-39
0.0091866683 -0.096813373 0.74200004 2.029097e-39
0.01057143 -0.096552417 0.73999995 2.12165e-39
0.011980954 -0.096552417 0.73999995 2.029097e-39
0.013372382 -0.096421905 0.73899996 1.9365412e-39
0.014800001 -0.096552402 0.73999995 2.1191332e-39
0.016209522 -0.096552409 0.73999995 2.3942838e-39
0.017619049 -0.096552402 0.73999989 2.5783149e-39
0.019080004 -0.096813358 0.74200004 2.7627062e-39
0.020520952 -0.096943796 0.74299997 2.4857661e-39
0.021936191 -0.096943811 0.74299997 2.3017378e-39
0.023351429 -0.096943825 0.74300003 1.4734247e-39
0.024900002 -0.097465746 0.74699998 7.3552335e-40
0.026358096 -0.097596228 0.74800003 3.9659185e-39
0.027857147 -0.097857192 0.75 7.2914071e-39
0.029363813 -0.098118134 0.75199997 1.190008e-38
0.030796193 -0.098118156 0.75200003 1.6504816e-38
0.032357149 -0.09850955 0.75500005 1.8715012e-38
0.033929531 -0.098901019 0.75800002 2.1020922e-38
0.035700005 -0.099814288 0.76499999 2.1662313e-38
-0.022644766 -0.09861429 0.76700002 3.5920787e-39
-0.021128574 -0.098357186 0.76500005 2.3917558e-39
-0.019619999 -0.098100036 0.76299995 2.2977637e-39
-0.018095242 -0.097714305 0.75999999 2.1147976e-39
-0.016603813 -0.097457185 0.75799996 1.8399974e-39
-0.0151 -0.097071439 0.75500005 1.5662915e-39
-0.013625715 -0.096814305 0.75299996 1.3837052e-39
-0.01217524 -0.096685767 0.75199997 1.1082085e-39
-0.010714287 -0.096428633 0.75 1.3837248e-39
-0.0092857154 -0.096428603 0.75 1.5666769e-39
-0.0078361901 -0.096171454 0.74800003 1.7499878e-39
-0.006411429 -0.096171439 0.74799997 1.9347378e-39
-0.0049866675 -0.096171454 0.74800003 1.9343804e-39
-0.003557143 -0.096042864 0.74699998 1.9343888e-39
-0.0021228576 -0.095528558 0.74299997 1.9343972e-39
-0.00070666673 -0.095400035 0.74200004 1.9343902e-39
0.00070476206 -0.095142901 0.73999995 1.7507136e-39
0.0021200003 -0.09540002 0.74199998 1.5681301e-39
0.0035238101 -0.095142871 0.73999995 1.8465176e-39
0.0049333335 -0.095142871 0.73999995 2.1209409e-39
0.0063342871 -0.095014259 0.73899996 2.0280222e-39
0.0077419053 -0.095014274 0.73900002 1.9365454e-39
0.0091619063 -0.095142871 0.73999995 1.9379804e-39
0.010557144 -0.095014311 0.73900002 1.9372629e-39
0.011964763 -0.095014274 0.73899996 2.0283823e-39
0.013336192 -0.094757155 0.73699999 2.0276551e-39
0.014780001 -0.095014289 0.73900002 2.3024357e-39
0.016187618 -0.095014289 0.73900002 2.5779464e-39
0.017619049 -0.095142871 0.73999995 2.6694287e-39
0.019080004 -0.095400028 0.74200004 2.670149e-39
0.020493334 -0.09540005 0.74200004 2.3939278e-39
0.021936191 -0.095528588 0.74300003 2.0265901e-39
0.023351429 -0.095528573 0.74299997 1.5656231e-39
0.024900002 -0.096042849 0.74699998 1.107875e-39
0.026358098 -0.096171454 0.74799997 3.5963961e-39
0.027857145 -0.096428603 0.75 6.0021159e-39
0.029285718 -0.096428603 0.75 1.0338532e-38
0.030796193 -0.096685775 0.75199997 1.4661995e-38
0.032228578 -0.096685752 0.75199997 1.695826e-38
0.033660963 -0.096685767 0.75199997 1.917595e-38
0.035700005 -0.098357186 0.76500005 2.0836886e-38
-0.022585716 -0.096900046 0.76500005 4.2331237e-39
-0.021073336 -0.096646696 0.76299995 4.0411962e-39
-0.019568574 -0.096393369 0.76100004 3.1289327e-39
-0.018047623 -0.096013367 0.75799996 2.2051842e-39
-0.016560003 -0.095760033 0.75599998 2.0229341e-39
-0.015060002 -0.095380031 0.75299996 1.8414323e-39
-0.01360762 -0.095253371 0.75199997 1.5663014e-39
-0.012142858 -0.095000021 0.75 1.2908103e-39
-0.010714287 -0.095000044 0.75 1.5666909e-39
-0.0092609543 -0.094746709 0.74800003 1.8418303e-39
-0.0078047626 -0.094366737 0.745 1.8418219e-39
-0.0063857143 -0.094366699 0.745 1.8421862e-39
-0.0049533336 -0.094113372 0.74300003 1.8425491e-39
-0.0035380959 -0.094113328 0.74299997 1.9347518e-39
-0.0021142862 -0.093733333 0.73999989 1.8425659e-39
-0.00070476194 -0.093733355 0.73999989 1.8421974e-39
0.00070380967 -0.093606666 0.73899996 1.6588739e-39
0.0021114289 -0.093606681 0.73899996 1.5674168e-39
0.0035190478 -0.093606681 0.73900002 1.7525409e-39
0.0049266675 -0.093606681 0.73900002 1.9369182e-39
0.0063171438 -0.093353331 0.73699999 1.935472e-39
0.0077209529 -0.093353339 0.73699999 2.0258712e-39
0.0091247642 -0.093353339 0.73700005 2.0280222e-39
0.010528574 -0.093353309 0.73699999 1.9361895e-39
0.011916192 -0.093226671 0.736 1.8439967e-39
0.013318096 -0.093226679 0.736 1.8429051e-39
0.014740004 -0.093353346 0.73699999 2.210589e-39
0.016143808 -0.093353294 0.73699999 2.5779394e-39
0.017595239 -0.093606651 0.73899996 2.853813e-39
0.019002859 -0.093606651 0.73899996 3.1293237e-39
0.020438097 -0.09373337 0.73999995 2.579031e-39
0.021906668 -0.09398672 0.74200004 2.0291012e-39
0.023414286 -0.094366714 0.74500006 1.7514493e-39
0.024900002 -0.094620012 0.74699998 1.3808577e-39
0.026358098 -0.094746694 0.74800003 3.7807565e-39
0.027782861 -0.094746679 0.74799997 6.1793227e-39
0.029285718 -0.095000036 0.75 1.0885972e-38
0.030714288 -0.095000029 0.75 1.5581413e-38
0.032142859 -0.095000006 0.75 1.7238032e-38
0.033481911 -0.094746694 0.74800003 1.8990115e-38
-0.022585716 -0.095442891 0.76499999 4.967079e-39
-0.021073334 -0.095193356 0.76299995 5.7125235e-39
-0.019542858 -0.094819054 0.75999999 4.0630719e-39
-0.018000005 -0.094320029 0.75599998 2.3081291e-39
-0.016538097 -0.094195232 0.75500005 2.2044331e-39
-0.015 -0.093571454 0.75 2.1151367e-39
-0.013571429 -0.093571454 0.75 1.8410946e-39
-0.012110477 -0.093321934 0.74800003 1.4741183e-39
-0.010685716 -0.093321905 0.74799997 1.8418275e-39
-0.0092238113 -0.092947647 0.745 2.1176899e-39
-0.0077733332 -0.092573352 0.74199998 1.9336574e-39
-0.0063428581 -0.092323862 0.73999995 1.658511e-39
-0.004933333 -0.092323825 0.73999989 1.8429023e-39
-0.0035238098 -0.092323825 0.73999995 1.9347364e-39
-0.0021057148 -0.091949522 0.73699999 1.8425407e-39
-0.00070190488 -0.09194953 0.73699999 1.658511e-39
0.00070190488 -0.091949537 0.73699999 1.6581523e-39
0.0021057145 -0.091949537 0.73699999 1.5663294e-39
0.0035095245 -0.091949515 0.73699999 1.6588964e-39
0.0049133343 -0.091949515 0.73699999 1.659967e-39
0.0063085719 -0.091824792 0.736 1.9351091e-39
0.0077104769 -0.091824792 0.73600006 2.1194976e-39
0.0091123823 -0.091824763 0.736 2.0276607e-39
0.010485716 -0.091575295 0.73399997 1.9354734e-39
0.01188381 -0.09157528 0.73400003 1.7521682e-39
0.013281907 -0.09157531 0.73399997 1.5677657e-39
0.014680003 -0.091575302 0.73400003 2.0269292e-39
0.016078094 -0.091575272 0.73399997 2.4864682e-39
0.01752381 -0.09182477 0.736 3.0382028e-39
0.018925719 -0.091824755 0.73600006 3.5892116e-39
0.02032762 -0.091824792 0.736 2.8552409e-39
0.021729527 -0.09182477 0.73600006 2.0294515e-39
0.023257144 -0.092323869 0.73999995 1.8461533e-39
0.024766669 -0.092698105 0.74299997 1.6617466e-39
0.026322857 -0.093197137 0.74699998 3.9665827e-39
0.027745714 -0.093197145 0.74699998 6.2747553e-39
0.029207623 -0.093321949 0.74800003 1.1444536e-38
0.03063238 -0.093321919 0.74799997 1.6503381e-38
0.032057147 -0.093321949 0.74800003 1.7605408e-38
0.033437144 -0.093197159 0.74699998 1.8715339e-38
-0.023980003 -0.093740009 0.76299989 7.0854022e-39
-0.02252667 -0.093740016 0.76299995 8.2006803e-39
-0.021018099 -0.093494311 0.76100004 9.319931e-39
-0.019542858 -0.093371421 0.75999999 8.6688373e-39
-0.018000005 -0.09288004 0.75599998 8.1063112e-39
-0.016538097 -0.092757165 0.75500005 5.0667379e-39
-0.014960001 -0.09189716 0.74800003 2.022218e-39
-0.013517144 -0.0917743 0.74699998 1.9314994e-39
-0.012061906 -0.091528602 0.745 1.8407401e-39
-0.010614287 -0.091282882 0.74300003 1.8414561e-39
-0.0091619063 -0.090914294 0.73999989 1.750701e-39
-0.0077419057 -0.090791412 0.73899996 1.6581509e-39
-0.0063342866 -0.090791412 0.73899996 1.5659552e-39
-0.0049266671 -0.090791419 0.73900002 1.6592243e-39
-0.003509524 -0.090545729 0.73700005 1.7514073e-39
-0.0021028572 -0.090422891 0.73600006 1.7506786e-39
-0.00070095237 -0.090422884 0.73600006 1.7506898e-39
0.0007009526 -0.090422869 0.736 1.6574306e-39
0.0021028572 -0.090422854 0.736 1.5645259e-39
0.0034952387 -0.090177208 0.73399997 1.5659678e-39
0.0048933337 -0.090177201 0.73400003 1.5674042e-39
0.0062914295 -0.090177193 0.73399997 2.1191346e-39
0.0076685715 -0.089931421 0.73199999 2.6723e-39
0.0090628583 -0.089931414 0.73200005 2.2109701e-39
0.010442859 -0.089808621 0.73100001 1.8422058e-39
0.01183524 -0.089808621 0.73100001 2.118441e-39
0.01322762 -0.089808591 0.73099995 2.3939349e-39
0.014640003 -0.089931458 0.73200005 2.3939222e-39
0.01601238 -0.089808598 0.73099995 2.4857577e-39
0.017476192 -0.090177178 0.73399997 2.8541745e-39
0.018874289 -0.090177193 0.73399997 3.2222214e-39
0.02027238 -0.090177201 0.73399997 2.6715545e-39
0.021611432 -0.089931428 0.73200005 2.2134742e-39
0.022974286 -0.089808613 0.73100001 1.9365524e-39
0.024633335 -0.090791419 0.73899996 1.565965e-39
0.026181906 -0.091282859 0.74299997 3.4101915e-39
0.02767143 -0.091528632 0.74500006 5.2534539e-39
0.029168574 -0.091774307 0.74699998 1.0795606e-38
0.030591432 -0.091774322 0.74699998 1.6331214e-38
0.032014284 -0.091774285 0.74699998 1.7612615e-38
0.033347625 -0.091528639 0.74500006 1.8900817e-38
-0.023980003 -0.092286684 0.76299995 9.9510184e-39
-0.022526668 -0.092286721 0.76299995 1.1430445e-38
-0.020935243 -0.091681942 0.75799996 1.2811925e-38
-0.019440001 -0.091440037 0.75599998 1.3369396e-38
-0.017976195 -0.091319084 0.75500005 1.3815972e-38
-0.016494289 -0.091077179 0.75299996 7.9345078e-39
-0.014940001 -0.090351418 0.74699998 1.9386558e-39
-0.013517144 -0.090351418 0.74699998 2.1133585e-39
-0.012029525 -0.089867607 0.74299997 2.2077107e-39
-0.010600002 -0.089746684 0.74199998 1.8410918e-39
-0.0091495253 -0.089383826 0.73900002 1.3829933e-39
-0.0077419048 -0.089383788 0.73899996 1.3826388e-39
-0.0063171438 -0.089141905 0.73699999 1.3833562e-39
-0.0049133333 -0.089141913 0.73699999 1.4759092e-39
-0.0035047624 -0.089020982 0.73600006 1.4751847e-39
-0.0020971431 -0.088779077 0.73399997 1.6574138e-39
-0.00069904758 -0.088779092 0.73399997 1.7492549e-39
0.00069904781 -0.088779099 0.73399997 1.6559915e-39
0.0020914287 -0.088537142 0.73200005 1.4726862e-39
0.0034809527 -0.088416211 0.73100001 1.4734107e-39
0.004873334 -0.088416219 0.73100001 1.4744925e-39
0.0062742867 -0.088537171 0.73200005 2.3013777e-39
0.0076580956 -0.088416226 0.73100001 3.1289663e-39
0.0090257162 -0.088174321 0.72899997 2.3932006e-39
0.010400002 -0.088053398 0.72799999 1.6585222e-39
0.011754287 -0.08781144 0.72599995 2.3935705e-39
0.01319143 -0.088174298 0.72899997 3.1289649e-39
0.014620002 -0.088416226 0.73099995 2.7608971e-39
0.015946668 -0.088053368 0.72799999 2.3942796e-39
0.017404763 -0.088416226 0.73100001 2.5783149e-39
0.018797144 -0.088416241 0.73100001 2.7623334e-39
0.020217145 -0.088537142 0.73199999 2.5782925e-39
0.021581907 -0.088416196 0.73099995 2.395353e-39
0.022974286 -0.088416211 0.73099995 1.9361895e-39
0.024400001 -0.088537157 0.73200005 1.4759232e-39
0.025970479 -0.08914189 0.73699999 2.8552367e-39
0.027560003 -0.089746699 0.74199998 4.1535622e-39
0.028973339 -0.089746661 0.74199998 1.0153436e-38
0.030427622 -0.089867622 0.74299997 1.613642e-38
0.031842858 -0.089867637 0.74300003 1.7613007e-38
0.033258103 -0.089867599 0.74299997 1.8996635e-38
0.034766678 -0.090109557 0.745 2.1212881e-38
0.043920014 -0.091440052 0.75599998 1.9009578e-38
0.045360006 -0.091440022 0.75599998 2.3417686e-38
0.046800006 -0.091440037 0.75599998 2.341769e-38
-0.020935241 -0.090238154 0.75800002 1.2995329e-38
-0.019414287 -0.089880958 0.75500005 1.2450053e-38
-0.017904762 -0.089523822 0.75199997 1.1894318e-38
-0.016384764 -0.08904767 0.74800003 6.4497775e-39
-0.0149 -0.088690534 0.74500006 1.0106375e-39
-0.013444763 -0.088452369 0.74299997 1.4722854e-39
-0.012013334 -0.088333368 0.74200004 1.9339853e-39
-0.010557146 -0.087976202 0.73900002 1.6588487e-39
-0.0091247624 -0.087738112 0.73700005 1.3837052e-39
-0.0077209524 -0.087738067 0.73699999 1.4759036e-39
-0.0063085724 -0.087619074 0.73600006 1.659576e-39
-0.0049066665 -0.087619081 0.73600006 1.6599347e-39
-0.0034952387 -0.087381035 0.73399997 1.567379e-39
-0.0020914287 -0.087142892 0.73200005 1.6577767e-39
-0.00069714291 -0.087142847 0.73199999 1.8407316e-39
0.00069714303 -0.087142847 0.73200005 1.6563446e-39
0.0020885717 -0.087023854 0.73099995 1.4719645e-39
0.0034714288 -0.086785741 0.72899997 1.3808535e-39
0.0048533343 -0.086666733 0.72800004 1.1982699e-39
0.0062485724 -0.086785749 0.72899997 1.9340413e-39
0.0076266667 -0.086666703 0.72799999 2.7612656e-39
0.0089885732 -0.08642859 0.72599995 2.1184045e-39
0.010357143 -0.086309522 0.72499996 1.5666741e-39
0.011738095 -0.086309537 0.72499996 2.2105988e-39
0.013137145 -0.08642859 0.72599995 2.7626851e-39
0.014560003 -0.086666703 0.72800004 2.5782939e-39
0.015902858 -0.086428568 0.72599995 2.3035189e-39
0.017285718 -0.086428553 0.72599995 2.5786792e-39
0.018668575 -0.08642856 0.72599995 2.761623e-39
0.020134285 -0.086785749 0.72899997 2.6697763e-39
0.021581905 -0.087023832 0.73099995 2.4857549e-39
0.022911428 -0.086785764 0.72899997 2.2102569e-39
0.0243 -0.086785756 0.72899997 2.02586e-39
0.025935242 -0.087619051 0.736 2.3006392e-39
0.027374286 -0.087738089 0.73699999 2.5758388e-39
0.028856192 -0.08797618 0.73899996 8.5789188e-39
0.030386668 -0.088333338 0.74199998 1.4570191e-38
0.031799998 -0.088333346 0.74199998 1.6136498e-38
0.033258099 -0.088452369 0.74300003 1.761627e-38
0.034673337 -0.088452399 0.74300003 2.0566844e-38
0.036185723 -0.088690557 0.745 2.3417659e-38
0.037705723 -0.088928573 0.74699998 2.2585728e-38
0.04392001 -0.090000011 0.75599998 1.8263064e-38
0.045360006 -0.090000033 0.75599998 2.341769e-38
0.046800006 -0.090000048 0.75600004 2.341769e-38
-0.020852383 -0.088442862 0.75500005 1.3090738e-38
-0.019337144 -0.08809147 0.75199997 1.1541016e-38
-0.017809527 -0.087622926 0.74800003 9.8538159e-39
-0.016362859 -0.087505706 0.74699998 4.9595498e-39
-0.014860001 -0.087037139 0.74299997 9.4411083e-41
-0.013390478 -0.086685725 0.73999995 8.3088031e-40
-0.011964763 -0.086568579 0.73900002 1.567002e-39
-0.010528571 -0.086334296 0.73699999 1.4766056e-39
-0.0091123814 -0.086217165 0.73600006 1.2929403e-39
-0.0076895244 -0.085982919 0.73399997 1.660648e-39
-0.0062914295 -0.085982919 0.73399997 1.9357957e-39
-0.0048933337 -0.085982934 0.73399997 1.8443204e-39
-0.0034857146 -0.085748598 0.73200005 1.6592102e-39
-0.0020885717 -0.08563146 0.73100001 1.749608e-39
-0.00069619052 -0.085631475 0.73100001 1.840726e-39
0.00069428573 -0.085397169 0.72899997 1.656339e-39
0.0020800002 -0.085280031 0.72799999 1.4719575e-39
0.0034666667 -0.085280046 0.72799999 1.1964595e-39
0.0048400005 -0.085045725 0.72600001 9.2203617e-40
0.0062228576 -0.08504574 0.72599995 1.6581607e-39
0.0076057152 -0.085045703 0.72599995 2.3024329e-39
0.0089761922 -0.084928609 0.72500002 1.9354384e-39
0.010328573 -0.084694296 0.72299999 1.4762665e-39
0.011705715 -0.084694289 0.72299999 1.9361671e-39
0.013082858 -0.084694289 0.72299999 2.3946215e-39
0.014500001 -0.084928602 0.72500002 2.3024217e-39
0.01588095 -0.084928602 0.72500002 2.2113162e-39
0.017261904 -0.084928617 0.72500002 2.4879129e-39
0.018642858 -0.084928617 0.72500002 2.7619775e-39
0.020051427 -0.085045725 0.72599995 2.6697763e-39
0.021522859 -0.085397169 0.72899997 2.5775862e-39
0.022879999 -0.085280046 0.72799999 2.576873e-39
0.024200002 -0.085045733 0.72599995 2.4843116e-39
0.025688574 -0.085397154 0.72899997 1.7460319e-39
0.027262859 -0.085982919 0.73399997 1.022166e-39
0.028778097 -0.086334266 0.73699999 7.0159217e-39
0.030304762 -0.086685762 0.73999995 1.3000362e-38
0.031714287 -0.086685725 0.73999989 1.4654901e-38
0.033258103 -0.087037124 0.74299997 1.6234776e-38
0.034673341 -0.087037124 0.74299997 1.9836106e-38
0.036088582 -0.087037154 0.74299997 2.3416572e-38
0.037604772 -0.087271497 0.74500006 2.2127604e-38
0.039285716 -0.087857164 0.75 2.0721349e-38
0.040822864 -0.088091485 0.75199997 1.6076457e-38
0.042311437 -0.088208608 0.75299996 1.152995e-38
0.043861911 -0.088442877 0.75500005 1.7540218e-38
0.045360003 -0.088560045 0.75599998 2.341769e-38
0.04680001 -0.088560052 0.75600004 2.341769e-38
-0.020852385 -0.087004796 0.75500005 1.0148042e-38
-0.019234287 -0.086198099 0.74799997 7.5605111e-39
-0.017785717 -0.086082891 0.74699998 4.9595988e-39
-0.016319051 -0.085852459 0.745 2.8483549e-39
-0.0148 -0.085276216 0.73999995 7.3938953e-40
-0.013372381 -0.085160956 0.73899996 1.10747e-39
-0.011932382 -0.084930457 0.73699999 1.4755252e-39
-0.010514286 -0.084815271 0.73600006 1.4762385e-39
-0.0090876194 -0.084584802 0.73399997 1.476607e-39
-0.0076685725 -0.084354289 0.73199999 1.6602864e-39
-0.0062742867 -0.084354281 0.73200005 1.9361517e-39
-0.0048800004 -0.084354289 0.73200005 1.9354342e-39
-0.0034809527 -0.084239088 0.73100001 1.9339965e-39
-0.0020828571 -0.084008597 0.72899997 1.8410806e-39
-0.00069428573 -0.084008612 0.72899997 1.8400044e-39
0.00069333345 -0.083893389 0.72800004 1.7478087e-39
0.0020714286 -0.083547622 0.72499996 1.56307e-39
0.0034523816 -0.083547629 0.72500002 1.3797661e-39
0.0048200004 -0.083317161 0.72299999 1.1049785e-39
0.0061971438 -0.083317161 0.72299999 2.0254872e-39
0.0075638099 -0.083201945 0.722 2.8541493e-39
0.0089390492 -0.083201952 0.72200006 2.3024076e-39
0.010314287 -0.08320196 0.722 1.8439602e-39
0.011689524 -0.08320196 0.722 2.0265662e-39
0.013064764 -0.08320196 0.722 2.2091526e-39
0.014460002 -0.083317176 0.72299999 2.1183835e-39
0.015837142 -0.083317176 0.72299999 2.1183975e-39
0.017214287 -0.083317176 0.72299999 2.3946341e-39
0.018591432 -0.083317168 0.72299999 2.6694203e-39
0.019968573 -0.083317161 0.72299999 2.670135e-39
0.021493334 -0.083893411 0.72800004 2.670135e-39
0.022817142 -0.083662875 0.72599995 2.3942684e-39
0.024200002 -0.083662868 0.72600001 2.0272781e-39
0.025582861 -0.083662882 0.72599995 1.3833464e-39
0.026965715 -0.083662875 0.72600001 7.3983935e-40
0.028739052 -0.084815271 0.73600006 6.2726281e-39
0.030263809 -0.085160941 0.73900002 1.1719671e-38
0.03171429 -0.085276231 0.73999995 1.429506e-38
0.03321334 -0.085506678 0.74199998 1.6872226e-38
0.034626674 -0.085506685 0.74200004 2.019699e-38
0.036088578 -0.085621879 0.74299997 2.3416919e-38
0.037604775 -0.085852437 0.745 2.0094286e-38
0.039180957 -0.086198136 0.74800003 1.6680227e-38
0.04082286 -0.086659081 0.75200003 1.6010828e-38
0.042311437 -0.08677429 0.75299996 1.5398171e-38
0.043861911 -0.087004766 0.75500005 1.9369395e-38
0.045300007 -0.087004781 0.75500005 2.341769e-38
-0.019234287 -0.084773369 0.74799997 3.59282e-39
-0.01769048 -0.084206685 0.74299997 9.5143962e-41
-0.016275238 -0.084206641 0.74299997 7.3508754e-40
-0.014780001 -0.083753318 0.73899996 1.3815331e-39
-0.013336191 -0.083526686 0.73699999 1.383338e-39
-0.011835239 -0.082846701 0.73099995 1.3833352e-39
-0.010414287 -0.082620047 0.72899997 1.4755266e-39
-0.0090257153 -0.082619995 0.72899997 1.5677307e-39
-0.0076371431 -0.08262001 0.72899997 1.7514101e-39
-0.0062400005 -0.082506731 0.72800004 1.9354426e-39
-0.0048533338 -0.082506724 0.72800004 2.0269222e-39
-0.0034666671 -0.082506739 0.72800004 2.1176759e-39
-0.002071429 -0.082166702 0.72500002 2.02476e-39
-0.00069047627 -0.082166702 0.72500002 1.8407331e-39
0.00068476202 -0.081486687 0.71899998 1.7481829e-39
0.0020542862 -0.081486695 0.71899998 1.6552712e-39
0.0034238102 -0.081486687 0.71899998 1.4708827e-39
0.0048000002 -0.081599995 0.72000003 1.2893655e-39
0.0061371434 -0.081146672 0.71600002 2.3924705e-39
0.0074800006 -0.080920033 0.71400005 3.403733e-39
0.0088771442 -0.081260048 0.71699995 2.7601628e-39
0.010242858 -0.081260048 0.71699995 2.1180416e-39
0.011640953 -0.081486702 0.71900004 2.0254985e-39
0.012974288 -0.081260063 0.71700001 1.9340147e-39
0.014340002 -0.081260078 0.71700001 2.026562e-39
0.015749525 -0.081486702 0.71900004 2.0276466e-39
0.017119046 -0.081486702 0.71900004 2.3024455e-39
0.018488573 -0.081486702 0.71899998 2.4871927e-39
0.019858092 -0.081486702 0.71899998 2.6708637e-39
0.021257143 -0.081599981 0.71999997 2.7626922e-39
0.022722859 -0.081940003 0.72299999 2.210596e-39
0.02406667 -0.081826702 0.722 1.5691754e-39
0.025441909 -0.081826702 0.722 1.0195918e-39
0.026854286 -0.081940018 0.72299999 4.6683277e-40
0.028231431 -0.081940018 0.72299999 5.4317383e-39
0.029608572 -0.08194001 0.72299999 1.0423201e-38
0.031585716 -0.083526649 0.73699999 1.4024578e-38
0.033213336 -0.084093347 0.74199998 1.7521173e-38
0.03462667 -0.084093355 0.74199998 2.0478954e-38
0.036040004 -0.084093355 0.74200004 2.3409023e-38
0.03750382 -0.084206678 0.74300003 1.8060625e-38
0.039128579 -0.084660001 0.74699998 1.2613288e-38
0.04071429 -0.085000053 0.75 1.5888171e-38
0.042255249 -0.085226715 0.75200003 1.9163082e-38
0.04368763 -0.085226692 0.75199997 2.1305474e-38
-0.02205429 -0.083237149 0.74699998 4.6970319e-39
-0.020576192 -0.083014317 0.745 4.041555e-39
-0.019105716 -0.082791448 0.74300003 2.2994775e-39
-0.01766667 -0.082680002 0.74199998 5.5140814e-40
-0.016209524 -0.082457177 0.73999995 9.2093615e-40
-0.014720001 -0.082011454 0.73600006 1.3829821e-39
-0.013245714 -0.081565723 0.73199999 1.5666517e-39
-0.011802857 -0.081231467 0.72899997 1.7503227e-39
-0.010400001 -0.081120037 0.72799999 1.4751735e-39
-0.0090133343 -0.081120029 0.72799999 1.2000356e-39
-0.0076057143 -0.080897138 0.72599995 1.4762679e-39
-0.0062142867 -0.080785729 0.72499996 1.7514213e-39
-0.0048333332 -0.080785729 0.72500002 1.9347378e-39
-0.0034523816 -0.080785744 0.72499996 2.0254915e-39
-0.0020628576 -0.080451474 0.722 2.0251257e-39
-0.00068476202 -0.080117173 0.71899998 2.024774e-39
0.00068285724 -0.079894342 0.71699995 2.2077331e-39
0.0020485716 -0.079894342 0.71699995 2.298484e-39
0.0034142861 -0.079894334 0.71699995 1.7481801e-39
0.0047733341 -0.079782844 0.71599996 1.1986048e-39
0.0061200005 -0.079560012 0.71399999 1.9336503e-39
0.0074695246 -0.079448588 0.71300006 2.6694133e-39
0.0088400003 -0.079560041 0.71400005 2.3020727e-39
0.010199999 -0.079560041 0.71400005 2.0265747e-39
0.01156 -0.079560027 0.71400005 1.8421946e-39
0.012920002 -0.079560027 0.71400005 1.7507136e-39
0.014280001 -0.079560034 0.71400005 1.8439799e-39
0.015640002 -0.079560012 0.71400005 1.9379734e-39
0.017071428 -0.079894342 0.71699995 1.937979e-39
0.018437143 -0.079894342 0.71699995 1.9386992e-39
0.019802855 -0.079894342 0.71699995 2.2134911e-39
0.021168571 -0.079894349 0.71699995 2.580819e-39
0.022628574 -0.080228545 0.71999997 2.3042223e-39
0.024000002 -0.080228582 0.72000003 2.0290704e-39
0.025336193 -0.080117173 0.71899998 1.4769756e-39
0.026742859 -0.080228575 0.72000003 9.2133692e-40
0.028192382 -0.080451466 0.722 4.4283414e-39
0.029567622 -0.080451481 0.722 8.037621e-39
0.030942859 -0.080451474 0.722 1.2547318e-38
0.032318097 -0.080451474 0.722 1.7055181e-38
0.034626674 -0.082680002 0.74200004 2.0195914e-38
0.036040004 -0.082680024 0.74199998 2.3413684e-38
0.037453342 -0.082680032 0.74200004 1.7856857e-38
0.03891905 -0.082791433 0.74299997 1.2405593e-38
0.040551435 -0.083237149 0.74699998 1.684745e-38
0.041974291 -0.083237164 0.74699998 2.1305446e-38
0.043397155 -0.083237126 0.74699998 2.24075e-38
0.044820011 -0.083237149 0.74699998 2.341769e-38
-0.023414288 -0.081595279 0.745 1.0523471e-40
-0.021936193 -0.081376217 0.74299997 5.5182433e-40
-0.020520955 -0.081376173 0.74299997 1.0120444e-39
-0.019080004 -0.081266709 0.74200004 1.0116506e-39
-0.017619051 -0.081047639 0.73999995 9.205536e-40
-0.016187619 -0.080938071 0.73899996 1.1056805e-39
-0.014720001 -0.08060956 0.73600006 1.2907837e-39
-0.013227619 -0.080061957 0.73100001 1.7499569e-39
-0.011786667 -0.079733394 0.72799999 2.1172933e-39
-0.010371428 -0.079514295 0.72599995 1.4740805e-39
-0.0089885723 -0.07951428 0.72599995 7.4084408e-40
-0.0075952387 -0.079404749 0.72499996 1.2014705e-39
-0.0061971438 -0.079185702 0.72299999 1.568095e-39
-0.0048133335 -0.079076223 0.722 1.7506898e-39
-0.0034380958 -0.079076216 0.722 1.9343594e-39
-0.0020542862 -0.07874766 0.71899998 2.1169542e-39
-0.00068285712 -0.078528635 0.71699995 2.2087939e-39
0.00068000006 -0.078200027 0.71400005 2.5750639e-39
0.0020399999 -0.078200035 0.71400005 2.9420331e-39
0.0034000007 -0.078200012 0.71400005 2.0240243e-39
0.0047600004 -0.07820002 0.71400005 1.106398e-39
0.0061114286 -0.078090481 0.713 1.5663056e-39
0.0074695242 -0.078090489 0.713 1.9340147e-39
0.0088276193 -0.078090467 0.713 1.9350993e-39
0.010185715 -0.078090474 0.713 1.8429051e-39
0.01154381 -0.078090496 0.71300006 1.7492759e-39
0.012901907 -0.078090504 0.713 1.5673972e-39
0.014260001 -0.078090481 0.71300006 1.6606648e-39
0.015618097 -0.078090481 0.713 1.753938e-39
0.017000001 -0.07820002 0.71399999 1.5720635e-39
0.01841143 -0.078419045 0.71600002 1.2951249e-39
0.019719999 -0.07820005 0.71400005 1.8472169e-39
0.02113905 -0.078419045 0.71599996 2.3049412e-39
0.022534288 -0.07852862 0.71699995 2.3963997e-39
0.023900002 -0.07852862 0.71699995 2.3967697e-39
0.025265716 -0.078528598 0.71699995 1.8457693e-39
0.026705712 -0.078747638 0.71900004 1.2947661e-39
0.028075241 -0.078747638 0.71900004 3.5056452e-39
0.029444767 -0.07874763 0.71900004 5.6362494e-39
0.030942859 -0.079076231 0.722 1.1163334e-38
0.03236286 -0.079185724 0.72299999 1.6600308e-38
0.033600006 -0.078857131 0.71999997 2.0019774e-38
0.036040004 -0.081266679 0.74200004 2.3301412e-38
0.037453342 -0.081266701 0.74200004 1.7730967e-38
0.038866669 -0.081266709 0.74200004 1.2242035e-38
0.040442865 -0.081595272 0.745 1.7881698e-38
0.041974295 -0.081814289 0.74699998 2.3411216e-38
0.043397155 -0.081814311 0.74699998 2.341769e-38
0.044820014 -0.081814274 0.74699998 2.341769e-38
-0.024900004 -0.080391437 0.74699998 5.89907e-39
-0.02341429 -0.080176249 0.74500006 5.5178789e-40
-0.021936195 -0.079960942 0.74299997 7.3651687e-40
-0.020493334 -0.079853356 0.74199998 1.0145387e-39
-0.019028574 -0.079638131 0.73999995 1.1049435e-39
-0.017619051 -0.079638094 0.73999989 1.1056693e-39
-0.016187619 -0.07953047 0.73899996 1.1063952e-39
-0.014640002 -0.078777172 0.73200005 1.19966e-39
-0.013191429 -0.078454331 0.72899997 1.4748022e-39
-0.011754286 -0.078131437 0.72599995 1.7499387e-39
-0.010357142 -0.078023843 0.72500002 1.4751385e-39
-0.0089761913 -0.078023836 0.72500002 1.2003677e-39
-0.0075742863 -0.077808604 0.72299999 1.384773e-39
-0.0061885719 -0.077700995 0.722 1.660634e-39
-0.0047999993 -0.077485703 0.71999997 1.8435833e-39
-0.0034285719 -0.077485695 0.71999997 2.027976e-39
-0.0020485714 -0.077162907 0.71699995 2.1187395e-39
-0.00068190484 -0.077055208 0.71599996 2.2105778e-39
0.00067904766 -0.07673239 0.713 2.3920978e-39
0.0020371433 -0.076732405 0.713 2.574317e-39
0.0033952389 -0.076732375 0.713 1.9321678e-39
0.004753334 -0.076732382 0.713 1.2896991e-39
0.0060942858 -0.07651718 0.71099997 1.5655839e-39
0.0074485722 -0.076517172 0.71099997 1.8411058e-39
0.0088028582 -0.076517172 0.71099997 1.9347504e-39
0.010157144 -0.076517224 0.71099997 2.0280124e-39
0.011511429 -0.076517202 0.71099997 1.935451e-39
0.012865716 -0.076517187 0.71099997 1.8439743e-39
0.014220001 -0.076517195 0.71099997 1.844333e-39
0.015574289 -0.07651718 0.71099997 1.8446917e-39
0.016976189 -0.076732412 0.713 2.0283627e-39
0.018334286 -0.07673239 0.71300006 2.1187661e-39
0.019692382 -0.076732397 0.713 2.3038748e-39
0.02099143 -0.076517195 0.71099997 2.3956879e-39
0.022440003 -0.076840036 0.71400005 2.2127119e-39
0.023866668 -0.077055238 0.71599996 2.0305039e-39
0.025265718 -0.077162936 0.71700001 2.0294557e-39
0.026594285 -0.077055216 0.71599996 2.1201996e-39
0.027997147 -0.077162914 0.71700001 2.9513672e-39
0.029362861 -0.077162914 0.71700001 3.7873272e-39
0.030814286 -0.077378109 0.71900004 9.9666064e-39
0.032228574 -0.077485695 0.71999997 1.6233685e-38
0.033600006 -0.077485688 0.71999997 1.9366519e-38
0.034971435 -0.077485695 0.71999997 2.248997e-38
0.036746673 -0.078346722 0.72799999 1.8320031e-38
0.038133342 -0.078346729 0.72799999 1.4173474e-38
0.039520007 -0.078346722 0.72800004 1.880438e-38
0.040906675 -0.078346737 0.72799999 2.3417684e-38
-0.02632286 -0.078968555 0.74699998 8.7571625e-39
-0.024900004 -0.078968577 0.74699998 4.8781077e-39
-0.02341429 -0.078757197 0.745 9.2523394e-40
-0.021936195 -0.078545742 0.74299997 1.0113269e-39
-0.020493334 -0.078440018 0.74199998 1.0131164e-39
-0.019002862 -0.078122862 0.73900002 1.1964244e-39
-0.017547622 -0.077911437 0.73699999 1.2893403e-39
-0.016121905 -0.077805728 0.736 1.1985866e-39
-0.014620001 -0.077277161 0.73099995 1.0159876e-39
-0.013173334 -0.076960057 0.72799999 1.2000132e-39
-0.011738096 -0.076642893 0.72499996 1.2911284e-39
-0.010328572 -0.076431423 0.72299999 1.475514e-39
-0.0089514302 -0.076431438 0.72299999 1.5673635e-39
-0.0075638099 -0.076325744 0.722 1.6599291e-39
-0.0061714295 -0.076114304 0.71999997 1.6595634e-39
-0.0047933334 -0.076008566 0.71899998 1.9347055e-39
-0.0034142858 -0.0757972 0.71699995 2.1187395e-39
-0.0020400002 -0.075480014 0.71399999 2.1187437e-39
-0.00067904766 -0.075374268 0.713 2.1180276e-39
0.00067714287 -0.07516291 0.71099997 2.208431e-39
0.0020314287 -0.075162888 0.71099997 2.208061e-39
0.0033809529 -0.075057127 0.70999998 1.8399918e-39
0.0047333343 -0.075057112 0.70999998 1.4733813e-39
0.0060857143 -0.075057141 0.71000004 1.6570677e-39
0.0074380958 -0.075057149 0.70999998 1.7496262e-39
0.0087904772 -0.075057127 0.71000004 1.9347378e-39
0.010114286 -0.074845739 0.70799994 2.1194807e-39
0.011462858 -0.074845739 0.70799994 2.120194e-39
0.012811431 -0.074845731 0.70799994 2.0279956e-39
0.014140001 -0.074740015 0.70699996 2.0283515e-39
0.015508573 -0.074845739 0.708 1.9361629e-39
0.016904762 -0.075057141 0.70999998 2.4861053e-39
0.018257145 -0.075057127 0.70999998 2.9449296e-39
0.019609524 -0.075057104 0.70999998 2.7612656e-39
0.020902859 -0.074845761 0.708 2.4868185e-39
0.022314288 -0.075057141 0.71000004 2.0279844e-39
0.023766669 -0.075374313 0.713 1.5695412e-39
0.025160003 -0.075480044 0.71400005 2.3042419e-39
0.026520001 -0.075480029 0.71400005 2.945996e-39
0.027958097 -0.075691409 0.71600002 2.3920964e-39
0.029362861 -0.075797215 0.71699995 1.8587622e-39
0.030814286 -0.076008581 0.71900004 8.8659832e-39
0.032183811 -0.076008588 0.71900004 1.5770902e-38
0.033600006 -0.076114297 0.72000003 1.8722949e-38
0.034971435 -0.076114297 0.71999997 2.165951e-38
0.036746677 -0.076960035 0.72799999 1.888541e-38
0.038133342 -0.076960035 0.72799999 1.6135393e-38
0.039520007 -0.076960027 0.72799999 1.98361e-38
0.040794287 -0.076748587 0.72600001 2.3417687e-38
0.042177148 -0.076748602 0.72599995 2.341769e-38
-0.026322858 -0.077545747 0.74699998 1.2622476e-38
-0.024833338 -0.077338167 0.74500006 6.9139043e-39
-0.023351431 -0.077130511 0.74299997 1.2079207e-39
-0.021936195 -0.077130459 0.74299997 1.2904417e-39
-0.020438099 -0.07681907 0.73999995 1.4726652e-39
-0.018951431 -0.076507606 0.73699999 1.4726512e-39
-0.017476194 -0.076196216 0.73399997 1.3811758e-39
-0.016078094 -0.076196231 0.73399997 1.3822534e-39
-0.014560002 -0.075573385 0.72800004 1.3836869e-39
-0.013119048 -0.075261958 0.72500002 1.3833254e-39
-0.011705715 -0.075054318 0.72299999 1.3818961e-39
-0.010285715 -0.074742846 0.71999997 1.4744547e-39
-0.0089142863 -0.074742846 0.71999997 1.473747e-39
-0.0075323815 -0.074639052 0.71899998 1.5666671e-39
-0.0061457148 -0.074431494 0.71699995 1.6588529e-39
-0.0047733337 -0.074327603 0.71599996 1.8432316e-39
-0.0034095244 -0.07432764 0.71600002 2.026548e-39
-0.0020371431 -0.074016213 0.71300006 2.2102232e-39
-0.00067714287 -0.07380864 0.71099997 2.3931796e-39
0.0006761906 -0.073704727 0.71000004 2.7608817e-39
0.0020285714 -0.073704734 0.70999998 3.2193389e-39
0.0033714289 -0.073497146 0.70799994 2.2087855e-39
0.0047200006 -0.073497176 0.708 1.2904403e-39
0.0060685724 -0.073497184 0.70799994 1.3819255e-39
0.0074066673 -0.073393367 0.70699996 1.5652336e-39
0.0087533342 -0.073393345 0.70699996 1.7503353e-39
0.010071428 -0.073185749 0.70499998 2.0276354e-39
0.011381906 -0.072978131 0.70300001 2.0276354e-39
0.012739049 -0.073081903 0.704 2.0279886e-39
0.014060002 -0.072978109 0.70299995 2.1201758e-39
0.01539905 -0.072978146 0.70300001 2.303858e-39
0.016761905 -0.073081911 0.704 2.486464e-39
0.018102856 -0.073081896 0.704 2.7605454e-39
0.019526666 -0.073393367 0.70699996 2.577959e-39
0.020873334 -0.073393352 0.70699996 2.3953558e-39
0.022157146 -0.073185727 0.70500004 2.0272865e-39
0.023600001 -0.073497146 0.70799994 1.7514269e-39
0.024948573 -0.073497169 0.708 2.3953572e-39
0.02648286 -0.074016176 0.713 2.9474267e-39
0.02788 -0.07412003 0.71400005 2.0272571e-39
0.029321909 -0.074327633 0.71600002 1.2062083e-39
0.030728571 -0.074431486 0.71699995 8.0318981e-39
0.032094292 -0.074431486 0.71699995 1.485217e-38
0.03355334 -0.074639067 0.71900004 1.816978e-38
0.034971435 -0.074742854 0.71999997 2.1580237e-38
0.036494292 -0.07505431 0.72299999 2.0281972e-38
0.037976202 -0.075261936 0.72499996 1.8993425e-38
0.039411429 -0.075365707 0.72599995 2.1209692e-38
0.040794287 -0.075365707 0.72599995 2.341769e-38
0.042177148 -0.0753657 0.72599995 2.341769e-38
-0.02632286 -0.076122865 0.74699998 1.6491814e-38
-0.024833336 -0.075919099 0.745 8.9476228e-39
-0.023351433 -0.075715236 0.74299997 1.3912484e-39
-0.021906668 -0.075613379 0.74200004 1.6538068e-39
-0.020438097 -0.075409532 0.73999995 1.9318245e-39
-0.018951429 -0.075103797 0.73699999 1.7485136e-39
-0.017476194 -0.074798167 0.73400003 1.4733658e-39
-0.016034286 -0.074594297 0.73200005 1.657397e-39
-0.014580002 -0.074288592 0.72899997 1.7503115e-39
-0.013064762 -0.073575273 0.722 1.6591976e-39
-0.011657144 -0.07337141 0.71999997 1.4748148e-39
-0.010271429 -0.073269531 0.71899998 1.4748218e-39
-0.0089019062 -0.073269539 0.71899998 1.3826332e-39
-0.007511429 -0.073065758 0.71699995 1.5663098e-39
-0.0061371438 -0.072963811 0.71599996 1.6592159e-39
-0.0047600009 -0.072760023 0.71400005 1.8443162e-39
-0.0034000003 -0.072760016 0.71400005 1.9354356e-39
-0.0020314285 -0.072454333 0.71099997 2.3020629e-39
-0.0006761906 -0.072352357 0.70999998 2.5779267e-39
0.00067428569 -0.072148621 0.70799994 3.405521e-39
0.0020228575 -0.072148606 0.70799994 4.1391302e-39
0.0033714294 -0.072148599 0.70799994 2.5764932e-39
0.0047133346 -0.072046712 0.70699996 1.0149381e-39
0.006060001 -0.072046705 0.70699996 1.1982573e-39
0.0073857154 -0.071842887 0.70500004 1.2897257e-39
0.0087161912 -0.071740992 0.70400006 1.657418e-39
0.010042857 -0.071639076 0.70299995 1.9336461e-39
0.011381906 -0.071639068 0.70299995 1.9340077e-39
0.012720955 -0.071639054 0.70299995 1.9354412e-39
0.014020002 -0.071435258 0.70099998 2.3038566e-39
0.01535524 -0.071435243 0.70099998 2.5790142e-39
0.016690476 -0.07143528 0.70099998 2.579024e-39
0.018025715 -0.071435265 0.70099998 2.5779506e-39
0.019416191 -0.071639083 0.70299995 2.3939236e-39
0.020755239 -0.071639054 0.70300001 2.210247e-39
0.022094289 -0.071639054 0.70299995 2.1184073e-39
0.023499999 -0.071842887 0.70500004 1.9350993e-39
0.024913337 -0.072046705 0.70699996 2.4868353e-39
0.026371429 -0.072352372 0.70999998 2.9456359e-39
0.02776286 -0.072454348 0.71099997 1.7474514e-39
0.029321909 -0.072963797 0.71599996 4.7511725e-40
0.030728573 -0.073065758 0.71699995 7.2032332e-39
0.032094292 -0.073065758 0.71699995 1.3928077e-38
0.033553336 -0.073269546 0.71900004 1.7707011e-38
0.034922864 -0.073269546 0.71900004 2.138868e-38
0.036342867 -0.073371418 0.71999997 2.1669209e-38
0.037871439 -0.07367716 0.72299999 2.1850737e-38
0.039357144 -0.073880963 0.72499996 2.2683006e-38
0.040738098 -0.073880956 0.72499996 2.341769e-38
0.042119052 -0.073880948 0.72499996 2.341769e-38
-0.024766672 -0.074300006 0.74299997 7.6530206e-39
-0.023351433 -0.074300006 0.74300003 1.0106501e-39
-0.02190667 -0.074200027 0.74200004 1.5630153e-39
-0.020438097 -0.074000001 0.73999995 2.1169136e-39
-0.018874291 -0.07340008 0.73399997 1.7492269e-39
-0.017404765 -0.073100038 0.73100001 1.3818849e-39
-0.01596857 -0.072900012 0.72899997 1.4740791e-39
-0.014440002 -0.072200067 0.722 1.5655657e-39
-0.013028572 -0.071999975 0.71999997 1.3826206e-39
-0.011640953 -0.07190001 0.71899998 1.1993167e-39
-0.01027143 -0.071900018 0.71899998 1.2911592e-39
-0.0088771433 -0.071700059 0.71699995 1.3826374e-39
-0.0075009526 -0.071599998 0.71600002 1.474833e-39
-0.006120001 -0.071400039 0.71400005 1.6592201e-39
-0.0047600009 -0.071400031 0.71400005 1.8443246e-39
-0.0033952387 -0.07130003 0.71300006 2.0276368e-39
-0.0020285719 -0.070999973 0.70999998 2.3024245e-39
-0.00067428581 -0.070800021 0.708 2.6704797e-39
0.00067333353 -0.07070002 0.70699996 2.6701168e-39
0.0020142861 -0.070500016 0.70500004 2.7637515e-39
0.0033571431 -0.070499994 0.70500004 1.7503381e-39
0.0047000009 -0.070499994 0.70499998 8.3163e-40
0.0060428577 -0.070500024 0.70500004 8.2984194e-40
0.0073752389 -0.070400015 0.704 8.2982933e-40
0.0087038102 -0.07030002 0.70299995 1.013129e-39
0.010014285 -0.070100024 0.70099998 1.1975244e-39
0.011349524 -0.070100017 0.70099998 1.6574264e-39
0.012684763 -0.070100002 0.70099998 2.1191178e-39
0.014020002 -0.070100024 0.70099998 2.3024315e-39
0.01535524 -0.070100009 0.70099998 2.4861109e-39
0.016690478 -0.070100002 0.70099998 2.4868353e-39
0.018025717 -0.070100032 0.70099998 2.4861151e-39
0.019416191 -0.070300013 0.70299995 2.3942754e-39
0.020755239 -0.070300043 0.70300001 2.2091694e-39
0.022031432 -0.070100002 0.70099998 2.2102442e-39
0.023433335 -0.070300028 0.70299995 2.2102499e-39
0.024842858 -0.070500024 0.70499998 2.579031e-39
0.026185716 -0.070500009 0.70499998 2.9481498e-39
0.027645716 -0.070800014 0.70799994 1.9350727e-39
0.029199051 -0.07130003 0.713 1.0182437e-39
0.030685717 -0.07159999 0.71599996 6.373132e-39
0.032094292 -0.071700029 0.71699995 1.1725101e-38
0.033460006 -0.071700037 0.71699995 1.4942254e-38
0.034922864 -0.071900025 0.71900004 1.817014e-38
0.036292385 -0.071900025 0.71900004 2.0381735e-38
0.037714295 -0.071999997 0.72000003 2.2679776e-38
0.03919429 -0.072200052 0.722 2.3049631e-38
0.040569525 -0.072200045 0.722 2.341769e-38
0.041944765 -0.072200052 0.722 2.341769e-38
0.043320008 -0.072200038 0.722 2.341769e-38
-0.024766671 -0.072884776 0.74300003 6.3553958e-39
-0.023351433 -0.072884761 0.74299997 5.5682416e-40
-0.021404766 -0.071119092 0.72500002 1.3786591e-39
-0.020134289 -0.071511485 0.72899997 2.2073281e-39
-0.018745719 -0.071511433 0.72899997 1.7492255e-39
-0.017357146 -0.071511447 0.72899997 1.2904095e-39
-0.015902856 -0.07121712 0.72599995 1.2918486e-39
-0.014400002 -0.070628583 0.71999997 1.2904193e-39
-0.013010478 -0.070530497 0.71900004 1.1063966e-39
-0.011640953 -0.070530497 0.71899998 8.3161459e-40
-0.010242858 -0.070334338 0.71699995 1.1074882e-39
-0.0088647632 -0.070236169 0.71599996 1.2908047e-39
-0.0074695242 -0.06994193 0.71300006 1.4744813e-39
-0.0061114291 -0.069941923 0.713 1.5681104e-39
-0.004753334 -0.069941916 0.71300006 1.8454106e-39
-0.0033714287 -0.069451451 0.70799994 2.028004e-39
-0.00202 -0.069353364 0.70700002 2.3935523e-39
-0.00067142863 -0.069157176 0.70500004 2.7612432e-39
0.00067142863 -0.069157168 0.70500004 2.0240369e-39
0.0020114286 -0.069059052 0.704 1.2907949e-39
0.0033476192 -0.068960994 0.70300001 1.013143e-39
0.004686668 -0.068960972 0.70300001 6.4580101e-40
0.0060257148 -0.068960965 0.70299995 4.5997902e-40
0.007343811 -0.068764791 0.70099998 2.7701849e-40
0.0086790482 -0.068764754 0.70099998 3.6777078e-40
0.010000001 -0.068666697 0.70000005 3.6921132e-40
0.011333334 -0.068666697 0.69999999 1.3790486e-39
0.012684764 -0.068764769 0.70099998 2.2995588e-39
0.014000002 -0.068666697 0.70000005 2.3921146e-39
0.015333334 -0.068666689 0.70000005 2.3942768e-39
0.016666666 -0.068666674 0.69999999 2.3953614e-39
0.018025715 -0.068764761 0.70099998 2.3953586e-39
0.019360952 -0.068764791 0.70100003 2.3042363e-39
0.020696193 -0.068764783 0.70099998 2.2113246e-39
0.022031432 -0.068764769 0.70099998 2.3024427e-39
0.023433335 -0.068961002 0.70300001 2.394281e-39
0.024807619 -0.069059044 0.704 2.6708679e-39
0.026148573 -0.069059081 0.70400006 2.854885e-39
0.027528573 -0.069157168 0.70500004 2.210589e-39
0.029076194 -0.069647618 0.71000004 1.576053e-39
0.0306 -0.07004004 0.71400005 5.5454873e-39
0.032049526 -0.070236176 0.71599996 9.4115801e-39
0.033460006 -0.070334367 0.71700001 1.2165961e-38
0.034825724 -0.070334367 0.71699995 1.4946179e-38
0.036292385 -0.070530504 0.71900004 1.9191103e-38
0.037714295 -0.070628569 0.71999997 2.3416255e-38
0.03919429 -0.070824802 0.722 2.341769e-38
0.040569525 -0.070824794 0.722 2.341769e-38
0.041944768 -0.070824824 0.722 2.341769e-38
0.043320008 -0.070824809 0.722 2.341769e-38
-0.021404767 -0.069738135 0.72499996 1.8393023e-39
-0.020023813 -0.069738127 0.72499996 1.9318371e-39
-0.018668575 -0.06983427 0.72599995 1.6563124e-39
-0.017214289 -0.069545738 0.72299999 1.2893361e-39
-0.015815238 -0.069449559 0.72200006 1.2900592e-39
-0.014380001 -0.069160976 0.71900004 1.2900634e-39
-0.012974286 -0.068968631 0.71699995 1.1982307e-39
-0.01156 -0.068680033 0.71400005 1.1071211e-39
-0.010185715 -0.068583816 0.713 1.1986062e-39
-0.0088276202 -0.068583824 0.713 1.3815682e-39
-0.0074380958 -0.068295211 0.70999998 1.3830101e-39
-0.0060685715 -0.068102896 0.70799994 1.4766407e-39
-0.0047133337 -0.068006679 0.70699996 1.8443428e-39
-0.0033666673 -0.068006702 0.70700002 2.212761e-39
-0.0020142859 -0.067814305 0.70500004 3.1300397e-39
-0.00067142863 -0.067814313 0.70499998 4.0480192e-39
0.00066952384 -0.067621902 0.70299995 4.3292485e-39
0.0020085718 -0.067621931 0.70300001 4.5961539e-39
0.0033380955 -0.067429543 0.70100003 4.7873652e-39
0.0046733343 -0.067429528 0.70099998 4.9624239e-39
0.0060000005 -0.067333348 0.70000005 4.9695943e-39
