# .PCD v0.7 - Point Cloud Data file format
VERSION 0.7
FIELDS x y z rgb
SIZE 4 4 4 4
TYPE F F F F
COUNT 1 1 1 1
WIDTH 951
HEIGHT 1
VIEWPOINT 0 0 0 1 0 0 0
POINTS 951
DATA ascii
0.01230477 -0.023961928 0.68000001 3.3065725e-39
0.013600003 -0.023961917 0.68000001 2.2974358e-39
0.014895245 -0.02396193 0.68000001 1.1975665e-39
0.016166661 -0.023926657 0.67900008 1.3812417e-39
0.017485714 -0.023961904 0.68000001 1.6574628e-39
0.018753344 -0.023926694 0.67900002 1.3812347e-39
0.020076189 -0.023961905 0.68000001 1.1964749e-39
0.021434285 -0.024032373 0.6820001 1.2890138e-39
0.022733331 -0.024032371 0.68200004 1.3815752e-39
0.024067618 -0.02406762 0.68300009 1.9351077e-39
0.025368575 -0.024067629 0.68300003 2.5826225e-39
0.026708569 -0.024102854 0.68400007 3.1332781e-39
0.028011421 -0.024102835 0.68400007 3.7754148e-39
0.029314283 -0.024102846 0.68400007 3.6846597e-39
0.030706663 -0.024173325 0.68600005 3.6853785e-39
0.032013327 -0.024173317 0.68600011 3.6864547e-39
0.033320002 -0.024173332 0.68600005 3.6875267e-39
0.034677148 -0.024208585 0.68700004 3.6875211e-39
0.036090478 -0.024279049 0.68900001 3.779358e-39
0.037402861 -0.024279047 0.68900001 3.6868065e-39
0.038771432 -0.024314286 0.69000006 3.6864533e-39
0.040085707 -0.024314271 0.69000012 5.6218203e-39
0.041459996 -0.024349509 0.6910001 7.5633165e-39
0.042961899 -0.024455227 0.69400001 6.9226568e-39
0.044283804 -0.024455234 0.69400001 6.2703972e-39
0.045671426 -0.024490472 0.69500005 6.1680744e-39
0.047130469 -0.024560932 0.69700003 6.1872512e-39
0.048736189 -0.024701903 0.70100009 1.4763988e-38
0.050214283 -0.024772385 0.70300001 2.341769e-38
0.051553335 -0.0247724 0.70300001 2.341769e-38
0.053268574 -0.024948573 0.708 2.341769e-38
0.054771431 -0.025019059 0.71000004 2.341769e-38
0.056202848 -0.02505427 0.71100008 2.341769e-38
0.057719041 -0.025124753 0.71300006 2.341769e-38
-0.018000007 -0.023333324 0.70000005 1.4744953e-39
-0.016690474 -0.023366682 0.70100003 1.4744869e-39
-0.015355232 -0.023366682 0.70100003 1.1975371e-39
-0.0139 -0.023166666 0.69500005 9.2345849e-40
-0.012503817 -0.023033323 0.6910001 9.2345289e-40
-0.011171438 -0.022999983 0.69000006 9.2488361e-40
-0.0098571368 -0.023000015 0.69000006 1.0163576e-39
-0.0085304733 -0.022966677 0.68900001 1.1085602e-39
-0.0072285752 -0.022999993 0.69000006 1.1996852e-39
-0.0059057153 -0.022966664 0.68900001 1.2004111e-39
-0.0045799999 -0.022900004 0.68700004 1.2000608e-39
-0.003266677 -0.022866646 0.68600011 1.2000608e-39
-0.0019514195 -0.022766693 0.68300003 1.2911788e-39
-0.00065047079 -0.022766681 0.68300003 1.3812263e-39
0.00065047696 -0.022766674 0.68300009 9.19902e-40
0.0019485664 -0.022733325 0.68200004 3.7968322e-40
0.0032476236 -0.022733351 0.68200004 4.8972341e-39
0.0045466605 -0.022733323 0.6820001 9.4058362e-39
0.0058457074 -0.022733323 0.68200004 9.9662309e-39
0.0071447636 -0.022733344 0.68200004 1.0425415e-38
0.0084190518 -0.022666678 0.67999995 1.1160824e-38
0.009714297 -0.022666695 0.68000001 1.1798239e-38
0.011009528 -0.022666685 0.68000001 8.6621475e-39
0.012304773 -0.022666695 0.67999995 5.5264171e-39
0.013580002 -0.022633336 0.67900002 2.8473516e-39
0.014873333 -0.022633338 0.67900008 9.4455924e-41
0.016166667 -0.022633333 0.67900002 9.2099221e-40
0.017460007 -0.022633353 0.67900002 1.6567454e-39
0.018753331 -0.022633325 0.67900008 1.4719912e-39
0.020046672 -0.022633346 0.67900002 1.2886719e-39
0.021371439 -0.022666689 0.67999995 1.3808605e-39
0.022733331 -0.022733329 0.68200004 1.3830157e-39
0.024032377 -0.022733325 0.6820001 2.3038832e-39
0.025368573 -0.022766674 0.68300003 3.1325593e-39
0.026669532 -0.022766689 0.68300003 3.8676048e-39
0.02801143 -0.022799997 0.68400002 4.5104561e-39
0.029314285 -0.022800004 0.68400002 4.2338776e-39
0.030617148 -0.022800015 0.68400002 3.8686922e-39
0.031920001 -0.022799997 0.68400002 3.8690565e-39
0.033222862 -0.022800008 0.68400002 3.8711977e-39
0.034626666 -0.022866672 0.68600011 3.7797111e-39
0.035985716 -0.02290001 0.68700004 3.6871456e-39
0.037402872 -0.022966687 0.68900001 3.685698e-39
0.038715243 -0.022966681 0.68899995 3.5981883e-39
0.040085718 -0.023000004 0.69000006 6.0906835e-39
0.04146 -0.023033328 0.69100004 8.5742132e-39
0.042961899 -0.023133328 0.69400001 6.4627395e-39
0.044347614 -0.023166662 0.69500005 4.2396467e-39
0.04580285 -0.023233317 0.69700003 8.1738356e-39
0.047198094 -0.023266656 0.69800001 1.2168799e-38
0.048736196 -0.02336669 0.70100003 1.7815725e-38
0.050071429 -0.023366671 0.70100009 2.341769e-38
0.051406667 -0.023366677 0.70100003 2.341769e-38
0.053193338 -0.023566669 0.70700002 2.341769e-38
0.054617155 -0.023600025 0.708 2.341769e-38
0.056123815 -0.02366668 0.71000004 2.341769e-38
0.057476189 -0.023666667 0.71000004 2.341769e-38
-0.015355231 -0.022031445 0.70100003 8.2833275e-40
-0.01390001 -0.021842837 0.69500011 8.2760827e-40
-0.012485712 -0.021685725 0.69000006 7.372007e-40
-0.011155234 -0.021654304 0.68900001 6.4428761e-40
-0.0098428549 -0.021654299 0.68900001 7.371979e-40
-0.0085304752 -0.021654291 0.68900001 9.1979269e-40
-0.0071971496 -0.021591416 0.68700004 9.2158495e-40
-0.0058885715 -0.021591431 0.68700004 9.2161298e-40
-0.004579999 -0.021591436 0.68700004 9.2164101e-40
-0.0032666742 -0.021559989 0.68600005 9.2093055e-40
-0.0019514316 -0.021465713 0.68300003 8.2981952e-40
-0.00064952642 -0.021434287 0.6820001 8.2911047e-40
0.00064952049 -0.021434281 0.6820001 6.4508915e-40
0.0019428667 -0.021371454 0.68000001 4.6073292e-40
0.0032380999 -0.021371445 0.68000001 2.5862547e-39
0.0045333351 -0.021371437 0.68000001 4.8021896e-39
0.0058285785 -0.021371447 0.67999995 5.1724463e-39
0.0071238116 -0.021371437 0.68000001 5.5502013e-39
0.0084190546 -0.021371454 0.68000001 7.3847672e-39
0.0097142914 -0.021371441 0.68000001 9.2254092e-39
0.011009532 -0.021371456 0.67999995 8.2108999e-39
0.012304767 -0.021371439 0.68000001 7.197401e-39
0.013580005 -0.02134002 0.67900002 5.3448256e-39
0.014873328 -0.021339992 0.67900008 3.4934371e-39
0.016166672 -0.021340009 0.67900002 2.9446045e-39
0.017459992 -0.021339985 0.67900008 2.3928643e-39
0.018753335 -0.021340005 0.67900002 1.6570929e-39
0.020046677 -0.021340026 0.67900002 8.3021609e-40
0.021340001 -0.021339998 0.67900002 1.2904712e-39
0.022666665 -0.021371428 0.68000001 1.7510794e-39
0.023961909 -0.021371437 0.67999995 2.6723e-39
0.025331425 -0.021434277 0.68200004 3.5009775e-39
0.026630474 -0.021434275 0.6820001 3.8690411e-39
0.027929518 -0.021434279 0.6820001 4.1441903e-39
0.029271431 -0.021465719 0.68300003 3.9608794e-39
0.030572379 -0.021465709 0.68300003 3.6864589e-39
0.031873327 -0.021465698 0.68300009 3.7790203e-39
0.033222858 -0.02149714 0.68400002 3.7804398e-39
0.034525715 -0.021497155 0.68400002 3.6882288e-39
0.035828568 -0.021497136 0.68400002 3.6878434e-39
0.037131432 -0.021497143 0.68400007 3.5016347e-39
0.038715247 -0.021654299 0.68900001 3.3169253e-39
0.040085714 -0.021685712 0.69000012 6.0892472e-39
0.041399993 -0.021685703 0.69000012 8.94549e-39
0.042961899 -0.021811426 0.69400001 5.5314477e-39
0.044347614 -0.021842854 0.69500005 2.20459e-39
0.045802858 -0.021905715 0.69700003 8.7425147e-39
0.047198094 -0.021937145 0.69800001 1.5396718e-38
0.0487362 -0.022031451 0.70100003 1.9369036e-38
0.050071433 -0.022031432 0.70100009 2.341769e-38
0.05140667 -0.022031438 0.70100003 2.341769e-38
0.052892376 -0.022094281 0.70300001 2.341769e-38
0.054385714 -0.022157146 0.70500004 2.341769e-38
0.055728577 -0.022157168 0.70500004 2.341769e-38
-0.013444772 -0.021936173 0.74300009 4.6097535e-40
-0.012110479 -0.022083806 0.74800003 2.7694422e-40
-0.010685709 -0.022083825 0.74800003 5.5245071e-40
-0.0092485799 -0.02205427 0.7470001 7.361203e-40
-0.0078361975 -0.022083798 0.74800003 7.3647903e-40
-0.0064285696 -0.022142863 0.75000006 6.4501768e-40
-0.0049999948 -0.022142868 0.75000006 6.4431703e-40
-0.0035857116 -0.022231437 0.75300002 6.4467717e-40
-0.002151422 -0.022231447 0.75300002 4.6100758e-40
-0.00071905332 -0.022290464 0.75500005 1.8622836e-40
0.0007199964 -0.022319991 0.7560001 3.6991056e-40
0.0021714291 -0.022438098 0.76000005 4.6067967e-40
0.0036238001 -0.022467598 0.7610001 3.6777779e-40
0.0050733327 -0.022467621 0.76100004 1.91664e-40
0.0065228571 -0.022467621 0.76100004 4.6288952e-40
0.0079723801 -0.022467619 0.7610001 6.5913016e-40
0.0094219046 -0.022467619 0.7610001 3.6940217e-39
0.010871428 -0.022467617 0.7610001 6.6421183e-39
0.010993338 -0.020046683 0.67900008 7.7588845e-39
0.01228667 -0.020046674 0.67900002 8.8504694e-39
0.013560009 -0.020017168 0.67800003 7.9324353e-39
0.014851437 -0.020017169 0.67800003 6.9082473e-39
0.016166676 -0.02004669 0.67900002 5.0629208e-39
0.01746 -0.020046664 0.67900002 3.1289804e-39
0.018725729 -0.020017181 0.67800003 1.7492815e-39
0.020046663 -0.020046653 0.67900008 3.7247074e-40
0.021340003 -0.020046677 0.67900002 1.2919061e-39
0.022633344 -0.020046696 0.67900002 2.1209325e-39
0.023961913 -0.02007621 0.68000001 3.0414356e-39
0.025331434 -0.020135254 0.68200004 3.8697558e-39
0.026630471 -0.020135231 0.6820001 3.870839e-39
0.027970482 -0.020164771 0.68300003 3.7782874e-39
0.029271428 -0.020164764 0.68300009 3.6871708e-39
0.030572385 -0.020164778 0.68300003 3.5038613e-39
0.031873334 -0.020164771 0.68300003 3.5967758e-39
0.03317428 -0.020164764 0.68300009 3.6882428e-39
0.034525715 -0.020194286 0.68400007 3.6885917e-39
0.035828564 -0.020194272 0.68400007 3.5949457e-39
0.037240002 -0.020253344 0.68600011 3.3154764e-39
0.038602863 -0.02028287 0.68700004 2.9549951e-39
0.040027626 -0.020341914 0.68900001 6.0957422e-39
0.041340001 -0.020341907 0.68900001 9.2152526e-39
0.042899992 -0.020459989 0.69300002 4.6966326e-39
0.04434761 -0.020519042 0.69500005 9.8113313e-41
0.04580285 -0.020578086 0.69700003 9.2860406e-39
0.047198098 -0.020607635 0.69800001 1.8522376e-38
0.048666649 -0.020666638 0.70000011 2.1029967e-38
0.049999993 -0.020666648 0.70000011 2.341769e-38
0.05140667 -0.020696202 0.70100003 2.341769e-38
0.052892387 -0.020755248 0.70300001 2.341769e-38
0.054308571 -0.020784773 0.70400012 2.341769e-38
0.055649526 -0.020784779 0.70400012 2.341769e-38
0.056990486 -0.020784782 0.70400012 2.341769e-38
-0.013444768 -0.020520942 0.74300003 3.6913705e-40
-0.012061916 -0.020576166 0.74500012 2.7658409e-40
-0.010685716 -0.020659054 0.74799997 4.6097254e-40
-0.0092485836 -0.020631405 0.7470001 6.442848e-40
-0.0078361891 -0.02065905 0.74800003 7.3647903e-40
-0.0064285672 -0.020714296 0.75000006 9.197955e-40
-0.0050133495 -0.020769488 0.75200009 8.279628e-40
-0.003585713 -0.02079715 0.75300002 6.4357154e-40
-0.0021514234 -0.020797158 0.75300002 4.6097254e-40
-0.00071713392 -0.020797165 0.75300002 3.6986712e-40
0.00071999844 -0.020879999 0.75600004 4.6171383e-40
0.0021714258 -0.020990474 0.76000011 5.5282065e-40
0.0036190466 -0.02099048 0.76000005 5.5280804e-40
0.0050666705 -0.020990487 0.76000011 4.6025788e-40
0.0065228636 -0.021018108 0.7610001 5.5281224e-40
0.0079723755 -0.021018082 0.7610001 6.4323383e-40
0.0094218999 -0.021018082 0.7610001 2.0290381e-39
0.010871422 -0.021018082 0.7610001 3.4102378e-39
0.012320956 -0.021018105 0.76100004 3.9695815e-39
0.013770479 -0.021018105 0.76100004 4.6149453e-39
0.015220004 -0.021018103 0.7610001 4.7075024e-39
0.016669527 -0.021018103 0.7610001 4.8993822e-39
0.016142866 -0.018725738 0.67800003 3.7786588e-39
0.017434295 -0.01872574 0.67800003 2.6680064e-39
0.018725725 -0.018725744 0.67800003 1.9343804e-39
0.020017147 -0.018725727 0.67800009 1.2000622e-39
0.021340009 -0.018753352 0.67900002 1.7532346e-39
0.022633329 -0.018753326 0.67900002 2.3993088e-39
0.023926672 -0.018753344 0.67900002 3.0432293e-39
0.02525715 -0.018780967 0.68000001 3.595687e-39
0.026630474 -0.018836182 0.6820001 3.594978e-39
0.027970482 -0.018863818 0.68300009 3.6864561e-39
0.029271437 -0.018863829 0.68300003 3.5946206e-39
0.030572385 -0.01886382 0.68300003 3.5953353e-39
0.03191999 -0.018891405 0.68400007 3.6875253e-39
0.033222854 -0.018891411 0.68400007 3.779358e-39
0.034525707 -0.018891422 0.68400007 3.8711907e-39
0.035828561 -0.018891403 0.68400007 3.9630192e-39
0.03724001 -0.018946683 0.68600005 3.9594249e-39
0.038602855 -0.01897428 0.68700004 4.0513122e-39
0.040027622 -0.019029532 0.68900001 6.7364747e-39
0.041340012 -0.019029548 0.68900001 9.5000819e-39
0.042899985 -0.01913997 0.69300008 6.8149026e-39
0.04434761 -0.019195231 0.69500005 4.1331368e-39
0.045802865 -0.019250482 0.69700003 1.2530461e-38
0.047198094 -0.0192781 0.69800001 2.1029938e-38
0.048666667 -0.019333329 0.70000005 2.2223829e-38
0.049999993 -0.019333316 0.70000005 2.341769e-38
0.05140667 -0.019360963 0.70100009 2.341769e-38
0.052892379 -0.019416194 0.70300001 2.341769e-38
0.054231443 -0.01941623 0.70300001 2.341769e-38
-0.01614381 -0.018951433 0.73700005 5.5244931e-40
-0.014780002 -0.01900286 0.73900002 3.6913705e-40
-0.013426671 -0.019079996 0.74200004 2.7730155e-40
-0.012061917 -0.019157115 0.74500012 1.8582479e-40
-0.010671435 -0.01920856 0.7470001 3.6985451e-40
-0.0092485771 -0.019208563 0.74700004 4.6133128e-40
-0.0078361956 -0.019234275 0.74800003 8.2831453e-40
-0.0064285765 -0.019285707 0.75000006 1.1956579e-39
-0.0050133392 -0.019337131 0.75200009 9.197955e-40
-0.0035857055 -0.01936288 0.75300002 6.4464494e-40
-0.002148584 -0.019337112 0.75200003 5.5352551e-40
-0.00071713486 -0.019362874 0.75300002 4.6241448e-40
0.00072000088 -0.019440003 0.75600004 5.5425698e-40
0.0021657145 -0.01949143 0.75800008 6.4572674e-40
0.0036190443 -0.019542852 0.76000005 7.3827269e-40
0.005066677 -0.019542882 0.76000005 7.371979e-40
0.0065142894 -0.019542864 0.76000005 7.3648184e-40
0.0079723811 -0.019568572 0.7610001 6.4429882e-40
0.0094219055 -0.019568572 0.7610001 3.6844621e-40
0.010871418 -0.019568548 0.7610001 9.5847414e-41
0.012320951 -0.019568566 0.76100004 1.8521102e-40
0.013770474 -0.019568568 0.76100004 2.835093e-40
0.015219999 -0.019568566 0.7610001 1.5670609e-39
0.016669523 -0.019568566 0.7610001 2.8577815e-39
0.018119045 -0.019568566 0.7610001 2.4839837e-39
0.019568579 -0.019568587 0.76100004 2.1180668e-39
0.021073334 -0.019619999 0.76300001 2.0280152e-39
0.022526661 -0.019619986 0.76300007 1.9365454e-39
0.023979997 -0.019619996 0.76300001 2.3056895e-39
0.022666674 -0.017485738 0.67999995 2.6748237e-39
0.023961909 -0.017485725 0.68000001 3.043958e-39
0.025257144 -0.017485712 0.68000001 3.3191099e-39
0.026630471 -0.017537134 0.6820001 3.4102322e-39
0.02797048 -0.017562859 0.68300003 3.5017089e-39
0.029271428 -0.017562851 0.68300003 3.592827e-39
0.030572385 -0.017562866 0.68300003 3.5946192e-39
0.031920001 -0.017588563 0.68400002 3.6868121e-39
0.033222854 -0.017588574 0.68400002 3.7782874e-39
0.034525719 -0.01758858 0.68400002 4.053075e-39
0.035828572 -0.017588561 0.68400002 4.2353097e-39
0.037240002 -0.017640008 0.68600011 4.6912572e-39
0.038602866 -0.017665738 0.68700004 5.0740695e-39
0.040027618 -0.017717147 0.68900001 7.482285e-39
0.041339997 -0.017717144 0.68900001 9.7695306e-39
0.0429 -0.017820003 0.69300008 8.9304233e-39
0.044283807 -0.017845726 0.69400001 8.1176295e-39
0.045671426 -0.017871421 0.69500011 1.5763746e-38
0.047198091 -0.017948562 0.69799995 2.3409784e-38
0.04866666 -0.017999977 0.70000011 2.341769e-38
0.049999982 -0.017999964 0.70000011 2.341769e-38
0.05140667 -0.018025726 0.70100009 2.341769e-38
0.052741908 -0.018025728 0.70100009 2.341769e-38
0.054231428 -0.018077154 0.70300001 2.341769e-38
0.055570476 -0.018077139 0.70300001 2.341769e-38
-0.016121905 -0.017523812 0.73600006 5.5316677e-40
-0.014739996 -0.017547639 0.73700005 4.6169001e-40
-0.013372377 -0.017595252 0.73900002 3.6985451e-40
-0.012013333 -0.01766667 0.74200004 2.7837775e-40
-0.01064286 -0.017738091 0.74500012 3.6985451e-40
-0.0092485789 -0.0177857 0.74700004 4.6133128e-40
-0.0078361901 -0.017809529 0.74800003 6.4500227e-40
-0.0064285719 -0.017857142 0.75000006 8.2831453e-40
-0.0050133397 -0.017904747 0.75200003 7.3683777e-40
-0.0035857058 -0.017928591 0.75300002 5.5388424e-40
-0.0021514271 -0.017928572 0.75300002 4.6276621e-40
-0.00071713893 -0.017928584 0.75300002 4.6312634e-40
0.00072000461 -0.018000016 0.7560001 4.6241028e-40
0.0021657145 -0.018047621 0.75800008 4.6169141e-40
0.0036190508 -0.018095247 0.76000005 5.5388424e-40
0.0050666737 -0.018095255 0.76000005 6.4607987e-40
0.006514295 -0.018095259 0.76000005 5.5352691e-40
0.0079619065 -0.018095244 0.76000005 4.6169421e-40
0.0094218999 -0.018119037 0.7610001 3.6914265e-40
0.010871424 -0.018119035 0.7610001 2.7658689e-40
0.012320957 -0.018119058 0.76100004 2.7658409e-40
0.013770481 -0.018119058 0.7610001 2.7623376e-40
0.015220005 -0.018119056 0.7610001 1.0123611e-39
0.016669517 -0.018119032 0.7610001 1.8374918e-39
0.018119041 -0.01811903 0.7610001 1.6570943e-39
0.019568574 -0.018119052 0.76100004 1.5674098e-39
0.021073325 -0.018166648 0.76300007 1.6603201e-39
0.022526663 -0.018166656 0.76300001 1.7532402e-39
0.023979988 -0.018166641 0.76300007 2.1216654e-39
0.025433326 -0.018166648 0.76300001 2.5822792e-39
0.026886672 -0.018166682 0.76300001 2.8599381e-39
0.025331426 -0.01623809 0.6820001 3.2265626e-39
0.026630482 -0.01623811 0.6820001 3.5017103e-39
0.027929518 -0.016238092 0.6820001 3.776498e-39
0.029228564 -0.016238086 0.6820001 3.6857373e-39
0.030572383 -0.016261911 0.68300003 3.5953381e-39
0.031873342 -0.016261926 0.68300003 3.6864561e-39
0.033174291 -0.01626192 0.68300003 3.7775756e-39
0.034525715 -0.016285721 0.68400002 3.5924696e-39
0.035828575 -0.016285727 0.68400002 3.4992034e-39
0.037240002 -0.016333347 0.68600005 5.1597785e-39
0.038602859 -0.016357148 0.68700004 6.8264885e-39
0.04002763 -0.016404783 0.68900001 8.0261289e-39
0.041339997 -0.016404759 0.68900001 9.1249291e-39
0.042899989 -0.016499983 0.69300008 1.0141938e-38
0.0442838 -0.016523803 0.69400001 1.1173724e-38
0.045671422 -0.016547615 0.69500005 1.7249286e-38
0.047198094 -0.016619053 0.69800001 2.341769e-38
0.04866666 -0.016666645 0.70000005 2.341769e-38
0.050000001 -0.01666666 0.70000005 2.341769e-38
0.051406678 -0.016690509 0.70100003 2.341769e-38
0.052892383 -0.016738109 0.70300007 2.341769e-38
0.054231435 -0.016738122 0.70300001 2.341769e-38
0.055570479 -0.016738107 0.70300001 2.341769e-38
-0.016121909 -0.016121896 0.73600012 5.5388424e-40
-0.014740001 -0.016143812 0.73700005 5.5388424e-40
-0.013390473 -0.016209533 0.74000001 4.6240747e-40
-0.012013328 -0.01625335 0.74200004 2.7837775e-40
-0.0106143 -0.016275203 0.74300009 3.6985451e-40
-0.0092238141 -0.016319042 0.74500012 4.6133128e-40
-0.0078361947 -0.016384756 0.74800003 4.6169001e-40
-0.00642857 -0.016428575 0.75000006 4.6169001e-40
-0.0050133499 -0.016472341 0.75200009 4.6169001e-40
-0.00358571 -0.016494296 0.75300002 4.6240747e-40
-0.0021485847 -0.016472351 0.75200009 4.6348367e-40
-0.00071714079 -0.016494293 0.75300002 3.7057338e-40
0.00071903801 -0.016538074 0.75500005 3.6985732e-40
0.0021600036 -0.016560011 0.7560001 2.7802042e-40
0.0036095229 -0.016603807 0.75800008 4.6169141e-40
0.00505334 -0.016603827 0.75800002 5.5352691e-40
0.0064971489 -0.016603824 0.75800002 4.6133408e-40
0.0079409573 -0.016603822 0.75800002 2.7802182e-40
0.0094218943 -0.016669501 0.7610001 3.6985872e-40
0.010857147 -0.016647631 0.76000011 3.6913985e-40
0.012304768 -0.016647635 0.76000005 3.6842098e-40
0.013770475 -0.016669521 0.76100004 2.7695123e-40
0.015219999 -0.016669521 0.7610001 5.5246472e-40
0.016669523 -0.016669519 0.7610001 7.3723854e-40
0.018119046 -0.016669521 0.7610001 9.2237248e-40
0.019568568 -0.016669516 0.76100004 1.0152898e-39
0.021073338 -0.016713344 0.76300001 1.2918795e-39
0.022526667 -0.016713331 0.76300007 1.4762819e-39
0.023980001 -0.016713338 0.76300001 2.0283851e-39
0.025433337 -0.016713344 0.76300001 2.490808e-39
0.026816197 -0.016669534 0.76100004 2.7706375e-39
0.02826572 -0.016669536 0.7610001 3.0439804e-39
0.026630474 -0.014939045 0.6820001 3.5931899e-39
0.027929522 -0.014939043 0.6820001 4.0530792e-39
0.029228568 -0.014939039 0.68200004 3.8704788e-39
0.030572381 -0.014960955 0.68300003 3.5946164e-39
0.03187333 -0.014960949 0.68300003 3.6853785e-39
0.033174276 -0.014960942 0.68300009 3.6853785e-39
0.034525715 -0.014982854 0.68400007 3.2240473e-39
0.035828572 -0.014982865 0.68400007 2.6748419e-39
0.037239999 -0.01502667 0.68600011 5.6218427e-39
0.038602863 -0.015048585 0.68700004 8.5717301e-39
0.040027618 -0.015092383 0.68900001 8.5789356e-39
0.041340005 -0.015092401 0.68900001 8.484219e-39
0.042899992 -0.015179993 0.69300002 1.1338642e-38
0.044283804 -0.015201901 0.69400001 1.411424e-38
0.045671422 -0.015223803 0.69500005 1.8825915e-38
0.047130466 -0.015267586 0.69700003 2.341769e-38
0.048527628 -0.01528954 0.69799995 2.341769e-38
0.04999999 -0.015333307 0.70000005 2.341769e-38
0.051406682 -0.015355272 0.70100003 2.341769e-38
0.052741911 -0.015355254 0.70100009 2.341769e-38
0.054077152 -0.015355258 0.70100009 2.341769e-38
0.055412389 -0.015355262 0.70100003 2.341769e-38
-0.017476197 -0.01467999 0.73400003 6.4500227e-40
-0.016121905 -0.014720003 0.73600006 5.5352551e-40
-0.01474 -0.014740012 0.73700005 4.6169001e-40
-0.013372375 -0.014780017 0.73900002 3.7021325e-40
-0.011980958 -0.01479999 0.74000001 2.7837775e-40
-0.010614287 -0.014859999 0.74300009 3.6985451e-40
-0.0092238132 -0.014899994 0.74500012 4.6097254e-40
-0.0078361882 -0.014960011 0.74800003 3.6949578e-40
-0.0064285775 -0.014999988 0.75000006 3.6985451e-40
-0.0050133402 -0.015039985 0.75200009 3.6985451e-40
-0.0035857104 -0.015060009 0.75300002 3.6985451e-40
-0.0021485854 -0.01503997 0.75200009 3.7021325e-40
-0.00071714172 -0.015060006 0.75300008 3.6985591e-40
0.00071904302 -0.015099991 0.75500005 3.6949718e-40
0.0021600064 -0.015120017 0.75600004 3.6949718e-40
0.0036000004 -0.015120002 0.75600004 4.6133268e-40
0.005039996 -0.015119992 0.7560001 6.4464634e-40
0.0064971484 -0.015160014 0.75800002 4.6133548e-40
0.0079409573 -0.015160011 0.75800002 3.6985732e-40
0.0094095217 -0.015199997 0.76000005 3.6985591e-40
0.010857153 -0.015200027 0.76000005 3.6985591e-40
0.012304765 -0.015200011 0.76000011 2.7766169e-40
0.013752387 -0.015200014 0.76000005 2.7730996e-40
0.015219994 -0.015219986 0.7610001 4.6170402e-40
0.016669517 -0.015219986 0.7610001 6.4610089e-40
0.018119041 -0.015219986 0.7610001 7.3830352e-40
0.019568572 -0.015220006 0.76100004 8.3051317e-40
0.021018097 -0.015220005 0.7610001 1.0149156e-39
0.022467621 -0.015220005 0.7610001 1.198965e-39
0.023917144 -0.015220004 0.7610001 1.5681202e-39
0.025366656 -0.015219981 0.7610001 1.9387259e-39
0.026816193 -0.015219999 0.76100004 2.3075378e-39
0.028265715 -0.015219999 0.76100004 2.7684879e-39
0.029715238 -0.01522 0.7610001 3.1354488e-39
0.027929518 -0.013639995 0.6820001 3.5949766e-39
0.029228576 -0.013640015 0.68200004 3.5953255e-39
0.030572381 -0.013660003 0.68300003 3.6868079e-39
0.031873338 -0.013660015 0.68300003 3.6868121e-39
0.033222847 -0.013679984 0.68400007 3.6871694e-39
0.034525707 -0.013679991 0.68400007 3.3169547e-39
0.035828572 -0.013679997 0.68400007 3.0382435e-39
0.037131425 -0.013679982 0.68400007 5.624728e-39
0.038546659 -0.013719981 0.68600011 8.2086999e-39
0.039911438 -0.013740028 0.68700004 8.2076461e-39
0.041339997 -0.013779994 0.68900001 8.2919244e-39
0.042899985 -0.013859973 0.69300008 1.1792051e-38
0.044283804 -0.013880002 0.69400001 1.5301989e-38
0.045671426 -0.013899991 0.69500005 1.9368319e-38
0.04713048 -0.013940007 0.69700003 2.341769e-38
0.048666652 -0.013999966 0.70000011 2.341769e-38
0.04999999 -0.013999981 0.70000011 2.341769e-38
0.051406682 -0.014020038 0.70100003 2.341769e-38
0.052741922 -0.014020038 0.70100003 2.341769e-38
0.054231439 -0.014060036 0.70300001 2.341769e-38
0.055412393 -0.014020027 0.70100003 2.341769e-38
-0.017523821 -0.013318076 0.73600012 8.2867466e-40
-0.016121909 -0.013318087 0.73600012 6.453624e-40
-0.014740005 -0.013336187 0.73700011 3.6985591e-40
-0.013372377 -0.013372399 0.73900002 3.6985451e-40
-0.01198096 -0.013390465 0.74000001 2.7837915e-40
-0.010614292 -0.013444748 0.74300009 3.7057338e-40
-0.0091990512 -0.013444756 0.74300009 3.6950559e-40
-0.0078257276 -0.013517116 0.7470001 3.6915526e-40
-0.0064285737 -0.013571424 0.75000006 2.7802883e-40
-0.0049999994 -0.01357143 0.75000006 2.7837915e-40
-0.0035809644 -0.013607594 0.75200009 2.7802042e-40
-0.0021428617 -0.013571422 0.75000006 3.6949718e-40
-0.00071619911 -0.013607603 0.75200009 3.6949858e-40
0.00071715476 -0.013625745 0.75300002 3.6878252e-40
0.0021571408 -0.013661902 0.75500005 3.6913985e-40
0.0036000041 -0.013680013 0.7560001 5.5245211e-40
0.0050399988 -0.013679999 0.75600004 7.3684337e-40
0.0064800037 -0.01368001 0.75600004 5.5245772e-40
0.0079199988 -0.013679999 0.7560001 3.6914405e-40
0.0094095273 -0.013752392 0.76000005 3.6914265e-40
0.01085715 -0.013752402 0.76000005 2.7802182e-40
0.012304772 -0.013752406 0.76000005 2.7873788e-40
0.013752384 -0.013752389 0.76000005 2.7838195e-40
0.015220001 -0.013770476 0.7610001 3.7058039e-40
0.016669523 -0.013770475 0.7610001 4.6242149e-40
0.018119045 -0.01377047 0.76100004 5.5426259e-40
0.019568568 -0.013770469 0.76100004 6.4610369e-40
0.021018093 -0.013770469 0.7610001 7.3794479e-40
0.022467617 -0.013770469 0.7610001 8.3015724e-40
0.02391714 -0.013770469 0.7610001 1.1060407e-39
0.025366662 -0.013770469 0.7610001 1.2918963e-39
0.026816197 -0.01377049 0.76100004 1.8443764e-39
0.028265709 -0.013770465 0.76100004 2.3978949e-39
0.029715234 -0.013770462 0.7610001 2.7688186e-39
0.029228564 -0.012340945 0.6820001 3.4120342e-39
0.030572388 -0.012359071 0.68300003 3.6868177e-39
0.031873342 -0.012359063 0.68300003 3.6875295e-39
0.033222847 -0.01237712 0.68400007 3.5953381e-39
0.034525707 -0.012377127 0.68400007 3.5020691e-39
0.035828568 -0.012377135 0.68400007 3.3212791e-39
0.037131429 -0.012377138 0.68400002 5.6304495e-39
0.038602863 -0.012431453 0.68700004 7.8388328e-39
0.03991143 -0.012431438 0.68700004 7.9339235e-39
0.041339997 -0.01246761 0.68900001 8.0168005e-39
0.042714279 -0.012485699 0.69000012 1.2235505e-38
0.044219997 -0.012539996 0.69300008 1.6502337e-38
0.045605719 -0.012558102 0.69399995 2.0019777e-38
0.04713048 -0.012612379 0.69700003 2.341769e-38
0.048527624 -0.012630493 0.69799995 2.341769e-38
0.049999993 -0.012666647 0.70000005 2.341769e-38
0.05140667 -0.012684774 0.70100003 2.341769e-38
0.052892383 -0.01272097 0.70300001 2.341769e-38
0.054231431 -0.012720958 0.70300001 2.341769e-38
-0.017523818 -0.01191618 0.73600012 8.2831873e-40
-0.016143814 -0.011932378 0.73700005 6.4464634e-40
-0.014739992 -0.011932408 0.73700005 3.6913845e-40
-0.013372386 -0.011964758 0.73900002 3.6949578e-40
-0.011980951 -0.01198096 0.74000001 2.7873788e-40
-0.010614291 -0.012029517 0.74300003 3.6985732e-40
-0.0091990475 -0.012029528 0.74300003 4.6063343e-40
-0.0078257285 -0.012094253 0.7470001 3.6989095e-40
-0.0064114244 -0.012110488 0.74800003 2.787561e-40
-0.0050000069 -0.012142841 0.75000006 2.7802042e-40
-0.0035809549 -0.012175235 0.75200003 1.8582619e-40
-0.0021428498 -0.01214288 0.75000006 2.7730295e-40
-0.00071619888 -0.012175218 0.75200003 3.6914125e-40
0.00071904185 -0.012223798 0.75500005 4.6097815e-40
0.0021571359 -0.012223792 0.75500005 5.5317098e-40
0.0036000067 -0.012240019 0.75600004 5.5352831e-40
0.005040003 -0.012240009 0.7560001 5.5424998e-40
0.0064799972 -0.012239994 0.7560001 4.6134249e-40
0.0079200007 -0.012240005 0.75600004 4.6062502e-40
0.0093847644 -0.012272389 0.75800002 3.6986432e-40
0.010828573 -0.012272386 0.75800002 3.7021885e-40
0.012304768 -0.012304779 0.76000005 4.6204874e-40
0.013752382 -0.012304762 0.76000011 4.6240888e-40
0.015219995 -0.012320939 0.7610001 4.6241028e-40
0.016669517 -0.012320939 0.7610001 4.6241308e-40
0.01811905 -0.012320961 0.76100004 4.6205575e-40
0.019568574 -0.01232096 0.76100004 5.5352971e-40
0.021018099 -0.012320959 0.7610001 7.371965e-40
0.022467623 -0.012320958 0.7610001 8.2905021e-40
0.023917135 -0.012320932 0.7610001 9.2161999e-40
0.025366666 -0.012320954 0.76100004 1.1053204e-39
0.026816191 -0.012320953 0.76100004 1.4744841e-39
0.028265715 -0.012320953 0.7610001 1.8429135e-39
0.029715238 -0.012320953 0.7610001 2.2138526e-39
0.031873334 -0.0110581 0.68300003 3.412023e-39
0.033222865 -0.0110743 0.68400002 3.5967772e-39
0.034525711 -0.011074287 0.68400002 3.5953479e-39
0.035828575 -0.011074294 0.68400002 3.5939102e-39
0.037131436 -0.011074302 0.68400002 4.7045429e-39
0.038546667 -0.011106663 0.68600005 5.8170029e-39
0.039911434 -0.011122876 0.68700004 6.9176248e-39
0.041340005 -0.01115525 0.68900001 8.1057913e-39
0.042714287 -0.01117143 0.69000006 1.4003756e-38
0.044220001 -0.011220002 0.69300002 2.0012563e-38
0.045605719 -0.011236199 0.69400001 2.1671022e-38
0.04699523 -0.011252371 0.69500011 2.341769e-38
0.048527621 -0.011300958 0.69799995 2.341769e-38
0.049999993 -0.011333321 0.70000011 2.341769e-38
0.05140667 -0.011349539 0.70100003 2.341769e-38
0.052741911 -0.011349538 0.70100003 2.341769e-38
0.054231435 -0.011381925 0.70300001 2.341769e-38
-0.017547615 -0.010528593 0.73700005 8.2797541e-40
-0.01614381 -0.010528578 0.73700005 6.4431003e-40
-0.014739998 -0.010528582 0.73700005 3.6915106e-40
-0.013372375 -0.010557163 0.73900002 3.6877972e-40
-0.012013337 -0.010599995 0.74200004 2.7802182e-40
-0.010614295 -0.010614263 0.74300009 4.6169561e-40
-0.009199053 -0.010614272 0.74300009 5.5353812e-40
-0.0078047658 -0.010642851 0.74500006 4.6206836e-40
-0.0064114295 -0.010685716 0.74800003 2.7803023e-40
-0.0049999938 -0.010714299 0.75000006 1.8510872e-40
-0.0035714305 -0.010714284 0.75000006 9.3631961e-41
-0.0021428568 -0.010714291 0.75000006 2.7694422e-40
-0.00071619864 -0.010742841 0.75200009 3.6915106e-40
0.00071904698 -0.010785713 0.75500005 5.5283466e-40
0.0021571396 -0.010785709 0.75500005 6.4501768e-40
0.0036000009 -0.010800004 0.7560001 5.5388984e-40
0.0050400053 -0.010800013 0.7560001 3.7021885e-40
0.0064799995 -0.0108 0.75600004 4.6133828e-40
0.0079200035 -0.010800011 0.75600004 4.6133688e-40
0.0093847644 -0.01082858 0.75800002 4.6241308e-40
0.010828573 -0.010828576 0.75800002 4.6205154e-40
0.012272381 -0.010828574 0.75800002 5.5352551e-40
0.01371619 -0.010828571 0.75800002 6.4607987e-40
0.015199999 -0.010857142 0.76000011 5.546045e-40
0.01664762 -0.010857146 0.76000005 3.7057758e-40
0.018119046 -0.010871424 0.76100004 4.6133968e-40
0.01956857 -0.010871424 0.76100004 4.6133688e-40
0.021018093 -0.010871422 0.7610001 6.4464634e-40
0.022467617 -0.010871422 0.7610001 8.2904461e-40
0.023917142 -0.010871422 0.7610001 8.2905441e-40
0.025366675 -0.010871443 0.76100004 8.2943557e-40
0.026816187 -0.010871417 0.76100004 1.1053246e-39
0.028265711 -0.010871417 0.76100004 1.2908047e-39
0.029676197 -0.010857156 0.76000011 1.6606718e-39
0.031123819 -0.01085716 0.76000005 1.93763e-39
0.033222862 -0.0097714355 0.68400002 3.596057e-39
0.034525711 -0.0097714206 0.68400002 3.6886127e-39
0.035828572 -0.0097714318 0.68400002 3.7786476e-39
0.037131436 -0.0097714392 0.68400002 3.7768483e-39
0.038546659 -0.0097999806 0.68600011 3.6940091e-39
0.040027622 -0.0098428754 0.68900001 5.9052637e-39
0.041400004 -0.0098571526 0.69000006 8.1165519e-39
0.042776182 -0.0098714121 0.6910001 1.575295e-38
0.044219997 -0.009899986 0.69300008 2.3405461e-38
0.045605723 -0.0099143004 0.69400001 2.341769e-38
0.046995234 -0.009928559 0.69500005 2.341769e-38
0.048458092 -0.0099571319 0.69700003 2.341769e-38
0.049999993 -0.0099999886 0.70000005 2.341769e-38
0.051406667 -0.0100143 0.70100003 2.341769e-38
0.052741911 -0.010014304 0.70100003 2.341769e-38
0.054231431 -0.010042874 0.70300001 2.341769e-38
-0.017523818 -0.0091123702 0.73600012 7.3615533e-40
-0.016121905 -0.0091123832 0.73600012 5.5285568e-40
-0.014740005 -0.0091247549 0.73700005 4.6099777e-40
-0.013372375 -0.0091495411 0.73900002 5.5316958e-40
-0.011980954 -0.0091619072 0.74000007 5.5317238e-40
-0.010600011 -0.0091866469 0.7420001 8.29039e-40
-0.0091990512 -0.0091990409 0.74300003 1.1049028e-39
-0.0078047649 -0.0092238029 0.74500006 7.371993e-40
-0.0064028655 -0.0092485584 0.7470001 4.6133408e-40
-0.0049866727 -0.0092609413 0.74800003 3.6949718e-40
-0.0035619114 -0.0092609385 0.74800003 2.7802042e-40
-0.0021371415 -0.009260959 0.74799997 4.6097395e-40
-0.00071429013 -0.009285707 0.75000006 6.4431003e-40
0.00071429444 -0.0092857378 0.75 5.5285568e-40
0.0021571445 -0.0093476241 0.75500005 5.531948e-40
0.0035952376 -0.0093476204 0.75500005 4.6169702e-40
0.0050333315 -0.0093476148 0.75500005 3.7057618e-40
0.0064800032 -0.0093600107 0.7560001 3.6985591e-40
0.007919997 -0.0093599949 0.75600004 4.6133268e-40
0.0093600014 -0.009360007 0.75600004 4.6169001e-40
0.010800006 -0.0093600182 0.75600004 4.6169001e-40
0.012240002 -0.009360007 0.7560001 7.3755523e-40
0.013680007 -0.0093600173 0.7560001 9.2194509e-40
0.015120002 -0.0093600024 0.75600004 6.464386e-40
0.016647618 -0.0094095208 0.76000005 3.7129505e-40
0.018095251 -0.0094095496 0.76000005 4.6241728e-40
0.019542862 -0.0094095338 0.76000005 5.5353251e-40
0.021018099 -0.009421913 0.7610001 7.372007e-40
0.022467611 -0.0094218869 0.7610001 9.2123323e-40
0.023917135 -0.0094218869 0.7610001 8.290404e-40
0.025366668 -0.0094219074 0.76100004 7.3722312e-40
0.026816191 -0.0094219074 0.76100004 7.3724134e-40
0.028228572 -0.0094095217 0.76000005 8.2909645e-40
0.029598091 -0.0093847504 0.75800008 1.198609e-39
0.031041907 -0.0093847672 0.75800002 1.5670412e-39
0.032485716 -0.0093847662 0.75800002 2.0291026e-39
0.034525711 -0.0084685581 0.68400007 3.5042173e-39
0.035828572 -0.0084685637 0.68400007 3.7800727e-39
0.037131432 -0.0084685748 0.68400007 3.0414328e-39
0.038602863 -0.0085057309 0.68700004 2.3071342e-39
0.040027622 -0.008530491 0.68900001 5.8062353e-39
0.0414 -0.0085428627 0.69000012 9.3147168e-39
0.042776186 -0.0085552325 0.69100004 1.6322631e-38
0.044219997 -0.0085799899 0.69300002 2.3417666e-38
0.045605715 -0.0085923728 0.69400001 2.341769e-38
0.046995234 -0.008604751 0.69500005 2.341769e-38
0.048458092 -0.0086295083 0.69700003 2.341769e-38
0.049999986 -0.0086666374 0.70000005 2.341769e-38
0.05140667 -0.0086790621 0.70100003 2.341769e-38
0.052741911 -0.0086790649 0.70100003 2.341769e-38
0.054308571 -0.0087161968 0.70400012 2.341769e-38
-0.021404769 -0.0075952304 0.72500002 5.5282345e-40
-0.020134278 -0.0076371622 0.72900003 4.6134389e-40
-0.018822854 -0.0076685813 0.73200005 5.5246052e-40
-0.01752381 -0.0077104741 0.73600006 5.5282626e-40
-0.016143804 -0.0077209719 0.73700005 5.53192e-40
-0.014740002 -0.007720957 0.73700011 5.5318079e-40
-0.013372386 -0.0077418988 0.73900002 7.371979e-40
-0.011980956 -0.0077523743 0.74000001 8.2867606e-40
-0.010600004 -0.0077733235 0.74200004 1.1956621e-39
-0.0091990568 -0.0077837897 0.74300009 1.56336e-39
-0.0078047733 -0.0078047351 0.74500012 1.1045399e-39
-0.0063857199 -0.0078047509 0.74500006 6.453624e-40
-0.0049800081 -0.0078256987 0.7470001 5.5352691e-40
-0.0035619054 -0.0078361919 0.74800003 4.6133268e-40
-0.0021371443 -0.0078361891 0.74800003 6.4464494e-40
-0.00071620074 -0.0078780744 0.75200003 8.2832714e-40
0.00071617711 -0.0078780642 0.75200003 6.4466876e-40
0.0021514364 -0.0078885918 0.75300002 4.6098796e-40
0.0035952332 -0.0079095149 0.75500005 3.6914265e-40
0.0050333361 -0.0079095308 0.75500005 2.7802182e-40
0.0064800065 -0.0079200175 0.75600004 3.6913845e-40
0.00792001 -0.0079200277 0.75600004 4.6169001e-40
0.0093599949 -0.0079199923 0.7560001 4.6169001e-40
0.010799998 -0.0079200016 0.75600004 4.6169141e-40
0.012240006 -0.0079200128 0.75600004 8.2867606e-40
0.01368001 -0.007920024 0.75600004 1.1967341e-39
0.015120004 -0.0079200147 0.7560001 7.371979e-40
0.016603807 -0.0079409452 0.75800002 2.7874069e-40
0.018047614 -0.0079409424 0.75800008 4.6313054e-40
0.019491423 -0.0079409387 0.75800008 6.4608547e-40
0.020935239 -0.0079409564 0.75800002 8.2975787e-40
0.022379046 -0.0079409545 0.75800002 9.2123323e-40
0.023885721 -0.0079619251 0.76000005 7.3648324e-40
0.025333337 -0.0079619084 0.76000011 5.5318219e-40
0.026780957 -0.007961913 0.76000005 4.6064044e-40
0.02822857 -0.0079618962 0.76000011 3.6989795e-40
0.029598091 -0.0079409396 0.75800008 7.3761689e-40
0.030959999 -0.0079199933 0.7560001 1.1067679e-39
0.032400005 -0.0079200044 0.7560001 1.6592313e-39
0.033840004 -0.0079200175 0.7560001 2.2131253e-39
0.03871524 -0.0072181118 0.68900001 8.3200555e-40
0.040027615 -0.007218082 0.68900001 5.6053368e-39
0.041399997 -0.0072285687 0.69000006 1.0423566e-38
0.042776193 -0.0072390572 0.6910001 1.6989181e-38
0.044092372 -0.0072390386 0.69100004 2.3417677e-38
0.04553999 -0.0072599933 0.69300008 2.341769e-38
0.046927609 -0.0072704558 0.69400001 2.341769e-38
0.048527624 -0.0073123951 0.69799995 2.341769e-38
0.04985714 -0.0073123747 0.69800001 2.341769e-38
0.051333323 -0.007333294 0.70000011 2.341769e-38
0.052666668 -0.0073333303 0.70000005 2.341769e-38
0.054385711 -0.0073857247 0.70500004 2.341769e-38
0.055728581 -0.0073857433 0.70500004 2.341769e-38
-0.022785727 -0.0062142652 0.72500008 5.5317378e-40
-0.021434287 -0.0062228632 0.72600001 5.5317938e-40
-0.020134293 -0.0062485584 0.72900009 4.6169702e-40
-0.018822853 -0.0062742983 0.73200005 4.6133268e-40
-0.017547622 -0.0063171429 0.73700011 5.5316958e-40
-0.01614381 -0.0063171466 0.73700005 4.6133408e-40
-0.01474 -0.0063171503 0.73700005 4.6133268e-40
-0.013372377 -0.0063343034 0.73900002 5.5352551e-40
-0.011980956 -0.0063428492 0.74000001 7.371979e-40
-0.010600001 -0.0063600023 0.74200004 8.2867606e-40
-0.0091990624 -0.006368537 0.74300009 9.2015143e-40
-0.0078047733 -0.0063856882 0.74500012 8.2867326e-40
-0.0064028613 -0.0064028525 0.7470001 6.45361e-40
-0.0049800016 -0.0064028553 0.74700004 5.5352551e-40
-0.0035619095 -0.0064114188 0.74800003 4.6133128e-40
-0.0021371481 -0.006411416 0.74800003 5.5316677e-40
-0.0007162012 -0.0064456887 0.75200003 6.4428621e-40
0.00071715453 -0.0064543164 0.75300002 6.4464494e-40
0.0021514331 -0.0064542997 0.75300002 5.5281084e-40
0.0035952278 -0.0064714053 0.75500005 6.453638e-40
0.005033331 -0.0064714239 0.75500005 7.371979e-40
0.0064714248 -0.0064714183 0.75500005 6.4571973e-40
0.0079095168 -0.0064714141 0.75500005 4.6312494e-40
0.0093599977 -0.0064799967 0.75600004 4.6204874e-40
0.010800002 -0.0064800088 0.75600004 4.6169281e-40
0.012239998 -0.0064799986 0.7560001 7.372007e-40
0.013680003 -0.0064800088 0.7560001 9.2087029e-40
0.015120006 -0.0064800191 0.75600004 6.4500367e-40
0.016560001 -0.0064800056 0.75600004 3.6913845e-40
0.017999997 -0.0064799953 0.7560001 4.6205014e-40
0.019440003 -0.0064800056 0.7560001 6.464442e-40
0.020880008 -0.0064800163 0.75600004 1.0134331e-39
0.022379046 -0.0064971452 0.75800002 1.3804107e-39
0.023822855 -0.0064971414 0.75800002 1.012703e-39
0.025266675 -0.0064971638 0.75800002 7.3791817e-40
0.026710473 -0.0064971349 0.75800002 5.5389265e-40
0.028080011 -0.0064800233 0.75600004 4.624313e-40
0.029519996 -0.0064799874 0.7560001 7.3831193e-40
0.030960003 -0.0064799995 0.75600004 1.0141954e-39
0.032357141 -0.0064714169 0.75500005 1.3826304e-39
0.033795234 -0.0064714113 0.75500005 1.8421848e-39
0.035233326 -0.0064714076 0.75500005 2.3964446e-39
0.03871524 -0.0059057293 0.68900001 4.5962169e-40
0.040027622 -0.0059057255 0.68900001 6.4422511e-39
0.04146 -0.0059228525 0.6910001 1.2540095e-38
0.042899992 -0.0059399945 0.69300008 1.7989351e-38
0.044220001 -0.0059400038 0.69300002 2.341769e-38
0.045539994 -0.0059399963 0.69300002 2.341769e-38
0.046927609 -0.0059485533 0.69400001 2.341769e-38
0.048458092 -0.0059742727 0.69700003 2.341769e-38
0.049999993 -0.0059999772 0.70000005 2.341769e-38
0.051333334 -0.0059999893 0.70000005 2.341769e-38
0.053042859 -0.006042874 0.70499998 2.341769e-38
0.054385722 -0.0060428758 0.70500004 2.341769e-38
-0.022785723 -0.004833315 0.72500008 5.5388984e-40
-0.021434283 -0.0048400075 0.72600007 5.5353251e-40
-0.020134289 -0.0048599993 0.72900009 4.6169421e-40
-0.018925713 -0.0049066772 0.73600012 4.6169141e-40
-0.017547622 -0.0049133361 0.73700005 4.6169421e-40
-0.016143806 -0.0049133454 0.73700011 3.6986292e-40
-0.014779991 -0.0049266932 0.73900002 2.7802462e-40
-0.013372377 -0.0049266857 0.73900002 4.6241028e-40
-0.011980958 -0.0049333223 0.74000007 5.5353531e-40
-0.010614291 -0.0049533234 0.74300009 4.6206556e-40
-0.0091990493 -0.0049533327 0.74300009 2.7766869e-40
-0.0078047724 -0.0049666413 0.74500012 4.6097254e-40
-0.0063857171 -0.0049666618 0.74500012 6.45361e-40
-0.0049800035 -0.0049799918 0.74700004 5.5388564e-40
-0.0035619044 -0.0049866722 0.74800003 4.6204874e-40
-0.0021342856 -0.004980003 0.74700004 4.6169001e-40
-0.00071428175 -0.0050000115 0.75000006 4.6133128e-40
0.00071617757 -0.0050133024 0.75200009 5.5316817e-40
0.0021485549 -0.0050132922 0.75200009 6.453624e-40
0.0035857216 -0.0050200182 0.75300002 9.2194509e-40
0.0050333259 -0.0050333147 0.75500005 1.1967341e-39
0.0064714183 -0.00503331 0.75500005 8.3010819e-40
0.0079095215 -0.0050333296 0.75500005 4.6204874e-40
0.0093476148 -0.0050333249 0.75500005 4.6169001e-40
0.010799997 -0.0050399932 0.7560001 4.6169141e-40
0.012240002 -0.0050400025 0.75600004 5.5352831e-40
0.013680005 -0.0050400156 0.75600004 6.453624e-40
0.015120002 -0.0050400035 0.7560001 5.5280944e-40
0.016560007 -0.0050400156 0.7560001 3.6949858e-40
0.017999999 -0.0050399997 0.75600004 4.6169421e-40
0.019440005 -0.0050400109 0.75600004 5.5388984e-40
0.020880003 -0.0050399997 0.7560001 1.1967397e-39
0.022320006 -0.0050400118 0.7560001 1.7473912e-39
0.02376 -0.0050399979 0.75600004 1.2871333e-39
0.025200006 -0.0050400072 0.75600004 8.2867606e-40
0.026639998 -0.0050399979 0.7560001 6.4572394e-40
0.028080007 -0.00504001 0.7560001 4.6242009e-40
0.029520009 -0.0050400211 0.75600004 6.4645822e-40
0.03091904 -0.0050333147 0.75500005 8.3050336e-40
0.032357145 -0.0050333329 0.75500005 1.1071015e-39
0.033705723 -0.005020021 0.75300002 1.3833478e-39
0.03509333 -0.0050133117 0.75200003 2.2106072e-39
0.0365257 -0.0050133052 0.75200003 3.0389259e-39
0.041459993 -0.0046066516 0.6910001 1.4564446e-38
0.042899992 -0.0046199993 0.69300002 1.9009586e-38
0.044219997 -0.0046199881 0.69300008 2.341769e-38
0.04553999 -0.0046199844 0.69300008 2.341769e-38
0.046859995 -0.0046199919 0.69300002 2.341769e-38
0.048319038 -0.004633321 0.69500011 2.341769e-38
0.049857143 -0.0046533267 0.69800001 2.341769e-38
0.051333327 -0.0046666344 0.70000011 2.341769e-38
0.052741911 -0.0046733548 0.70100003 2.341769e-38
-0.022785723 -0.0034523669 0.72500008 6.4608127e-40
-0.021434285 -0.0034571539 0.72600001 5.5352691e-40
-0.020355232 -0.0035095501 0.73700005 4.6097395e-40
-0.018951429 -0.0035095334 0.73700011 4.6133128e-40
-0.017547615 -0.0035095371 0.73700005 4.6169702e-40
-0.016143803 -0.0035095408 0.73700005 4.6134529e-40
-0.01478 -0.0035190533 0.73900002 3.6914686e-40
-0.013390478 -0.0035238105 0.74000001 4.6133688e-40
-0.01202953 -0.0035380803 0.74300003 4.6063203e-40
-0.010614288 -0.0035380914 0.74300003 3.6916788e-40
-0.0092238095 -0.0035476245 0.74500012 3.6879373e-40
-0.0078047621 -0.0035476189 0.74500012 4.6097254e-40
-0.0063857166 -0.0035476151 0.74500012 5.5352691e-40
-0.0049800063 -0.0035571314 0.74700004 4.6240888e-40
-0.0035619081 -0.0035618979 0.74800003 3.7093211e-40
-0.002134287 -0.0035571416 0.7470001 4.6204874e-40
-0.00071428827 -0.0035714235 0.75000006 4.6097254e-40
0.00071617571 -0.0035809192 0.75200009 5.5316677e-40
0.0021485637 -0.003580936 0.75200009 6.45361e-40
0.0035857207 -0.0035857277 0.75300002 7.3755523e-40
0.0050333305 -0.0035952309 0.75500005 9.2050876e-40
0.006471423 -0.0035952253 0.75500005 7.371965e-40
0.0079095149 -0.0035952206 0.75500005 5.5280804e-40
0.0093476083 -0.003595216 0.75500005 4.6133128e-40
0.010785713 -0.0035952346 0.75500005 4.6097254e-40
0.012223805 -0.003595229 0.75500005 5.5352551e-40
0.0136619 -0.0035952243 0.75500005 5.5388564e-40
0.015120003 -0.0036000109 0.75600004 4.6169141e-40
0.016560009 -0.0036000202 0.75600004 2.7766449e-40
0.017999995 -0.0035999843 0.7560001 3.6950139e-40
0.019439999 -0.0035999974 0.7560001 5.5281224e-40
0.020852387 -0.0035952425 0.75500005 9.2086889e-40
0.022320008 -0.0036000169 0.75600004 1.2878521e-39
0.023760004 -0.0036000076 0.7560001 1.0119855e-39
0.025199998 -0.0035999946 0.75600004 8.279558e-40
0.026640002 -0.0036000048 0.75600004 7.3683777e-40
0.02804286 -0.0035952397 0.75500005 6.453624e-40
0.029480955 -0.0035952351 0.75500005 7.3791676e-40
0.030919045 -0.0035952304 0.75500005 9.2160177e-40
0.032271434 -0.0035857225 0.75300008 1.1067203e-39
0.033660948 -0.0035809381 0.75200003 1.3836883e-39
0.035093326 -0.0035809288 0.75200003 2.0276382e-39
0.036428578 -0.0035714391 0.75000006 2.6712154e-39
0.037857149 -0.003571444 0.75 2.7644956e-39
0.041459985 -0.0032904546 0.6910001 1.7982831e-38
0.042899989 -0.0032999839 0.69300008 2.0750515e-38
0.044283804 -0.0033047635 0.69400001 2.341769e-38
0.045605719 -0.0033047672 0.69400001 2.341769e-38
0.046927612 -0.0033047504 0.69400001 2.341769e-38
0.048458099 -0.0033190481 0.69700003 2.341769e-38
0.049857136 -0.0033237922 0.69800001 2.341769e-38
0.051333334 -0.0033333318 0.70000005 2.341769e-38
0.052741915 -0.0033381151 0.70100009 2.341769e-38
-0.020189531 -0.0020885568 0.73100007 3.6913845e-40
-0.018925713 -0.0021028675 0.73600012 4.6133128e-40
-0.017547622 -0.0021057099 0.73700005 4.6133688e-40
-0.01614381 -0.0021057155 0.73700005 4.6098235e-40
-0.01478 -0.0021114319 0.73900002 4.6097955e-40
-0.013390478 -0.0021142855 0.74000007 4.6097535e-40
-0.012029536 -0.0021228294 0.74300009 3.6878953e-40
-0.010614294 -0.0021228406 0.74300009 3.684378e-40
-0.0092238076 -0.0021285757 0.74500006 3.6914686e-40
-0.0078047621 -0.002128572 0.74500012 4.6097254e-40
-0.0063857161 -0.0021285701 0.74500012 4.6204874e-40
-0.0049800081 -0.0021342679 0.7470001 3.7093211e-40
-0.0035714351 -0.0021428454 0.75000006 2.7909521e-40
-0.0021342894 -0.0021342791 0.7470001 3.7057198e-40
-0.00071428687 -0.0021428566 0.75 4.6169001e-40
0.00071427861 -0.0021428398 0.75000006 5.5352551e-40
0.0021428631 -0.0021428734 0.75000006 5.5388564e-40
0.0035809411 -0.0021485442 0.75200003 6.4608267e-40
0.0050200084 -0.0021514471 0.75300002 6.4573094e-40
0.0064542978 -0.0021514555 0.75300002 6.4573935e-40
0.0079095196 -0.0021571366 0.75500005 5.5389405e-40
0.009347613 -0.002157131 0.75500005 5.5388564e-40
0.010785708 -0.0021571254 0.75500005 4.6169141e-40
0.012223799 -0.0021571198 0.75500005 4.6169001e-40
0.013661904 -0.0021571403 0.75500005 4.6241028e-40
0.015099999 -0.0021571338 0.75500005 3.7057618e-40
0.016538091 -0.0021571282 0.75500005 1.8655346e-40
0.017976183 -0.0021571231 0.75500005 3.6987273e-40
0.019414278 -0.0021571184 0.75500005 4.6170122e-40
0.020852381 -0.0021571361 0.75500011 6.4608407e-40
0.02232 -0.0021600036 0.7560001 8.2867747e-40
0.023760008 -0.0021600139 0.75600004 8.279586e-40
0.025166668 -0.0021571426 0.75500005 7.3648184e-40
0.026604762 -0.002157137 0.75500005 8.2831593e-40
0.028042855 -0.0021571305 0.75500005 8.2939353e-40
0.029480958 -0.002157151 0.75500005 9.2194789e-40
0.030837152 -0.0021514453 0.75300002 9.219535e-40
0.032271441 -0.0021514536 0.75300002 1.1063476e-39
0.033660937 -0.0021485325 0.75200009 1.29112e-39
0.035000008 -0.0021428636 0.75000006 1.7524751e-39
0.036428567 -0.0021428487 0.75000006 2.2120239e-39
0.037756186 -0.0021371304 0.74800003 2.0298018e-39
0.039180961 -0.0021371501 0.74800003 1.8428784e-39
0.041459996 -0.0019742742 0.6910001 2.1378965e-38
0.042899992 -0.0019799888 0.69300002 2.24075e-38
0.044283807 -0.001982861 0.69400001 2.341769e-38
0.045605715 -0.0019828666 0.69400001 2.341769e-38
0.046995234 -0.0019856996 0.69500011 2.341769e-38
0.048458092 -0.0019914217 0.69700009 2.341769e-38
0.049999997 -0.0019999917 0.70000011 2.341769e-38
0.051406682 -0.0020028993 0.70100003 2.341769e-38
-0.020217132 -0.00069717388 0.73200005 6.4428621e-40
-0.01892571 -0.00070097181 0.73600006 5.5280804e-40
-0.017547611 -0.00070193294 0.73700005 4.6097535e-40
-0.016143806 -0.00070191431 0.73700005 4.6097815e-40
-0.014779991 -0.0007038347 0.73900002 4.6133408e-40
-0.013390481 -0.00070475484 0.74000001 5.5316677e-40
-0.012013339 -0.00070665474 0.74200004 5.5281084e-40
-0.010614291 -0.00070761028 0.74300003 4.6097815e-40
-0.0091990586 -0.00070759724 0.74300009 4.6133408e-40
-0.0078047621 -0.00070952694 0.74500006 4.6169001e-40
-0.0063857157 -0.00070952321 0.74500012 4.6240747e-40
-0.0049800016 -0.00071142684 0.74700004 3.7057198e-40
-0.0035714223 -0.0007143009 0.75000006 3.7128944e-40
-0.0021342838 -0.00071143801 0.74700004 5.5424297e-40
-0.00071238371 -0.00071237492 0.74800003 6.4571973e-40
0.00071429025 -0.0007142981 0.75 6.45361e-40
