# .PCD v0.7 - Point Cloud Data file format
VERSION 0.7
FIELDS x y z rgb
SIZE 4 4 4 4
TYPE F F F F
COUNT 1 1 1 1
WIDTH 964
HEIGHT 1
VIEWPOINT 0 0 0 1 0 0 0
POINTS 964
DATA ascii
0.045868576 -0.0019942813 0.69800001 2.341769e-38
0.047333341 -0.0019999996 0.70000005 2.341769e-38
0.048736192 -0.0020028579 0.70100003 2.341769e-38
0.050071437 -0.002002863 0.70099998 2.341769e-38
-0.025888573 -0.00066380785 0.69700003 1.8454204e-39
-0.024560954 -0.00066381157 0.69700003 1.9383391e-39
-0.023233332 -0.00066381902 0.69700003 1.7539562e-39
-0.021842856 -0.00066191726 0.69500005 1.6624949e-39
-0.020519048 -0.00066191354 0.69500005 1.8461813e-39
-0.019167621 -0.00066095055 0.69400007 2.0305543e-39
-0.017845714 -0.00066095428 0.69400007 1.6610431e-39
-0.016500002 -0.00066000619 0.69300002 1.386994e-39
-0.015092381 -0.00065620081 0.68900001 1.4788505e-39
-0.013780001 -0.00065619708 0.68900001 1.6642942e-39
-0.012431427 -0.00065430463 0.68700004 1.5699265e-39
-0.011106663 -0.00065335096 0.68600005 1.570658e-39
-0.0098000001 -0.00065333792 0.68600005 1.7532668e-39
-0.0084685739 -0.00065142126 0.68400002 2.0302194e-39
-0.0071657156 -0.00065142871 0.68400002 1.8458408e-39
-0.0058628567 -0.0006514343 0.68400002 1.5720999e-39
-0.0045533339 -0.0006504769 0.68300003 1.0153192e-39
-0.0032523829 -0.00065046758 0.68300003 4.6046107e-40
-0.0019428573 -0.0006476196 0.68000001 5.0792403e-39
-0.00064761809 -0.00064762519 0.68000001 9.713012e-39
0.00064762065 -0.00064762705 0.68000001 1.1453964e-38
0.0019400044 -0.00064669014 0.67899996 1.3305023e-38
0.0032333359 -0.00064667524 0.67900002 1.3661245e-38
0.004533336 -0.00064763078 0.68000001 1.403681e-38
0.0058200024 -0.00064667896 0.67900002 1.430296e-38
0.0071133361 -0.00064667896 0.67900002 1.4592095e-38
0.0084066698 -0.00064667896 0.67899996 1.3926284e-38
0.0097000021 -0.00064668083 0.67900002 1.328729e-38
0.010993336 -0.00064667896 0.67900002 8.2039607e-39
0.01228667 -0.00064667896 0.67899996 3.1268097e-39
0.013580004 -0.00064668083 0.67900002 2.1158906e-39
0.014873336 -0.00064668083 0.67899996 1.1085854e-39
0.01616667 -0.00064666779 0.67900002 1.7543192e-39
0.017460005 -0.00064668083 0.67900002 2.400399e-39
0.018753339 -0.00064668269 0.67899996 2.8602954e-39
0.020046672 -0.00064668269 0.67900002 3.2290863e-39
0.021371432 -0.00064761774 0.68000001 3.5960822e-39
0.022733333 -0.0006495195 0.68200004 3.8719306e-39
0.023961911 -0.00064762891 0.68000001 4.0555848e-39
0.02533143 -0.00064953067 0.68199998 4.3318073e-39
0.026669526 -0.00065047131 0.68300003 4.1467e-39
0.028011432 -0.00065144175 0.68400002 4.0555848e-39
0.029314287 -0.0006514343 0.68399996 3.3191099e-39
0.030617142 -0.00065142778 0.68400002 2.5823128e-39
0.032013338 -0.00065334537 0.68600005 4.984783e-39
0.03332001 -0.0006533463 0.68600005 7.3940564e-39
0.034677148 -0.00065429904 0.68700004 8.5857907e-39
0.036090478 -0.00065619708 0.68900001 9.7781794e-39
0.037457153 -0.00065715355 0.69000006 1.060215e-38
0.038771439 -0.0006571433 0.69000006 1.143055e-38
0.040260006 -0.00066000246 0.69300002 1.7330707e-38
0.041580003 -0.00066000526 0.69299996 2.3234013e-38
0.043023817 -0.00066190329 0.69500005 2.3325854e-38
0.044475246 -0.00066381251 0.69700003 2.341769e-38
0.045868576 -0.0006647578 0.69800001 2.341769e-38
0.047333341 -0.0006666698 0.70000005 2.341769e-38
0.048666671 -0.00066667539 0.70000005 2.341769e-38
0.050071441 -0.00066761603 0.70100003 2.341769e-38
-0.02588857 0.00066379807 0.69700003 1.7564421e-39
-0.024596194 0.00066476665 0.69799995 1.4791448e-39
-0.023233334 0.00066380179 0.69700003 1.3873121e-39
-0.021842858 0.00066190748 0.69500005 1.2940501e-39
-0.02051905 0.00066189445 0.69500005 1.9383419e-39
-0.019195238 0.000661887 0.69500005 2.4868311e-39
-0.017845716 0.00066095195 0.69400001 1.8418177e-39
-0.01645238 0.00065809092 0.69099998 1.107854e-39
-0.015092381 0.00065617799 0.68900001 1.384438e-39
-0.013740001 0.00065428368 0.68700004 1.6595788e-39
-0.012431427 0.00065426505 0.68700004 1.4744659e-39
-0.011106668 0.00065333932 0.68600005 1.2922396e-39
-0.009800001 0.00065333559 0.68600011 1.3851625e-39
-0.0084685711 0.00065142452 0.68399996 1.3844408e-39
-0.0071657146 0.00065142824 0.68400002 1.4762721e-39
-0.0058628558 0.00065142079 0.68400002 1.5673902e-39
-0.0045533339 0.00065047271 0.68300003 1.1971769e-39
-0.0032523829 0.00065048574 0.68300009 7.3911908e-40
-0.0019428554 0.00064760796 0.68000001 2.584482e-39
-0.00071238237 0.00071238703 0.74800003 4.4409685e-39
0.0007142867 0.00071428041 0.75000006 7.4866528e-39
0.0019400012 0.00064666173 0.67900002 1.0424315e-38
0.0032333378 0.0006466487 0.67900002 1.1720776e-38
0.0045266701 0.0006466487 0.67899996 1.2909622e-38
0.005820001 0.00064665987 0.67900002 1.485647e-38
0.0071133375 0.00064664497 0.67900002 1.6684941e-38
0.0084066689 0.00064665801 0.67900002 1.7152381e-38
0.0097000031 0.00064665987 0.67900002 1.7596758e-38
0.010993339 0.00064664497 0.67899996 1.1527272e-38
0.01228667 0.00064665801 0.67900002 5.4316767e-39
0.013580003 0.00064665801 0.67900002 3.0310254e-39
0.01487334 0.00064664497 0.67899996 5.5722633e-40
0.01616667 0.00064665615 0.67900002 1.479547e-39
0.017460003 0.00064665615 0.67899996 2.3071384e-39
0.018753337 0.00064665428 0.67900002 2.7673893e-39
0.020076193 0.00064761168 0.68000001 3.1358131e-39
0.021371432 0.00064760796 0.68000001 3.4109679e-39
0.022733334 0.00064951531 0.68199998 3.5953451e-39
0.024032386 0.00064951717 0.68200004 3.7793636e-39
0.02533143 0.00064951717 0.68200004 3.8711949e-39
0.026669526 0.00065048202 0.68300009 3.8708334e-39
0.028011432 0.00065142824 0.68400002 3.8711949e-39
0.029314289 0.00065142266 0.68400002 3.2283506e-39
0.030617146 0.00065142824 0.68400002 2.4936779e-39
0.031920005 0.00065142266 0.68400002 3.3230784e-39
0.033320006 0.00065333187 0.68600005 4.0700027e-39
0.034677148 0.00065427064 0.68700004 7.2046499e-39
0.035985723 0.00065427902 0.68700004 1.0324541e-38
0.037402865 0.00065618078 0.68900001 1.1152133e-38
0.038771436 0.0006571475 0.69000006 1.1897641e-38
0.040143818 0.00065808347 0.69099998 1.76037e-38
0.041580006 0.0006599871 0.69299996 2.3226837e-38
0.043023821 0.00066189631 0.69500005 2.3325854e-38
0.044475242 0.00066380552 0.69700009 2.341769e-38
0.045802865 0.00066379993 0.69700003 2.341769e-38
0.047198102 0.00066476851 0.69800001 2.341769e-38
0.048666671 0.00066666934 0.70000005 2.341769e-38
0.050071437 0.00066761742 0.70100003 2.341769e-38
-0.025925716 0.0019942836 0.69800001 1.2032642e-39
-0.024596194 0.0019942892 0.69800001 1.0181582e-39
-0.023233334 0.0019914189 0.69700003 1.0163632e-39
-0.021905715 0.0019914152 0.69700003 1.1056889e-39
-0.020519048 0.001985708 0.69500005 1.3826318e-39
-0.01919524 0.0019857099 0.69500005 1.6574124e-39
-0.017871432 0.0019857136 0.69500005 1.1975076e-39
-0.017785717 0.002134294 0.74700004 7.368784e-40
-0.016319048 0.0021285533 0.745 9.2196611e-40
-0.013719999 0.0019599923 0.68600005 1.1045679e-39
-0.012431427 0.001962844 0.68700004 1.1060084e-39
-0.011106668 0.0019600017 0.68600005 1.1060155e-39
-0.009800001 0.0019600017 0.68600005 1.1063812e-39
-0.0084685711 0.0019542777 0.68400002 1.104928e-39
-0.0071657146 0.0019542833 0.68400002 1.1981803e-39
-0.0058628558 0.0019542759 0.68400002 1.1974894e-39
-0.0045533339 0.001951426 0.68300003 9.2093335e-40
-0.0032523801 0.0019514242 0.68300003 7.3509595e-40
-0.0021428564 0.0021428529 0.75000006 1.4733532e-39
-0.00071428495 0.0021428529 0.75000006 2.296354e-39
0.00071428705 0.002142851 0.75000006 3.7776288e-39
0.0021428582 0.002142851 0.75000006 5.2351628e-39
0.0032333364 0.0019399857 0.67899996 5.8930822e-39
0.0045266673 0.0019399987 0.67900002 6.5237772e-39
0.0058285743 0.0019428467 0.68000007 7.4640569e-39
0.0071133366 0.0019399857 0.67899996 8.3831574e-39
0.008406668 0.0019399987 0.67900002 8.6676588e-39
0.0097000049 0.0019399819 0.67900002 8.859128e-39
0.010993338 0.0019399838 0.67899996 5.900568e-39
0.01228667 0.0019399931 0.67900002 2.8473796e-39
0.013580005 0.0019399801 0.67899996 1.9315176e-39
0.014873336 0.0019399931 0.67900002 1.1093281e-39
0.016166668 0.0019399931 0.67900002 1.5703231e-39
0.017485717 0.0019428486 0.68000001 2.121685e-39
0.018780958 0.0019428448 0.68000001 2.5830051e-39
0.020076191 0.0019428523 0.68000007 3.0432587e-39
0.02137143 0.0019428486 0.68000007 3.2280059e-39
0.022733336 0.001948565 0.68200004 3.4113126e-39
0.023961905 0.0019428541 0.68000001 3.5953353e-39
0.02533143 0.0019485687 0.68199998 3.8697614e-39
0.026669528 0.0019514223 0.68300003 3.96195e-39
0.02801143 0.0019542833 0.68400002 4.0537897e-39
0.029314287 0.0019542796 0.68400002 3.6875267e-39
0.030617148 0.0019542722 0.68399996 3.3208868e-39
0.031920005 0.0019542926 0.68400002 3.411988e-39
0.033222862 0.0019542871 0.68400002 3.5924907e-39
0.034626678 0.0019599923 0.68600005 4.4291149e-39
0.035985719 0.001962844 0.68700004 5.2657083e-39
0.037294291 0.0019628534 0.68700004 8.8573666e-39
0.038715243 0.0019685531 0.68900001 1.2546608e-38
0.040143818 0.0019742779 0.69100004 1.7888888e-38
0.041640002 0.0019828526 0.69400001 2.3325846e-38
0.043023817 0.0019857071 0.69500005 2.341769e-38
0.044539049 0.0019942967 0.69800001 2.341769e-38
0.045868576 0.0019942883 0.69800001 2.341769e-38
0.047333337 0.002000001 0.70000011 2.341769e-38
0.048666671 0.0019999992 0.70000005 2.341769e-38
0.050214291 0.0020085608 0.70300001 2.341769e-38
-0.025888573 0.0033190472 0.69700009 7.4190486e-40
-0.024560954 0.0033190434 0.69700003 4.6460051e-40
-0.023233335 0.003319049 0.69700009 6.461149e-40
-0.021905713 0.0033190323 0.69700003 8.2942856e-40
-0.020578094 0.0033190416 0.69700009 8.287139e-40
-0.019250477 0.003319036 0.69700003 8.2978729e-40
-0.019105716 0.0035381026 0.74300009 6.461135e-40
-0.017738093 0.0035476012 0.745 3.7023987e-40
-0.016275238 0.0035380896 0.74300003 4.6242709e-40
-0.014899999 0.0035476123 0.74500006 4.6206696e-40
-0.013480951 0.0035476058 0.74500006 6.4645542e-40
-0.011106666 0.0032666677 0.68600005 8.2977328e-40
-0.009800001 0.003266664 0.68600005 8.2977889e-40
-0.0084685711 0.0032571347 0.68400002 8.2940894e-40
-0.0071657118 0.0032571272 0.68399996 8.2975646e-40
-0.0058542872 0.0032523831 0.68300003 8.2976908e-40
-0.0049999976 0.0035714132 0.75000006 7.3758886e-40
-0.0035714256 0.0035714132 0.75 6.4467156e-40
-0.0021428568 0.0035714244 0.75000006 3.6880074e-40
-0.00071428472 0.0035714244 0.75000006 9.2969147e-41
0.00071428658 0.0035714225 0.75000006 9.2285313e-41
0.0021485733 0.0035809444 0.75200003 9.2286714e-41
0.0035857172 0.0035856997 0.75300002 9.2289517e-41
0.0050133336 0.0035809518 0.75200009 9.3028001e-41
0.0058457153 0.0032476129 0.68200004 9.2330155e-41
0.0071238112 0.0032380854 0.68000001 9.8801351e-41
0.0084066698 0.0032333208 0.67900002 9.235818e-41
0.0108 0.003600002 0.75599998 1.0307251e-40
0.012223811 0.003595236 0.75500005 1.8445852e-40
0.01228667 0.0032333189 0.67900002 2.7738002e-40
0.013600004 0.0032380891 0.68000001 9.223907e-40
0.014873336 0.0032333171 0.67900002 1.5674112e-39
0.016166672 0.0032333189 0.67899996 1.7536129e-39
0.017460003 0.0032333301 0.67900002 1.938e-39
0.018753337 0.0032333171 0.67900002 2.3996872e-39
0.020076191 0.0032380947 0.68000001 2.8599507e-39
0.021371432 0.0032380891 0.68000001 3.0461426e-39
0.02266667 0.0032380854 0.68000001 3.1365306e-39
0.023961913 0.0032380817 0.68000001 3.5042187e-39
0.025331432 0.0032476147 0.68200004 3.7782776e-39
0.026669526 0.0032523887 0.68300003 4.0534142e-39
0.02801143 0.0032571421 0.68400002 4.2378096e-39
0.029271431 0.0032523831 0.68300003 4.1467e-39
0.030617146 0.0032571291 0.68400002 4.0552148e-39
0.031920008 0.0032571496 0.68400002 3.5956702e-39
0.033222869 0.0032571412 0.68400002 3.1311271e-39
0.034626674 0.0032666686 0.68600011 1.6535238e-39
0.035933338 0.0032666547 0.68600005 1.0886828e-40
0.037294295 0.003271423 0.68700004 6.6482476e-39
0.038715243 0.0032809421 0.68900001 1.3098321e-38
0.040143814 0.0032904742 0.69100004 1.8263056e-38
0.041580003 0.0033000063 0.69300002 2.3414816e-38
0.043023821 0.003309516 0.69500005 2.341769e-38
0.044539049 0.0033238174 0.69800001 2.341769e-38
0.045868579 0.0033238099 0.69800001 2.341769e-38
0.047333337 0.0033333439 0.70000005 2.341769e-38
0.048666667 0.0033333411 0.70000011 2.341769e-38
-0.025888572 0.0046466533 0.69700003 7.3864684e-40
-0.024560954 0.0046466608 0.69700009 5.5353391e-40
-0.023233334 0.004646657 0.69700003 7.3755523e-40
-0.021905717 0.0046466645 0.69700003 1.0123471e-39
-0.021670476 0.0048933327 0.73400003 9.2087169e-40
-0.020355238 0.004913317 0.73699999 7.3756364e-40
-0.019080002 0.0049466565 0.74200004 4.6241868e-40
-0.01766667 0.0049466603 0.74200004 2.7875049e-40
-0.016253332 0.0049466547 0.74199998 3.7022866e-40
-0.01484 0.0049466584 0.74199998 4.6169842e-40
-0.013444765 0.0049533369 0.74300003 6.45361e-40
-0.012061901 0.0049666502 0.745 8.2867887e-40
-0.010642856 0.0049666557 0.74500006 9.208773e-40
-0.0092485733 0.0049799997 0.74700004 1.0127086e-39
-0.0078361919 0.0049866708 0.74800003 9.2122762e-40
-0.006411429 0.0049866661 0.74799997 8.2903339e-40
-0.0050000004 0.004999999 0.75000006 7.3755523e-40
-0.0035714256 0.004999985 0.75 6.4536521e-40
-0.0021428564 0.0049999962 0.75000006 5.5281505e-40
-0.00071428472 0.0049999962 0.75000006 4.6061942e-40
0.00071428681 0.0049999962 0.75000006 4.6061661e-40
0.0021485738 0.0050133234 0.75200003 4.5990055e-40
0.0035857176 0.0050199842 0.75299996 4.6061802e-40
0.0050133341 0.0050133327 0.75200003 4.5989915e-40
0.0064457161 0.0050133262 0.75200003 3.6877832e-40
0.007888576 0.0050199851 0.75300002 1.8438986e-40
0.0093476176 0.0050333394 0.75500005 3.6913705e-40
0.010785712 0.0050333459 0.75500005 4.5953761e-40
0.012223809 0.0050333394 0.75500005 5.5244931e-40
0.013661903 0.0050333459 0.75500005 6.4468137e-40
0.015100001 0.0050333384 0.75500005 9.2166062e-40
0.016560001 0.005040003 0.75600004 1.2897355e-39
0.016190477 0.0045333374 0.68000007 1.1997077e-39
0.017460003 0.0045266561 0.67900002 1.2007909e-39
0.018753339 0.0045266524 0.67899996 1.6617676e-39
0.02004667 0.0045266543 0.67899996 2.1234772e-39
0.021340003 0.0045266505 0.67900002 2.4915563e-39
0.022633336 0.0045266524 0.67899996 2.7674033e-39
0.023926666 0.0045266654 0.67900002 3.1354431e-39
0.025257144 0.00453333 0.68000007 3.5024068e-39
0.026630476 0.0045466665 0.68199998 3.5942227e-39
0.028011428 0.0045599975 0.68400002 3.687147e-39
0.029271429 0.0045533348 0.68300003 3.7793538e-39
0.030617142 0.0045599975 0.68400002 3.9637409e-39
0.031920001 0.0045600049 0.68400002 3.686798e-39
0.033320006 0.004573334 0.68600005 3.499153e-39
0.03462667 0.0045733321 0.68600005 1.8410624e-39
0.035985723 0.0045799948 0.68700004 9.2663664e-41
0.037402868 0.0045933183 0.68900001 6.917252e-39
0.038715247 0.0045933183 0.68900001 1.3650033e-38
0.040085722 0.0045999931 0.69000006 1.8539288e-38
0.041580003 0.0046199951 0.69300002 2.341769e-38
0.043023817 0.0046333289 0.69500005 2.341769e-38
0.044539053 0.004653329 0.69799995 2.341769e-38
0.045868576 0.0046533449 0.69800001 2.341769e-38
0.047333337 0.0046666758 0.70000005 2.341769e-38
0.048666675 0.0046666712 0.70000005 2.341769e-38
-0.02306857 0.0062914211 0.73400003 1.1970942e-39
-0.021670476 0.0062914193 0.73399997 9.2158916e-40
-0.02035524 0.0063171387 0.73700005 6.4608267e-40
-0.019002857 0.0063342741 0.73899996 3.7093632e-40
-0.017619051 0.0063428637 0.74000001 9.5073897e-41
-0.016253334 0.0063599963 0.74199998 2.7803023e-40
-0.014860001 0.0063685691 0.74300003 4.6133968e-40
-0.013444763 0.0063685682 0.74300003 6.4429181e-40
-0.012061902 0.0063857017 0.74500006 7.3648884e-40
-0.010642857 0.0063857092 0.74500006 1.0119995e-39
-0.0092485743 0.0064028623 0.74700004 1.1963824e-39
-0.0078361901 0.0064114239 0.74799997 1.0130645e-39
-0.006411429 0.0064114286 0.74800003 7.3791536e-40
-0.0050000004 0.0064285696 0.75000006 6.464372e-40
-0.0035714284 0.0064285696 0.75 5.5388844e-40
-0.002142854 0.0064285556 0.75 6.4501068e-40
-0.00071428472 0.0064285668 0.75000006 7.372021e-40
0.00071428658 0.0064285668 0.75000006 7.3791817e-40
0.0021485738 0.006445704 0.75200003 7.372021e-40
0.0035857158 0.0064542787 0.75300002 8.3047393e-40
0.0050200014 0.0064542815 0.75299996 8.2975646e-40
0.0064542876 0.0064542806 0.75300002 5.5532617e-40
0.0078885769 0.0064542685 0.75300002 2.7909942e-40
0.0093228584 0.0064542815 0.75300002 5.5603943e-40
0.010757146 0.0064542694 0.75300002 8.290376e-40
0.01219143 0.0064542843 0.75300002 9.208745e-40
0.01360762 0.0064457143 0.75200003 9.2089832e-40
0.01506 0.0064542843 0.75300002 9.2163961e-40
0.016494289 0.0064542731 0.75300002 9.2165082e-40
0.017928576 0.0064542722 0.75300002 7.3834836e-40
0.019362859 0.0064542741 0.75299996 4.6392508e-40
0.020852381 0.0064714402 0.75500005 9.234669e-40
0.022290476 0.0064714327 0.75500005 1.3851625e-39
0.021340001 0.0058199912 0.67900002 1.9376174e-39
0.022466669 0.0057771523 0.67400002 2.3978753e-39
0.02375048 0.0057771448 0.67400002 2.7673739e-39
0.025257148 0.0058285575 0.68000001 3.1343487e-39
0.026552383 0.0058285687 0.68000001 3.1343417e-39
0.028011434 0.0058628414 0.68399996 3.1350676e-39
0.029271433 0.0058542751 0.68300003 3.5034942e-39
0.030572386 0.0058542844 0.68300003 3.7790035e-39
0.031920008 0.0058628488 0.68399996 3.8715578e-39
0.033222862 0.0058628535 0.68400002 3.868283e-39
0.034525719 0.0058628609 0.68400002 2.0275808e-39
0.035985723 0.0058885626 0.68700004 9.9468369e-41
0.037294291 0.0058885682 0.68700004 7.1855853e-39
0.038602863 0.0058885654 0.68700004 1.4201763e-38
0.040085718 0.0059142858 0.69000006 1.8825915e-38
0.041460011 0.0059228465 0.69099998 2.341769e-38
0.043023817 0.0059571275 0.69500005 2.341769e-38
0.044347625 0.0059571285 0.69500005 2.341769e-38
0.045868579 0.0059828553 0.69799995 2.341769e-38
0.047333341 0.0060000047 0.70000005 2.341769e-38
0.048666671 0.0059999991 0.70000005 2.341769e-38
-0.02579429 0.0076685697 0.73200005 5.546045e-40
-0.024466671 0.0076895244 0.73399997 7.382769e-40
-0.02306857 0.0076895077 0.73399997 1.0134247e-39
-0.021729523 0.0077104587 0.73600006 8.2975226e-40
-0.020355236 0.0077209333 0.73700005 6.453624e-40
-0.019002859 0.007741902 0.73900002 4.6240747e-40
-0.017619049 0.0077523859 0.74000001 1.8690519e-40
-0.016253332 0.007773323 0.74200004 3.7022025e-40
-0.01486 0.0077838004 0.74300003 5.5317658e-40
-0.013444764 0.0077838143 0.74300003 6.4465615e-40
-0.012061905 0.0078047551 0.74500006 6.4465895e-40
-0.010671431 0.0078257238 0.74700004 8.2869148e-40
-0.0092609515 0.0078361798 0.74799997 9.2123743e-40
-0.0078571439 0.0078571439 0.75000006 8.2975366e-40
-0.0064285719 0.0078571439 0.75000006 8.2975226e-40
-0.0050000004 0.0078571411 0.75000006 6.4571973e-40
-0.0035809511 0.0078780884 0.75200003 5.5352971e-40
-0.0021428568 0.0078571411 0.75 6.4536941e-40
-0.00071428495 0.0078571374 0.75000006 6.4536801e-40
0.00071619183 0.0078780912 0.75200003 6.4536661e-40
0.0021514283 0.0078885751 0.75300002 6.4465054e-40
0.0035857162 0.007888563 0.75300002 7.3756364e-40
0.0050200024 0.007888562 0.75300002 9.219549e-40
0.0064542885 0.0078885639 0.75300002 7.3864404e-40
0.0078885751 0.0078885639 0.75300002 6.475232e-40
0.0093228584 0.0078885667 0.75300002 7.3863703e-40
0.010757145 0.0078885658 0.75300002 8.290418e-40
0.012191431 0.0078885676 0.75300002 9.208815e-40
0.013625715 0.0078885667 0.75300002 1.0127268e-39
0.015060001 0.0078885686 0.75300002 9.2125985e-40
0.016494287 0.0078885686 0.75300002 8.2907263e-40
0.017976193 0.0079095177 0.75500005 6.4612471e-40
0.019414289 0.0079095252 0.75500005 5.5429622e-40
0.020852385 0.0079095177 0.75500005 8.3052578e-40
0.022290476 0.0079095354 0.75500011 1.1063854e-39
0.023728574 0.007909528 0.75500005 1.4751553e-39
0.025166668 0.0079095354 0.75500005 1.8428826e-39
0.026428575 0.0078571383 0.75 2.1205682e-39
0.027857143 0.0078571495 0.75000006 2.3060384e-39
0.029207623 0.0078361854 0.74800003 2.4897136e-39
0.02801143 0.0071657132 0.68400002 2.7663005e-39
0.029314287 0.0071657151 0.68400002 3.0425287e-39
0.030617151 0.0071657114 0.68400002 3.3180407e-39
0.031920008 0.0071657039 0.68400002 3.594629e-39
0.03332001 0.0071866633 0.68600005 3.8700725e-39
0.034677148 0.0071971342 0.68700004 2.0264822e-39
0.035985723 0.0071971305 0.68700004 2.759549e-40
0.037294291 0.0071971379 0.68700004 7.5604606e-39
0.038602859 0.0071971435 0.68700004 1.4849994e-38
0.040085725 0.0072285663 0.69 1.9186441e-38
0.041460007 0.0072390428 0.69099998 2.341769e-38
0.043023814 0.0072809495 0.69500005 2.341769e-38
0.044475246 0.0073018977 0.69700003 2.341769e-38
0.045802869 0.0073018949 0.69700003 2.341769e-38
0.047333341 0.0073333336 0.70000005 2.341769e-38
0.048527621 0.0073123863 0.69800001 2.341769e-38
-0.025759043 0.0090504549 0.73100001 4.6277742e-40
-0.024400001 0.0090628527 0.73200005 6.4645962e-40
-0.02306857 0.0090876054 0.73399997 8.301208e-40
-0.021729523 0.0091123646 0.73600006 7.382769e-40
-0.020355238 0.0091247428 0.73700005 6.4608267e-40
-0.019002859 0.0091495207 0.73899996 4.6205435e-40
-0.017619049 0.0091619045 0.74000001 2.7874209e-40
-0.016253334 0.0091866646 0.74200004 4.6277181e-40
-0.01486 0.0091990465 0.74300003 6.4536941e-40
-0.013444762 0.0091990437 0.74300003 6.4501488e-40
-0.012061902 0.0092237946 0.745 5.5282205e-40
-0.01067143 0.0092485715 0.74699998 6.4501768e-40
-0.0092609553 0.0092609571 0.74800003 6.4536941e-40
-0.0078571439 0.0092857145 0.75000006 7.382755e-40
-0.0064285719 0.0092857145 0.75000006 8.2975086e-40
-0.0050133313 0.0093104644 0.75200003 7.371965e-40
-0.0035809511 0.009310469 0.75200003 5.5353251e-40
-0.002148571 0.0093104728 0.75200003 5.5353952e-40
-0.00071618834 0.0093104662 0.75200003 5.5389265e-40
0.00071714551 0.0093228454 0.75299996 5.5352831e-40
0.0021514315 0.0093228435 0.75300002 4.6133548e-40
0.0035857172 0.0093228454 0.75299996 7.3684337e-40
0.0050200028 0.0093228463 0.75300002 9.2124584e-40
0.0064542885 0.0093228472 0.75299996 9.2197592e-40
0.0078885742 0.0093228482 0.75300002 9.2196611e-40
0.0093228593 0.00932285 0.75299996 8.301208e-40
0.010757145 0.0093228491 0.75300002 7.3720771e-40
0.012191434 0.009322837 0.75299996 9.2015983e-40
0.013625717 0.00932285 0.75300002 1.1045539e-39
0.0151 0.0093476223 0.75500005 9.2088851e-40
0.016494289 0.0093228519 0.75300002 7.3758045e-40
0.017976191 0.0093476214 0.75500005 6.4574916e-40
0.019414283 0.0093476279 0.75500005 5.542738e-40
0.020797145 0.0093228519 0.75300002 7.3830492e-40
0.022201907 0.0093104728 0.75200003 8.3013762e-40
0.023634287 0.0093104765 0.75200003 1.1056399e-39
0.025000004 0.0092857108 0.75000006 1.2900494e-39
0.026428573 0.0092857098 0.75000006 1.3815486e-39
0.027782857 0.0092609562 0.74799997 1.4759036e-39
0.029207621 0.0092609618 0.74800003 1.9361657e-39
0.03059143 0.0092485715 0.74699998 2.3049496e-39
0.03192858 0.0092237964 0.74500006 2.5822582e-39
0.030706666 0.0084933396 0.68600011 2.7662949e-39
0.031920005 0.0084685739 0.68400002 3.3183911e-39
0.033320006 0.0084933266 0.68600005 3.867204e-39
0.034677152 0.0085057011 0.68700004 2.115466e-39
0.035985723 0.0085057085 0.68700004 3.764238e-40
0.037402868 0.0085304696 0.68900001 7.9299858e-39
0.038602863 0.0085057132 0.68700004 1.5491781e-38
0.040085722 0.008542859 0.69000006 1.9468764e-38
0.041580006 0.0085799918 0.69300002 2.341769e-38
0.043023817 0.0086047472 0.69500005 2.341769e-38
0.044475246 0.0086295158 0.69700009 2.341769e-38
0.045868579 0.0086418996 0.69800001 2.341769e-38
0.047333337 0.0086666644 0.70000005 2.341769e-38
0.048527624 0.008641907 0.69800001 2.341769e-38
-0.028348574 0.01037143 0.72600001 6.453638e-40
-0.026965713 0.010371417 0.72600001 5.5388424e-40
-0.025653332 0.010399986 0.72800004 4.6242709e-40
-0.024300002 0.010414286 0.72900003 6.4647643e-40
-0.023005717 0.010457145 0.73200005 8.3048934e-40
-0.021729523 0.010514269 0.73600006 7.382769e-40
-0.020355236 0.010528553 0.73699999 7.382811e-40
-0.018951425 0.01052855 0.73699999 5.5425418e-40
-0.017595239 0.010557139 0.73899996 4.6277321e-40
-0.016253334 0.010599992 0.74200004 5.5424577e-40
-0.014840002 0.010599997 0.74200004 5.5317378e-40
-0.013444764 0.01061429 0.74300003 5.5281925e-40
-0.012061901 0.010642836 0.745 4.6062502e-40
-0.010671431 0.01067143 0.74700004 6.4465475e-40
-0.0092609553 0.01068572 0.74800003 7.3648604e-40
-0.0078361919 0.010685715 0.74799997 7.3755663e-40
-0.0064285714 0.010714286 0.75000006 7.3791536e-40
-0.0049999999 0.010714286 0.75000006 6.45361e-40
-0.0035809507 0.01074285 0.75200003 4.6169982e-40
-0.0021428568 0.010714283 0.75000006 5.5390386e-40
-0.00071619044 0.010742856 0.75200003 6.4608828e-40
0.0007161923 0.010742849 0.75200003 6.45361e-40
0.0021485724 0.010742853 0.75200003 7.371979e-40
0.0035809521 0.010742858 0.75200003 8.290348e-40
0.0050133332 0.010742862 0.75200009 9.2089552e-40
0.0064542876 0.010757143 0.75300002 8.2944257e-40
0.007888576 0.010757132 0.75299996 8.2906703e-40
0.0093228566 0.010757145 0.75300002 9.2124444e-40
0.010757145 0.010757132 0.75300002 1.0127142e-39
0.012191432 0.010757132 0.75300002 1.0127072e-39
0.013625718 0.010757133 0.75299996 1.0130687e-39
0.015060001 0.010757133 0.75300002 9.2123463e-40
0.016494289 0.010757135 0.75299996 8.2940054e-40
0.017928572 0.010757134 0.75300002 8.2976067e-40
0.019362858 0.010757137 0.75299996 8.301166e-40
0.020797146 0.010757136 0.75300002 9.2159056e-40
0.022201907 0.010742852 0.75200003 1.0127086e-39
0.02357143 0.010714281 0.75000006 1.0134247e-39
0.025000004 0.010714281 0.75000006 1.105277e-39
0.026428573 0.010714281 0.75000006 1.1060098e-39
0.027782857 0.010685718 0.74800003 1.0145457e-39
0.029207621 0.010685714 0.74799997 1.475528e-39
0.030509531 0.010642843 0.745 1.9354342e-39
0.031928584 0.010642836 0.745 2.1209101e-39
0.033347629 0.010642854 0.74500006 2.3060244e-39
0.034766678 0.010642846 0.74500006 2.5826155e-39
0.03332001 0.0097999927 0.68600005 2.9502854e-39
0.034677152 0.0098142689 0.68700004 2.0243662e-39
0.035985723 0.0098142773 0.68700004 1.102522e-39
0.037402865 0.0098428456 0.68900001 8.7629919e-39
0.038602863 0.0098142819 0.68700004 1.6504498e-38
0.04002763 0.0098428437 0.68900001 1.771241e-38
0.041460011 0.0098714195 0.69100004 1.8917751e-38
0.043023821 0.0099285729 0.69500005 1.8816947e-38
0.044475246 0.0099571366 0.69700003 1.8825915e-38
0.045868576 0.0099714352 0.69800001 1.9095323e-38
0.047198102 0.0099714268 0.69800001 1.9376928e-38
0.048527624 0.0099714324 0.69799995 2.0107307e-38
-0.028309526 0.011738086 0.72500002 4.6169281e-40
-0.026965715 0.011754284 0.72600001 4.6169141e-40
-0.025582859 0.011754284 0.72600001 4.6206416e-40
-0.024300002 0.01180285 0.72900003 6.4646522e-40
-0.022974286 0.011835219 0.73099995 8.2940894e-40
-0.021670476 0.011883795 0.73399997 8.2939913e-40
-0.020327616 0.011916176 0.736 7.3792097e-40
-0.018951425 0.01193236 0.73699999 7.3791957e-40
-0.017595239 0.011964769 0.73900002 6.4608267e-40
-0.016209526 0.011980959 0.74000001 5.5388564e-40
-0.01484 0.012013326 0.74199998 4.6133548e-40
-0.013444762 0.012029523 0.74300003 4.6062082e-40
-0.012061904 0.012061899 0.74500006 3.6914405e-40
-0.010642857 0.012061892 0.74500006 6.4429321e-40
-0.0092485743 0.012094289 0.74700004 8.2832154e-40
-0.0078361919 0.012110478 0.74800003 7.372035e-40
-0.0064285719 0.012142858 0.75000006 6.4500647e-40
-0.0050000004 0.012142858 0.75000006 5.5280804e-40
-0.0035809502 0.012175227 0.75200003 3.6986012e-40
-0.0021428568 0.012142855 0.75000006 5.5389545e-40
-0.00071618997 0.012175236 0.75200003 6.4536661e-40
0.0007161902 0.012175241 0.75200009 8.2831593e-40
0.0021485728 0.012175234 0.75200003 9.2087029e-40
0.0035809525 0.012175238 0.75200003 9.2158916e-40
0.0050133336 0.012175242 0.75200003 8.2940754e-40
0.0064457157 0.012175235 0.75200003 7.3722733e-40
0.0078780949 0.012175238 0.75200003 6.4538202e-40
0.0093104756 0.012175241 0.75200003 9.2123743e-40
0.010742857 0.012175247 0.75200009 1.1967397e-39
0.012191433 0.012191415 0.75300002 1.0130645e-39
0.013607623 0.01217523 0.75200003 8.2939493e-40
0.015060003 0.012191417 0.75300002 8.290376e-40
0.016494285 0.012191431 0.75300002 8.2939633e-40
0.017928576 0.012191419 0.75300002 1.0137862e-39
0.019362859 0.012191417 0.75300002 1.1049014e-39
0.020769525 0.01217524 0.75200009 1.1052587e-39
0.022142861 0.012142854 0.75000006 1.1052587e-39
0.023571432 0.012142854 0.75000006 1.0134233e-39
0.025000004 0.012142854 0.75000006 9.219563e-40
0.026428577 0.012142852 0.75000006 7.3901398e-40
0.027782861 0.01211047 0.74799997 5.5570873e-40
0.029207621 0.012110477 0.74800003 1.1081622e-39
0.030509535 0.012061885 0.745 1.5673537e-39
0.031928577 0.0120619 0.74500006 1.6599207e-39
0.033347629 0.012061894 0.74500006 1.7532037e-39
0.034766678 0.012061885 0.74500006 1.9386824e-39
0.036185719 0.012061892 0.745 2.0276158e-39
0.034677155 0.011122838 0.68699998 1.9289336e-39
0.035985723 0.011122845 0.68700004 1.759717e-39
0.037402861 0.011155233 0.68900001 9.6982129e-39
0.038715243 0.011155234 0.68900001 1.7518983e-38
0.040085729 0.011171417 0.69 1.5957824e-38
0.041460004 0.011187605 0.69099998 1.4390497e-38
0.043023817 0.011252371 0.69500005 1.428967e-38
0.044475242 0.011284753 0.69700003 1.4109957e-38
0.045868576 0.011300957 0.69800001 1.4760352e-38
0.047333337 0.011333336 0.70000005 1.5310296e-38
0.048527621 0.011300952 0.69800001 1.6696805e-38
-0.029690474 0.013119046 0.72500002 1.1045413e-39
-0.028309526 0.01311904 0.72499996 7.3648184e-40
-0.026965717 0.013137143 0.72600001 6.453638e-40
-0.025582859 0.013137138 0.72600001 5.5353531e-40
-0.024266666 0.013173319 0.72799999 7.3721331e-40
-0.022974283 0.013227593 0.73099995 8.2797121e-40
-0.021670476 0.013281894 0.73399997 8.2868587e-40
-0.020355236 0.013336172 0.73699999 7.372035e-40
-0.018951425 0.01333617 0.73699999 7.3791396e-40
-0.017595239 0.013372388 0.73899996 6.4607847e-40
-0.016209524 0.01339048 0.74000001 6.45361e-40
-0.01486 0.013444754 0.74300003 6.4428621e-40
-0.013444764 0.013444767 0.74300003 5.5281084e-40
-0.012061903 0.01348094 0.74500006 3.6985872e-40
-0.010642855 0.013480932 0.745 4.6097675e-40
-0.0092485743 0.013517149 0.74700004 5.5209898e-40
-0.0078361901 0.013535231 0.74799997 6.4429742e-40
-0.0064285714 0.013571428 0.75000006 7.3612731e-40
-0.0050000004 0.013571428 0.75000006 6.4464354e-40
-0.0035809521 0.013607618 0.75200009 4.6169141e-40
-0.0021428573 0.013571426 0.75000006 5.5388704e-40
-0.00071428495 0.013571426 0.75000006 7.3684057e-40
0.00071619067 0.01360762 0.75200003 9.2051016e-40
0.0021485728 0.013607614 0.75200003 1.1045413e-39
0.0035809535 0.013607617 0.75200003 9.2123043e-40
0.0050133332 0.013607621 0.75200003 8.29039e-40
0.0064457152 0.013607625 0.75200003 7.3720491e-40
0.0078780977 0.013607618 0.75200003 6.4536801e-40
0.0093104765 0.013607622 0.75200003 1.0130659e-39
0.01074286 0.013607612 0.75200003 1.381124e-39
0.012175239 0.013607616 0.75200009 1.1048986e-39
0.013607622 0.013607609 0.75200003 8.2939353e-40
0.015060002 0.013625712 0.75300002 8.290348e-40
0.016494289 0.013625698 0.75300002 7.3755803e-40
0.017904764 0.013607612 0.75200003 8.2903339e-40
0.019362861 0.013625701 0.75300002 9.1979269e-40
0.020769525 0.013607617 0.75200003 1.1045385e-39
0.022142859 0.013571425 0.75000006 1.2889269e-39
0.02357143 0.013571424 0.75000006 1.1048972e-39
0.025000002 0.013571425 0.75000006 9.2123183e-40
0.0263581 0.013535228 0.74799997 8.301194e-40
0.027782861 0.013535234 0.74800003 7.3900277e-40
0.029207623 0.013535241 0.74800003 1.014868e-39
0.030509531 0.013480948 0.74500006 1.2900326e-39
0.031928577 0.013480939 0.74500006 1.4747952e-39
0.033258103 0.013444762 0.74300003 1.6588431e-39
0.034673337 0.013444759 0.74300003 1.5688195e-39
0.036088575 0.013444759 0.74300003 1.5677125e-39
0.037604768 0.01348095 0.74500006 1.2882277e-39
0.039023817 0.013480942 0.74500006 1.012476e-39
0.040280007 0.013426653 0.74200004 1.0708408e-38
0.041693341 0.013426658 0.74200004 2.047672e-38
0.040318098 0.012558091 0.69400001 1.7335689e-38
0.041640006 0.012558083 0.69400001 1.4274219e-38
0.043023817 0.012576183 0.69500005 1.3169992e-38
0.044539049 0.012630474 0.69800001 1.2145836e-38
0.046000011 0.012666658 0.70000005 1.2530779e-38
0.047333341 0.012666668 0.70000005 1.2795182e-38
0.048527621 0.012630475 0.69800001 1.3449884e-38
-0.029690474 0.014499992 0.72499996 1.5630069e-39
-0.028309526 0.014499996 0.72500002 1.0127072e-39
-0.026965715 0.014519995 0.72600001 8.2903339e-40
-0.025582861 0.014520008 0.72600007 6.4536801e-40
-0.024300002 0.014579996 0.72900003 7.3685178e-40
-0.02306857 0.014679983 0.73399997 8.2868587e-40
-0.021729523 0.014719985 0.73600006 8.2832574e-40
-0.020355236 0.014739982 0.73699999 7.3756224e-40
-0.019002859 0.01478 0.73900002 7.3791817e-40
-0.017595235 0.014779991 0.73899996 6.4572254e-40
-0.016209524 0.014800002 0.74000001 7.3683777e-40
-0.01486 0.01486 0.74300003 8.2831733e-40
-0.013444761 0.014859999 0.74300003 6.4428901e-40
-0.012061904 0.014899993 0.745 3.6949998e-40
-0.01067143 0.014939998 0.74699998 3.6878392e-40
-0.0092485724 0.014939996 0.74700004 2.7696524e-40
-0.0078361901 0.014959994 0.74799997 5.5213121e-40
-0.0064285714 0.015 0.75000006 8.2833555e-40
-0.0050000004 0.015 0.75000006 7.361217e-40
-0.0035809521 0.015039999 0.75200003 5.5316958e-40
-0.0021428564 0.014999997 0.75000006 6.4608127e-40
-0.00071428495 0.014999997 0.75000006 7.3756644e-40
0.00071619067 0.01504 0.75200003 1.012724e-39
0.002148571 0.015040003 0.75200003 1.2882221e-39
0.0035809535 0.015039995 0.75200003 1.0127072e-39
0.0050133336 0.01504 0.75200003 7.3756084e-40
0.0064457147 0.015040005 0.75200003 6.4572674e-40
0.007878094 0.01504001 0.75200009 5.5388844e-40
0.0093104793 0.015039988 0.75200003 1.1049e-39
0.010742861 0.015039993 0.75200003 1.5640761e-39
0.012191433 0.015059993 0.75300002 1.1963754e-39
0.01360762 0.01503999 0.75200003 8.2903339e-40
0.015040004 0.015039993 0.75200003 7.361217e-40
0.016472384 0.015039996 0.75200003 6.4500507e-40
0.017904762 0.01504 0.75200009 7.361245e-40
0.019337146 0.015039993 0.75200003 7.361231e-40
0.020769523 0.015039997 0.75200003 1.1038224e-39
0.022142859 0.014999997 0.75000006 1.4718819e-39
0.023571428 0.014999997 0.75000006 1.1960152e-39
0.025000004 0.014999997 0.75000006 8.2939493e-40
0.026358102 0.01495999 0.74800003 8.2975646e-40
0.027782861 0.014959997 0.74800003 8.301152e-40
0.029168576 0.014939999 0.74700004 9.2195069e-40
0.030509535 0.014899988 0.74500006 9.2232204e-40
0.031928577 0.014899993 0.74500006 1.1989173e-39
0.033258103 0.014859992 0.74300003 1.4755168e-39
0.034673341 0.014860008 0.74300003 1.2932976e-39
0.036088575 0.014860004 0.74300003 1.1070874e-39
0.037503812 0.014859993 0.74300003 7.3505391e-40
0.038866673 0.014839992 0.74200004 2.9501957e-40
0.040280007 0.014839996 0.74200004 1.183019e-38
0.041580956 0.014800001 0.74000001 2.3319336e-38
0.042990476 0.014800013 0.74000001 1.8726147e-38
0.041700009 0.013899987 0.69500005 1.4096652e-38
0.043023817 0.013899992 0.69500005 1.2153345e-38
0.044539053 0.013959996 0.69800001 1.0230193e-38
0.045868576 0.013960003 0.69800001 1.0329216e-38
0.047333341 0.013999998 0.70000005 1.0323479e-38
-0.028309524 0.015880946 0.72499996 1.7488289e-39
-0.026965717 0.015902862 0.72600001 1.2882095e-39
-0.025582859 0.015902856 0.72600001 7.372021e-40
-0.024366666 0.016012372 0.73100001 8.2868307e-40
-0.023131428 0.01612189 0.73600006 1.0127128e-39
-0.021759046 0.016143801 0.73700005 9.2123463e-40
-0.02035524 0.016143803 0.73700005 8.2975787e-40
-0.019002857 0.016187619 0.73899996 6.4572814e-40
-0.017595239 0.016187619 0.73900002 5.5352971e-40
-0.016209528 0.016209535 0.74000001 6.45361e-40
-0.01486 0.016275231 0.74300003 7.371993e-40
-0.013480951 0.01631904 0.745 5.5353111e-40
-0.012061902 0.016319033 0.745 4.6169561e-40
-0.01067143 0.016362857 0.74700004 3.6986012e-40
-0.0092485752 0.016362868 0.74700004 3.6953221e-40
-0.0078361901 0.016384756 0.74800003 6.4542826e-40
-0.0064285691 0.01642856 0.75 8.2978449e-40
-0.0049999999 0.016428571 0.75000006 7.371993e-40
-0.0035809516 0.016472377 0.75200003 6.4464634e-40
-0.0021428564 0.016428567 0.75000006 5.5388704e-40
-0.00071428495 0.016428567 0.75000006 5.5462272e-40
0.00071428658 0.016428567 0.75000006 8.2942996e-40
0.0021428587 0.016428567 0.75 1.0120065e-39
0.0035809511 0.016472388 0.75200009 8.2939353e-40
0.005013335 0.016472381 0.75200003 6.464414e-40
0.0064457152 0.016472384 0.75200003 5.5424717e-40
0.0078780977 0.016472373 0.75200003 5.5352831e-40
0.0093104793 0.016472368 0.75200003 8.2939073e-40
0.01074286 0.016472371 0.75200003 1.1967341e-39
0.012191432 0.016494278 0.75300002 1.0134219e-39
0.013607619 0.016472379 0.75200009 8.3010959e-40
0.015040002 0.016472373 0.75200003 6.4571973e-40
0.016494287 0.016494278 0.75300002 5.5352971e-40
0.017904762 0.016472381 0.75200003 6.4500928e-40
0.019337144 0.016472384 0.75200009 7.3612591e-40
0.020769525 0.016472377 0.75200003 9.2087029e-40
0.022142859 0.016428571 0.75 1.1048986e-39
0.023571432 0.016428567 0.75000006 9.2122622e-40
0.025000002 0.016428567 0.75000006 8.2903339e-40
0.0263581 0.016384767 0.74800003 8.2975226e-40
0.027782857 0.016384762 0.74799997 9.2194509e-40
0.029168574 0.016362863 0.74700004 9.2194369e-40
0.03042762 0.016275236 0.74300003 1.0134303e-39
0.031842858 0.016275235 0.74300003 1.1981859e-39
0.033258103 0.01627524 0.74300003 1.3829485e-39
0.034673337 0.016275236 0.74300003 1.1085336e-39
0.036040004 0.016253324 0.74200004 7.4080904e-40
0.037453339 0.01625333 0.74200004 4.6097395e-40
0.03876191 0.016209524 0.74000001 2.7601656e-40
0.040171433 0.016209535 0.74000001 1.1819814e-38
0.041580953 0.016209535 0.74000001 2.3417647e-38
0.04299048 0.01620952 0.74000001 1.8346619e-38
0.041700006 0.0152238 0.69500005 1.3344754e-38
0.043023817 0.015223804 0.69500005 1.2158009e-38
0.044539049 0.015289532 0.69800001 1.0884151e-38
0.046000008 0.015333332 0.70000005 1.0515376e-38
0.047333341 0.015333329 0.70000005 1.0055828e-38
-0.026965719 0.01728572 0.72600007 1.6544865e-39
-0.025582859 0.017285716 0.72600001 8.2868307e-40
-0.024400003 0.017428573 0.73200005 1.0119925e-39
-0.023068571 0.017476186 0.73400003 1.1052644e-39
-0.021729523 0.017523799 0.73600006 1.0134317e-39
-0.020355236 0.017547607 0.73700005 8.2940054e-40
-0.019002859 0.017595241 0.73900002 6.4501208e-40
-0.017595237 0.017595237 0.73899996 4.6169702e-40
-0.016209526 0.01761906 0.74000007 5.5353111e-40
-0.01484 0.017666664 0.74200004 6.4572394e-40
-0.01348095 0.017738078 0.745 5.5424577e-40
-0.012061903 0.017738083 0.74500006 4.6241028e-40
-0.010671428 0.017785706 0.74699998 4.6312774e-40
-0.0092485743 0.017785717 0.74700004 4.6242709e-40
-0.0078361919 0.017809521 0.74799997 6.4647223e-40
-0.0064285691 0.017857131 0.75 8.2976768e-40
-0.0050000004 0.017857142 0.75000006 7.3791536e-40
-0.0035809516 0.017904757 0.75200003 6.453638e-40
-0.0021428568 0.01785714 0.75000006 5.5424577e-40
-0.00071428495 0.01785714 0.75000006 3.7094332e-40
0.00071428611 0.01785714 0.75000006 5.5426679e-40
0.0021428582 0.01785714 0.75 7.3720911e-40
0.0035714298 0.01785714 0.75 6.4608127e-40
0.0049999999 0.017857151 0.75000006 4.6241868e-40
0.0064285742 0.017857134 0.75000006 5.5533879e-40
0.0078571457 0.017857134 0.75000006 5.5389405e-40
0.0093104774 0.017904758 0.75200003 6.4571973e-40
0.010742861 0.017904751 0.75200003 7.3791536e-40
0.012175241 0.017904755 0.75200003 8.3011239e-40
0.01360762 0.017904758 0.75200003 8.3046973e-40
0.01504 0.017904762 0.75200009 6.464386e-40
0.016494289 0.017928561 0.75300002 3.7057478e-40
0.017904766 0.01790476 0.75200003 5.5424858e-40
0.019337142 0.017904766 0.75200003 7.3755943e-40
0.020769527 0.017904757 0.75200003 7.3791536e-40
0.022142861 0.017857127 0.75 6.4607987e-40
0.02357143 0.017857138 0.75000006 7.382755e-40
0.024933336 0.017809523 0.74800003 8.3011099e-40
0.0263581 0.01780952 0.74799997 9.2230662e-40
0.027782857 0.017809525 0.74800003 9.2230662e-40
0.029090483 0.017738089 0.745 1.0145023e-39
0.03042762 0.017690483 0.74300003 1.0137946e-39
0.031842858 0.01769048 0.74300003 1.197474e-39
0.033258103 0.017690469 0.74300003 1.2907584e-39
0.034673337 0.017690483 0.74300003 8.3374876e-40
0.036040004 0.017666668 0.74200004 3.7132588e-40
0.037352379 0.017619058 0.74000007 2.7588624e-40
0.038709529 0.01759525 0.73900002 2.0680082e-40
0.040008575 0.0175476 0.73699999 1.1846382e-38
0.041356198 0.017523795 0.73600006 2.3415138e-38
0.042758107 0.017523797 0.73600006 1.8081498e-38
0.046000004 0.016666662 0.70000005 1.0700473e-38
-0.026965717 0.018668571 0.72600001 2.7615459e-39
-0.025582857 0.018668577 0.72600007 2.0236249e-39
-0.0244 0.018822853 0.73200005 1.8410203e-39
-0.023068571 0.018874278 0.73399997 1.7495478e-39
-0.021729525 0.018925702 0.73600006 1.3811338e-39
-0.020355236 0.018951416 0.73700005 1.0134331e-39
-0.019002855 0.019002851 0.73899996 9.2123743e-40
-0.017595239 0.01900286 0.73900002 8.2976067e-40
-0.016253334 0.019080002 0.74200004 8.2940054e-40
-0.014860001 0.019105714 0.74300003 9.2123183e-40
-0.013480951 0.01915713 0.74500006 7.3755523e-40
-0.012061904 0.019157138 0.74500006 5.5424297e-40
-0.010642856 0.019157128 0.745 6.4571973e-40
-0.0092485743 0.019208577 0.74700004 6.453624e-40
-0.0078361919 0.019234287 0.74799997 8.290348e-40
-0.00641143 0.019234292 0.74800003 1.0130631e-39
-0.0049999976 0.019285701 0.75 8.2903199e-40
-0.0035714279 0.019285712 0.75000006 6.4500367e-40
-0.0021428564 0.019285712 0.75000006 5.5388704e-40
-0.00071428495 0.019285711 0.75000006 5.5460731e-40
0.00071428611 0.019285711 0.75000006 5.5389124e-40
0.0021428578 0.019285711 0.75000006 6.4464914e-40
0.0035714298 0.019285711 0.75 6.453638e-40
0.0050000013 0.019285722 0.75000006 7.3685738e-40
0.0064285728 0.019285722 0.75000006 7.3723153e-40
0.0078571457 0.019285707 0.75000006 8.2833275e-40
0.0093104774 0.019337136 0.75200003 7.371965e-40
0.010742858 0.019337142 0.75200009 6.4644e-40
0.012175241 0.019337134 0.75200003 7.3863703e-40
0.01360762 0.019337138 0.75200003 7.3899436e-40
0.015039999 0.019337144 0.75200003 6.4679733e-40
0.016472386 0.019337136 0.75200003 4.6276901e-40
0.017904764 0.01933714 0.75200003 6.4680013e-40
0.019337147 0.019337144 0.75200003 8.3011099e-40
0.020714287 0.019285714 0.75000006 7.3791396e-40
0.022142859 0.019285714 0.75 7.3791676e-40
0.023571432 0.019285699 0.75 9.2194789e-40
0.024933336 0.019234277 0.74799997 1.0137834e-39
0.026358098 0.019234285 0.74800003 1.0137834e-39
0.027745716 0.019208571 0.74699998 1.0137876e-39
0.029090483 0.019157128 0.745 1.0134317e-39
0.030509535 0.019157119 0.745 1.1045595e-39
0.031842861 0.019105714 0.74300009 1.2889564e-39
0.033258099 0.019105714 0.74300003 1.4737176e-39
0.034626678 0.019079991 0.74200004 8.3088171e-40
0.036040008 0.019079994 0.74200004 2.773492e-40
0.037352383 0.019028578 0.74000001 8.2727617e-40
0.03860477 0.018951412 0.73699999 1.3780832e-39
0.040008582 0.018951412 0.73699999 1.2374818e-38
0.041356202 0.0189257 0.73600006 2.3325815e-38
0.042758107 0.018925704 0.73600006 1.7603648e-38
-0.02306857 0.020272378 0.73399997 2.3020083e-39
-0.021759044 0.020355221 0.73699999 1.748487e-39
-0.020355236 0.020355221 0.73699999 1.1974684e-39
-0.018951425 0.020355223 0.73699999 1.1963866e-39
-0.017595239 0.020410478 0.73899996 1.1971013e-39
-0.016253332 0.020493327 0.74200004 1.1963824e-39
-0.014839998 0.020493321 0.74199998 1.1049014e-39
-0.013480951 0.020576175 0.74500006 9.2086889e-40
-0.012061902 0.020576175 0.74500006 6.453624e-40
-0.010642856 0.020576175 0.745 7.3648043e-40
-0.0092238104 0.020576186 0.74500006 8.2867606e-40
-0.0078257145 0.020631429 0.74700004 1.011631e-39
-0.0064028581 0.020631433 0.74700004 1.1041826e-39
-0.0049866675 0.020659052 0.74800003 8.2831593e-40
-0.0035619042 0.020659044 0.74799997 5.5352831e-40
-0.0021371408 0.020659039 0.74800003 6.4536661e-40
-0.0007123804 0.020659044 0.74800003 6.4536661e-40
0.00071428611 0.020714283 0.75000006 6.4500928e-40
0.0021428573 0.020714283 0.75000006 5.5317098e-40
0.0035714293 0.020714283 0.75 7.371993e-40
0.0050000018 0.020714283 0.75 9.2051997e-40
0.0064285714 0.020714294 0.75000006 1.0116478e-39
0.0078571429 0.020714292 0.75000006 1.1038308e-39
0.0092857173 0.020714277 0.75000006 8.279558e-40
0.01071429 0.020714277 0.75000006 5.5424577e-40
0.012142858 0.020714276 0.75000006 6.4680154e-40
0.013571431 0.020714276 0.75000006 6.4715887e-40
0.015000001 0.020714276 0.75 6.475162e-40
0.016428573 0.020714287 0.75000006 5.5532337e-40
0.017857142 0.020714287 0.75000006 7.393531e-40
0.019337146 0.020769523 0.75200003 8.3011239e-40
0.020714287 0.020714287 0.75000006 8.290362e-40
0.022142859 0.020714287 0.75000006 8.2940054e-40
0.023508577 0.020659033 0.74799997 1.0134359e-39
0.024933336 0.020659039 0.74800003 1.1967425e-39
0.026358098 0.020659046 0.74800003 1.1967355e-39
0.027745714 0.020631431 0.74700004 1.1049042e-39
0.029012384 0.020520946 0.74300003 1.1045497e-39
0.030509535 0.020576186 0.74500006 1.1045567e-39
0.031842854 0.020520957 0.74300009 1.3800702e-39
0.03321334 0.020493329 0.74200004 1.5651803e-39
0.034626678 0.020493332 0.74200004 9.2233605e-40
0.035942852 0.020438112 0.74000007 1.8552351e-40
0.037301909 0.02041048 0.73900002 1.3779725e-39
0.03860477 0.020355223 0.73699999 2.5116846e-39
0.040008578 0.020355221 0.73699999 1.2948406e-38
0.04124381 0.020272378 0.73400003 2.3230378e-38
0.042641908 0.020272374 0.73399997 1.7157741e-38
0.044040006 0.020272369 0.73399997 1.1050275e-38
-0.021759046 0.021759031 0.73699999 2.5786036e-39
-0.020355236 0.021759026 0.73699999 1.8417574e-39
-0.018951425 0.021759029 0.73699999 1.6584339e-39
-0.017619051 0.02184763 0.74000001 1.4736839e-39
-0.016253332 0.021906659 0.74199998 1.2889339e-39
-0.014899998 0.021995224 0.74500006 1.1049014e-39
-0.013480951 0.021995222 0.74500006 1.0130631e-39
-0.012061902 0.021995224 0.745 8.2939353e-40
-0.01067143 0.022054285 0.74700004 9.2051156e-40
-0.0092485743 0.02205429 0.74700004 9.2087169e-40
-0.0078361891 0.022083802 0.74799997 1.1045427e-39
-0.0064114276 0.022083808 0.74800003 1.1963782e-39
-0.0049866675 0.022083813 0.74800003 1.0127058e-39
-0.003571427 0.02214285 0.75 8.2975506e-40
-0.0021371422 0.022083808 0.74800003 8.2939773e-40
-0.0007123776 0.022083797 0.74799997 8.2868027e-40
0.00071428658 0.022142854 0.75000006 6.4500787e-40
0.0021428592 0.022142854 0.75000006 5.5281224e-40
0.0035714298 0.022142854 0.75000006 6.453638e-40
0.0050000022 0.022142854 0.75 8.2939493e-40
0.006428571 0.022142865 0.75000006 8.290376e-40
0.007857142 0.022142865 0.75000006 8.290348e-40
0.0092857145 0.022142861 0.75000006 6.4571973e-40
0.010714288 0.02214285 0.75000006 4.6312774e-40
0.012142858 0.022142846 0.75000006 5.5496464e-40
0.013571431 0.022142846 0.75000006 7.382769e-40
0.015000003 0.022142846 0.75 5.5532337e-40
0.016428573 0.022142857 0.75000006 4.6348787e-40
0.017857144 0.022142857 0.75000006 6.4680013e-40
0.019285716 0.022142857 0.75000006 8.301152e-40
0.020714287 0.022142857 0.75000006 8.2939913e-40
0.022083811 0.022083815 0.74800003 8.2905021e-40
0.023508575 0.022083811 0.74799997 9.2089411e-40
0.024900001 0.022054296 0.74700004 1.1041938e-39
0.026322858 0.022054294 0.74700004 9.2086889e-40
0.02774572 0.022054279 0.74699998 7.372021e-40
0.029090483 0.021995232 0.74500006 9.2123603e-40
0.030427622 0.021936191 0.74300003 1.1045539e-39
0.031842858 0.021936189 0.74300009 1.4726175e-39
0.03321334 0.02190667 0.74200004 1.8410315e-39
0.034626674 0.021906674 0.74200004 1.1049084e-39
0.03594286 0.021847622 0.74000001 4.5960488e-40
0.037301913 0.021818083 0.73899996 3.3155282e-39
0.038604774 0.021759033 0.73699999 6.1894176e-39
0.040008582 0.021759029 0.73699999 1.4679622e-38
0.041243814 0.021670464 0.73399997 2.3233952e-38
0.042641908 0.021670472 0.73399997 1.6774253e-38
0.044040002 0.021670464 0.73400003 1.0386262e-38
0.04475715 0.021345716 0.72300005 1.1050589e-38
0.046134293 0.021345714 0.72300005 1.1708488e-38
-0.017619049 0.023257144 0.74000001 1.7513484e-39
-0.016253334 0.023319993 0.74199998 1.4726119e-39
-0.014860001 0.023351429 0.74300003 1.1059832e-39
-0.013480951 0.023414269 0.745 1.1045455e-39
-0.012094288 0.023477148 0.74700004 1.0134275e-39
-0.010671432 0.023477154 0.74700004 1.0119939e-39
-0.0092485743 0.023477143 0.74699998 1.0130701e-39
-0.007836191 0.023508571 0.74800003 1.1971013e-39
-0.0064114286 0.023508571 0.74800003 1.2889339e-39
-0.0049866652 0.023508566 0.74799997 1.1967369e-39
-0.0035619051 0.023508573 0.74800003 1.1052602e-39
-0.0021371418 0.023508567 0.74799997 1.0130673e-39
-0.00071238133 0.023508571 0.74800003 9.2123183e-40
0.00071237923 0.02350858 0.74800003 7.3684477e-40
