# .PCD v0.7 - Point Cloud Data file format
VERSION 0.7
FIELDS x y z rgb
SIZE 4 4 4 4
TYPE F F F F
COUNT 1 1 1 1
WIDTH 948
HEIGHT 1
VIEWPOINT 0 0 0 1 0 0 0
POINTS 948
DATA ascii
-0.034340002 -0.050499994 0.70700002 7.3584144e-40
-0.033039998 -0.050571423 0.708 8.2876294e-40
-0.031691436 -0.050571434 0.70799994 5.5434246e-40
-0.030299986 -0.050499976 0.70700002 2.7846603e-40
-0.028789515 -0.050214276 0.70300001 3.6993299e-40
-0.027450474 -0.050214287 0.70300001 4.6106363e-40
-0.026037136 -0.050071418 0.70100003 3.6924074e-40
-0.024701897 -0.050071422 0.70100009 2.7848285e-40
-0.023366662 -0.050071422 0.70100003 5.5434947e-40
-0.022031426 -0.050071429 0.70100003 7.3767014e-40
-0.020696174 -0.050071411 0.70100003 5.5364882e-40
-0.019333331 -0.050000001 0.70000005 2.7741506e-40
-0.017999992 -0.049999993 0.70000005 4.6107624e-40
-0.016666649 -0.049999982 0.70000005 6.4475984e-40
-0.015289512 -0.049857128 0.69800007 8.2808472e-40
-0.013939993 -0.049785711 0.69700003 1.0131808e-39
-0.012612383 -0.049785718 0.69699997 1.1050065e-39
-0.01128477 -0.049785726 0.69699997 1.1060869e-39
-0.0099571468 -0.049785722 0.69700003 1.1986441e-39
-0.00860475 -0.049642846 0.69500005 1.2901236e-39
-0.0072809439 -0.04964285 0.69500005 1.2901265e-39
-0.0059571397 -0.049642853 0.69500005 1.1979238e-39
-0.0046333326 -0.049642857 0.69499999 1.1057226e-39
-0.0033095244 -0.049642868 0.69500005 9.2132712e-40
-0.0019828521 -0.049571428 0.69399995 9.1988518e-40
-0.00066095724 -0.049571443 0.69400001 9.2025372e-40
0.00066095294 -0.049571432 0.69399995 8.280693e-40
0.0019828479 -0.049571447 0.69400001 7.373114e-40
0.00330476 -0.04957144 0.69399995 9.2170126e-40
0.0046266699 -0.049571432 0.69399995 1.0139095e-39
0.0059571462 -0.049642865 0.69500005 1.5649365e-39
0.0072809625 -0.049642846 0.69500005 2.1396622e-39
0.0086047687 -0.049642857 0.69500005 7.0306563e-39
0.0099571524 -0.049785711 0.69700003 1.1879939e-38
0.011284766 -0.049785722 0.69700003 5.9697627e-39
0.012630489 -0.049857136 0.69800001 1.1821774e-40
0.013960011 -0.04985714 0.69800001 8.6891519e-39
0.015333337 -0.050000001 0.70000005 1.7237378e-38
0.016690496 -0.050071418 0.70100009 1.6869669e-38
0.018025715 -0.050071437 0.70100003 1.6499798e-38
0.019416209 -0.050214276 0.70300001 1.6132437e-38
0.020814294 -0.050357144 0.70500004 1.5761497e-38
0.022157153 -0.050357137 0.70500004 1.5850451e-38
0.02350002 -0.050357133 0.70500004 1.5944801e-38
0.024807634 -0.050285712 0.70400006 1.631681e-38
0.026148582 -0.050285712 0.70400006 1.668668e-38
-0.064133331 -0.051447619 0.74000001 1.8446679e-39
-0.062469531 -0.051239055 0.73699999 1.7528366e-39
-0.060817141 -0.051030472 0.73400003 1.4748232e-39
-0.059257131 -0.050891399 0.73200011 1.2886369e-39
-0.057783794 -0.050821878 0.73100001 8.2837759e-40
-0.056237143 -0.050682861 0.72900003 3.6920291e-40
-0.05462287 -0.050474297 0.72599995 9.2165362e-40
-0.053166669 -0.050404765 0.72500002 1.4737372e-39
-0.051642839 -0.050265685 0.72300005 1.9361363e-39
-0.050057147 -0.050057154 0.72000003 2.4835745e-39
-0.048618097 -0.049987618 0.71900004 1.748543e-39
-0.047051422 -0.049779031 0.71600002 1.1071267e-39
-0.045687608 -0.049779024 0.71600002 1.2897187e-39
-0.044138093 -0.049570467 0.71300006 1.5648734e-39
-0.042659994 -0.049431425 0.71100003 1.2886565e-39
-0.041305706 -0.049431417 0.71100003 1.0135059e-39
-0.03989524 -0.049361911 0.71000004 1.0127843e-39
-0.038434278 -0.049222842 0.708 1.1046268e-39
-0.037085712 -0.049222853 0.70799994 9.2060264e-40
-0.035737149 -0.049222868 0.70799994 7.3657712e-40
-0.034388576 -0.049222868 0.708 9.1989359e-40
-0.033040013 -0.049222879 0.70799994 1.1042876e-39
-0.031646654 -0.049153309 0.70700002 8.291455e-40
-0.030300001 -0.049153335 0.70699996 5.5361939e-40
-0.028789515 -0.048875231 0.70300001 5.5288091e-40
-0.027450474 -0.048875231 0.70299995 5.5253759e-40
-0.026037144 -0.048736192 0.70100003 4.6107484e-40
-0.024701893 -0.048736174 0.70100003 3.6995961e-40
-0.023366658 -0.048736177 0.70100009 5.53632e-40
-0.022031423 -0.048736177 0.70100003 7.3694987e-40
-0.020666664 -0.048666667 0.70000005 6.4511998e-40
-0.019333323 -0.048666656 0.70000005 6.4475844e-40
-0.017999981 -0.048666645 0.70000005 7.3694847e-40
-0.016666656 -0.048666656 0.70000005 9.209852e-40
-0.015267615 -0.048458092 0.69700003 1.1043031e-39
-0.013940004 -0.048458099 0.69700003 1.3808815e-39
-0.012612392 -0.048458114 0.69699997 1.1972063e-39
-0.011252379 -0.048319045 0.69499999 1.1060911e-39
-0.0099285729 -0.048319049 0.69500005 1.197928e-39
-0.0086047538 -0.048319034 0.69500005 1.3808815e-39
-0.0072809467 -0.048319042 0.69500005 1.381599e-39
-0.0059571271 -0.048319027 0.69500005 1.473789e-39
-0.0046333224 -0.048319034 0.69500005 1.289395e-39
-0.0033095155 -0.048319034 0.69499999 1.1971867e-39
-0.0019800004 -0.048179999 0.69299996 1.104261e-39
-0.00066095596 -0.048249535 0.69400001 1.0117221e-39
0.00066095433 -0.048249528 0.69400001 9.2025933e-40
0.0019828472 -0.048249543 0.69400001 9.2097959e-40
0.0033000167 -0.048179977 0.69300002 9.209824e-40
0.0046266718 -0.04824952 0.69400001 9.2025092e-40
0.0059485664 -0.048249535 0.69400001 1.1067778e-39
0.0072704786 -0.048249528 0.69400001 1.205858e-39
0.0085923886 -0.04824952 0.69400001 4.8969244e-39
0.009928585 -0.048319031 0.69500005 8.5886227e-39
0.011252395 -0.048319034 0.69499999 7.3796763e-39
0.012576199 -0.048319045 0.69500005 6.2769946e-39
0.013939991 -0.048458122 0.69699997 1.0338983e-38
0.015289531 -0.048527617 0.69800001 1.4489858e-38
0.016666671 -0.048666667 0.70000005 1.3834793e-38
0.018000018 -0.048666656 0.70000005 1.3191946e-38
0.019360958 -0.048736196 0.70100003 1.5398867e-38
0.020784771 -0.048944753 0.70400006 1.7695802e-38
0.022157146 -0.049014293 0.70500004 1.677347e-38
0.023466673 -0.048944756 0.704 1.5943364e-38
0.024807641 -0.048944738 0.70400006 1.6683072e-38
0.026148589 -0.048944738 0.70400006 1.7420659e-38
-0.064133331 -0.050038092 0.73999995 2.1198114e-39
-0.06246952 -0.049835231 0.73699999 2.3956851e-39
-0.060982864 -0.049767625 0.73600006 2.0265592e-39
-0.059257131 -0.049497113 0.73200011 1.6574082e-39
-0.057783801 -0.049429514 0.73100001 1.0120346e-39
-0.05623715 -0.049294297 0.72899997 2.7734359e-40
-0.05477332 -0.049226653 0.72800004 9.2197872e-40
-0.053166673 -0.049023818 0.72500002 1.5720453e-39
-0.051785734 -0.049023829 0.72500002 2.3146648e-39
-0.050057139 -0.048685703 0.72000003 2.949233e-39
-0.048618089 -0.048618089 0.71899998 1.9293273e-39
-0.047117148 -0.048482858 0.71700001 9.2057742e-40
-0.045687612 -0.048415225 0.71600002 1.2875663e-39
-0.044138104 -0.048212383 0.71300006 1.6559901e-39
-0.042659994 -0.04807714 0.71100003 1.3801304e-39
-0.041247621 -0.048009526 0.71000004 1.10534e-39
-0.039895236 -0.048009526 0.71000004 1.2886523e-39
-0.038434293 -0.047874298 0.70799994 1.4723331e-39
-0.037085716 -0.04787429 0.70799994 1.1961189e-39
-0.035686668 -0.047806669 0.70700002 8.2877556e-40
-0.034339983 -0.047806647 0.70700002 1.1032044e-39
-0.032993335 -0.047806669 0.70699996 1.3794298e-39
-0.03155715 -0.047671437 0.70499998 1.1039247e-39
-0.030171422 -0.047603808 0.704 8.2840701e-40
-0.028789518 -0.047536183 0.70300001 7.3584284e-40
-0.027372375 -0.047400944 0.70100009 6.4401716e-40
-0.026037136 -0.047400948 0.70100003 5.5219287e-40
-0.02466665 -0.047333308 0.70000005 3.6960088e-40
-0.023333309 -0.0473333 0.70000005 5.5363341e-40
-0.021999994 -0.04733333 0.70000005 6.4511718e-40
-0.020666655 -0.047333319 0.70000005 8.2843644e-40
-0.019333327 -0.04733333 0.70000005 9.2026493e-40
-0.017948566 -0.047198083 0.69800001 1.0128123e-39
-0.016619032 -0.047198076 0.69800007 1.1042919e-39
-0.015267625 -0.047130488 0.69700003 1.3790851e-39
-0.013940014 -0.047130499 0.69699997 1.6553076e-39
-0.01261239 -0.047130488 0.69700003 1.3801585e-39
-0.011284776 -0.047130499 0.69699997 1.0135354e-39
-0.0099285599 -0.046995223 0.69499999 1.2894034e-39
-0.0086047547 -0.04699523 0.69500005 1.4723569e-39
-0.0072809518 -0.046995234 0.69500005 1.5649113e-39
-0.005957128 -0.046995219 0.69500005 1.6571041e-39
-0.0046333252 -0.04699523 0.69500005 1.5649099e-39
-0.0033047618 -0.046927627 0.69400001 1.3812277e-39
-0.0019799834 -0.046859972 0.69300002 1.1964693e-39
-0.00065999635 -0.046859991 0.69300002 1.0124465e-39
0.00066000439 -0.046859991 0.69299996 1.103573e-39
0.0019800067 -0.046859995 0.69299996 1.1042933e-39
0.0033000184 -0.046859968 0.69300002 1.0128193e-39
0.0046200054 -0.046859995 0.69300002 8.2878396e-40
0.0059400061 -0.046859991 0.69300002 5.5255441e-40
0.0072600106 -0.046859995 0.69300002 2.810248e-40
0.0085923886 -0.046927612 0.69400001 2.7627664e-39
0.0099142836 -0.046927627 0.69400001 5.174551e-39
0.011236192 -0.04692762 0.69400001 8.7748161e-39
0.012558107 -0.046927612 0.69400001 1.2352838e-38
0.013900016 -0.046995223 0.69499999 1.199162e-38
0.015267607 -0.047130506 0.69700003 1.1623905e-38
0.016619068 -0.047198076 0.69800001 1.0695492e-38
0.017948588 -0.047198083 0.69800001 9.7836221e-39
0.019360965 -0.047400948 0.70100003 1.4666357e-38
0.020755246 -0.047536191 0.70300001 1.953612e-38
0.022094285 -0.047536198 0.70300001 1.7787629e-38
0.023433341 -0.047536187 0.70300001 1.5948771e-38
0.024772404 -0.047536172 0.70300001 1.7050799e-38
0.026148571 -0.047603816 0.704 1.8067106e-38
0.027489537 -0.047603801 0.70400006 1.8715356e-38
-0.064046666 -0.048562858 0.73899996 2.1212408e-39
-0.062469508 -0.0484314 0.73699999 2.3056432e-39
-0.060982864 -0.048365716 0.73600006 2.1205513e-39
-0.059257131 -0.048102833 0.73200011 1.9350629e-39
-0.05778379 -0.048037108 0.73100001 1.012738e-39
-0.056237143 -0.04790571 0.72900003 1.8404934e-40
-0.054622859 -0.047708567 0.72600001 3.4072418e-39
-0.053166661 -0.047642853 0.72500002 6.5369172e-39
-0.051785726 -0.047642868 0.72500002 5.350683e-39
-0.050057154 -0.047314297 0.71999997 4.2428459e-39
-0.048618093 -0.047248568 0.71900004 4.7905588e-39
-0.047117155 -0.047117155 0.71700001 5.3268778e-39
-0.045687616 -0.047051419 0.71600002 3.1275034e-39
-0.044138107 -0.046854299 0.71300006 1.0138563e-39
-0.042659994 -0.046722848 0.71100003 9.2238369e-40
-0.041247617 -0.046657138 0.71000004 9.223865e-40
-0.039782859 -0.046525717 0.70799994 1.1053414e-39
-0.038434286 -0.046525713 0.708 1.3812207e-39
-0.037033323 -0.046459977 0.70700002 1.0131752e-39
-0.035686668 -0.046459999 0.70699996 6.4582623e-40
-0.034242854 -0.04632856 0.70499998 9.2024952e-40
-0.032900006 -0.046328578 0.70500004 1.1961119e-39
-0.031557146 -0.046328574 0.70500004 9.2024391e-40
-0.030171415 -0.046262838 0.70400006 7.3585265e-40
-0.028789518 -0.046197135 0.70300001 6.4401435e-40
-0.027372368 -0.046065699 0.70100003 6.4402136e-40
-0.025999982 -0.045999974 0.70000005 4.6071471e-40
-0.024596168 -0.045868542 0.69800001 3.6924215e-40
-0.023333317 -0.045999978 0.70000005 4.6144058e-40
-0.021937143 -0.045868572 0.69800001 6.4511998e-40
-0.020607604 -0.045868553 0.69800001 7.3660375e-40
-0.019278085 -0.045868561 0.69800007 9.199076e-40
-0.017948566 -0.045868564 0.69800001 1.012092e-39
-0.016619043 -0.045868564 0.69800001 1.0117347e-39
-0.015267634 -0.04580288 0.69699997 1.1954071e-39
-0.01394001 -0.045802873 0.69700003 1.287244e-39
-0.012576176 -0.045671407 0.69500005 1.0128137e-39
-0.011252384 -0.045671433 0.69499999 7.3766873e-40
-0.0099285608 -0.045671418 0.69499999 1.013178e-39
-0.0086047584 -0.045671426 0.69500005 1.3790865e-39
-0.0072809374 -0.045671411 0.69500005 1.4723569e-39
-0.0059485696 -0.045605715 0.69400001 1.6571083e-39
-0.0046266592 -0.0456057 0.69400001 1.65783e-39
-0.0033047623 -0.045605715 0.69400001 1.7503745e-39
-0.0019742697 -0.045408547 0.69100004 1.5649015e-39
-0.00065808831 -0.045408562 0.69099998 1.4719912e-39
0.00065810402 -0.045408558 0.69100004 1.2879614e-39
0.0019743 -0.045408551 0.69100004 1.1042933e-39
0.0032904814 -0.045408566 0.69100004 8.291483e-40
0.004606674 -0.045408562 0.69100004 6.4584025e-40
0.0059228572 -0.045408573 0.69100004 6.4512558e-40
0.0072390535 -0.045408569 0.69100004 6.4332351e-40
0.0085800132 -0.045539986 0.69300002 1.7525157e-39
0.0099000158 -0.045539986 0.69299996 2.7760507e-39
0.011220001 -0.045540005 0.69299996 6.4656836e-39
0.012540015 -0.045539986 0.69300002 1.0153442e-38
0.01388 -0.045605719 0.69400001 1.0794485e-38
0.015223817 -0.045671426 0.69500005 1.1430509e-38
0.016595235 -0.045802869 0.69699997 1.0321299e-38
0.017922862 -0.045802865 0.69700003 9.1217538e-39
0.019333342 -0.045999996 0.70000005 1.3095847e-38
0.020696202 -0.046065703 0.70100003 1.7065911e-38
0.022031441 -0.04606571 0.70100003 1.7518602e-38
0.023366664 -0.046065729 0.70100003 1.7972404e-38
0.024701914 -0.04606571 0.70100003 1.8158592e-38
0.026037151 -0.046065718 0.70100003 1.8347289e-38
0.027372396 -0.046065696 0.70100009 1.8900099e-38
0.028789522 -0.046197154 0.70299995 1.9545846e-38
-0.064046681 -0.04715525 0.73899996 2.1216009e-39
-0.062469527 -0.047027621 0.73700005 2.1216107e-39
-0.060982849 -0.046963792 0.73600006 2.1226967e-39
-0.059257146 -0.046708565 0.73200005 2.118731e-39
-0.057783816 -0.046644766 0.73100001 1.103856e-39
-0.056237143 -0.046517145 0.72899997 9.69124e-41
-0.054622848 -0.046325702 0.72600001 5.8029269e-39
-0.053166654 -0.046261888 0.72500002 1.1512575e-38
-0.051785719 -0.046261895 0.72500002 8.4921111e-39
-0.050265696 -0.04613426 0.72300005 5.4442926e-39
-0.048685722 -0.045942862 0.71999997 7.5715463e-39
-0.047117148 -0.045751426 0.71699995 9.671528e-39
-0.045687601 -0.04568759 0.71600002 5.0646486e-39
-0.044138104 -0.045496192 0.71300006 3.7315177e-40
-0.042659998 -0.045368567 0.71100003 5.5646963e-40
-0.041247617 -0.045304749 0.71000004 6.4723033e-40
-0.039782852 -0.045177136 0.708 1.0131402e-39
-0.038434289 -0.045177147 0.70799994 1.2886481e-39
-0.037033334 -0.045113336 0.70700002 8.2875454e-40
-0.035686653 -0.045113318 0.70700002 3.6993719e-40
-0.034242861 -0.044985719 0.70500004 6.4436888e-40
-0.032899998 -0.044985712 0.70500004 9.2095157e-40
-0.031512372 -0.044921894 0.70400006 8.2911747e-40
-0.03017142 -0.044921894 0.70400006 6.4472761e-40
-0.028707612 -0.04473047 0.70100003 6.4400875e-40
-0.027333329 -0.044666659 0.70000005 5.5218306e-40
-0.025999987 -0.044666652 0.70000005 4.6071471e-40
-0.024596179 -0.044539038 0.69800001 3.6924074e-40
-0.023266647 -0.044539019 0.69800007 4.6107904e-40
-0.021937126 -0.044539023 0.69800001 5.5327888e-40
-0.020607606 -0.044539023 0.69800001 7.3695688e-40
-0.019250488 -0.044475261 0.69699997 9.2026213e-40
-0.017922863 -0.044475254 0.69700003 9.2025512e-40
-0.016595252 -0.044475265 0.69700003 9.2025652e-40
-0.015223804 -0.04434761 0.69500005 9.2025792e-40
-0.013899985 -0.044347595 0.69500005 9.2061666e-40
-0.012576179 -0.044347603 0.69500005 6.4618777e-40
-0.011252371 -0.044347607 0.69499999 3.7104141e-40
-0.0099285673 -0.04434761 0.69499999 8.2986296e-40
-0.0085923756 -0.044283804 0.69400001 1.2886789e-39
-0.0072704647 -0.044283792 0.69400001 1.4723485e-39
-0.0059485678 -0.044283804 0.69400001 1.5656245e-39
-0.0046266597 -0.044283796 0.69400001 1.842573e-39
-0.0032999841 -0.044219982 0.69300002 2.0258782e-39
-0.0019714078 -0.044028547 0.69000006 1.9329609e-39
-0.00065713789 -0.044028565 0.69000006 1.8403995e-39
0.00065716222 -0.044028543 0.69000006 1.4712569e-39
0.0019714469 -0.044028547 0.69000006 1.1046408e-39
0.0032857335 -0.04402855 0.69000006 7.3766733e-40
0.0046000048 -0.044028569 0.69000006 3.7032955e-40
0.005914303 -0.044028547 0.69000006 7.3803447e-40
0.0072390488 -0.044092383 0.69100004 1.012462e-39
0.0085552428 -0.044092376 0.69100004 7.3623661e-40
0.0098714409 -0.044092365 0.69100004 3.8003775e-40
0.011187636 -0.044092361 0.69100004 4.1582313e-39
0.012503817 -0.044092372 0.69100004 7.9357242e-39
0.013860009 -0.044220001 0.69299996 9.6020782e-39
0.015201909 -0.044283807 0.69400001 1.1248291e-38
0.016547635 -0.044347603 0.69500005 9.8538874e-39
0.017871426 -0.044347629 0.69499999 8.488577e-39
0.019333355 -0.044666652 0.70000005 1.1528861e-38
0.020666679 -0.044666659 0.70000005 1.4574156e-38
0.022031428 -0.044730488 0.70100003 1.7248164e-38
0.023366682 -0.04473047 0.70100003 1.9909235e-38
0.024701903 -0.044730488 0.70100003 1.9263511e-38
0.026037155 -0.04473047 0.70100003 1.853169e-38
0.027372388 -0.044730477 0.70100003 1.9175968e-38
0.028707627 -0.044730473 0.70100003 1.9730958e-38
0.030042866 -0.044730481 0.70100003 2.1480527e-38
-0.064046673 -0.04574763 0.73900002 1.5680768e-39
-0.062384769 -0.045561913 0.73600006 2.02762e-39
-0.060651429 -0.045314275 0.73200005 2.2116554e-39
-0.059257139 -0.045314278 0.73200005 2.3949508e-39
-0.057783801 -0.045252357 0.73100001 1.4719155e-39
-0.05623715 -0.045128576 0.72899997 5.5146139e-40
-0.054622848 -0.044942833 0.72600001 6.276165e-39
-0.053166669 -0.044880968 0.72500002 1.2085869e-38
-0.051785719 -0.044880953 0.72500002 8.1068409e-39
-0.050196182 -0.044695225 0.72200006 4.1342523e-39
-0.048685722 -0.044571437 0.72000003 7.8439181e-39
-0.04724858 -0.04450953 0.71899998 1.1631325e-38
-0.045942862 -0.044571433 0.71999997 6.183165e-39
-0.04401429 -0.04401429 0.71100003 7.3510296e-40
-0.042599991 -0.043952372 0.71000004 1.0131276e-39
-0.041131433 -0.043828573 0.708 1.3819073e-39
-0.039782856 -0.043828566 0.70799994 1.2897145e-39
-0.03837999 -0.043766648 0.70700002 1.2889858e-39
-0.037033338 -0.043766666 0.70699996 1.0138268e-39
-0.035686672 -0.043766674 0.70700002 7.3869028e-40
-0.034242857 -0.043642849 0.70500004 8.2981812e-40
-0.032853328 -0.043580946 0.70400006 1.0138521e-39
-0.03151238 -0.043580946 0.704 9.2130189e-40
-0.030128565 -0.043519035 0.70300001 8.2910906e-40
-0.028707625 -0.043395247 0.70100003 6.4472061e-40
-0.027333319 -0.043333311 0.70000005 5.5218026e-40
-0.025999976 -0.043333299 0.70000005 4.6071471e-40
-0.024560956 -0.043147631 0.69700003 3.6923934e-40
-0.023233345 -0.043147642 0.69699997 4.6143497e-40
-0.021905722 -0.043147635 0.69700003 4.6108044e-40
-0.020578111 -0.043147646 0.69699997 6.4475564e-40
-0.019250488 -0.043147638 0.69700003 8.2770496e-40
-0.017922873 -0.04314765 0.69699997 8.2805809e-40
-0.016595233 -0.043147616 0.69700003 9.2025512e-40
-0.015223808 -0.043023806 0.69500005 9.2025652e-40
-0.013899986 -0.043023791 0.69500005 8.2842103e-40
-0.012576182 -0.043023799 0.69500005 7.3837919e-40
-0.011252374 -0.043023802 0.69499999 6.4798003e-40
-0.0099285692 -0.04302381 0.69499999 1.0142472e-39
-0.0085923746 -0.042961899 0.69400001 1.381585e-39
-0.0072599826 -0.042899981 0.69300002 1.3815808e-39
-0.0059399987 -0.042899996 0.69300002 1.4734247e-39
-0.0046199961 -0.0429 0.69299996 1.6585376e-39
-0.0032904721 -0.04277619 0.69100004 1.843282e-39
-0.0019714064 -0.042714261 0.69000006 1.9347546e-39
-0.00065713463 -0.042714279 0.69000006 2.0258558e-39
0.00065715011 -0.042714283 0.69000006 1.8414505e-39
0.0019714483 -0.042714261 0.69000006 1.6567187e-39
0.0032857344 -0.042714261 0.69000006 1.1053624e-39
0.0046000062 -0.042714287 0.69000006 5.5363761e-40
0.0059142909 -0.042714287 0.69000006 8.2950703e-40
0.0072285892 -0.042714264 0.69000006 1.0139011e-39
0.0085552419 -0.04277619 0.69100004 6.4584585e-40
0.0098571489 -0.042714287 0.69000006 2.7740245e-40
0.011171447 -0.042714268 0.69000006 2.1255666e-39
0.012485732 -0.042714268 0.69000006 4.0635343e-39
0.01382001 -0.042776186 0.69100004 7.1121362e-39
0.015136205 -0.042776175 0.69100004 1.024924e-38
0.016523821 -0.042961892 0.69400001 9.6896047e-39
0.017845718 -0.042961907 0.69400001 9.1439685e-39
0.01916763 -0.042961899 0.69400001 1.0980673e-38
0.020607637 -0.043209516 0.69800007 1.2729555e-38
0.021937156 -0.043209519 0.69800001 1.5772385e-38
0.023333356 -0.043333314 0.70000005 1.8815854e-38
0.024666697 -0.043333303 0.70000005 1.9455457e-38
0.026000008 -0.043333333 0.70000005 2.0094343e-38
0.027333347 -0.043333322 0.70000005 2.0003925e-38
0.02866667 -0.043333337 0.70000005 2.000647e-38
0.030000012 -0.043333322 0.70000005 2.1667435e-38
-0.064046673 -0.044340003 0.73900002 1.0134751e-39
-0.062384754 -0.04415999 0.73600006 1.8417966e-39
-0.060817134 -0.044039987 0.73400003 2.2095072e-39
-0.059257127 -0.043919973 0.73200005 2.5768281e-39
-0.057783809 -0.043859996 0.73100001 1.7452668e-39
-0.056237143 -0.043739997 0.72900003 9.3424569e-40
-0.05462284 -0.043559965 0.72600001 6.7565455e-39
-0.053166661 -0.043499995 0.72500002 1.2528871e-38
-0.051785726 -0.04350001 0.72500002 7.6228086e-39
-0.050265692 -0.043379966 0.72300005 2.7771143e-39
-0.048685726 -0.043200009 0.71999997 8.1294649e-39
-0.04731429 -0.043199997 0.72000003 1.3462319e-38
-0.045879047 -0.043140002 0.71899998 7.3021046e-39
-0.0441381 -0.042780001 0.71300006 1.1146615e-39
-0.042599987 -0.042599984 0.7100001 1.5630503e-39
-0.041131433 -0.042480007 0.70799994 2.0243914e-39
-0.039782871 -0.042480022 0.70799994 1.6581383e-39
-0.038379986 -0.042419985 0.70699996 1.2900704e-39
-0.037033323 -0.042419985 0.70700002 1.198944e-39
-0.035686668 -0.042420007 0.70699996 1.1060393e-39
-0.034242865 -0.042300008 0.70500004 1.1064064e-39
-0.032853317 -0.042239975 0.70400006 1.0138563e-39
-0.031512368 -0.042239975 0.70400006 1.0127829e-39
-0.030128578 -0.042180013 0.70300001 9.2166903e-40
-0.028707616 -0.042059999 0.70100003 7.3728478e-40
-0.027333325 -0.041999988 0.70000005 5.5325786e-40
-0.025999982 -0.041999977 0.70000005 4.6106643e-40
-0.024560966 -0.041820027 0.69699997 3.699512e-40
-0.023233343 -0.041820016 0.69700003 3.69954e-40
-0.021905731 -0.041820027 0.69699997 3.6960088e-40
-0.020578107 -0.041820019 0.69700003 5.5256001e-40
-0.019195229 -0.041699983 0.69500005 6.443927e-40
-0.017922856 -0.041820001 0.69700003 8.2770076e-40
-0.016595243 -0.041820012 0.69699997 9.2025372e-40
-0.01522381 -0.041700002 0.69500005 8.2877556e-40
-0.01389999 -0.041699987 0.69500005 7.3730159e-40
-0.012576186 -0.041699991 0.69500005 8.3093215e-40
-0.011252366 -0.041699972 0.69500005 9.2241172e-40
-0.0098999944 -0.041579995 0.69299996 1.1975609e-39
-0.0085799806 -0.041579973 0.69300002 1.3815878e-39
-0.0072599966 -0.041579995 0.69300002 1.3823039e-39
-0.0059228502 -0.041459993 0.69100004 1.2901166e-39
-0.0046066563 -0.041459985 0.69100004 1.4741534e-39
-0.0032904767 -0.04146 0.69100004 1.5677811e-39
-0.0019714069 -0.041399974 0.69000006 1.8454386e-39
-0.0006561749 -0.041339979 0.68900001 2.1209367e-39
0.00065620017 -0.041339986 0.68900001 2.1198507e-39
0.0019685905 -0.041339975 0.68900001 2.1180626e-39
0.0032809656 -0.041339982 0.68900001 1.4727072e-39
0.0045933407 -0.04133999 0.68900001 7.3802466e-40
0.0059142886 -0.0414 0.69000006 9.2097959e-40
0.0072285905 -0.041399978 0.69000006 1.0138955e-39
0.0085428758 -0.041399982 0.69000006 6.4763391e-40
0.0098571582 -0.041399982 0.69000006 1.8773055e-40
0.011171449 -0.041399982 0.69000006 1.8628722e-40
0.01248573 -0.041399982 0.69000006 1.070536e-40
0.013800018 -0.041399986 0.69000006 4.7175287e-39
0.015114301 -0.041399986 0.69000006 9.2235777e-39
0.016452396 -0.041459985 0.69100004 9.5105762e-39
0.01776858 -0.04146 0.69100004 9.7756837e-39
0.019140014 -0.041579988 0.69300002 1.0336388e-38
0.020489525 -0.041639999 0.69399995 1.0884213e-38
0.021811437 -0.041639999 0.69400001 1.4295081e-38
0.023166673 -0.041699994 0.69500005 1.7611935e-38
0.024490492 -0.041699979 0.69500005 1.9647754e-38
0.0258143 -0.041699987 0.69500005 2.1569463e-38
0.027138108 -0.041699994 0.69499999 2.0922646e-38
0.028543811 -0.041820016 0.69699997 2.0286285e-38
0.029871434 -0.041820005 0.69700003 2.1856487e-38
0.031199044 -0.041820016 0.69699997 2.341769e-38
-0.062384751 -0.042758081 0.73600006 1.1067553e-39
-0.060817145 -0.0426419 0.73400003 1.7506912e-39
-0.059257131 -0.042525686 0.73200005 2.4882226e-39
-0.05778379 -0.042467587 0.73100001 2.576447e-39
-0.056237143 -0.042351428 0.72899997 2.6737559e-39
-0.054773334 -0.042293325 0.72800004 7.1113683e-39
-0.053239997 -0.042177126 0.72599995 1.1527975e-38
-0.051785719 -0.042119045 0.72500002 9.1236427e-39
-0.050265707 -0.042002846 0.72300005 6.7417716e-39
-0.04868573 -0.041828584 0.71999997 9.873975e-39
-0.047248576 -0.041770481 0.71899998 1.3011416e-38
-0.045879032 -0.041770454 0.71900004 7.2935469e-39
-0.044138093 -0.041421894 0.71300006 1.5616617e-39
-0.042659994 -0.04130571 0.71100003 1.9303783e-39
-0.041131426 -0.041131418 0.708 2.3009699e-39
-0.039782863 -0.041131437 0.70799994 1.8414547e-39
-0.038380004 -0.041073341 0.70699996 1.4737484e-39
-0.037033323 -0.041073319 0.70700002 1.2897131e-39
-0.035686672 -0.041073337 0.70699996 1.196807e-39
-0.034242857 -0.040957142 0.70500004 1.0135003e-39
-0.032853324 -0.040899035 0.70400006 9.2166623e-40
-0.031512376 -0.040899035 0.70400006 1.0138619e-39
-0.030128568 -0.040840942 0.70300001 1.0149465e-39
-0.028666656 -0.040666651 0.70000005 8.3020768e-40
-0.02725522 -0.040550448 0.69800007 7.3800645e-40
-0.0259257 -0.040550455 0.69800007 5.5396972e-40
-0.024560949 -0.040492378 0.69700003 4.6249716e-40
-0.023233337 -0.040492389 0.69699997 3.7030713e-40
-0.021842852 -0.04037619 0.69500005 3.6959808e-40
-0.020519035 -0.040376175 0.69500005 4.6144058e-40
-0.019195229 -0.040376183 0.69500005 5.5327467e-40
-0.017871421 -0.040376183 0.69499999 7.3658413e-40
-0.016547615 -0.04037619 0.69500005 9.1989359e-40
-0.015223797 -0.040376175 0.69499999 7.3657712e-40
-0.013879999 -0.040318094 0.69400001 6.4474583e-40
-0.012558103 -0.040318109 0.69400001 7.3766173e-40
-0.011219992 -0.040259991 0.69300002 8.2985876e-40
-0.0098714111 -0.040143784 0.69100004 9.2169706e-40
-0.0085552298 -0.040143795 0.69100004 1.1050093e-39
-0.0072390353 -0.040143792 0.69100004 1.1060841e-39
-0.0059228544 -0.040143803 0.69100004 1.1982853e-39
-0.0046066591 -0.040143799 0.69100004 1.1071729e-39
-0.0032857074 -0.040085711 0.69000006 1.0167738e-39
-0.0019685598 -0.040027604 0.68900001 1.4784638e-39
-0.00065618654 -0.040027615 0.68900001 2.0337801e-39
0.00065620389 -0.040027604 0.68900001 2.3071328e-39
0.0019628559 -0.03991143 0.68700004 2.5801226e-39
0.0032809712 -0.040027596 0.68900001 2.1191458e-39
0.0045933444 -0.040027607 0.68900001 1.7496487e-39
0.0059057213 -0.040027611 0.68900001 1.3812277e-39
0.0072180964 -0.040027618 0.68900001 9.2169566e-40
0.0085304873 -0.040027607 0.68900001 7.394624e-40
0.0098428624 -0.040027615 0.68900001 5.5723614e-40
0.011155254 -0.0400276 0.68900001 4.6289793e-40
0.012467631 -0.040027618 0.68900001 3.6890724e-40
0.013780006 -0.040027622 0.68900001 2.5851532e-39
0.015114302 -0.040085699 0.69000006 4.7946226e-39
0.01642859 -0.040085699 0.69000006 4.8875693e-39
0.017742874 -0.040085699 0.69000006 4.9686582e-39
0.019084772 -0.04014381 0.69100004 5.2556582e-39
0.020460008 -0.040259998 0.69299996 5.5333381e-39
0.021780027 -0.040259976 0.69300002 7.6588472e-39
0.023133334 -0.040318102 0.69399995 9.7911961e-39
0.024455244 -0.040318094 0.69399995 1.4394852e-38
0.025777141 -0.040318105 0.69399995 1.9093144e-38
0.027099051 -0.040318098 0.69399995 2.0468498e-38
0.028461911 -0.040376198 0.69500005 2.1848568e-38
0.029871421 -0.040492397 0.69699997 2.2681212e-38
0.031199047 -0.040492389 0.69700003 2.341769e-38
0.032526661 -0.040492404 0.69700003 2.341769e-38
-0.062384773 -0.041356198 0.73600006 2.7771073e-40
-0.060651414 -0.0411314 0.73200005 1.2893543e-39
-0.059257131 -0.041131403 0.73200005 2.2998853e-39
-0.05778379 -0.041075204 0.73100007 3.3071891e-39
-0.056237135 -0.040962841 0.72900003 4.3397162e-39
-0.054773334 -0.04090666 0.72800004 7.3947753e-39
-0.053240005 -0.040794287 0.72599995 1.042134e-38
-0.051642857 -0.04062571 0.72300005 1.0602797e-38
-0.050196182 -0.04056951 0.72200006 1.0695042e-38
-0.048685718 -0.040457137 0.72000003 1.1613089e-38
-0.047248561 -0.040400933 0.71900004 1.2537884e-38
-0.045879051 -0.040400952 0.71899998 7.2989391e-39
-0.044014286 -0.039951432 0.71100003 1.9412019e-39
-0.042599995 -0.039895233 0.71000004 2.2044429e-39
-0.041131429 -0.039782856 0.70799994 2.4824829e-39
-0.039726671 -0.039726671 0.70700002 2.1158822e-39
-0.038379993 -0.039726652 0.70700002 1.6570607e-39
-0.037033323 -0.039726648 0.70699996 1.4733883e-39
-0.035686657 -0.039726652 0.70700002 1.1971671e-39
-0.034242854 -0.039614271 0.70500004 1.0124227e-39
-0.032853328 -0.039558087 0.704 8.2982793e-40
-0.031467624 -0.039501913 0.70300001 1.0138591e-39
-0.030042859 -0.039389528 0.70100003 1.1064176e-39
-0.028707609 -0.039389506 0.70100003 1.0145877e-39
-0.027255232 -0.039220944 0.69800001 8.2983213e-40
-0.025925713 -0.039220948 0.69800001 6.4615273e-40
-0.024560958 -0.03916477 0.69699997 4.6249015e-40
-0.023166662 -0.039052378 0.69499999 3.7066306e-40
-0.021842858 -0.039052382 0.69500005 2.781115e-40
-0.020519037 -0.039052363 0.69500005 3.699498e-40
-0.019195234 -0.039052378 0.69500005 4.6142937e-40
-0.017871412 -0.03905236 0.69500005 6.454633e-40
-0.016547622 -0.039052382 0.69499999 8.2841682e-40
-0.015201909 -0.038996197 0.69400001 6.4402837e-40
-0.01388 -0.03899619 0.69400001 4.6071471e-40
-0.012539989 -0.038939983 0.69299996 5.525502e-40
-0.011187609 -0.038827602 0.69099998 6.454661e-40
-0.0098714149 -0.038827598 0.69100004 7.3802326e-40
-0.0085428497 -0.038771417 0.69000006 7.38382e-40
-0.0072285468 -0.038771398 0.69000006 9.2277045e-40
-0.0059142644 -0.038771395 0.69000006 1.1068044e-39
-0.0045999787 -0.038771402 0.69000006 7.3910787e-40
-0.0032809484 -0.038715236 0.68900001 3.7320642e-40
-0.0019628732 -0.038602881 0.68699998 1.2008077e-39
-0.00065332971 -0.03854667 0.68599999 1.939079e-39
0.00065428211 -0.038602863 0.68700004 2.4943967e-39
0.0019600047 -0.038546663 0.68599999 2.952491e-39
0.0032714242 -0.038602866 0.68699998 2.8570612e-39
0.0045799911 -0.03860287 0.68700004 2.7616272e-39
0.0058885617 -0.03860287 0.68700004 1.84111e-39
0.0071971351 -0.03860287 0.68699998 8.3092795e-40
0.0085304892 -0.038715221 0.68900001 8.3093776e-40
0.0098428642 -0.038715228 0.68900001 8.3165943e-40
0.011122844 -0.038602877 0.68699998 7.3911067e-40
0.012431428 -0.038602863 0.68700004 5.5364742e-40
0.013780008 -0.03871524 0.68900001 4.6001966e-40
0.015092398 -0.038715217 0.68900001 2.810206e-40
0.016404774 -0.038715232 0.68900001 1.8417126e-40
0.017742872 -0.03877141 0.69000006 9.5215428e-41
0.01905716 -0.038771417 0.69000006 9.2356779e-41
0.020371439 -0.03877141 0.69000006 9.9176899e-41
0.02171714 -0.038827628 0.69100004 1.0150263e-39
0.023033338 -0.038827624 0.69100004 1.8638573e-39
0.024420014 -0.038939994 0.69300002 9.2301372e-39
0.025740014 -0.038939994 0.69300002 1.6598152e-38
0.027060015 -0.03893999 0.69300002 2.0009705e-38
0.028380016 -0.038939994 0.69299996 2.3413373e-38
0.029742856 -0.038996201 0.69400001 2.341769e-38
0.031109532 -0.039052378 0.69500005 2.341769e-38
0.03243335 -0.039052363 0.69500005 2.341769e-38
-0.060651414 -0.039737113 0.73200005 7.3653929e-40
-0.059257131 -0.039737117 0.73200005 1.1967818e-39
-0.057783801 -0.039682839 0.73100001 3.6842211e-39
-0.056391429 -0.03968285 0.73100001 6.0949995e-39
-0.054848578 -0.039574284 0.72900003 7.8453516e-39
-0.053386662 -0.039519984 0.72800004 9.5887771e-39
-0.051785726 -0.039357156 0.72500002 9.8703666e-39
-0.050265718 -0.039248575 0.72300005 1.0149092e-38
-0.04882095 -0.039194282 0.72200006 1.0324142e-38
-0.047314297 -0.039085723 0.72000003 1.0513193e-38
-0.045879047 -0.039031427 0.71900004 7.0144741e-39
-0.044014286 -0.038597144 0.71100003 3.4030379e-39
-0.042599995 -0.038542848 0.71000004 3.0327476e-39
-0.041131433 -0.038434289 0.70799994 2.7576265e-39
-0.039726675 -0.038380008 0.70699996 2.2995504e-39
-0.03837999 -0.038379986 0.70700002 1.8410918e-39
-0.037033342 -0.038380008 0.70699996 1.5652266e-39
-0.035585705 -0.038271416 0.70500004 1.3815556e-39
-0.034194272 -0.03821712 0.70400006 1.1971671e-39
-0.032806665 -0.038162861 0.70299995 1.0134961e-39
-0.031467613 -0.038162846 0.70300001 1.0142136e-39
-0.030042851 -0.038054276 0.70100003 1.106412e-39
-0.028584749 -0.037891414 0.69800001 1.0142206e-39
-0.02721619 -0.037837144 0.69700003 8.2910486e-40
-0.025888581 -0.037837155 0.69699997 6.4650026e-40
-0.02449047 -0.037728563 0.69499999 5.5467737e-40
-0.023166664 -0.037728574 0.69499999 5.5432985e-40
-0.021842845 -0.037728556 0.69500005 5.5325085e-40
-0.020519041 -0.037728559 0.69500005 4.6105242e-40
-0.01916761 -0.037674274 0.69400001 4.6034476e-40
-0.017845716 -0.037674289 0.69400001 5.5290613e-40
-0.016523803 -0.037674282 0.69400001 6.4510456e-40
-0.015179985 -0.037619978 0.69300002 5.5291314e-40
-0.013879998 -0.037674282 0.69400001 4.6035597e-40
-0.01254 -0.037620001 0.69300002 6.4438009e-40
-0.011187616 -0.03751142 0.6910001 8.2805669e-40
-0.0098714177 -0.037511412 0.69100004 8.2949582e-40
-0.0085428478 -0.037457131 0.69000006 8.3057342e-40
-0.0072285635 -0.037457135 0.69000006 1.0149619e-39
-0.0059057088 -0.037402853 0.68900001 1.1993531e-39
-0.0045933188 -0.037402838 0.68900001 9.2348932e-40
-0.0032714331 -0.037294295 0.68700004 6.487101e-40
-0.0019600065 -0.037240013 0.68599999 1.1082561e-39
-0.00065333204 -0.037240002 0.68600005 1.5677951e-39
0.00065427931 -0.037294295 0.68699998 2.216026e-39
0.0019628629 -0.03729428 0.68700004 2.8681931e-39
0.0032714186 -0.037294298 0.68700004 3.4138153e-39
0.0045799883 -0.037294302 0.68699998 3.8636475e-39
0.005888572 -0.037294284 0.68700004 2.6683329e-39
0.0071971454 -0.037294287 0.68700004 1.3826514e-39
0.0085056992 -0.03729431 0.68699998 1.1068002e-39
0.0098142829 -0.037294295 0.68700004 9.2384665e-40
0.011122854 -0.037294295 0.68700004 9.2277045e-40
0.012431423 -0.037294295 0.68699998 1.0131766e-39
0.01374 -0.037294295 0.68699998 1.0124634e-39
0.015092404 -0.037402835 0.68900001 1.1035632e-39
0.01640478 -0.037402842 0.68900001 1.1046212e-39
0.017717155 -0.037402857 0.68900001 1.01315e-39
0.019029545 -0.037402842 0.68900001 1.0120794e-39
0.020371446 -0.037457127 0.69000006 1.0106347e-39
0.021717152 -0.037511427 0.69100004 1.0120598e-39
0.023033349 -0.037511412 0.69100004 1.0107201e-39
0.024349539 -0.037511405 0.69100004 5.35363e-39
0.025740007 -0.037620004 0.69299996 9.7029465e-39
0.027060019 -0.037619989 0.69300002 1.6422049e-38
0.028380016 -0.037619982 0.69300002 2.3142183e-38
0.029742854 -0.037674293 0.69400001 2.3325854e-38
0.031109544 -0.037728552 0.69500005 2.341769e-38
0.032433346 -0.037728559 0.69500005 2.341769e-38
0.033757154 -0.037728567 0.69500005 2.341769e-38
-0.06065141 -0.03834283 0.73200005 9.2254484e-41
-0.059419051 -0.038447618 0.73400009 9.4057956e-41
-0.057862848 -0.038342837 0.73200005 3.9540299e-39
-0.05646855 -0.038342819 0.73200005 7.8355818e-39
-0.054999039 -0.038290452 0.73100001 8.3020012e-39
-0.053460006 -0.038185723 0.72899997 8.6718515e-39
-0.05185714 -0.038028564 0.72600001 9.1410707e-39
-0.050404768 -0.037976205 0.72500002 9.4983401e-39
-0.048685733 -0.03771431 0.71999997 9.021198e-39
-0.047314283 -0.037714276 0.72000003 8.4852658e-39
-0.045879047 -0.037661899 0.71899998 6.7504499e-39
-0.0441381 -0.037347622 0.71300006 4.8806637e-39
-0.042659998 -0.037242852 0.71100003 3.9496816e-39
-0.041131441 -0.037085727 0.70799994 2.9413087e-39
-0.03972666 -0.037033323 0.70700002 2.4832312e-39
-0.038379993 -0.037033319 0.70699996 1.9325742e-39
-0.036928564 -0.036928557 0.70500004 1.7481829e-39
-0.035585716 -0.036928572 0.70500004 1.4730337e-39
-0.034242854 -0.036928564 0.70500004 1.2897201e-39
-0.032806654 -0.036823791 0.70300001 1.106405e-39
-0.031467613 -0.036823798 0.70300001 1.1064036e-39
-0.030042861 -0.036719054 0.70100003 1.1064078e-39
-0.028584752 -0.036561888 0.69800001 1.0142164e-39
-0.027216202 -0.03650954 0.69699997 8.3018246e-40
-0.025888577 -0.036509532 0.69700003 7.3906163e-40
-0.024560964 -0.036509544 0.69700003 5.5468018e-40
-0.023166666 -0.036404766 0.69500005 7.3800084e-40
-0.021842849 -0.036404751 0.69500005 8.2948321e-40
-0.020519042 -0.036404755 0.69500005 6.4474023e-40
-0.019167608 -0.03635237 0.69400001 3.6923654e-40
-0.017819995 -0.036299996 0.69300002 4.6071611e-40
-0.016452368 -0.036195222 0.69100004 4.6108044e-40
-0.015136185 -0.036195233 0.69100004 4.6144618e-40
-0.013819993 -0.03619523 0.69100004 4.6108044e-40
-0.012503811 -0.036195245 0.69100004 7.3658133e-40
-0.011187616 -0.036195237 0.69100004 9.2061245e-40
-0.0098571209 -0.036142822 0.69000006 9.2169145e-40
-0.0085304715 -0.036090471 0.68900001 9.2240752e-40
-0.007218081 -0.036090452 0.68900001 1.1071547e-39
-0.0058885738 -0.035985723 0.68699998 1.2904698e-39
-0.004580006 -0.035985727 0.68700004 1.1068002e-39
-0.0032666675 -0.035933342 0.68599999 8.313021e-40
-0.0019542938 -0.035828583 0.68399996 1.0153388e-39
-0.00065142376 -0.035828568 0.68399996 1.1068198e-39
0.00065143133 -0.035828572 0.68400002 1.9337036e-39
0.0019542845 -0.035828572 0.68400002 2.7695571e-39
0.0032571554 -0.035828557 0.68400002 3.8827108e-39
0.0045600105 -0.035828561 0.68400002 4.9725174e-39
0.0058542751 -0.035776209 0.68300003 3.4945189e-39
0.007155234 -0.035776198 0.68300003 1.9333182e-39
0.0084685767 -0.035828572 0.68399996 1.4737862e-39
0.0097714281 -0.035828572 0.68400002 9.2312078e-40
0.011074285 -0.035828575 0.68400002 1.1989734e-39
0.012377155 -0.035828561 0.68400002 1.3815808e-39
0.013720017 -0.035933312 0.68600005 1.6570999e-39
0.015048564 -0.035985734 0.68699998 1.9329553e-39
0.016357148 -0.035985712 0.68700004 1.9343804e-39
0.01766572 -0.035985719 0.68699998 1.9333084e-39
0.019029547 -0.036090452 0.68900001 1.9325952e-39
0.020341923 -0.036090467 0.68900007 1.9318749e-39
0.021685744 -0.036142822 0.69000006 1.0120836e-39
0.023000015 -0.036142841 0.69000006 9.3766485e-41
0.024314301 -0.036142845 0.69000006 1.4706193e-39
0.02566574 -0.036195219 0.69100004 2.7886806e-39
0.02698192 -0.03619523 0.69100004 1.2832908e-38
0.028298112 -0.036195226 0.69100004 2.2858055e-38
0.029700024 -0.036299977 0.69300002 2.3142183e-38
0.031064766 -0.036352381 0.69400001 2.341769e-38
0.032433346 -0.036404748 0.69500005 2.341769e-38
0.033757165 -0.036404736 0.69500005 2.341769e-38
-0.05941904 -0.037049513 0.73400003 9.2285313e-41
-0.057862852 -0.03694855 0.73200005 4.0563106e-39
-0.056468554 -0.036948532 0.73200005 8.124374e-39
-0.054999046 -0.036898095 0.73100001 8.3016242e-39
-0.053459998 -0.03679714 0.72900003 8.5731945e-39
-0.051857136 -0.036645692 0.72600001 9.410127e-39
-0.050404776 -0.036595259 0.72500002 1.0141538e-38
-0.048685722 -0.036342863 0.71999997 7.2827527e-39
-0.047314297 -0.03634287 0.71999997 4.5338157e-39
-0.045879047 -0.036292374 0.71900004 3.7869629e-39
-0.044199999 -0.036039993 0.71400005 3.1228833e-39
-0.042659994 -0.035888568 0.71100003 2.7565517e-39
-0.041131441 -0.035737161 0.70799994 2.4828599e-39
-0.03972666 -0.035686653 0.70700002 2.2999273e-39
-0.038380008 -0.035686675 0.70699996 2.208445e-39
-0.036928575 -0.035585709 0.70500004 2.1162451e-39
-0.035535231 -0.035535228 0.70400006 2.0240481e-39
-0.034145713 -0.035484757 0.70300001 1.5655839e-39
-0.032806672 -0.035484768 0.70300001 1.199674e-39
-0.031467617 -0.035484754 0.70300001 1.1985936e-39
-0.02999999 -0.03533332 0.70000005 1.1060449e-39
-0.02858475 -0.035232365 0.69800007 1.0142122e-39
-0.027255228 -0.035232369 0.69800001 8.3018526e-40
-0.025888586 -0.035181925 0.69700003 6.4615694e-40
-0.024560973 -0.035181936 0.69699997 5.5432565e-40
-0.023166655 -0.03508094 0.69499999 6.4652408e-40
-0.02184285 -0.035080943 0.69500005 7.3873232e-40
-0.020489518 -0.035030469 0.69400001 5.5399774e-40
-0.019139992 -0.034979988 0.69299996 3.6996381e-40
-0.017819989 -0.034979988 0.69299996 3.6924215e-40
-0.01645237 -0.034879036 0.69100004 4.6108745e-40
-0.015136175 -0.034879033 0.69100004 5.5293135e-40
-0.013819995 -0.03487904 0.69100004 6.4440111e-40
-0.012485704 -0.034828559 0.69000006 6.4439411e-40
-0.011171422 -0.034828555 0.69000006 6.443927e-40
-0.0098428428 -0.034778073 0.68900001 7.37303e-40
-0.0085057197 -0.034677152 0.68699998 9.2204878e-40
-0.0071971365 -0.034677137 0.68700004 9.2204738e-40
-0.0058799898 -0.034626655 0.68600005 1.0138857e-39
-0.0045733294 -0.034626659 0.68599999 9.2205159e-40
-0.003266653 -0.034626652 0.68600005 8.291455e-40
-0.00195143 -0.034475241 0.68300003 9.220628e-40
-0.00065047009 -0.03447523 0.68300003 1.0128291e-39
0.00065047486 -0.034475241 0.68300003 1.6567608e-39
0.0019514188 -0.034475256 0.68300003 2.393621e-39
0.0032523796 -0.034475241 0.68300003 3.0443854e-39
0.0045533245 -0.034475256 0.68300003 3.781914e-39
0.0058542835 -0.034475241 0.68300003 2.947117e-39
0.0071552293 -0.034475248 0.68300003 2.20848e-39
0.0084561883 -0.034475245 0.68300003 1.4745065e-39
0.0097571341 -0.034475256 0.68300003 8.3091674e-40
0.011058095 -0.034475241 0.68300003 1.2915053e-39
0.012359038 -0.034475252 0.68300003 1.7492689e-39
0.013659999 -0.034475241 0.68299997 1.7503647e-39
0.014982872 -0.0345257 0.68400002 1.7514395e-39
0.016285727 -0.034525704 0.68400002 1.7514381e-39
0.017588565 -0.03452573 0.68399996 1.7507234e-39
0.018891437 -0.034525711 0.68399996 1.8425603e-39
0.020253332 -0.034626674 0.68599999 1.9347616e-39
0.021560006 -0.034626663 0.68599999 1.4745135e-39
0.02290001 -0.034677137 0.68700004 1.0135227e-39
0.024279052 -0.0347781 0.68900001 1.1978902e-39
0.025591442 -0.034778085 0.68900001 1.474585e-39
0.026903821 -0.0347781 0.68900001 7.9412074e-39
0.028257171 -0.03482854 0.69000006 1.4498502e-38
0.029614303 -0.034879033 0.69100004 1.9006358e-38
0.030930486 -0.034879047 0.69100004 2.341769e-38
0.032340012 -0.034979992 0.69300002 2.341769e-38
0.033708569 -0.03503048 0.69400001 2.341769e-38
0.035080951 -0.035080954 0.69499999 2.341769e-38
-0.057862844 -0.035554271 0.73200005 4.238202e-39
-0.05646855 -0.035554249 0.73200005 8.2965753e-39
-0.054999027 -0.035505686 0.73100001 8.3902395e-39
-0.053606655 -0.035505697 0.73100001 8.4871099e-39
-0.052214287 -0.035505708 0.73100001 9.6924634e-39
-0.050404768 -0.035214294 0.72500002 1.0780789e-38
-0.048685726 -0.034971442 0.72000003 5.6182035e-39
-0.047314301 -0.03497145 0.72000003 4.7328015e-40
-0.045687612 -0.034777127 0.71599996 9.2350754e-40
-0.044199996 -0.03467999 0.71400005 1.2879474e-39
-0.042780004 -0.034631427 0.71300006 1.654181e-39
-0.041247603 -0.034485687 0.71000004 2.0240453e-39
-0.039726663 -0.034339987 0.70699996 2.2091624e-39
-0.038379993 -0.03433999 0.70700002 2.3921118e-39
-0.036928568 -0.034242842 0.70500004 2.4839431e-39
-0.035535224 -0.034194257 0.70400006 2.4839403e-39
-0.034145702 -0.034145687 0.70300001 1.9329259e-39
-0.032806657 -0.034145698 0.70300001 1.2907879e-39
-0.031378087 -0.034048557 0.70100003 1.1989468e-39
-0.029999979 -0.033999972 0.70000005 1.1060323e-39
-0.028584747 -0.033902835 0.69800001 1.0138352e-39
-0.027216192 -0.033854287 0.69700003 8.2981532e-40
-0.025888581 -0.033854298 0.69699997 6.4507794e-40
-0.024490479 -0.03375715 0.69499999 4.6213002e-40
-0.023166658 -0.033757135 0.69499999 5.5468858e-40
-0.021842854 -0.033757139 0.69500005 6.4581362e-40
-0.020489533 -0.033708584 0.69399995 4.6250977e-40
-0.019139988 -0.033659983 0.69300002 2.781115e-40
-0.017819988 -0.03365998 0.69300002 3.6921972e-40
-0.016452374 -0.033562846 0.69100004 4.6106923e-40
-0.01513618 -0.033562843 0.69100004 6.4511297e-40
-0.013799976 -0.03351425 0.69000006 8.2842103e-40
-0.012485705 -0.033514272 0.69000006 6.443857e-40
-0.011155228 -0.033465702 0.68900001 3.6959667e-40
-0.0098428391 -0.033465687 0.68900001 6.4510176e-40
-0.0085057095 -0.033368565 0.68700004 8.2913149e-40
-0.0071971547 -0.033368591 0.68699998 7.3729599e-40
-0.0058799908 -0.033319987 0.68599999 6.4617936e-40
-0.0045733303 -0.033319995 0.68599999 7.3765612e-40
-0.0032666707 -0.033320006 0.68600005 8.3021749e-40
-0.0019514337 -0.033174291 0.68299997 9.220614e-40
-0.00065048964 -0.033174302 0.68299997 9.2134113e-40
0.00065047207 -0.033174295 0.68299997 1.4709178e-39
0.0019514291 -0.033174288 0.68300003 1.9329861e-39
0.003252388 -0.033174273 0.68300003 2.3021428e-39
0.0045533348 -0.033174284 0.68300003 2.5812268e-39
0.0058542788 -0.033174302 0.68300003 2.4872291e-39
0.0071552377 -0.033174288 0.68300003 2.3953866e-39
0.0084438128 -0.03312571 0.68200004 1.5681413e-39
0.0097428486 -0.033125732 0.68200004 7.4304972e-40
0.011058089 -0.033174299 0.68300003 1.3862513e-39
0.01235905 -0.033174288 0.68300003 2.028025e-39
0.013659994 -0.033174299 0.68300003 1.8439981e-39
0.014960955 -0.033174288 0.68300003 1.568493e-39
0.016261904 -0.033174295 0.68300003 1.5688545e-39
0.017588573 -0.033222858 0.68399996 1.5681329e-39
0.01889143 -0.033222865 0.68399996 1.7514409e-39
0.020194298 -0.033222847 0.68400002 1.9361937e-39
0.021560006 -0.033319999 0.68599999 1.9379916e-39
0.022866683 -0.033319984 0.68600005 1.9358364e-39
0.024208574 -0.033368576 0.68700004 1.0164024e-39
0.025591446 -0.033465698 0.68900001 1.0203415e-40
0.026903823 -0.03346571 0.68900001 3.1426907e-39
0.028216213 -0.033465698 0.68900001 6.1102064e-39
0.029571442 -0.033514276 0.69000006 1.4783001e-38
0.030885726 -0.033514276 0.69000006 2.3416973e-38
0.032340001 -0.033660006 0.69299996 2.341769e-38
0.033660013 -0.033659983 0.69300002 2.341769e-38
0.03503048 -0.033708569 0.69400001 2.341769e-38
0.036509518 -0.033854309 0.69699997 2.341769e-38
-0.056468554 -0.034159962 0.73200005 7.8409964e-39
-0.054999027 -0.034113299 0.73100007 8.0239821e-39
-0.053606652 -0.03411331 0.73100001 8.2101797e-39
-0.052214269 -0.034113299 0.73100001 9.1317772e-39
-0.050821897 -0.034113314 0.73100001 1.0139726e-38
-0.048820958 -0.03369334 0.72200006 5.5299231e-39
-0.047445714 -0.033693332 0.72200006 9.1878376e-40
-0.045879047 -0.033553325 0.71900004 1.1038967e-39
-0.044323806 -0.033413317 0.71599996 1.2872103e-39
-0.042779997 -0.033273317 0.71300006 1.4719589e-39
-0.041247614 -0.033133317 0.71000004 1.6577837e-39
-0.039726663 -0.032993324 0.70699996 1.9329315e-39
-0.038271423 -0.032899987 0.70500004 2.2077191e-39
-0.036876194 -0.032853331 0.704 2.2087925e-39
-0.035535231 -0.032853317 0.70400006 2.3013441e-39
-0.03414572 -0.032806665 0.70300001 1.7499709e-39
-0.032806676 -0.032806676 0.70300001 1.2900676e-39
-0.031378098 -0.032713331 0.70100003 1.2904179e-39
-0.029999986 -0.03266665 0.70000005 1.1971377e-39
-0.028584747 -0.032573313 0.69800001 1.1978453e-39
-0.0272162 -0.032526683 0.69699997 1.1975048e-39
-0.025888575 -0.032526676 0.69700003 9.2129909e-40
-0.024490468 -0.032433324 0.69500005 7.3727637e-40
-0.023166662 -0.032433331 0.69499999 7.3692324e-40
-0.021811426 -0.032386664 0.69400001 7.3584985e-40
-0.020489531 -0.032386679 0.69400001 5.5325786e-40
-0.019139985 -0.032339979 0.69300002 3.6921272e-40
-0.01776856 -0.032246649 0.69100004 4.610328e-40
-0.016452363 -0.032246642 0.69100004 6.4472341e-40
-0.015114276 -0.032199983 0.69000006 6.4474163e-40
-0.013799976 -0.032199968 0.69000006 6.4438009e-40
-0.012467616 -0.032153331 0.68900001 5.5325926e-40
-0.011155226 -0.032153312 0.68900001 4.6214123e-40
-0.0098142968 -0.03206002 0.68699998 6.4545349e-40
-0.0085057272 -0.032060023 0.68699998 9.2024391e-40
-0.0071866671 -0.032013334 0.68600005 8.2912728e-40
-0.0058800075 -0.032013346 0.68599999 7.3836798e-40
-0.0045599863 -0.031919979 0.68400002 8.3091954e-40
-0.0032571442 -0.031920001 0.68399996 1.0156779e-39
-0.0019514374 -0.031873349 0.68300003 8.302245e-40
-0.00064952293 -0.031826664 0.68200004 7.3909526e-40
0.00064952957 -0.03182666 0.68199998 1.7474794e-39
0.0019485755 -0.03182666 0.68200004 2.7587643e-39
0.0032476271 -0.031826656 0.68200004 3.7775826e-39
0.0045466609 -0.031826675 0.68200004 4.8760282e-39
0.0058457144 -0.031826671 0.68200004 4.054538e-39
0.0071447762 -0.031826649 0.68200004 3.225499e-39
0.00844381 -0.031826667 0.68200004 2.2149414e-39
0.0097428598 -0.031826664 0.68200004 1.1154378e-39
0.011041909 -0.03182666 0.68200004 1.3880842e-39
0.012359044 -0.031873342 0.68300003 1.6635753e-39
0.013660004 -0.03187333 0.68300003 1.4777351e-39
0.01496095 -0.031873342 0.68300003 1.2018755e-39
0.016261911 -0.03187333 0.68300003 1.3851933e-39
0.017562857 -0.031873342 0.68300003 1.5688545e-39
0.018863818 -0.031873334 0.68300003 1.6599627e-39
0.020194292 -0.031920005 0.68400002 1.7525199e-39
0.021497145 -0.031920005 0.68400002 1.6617634e-39
0.022866664 -0.032013346 0.68599999 1.571737e-39
0.024208572 -0.032060008 0.68699998 1.1104211e-39
0.025517145 -0.032060008 0.68699998 6.5193029e-40
0.026903825 -0.032153323 0.68900001 1.8457609e-39
0.028216215 -0.032153312 0.68900001 3.1283666e-39
0.029571455 -0.032199971 0.69000006 9.6043399e-39
0.030885726 -0.032199997 0.69000006 1.6070492e-38
0.032246668 -0.032246668 0.69100004 1.9466253e-38
0.033660006 -0.032339998 0.69299996 2.2866677e-38
0.035030469 -0.032386679 0.69399995 2.3142183e-38
0.03640477 -0.032433327 0.69499999 2.341769e-38
0.037837133 -0.032526694 0.69699997 2.341769e-38
-0.053606652 -0.032720927 0.73100007 7.8399174e-39
-0.052214283 -0.032720935 0.73100007 8.6686103e-39
-0.050821897 -0.032720927 0.73100007 9.399997e-39
