# .PCD v0.7 - Point Cloud Data file format
VERSION 0.7
FIELDS x y z rgb
SIZE 4 4 4 4
TYPE F F F F
COUNT 1 1 1 1
WIDTH 945
HEIGHT 1
VIEWPOINT 0 0 0 1 0 0 0
POINTS 945
DATA ascii
-0.04038094 -0.057142846 0.79999995 4.6133548e-40
-0.038857125 -0.057142835 0.79999995 3.6985872e-40
-0.037426673 -0.057285715 0.80200005 2.7767009e-40
-0.035899051 -0.057285707 0.80200005 2.7803303e-40
-0.034371424 -0.0572857 0.80200005 2.7802742e-40
-0.032925688 -0.057428543 0.80400002 2.7802042e-40
-0.031472363 -0.057571411 0.80599999 1.8546746e-40
-0.029937131 -0.057571415 0.80599999 2.7730435e-40
-0.0284019 -0.057571422 0.80599999 3.6913985e-40
-0.02693334 -0.057714295 0.80800003 3.6949998e-40
-0.025394263 -0.057714269 0.80800003 3.6914125e-40
-0.023855228 -0.057714276 0.80800003 6.4428901e-40
-0.022316173 -0.057714269 0.80800003 9.197941e-40
-0.020777138 -0.05771428 0.80800003 6.4392747e-40
-0.019238083 -0.057714272 0.80800003 2.7658549e-40
-0.017699046 -0.057714287 0.80800003 2.7658409e-40
-0.016159993 -0.05771428 0.80800003 1.8510732e-40
-0.014584755 -0.057571422 0.80600005 2.7730155e-40
-0.013049502 -0.057571404 0.80599999 3.6877832e-40
-0.011514267 -0.057571415 0.80599999 3.6913705e-40
-0.0099542635 -0.05742855 0.80400002 3.6913705e-40
-0.0084228376 -0.057428554 0.80400002 6.45361e-40
-0.0068742875 -0.057285719 0.80200005 8.2939073e-40
-0.0053333016 -0.057142828 0.79999995 5.5352551e-40
-0.0037999677 -0.05699997 0.79800004 1.8582479e-40
-0.0022799692 -0.056999978 0.79799998 2.7694282e-40
0.0049666772 -0.053214274 0.74500006 1.1038518e-39
0.0063857306 -0.053214278 0.74500006 9.1874873e-40
0.007773364 -0.05299997 0.74199998 6.5837346e-40
0.0091866888 -0.052999977 0.74199998 7.2074553e-39
0.010600042 -0.052999966 0.74199998 1.3732096e-38
0.011964779 -0.052785691 0.73900002 1.3368357e-38
0.013336211 -0.052642833 0.73700005 1.2908464e-38
0.014680037 -0.05242854 0.73399997 1.3271865e-38
0.016012393 -0.052214276 0.73100001 1.3552759e-38
0.017404767 -0.052214298 0.73100001 1.4104855e-38
-0.056999981 -0.055479977 0.79799998 1.7491834e-39
-0.055479966 -0.055479962 0.79800004 1.7488345e-39
-0.053959973 -0.055479974 0.79800004 1.9325139e-39
-0.052439976 -0.055479974 0.79800004 2.0254172e-39
-0.05091998 -0.055479977 0.79800004 1.6569892e-39
-0.049399965 -0.055479962 0.79800004 1.1970942e-39
-0.047999982 -0.05561902 0.79999995 8.2867606e-40
-0.046476159 -0.055619013 0.79999995 5.5210319e-40
-0.044952359 -0.05561902 0.80000001 4.6063623e-40
-0.043428555 -0.055619027 0.79999995 4.6062782e-40
-0.041904736 -0.055619016 0.79999995 4.6061802e-40
-0.04038094 -0.055619031 0.80000001 3.6878252e-40
-0.038954295 -0.055758104 0.80200005 2.7730576e-40
-0.037426647 -0.055758078 0.80200005 2.7730435e-40
-0.035899051 -0.055758093 0.80200005 2.7730155e-40
-0.034371421 -0.055758085 0.80200005 2.7730295e-40
-0.032925691 -0.05589712 0.80400002 2.7730295e-40
-0.031472359 -0.056036167 0.80600005 2.7658689e-40
-0.029937126 -0.056036178 0.80600005 2.7694562e-40
-0.028401894 -0.056036178 0.80600005 3.6878252e-40
-0.026933318 -0.056175228 0.80800003 3.6914125e-40
-0.025394266 -0.056175224 0.80800003 4.6097815e-40
-0.02385523 -0.056175232 0.80800003 5.5281365e-40
-0.022316193 -0.056175243 0.80800003 7.3576577e-40
-0.020777138 -0.056175243 0.80800003 4.6025788e-40
-0.019238083 -0.056175236 0.80800009 1.8474999e-40
-0.017699024 -0.056175221 0.80800003 1.8474859e-40
-0.016159989 -0.056175236 0.80800003 1.8474859e-40
-0.014584745 -0.056036174 0.80599999 2.7694282e-40
-0.013049512 -0.056036182 0.80599999 3.6841958e-40
-0.011514281 -0.056036189 0.80600005 3.6877832e-40
-0.0099542728 -0.055897132 0.80400002 3.6877832e-40
-0.0084228236 -0.055897105 0.80399996 4.6133128e-40
-0.0068742642 -0.055758081 0.80200005 5.5352551e-40
-0.0053333128 -0.055619027 0.80000001 3.6949578e-40
-0.0037952221 -0.055410467 0.79700005 2.7658409e-40
-0.0022656887 -0.055132363 0.79300004 3.6841958e-40
-0.00075520179 -0.055132348 0.79299998 4.6025788e-40
0.00777335 -0.051586647 0.74199998 3.7104001e-40
0.0092238104 -0.051795233 0.74500006 6.0003558e-39
0.010614316 -0.051656168 0.74300003 1.1527698e-38
0.011980971 -0.051447608 0.74000001 1.2539673e-38
0.013372382 -0.05137809 0.73900002 1.3456249e-38
0.014740014 -0.05123904 0.73700005 1.3642804e-38
0.016121935 -0.051169489 0.736 1.3921183e-38
0.017404785 -0.050821889 0.73099995 1.4288885e-38
0.018745745 -0.050682832 0.72900003 1.4749499e-38
-0.055479977 -0.053959969 0.79800004 2.207649e-39
-0.053959962 -0.053959955 0.79800004 2.2998489e-39
-0.052439958 -0.053959955 0.79799998 2.3923948e-39
-0.050919987 -0.053959981 0.79800004 1.8406588e-39
-0.049399972 -0.053959969 0.79800004 1.1970942e-39
-0.047999993 -0.05409522 0.79999995 9.2087309e-40
-0.04647617 -0.054095212 0.79999995 5.5281785e-40
-0.044952348 -0.054095201 0.79999995 4.6062782e-40
-0.043428551 -0.054095216 0.80000001 3.6878812e-40
-0.041904747 -0.05409522 0.79999995 3.6842659e-40
-0.040380929 -0.054095212 0.79999995 2.7658829e-40
-0.038857132 -0.054095227 0.80000001 2.7658689e-40
-0.037426669 -0.054230478 0.80200005 1.8510872e-40
-0.035899028 -0.054230455 0.80200005 1.8510732e-40
-0.034371424 -0.05423047 0.80200005 1.8510732e-40
-0.03292568 -0.054365672 0.80399996 2.7730295e-40
-0.03147237 -0.054500949 0.80600005 2.7694422e-40
-0.029937116 -0.05450093 0.80599999 3.6842098e-40
-0.028472377 -0.054636192 0.80800003 3.6878112e-40
-0.026933324 -0.054636184 0.80800003 4.6097535e-40
-0.025394285 -0.054636195 0.80800003 4.6133548e-40
-0.023855209 -0.054636165 0.80800003 5.5352971e-40
-0.022316171 -0.054636177 0.80800003 5.5281224e-40
-0.020777116 -0.054636173 0.80800003 3.6878252e-40
-0.019238083 -0.054636184 0.80800003 9.2915897e-41
-0.017699027 -0.054636177 0.80800003 1.8474859e-40
-0.016159991 -0.054636184 0.80800003 1.8474859e-40
-0.014584759 -0.054500952 0.80600005 2.7694282e-40
-0.013049509 -0.054500945 0.80600005 2.7694282e-40
-0.011514255 -0.054500923 0.80599999 3.6841958e-40
-0.0099542579 -0.054365683 0.80399996 3.6877832e-40
-0.0084228329 -0.054365691 0.80400002 3.6913705e-40
-0.0068742679 -0.054230463 0.80200005 2.7802042e-40
-0.0053333025 -0.054095209 0.79999995 2.7802042e-40
-0.0037999789 -0.053959984 0.79800004 2.7694422e-40
-0.0022799673 -0.053959969 0.79800004 4.6025788e-40
-0.00075519388 -0.053621858 0.79299998 6.4393028e-40
0.0092238151 -0.050376188 0.74500006 4.7117736e-39
0.010614321 -0.050240923 0.74300003 9.3186236e-39
0.012013364 -0.050173305 0.74199998 1.1714606e-38
0.013390514 -0.050038058 0.73999995 1.4011212e-38
0.014740024 -0.049835216 0.73700005 1.4105919e-38
0.016143817 -0.049835231 0.73700005 1.4197042e-38
0.017428607 -0.049497128 0.73200005 1.4564033e-38
0.018822873 -0.049497142 0.73200005 1.4932092e-38
-0.055479985 -0.052439976 0.79800004 2.2991216e-39
-0.053959966 -0.052439962 0.79800004 2.5760644e-39
-0.052439969 -0.052439965 0.79800004 2.9441211e-39
-0.050919969 -0.052439969 0.79799998 2.1165226e-39
-0.049523782 -0.052571397 0.79999995 1.2892899e-39
-0.047999967 -0.052571386 0.79999995 8.2939773e-40
-0.046476167 -0.052571397 0.80000001 4.6133828e-40
-0.044952367 -0.052571408 0.79999995 3.6878392e-40
-0.043428544 -0.052571397 0.79999995 3.6878532e-40
-0.041904747 -0.052571405 0.80000001 3.6842799e-40
-0.040380944 -0.052571412 0.79999995 3.6806646e-40
-0.038857125 -0.052571401 0.79999995 2.7658549e-40
-0.037426673 -0.052702863 0.80200005 1.8474999e-40
-0.035899051 -0.052702848 0.80200005 1.8474859e-40
-0.034371424 -0.05270284 0.80200005 2.7658409e-40
-0.032925688 -0.052834257 0.80400002 2.7730155e-40
-0.031472363 -0.052965701 0.80599999 2.7730155e-40
-0.029937131 -0.052965708 0.80599999 2.7730155e-40
-0.028472358 -0.053097125 0.80800003 2.7694422e-40
-0.02693332 -0.053097136 0.80800003 3.6949718e-40
-0.02545712 -0.053228553 0.81000006 5.5316958e-40
-0.023914261 -0.053228553 0.81000006 5.5352831e-40
-0.022371398 -0.053228553 0.81000006 5.5352971e-40
-0.020828541 -0.05322855 0.81000006 3.6878392e-40
-0.019285681 -0.053228542 0.81000006 2.7622816e-40
-0.01769905 -0.053097147 0.80800003 2.7622535e-40
-0.016159974 -0.053097118 0.80800003 3.6806085e-40
-0.014620935 -0.053097133 0.80800003 2.7694282e-40
-0.013049501 -0.052965697 0.80599999 1.8582479e-40
-0.01151427 -0.052965704 0.80600005 2.7730155e-40
-0.0099542635 -0.052834269 0.80400002 3.6913705e-40
-0.0084228376 -0.052834272 0.80400002 3.6949578e-40
-0.0068913866 -0.052834254 0.80400002 3.6985591e-40
-0.0053333025 -0.05257139 0.79999995 3.6949858e-40
-0.0037952221 -0.052374277 0.79699999 3.6878252e-40
-0.0022771286 -0.052374281 0.79700005 5.5245351e-40
0.0092485948 -0.049088553 0.74700004 4.5219887e-39
0.010642869 -0.048957136 0.745 8.9530767e-39
0.012029558 -0.048825685 0.74300003 1.1622428e-38
0.01339051 -0.048628531 0.73999995 1.4379993e-38
0.014800035 -0.048628535 0.73999995 1.419667e-38
0.016187647 -0.048562832 0.73900002 1.4104485e-38
0.017547645 -0.048431415 0.73700005 1.4746985e-38
0.018797172 -0.048037123 0.73099995 1.5482386e-38
-0.057142835 -0.051047593 0.79999995 2.575347e-39
-0.055619039 -0.051047608 0.80000001 2.3931123e-39
-0.054095216 -0.051047593 0.79999995 2.9452029e-39
-0.052439976 -0.050919976 0.79800004 3.4029426e-39
-0.051047616 -0.051047612 0.79999995 2.3920305e-39
-0.049523793 -0.051047605 0.79999995 1.2889297e-39
-0.047999974 -0.05104759 0.79999995 8.290362e-40
-0.046476156 -0.051047582 0.79999995 2.7730576e-40
-0.045064751 -0.051175229 0.80200005 3.6842519e-40
-0.043428555 -0.051047597 0.79999995 3.6878252e-40
-0.041904733 -0.051047586 0.79999995 3.6878252e-40
-0.040380936 -0.051047601 0.80000001 3.6842239e-40
-0.038857114 -0.05104759 0.79999995 2.7622816e-40
-0.037333295 -0.051047582 0.79999995 1.8474999e-40
-0.035899051 -0.051175237 0.80200005 2.7658409e-40
-0.034371424 -0.051175229 0.80200005 2.7694282e-40
-0.032925695 -0.051302835 0.80400002 2.7766028e-40
-0.031472363 -0.051430453 0.80600005 1.8546606e-40
-0.029937146 -0.051430479 0.80600005 1.8618352e-40
-0.028472381 -0.051558096 0.80800003 1.8582899e-40
-0.026933325 -0.051558089 0.80800003 3.6986432e-40
-0.025457131 -0.051685702 0.81000006 5.5353111e-40
-0.023914272 -0.051685702 0.81000006 5.5352831e-40
-0.022371411 -0.051685702 0.81000006 5.5316958e-40
-0.020828554 -0.051685698 0.81000006 4.6025928e-40
-0.019285692 -0.051685695 0.81000006 3.6842098e-40
-0.017699029 -0.051558081 0.80800003 4.5989635e-40
-0.016159993 -0.051558092 0.80800003 4.6025508e-40
-0.014620937 -0.051558085 0.80800003 2.7694282e-40
-0.013049515 -0.051430471 0.80600005 9.3630559e-41
-0.011514262 -0.051430453 0.80599999 2.7730155e-40
-0.009979031 -0.05143046 0.80599999 3.6913705e-40
-0.0084228236 -0.051302824 0.80400002 4.6097254e-40
-0.0068913959 -0.051302832 0.80400002 4.6133268e-40
-0.00533331 -0.051047601 0.79999995 4.6169141e-40
-0.0038094928 -0.05104759 0.79999995 4.6133408e-40
-0.002277131 -0.050856188 0.79699999 6.4464774e-40
0.009248605 -0.047665682 0.74700004 4.3304158e-39
0.010642862 -0.04753809 0.74500006 8.4867189e-39
0.012029542 -0.047410466 0.74300003 1.1626017e-38
0.013390509 -0.047219019 0.73999995 1.4655504e-38
0.014800034 -0.047219016 0.73999995 1.4379271e-38
0.016187625 -0.047155235 0.73900002 1.4011932e-38
0.017547626 -0.047027614 0.73700005 1.5021049e-38
0.018951448 -0.047027607 0.73700005 1.5944803e-38
0.020189524 -0.046644766 0.73100001 1.6224276e-38
-0.058666654 -0.049523789 0.80000001 2.5764288e-39
-0.057142831 -0.049523782 0.79999995 2.3938326e-39
-0.055619009 -0.049523767 0.79999995 2.2119566e-39
-0.054095235 -0.049523797 0.80000001 2.3019985e-39
-0.052571412 -0.049523786 0.79999995 2.3916774e-39
-0.051047586 -0.049523778 0.79999995 1.748466e-39
-0.049523793 -0.049523789 0.80000001 1.1045399e-39
-0.047999993 -0.049523797 0.79999995 7.3683777e-40
-0.046592373 -0.049647611 0.80200005 3.6878112e-40
-0.04506477 -0.049647626 0.80200005 4.6061802e-40
-0.043428551 -0.049523786 0.80000001 5.5245211e-40
-0.041904747 -0.049523793 0.79999995 4.6061381e-40
-0.040481899 -0.049647611 0.80200005 3.6913845e-40
-0.038954273 -0.049647603 0.80200005 2.7658689e-40
-0.037426669 -0.049647618 0.80200005 1.8439126e-40
-0.035899028 -0.049647596 0.80200005 2.7658409e-40
-0.034371424 -0.049647611 0.80200005 3.6877832e-40
-0.033007611 -0.049895223 0.80600005 2.7694282e-40
-0.031550474 -0.050019048 0.80800003 2.7658409e-40
-0.030011438 -0.050019056 0.80800003 2.7694282e-40
-0.028542835 -0.05014284 0.81000006 2.7695123e-40
-0.026999976 -0.050142836 0.81000006 6.4501908e-40
-0.025457116 -0.050142836 0.81000006 1.0127128e-39
-0.023914257 -0.050142832 0.81000006 7.3755803e-40
-0.022371395 -0.050142832 0.81000006 5.5352831e-40
-0.020828538 -0.050142828 0.81000006 4.6061521e-40
-0.019285677 -0.050142828 0.81000006 3.6842098e-40
-0.01769905 -0.050019056 0.80800003 3.6877832e-40
-0.016159998 -0.050019048 0.80800009 4.6061381e-40
-0.014620936 -0.050019033 0.80800003 2.7730155e-40
-0.01304949 -0.049895208 0.80599999 1.8582479e-40
-0.011514277 -0.049895231 0.80599999 2.7730155e-40
-0.0099542597 -0.049771402 0.80399996 3.6877832e-40
-0.008422832 -0.049771402 0.80400002 4.6097254e-40
-0.0068742679 -0.049647607 0.80200005 5.5280804e-40
-0.0053332997 -0.049523778 0.79999995 4.6097254e-40
-0.003809504 -0.049523789 0.79999995 4.6133268e-40
0.013390523 -0.045809481 0.74000001 1.4746626e-38
0.014780005 -0.045747615 0.73900002 1.4471473e-38
0.016187631 -0.045747608 0.73899996 1.4195245e-38
0.017547635 -0.045623794 0.73700005 1.5208658e-38
0.018925751 -0.045561872 0.736 1.6316103e-38
0.020189552 -0.045252364 0.73099995 1.6777112e-38
0.02158192 -0.045252372 0.73099995 1.7235562e-38
-0.058666639 -0.047999967 0.79999995 2.3942025e-39
-0.057142843 -0.047999986 0.79999995 2.2119692e-39
-0.055619024 -0.047999974 0.79999995 1.9346761e-39
-0.054095205 -0.047999959 0.79999995 1.6584592e-39
-0.052571423 -0.047999989 0.79999995 1.3815023e-39
-0.051047601 -0.047999982 0.79999995 1.105263e-39
-0.049523782 -0.047999967 0.79999995 8.290362e-40
-0.048119996 -0.048119988 0.80200005 6.4464494e-40
-0.046592377 -0.048119996 0.80200005 3.6878112e-40
-0.045064751 -0.048119988 0.80200005 5.5209478e-40
-0.043537147 -0.048119999 0.80200005 6.4393028e-40
-0.042009503 -0.048119977 0.80200005 5.5209478e-40
-0.040481899 -0.048119996 0.80200011 3.6879233e-40
-0.038954277 -0.048119988 0.80200005 2.7696524e-40
-0.037519969 -0.048239969 0.80400002 1.847626e-40
-0.035988562 -0.048239991 0.80400002 3.6842519e-40
-0.034371421 -0.048119988 0.80200005 4.6061661e-40
-0.033007599 -0.048359979 0.80599999 3.6841958e-40
-0.031550471 -0.048479997 0.80800003 2.7658409e-40
-0.030011417 -0.048479989 0.80800003 3.6841958e-40
-0.028542846 -0.048599988 0.81000006 3.6878392e-40
-0.026999988 -0.048599988 0.81000006 9.2016124e-40
-0.025457127 -0.048599984 0.81000006 1.380052e-39
-0.023914268 -0.048599984 0.81000006 9.2230522e-40
-0.022371406 -0.048599981 0.81000006 4.6169141e-40
-0.020828547 -0.048599977 0.81000006 3.6877972e-40
-0.019285703 -0.048599996 0.81000006 2.7694422e-40
-0.017699031 -0.048479985 0.80800003 3.6913705e-40
-0.016159995 -0.048479997 0.80800003 3.6877972e-40
-0.01462094 -0.048479989 0.80800003 3.6877972e-40
-0.013081904 -0.048480004 0.80800003 2.7730435e-40
-0.011514273 -0.04835999 0.80600005 3.6878392e-40
-0.0099542672 -0.04823998 0.80400002 3.6878112e-40
-0.0084228395 -0.048239984 0.80400002 5.5245071e-40
-0.0068742866 -0.048120007 0.80200005 6.4464494e-40
-0.005333296 -0.047999967 0.79999995 5.5209198e-40
-0.0038094984 -0.047999978 0.80000001 3.6913845e-40
0.013390521 -0.044399958 0.74000001 1.4839896e-38
0.014800046 -0.044399962 0.74000001 1.4656943e-38
0.016187623 -0.044339996 0.73900002 1.4382164e-38
0.017547641 -0.044219982 0.73700005 1.5485276e-38
0.018925745 -0.044159979 0.736 1.6593061e-38
0.02018954 -0.043859992 0.73100001 1.7332071e-38
-0.058666639 -0.046476152 0.79999995 2.0265116e-39
-0.057142839 -0.04647617 0.80000001 1.8417714e-39
-0.055619031 -0.046476174 0.79999995 1.6566795e-39
-0.054095216 -0.046476163 0.79999995 1.3815444e-39
-0.052571394 -0.046476156 0.79999995 1.1052938e-39
-0.051047616 -0.046476185 0.79999995 9.2123743e-40
-0.049647603 -0.046592358 0.80200005 6.4500928e-40
-0.048119996 -0.046592377 0.80200005 4.6133408e-40
-0.046708547 -0.046708543 0.80400002 2.7730576e-40
-0.045177121 -0.046708543 0.80400002 3.6878252e-40
-0.043537125 -0.046592362 0.80200005 5.5209758e-40
-0.042114265 -0.046708543 0.80400002 4.6026349e-40
-0.040582836 -0.04670855 0.80400002 3.6880354e-40
-0.039051406 -0.046708543 0.80400002 2.7698486e-40
-0.03761331 -0.046824735 0.80599999 2.7696944e-40
-0.036078073 -0.046824742 0.80599999 3.6878953e-40
-0.034457121 -0.04670855 0.80400002 4.6061942e-40
-0.03308953 -0.04694096 0.80800003 2.7694282e-40
-0.031550474 -0.046940953 0.80800003 1.8510732e-40
-0.030085692 -0.047057122 0.81000006 2.7694282e-40
-0.028542833 -0.047057118 0.81000006 3.6878112e-40
-0.026999975 -0.047057118 0.81000006 7.3684337e-40
-0.025457116 -0.047057115 0.81000006 1.0119897e-39
-0.023914253 -0.047057111 0.81000006 6.453624e-40
-0.022371395 -0.047057111 0.81000006 3.6913845e-40
-0.020828554 -0.047057122 0.81000006 2.7694422e-40
-0.019285696 -0.047057122 0.81000006 2.7658549e-40
-0.017699035 -0.046940941 0.80800003 2.7694282e-40
-0.01616 -0.046940953 0.80800003 2.7658549e-40
-0.01462096 -0.046940964 0.80800003 2.7694562e-40
-0.013081883 -0.046940934 0.80800003 2.7694983e-40
-0.011514264 -0.046824742 0.80599999 2.7695263e-40
-0.0099542737 -0.046708561 0.80400002 3.6878392e-40
-0.0084018921 -0.04659237 0.80200005 4.6097395e-40
-0.0068571288 -0.046476182 0.80000001 5.5316817e-40
-0.0053199641 -0.046359971 0.79800004 3.6877972e-40
-0.0037523468 -0.045779016 0.78799999 2.7694422e-40
-0.002245683 -0.045662828 0.78599995 4.6097395e-40
-0.0007466384 -0.045546643 0.78399998 6.4429181e-40
0.00074668403 -0.045546655 0.78400004 8.2868587e-40
0.014800044 -0.042990446 0.74000001 1.5027878e-38
0.016187629 -0.042932376 0.73900002 1.4660202e-38
0.01754765 -0.042816158 0.73700005 1.594951e-38
0.018925751 -0.042758059 0.736 1.7238439e-38
-0.05866665 -0.044952359 0.79999995 1.5658894e-39
-0.057142828 -0.044952352 0.79999995 1.4722672e-39
-0.055619027 -0.044952363 0.80000001 1.2886032e-39
-0.054095227 -0.04495237 0.79999995 1.1049393e-39
-0.052571405 -0.044952359 0.79999995 8.2905722e-40
-0.051175229 -0.045064751 0.80200005 6.4608687e-40
-0.049647603 -0.045064744 0.80200005 4.6169561e-40
-0.048119999 -0.045064755 0.80200005 2.7766309e-40
-0.046708554 -0.045177124 0.80400002 9.3636165e-41
-0.045177121 -0.045177121 0.80399996 2.7730996e-40
-0.043645695 -0.045177121 0.80400002 3.6878812e-40
-0.042114269 -0.045177124 0.80400002 3.6842939e-40
-0.040582821 -0.045177106 0.80400002 3.6879513e-40
-0.039148554 -0.045289505 0.80599999 3.6916087e-40
-0.037613321 -0.045289513 0.80599999 2.7731697e-40
-0.036078088 -0.04528952 0.80600005 3.6878672e-40
-0.034542859 -0.045289524 0.80600005 3.6914125e-40
-0.033089511 -0.04540189 0.80800003 2.7766169e-40
-0.031628542 -0.045514252 0.81000006 9.3630559e-41
-0.030085677 -0.045514252 0.81000006 2.7694282e-40
-0.028613308 -0.045626644 0.81200004 3.6950419e-40
-0.027066646 -0.045626644 0.81199998 5.5425838e-40
-0.02551998 -0.045626648 0.81199998 6.4572954e-40
-0.023914281 -0.045514286 0.81000006 4.6097815e-40
-0.022371421 -0.045514278 0.81000006 1.8511013e-40
-0.020828562 -0.045514282 0.81000006 1.8474999e-40
-0.019285703 -0.045514274 0.81000006 1.8474999e-40
-0.017699031 -0.04540189 0.80800003 1.8474999e-40
-0.016159996 -0.045401897 0.80800003 1.8511013e-40
-0.014584741 -0.045289505 0.80599999 1.8547026e-40
-0.013049508 -0.045289513 0.80599999 1.8511433e-40
-0.011485688 -0.045177124 0.80400002 2.765939e-40
-0.0099295154 -0.045064755 0.80200005 2.7695683e-40
-0.0083809206 -0.044952352 0.79999995 3.6879653e-40
-0.0068399701 -0.044839971 0.79800004 3.6914686e-40
-0.0053133136 -0.044783793 0.79700005 2.7694422e-40
-0.0037761575 -0.044559017 0.79300004 9.3273228e-41
-0.0022399686 -0.044053305 0.78400004 2.7730295e-40
-0.0007466611 -0.044053327 0.78400004 4.6097955e-40
0.00074668624 -0.044053312 0.78400004 7.3649305e-40
0.013444771 -0.041749518 0.74300003 1.5762562e-38
0.01480004 -0.041580927 0.74000001 1.5397022e-38
0.016187647 -0.041524731 0.73899996 1.4939655e-38
0.017547637 -0.041412372 0.73700005 1.6414063e-38
0.018925745 -0.041356165 0.736 1.7791603e-38
-0.060190462 -0.043428548 0.79999995 1.3822016e-39
-0.058666643 -0.043428537 0.79999995 1.2892969e-39
-0.057142846 -0.043428551 0.79999995 1.1967509e-39
-0.05561902 -0.04342854 0.79999995 1.1045581e-39
-0.054230478 -0.04353714 0.80200011 9.2052838e-40
-0.052571423 -0.043428559 0.79999995 8.2760968e-40
-0.051175226 -0.043537125 0.80200005 7.3684337e-40
-0.049771395 -0.04364568 0.80400002 5.5352971e-40
-0.048239984 -0.043645702 0.80400002 4.6097535e-40
-0.046708535 -0.043645684 0.80399996 2.7695123e-40
-0.045177132 -0.043645699 0.80400002 3.6879093e-40
-0.043645706 -0.043645702 0.80400002 4.6062642e-40
-0.04211425 -0.04364568 0.80400002 3.6878953e-40
-0.040683798 -0.043754272 0.80599999 3.6878672e-40
-0.039148569 -0.043754276 0.80599999 3.6914265e-40
-0.037613321 -0.043754268 0.80600005 3.6914265e-40
-0.036167607 -0.043862842 0.80800003 3.6878252e-40
-0.03462857 -0.043862853 0.80800003 3.6878112e-40
-0.033089515 -0.043862846 0.80800003 3.6913845e-40
-0.031628549 -0.043971404 0.81000006 2.7694422e-40
-0.030085688 -0.043971404 0.81000006 4.6133128e-40
-0.028613323 -0.044079993 0.81200004 6.4537361e-40
-0.027066659 -0.044079997 0.81200004 6.4610369e-40
-0.025519995 -0.04408 0.81199998 5.5497725e-40
-0.023914268 -0.043971412 0.81000006 3.6950419e-40
-0.022371408 -0.043971408 0.81000006 2.7658969e-40
-0.020828551 -0.043971408 0.81000006 2.7658549e-40
-0.019285688 -0.043971404 0.81000006 2.7622676e-40
-0.017699035 -0.043862846 0.80800003 2.7658549e-40
-0.01616 -0.043862861 0.80800003 2.7694562e-40
-0.014584739 -0.043754265 0.80600005 2.7694702e-40
-0.013049508 -0.043754272 0.80600005 2.7623236e-40
-0.011485673 -0.043645676 0.80400002 2.7659249e-40
-0.0099295154 -0.04353714 0.80200005 3.684406e-40
-0.0083809355 -0.043428555 0.80000001 3.6881195e-40
-0.0068399757 -0.043319978 0.79800004 4.6098936e-40
-0.0053133145 -0.0432657 0.79699999 3.6913705e-40
-0.0037523489 -0.042777117 0.78800005 3.6877832e-40
-0.0022399626 -0.042559966 0.78400004 5.5280804e-40
-0.00074472325 -0.042451393 0.78200001 6.4465194e-40
0.00074480183 -0.042451393 0.78200001 7.3685318e-40
0.013480951 -0.040442865 0.74500006 1.6317168e-38
0.014800033 -0.0401714 0.74000001 1.6133507e-38
0.016187629 -0.040117137 0.73900002 1.5950923e-38
0.017547647 -0.040008549 0.73700005 1.6872518e-38
0.018925751 -0.039954249 0.736 1.779232e-38
-0.060190458 -0.041904736 0.79999995 1.0145023e-39
-0.05881333 -0.042009514 0.80200005 9.2159897e-40
-0.057285704 -0.042009506 0.80200005 9.2088991e-40
-0.055897113 -0.04211425 0.80399996 8.2869568e-40
-0.054365691 -0.04211425 0.80400002 8.2833695e-40
-0.052702852 -0.042009514 0.80200005 8.2833134e-40
-0.051302828 -0.042114254 0.80400002 7.3684898e-40
-0.049771406 -0.042114258 0.80400002 6.4501488e-40
-0.048239995 -0.042114276 0.80400002 5.5210599e-40
-0.046824761 -0.042219043 0.80600005 4.6062782e-40
-0.045177139 -0.042114276 0.80400002 4.6062782e-40
-0.043754272 -0.042219035 0.80599999 4.6098375e-40
-0.042219028 -0.042219024 0.80600005 4.6098235e-40
-0.040683795 -0.042219032 0.80600005 3.6950139e-40
-0.039148539 -0.042219017 0.80599999 3.6913985e-40
-0.03761331 -0.04221902 0.80599999 3.6914125e-40
-0.036167625 -0.042323817 0.80800003 3.6878252e-40
-0.034628574 -0.042323809 0.80800003 3.6878252e-40
-0.033089511 -0.042323798 0.80800003 4.6061661e-40
-0.03162856 -0.042428561 0.81000012 4.6097535e-40
-0.0300857 -0.042428557 0.81000006 7.371993e-40
-0.028613318 -0.042533319 0.81200004 9.208773e-40
-0.027066654 -0.042533319 0.81199998 7.3792938e-40
-0.025519973 -0.042533305 0.81199998 4.6170122e-40
-0.023914276 -0.042428564 0.81000006 3.6878532e-40
-0.022371417 -0.042428564 0.81000006 2.7658829e-40
-0.020828558 -0.042428561 0.81000006 3.6806225e-40
-0.019285697 -0.042428557 0.81000006 3.6806225e-40
-0.017699033 -0.042323798 0.80800003 3.6842098e-40
-0.01615998 -0.04232379 0.80800003 3.6878252e-40
-0.01458473 -0.042219017 0.80599999 3.6878532e-40
-0.011457139 -0.042009521 0.80200005 3.6878532e-40
-0.0099047273 -0.041904733 0.79999995 3.6879093e-40
-0.0083599752 -0.041799974 0.79800004 4.6063203e-40
-0.006831415 -0.041747607 0.79700005 4.6098235e-40
-0.0052999705 -0.041642834 0.79500002 5.5280804e-40
-0.0037523594 -0.041276172 0.78799999 6.4428621e-40
-0.0022399623 -0.041066632 0.78400004 7.361231e-40
-0.00073520513 -0.040438063 0.77199996 8.2832154e-40
0.00073147076 -0.040228534 0.76799995 8.2868447e-40
0.0021914414 -0.040176183 0.76700002 8.2905722e-40
0.0036524169 -0.040176161 0.76700002 6.461177e-40
0.0050733797 -0.039861869 0.76099998 4.6208938e-40
0.0065143285 -0.039809488 0.76000005 2.7698346e-40
0.0079619493 -0.03980948 0.75999999 9.2632835e-41
0.010714306 -0.039285704 0.75000006 7.1019936e-39
0.012142868 -0.039285716 0.75000006 1.1994435e-38
0.013444766 -0.03891905 0.74300003 1.6776707e-38
0.014800027 -0.038761877 0.74000001 1.6868912e-38
0.016187645 -0.038709495 0.73899996 1.687e-38
0.017547633 -0.038604759 0.73700005 1.7332058e-38
0.018874332 -0.038447581 0.73399997 1.7700841e-38
-0.058813322 -0.040481895 0.80200005 6.4465895e-40
-0.057285722 -0.040481906 0.80200005 7.3722172e-40
-0.05589712 -0.040582832 0.80400002 8.2869848e-40
-0.054365695 -0.040582832 0.80400002 8.2869848e-40
-0.052834265 -0.040582828 0.80400002 8.2833555e-40
-0.051302839 -0.040582832 0.80400002 1.0123597e-39
-0.04989522 -0.040683787 0.80600005 1.1042022e-39
-0.04823998 -0.040582836 0.80400002 8.2798382e-40
-0.046824738 -0.04068378 0.80599999 4.6063483e-40
-0.045177124 -0.040582832 0.80399996 4.6098656e-40
-0.043754272 -0.040683795 0.80600005 5.5281925e-40
-0.042219039 -0.040683802 0.80600005 4.6169702e-40
-0.040683787 -0.040683784 0.80599999 4.6205295e-40
-0.039148554 -0.040683791 0.80599999 4.6169001e-40
-0.037706643 -0.040784735 0.80800003 4.6097535e-40
-0.036167607 -0.04078475 0.80800003 3.6914125e-40
-0.03462857 -0.040784758 0.80800003 3.6878252e-40
-0.033171404 -0.040885691 0.81000006 3.6914125e-40
-0.031628545 -0.040885687 0.81000006 4.6097815e-40
-0.030085703 -0.040885706 0.81000006 5.5281365e-40
-0.028613312 -0.040986646 0.81199998 6.4429041e-40
-0.027066654 -0.040986653 0.81200004 5.5281365e-40
-0.025457123 -0.040885694 0.81000006 3.6914265e-40
-0.023914265 -0.040885694 0.81000006 2.7694702e-40
-0.022371404 -0.040885691 0.81000006 1.8511013e-40
-0.019285688 -0.040885687 0.81000006 3.6806225e-40
-0.017699035 -0.040784754 0.80800003 3.6842098e-40
-0.0083495127 -0.040229511 0.79700005 4.6133408e-40
-0.005286647 -0.040027604 0.79300004 5.5316677e-40
-0.0037333074 -0.039573308 0.78400004 5.5245211e-40
-0.0022256779 -0.03932092 0.77900004 5.5245351e-40
-0.0007333199 -0.038866658 0.7700001 6.4393168e-40
0.00073144841 -0.038765695 0.76800001 6.4464914e-40
0.0021914642 -0.038715206 0.76699996 6.4501768e-40
0.0036333434 -0.038513329 0.76300001 4.6171523e-40
0.0050733816 -0.038412336 0.76099998 3.6987974e-40
0.0064971587 -0.038260933 0.75800002 1.8513255e-40
0.0079200193 -0.038159985 0.75600004 9.2275504e-41
0.0093228845 -0.038008548 0.75299996 3.8661951e-39
0.010714288 -0.037857149 0.75000006 7.6576799e-39
0.012142871 -0.037857134 0.75000006 1.2453257e-38
0.013444775 -0.037503801 0.74300003 1.7242346e-38
0.014800027 -0.037352357 0.74000001 1.7054381e-38
0.016187629 -0.037301898 0.73900002 1.6960046e-38
0.017547637 -0.037200931 0.73700005 1.7423539e-38
0.018874329 -0.037049491 0.73399997 1.7884869e-38
-0.058959991 -0.03905141 0.80400002 2.7839036e-40
-0.057428554 -0.03905141 0.80400002 5.5390666e-40
-0.056036159 -0.039148536 0.80599999 7.3758326e-40
-0.054365676 -0.039051387 0.80400002 8.2906562e-40
-0.052834269 -0.039051414 0.80400002 8.2906282e-40
-0.051430468 -0.039148558 0.80600005 1.1956859e-39
-0.049895212 -0.039148543 0.80599999 1.5630279e-39
-0.048359983 -0.039148547 0.80599999 1.0112975e-39
-0.046824746 -0.039148554 0.80600005 4.613551e-40
-0.04528952 -0.039148562 0.80600005 5.5282626e-40
-0.043754265 -0.039148547 0.80599999 5.5390946e-40
-0.042219032 -0.039148554 0.80599999 5.5463393e-40
-0.040683802 -0.039148558 0.80599999 4.6278582e-40
-0.039148573 -0.039148569 0.80600005 4.6241588e-40
-0.037706666 -0.03924571 0.80800003 4.6169982e-40
-0.036167629 -0.039245721 0.80800003 3.6986572e-40
-0.034628574 -0.039245714 0.80800003 2.7802742e-40
-0.033171393 -0.039342817 0.81000006 3.7021745e-40
-0.031628553 -0.039342832 0.81000006 4.6169421e-40
-0.030085692 -0.039342832 0.81 4.6097675e-40
-0.028542854 -0.039342854 0.81000006 3.6878392e-40
-0.026999997 -0.03934285 0.81000006 3.6842659e-40
-0.025457136 -0.039342847 0.81000006 2.7694842e-40
-0.023914276 -0.039342847 0.81000006 1.8475279e-40
-0.022371417 -0.039342843 0.81000006 9.327463e-41
-0.0067971237 -0.038517125 0.79300004 5.5388704e-40
-0.0037142637 -0.037885692 0.77999997 3.6949858e-40
-0.0022142425 -0.037642818 0.77499998 3.6878392e-40
-0.00073521491 -0.037497126 0.77200001 3.6878392e-40
0.00073144934 -0.037302841 0.76799995 3.6878392e-40
0.002191467 -0.037254255 0.76699996 3.6914826e-40
0.0036333425 -0.03706 0.76300001 2.776757e-40
0.0050666975 -0.036914259 0.76000005 1.858416e-40
0.0064971754 -0.036817111 0.75800002 1.8476681e-40
0.0079095531 -0.0366714 0.75500005 9.2642644e-41
0.0093105007 -0.036525693 0.75200003 4.1331144e-39
0.010714286 -0.036428574 0.75000012 8.20943e-39
0.012110491 -0.036331415 0.74799997 1.291855e-38
0.013480962 -0.036185704 0.74500006 1.760719e-38
0.014840035 -0.036039971 0.74199998 1.73299e-38
0.016209543 -0.035942838 0.74000001 1.7054757e-38
0.017595246 -0.035894278 0.73900002 1.7609002e-38
0.018874327 -0.035651397 0.73399997 1.8068546e-38
-0.059106655 -0.037613321 0.80600005 4.6313475e-40
-0.057571407 -0.037613306 0.80599999 6.4645682e-40
-0.056036174 -0.037613314 0.80599999 8.3013902e-40
-0.054500945 -0.037613321 0.80600005 7.379546e-40
-0.052834284 -0.037519988 0.80400002 6.4612051e-40
-0.05143046 -0.03761331 0.80599999 8.2943276e-40
-0.049895227 -0.037613317 0.80599999 1.1045749e-39
-0.048359998 -0.037613325 0.80600005 9.2125565e-40
-0.046824761 -0.037613332 0.80600005 7.3829932e-40
-0.045289509 -0.037613314 0.80599999 6.4610089e-40
-0.043754276 -0.037613325 0.80599999 6.4647643e-40
-0.042219028 -0.037613314 0.80600005 4.6318099e-40
-0.040683795 -0.037613314 0.80599999 2.7984911e-40
-0.039148543 -0.037613306 0.80599999 2.7839316e-40
-0.037706647 -0.03770664 0.80800003 2.7839456e-40
-0.036167607 -0.037706655 0.80800003 5.5354372e-40
-0.034628555 -0.037706647 0.80800003 7.3792517e-40
-0.033089519 -0.037706658 0.80800003 6.4608267e-40
-0.031550463 -0.037706651 0.80800003 5.5424577e-40
-0.0300857 -0.037799988 0.81000006 4.6169141e-40
-0.028542839 -0.03779998 0.81000006 4.6061942e-40
-0.02699998 -0.03779998 0.81000006 4.6026349e-40
-0.025519995 -0.037893329 0.81200004 4.6026068e-40
-0.0051800031 -0.036260001 0.77700001 4.6169281e-40
-0.0036999898 -0.03625999 0.77700001 3.6985872e-40
-0.00220855 -0.036073312 0.773 3.6914265e-40
-0.00073331385 -0.035933316 0.77000004 4.6061942e-40
0.00073146657 -0.035839967 0.76799995 4.6061942e-40
0.0021914665 -0.035793293 0.76699996 4.6061942e-40
0.0036333378 -0.035606664 0.76300001 4.6133688e-40
0.0050733685 -0.0355133 0.76099998 4.6205715e-40
0.0064800074 -0.035279997 0.75600004 2.765953e-40
0.0079095606 -0.035233304 0.75500005 9.2290918e-41
0.009310497 -0.035093319 0.75200003 4.9718532e-39
0.010714307 -0.034999978 0.75000006 9.8728918e-39
0.012094309 -0.034859985 0.74700004 1.3652531e-38
0.013444783 -0.034673322 0.74300003 1.7519674e-38
0.014840025 -0.034626648 0.74199998 1.7332064e-38
0.016209541 -0.034533318 0.74000001 1.7146239e-38
0.01761909 -0.034533296 0.73999995 1.7793389e-38
0.018925734 -0.034346655 0.73600006 1.8434817e-38
-0.060792383 -0.036167618 0.80800003 8.301152e-40
-0.059253328 -0.036167603 0.80800003 6.4681555e-40
-0.057571422 -0.036078081 0.80600005 8.3049915e-40
-0.056036185 -0.036078092 0.80600005 9.2198012e-40
-0.054365698 -0.035988547 0.80400002 6.4683657e-40
-0.052834265 -0.035988543 0.80400002 3.7097135e-40
-0.051302839 -0.035988551 0.80400002 4.6244951e-40
-0.049895242 -0.036078092 0.80600005 5.5391927e-40
-0.048359986 -0.036078077 0.80599999 7.3830212e-40
-0.046824738 -0.036078069 0.80600005 9.2160597e-40
-0.045289524 -0.036078092 0.80599999 8.2976207e-40
-0.043754272 -0.036078084 0.80600005 6.4610089e-40
-0.04221902 -0.036078066 0.80599999 3.716804e-40
-0.040683791 -0.036078073 0.80599999 9.4373248e-41
-0.039245702 -0.036167603 0.80800003 9.257398e-41
-0.037706666 -0.036167618 0.80800003 9.3651579e-41
-0.036167607 -0.03616761 0.80800003 6.4394849e-40
-0.034628574 -0.036167622 0.80800003 1.1974698e-39
-0.033089519 -0.036167614 0.80800009 9.2160177e-40
-0.031628549 -0.036257114 0.81000006 5.5425418e-40
-0.030085711 -0.036257137 0.81000006 5.5388984e-40
-0.028542848 -0.036257133 0.81000006 5.5245772e-40
-0.026999991 -0.036257129 0.81000006 5.5174165e-40
-0.005179991 -0.034779992 0.77699995 3.6878252e-40
-0.0036999758 -0.034779985 0.77699995 2.7731276e-40
-0.0022085502 -0.034600932 0.77300006 3.6879653e-40
-0.00073332503 -0.034466662 0.7700001 4.6062782e-40
0.00073144422 -0.034377128 0.76800001 4.6098235e-40
0.0021800043 -0.034153335 0.76300001 4.6097815e-40
0.0036238476 -0.034063775 0.76099998 6.4464634e-40
0.005066691 -0.034019027 0.76000005 7.3648464e-40
0.0064800065 -0.033840001 0.75600004 4.5954602e-40
0.0078886086 -0.033705682 0.75299996 9.3004179e-41
0.0092857284 -0.033571418 0.75000006 5.78904e-39
0.010685732 -0.033481892 0.74799997 1.1432307e-38
0.012094303 -0.033437133 0.74700004 1.4390464e-38
0.013444791 -0.033258077 0.74300003 1.7332421e-38
0.014840031 -0.033213299 0.74199998 1.7239861e-38
0.016209561 -0.033123773 0.73999995 1.7150195e-38
0.017619081 -0.033123773 0.73999995 1.7982828e-38
0.018951455 -0.032989498 0.73700005 1.8714277e-38
0.020355256 -0.032989513 0.73700005 1.7883087e-38
-0.060942847 -0.03471427 0.81000006 1.0141505e-39
-0.059253331 -0.034628559 0.80800003 6.4718269e-40
-0.057571411 -0.034542833 0.80599999 7.3867487e-40
-0.056175239 -0.034628563 0.80800003 8.297915e-40
-0.05450093 -0.034542833 0.80600005 7.3867066e-40
-0.052834276 -0.034457125 0.80400002 6.471953e-40
-0.051430445 -0.034542821 0.80599999 5.5428361e-40
-0.049895216 -0.034542829 0.80599999 4.6172504e-40
-0.048359986 -0.034542836 0.80600005 4.613593e-40
-0.046824753 -0.034542844 0.80600005 5.5354092e-40
-0.045289498 -0.034542829 0.80599999 4.6097535e-40
-0.043754265 -0.034542836 0.80599999 4.6061942e-40
-0.042323813 -0.034628574 0.80800003 4.6097955e-40
-0.040683806 -0.034542847 0.80600005 4.5991176e-40
-0.039245725 -0.034628578 0.80800003 2.9491643e-39
-0.037706643 -0.034628548 0.80800003 5.420832e-39
-0.036167607 -0.034628559 0.80800003 4.4188924e-39
-0.034628555 -0.034628551 0.80800003 3.4962341e-39
-0.033171415 -0.03471427 0.81000006 1.9332384e-39
-0.031628557 -0.03471427 0.81000006 3.7095033e-40
-0.030085696 -0.034714267 0.81000006 4.6134109e-40
-0.028542833 -0.034714267 0.81000006 4.6026629e-40
-0.026999975 -0.034714263 0.81000006 5.5210179e-40
-0.025457116 -0.034714259 0.81000006 7.3577278e-40
-0.0022056669 -0.033085667 0.77200001 4.6064324e-40
-0.00073139346 -0.032914255 0.76799995 6.4430582e-40
0.00073051662 -0.032871388 0.76699996 6.4429742e-40
0.0021800015 -0.032700006 0.76300001 6.4429181e-40
0.0036238495 -0.03261425 0.76099998 7.3647903e-40
0.0050533582 -0.032485697 0.75800002 9.2015283e-40
0.0064714523 -0.032357123 0.75500005 5.5173605e-40
0.0078886021 -0.032271404 0.75299996 9.2281109e-41
0.0092857303 -0.032142848 0.75000006 7.4679007e-39
0.010685739 -0.032057125 0.74800003 1.4758481e-38
0.01206191 -0.031928573 0.74500006 1.5771243e-38
0.013444796 -0.031842828 0.74300003 1.6689937e-38
0.014800034 -0.031714249 0.73999995 1.622751e-38
0.01620956 -0.031714257 0.73999995 1.5772313e-38
0.017619077 -0.031714253 0.73999995 1.6877243e-38
0.019002875 -0.03167142 0.73899996 1.7984982e-38
-0.061093327 -0.03325332 0.81200004 1.1971139e-39
-0.059253331 -0.033089515 0.80800009 6.4682816e-40
-0.057571426 -0.033007611 0.80599999 6.4683797e-40
-0.056175236 -0.033089515 0.80800003 6.4648204e-40
-0.054500923 -0.033007585 0.80599999 7.3832034e-40
-0.052965693 -0.033007588 0.80599999 8.297957e-40
-0.05143046 -0.033007599 0.80599999 5.5392908e-40
-0.049895227 -0.033007607 0.80600005 2.7805125e-40
-0.048360001 -0.033007611 0.80600005 1.8405215e-40
-0.046824742 -0.033007596 0.80599999 9.2924305e-41
-0.045289513 -0.033007603 0.80599999 1.8403253e-40
-0.04375428 -0.033007614 0.80600005 1.8514236e-40
-0.042323794 -0.033089504 0.80800003 4.5960488e-40
-0.040784758 -0.033089515 0.80800003 7.5557873e-40
-0.039245702 -0.033089507 0.80800003 5.822695e-39
-0.037706666 -0.033089522 0.80800003 1.0771395e-38
-0.03616761 -0.033089515 0.80800003 8.2979206e-39
-0.034714263 -0.0331714 0.81000006 5.7103557e-39
-0.033089522 -0.033089522 0.80800003 2.9437834e-39
-0.031628542 -0.033171397 0.81000006 1.8656327e-40
-0.030085681 -0.033171397 0.81000006 2.7696104e-40
-0.028542845 -0.033171419 0.81000006 3.684364e-40
-0.026999986 -0.033171412 0.81000006 6.4394149e-40
-0.0022056859 -0.031615205 0.77200001 4.6062923e-40
-0.00073139253 -0.031451393 0.76799995 7.3613431e-40
0.00072667445 -0.03124666 0.76299995 7.3577418e-40
0.0021799987 -0.031246671 0.76300001 7.3613151e-40
0.003619083 -0.031123774 0.75999999 9.198011e-40
0.0050533712 -0.031041866 0.75800002 1.1041966e-39
0.0064714579 -0.030919017 0.75500005 6.4323383e-40
0.0078781154 -0.030796172 0.75200003 1.0415992e-40
0.0092857098 -0.03071429 0.75000006 9.1400141e-39
0.010685749 -0.030632345 0.74799997 1.8065662e-38
0.012094327 -0.030591389 0.74699998 1.7061955e-38
0.013444781 -0.030427597 0.74300003 1.6043494e-38
0.014840016 -0.03038666 0.74199998 1.5208347e-38
0.016209573 -0.030304715 0.74000001 1.4296106e-38
0.017619094 -0.030304711 0.74000001 1.5768e-38
0.019028619 -0.030304717 0.74000001 1.7239882e-38
0.020410493 -0.030263793 0.73899996 1.6968325e-38
0.02181809 -0.030263809 0.73900002 1.6595603e-38
0.023225732 -0.030263789 0.73900002 1.5295558e-38
-0.061093315 -0.031706646 0.81199998 1.0141687e-39
-0.059253331 -0.031550463 0.80800003 7.3902659e-40
-0.057571426 -0.031472366 0.80600005 7.3867206e-40
-0.056036167 -0.031472351 0.80599999 7.3796161e-40
-0.054500941 -0.031472359 0.80599999 6.4577438e-40
-0.052965708 -0.031472366 0.80600005 6.4433665e-40
-0.051430479 -0.031472374 0.80600005 2.2998825e-39
-0.049895223 -0.031472355 0.80599999 3.9525459e-39
-0.048359994 -0.031472363 0.80599999 4.511074e-39
-0.046940945 -0.03155046 0.80800003 5.1438724e-39
-0.045289531 -0.031472377 0.80600005 5.6130874e-39
-0.043862849 -0.031550463 0.80800003 6.1569902e-39
-0.042323794 -0.03155046 0.80800003 6.3629656e-39
-0.040784761 -0.031550471 0.80800003 6.4738462e-39
-0.039245725 -0.031550482 0.80800003 6.8340443e-39
-0.037706669 -0.031550478 0.80800003 7.1966948e-39
-0.036167592 -0.031550448 0.80800003 5.1655239e-39
-0.034628555 -0.031550456 0.80800003 3.1447268e-39
-0.033171412 -0.031628553 0.81000006 1.6602332e-39
-0.031628553 -0.031628553 0.81000006 2.7624778e-40
-0.030085692 -0.031628549 0.81000006 2.7660931e-40
-0.02854283 -0.031628545 0.81000006 3.68442e-40
-0.0021999681 -0.030066637 0.77000004 4.6097254e-40
-0.00073045515 -0.029949501 0.76700002 6.4429041e-40
0.00072668842 -0.029793315 0.76300001 6.4429601e-40
0.0021743316 -0.029715193 0.76099998 6.4465895e-40
0.003619069 -0.029676167 0.76000005 9.2124444e-40
0.0050399927 -0.029520011 0.75600004 1.2900354e-39
0.0064714635 -0.029480923 0.75500005 6.4433105e-40
0.0078781294 -0.029363774 0.75199997 9.2363786e-41
0.0092609776 -0.029207598 0.74800003 7.9404732e-39
0.010671441 -0.029168559 0.74700004 1.5782357e-38
0.012061907 -0.029090479 0.74500006 1.6690659e-38
0.013444787 -0.029012354 0.74300003 1.7601822e-38
0.014800049 -0.028895197 0.74000001 1.6778872e-38
0.016209571 -0.028895194 0.74000001 1.5945175e-38
0.017595248 -0.028856181 0.73900002 1.6117722e-38
0.019002873 -0.028856179 0.73899996 1.6401153e-38
0.020410487 -0.028856177 0.73900002 1.8165073e-38
0.021818113 -0.028856175 0.73900002 2.0005717e-38
0.023225736 -0.028856173 0.73899996 1.9356759e-38
-0.059253335 -0.030011417 0.80800009 8.3085648e-40
-0.057571419 -0.02993712 0.80599999 8.3050756e-40
-0.056036182 -0.029937128 0.80599999 8.3016284e-40
-0.054500956 -0.029937135 0.80600005 6.4650586e-40
-0.052965701 -0.029937118 0.80599999 3.7171544e-40
-0.051430449 -0.029937109 0.80599999 4.0487226e-39
-0.049895238 -0.029937131 0.80599999 7.6432451e-39
-0.04835999 -0.02993712 0.80600005 8.9472627e-39
-0.046940949 -0.030011414 0.80800003 1.0133594e-38
-0.045289502 -0.029937113 0.80599999 1.1151679e-38
-0.043862857 -0.030011419 0.80800009 1.2159362e-38
-0.042323798 -0.030011408 0.80800003 1.2177663e-38
-0.040784761 -0.030011419 0.80800003 1.2160098e-38
-0.039245706 -0.030011414 0.80800003 7.9338857e-39
-0.037706651 -0.030011406 0.80800003 3.5996359e-39
-0.036167614 -0.030011419 0.80800003 2.0218873e-39
-0.034628578 -0.030011427 0.80800003 4.6568231e-40
-0.033089522 -0.030011425 0.80800003 3.6772454e-40
-0.031550467 -0.030011417 0.80800009 2.7660791e-40
-0.0300857 -0.0300857 0.81000006 3.6844481e-40
-0.0021999979 -0.028599998 0.77000004 4.6097955e-40
-0.00072666188 -0.028339999 0.76300001 5.5246052e-40
0.00072478759 -0.028265689 0.76100004 5.5246472e-40
0.0021714547 -0.028228546 0.76000005 4.613579e-40
0.0036095621 -0.02815425 0.75800002 9.2162419e-40
0.0050333776 -0.028042816 0.755 1.3797437e-39
0.0064543011 -0.027968558 0.75300002 7.3511977e-40
0.0078571504 -0.027857138 0.75000012 1.0671168e-40
0.0092609897 -0.027782822 0.74799997 6.838059e-39
0.010671455 -0.027745692 0.74699998 1.3467447e-38
0.012029545 -0.027597126 0.74300003 1.6315794e-38
0.013426706 -0.027559962 0.74199998 1.9173817e-38
0.014800044 -0.027485676 0.74000001 1.8360215e-38
0.016209567 -0.027485676 0.74000001 1.7502815e-38
0.01761909 -0.027485678 0.74000001 1.6448831e-38
0.019028613 -0.027485682 0.74000001 1.5490346e-38
0.020438133 -0.027485678 0.74000001 1.9468736e-38
0.021818113 -0.02744855 0.73899996 2.3412634e-38
-0.057571433 -0.028401894 0.80599999 8.3050756e-40
-0.056036159 -0.028401865 0.80599999 8.3016985e-40
-0.054500945 -0.028401887 0.80599999 6.4651847e-40
-0.052965697 -0.028401876 0.80600005 5.5468578e-40
-0.05143046 -0.028401885 0.80600005 2.7669913e-39
-0.049895234 -0.028401891 0.80600005 5.0837511e-39
-0.048359979 -0.028401876 0.80599999 5.2696403e-39
-0.046940945 -0.028472366 0.80800003 5.3729679e-39
-0.045289516 -0.028401891 0.80600005 5.728843e-39
-0.043862853 -0.02847237 0.80800003 6.2026739e-39
-0.042323798 -0.028472366 0.80800003 6.182889e-39
-0.040784761 -0.028472375 0.80800003 6.1671005e-39
-0.039245706 -0.028472368 0.80800003 4.053445e-39
-0.037706673 -0.028472381 0.80800003 2.0208069e-39
-0.036167614 -0.028472373 0.80800009 1.3786142e-39
-0.034628555 -0.028472362 0.80800003 7.3577698e-40
-0.033171408 -0.028542833 0.81000006 5.5283466e-40
-0.031628564 -0.028542848 0.81000006 3.6880354e-40
-0.0007247508 -0.026816182 0.76100004 5.5246472e-40
0.0007238395 -0.026780924 0.76000005 5.5282626e-40
0.0021657336 -0.026710458 0.75800002 6.4504151e-40
0.0035999974 -0.026640002 0.75600004 7.3689662e-40
0.0050333599 -0.026604744 0.75500005 9.1951524e-40
0.0064457338 -0.026499031 0.75200003 2.3957215e-39
0.0078362143 -0.026358075 0.74800003 3.96452e-39
0.0092609785 -0.026358077 0.74799997 8.7651387e-39
0.010642875 -0.026252367 0.745 1.3648238e-38
0.012029553 -0.026181879 0.74300003 1.4848589e-38
0.013426697 -0.026146639 0.74199998 1.6152245e-38
0.01480004 -0.026076155 0.74000001 1.5591567e-38
0.016209563 -0.026076153 0.74000001 1.503189e-38
0.017619085 -0.026076157 0.74000001 1.7234811e-38
0.019028608 -0.026076153 0.74000001 1.9468701e-38
0.020438131 -0.026076159 0.74000001 2.148771e-38
-0.057571404 -0.026866632 0.80599999 9.216326e-40
-0.056036174 -0.026866641 0.80599999 8.2945238e-40
-0.054365698 -0.026799969 0.80399996 7.3834836e-40
-0.052834269 -0.026799975 0.80400002 6.45794e-40
-0.051430453 -0.026866639 0.80599999 1.564149e-39
-0.049895227 -0.026866645 0.80599999 2.4940114e-39
-0.048359994 -0.02686665 0.80600005 1.5817815e-39
-0.046824761 -0.026866661 0.80600005 5.6872959e-40
-0.045289509 -0.026866645 0.80599999 3.7071771e-40
-0.043754272 -0.026866654 0.80599999 1.052207e-40
-0.04232382 -0.026933337 0.80800003 9.2272701e-41
-0.040784743 -0.026933307 0.80800003 9.5858624e-41
-0.039245706 -0.026933318 0.80800003 2.7594089e-40
-0.037706651 -0.026933312 0.80800003 3.6810289e-40
-0.036167614 -0.026933325 0.80800003 7.3541124e-40
-0.034714252 -0.026999965 0.81000006 1.0120065e-39
-0.033171393 -0.026999963 0.81000006 7.3830492e-40
-0.031550467 -0.026933322 0.80800003 4.6315577e-40
-0.00072474801 -0.025366651 0.76100004 4.613523e-40
0.00072193029 -0.02526664 0.75800002 6.4467156e-40
0.0021600097 -0.025199994 0.75600004 8.2835937e-40
0.0035952718 -0.025166636 0.755 6.4434646e-40
0.0050200168 -0.025099987 0.75300002 3.7173926e-40
0.0064285919 -0.024999978 0.75000006 4.1467112e-39
0.0078257257 -0.024899991 0.74700004 7.8341749e-39
0.0092238188 -0.024833327 0.74500006 1.0792696e-38
0.010614308 -0.024766646 0.74300003 1.3735746e-38
0.012013357 -0.024733311 0.74199998 1.3369849e-38
0.013426702 -0.024733298 0.74199998 1.3008261e-38
0.014800034 -0.024666635 0.74000001 1.2729898e-38
0.01620956 -0.024666635 0.74000001 1.2460487e-38
0.017595252 -0.024633322 0.73899996 1.7990346e-38
0.019028604 -0.024666637 0.74000001 2.3415497e-38
-0.057571419 -0.025331406 0.80599999 7.3724975e-40
-0.056036189 -0.025331417 0.80600005 7.3618196e-40
-0.054500934 -0.025331398 0.80599999 6.4507093e-40
-0.052965701 -0.025331406 0.80599999 5.528739e-40
-0.051302824 -0.025268534 0.80400002 1.1042414e-39
-0.049895238 -0.025331421 0.80600005 1.654167e-39
-0.048359983 -0.025331404 0.80599999 1.0159708e-39
-0.046824753 -0.025331413 0.80599999 3.6774556e-40
-0.045289502 -0.025331402 0.80600005 4.6066005e-40
-0.043754272 -0.025331412 0.80600005 4.5956984e-40
-0.042323798 -0.02539427 0.80800003 4.5991456e-40
-0.040784761 -0.025394281 0.80800003 4.5955863e-40
-0.03924571 -0.025394274 0.80800003 3.6808327e-40
-0.037706673 -0.025394285 0.80800003 3.6915526e-40
-0.036257125 -0.02545712 0.81000006 1.1949517e-39
-0.034628581 -0.025394289 0.80800003 2.113678e-39
0.00071999407 -0.023760008 0.75600004 6.450387e-40
0.0021571636 -0.023728551 0.75500005 9.205592e-40
0.0035857416 -0.023665687 0.75299996 7.3618476e-40
0.0050133532 -0.023634266 0.75200003 5.5183274e-40
0.0064114528 -0.023508549 0.74800003 4.0584784e-39
0.0078257388 -0.02347712 0.74699998 7.5654927e-39
0.0092238225 -0.023414278 0.745 1.0238813e-38
0.010614315 -0.023351401 0.74300003 1.2815216e-38
0.012013365 -0.023319969 0.74199998 1.2724086e-38
0.013426693 -0.023319975 0.74199998 1.2627952e-38
0.014800033 -0.023257114 0.74000001 1.2172368e-38
0.016187647 -0.023225684 0.73900002 1.1804359e-38
-0.054500949 -0.023796177 0.80599999 5.5251237e-40
-0.052965701 -0.023796165 0.80600005 4.6139433e-40
-0.051302835 -0.023737112 0.80400002 6.4542406e-40
-0.049895212 -0.023796156 0.80599999 8.2836778e-40
-0.048359983 -0.023796162 0.80600005 5.5213402e-40
-0.04682475 -0.023796173 0.80600005 1.8514376e-40
-0.045401916 -0.023855237 0.80800003 5.5247874e-40
-0.043754265 -0.023796165 0.80599999 8.2798522e-40
-0.042219032 -0.023796173 0.80599999 8.2834396e-40
-0.040784765 -0.023855237 0.80800009 8.2762089e-40
-0.039245706 -0.023855224 0.80800003 5.5174866e-40
-0.037706651 -0.023855219 0.80800003 2.7663734e-40
-0.036167614 -0.02385523 0.80800003 1.745683e-39
-0.034542851 -0.023796184 0.80600005 3.2301233e-39
0.00071909628 -0.022290433 0.755 7.3653368e-40
0.0021485954 -0.022201885 0.75200003 9.2094036e-40
0.0035809863 -0.022201871 0.75199997 8.2840561e-40
0.0050000139 -0.022142844 0.75000006 6.5012822e-40
0.006402893 -0.022054253 0.74699998 3.9698519e-39
0.0078047635 -0.021995237 0.74500006 7.2881659e-39
0.0091990698 -0.021936169 0.74300003 9.5977244e-39
0.010600027 -0.02190664 0.74200004 1.1895058e-38
0.012013357 -0.02190665 0.74199998 1.2082688e-38
0.013426702 -0.021906633 0.74199998 1.2172372e-38
0.014800031 -0.021847593 0.74000001 1.1619568e-38
