# .PCD v0.7 - Point Cloud Data file format
VERSION 0.7
FIELDS x y z rgb
SIZE 4 4 4 4
TYPE F F F F
COUNT 1 1 1 1
WIDTH 950
HEIGHT 1
VIEWPOINT 0 0 0 1 0 0 0
POINTS 950
DATA ascii
0.0094466759 -0.022526706 0.76300001 5.5209198e-40
0.010928578 -0.022585742 0.76499999 4.6097535e-40
0.012353339 -0.022526691 0.76300001 6.4536521e-40
0.013879057 -0.022644814 0.76699996 7.3648184e-40
0.015340009 -0.022644801 0.76700002 8.279572e-40
0.016822873 -0.022674356 0.76800001 8.2831593e-40
0.018261909 -0.022644788 0.76700002 1.1953006e-39
0.019722866 -0.02264481 0.76700002 1.4708127e-39
0.021183819 -0.022644799 0.76700002 1.103119e-39
0.022644769 -0.022644797 0.76699996 6.4429321e-40
0.024042858 -0.022585711 0.76500005 6.4428621e-40
0.025433341 -0.0225267 0.76300001 6.4500367e-40
0.026886672 -0.022526676 0.76300007 7.371993e-40
0.028340006 -0.022526683 0.76300001 8.2939493e-40
0.029715251 -0.022467671 0.76099998 8.290376e-40
0.031164765 -0.022467639 0.76100004 8.2976347e-40
0.032571431 -0.022438115 0.76000005 8.3013061e-40
0.033929538 -0.022379098 0.75800002 8.3047953e-40
0.035373338 -0.022379087 0.75800002 8.3011099e-40
0.036720004 -0.022320006 0.75600004 8.3082986e-40
0.038109533 -0.022290513 0.755 1.0155799e-39
0.039547633 -0.022290543 0.755 1.1074294e-39
0.040985726 -0.022290513 0.755 1.3825925e-39
0.042255241 -0.022201937 0.75200003 1.5651789e-39
0.04368763 -0.022201952 0.75200003 8.2689922e-40
0.044880003 -0.022083821 0.74800003 1.0493764e-40
0.046242863 -0.022054316 0.74700004 1.1805162e-38
0.047665723 -0.022054322 0.74700004 2.3407287e-38
0.048825718 -0.021936208 0.74300003 2.341769e-38
0.047536202 -0.020755284 0.70299995 2.341769e-38
0.04887525 -0.020755278 0.70299995 2.341769e-38
0.050214298 -0.020755276 0.70299995 2.341769e-38
0.051553342 -0.020755291 0.70299995 2.341769e-38
0.052892394 -0.020755287 0.70299995 2.341769e-38
0.054385722 -0.020814316 0.70500004 2.341769e-38
-0.02526571 -0.019802894 0.71700001 3.705972e-40
-0.023899999 -0.019802889 0.71700001 4.6172925e-40
-0.022597136 -0.019858135 0.71900004 6.4502329e-40
-0.021257142 -0.019885728 0.72000003 6.4464494e-40
-0.019858088 -0.019858137 0.71900004 7.361217e-40
-0.018488564 -0.019858139 0.71900004 6.442848e-40
-0.017523801 -0.020327663 0.73600006 6.4392607e-40
-0.016121898 -0.02032767 0.73600006 7.361203e-40
-0.014739995 -0.020355269 0.73700005 7.361203e-40
-0.013372381 -0.020410482 0.73900008 5.5244931e-40
-0.012061892 -0.020576244 0.745 3.6877972e-40
-0.010685714 -0.020659052 0.74800003 4.6061521e-40
-0.0092609543 -0.020659052 0.74800003 5.5210319e-40
-0.0078571392 -0.020714309 0.75000006 4.6063763e-40
-0.0064457087 -0.020769559 0.75200003 4.6098516e-40
-0.0050133225 -0.020769581 0.75199997 4.6061381e-40
-0.0035857076 -0.020797182 0.75300002 4.6025508e-40
-0.0021571382 -0.020852409 0.75500005 4.6025508e-40
-0.00071904185 -0.020852413 0.755 5.5209758e-40
0.00072000659 -0.020880036 0.75600004 5.5210319e-40
0.002165721 -0.020935275 0.75800002 6.4429181e-40
0.0036190571 -0.020990524 0.75999999 6.442848e-40
0.0050666756 -0.020990517 0.75999999 6.4464354e-40
0.0065228688 -0.021018151 0.76100004 5.5316677e-40
0.0079723857 -0.02101812 0.76100004 4.6061521e-40
0.0094466722 -0.021073356 0.76300001 4.6097395e-40
0.010900007 -0.021073366 0.76300001 4.6169141e-40
0.012353336 -0.02107334 0.76300001 6.4500227e-40
0.013806674 -0.021073371 0.76300001 7.361203e-40
0.015300006 -0.021128595 0.76500005 6.4464354e-40
0.016757146 -0.021128576 0.76500005 5.5352551e-40
0.018214291 -0.021128591 0.76500005 8.2867326e-40
0.019671429 -0.021128574 0.76500005 1.0127044e-39
0.02107334 -0.021073369 0.76300001 8.2867606e-40
0.022585716 -0.021128569 0.76500005 5.5316958e-40
0.02398001 -0.021073377 0.76300001 5.5316817e-40
0.025433337 -0.021073351 0.76300001 6.4500367e-40
0.026886672 -0.021073358 0.76300001 6.4572113e-40
0.028265722 -0.021018131 0.76100004 7.382755e-40
0.029715247 -0.021018129 0.76099998 7.3791817e-40
0.031123817 -0.020990504 0.76000005 7.3829231e-40
0.03248572 -0.020935271 0.75800002 7.3830633e-40
0.033929534 -0.020935282 0.75800002 7.3900698e-40
0.035280008 -0.020880019 0.75600004 8.3082566e-40
0.036671434 -0.020852422 0.755 9.2266536e-40
0.038109541 -0.02085245 0.755 1.0148624e-39
0.039442863 -0.020797187 0.75300002 1.1067133e-39
0.040822867 -0.020769585 0.75200003 1.4740693e-39
0.042142861 -0.020714318 0.75000006 1.93323e-39
0.043571431 -0.0207143 0.75000006 1.0116282e-39
0.044700004 -0.020576226 0.74500006 9.2373595e-41
0.046119057 -0.020576242 0.74500006 1.1804444e-38
0.047538105 -0.020576237 0.745 2.341769e-38
0.04895715 -0.020576224 0.74500006 2.341769e-38
0.047603816 -0.019443847 0.704 2.341769e-38
0.048944768 -0.01944384 0.70400006 2.341769e-38
0.050285723 -0.019443842 0.704 2.341769e-38
0.051626675 -0.01944384 0.70400006 2.341769e-38
0.052967627 -0.019443842 0.704 2.341769e-38
-0.026742849 -0.018514333 0.72000003 5.5533318e-40
-0.025336185 -0.018488616 0.71900004 5.5426679e-40
-0.023799997 -0.018360041 0.71400005 7.3651126e-40
-0.022597134 -0.018488618 0.71899998 8.2833275e-40
-0.021257143 -0.018514296 0.72000003 8.279614e-40
-0.019885708 -0.01851433 0.72000003 8.2831733e-40
-0.018514285 -0.018514305 0.72000003 7.361203e-40
-0.017523803 -0.01892576 0.73600006 6.442848e-40
-0.01607809 -0.018874317 0.73400003 7.3647903e-40
-0.014739997 -0.018951455 0.73700005 8.279558e-40
-0.013372377 -0.019002888 0.73900002 6.442848e-40
-0.012013332 -0.019080011 0.74200004 3.6877832e-40
-0.01064285 -0.019157186 0.74500006 4.6097395e-40
-0.0092485705 -0.019208588 0.7470001 4.6062082e-40
-0.007857142 -0.019285722 0.75000006 4.6098656e-40
-0.006428563 -0.019285763 0.75000006 4.6097955e-40
-0.0050133266 -0.019337183 0.75200003 4.6061521e-40
-0.0035809469 -0.019337174 0.75200003 4.6061381e-40
-0.0021514215 -0.019362895 0.75300002 5.5209058e-40
-0.00071713078 -0.019362915 0.75300002 6.4428901e-40
0.00071905524 -0.019414322 0.755 6.4393308e-40
0.0021600062 -0.019440033 0.75600004 6.4428901e-40
0.003609533 -0.019491475 0.75800002 5.5244931e-40
0.0050533446 -0.019491486 0.75800002 4.6133128e-40
0.0065142917 -0.019542886 0.76000005 3.7057338e-40
0.0079723895 -0.019568611 0.76099998 2.7766169e-40
0.009421913 -0.019568605 0.76100004 3.6985591e-40
0.010871441 -0.01956863 0.76100004 4.6133268e-40
0.012304768 -0.01954289 0.75999999 6.4428621e-40
0.013752392 -0.019542906 0.76000005 7.3648043e-40
0.015260006 -0.019620029 0.76300001 5.5244931e-40
0.01671334 -0.019620029 0.76300007 2.7766028e-40
0.018166674 -0.019620037 0.76300001 4.6097254e-40
0.019620003 -0.019620012 0.76300007 5.5316817e-40
0.02107334 -0.01962002 0.76300001 5.5316958e-40
0.022526678 -0.019620052 0.76300001 4.6133268e-40
0.023980007 -0.019620026 0.76300001 5.5352691e-40
0.025366671 -0.019568598 0.76100004 5.5388564e-40
0.026816202 -0.019568622 0.76100004 6.4607987e-40
0.028265718 -0.01956859 0.76100004 6.4572113e-40
0.029715249 -0.019568617 0.76100004 6.453638e-40
0.031041913 -0.019491468 0.75800002 5.5389685e-40
0.032485712 -0.019491456 0.75800002 6.4610089e-40
0.033840001 -0.019440012 0.75600004 6.4680854e-40
0.035280004 -0.019440014 0.7560001 8.3082846e-40
0.036671437 -0.019414326 0.75500005 9.2266536e-40
0.038008582 -0.019362915 0.75300002 1.0145023e-39
0.039390486 -0.019337207 0.75199997 1.1067077e-39
0.040714297 -0.019285757 0.75000006 1.6577319e-39
0.042142864 -0.01928574 0.75000006 2.2080134e-39
0.043455243 -0.0192343 0.74800003 1.194223e-39
0.044700008 -0.019157179 0.74500006 1.0636276e-40
0.045995254 -0.01910576 0.74300003 1.18109e-38
0.047410484 -0.01910574 0.74300003 2.340872e-38
0.048825726 -0.019105751 0.74300003 2.341769e-38
0.047671434 -0.018128606 0.70500004 2.341769e-38
0.049014293 -0.018128611 0.70500004 2.341769e-38
0.050357148 -0.018128613 0.70500004 2.341769e-38
0.051626679 -0.018102897 0.704 2.341769e-38
0.053042866 -0.018128611 0.70500004 2.341769e-38
-0.026742851 -0.017142901 0.71999997 5.5390105e-40
-0.025336184 -0.017119097 0.71900004 4.6206976e-40
-0.023966659 -0.0171191 0.71900004 6.4502749e-40
-0.022597132 -0.017119102 0.71900004 8.2797261e-40
-0.021257138 -0.017142888 0.72000003 8.2868167e-40
-0.019885708 -0.017142897 0.71999997 8.290362e-40
-0.018514277 -0.017142897 0.72000003 7.3683777e-40
-0.017476184 -0.017476223 0.73400003 7.361203e-40
-0.016078087 -0.017476223 0.73400003 6.4464354e-40
-0.014719992 -0.017523857 0.73600006 6.442848e-40
-0.013372377 -0.017595267 0.73900002 5.5280804e-40
-0.011980951 -0.017619072 0.74000007 4.6061381e-40
-0.01061428 -0.017690511 0.74300003 4.6061381e-40
-0.0092238057 -0.017738126 0.74500006 4.6061661e-40
-0.0078361901 -0.017809529 0.74800003 5.5281224e-40
-0.0064285705 -0.017857153 0.75000006 6.4428761e-40
-0.004999998 -0.01785716 0.75000006 5.5280944e-40
-0.0035809474 -0.017904785 0.75200003 4.6097395e-40
-0.002151415 -0.017928643 0.75300002 4.6097254e-40
-0.00071617885 -0.017904822 0.75199997 5.5316817e-40
0.00071905676 -0.017976236 0.755 6.4464494e-40
0.0021600046 -0.018000025 0.75600004 7.3576297e-40
0.0036000009 -0.018000005 0.75600004 5.5244931e-40
0.0050400016 -0.018000007 0.7560001 4.6097395e-40
0.0064971503 -0.018047657 0.75800002 3.6913845e-40
0.0079409564 -0.018047642 0.75800002 3.6877972e-40
0.0093847699 -0.018047653 0.75800002 3.6949718e-40
0.01085715 -0.01809527 0.76000005 4.6169281e-40
0.012304766 -0.018095264 0.76000005 5.5316958e-40
0.0137162 -0.018047668 0.75800002 6.453624e-40
0.015220013 -0.018119108 0.76099998 3.6949578e-40
0.016647626 -0.01809527 0.76000005 1.8618352e-40
0.018095246 -0.018095262 0.76000005 4.6169001e-40
0.019568574 -0.018119071 0.76100004 7.371979e-40
0.021018106 -0.018119097 0.76100004 6.4500367e-40
0.022467623 -0.018119065 0.76100004 4.6097395e-40
0.023917152 -0.018119089 0.76100004 4.6169141e-40
0.025366675 -0.018119091 0.76099998 4.6240888e-40
0.0268162 -0.018119082 0.76100004 5.5424297e-40
0.028228579 -0.018095272 0.76000005 7.371965e-40
0.029598106 -0.018047672 0.75800002 5.5352551e-40
0.031041915 -0.018047657 0.75800002 4.6133688e-40
0.032399997 -0.017999999 0.75600004 6.4608828e-40
0.033840008 -0.018000035 0.75600004 8.3083406e-40
0.035233337 -0.017976211 0.75500005 9.2266676e-40
0.0365743 -0.017928639 0.75300002 1.0137848e-39
0.0379581 -0.017904796 0.75200003 1.0145009e-39
0.039285719 -0.01785716 0.75000006 1.0155841e-39
0.04071429 -0.017857168 0.75000006 1.6587983e-39
0.042030476 -0.017809525 0.74800003 2.3941913e-39
0.043397147 -0.017785724 0.74700004 1.1956565e-39
0.044579998 -0.017690482 0.74300003 9.2370792e-41
0.04593334 -0.01766669 0.74200004 1.1809104e-38
0.047346666 -0.017666668 0.74200004 2.3417687e-38
0.047840003 -0.017333366 0.72800004 2.341769e-38
0.049226675 -0.017333373 0.72799999 2.341769e-38
0.049014293 -0.016785746 0.70500004 2.341769e-38
0.050357152 -0.016785748 0.70500004 2.341769e-38
0.053042866 -0.016785754 0.70500004 2.341769e-38
-0.026742851 -0.015771467 0.71999997 5.5246893e-40
-0.025336187 -0.015749553 0.71900004 3.695182e-40
-0.023966664 -0.015749555 0.71900004 6.4538622e-40
-0.022597138 -0.015749555 0.71900004 8.2869428e-40
-0.02125714 -0.015771454 0.72000003 8.2904741e-40
-0.019885704 -0.015771488 0.71999997 8.290432e-40
-0.018642858 -0.015880965 0.72500002 8.2975787e-40
-0.017333327 -0.015946707 0.72799999 7.3684617e-40
-0.016034288 -0.016034288 0.73200005 6.4465194e-40
-0.014719991 -0.016121959 0.73600006 4.6133688e-40
-0.013336185 -0.016143838 0.73699999 4.6133548e-40
-0.011964754 -0.01618766 0.73900002 4.6097675e-40
-0.010614287 -0.016275244 0.74300003 4.6061802e-40
-0.0092238057 -0.016319077 0.74500006 4.6097675e-40
-0.0078257062 -0.016362902 0.74700004 6.4464914e-40
-0.0064114248 -0.016384784 0.74800003 7.3648184e-40
-0.0049999934 -0.016428605 0.75000006 6.453624e-40
-0.0035809446 -0.016472422 0.75200003 4.6169141e-40
-0.0021485661 -0.016472412 0.75200003 4.6169001e-40
-0.00071618677 -0.016472403 0.75200003 3.6950139e-40
0.00071714941 -0.016494319 0.75300002 5.5353531e-40
0.0021571536 -0.016538147 0.755 7.3648464e-40
0.0036000053 -0.016560029 0.75600004 6.4428621e-40
0.0050400062 -0.016560033 0.75600004 4.6098516e-40
0.0064800084 -0.016560037 0.75600004 4.602789e-40
0.007940962 -0.016603857 0.75800002 3.6879373e-40
0.0093847737 -0.016603867 0.75800002 4.6062082e-40
0.010828581 -0.016603854 0.75800002 4.6133548e-40
0.012272392 -0.016603865 0.75800002 4.6169281e-40
0.013680001 -0.016560007 0.75600004 4.6169281e-40
0.015160006 -0.016603839 0.75800002 2.7802182e-40
0.016647626 -0.016647648 0.76000005 9.4710961e-41
0.018095244 -0.016647644 0.76000005 5.5352971e-40
0.01954286 -0.016647635 0.76000005 9.2051436e-40
0.020990483 -0.016647652 0.76000005 7.3612731e-40
0.022438101 -0.016647646 0.76000005 4.6133828e-40
0.02391715 -0.016669551 0.76100004 3.6950279e-40
0.025333339 -0.016647633 0.76000005 2.7838195e-40
0.026780955 -0.016647626 0.76000005 5.5424437e-40
0.028228579 -0.016647652 0.75999999 7.3755663e-40
0.029598104 -0.016603854 0.75800002 5.5388704e-40
0.030960009 -0.016560042 0.75600004 3.7057898e-40
0.032400005 -0.016560024 0.75600004 6.4644841e-40
0.033795245 -0.016538125 0.75500005 9.2231643e-40
0.035233337 -0.016538126 0.755 1.0145135e-39
0.036574297 -0.01649433 0.75300002 1.0145093e-39
0.037958104 -0.016472433 0.75200003 1.0145065e-39
0.039285723 -0.016428608 0.75000006 9.2339543e-40
0.040605713 -0.016384769 0.74800003 1.7506408e-39
0.041974291 -0.016362868 0.7470001 2.4845947e-39
0.043397155 -0.016362894 0.7470001 1.2860571e-39
0.044520002 -0.01625336 0.74200004 1.0923122e-40
0.04593334 -0.016253363 0.74200004 1.1823454e-38
0.046453342 -0.01594672 0.72799999 2.3411947e-38
0.047840003 -0.015946701 0.72800004 2.341769e-38
0.049226675 -0.015946705 0.72800004 2.341769e-38
-0.026705703 -0.014380057 0.71900004 7.3650005e-40
-0.02533618 -0.014380059 0.71900004 5.5283186e-40
-0.023866659 -0.01432003 0.71600002 7.3650426e-40
-0.02259713 -0.014380065 0.71900004 9.1981511e-40
-0.021257142 -0.014400021 0.72000003 9.2017245e-40
-0.019940943 -0.014440064 0.722 8.2833415e-40
-0.018642854 -0.014500027 0.72500002 7.3685318e-40
-0.017333331 -0.014560034 0.72800004 6.4501768e-40
-0.016034286 -0.014640003 0.73200005 6.4501768e-40
-0.014640002 -0.014639999 0.73200011 5.5389545e-40
-0.013336181 -0.014740045 0.73699999 6.4536801e-40
-0.011964755 -0.014780038 0.73900002 6.4536801e-40
-0.010614281 -0.014860031 0.74300003 6.4500928e-40
-0.0092238002 -0.014900054 0.74500006 6.4500928e-40
-0.0078257062 -0.014940046 0.74700004 6.4464914e-40
-0.0064114276 -0.014960009 0.74800003 6.4428901e-40
-0.0049866638 -0.014960016 0.74800003 5.5316817e-40
-0.0035714225 -0.015000032 0.75000006 5.5352691e-40
-0.0021485623 -0.015040047 0.75200003 4.6169001e-40
-0.00071428128 -0.015000024 0.75000006 3.6914686e-40
0.00071619597 -0.015040029 0.75200003 5.5318499e-40
0.0021571545 -0.015100061 0.755 7.3684898e-40
0.0035952441 -0.015100032 0.755 7.3648184e-40
0.0050333454 -0.015100061 0.755 8.2869848e-40
0.0064714355 -0.015100031 0.75500005 7.3652528e-40
0.0079200016 -0.015120007 0.75600004 6.450317e-40
0.0093600024 -0.015120013 0.75600004 5.5281925e-40
0.010800004 -0.015120016 0.75600004 4.6097955e-40
0.012240006 -0.015120018 0.7560001 4.6169281e-40
0.013680001 -0.015119999 0.75600004 4.6169421e-40
0.015120007 -0.015120034 0.75600004 3.6986012e-40
0.016603822 -0.015160062 0.75800002 1.8690799e-40
0.018047629 -0.015160049 0.75800002 5.5353391e-40
0.019491442 -0.015160059 0.75800002 1.0116366e-39
0.020935249 -0.015160046 0.75800002 8.2868447e-40
0.022438101 -0.015200027 0.75999999 6.4608968e-40
0.023885725 -0.015200046 0.76000005 5.5353672e-40
0.025266672 -0.015160032 0.75800002 5.5317378e-40
0.026710486 -0.015160038 0.75800002 6.4572254e-40
0.028154293 -0.015160025 0.75800002 7.3791817e-40
0.029520007 -0.015120034 0.75600004 7.3791817e-40
0.030960009 -0.015120036 0.75600004 6.4644561e-40
0.032357145 -0.015100029 0.75500005 8.301208e-40
0.033795245 -0.015100035 0.755 1.1059944e-39
0.035140011 -0.015060055 0.75300002 1.1060014e-39
0.036525726 -0.015040053 0.75200003 1.1981887e-39
0.037857145 -0.015000014 0.75000006 1.0148694e-39
0.039180961 -0.014960023 0.74800003 8.3156554e-40
0.04060572 -0.014960025 0.74800003 1.2918276e-39
0.041861914 -0.014900051 0.745 1.7517072e-39
0.043280959 -0.014900039 0.74500006 9.2050876e-40
0.04440001 -0.014800026 0.74000001 1.8420629e-40
0.045252383 -0.014620028 0.73100001 1.1818073e-38
0.046517152 -0.01458005 0.72900003 2.3417689e-38
0.047905724 -0.014580061 0.72900003 2.341769e-38
0.0492943 -0.014580072 0.72899997 2.341769e-38
-0.026705706 -0.01301052 0.71900004 9.1980811e-40
-0.025336185 -0.01301052 0.71900004 6.4430863e-40
-0.023866666 -0.012956205 0.71600002 8.2798662e-40
-0.022502853 -0.012956227 0.71600002 1.0120135e-39
-0.021139046 -0.012956212 0.71600002 9.1945778e-40
-0.020051422 -0.013137178 0.72600001 8.2833835e-40
-0.018668571 -0.013137151 0.72600001 7.3614272e-40
-0.017333329 -0.013173371 0.72800004 5.5319059e-40
-0.01601238 -0.013227628 0.73100001 6.4431143e-40
-0.014640003 -0.013245714 0.73200011 6.4538062e-40
-0.013318084 -0.013318148 0.736 7.3756784e-40
-0.011932371 -0.013336244 0.73699999 8.2940334e-40
-0.010599999 -0.01342667 0.74200004 8.2940334e-40
-0.0091990465 -0.013444775 0.74300003 7.3720911e-40
-0.0078047551 -0.013480996 0.74500006 6.4501488e-40
-0.0064028553 -0.013517159 0.7470001 5.5317658e-40
-0.0049799923 -0.013517183 0.74700004 5.5317518e-40
-0.0035619047 -0.013535241 0.74800003 5.5353391e-40
-0.002142851 -0.013571463 0.75000006 4.6169842e-40
-0.00071427756 -0.01357147 0.75000006 2.7731556e-40
0.00071619946 -0.013607665 0.75200003 4.6063343e-40
0.0021514415 -0.013625778 0.75300002 6.4429601e-40
0.0035857267 -0.013625777 0.75299996 9.197941e-40
0.0050333408 -0.013661941 0.75500005 1.1041966e-39
0.0064714374 -0.013661947 0.755 1.0120163e-39
0.0079095336 -0.013661949 0.755 8.2833555e-40
0.0093476288 -0.013661948 0.75500005 6.4429601e-40
0.010800001 -0.013680008 0.7560001 3.6986152e-40
0.012240009 -0.013680045 0.75600004 4.6241168e-40
0.013680005 -0.013680025 0.75600004 4.6205295e-40
0.015120005 -0.013680029 0.75600004 3.6914265e-40
0.016560005 -0.013680032 0.75600004 2.7838476e-40
0.018000003 -0.013680011 0.75600004 6.4608828e-40
0.019440005 -0.013680015 0.75600004 1.0127142e-39
0.020880004 -0.013680018 0.75600004 9.208787e-40
0.022320006 -0.013680021 0.75600004 8.2940194e-40
0.023760002 -0.013680001 0.75600004 8.290432e-40
0.025200004 -0.013680006 0.7560001 7.372035e-40
0.026640011 -0.013680042 0.75600004 7.3684197e-40
0.028080005 -0.013680021 0.75600004 7.3791957e-40
0.029520007 -0.013680027 0.75600004 8.2975787e-40
0.030960007 -0.013680028 0.75600004 9.2159336e-40
0.032357149 -0.013661945 0.755 1.1045469e-39
0.033795249 -0.01366195 0.755 1.1971041e-39
0.035140008 -0.013625746 0.75300002 1.2889452e-39
0.036525719 -0.013607665 0.75199997 1.3818554e-39
0.037857153 -0.013571459 0.75000006 1.0152295e-39
0.039180953 -0.013535247 0.74800003 6.4897215e-40
0.040551435 -0.013517155 0.7470001 8.3372915e-40
0.04174953 -0.013444794 0.74299997 1.0137988e-39
0.043164767 -0.013444775 0.74300003 6.4321421e-40
0.04440001 -0.013390514 0.74000001 2.0681063e-40
0.045252379 -0.013227635 0.73100001 1.1846416e-38
0.046517152 -0.013191462 0.72900003 2.3417689e-38
0.047905717 -0.013191479 0.72900003 2.341769e-38
0.049294297 -0.01319149 0.72900003 2.341769e-38
-0.023866663 -0.011592417 0.71600002 8.2834956e-40
-0.022502853 -0.011592402 0.71600002 1.0127352e-39
-0.021139042 -0.011592424 0.71600002 9.2089552e-40
-0.020051429 -0.011754294 0.72600001 8.2906002e-40
-0.018668566 -0.011754322 0.72599995 6.4574776e-40
-0.017357135 -0.011802913 0.72900003 4.624397e-40
-0.016034285 -0.011851436 0.73200005 5.5356194e-40
-0.014640002 -0.011851429 0.73200011 7.3686579e-40
-0.013318085 -0.011916245 0.73600006 8.2905021e-40
-0.011932379 -0.011932398 0.73700005 8.2940894e-40
-0.01055714 -0.011964786 0.73900002 8.2905021e-40
-0.0091866693 -0.012013326 0.74200004 8.2905021e-40
-0.0077838078 -0.012029541 0.74300003 7.3721471e-40
-0.0063857022 -0.012061968 0.745 6.4537782e-40
-0.0049666618 -0.01206193 0.74500006 6.4501628e-40
-0.0035571409 -0.012094297 0.7470001 6.4501768e-40
-0.0021371392 -0.012110497 0.74800003 6.4465895e-40
-0.00071237719 -0.012110497 0.74800003 6.4430302e-40
0.00071429351 -0.012142898 0.75000006 6.4430442e-40
0.0021485772 -0.012175266 0.75200003 5.5210179e-40
0.0035809609 -0.012175281 0.75200003 5.5316817e-40
0.0050200121 -0.012191489 0.75299996 6.4572814e-40
0.0064542959 -0.012191481 0.75300002 6.4501628e-40
0.0079095289 -0.012223833 0.755 7.3613291e-40
0.0093476307 -0.012223859 0.755 5.5353672e-40
0.010785719 -0.012223832 0.75500005 3.7129785e-40
0.012223816 -0.012223837 0.755 3.7093491e-40
0.013661918 -0.012223866 0.755 4.6241168e-40
0.015100007 -0.012223837 0.75500005 3.7057618e-40
0.016560005 -0.012240024 0.75600004 2.7910362e-40
0.018000007 -0.012240028 0.75600004 5.5425418e-40
0.019440005 -0.012240008 0.75600004 9.2051997e-40
0.020852394 -0.012223871 0.755 8.290432e-40
0.022320006 -0.012240014 0.7560001 8.290432e-40
0.023760008 -0.012240025 0.75600004 7.3756504e-40
0.025200007 -0.01224003 0.75600004 6.4608547e-40
0.026640009 -0.012240034 0.75600004 7.3791817e-40
0.028080005 -0.012240015 0.75600004 8.301166e-40
0.02948096 -0.012223848 0.75500005 9.2159616e-40
0.030919056 -0.012223854 0.755 9.2123463e-40
0.032357153 -0.012223857 0.755 1.0134247e-39
0.033705719 -0.012191474 0.75300002 1.1974558e-39
0.035093345 -0.012175279 0.75200003 1.2896514e-39
0.036525719 -0.012175269 0.75200003 1.3814911e-39
0.037857153 -0.012142904 0.75000006 1.290736e-39
0.039180957 -0.012110503 0.74800003 1.1088685e-39
0.040442862 -0.01206193 0.74500006 8.3157815e-40
0.04174953 -0.012029551 0.74300003 5.5139693e-40
0.043106668 -0.012013352 0.74200004 2.1125878e-39
0.044040006 -0.011883848 0.73400003 3.6739636e-39
0.045252386 -0.011835272 0.73100001 1.3568692e-38
0.046517145 -0.011802879 0.72900003 2.341769e-38
0.047905721 -0.011802892 0.72900003 2.341769e-38
0.049226675 -0.011786704 0.72800004 2.341769e-38
-0.018719992 -0.010400052 0.72800004 5.5463533e-40
-0.017404759 -0.010442876 0.73100001 2.7877572e-40
-0.01601238 -0.010442874 0.73100001 5.5393048e-40
-0.014640002 -0.010457148 0.73200011 8.287111e-40
-0.01331809 -0.01051432 0.73600006 8.2870409e-40
-0.011916177 -0.010514357 0.73600006 8.2870269e-40
-0.010557141 -0.010557161 0.73900002 8.2798382e-40
-0.009161897 -0.01057147 0.74000001 8.2869848e-40
-0.0077838022 -0.010614329 0.74300003 8.2905582e-40
-0.0063857082 -0.010642891 0.74500006 7.3686299e-40
-0.0049666567 -0.010642909 0.74500006 7.3578959e-40
-0.0035571409 -0.010671443 0.7470001 6.450387e-40
-0.0021371425 -0.01068572 0.74800003 8.2800204e-40
-0.00071238045 -0.010685719 0.74800003 1.0120234e-39
0.00071429095 -0.010714311 0.75000006 7.3650846e-40
0.0021485807 -0.010742902 0.75200003 4.6171243e-40
0.0035809595 -0.010742893 0.75200003 2.787519e-40
0.0050200131 -0.010757204 0.75300002 9.4723572e-41
0.0064542983 -0.010757201 0.75299996 3.6915526e-40
0.0078885816 -0.010757191 0.75300002 6.4501908e-40
0.0093228659 -0.01075719 0.75300002 4.6242289e-40
0.01078572 -0.010785746 0.755 2.7910642e-40
0.012223821 -0.010785776 0.755 3.7058039e-40
0.013661912 -0.010785747 0.75500005 3.7093772e-40
0.015100008 -0.010785752 0.755 2.7981969e-40
0.01653811 -0.010785781 0.755 1.8727093e-40
0.017976198 -0.010785754 0.755 5.5461712e-40
0.019414295 -0.010785756 0.755 8.2940334e-40
0.020852389 -0.010785753 0.75500005 8.2976067e-40
0.022290485 -0.010785758 0.755 7.3756784e-40
0.023760008 -0.010800019 0.75600004 6.4573375e-40
0.025166675 -0.010785757 0.75500005 4.6206135e-40
0.026604772 -0.010785763 0.755 7.3792517e-40
0.02804286 -0.010785734 0.75500005 9.2124164e-40
0.029480964 -0.010785763 0.755 9.2160457e-40
0.03091906 -0.010785768 0.755 9.2123743e-40
0.032228582 -0.010742912 0.75200003 1.013782e-39
0.033660959 -0.010742903 0.75200003 1.1059804e-39
0.035 -0.010714305 0.75000006 1.2900143e-39
0.036428578 -0.01071431 0.75000006 1.3818512e-39
0.037756193 -0.010685726 0.74800003 1.4740469e-39
0.039128587 -0.010671476 0.74700004 1.5669614e-39
0.040334295 -0.01061433 0.74300003 8.3156134e-40
0.041693337 -0.010600021 0.74200004 9.3308261e-41
0.042816192 -0.010528621 0.73699999 3.673836e-39
0.044040006 -0.010485762 0.73400003 7.2010416e-39
0.04531429 -0.010457166 0.73200005 1.5336166e-38
0.046517156 -0.01041435 0.72899997 2.341769e-38
0.047905721 -0.010414335 0.72900003 2.341769e-38
0.049226679 -0.010400041 0.72800004 2.341769e-38
0.050196201 -0.010314343 0.722 2.341769e-38
-0.020051422 -0.0089885993 0.72600001 9.2233885e-40
-0.01871999 -0.0090133855 0.72799999 7.3759306e-40
-0.017357141 -0.0090257404 0.72900003 5.5357175e-40
-0.016012384 -0.0090504745 0.73100001 7.3689242e-40
-0.014639999 -0.0090628667 0.73200011 1.0116758e-39
-0.013281899 -0.0090876622 0.73400003 9.2019206e-40
-0.011916181 -0.0091124298 0.73600006 8.2835517e-40
-0.010528568 -0.0091247847 0.73700005 8.287111e-40
-0.0091495179 -0.0091495579 0.73900002 9.2090112e-40
-0.007752372 -0.009161952 0.74000001 8.2870129e-40
-0.0063428483 -0.0091619501 0.74000001 8.2834956e-40
-0.0049533262 -0.0091990838 0.74300003 7.368784e-40
-0.0035476116 -0.0092238495 0.74500006 6.4613732e-40
-0.0021285652 -0.0092238421 0.74500006 7.3691344e-40
-0.00070951338 -0.0092238626 0.745 9.2020748e-40
0.00071238034 -0.0092609534 0.74800003 7.36877e-40
0.0021371429 -0.0092609534 0.74800003 5.54278e-40
0.0035714307 -0.0092857247 0.75000006 3.706014e-40
0.0050000045 -0.0092857322 0.75000006 2.7912044e-40
0.0064285723 -0.0092857154 0.75000006 5.5354652e-40
0.0078780996 -0.0093104988 0.75200003 9.2088711e-40
0.0093104839 -0.0093105137 0.75200003 7.3757345e-40
0.010742869 -0.0093105352 0.75200003 5.5425838e-40
0.012175249 -0.0093105258 0.75200003 5.5389545e-40
0.013607628 -0.0093105165 0.75200003 4.6205855e-40
0.015040011 -0.0093105296 0.75200003 4.6241588e-40
0.016538106 -0.0093476605 0.755 4.6242149e-40
0.0179762 -0.0093476651 0.755 7.3793218e-40
0.019414289 -0.0093476381 0.75500005 1.0127184e-39
0.020852391 -0.0093476661 0.755 9.208787e-40
0.022290485 -0.0093476707 0.755 9.208829e-40
0.023728581 -0.0093476661 0.75500005 8.2869148e-40
0.025166677 -0.0093476726 0.755 7.3613852e-40
0.026604768 -0.0093476437 0.75500005 9.2088431e-40
0.027968587 -0.0093229376 0.75299996 1.1038434e-39
0.029402869 -0.0093229031 0.75300002 1.2882375e-39
0.030796204 -0.0093105333 0.75199997 1.3797003e-39
0.032142859 -0.0092857266 0.75000006 1.1970914e-39
0.033481907 -0.0092609711 0.74800003 1.0141449e-39
0.034906674 -0.009260973 0.74800003 1.1978229e-39
0.036282863 -0.0092485938 0.74700004 1.3811352e-39
0.037604764 -0.0092238504 0.74500006 1.6577165e-39
0.038919054 -0.0091990801 0.74299997 2.0264878e-39
0.040280007 -0.0091866991 0.74200004 1.1048986e-39
0.041580964 -0.0091619464 0.74000001 9.2246077e-41
0.042816196 -0.0091248052 0.73699999 7.0865009e-39
0.044040006 -0.0090876436 0.73400003 1.4201727e-38
0.045314293 -0.0090628816 0.73200005 1.8818023e-38
0.046517152 -0.0090257684 0.72899997 2.341769e-38
0.047840007 -0.0090133669 0.72800004 2.341769e-38
0.049091432 -0.0089885974 0.72600001 2.341769e-38
-0.02013428 -0.0076371911 0.72899997 9.2090252e-40
-0.018745704 -0.0076372023 0.72899997 8.2799083e-40
-0.017404759 -0.0076581198 0.73100001 7.3652387e-40
-0.01601238 -0.0076581142 0.73100001 9.1984734e-40
-0.014639999 -0.0076685823 0.73200011 1.1035127e-39
-0.013245715 -0.0076685841 0.73200005 1.0113129e-39
-0.011916187 -0.0077105067 0.73600006 8.2835797e-40
-0.010528565 -0.0077209915 0.73700005 9.205508e-40
-0.0091495188 -0.0077419332 0.73900002 9.2053959e-40
-0.0077419011 -0.0077419276 0.73900002 9.2052978e-40
-0.0063599925 -0.0077733747 0.74199998 8.2870549e-40
-0.004946663 -0.0077733542 0.74200004 7.3652247e-40
-0.0035380919 -0.007783826 0.74300003 5.5322002e-40
-0.0021285599 -0.0078048198 0.74500006 6.44708e-40
-0.00070952036 -0.0078047845 0.74500006 7.3653228e-40
0.00071143528 -0.0078257499 0.7470001 7.3652107e-40
0.0021371462 -0.0078362087 0.74800003 6.4576037e-40
0.0035619084 -0.0078362087 0.74800003 5.5392347e-40
0.0050000073 -0.0078571802 0.75000006 3.6988955e-40
0.0064285761 -0.0078571616 0.75000006 7.3615113e-40
0.0078781042 -0.0078781368 0.75200003 1.1038476e-39
0.0092857163 -0.0078571504 0.75000006 1.0123667e-39
0.010742861 -0.0078781163 0.75200003 8.2905021e-40
0.012175253 -0.007878162 0.75200003 7.3721051e-40
0.013607631 -0.0078781527 0.75200003 5.5353531e-40
0.015040009 -0.0078781433 0.75200003 6.4464774e-40
0.01647239 -0.0078781322 0.75200003 7.3756504e-40
0.017904771 -0.0078781471 0.75200003 9.2124164e-40
0.019337153 -0.0078781378 0.75200003 1.1045553e-39
0.020769531 -0.0078781275 0.75200003 1.1038392e-39
0.022201916 -0.007878148 0.75199997 1.104198e-39
0.023634294 -0.0078781387 0.75199997 1.0120051e-39
0.025066677 -0.0078781536 0.75200003 9.208815e-40
0.026428577 -0.0078571588 0.75000006 1.1052644e-39
0.027857149 -0.0078571662 0.75000006 1.2882389e-39
0.029207623 -0.007836218 0.74800003 1.5634063e-39
0.030632382 -0.0078361956 0.74800003 1.8392561e-39
0.032057144 -0.0078361938 0.74800003 1.3807793e-39
0.033437155 -0.0078257676 0.74700004 8.3048654e-40
0.034766678 -0.0078048245 0.74500006 1.1056371e-39
0.036088575 -0.0077838446 0.74300003 1.2896724e-39
0.037503812 -0.0077838241 0.74300003 1.9325265e-39
0.038866665 -0.0077733374 0.74200004 2.4824465e-39
0.040171433 -0.0077524032 0.74000001 1.2860585e-39
0.041412391 -0.0077209971 0.73700005 9.2297925e-41
0.042816192 -0.0077209896 0.73699999 1.0561647e-38
0.044040002 -0.0076895501 0.73400003 2.1090877e-38
0.045252383 -0.0076581216 0.73100001 2.2315664e-38
0.046517149 -0.0076371818 0.72900003 2.341769e-38
0.04784001 -0.0076267249 0.72800004 2.341769e-38
0.049023822 -0.007595263 0.72500002 2.341769e-38
0.050196201 -0.0075638606 0.72200006 2.341769e-38
0.051428575 -0.007542891 0.72000003 2.341769e-38
0.052726675 -0.0075324322 0.71900004 2.341769e-38
-0.020189522 -0.0062657422 0.73100001 9.2018506e-40
-0.018797146 -0.0062657068 0.73100001 8.2834536e-40
-0.017404763 -0.0062657273 0.73100001 8.2835797e-40
-0.016012384 -0.0062657217 0.73100001 9.2020608e-40
-0.014619996 -0.0062657404 0.73100001 1.0116786e-39
-0.013245713 -0.0062742992 0.73200005 9.2019627e-40
-0.011883806 -0.0062914542 0.73400003 9.2019627e-40
-0.010528566 -0.0063171755 0.73700005 1.0120304e-39
-0.0091495216 -0.0063343062 0.73900002 1.1038504e-39
-0.007741902 -0.0063343043 0.73900002 1.0123583e-39
-0.0063428511 -0.0063428893 0.74000001 8.2870269e-40
-0.0049466607 -0.0063600312 0.74200004 6.4504711e-40
-0.0035380938 -0.0063685826 0.74300003 5.5285709e-40
-0.0021228534 -0.0063685938 0.74300003 6.4469679e-40
-0.00070951501 -0.0063857618 0.74500006 8.2800484e-40
0.00071143574 -0.0064028944 0.74700004 7.3688261e-40
0.0021342931 -0.0064028944 0.74700004 6.4612471e-40
0.0035571447 -0.0064028646 0.7470001 6.4576738e-40
0.0049866745 -0.0064114644 0.74800003 6.4432824e-40
0.0064114314 -0.0064114402 0.74800003 7.3615954e-40
0.0078571467 -0.0064285914 0.75000006 9.1946619e-40
0.009285721 -0.006428597 0.75000006 8.2869989e-40
0.010714288 -0.0064285821 0.75000006 7.3686019e-40
0.01214286 -0.0064285896 0.75000006 7.3721331e-40
0.013571436 -0.0064286045 0.75 7.3720491e-40
0.015040013 -0.0064457781 0.75200003 8.2939073e-40
0.016428577 -0.0064285952 0.75000006 9.2195069e-40
0.017857147 -0.0064286008 0.75000006 1.1049098e-39
0.019285718 -0.0064285859 0.75000006 1.2878704e-39
0.02071429 -0.0064285914 0.75000006 1.1960405e-39
0.022142857 -0.0064285756 0.75000006 1.1045609e-39
0.023571437 -0.0064286157 0.75000006 9.2124584e-40
0.025000008 -0.0064285989 0.75000006 7.382825e-40
0.026428578 -0.0064286063 0.75000006 9.2122622e-40
0.027782861 -0.0064114421 0.74800003 1.105291e-39
0.029207624 -0.0064114411 0.74800003 1.2882795e-39
0.030591438 -0.0064028851 0.7470001 1.5637678e-39
0.03192858 -0.0063857674 0.74500006 1.289678e-39
0.033258107 -0.0063686087 0.74300003 1.1070818e-39
0.034673348 -0.0063686199 0.74299997 1.1981971e-39
0.036040004 -0.0063600293 0.74200004 1.3822394e-39
0.037453335 -0.0063600088 0.74200004 1.3815331e-39
0.038709525 -0.0063343043 0.73900002 1.2868012e-39
0.040008575 -0.006317168 0.73700005 2.8476192e-39
0.041412391 -0.0063171829 0.73699999 4.4086195e-39
0.042758107 -0.0063086296 0.73600006 1.3362376e-38
0.043920003 -0.0062742992 0.73200005 2.2315642e-38
0.045252379 -0.0062657255 0.73100001 2.2866677e-38
0.046453342 -0.0062400452 0.72800004 2.341769e-38
0.047642861 -0.0062142997 0.72500002 2.341769e-38
0.049023822 -0.0062143183 0.72500002 2.341769e-38
0.050196197 -0.0061886157 0.72200006 2.341769e-38
0.051428579 -0.006171457 0.72000003 2.341769e-38
-0.02013428 -0.0048600431 0.72900003 9.2091513e-40
-0.018745711 -0.0048600282 0.72900003 9.1983333e-40
-0.017404757 -0.0048733628 0.73100001 8.2872791e-40
-0.016012384 -0.0048733237 0.73100001 9.2021729e-40
-0.014640003 -0.004879992 0.73200005 9.2092634e-40
-0.013245711 -0.0048800143 0.73200005 9.216354e-40
-0.011916184 -0.004906706 0.73600006 9.2091794e-40
-0.010514278 -0.0049067135 0.73600006 1.1035141e-39
-0.0091247549 -0.0049133743 0.73699999 1.2878942e-39
-0.0077419039 -0.0049266792 0.73900002 1.1038546e-39
-0.0063428497 -0.0049333773 0.74000001 8.2943136e-40
-0.0049333307 -0.0049333512 0.74000001 6.4576738e-40
-0.0035333296 -0.0049466877 0.74200004 4.6173905e-40
-0.0021228481 -0.0049533821 0.74300003 6.4541145e-40
-0.00070761907 -0.0049533374 0.74300003 8.287139e-40
0.00070953072 -0.0049667018 0.74500006 7.3686999e-40
0.0021285766 -0.0049666944 0.74500006 6.4576037e-40
0.0035476286 -0.0049667149 0.74500006 7.3796301e-40
0.0049800072 -0.0049800347 0.74700004 8.2836357e-40
0.0064028576 -0.0049800011 0.7470001 7.3581201e-40
0.0078361901 -0.0049866657 0.74800003 6.4468978e-40
0.0092609525 -0.0049866675 0.74800003 6.4612191e-40
0.01071429 -0.0050000264 0.75000006 6.4575336e-40
0.012142863 -0.0050000339 0.75000006 7.3722172e-40
0.013571433 -0.005000019 0.75000006 8.2976768e-40
0.015000004 -0.0050000246 0.75000006 9.219549e-40
0.016428573 -0.0050000078 0.75000006 1.013796e-39
0.017857153 -0.0050000469 0.75000006 1.1971153e-39
0.019285722 -0.005000032 0.75000006 1.3797143e-39
0.020714294 -0.0050000395 0.75000006 1.2871669e-39
0.022142861 -0.0050000208 0.75000006 1.1045707e-39
0.023571435 -0.0050000302 0.75000006 8.2978029e-40
0.024933331 -0.0049866638 0.74800003 4.6242989e-40
0.026358094 -0.0049866657 0.74800003 6.4465755e-40
0.027782863 -0.0049866973 0.74800003 8.2906703e-40
0.029090486 -0.0049667056 0.74500006 1.1045959e-39
0.030509533 -0.0049667018 0.74500006 1.288969e-39
0.03192858 -0.0049667205 0.745 1.2900312e-39
0.033258095 -0.0049533392 0.74300003 1.2903941e-39
0.034626678 -0.0049467026 0.74199998 1.3818751e-39
0.036040001 -0.0049466821 0.74199998 1.4744238e-39
0.037352387 -0.0049333717 0.74000001 8.3264734e-40
0.038709529 -0.0049266811 0.73900008 9.4004706e-41
0.040008578 -0.004913352 0.73699999 4.4084682e-39
0.041356202 -0.0049067209 0.73600006 8.7650785e-39
0.042758103 -0.0049067023 0.73600006 1.6162663e-38
0.04386 -0.0048733461 0.73100001 2.3417679e-38
0.04512858 -0.0048600561 0.72899997 2.341769e-38
0.046325725 -0.0048400457 0.72600001 2.341769e-38
0.047642864 -0.0048333588 0.72500002 2.341769e-38
0.049023822 -0.0048333569 0.72499996 2.341769e-38
0.050196197 -0.0048133689 0.72200006 2.341769e-38
0.051428579 -0.0048000473 0.72000003 2.341769e-38
-0.020134276 -0.0034714893 0.72899997 1.2900648e-39
-0.018745707 -0.0034714707 0.72900003 1.1971447e-39
-0.017404759 -0.0034809702 0.73100001 1.1049631e-39
-0.016012382 -0.0034809608 0.73100001 1.0134989e-39
-0.014640003 -0.0034857069 0.73200005 9.2236828e-40
-0.013245711 -0.0034857329 0.73200005 9.2235567e-40
-0.011916183 -0.0035048027 0.73600006 9.2199974e-40
-0.010514274 -0.0035048195 0.73600006 1.0131206e-39
-0.0091247559 -0.0035095599 0.73699999 1.105312e-39
-0.0077209501 -0.0035095431 0.73700005 1.0134737e-39
-0.0063342811 -0.0035190762 0.73900002 9.2235427e-40
-0.004926662 -0.0035190724 0.73900002 7.3796301e-40
-0.0035333277 -0.0035333626 0.74200004 6.4540865e-40
-0.0021199987 -0.003533344 0.74200004 7.3724274e-40
-0.00070761371 -0.0035381236 0.74300003 8.2834816e-40
0.00070762663 -0.0035381347 0.74299997 8.2833415e-40
0.0021228616 -0.0035381143 0.74300003 7.368728e-40
0.0035476291 -0.0035476696 0.745 8.2872231e-40
0.0049666734 -0.0035476529 0.74500006 9.2020608e-40
0.0063857255 -0.0035476733 0.74500006 8.2837619e-40
0.0078257201 -0.0035571728 0.74700004 7.3618056e-40
0.0092485771 -0.0035571728 0.74700004 6.4577859e-40
0.010685718 -0.0035619226 0.74800003 5.5428921e-40
0.012110475 -0.0035618965 0.74800003 7.3830633e-40
0.013535236 -0.0035618984 0.74800003 9.2268918e-40
0.014960007 -0.0035619319 0.74800003 1.0138016e-39
0.016384769 -0.0035619319 0.74800003 1.1056427e-39
0.017809525 -0.0035619095 0.74800003 1.1971251e-39
0.019234287 -0.0035619077 0.74800003 1.2878886e-39
0.020659048 -0.0035619095 0.74800003 1.1967747e-39
0.022083815 -0.0035619114 0.74800003 1.105298e-39
0.023508575 -0.0035619207 0.74800003 8.3014883e-40
0.024933338 -0.0035619189 0.74800003 5.5463673e-40
0.026252398 -0.0035476789 0.745 7.3758326e-40
0.027671436 -0.0035476435 0.74500006 1.0127394e-39
0.029012391 -0.0035381273 0.74299997 1.1971349e-39
0.030427622 -0.0035381031 0.74300003 1.4729889e-39
0.031842861 -0.003538118 0.74300003 1.4733364e-39
0.033213332 -0.0035333422 0.74200004 1.4740651e-39
0.03462667 -0.0035333459 0.74200004 1.1985684e-39
0.035942867 -0.0035238613 0.74000001 9.2340104e-40
0.037352391 -0.0035238576 0.74000001 5.5388564e-40
0.038709525 -0.0035190557 0.73900008 1.8403673e-40
0.040008578 -0.0035095618 0.73700005 8.117048e-39
0.041356198 -0.0035047934 0.73600006 1.6140989e-38
0.042641908 -0.0034952716 0.73400009 1.9738889e-38
0.043859996 -0.0034809497 0.73100001 2.341769e-38
0.045128576 -0.0034714707 0.72899997 2.341769e-38
0.046325721 -0.00345716 0.72600001 2.341769e-38
0.047642864 -0.0034524177 0.72500002 2.341769e-38
0.049023818 -0.0034523823 0.72500002 2.341769e-38
0.050265722 -0.0034428753 0.72300005 2.341769e-38
0.05157144 -0.0034381442 0.722 2.341769e-38
-0.020189522 -0.0020885945 0.73100001 1.5641406e-39
-0.018797142 -0.002088587 0.73100001 1.4730155e-39
-0.017404763 -0.0020885759 0.73100007 1.2889844e-39
-0.016012384 -0.0020885684 0.73100001 1.1056721e-39
-0.014640002 -0.002091422 0.73200005 9.2235567e-40
-0.013245711 -0.0020914518 0.73200005 9.227116e-40
-0.011883803 -0.0020971813 0.73400003 8.3052157e-40
-0.010528564 -0.0021057532 0.73699999 8.2980971e-40
-0.0091247568 -0.0021057439 0.73699999 8.3017405e-40
-0.0077419057 -0.0021114268 0.73900002 9.2201655e-40
-0.0063342815 -0.0021114491 0.73900002 9.2200955e-40
-0.0049266634 -0.0021114491 0.73900002 9.2164241e-40
-0.0035238031 -0.0021143176 0.74000001 8.2944818e-40
-0.0021199961 -0.0021200192 0.74200004 8.2908805e-40
-0.00070761488 -0.0021228802 0.74300003 8.2872231e-40
0.00070762524 -0.0021228914 0.74300003 8.2799924e-40
0.0021228616 -0.0021228783 0.74299997 8.2872231e-40
0.0035381017 -0.0021228914 0.74299997 9.2020468e-40
0.004953336 -0.0021228709 0.74300003 9.2092634e-40
0.006368577 -0.0021228821 0.74300003 9.2093195e-40
0.00780477 -0.0021286134 0.74500006 8.2945519e-40
0.0092238169 -0.0021286078 0.74500006 6.4614293e-40
0.010671434 -0.0021343112 0.7470001 4.6317819e-40
0.012094291 -0.0021343112 0.74700004 7.3939233e-40
0.013535241 -0.0021371518 0.74800003 9.2234025e-40
0.014960002 -0.0021371536 0.74800003 1.0134541e-39
0.016384767 -0.0021371536 0.74800003 1.1060098e-39
0.017809523 -0.0021371313 0.74800003 1.1978495e-39
0.01923429 -0.0021371648 0.74800003 1.1974964e-39
0.020631434 -0.0021343038 0.74700004 1.1978608e-39
0.022054294 -0.002134328 0.74700004 1.1060211e-39
0.023477145 -0.0021342963 0.7470001 8.3122783e-40
0.024833342 -0.0021286171 0.745 5.553584e-40
0.026252389 -0.0021286022 0.74500006 9.2233885e-40
0.027597152 -0.0021229025 0.74299997 1.1971335e-39
0.029012388 -0.0021228821 0.74300003 1.3811702e-39
0.030427627 -0.0021228932 0.74300003 1.5644755e-39
0.031842865 -0.0021229063 0.74300003 1.656304e-39
0.033213336 -0.0021200192 0.74200004 1.6573844e-39
0.03462667 -0.0021199968 0.74200004 1.0149002e-39
0.035942864 -0.0021143158 0.74000001 3.6990776e-40
0.037301909 -0.0021114659 0.73900002 3.6776518e-40
0.038604766 -0.0021057308 0.73700005 3.0253473e-40
0.040008575 -0.0021057457 0.73699999 1.1917992e-38
0.041356202 -0.0021029238 0.73600006 2.34072e-38
0.042641912 -0.0020971831 0.73400003 2.341769e-38
0.043860003 -0.0020885889 0.73100001 2.341769e-38
0.04512858 -0.0020829116 0.72900003 2.341769e-38
0.046453342 -0.0020800487 0.72800004 2.341769e-38
0.047642864 -0.0020714451 0.72500002 2.341769e-38
0.049023814 -0.0020714432 0.72500002 2.341769e-38
0.050404768 -0.0020714414 0.72500002 2.341769e-38
0.051642861 -0.0020657342 0.72300005 2.341769e-38
-0.018797144 -0.00069619279 0.73100001 2.2073464e-39
-0.017404759 -0.00069621141 0.73100001 1.6563194e-39
-0.01601238 -0.00069620769 0.73100001 1.3807975e-39
-0.014640002 -0.00069714274 0.73200011 1.1063728e-39
-0.013245711 -0.00069716881 0.73200005 1.0141842e-39
-0.011883803 -0.00069908734 0.73400003 9.227144e-40
-0.010514278 -0.00070099282 0.73600006 7.3869168e-40
-0.0091247531 -0.00070195395 0.73699999 5.5503751e-40
-0.007741902 -0.00070382777 0.73900008 7.3872391e-40
-0.0063342834 -0.00070382591 0.73900002 9.2166483e-40
-0.0049266648 -0.00070382404 0.73900002 7.3797982e-40
-0.0035238017 -0.00070480752 0.74000001 6.4650306e-40
-0.0021199943 -0.00070669811 0.74200004 7.3797982e-40
-0.00070666493 -0.00070667762 0.74200004 8.2981532e-40
0.00070762617 -0.0007076555 0.74299997 9.2093335e-40
0.0021228602 -0.00070763502 0.74300003 1.012766e-39
0.0035380998 -0.00070764619 0.74300003 1.013122e-39
0.0049533411 -0.00070765737 0.74300003 1.105319e-39
0.0063685756 -0.00070763874 0.74300003 1.1049631e-39
0.0077838153 -0.00070764805 0.74300003 1.1060407e-39
0.0091990549 -0.00070766109 0.74300003 9.2201235e-40
0.010642862 -0.00070954795 0.74500006 8.3052858e-40
0.012061913 -0.00070956472 0.74500006 9.227144e-40
0.013517145 -0.00071144971 0.7470001 1.1060225e-39
0.014940005 -0.00071144971 0.74700004 1.1063756e-39
0.016362863 -0.00071145158 0.74700004 1.015259e-39
0.017785717 -0.00071144599 0.7470001 1.1067371e-39
0.019157149 -0.00070954609 0.74500006 1.1063854e-39
0.0205762 -0.00070956285 0.74500006 1.0138394e-39
0.021995245 -0.00070955913 0.745 9.2235567e-40
0.023414299 -0.00070957589 0.745 9.2270739e-40
0.024766676 -0.00070766854 0.74300003 9.2306473e-40
0.026181912 -0.00070764619 0.74300003 1.1056581e-39
0.027597154 -0.00070765737 0.74300003 1.2886173e-39
0.028973337 -0.00070667575 0.74200004 1.3808171e-39
0.030386673 -0.00070668693 0.74199998 1.5641265e-39
0.031800002 -0.00070669252 0.74200004 1.8403477e-39
0.033123817 -0.00070480566 0.74000001 2.2087645e-39
0.03453334 -0.0007048038 0.74000001 1.2882557e-39
0.03589429 -0.00070381846 0.73900002 2.759521e-40
0.037200954 -0.00070192415 0.73700005 3.9583795e-39
0.038604766 -0.00070193718 0.73700005 7.6581017e-39
0.039954294 -0.00070101331 0.73600006 1.559266e-38
0.041243821 -0.0006990892 0.73399997 2.341769e-38
0.042525716 -0.00069714087 0.73200005 2.341769e-38
0.043740008 -0.00069434691 0.72899997 2.341769e-38
0.045128576 -0.00069433014 0.72900003 2.341769e-38
0.046453342 -0.00069338392 0.72799999 2.341769e-38
0.047708578 -0.00069143932 0.72600001 2.341769e-38
0.049091436 -0.00069146912 0.72600001 2.341769e-38
0.050404768 -0.00069049682 0.72500002 2.341769e-38
-0.016012384 0.00069618662 0.73100001 1.6548971e-39
-0.01464 0.00069714402 0.73200011 1.2889886e-39
-0.013245711 0.00069711794 0.73200005 1.1053176e-39
-0.011883808 0.00069902715 0.73400003 9.2236268e-40
-0.010514276 0.00070090097 0.73600006 6.4685619e-40
-0.0091247549 0.0007018621 0.73699999 2.7987854e-40
-0.0077209473 0.00070187886 0.73700005 6.4722473e-40
-0.0063342839 0.00070380111 0.73900002 9.2201515e-40
-0.0049266657 0.00070380297 0.73900002 6.4543247e-40
-0.0035190424 0.00070378062 0.73900002 3.7099937e-40
-0.0021142764 0.00070471008 0.74000001 6.4686319e-40
-0.00070666306 0.00070664537 0.74200004 8.3017685e-40
0.0007066711 0.00070664351 0.74200004 1.0134919e-39
0.0021200001 0.00070666213 0.74200004 1.1053232e-39
0.0035333352 0.00070665841 0.74200004 1.1971559e-39
0.0049533355 0.00070761208 0.74300003 1.1968014e-39
0.0063600051 0.00070664164 0.74200004 1.2875649e-39
0.0077838157 0.00070758787 0.74299997 1.2886425e-39
0.0091990475 0.00070760836 0.74300003 1.1971657e-39
0.010642866 0.00070947286 0.74500006 1.1064064e-39
0.012061913 0.00070948031 0.745 1.1982419e-39
0.013480957 0.00070949335 0.74500006 1.2907823e-39
0.014900008 0.00070947659 0.74500006 1.1074588e-39
0.016362866 0.00071138208 0.74700004 9.2343046e-40
0.017738102 0.00070949522 0.74500006 1.01491e-39
0.019157147 0.0007095008 0.74500006 1.0141996e-39
0.0205762 0.00070948404 0.74500006 8.2910066e-40
0.021936195 0.00070759159 0.74299997 6.4649605e-40
0.023351431 0.00070761394 0.74300003 9.216326e-40
0.024766671 0.00070760277 0.74300003 1.1974978e-39
0.026181912 0.00070758973 0.74300003 1.288976e-39
0.027560005 0.00070665096 0.74200004 1.2886229e-39
0.028973341 0.00070664909 0.74200004 1.380464e-39
0.030386675 0.00070663606 0.74199998 1.4723065e-39
0.031714287 0.00070473616 0.74000001 2.1158794e-39
0.033123817 0.00070474175 0.74000001 2.7576461e-39
0.034486677 0.00070377317 0.73900002 1.4697911e-39
0.035797153 0.00070185092 0.73699999 1.8773616e-40
0.037200954 0.00070189004 0.73700005 7.6228787e-39
0.038552396 0.00070089911 0.73600006 1.5017162e-38
0.039845716 0.0006990346 0.73400003 1.9285093e-38
0.041131433 0.00069713843 0.73200005 2.341769e-38
0.042467624 0.0006961624 0.73100001 2.341769e-38
0.043740012 0.00069423829 0.72899997 2.341769e-38
0.045066677 0.00069329207 0.72800004 2.341769e-38
0.046453342 0.00069328834 0.72800004 2.341769e-38
0.047708582 0.00069138844 0.72600001 2.341769e-38
0.049091432 0.00069141452 0.72600001 2.341769e-38
0.050404765 0.00069046457 0.72500002 2.341769e-38
-0.01464 0.0020914234 0.73200011 1.6570705e-39
-0.013245711 0.0020913973 0.73200005 1.4733911e-39
-0.011883805 0.0020971193 0.73400003 1.2897131e-39
-0.010514276 0.0021028079 0.73600006 1.0141982e-39
-0.0091247559 0.0021056782 0.73699999 8.3088031e-40
-0.0077209491 0.002105695 0.73700005 8.3051457e-40
-0.0063171368 0.0021056801 0.73700005 8.3017125e-40
-0.0049133287 0.0021056894 0.73699999 5.5396131e-40
-0.0035190431 0.002111404 0.73900002 2.7988555e-40
-0.0021114245 0.0021114077 0.73900002 3.7063924e-40
-0.00070666074 0.0021199703 0.74200004 4.631964e-40
0.0007066683 0.0021199908 0.74200004 5.5395991e-40
0.0021200024 0.002119987 0.74200004 6.4722753e-40
0.0035333324 0.0021200057 0.74200004 7.3762389e-40
0.0049466728 0.0021199703 0.74199998 8.2982373e-40
0.0063600074 0.0021199647 0.74200004 1.0124241e-39
0.007773336 0.002119987 0.74200004 1.1964539e-39
0.0091990549 0.0021228201 0.74300003 1.1053358e-39
0.010614295 0.0021228089 0.74299997 1.015301e-39
0.012029529 0.0021228294 0.74300003 1.1067848e-39
0.013444769 0.0021228183 0.74300003 1.1078427e-39
0.014860006 0.0021228313 0.74299997 9.2343467e-40
0.016319057 0.0021285347 0.74500006 6.4793098e-40
0.017690482 0.0021228406 0.74300003 8.3088731e-40
0.019105723 0.0021228276 0.74300003 1.014208e-39
0.020520955 0.0021228499 0.74300003 9.2202076e-40
0.021936197 0.0021228369 0.74300003 8.3052998e-40
0.023351438 0.0021228257 0.74300003 9.2199273e-40
0.024733344 0.0021199591 0.74200004 1.1053078e-39
0.026146673 0.0021199815 0.74200004 1.1971447e-39
0.027560007 0.0021199759 0.74200004 1.3801052e-39
0.02889524 0.0021142762 0.74000001 1.7474528e-39
0.030304773 0.0021142464 0.74000001 2.1148116e-39
0.031671431 0.002111417 0.73900008 2.3914097e-39
0.03307905 0.0021114207 0.73900002 2.5725612e-39
0.034486677 0.0021113965 0.73900002 3.8686516e-39
0.035797153 0.0021056652 0.73699999 5.2491239e-39
0.037200958 0.0021056838 0.73700005 8.7532921e-39
0.038552389 0.0021028246 0.73600006 1.2369741e-38
0.03984572 0.0020970951 0.73400003 1.7619498e-38
0.041075237 0.0020885773 0.73100001 2.2958513e-38
0.04246762 0.0020885568 0.73100001 2.3234019e-38
0.043740012 0.0020827993 0.72900003 2.341769e-38
0.045066677 0.0020799625 0.72800004 2.341769e-38
0.046517156 0.0020827993 0.72899997 2.341769e-38
0.047708578 0.0020742759 0.72600001 2.341769e-38
0.049091436 0.0020742442 0.72600001 2.341769e-38
