# .PCD v0.7 - Point Cloud Data file format
VERSION 0.7
FIELDS x y z rgb
SIZE 4 4 4 4
TYPE F F F F
COUNT 1 1 1 1
WIDTH 946
HEIGHT 1
VIEWPOINT 0 0 0 1 0 0 0
POINTS 946
DATA ascii
-0.01933334 -0.057999998 0.70000005 8.2868587e-40
-0.020519985 -0.066119984 0.79800004 6.4465755e-40
-0.019000007 -0.066120014 0.79800004 4.6026209e-40
-0.017479999 -0.066120006 0.79800004 4.6025508e-40
-0.014020003 -0.058082864 0.70100003 3.6842519e-40
-0.012684777 -0.058082867 0.70100003 2.765939e-40
-0.011333359 -0.058000017 0.70000005 9.3283037e-41
-0.010014286 -0.058082845 0.70099998 2.7731416e-40
-0.0086790361 -0.058082841 0.70100003 4.6062642e-40
-0.0073438068 -0.058082849 0.70099998 4.6062642e-40
0.006094269 -0.058911435 0.71099997 6.2733652e-39
0.0074485536 -0.058911435 0.71100003 1.2362172e-38
0.0088028368 -0.058911439 0.71100003 1.7538006e-38
0.010142859 -0.05882857 0.71000004 2.2577823e-38
-0.079621911 -0.062090475 0.76700002 2.2202607e-39
-0.078160957 -0.062090483 0.76700002 3.0507291e-39
-0.076500013 -0.061928585 0.76499999 3.9741007e-39
-0.074650489 -0.061604768 0.76100004 2.5868768e-39
-0.073104762 -0.06152381 0.76000005 1.2950856e-39
-0.071468577 -0.061361905 0.75800002 1.2929361e-39
-0.069840044 -0.061200038 0.75600004 1.2900564e-39
-0.068309546 -0.061119065 0.75500005 1.4740763e-39
-0.066694282 -0.060957141 0.75300002 1.5673663e-39
-0.064826697 -0.060552407 0.74800003 1.7550016e-39
-0.063147634 -0.060309533 0.74500006 1.8504146e-39
-0.061314259 -0.059904732 0.74000001 4.1556193e-39
-0.059661932 -0.059661929 0.73700005 6.45904e-39
-0.05817904 -0.059580937 0.736 5.9026461e-39
-0.056468584 -0.059257157 0.73200005 5.3473199e-39
-0.054999039 -0.059176177 0.73100001 4.4217819e-39
-0.053606652 -0.059176181 0.73100001 3.5873675e-39
-0.052071437 -0.059014294 0.72900003 2.5771728e-39
-0.050613336 -0.058933329 0.72800004 1.6570298e-39
-0.049091451 -0.05877145 0.72600001 1.2889746e-39
-0.047445677 -0.058447577 0.72200006 1.0145485e-39
-0.045942858 -0.058285713 0.71999997 9.2307594e-40
-0.044509508 -0.058204748 0.71900004 9.22713e-40
-0.04302001 -0.058042869 0.71700001 9.2234866e-40
-0.041654285 -0.058042854 0.71699995 9.227144e-40
-0.039782863 -0.057314292 0.708 1.1049561e-39
-0.038434304 -0.057314299 0.708 1.3790122e-39
-0.037033346 -0.057233341 0.70700002 2.0257899e-39
-0.035686675 -0.057233341 0.70699996 2.7555329e-39
-0.034340013 -0.057233348 0.70700002 5.1641436e-39
-0.032899998 -0.057071432 0.70500004 7.5737884e-39
-0.031512409 -0.056990501 0.70400006 6.3767376e-39
-0.030128568 -0.056909516 0.70300001 5.2785778e-39
-0.028707616 -0.056747615 0.70099998 4.6152017e-39
-0.027372383 -0.056747619 0.70099998 4.041178e-39
-0.026000015 -0.056666683 0.69999999 2.1154506e-39
-0.024666678 -0.056666672 0.70000005 2.7586942e-40
-0.023366675 -0.05674763 0.70100003 2.7622676e-40
-0.021999992 -0.056666665 0.70000005 2.7623376e-40
-0.020696167 -0.0567476 0.70099998 4.6062923e-40
-0.022039985 -0.064599991 0.79799998 6.4501348e-40
-0.020519981 -0.064599983 0.79800004 5.5281505e-40
-0.019000001 -0.064600006 0.79800004 4.6061802e-40
-0.017479993 -0.064599991 0.79800004 3.6877832e-40
-0.015959986 -0.064599991 0.79800004 3.6913985e-40
-0.014421932 -0.064519078 0.79699999 2.7694702e-40
-0.012903798 -0.064519048 0.79699999 2.7730716e-40
-0.011385696 -0.06451904 0.79700005 4.6133688e-40
-0.0098676272 -0.064519063 0.79699999 7.3648464e-40
-0.0083495248 -0.064519055 0.79700005 5.5281365e-40
-0.0067799776 -0.064033307 0.79100001 4.6061661e-40
-0.0052733175 -0.064033315 0.79099995 2.7694282e-40
0.006094256 -0.057557166 0.71100003 3.2279961e-39
0.0074485405 -0.057557181 0.71100003 6.2704841e-39
0.0088028237 -0.057557181 0.71100003 9.5942169e-39
0.010157134 -0.057557154 0.71099997 1.2913917e-38
0.011511421 -0.057557158 0.71100003 1.1428753e-38
-0.079725735 -0.06070859 0.76799995 2.4921771e-39
-0.078160942 -0.060629517 0.76700002 2.8580855e-39
-0.076500021 -0.060471445 0.76499999 3.2300868e-39
-0.074552372 -0.060076181 0.76000005 2.5865181e-39
-0.073104739 -0.060076166 0.75999999 1.847172e-39
-0.071280047 -0.059760038 0.75600004 1.5680796e-39
-0.069747642 -0.059680969 0.75500005 1.29112e-39
-0.068128586 -0.059522863 0.75300002 1.2893081e-39
-0.066605739 -0.059443828 0.75200003 1.291127e-39
-0.064739987 -0.05904856 0.74700004 1.1081987e-39
-0.063147634 -0.058890492 0.74500006 9.3062053e-40
-0.061231446 -0.058416203 0.73900002 4.7112972e-39
-0.059661914 -0.058258098 0.73699999 8.387252e-39
-0.058020953 -0.058020957 0.73400009 7.8409277e-39
-0.056468599 -0.057862885 0.73200011 7.2827149e-39
-0.05499905 -0.057783812 0.73100001 5.9962766e-39
-0.053460013 -0.057625726 0.72900003 4.6998233e-39
-0.051999997 -0.057546664 0.72800004 3.7728658e-39
-0.050474305 -0.057388589 0.72600001 2.76016e-39
-0.04882095 -0.057072379 0.72200006 1.8400072e-39
-0.047314312 -0.056914303 0.72000003 9.2272421e-40
-0.045879032 -0.056835227 0.71899998 8.3160197e-40
-0.044385709 -0.05667714 0.71699995 7.3904761e-40
-0.042840011 -0.056440007 0.71400005 8.3016564e-40
-0.041305732 -0.056202874 0.71099997 9.2164801e-40
-0.039895229 -0.056123804 0.70999998 1.379036e-39
-0.038380016 -0.055886682 0.70700002 1.8418163e-39
-0.037033331 -0.055886667 0.70700002 3.3223203e-39
-0.035686675 -0.055886675 0.70700002 4.7063534e-39
-0.034242865 -0.05572857 0.70500004 6.3780898e-39
-0.032853346 -0.055649534 0.70400006 8.0171172e-39
-0.031467643 -0.055570502 0.70300001 4.0577666e-39
-0.030128591 -0.055570491 0.70300007 1.0736188e-40
-0.028707609 -0.055412374 0.70099998 1.8408718e-40
-0.02733333 -0.055333328 0.70000005 1.8406055e-40
-0.026000008 -0.055333339 0.70000005 2.7586942e-40
-0.024666682 -0.05533335 0.70000005 3.6806365e-40
-0.023333341 -0.055333339 0.70000005 3.6842098e-40
-0.025048546 -0.063000932 0.79699999 3.6878672e-40
-0.023559988 -0.06307999 0.79800004 3.6879233e-40
-0.022040008 -0.063080013 0.79800004 3.6914686e-40
-0.020520002 -0.063080005 0.79800004 3.6878252e-40
-0.018999992 -0.063079998 0.79800004 3.6842239e-40
-0.017479986 -0.06307999 0.79799998 3.6806085e-40
-0.015959978 -0.063079983 0.79800004 3.6877972e-40
-0.01443997 -0.063079968 0.79800004 3.6878112e-40
-0.012903826 -0.06300097 0.79699999 3.6913985e-40
-0.011385696 -0.063000932 0.79699999 6.4536521e-40
-0.0098676253 -0.063000962 0.79699999 9.2051156e-40
-0.0083076227 -0.062684759 0.79300004 6.4500507e-40
-0.0067799729 -0.062526643 0.79100001 3.6913845e-40
-0.0052399975 -0.062131427 0.78600001 2.7730155e-40
-0.0037428685 -0.062131442 0.78600001 9.3631961e-41
0.0074485685 -0.056202851 0.71100003 9.877893e-41
0.0088028368 -0.056202874 0.71099997 1.6535812e-39
0.010157121 -0.056202874 0.71100003 3.1412501e-39
0.011511404 -0.056202877 0.71100003 3.2302228e-39
0.012847608 -0.056123823 0.71000004 3.3198288e-39
-0.081399992 -0.059399985 0.76999998 2.5825763e-39
-0.079621896 -0.059168555 0.76700002 2.3056348e-39
-0.077957183 -0.059014328 0.76500005 2.8580813e-39
-0.076300025 -0.058860026 0.76300001 3.4098104e-39
-0.07455238 -0.058628567 0.76000005 2.6758411e-39
-0.072912395 -0.058474295 0.75799996 1.9393634e-39
-0.07128004 -0.058320038 0.75600004 1.6609857e-39
-0.069747657 -0.058242884 0.75500011 1.4754944e-39
-0.068038113 -0.05801145 0.75200003 1.3825561e-39
-0.066428594 -0.057857156 0.75000006 1.2907528e-39
-0.064739987 -0.0576257 0.74700004 1.1063952e-39
-0.062978096 -0.057317138 0.74300003 9.1985575e-40
-0.061231449 -0.057008591 0.73900002 2.76948e-39
-0.059661921 -0.0568543 0.73700005 4.6191534e-39
-0.058020938 -0.05662284 0.73400003 4.7996434e-39
-0.056391437 -0.056391437 0.73100001 4.8953843e-39
-0.054999035 -0.056391418 0.73100001 4.4304265e-39
-0.053386662 -0.056159999 0.72800004 3.973777e-39
-0.051857162 -0.056005735 0.72600001 3.4113014e-39
-0.050265715 -0.055774286 0.72300005 2.943859e-39
-0.048685711 -0.05554286 0.72000003 1.9329371e-39
-0.047248565 -0.055465706 0.71900004 9.2237529e-40
-0.045751438 -0.055311445 0.71700001 9.2236268e-40
-0.044200022 -0.055080026 0.71400005 8.3089012e-40
-0.042779978 -0.055002827 0.71300006 9.2237108e-40
-0.041305747 -0.0548486 0.71100003 1.0138521e-39
-0.039782863 -0.054617155 0.708 1.1964496e-39
-0.038380004 -0.054540005 0.70700002 1.4709262e-39
-0.037033349 -0.054540012 0.70700002 2.3104063e-39
-0.035585713 -0.054385711 0.70500004 3.1545092e-39
-0.034145724 -0.054231435 0.70300007 3.6025716e-39
-0.032853339 -0.054308578 0.70400006 4.0480374e-39
-0.031467639 -0.054231443 0.70300001 2.1183345e-39
-0.030042876 -0.054077163 0.70100003 1.8404234e-40
-0.028666675 -0.054000013 0.70000005 1.8403533e-40
-0.027333353 -0.054000013 0.70000005 1.8403393e-40
-0.026000002 -0.053999998 0.70000005 2.7658549e-40
-0.024666676 -0.054000005 0.70000005 3.6842098e-40
-0.026566671 -0.061482865 0.79699999 3.6877972e-40
-0.025048569 -0.061482862 0.79699999 4.6097955e-40
-0.02355998 -0.061559983 0.79800004 4.6134389e-40
-0.022039974 -0.061559975 0.79800004 4.6062082e-40
-0.020519998 -0.061559997 0.79800004 3.6877972e-40
-0.018999986 -0.06155999 0.79800004 3.6806225e-40
-0.01747998 -0.061559979 0.79800004 3.6841958e-40
-0.015960004 -0.061560005 0.79800004 3.6877832e-40
-0.014439994 -0.061559997 0.79800004 3.6913705e-40
-0.012903819 -0.061482869 0.79699999 3.6913845e-40
-0.011357144 -0.061328571 0.79500002 5.5316817e-40
-0.0098676458 -0.061482888 0.79699999 6.4500367e-40
-0.0083076451 -0.061174311 0.79300004 5.5316677e-40
-0.006779972 -0.061019976 0.79099995 3.6949578e-40
-0.0052533275 -0.060788561 0.78800005 2.7766028e-40
-0.0037333318 -0.060479999 0.78399998 1.8618352e-40
-0.0022400147 -0.060480013 0.78400004 2.7766028e-40
-0.00075144274 -0.06086573 0.78900003 3.6878252e-40
0.00075143343 -0.060865708 0.78900003 3.6878532e-40
0.0074485554 -0.054848582 0.71100003 2.7591987e-40
0.0088028237 -0.054848596 0.71100003 9.1951944e-40
0.010157105 -0.054848604 0.71100003 1.654586e-39
0.011511417 -0.054848582 0.71099997 3.5006454e-39
0.012865702 -0.054848589 0.71100003 5.3455403e-39
0.014219984 -0.054848589 0.71100003 7.8372297e-39
-0.081399977 -0.057933301 0.76999998 2.1208778e-39
-0.079621896 -0.057707608 0.76700002 2.0304815e-39
-0.077957168 -0.057557173 0.76500005 2.8591589e-39
-0.076300032 -0.057406701 0.76300001 3.5941862e-39
-0.074552372 -0.057180934 0.76000005 2.7669339e-39
-0.072912395 -0.05703048 0.75800002 1.9432829e-39
-0.07128004 -0.056880035 0.75600004 1.7524358e-39
-0.069562882 -0.056654301 0.75300008 1.5673229e-39
-0.068038113 -0.056579065 0.75200003 1.4740469e-39
-0.066428579 -0.056428574 0.75 1.291113e-39
-0.064739972 -0.056202829 0.74700004 1.1071043e-39
-0.062978104 -0.055901907 0.74299997 8.2944958e-40
-0.061065737 -0.055450503 0.73700005 8.2766012e-40
-0.059419055 -0.055224765 0.73400003 8.3593199e-40
-0.05778382 -0.054999053 0.73100007 1.6592439e-39
-0.056391422 -0.054999039 0.73100001 2.4918562e-39
-0.054848604 -0.0548486 0.72900003 2.85668e-39
-0.053240016 -0.054622874 0.72600001 3.1375647e-39
-0.051785707 -0.054547608 0.72500002 3.1382808e-39
-0.050196175 -0.054321885 0.72200006 3.1364745e-39
-0.048685718 -0.054171436 0.72000003 2.0251089e-39
-0.047248572 -0.054096192 0.71900004 9.2234866e-40
-0.045751434 -0.053945724 0.71700001 9.2089832e-40
-0.044200033 -0.053720035 0.71400005 9.2199694e-40
-0.042779982 -0.05364475 0.71300006 1.0138549e-39
-0.041247621 -0.053419046 0.71000004 1.0138591e-39
-0.039782882 -0.053268597 0.708 1.1053414e-39
-0.038380019 -0.053193361 0.70700002 1.1060729e-39
-0.036928575 -0.053042848 0.70500004 1.3848206e-39
-0.035535242 -0.052967623 0.70400006 1.5720691e-39
-0.034145717 -0.052892379 0.70300007 8.2948181e-40
-0.032806672 -0.052892383 0.70300001 9.4761407e-41
-0.031467628 -0.052892387 0.70300001 1.8405074e-40
-0.030042868 -0.052741911 0.70100003 1.8440107e-40
-0.028584769 -0.0525162 0.69799995 1.8439266e-40
-0.027255228 -0.052516177 0.69799995 9.2914496e-41
-0.025888566 -0.052440949 0.69700003 2.7730295e-40
-0.028014276 -0.059814282 0.79500002 3.6913845e-40
-0.026499985 -0.059814274 0.79499996 4.6097395e-40
-0.024985699 -0.059814274 0.79500002 4.6170262e-40
-0.023530463 -0.05996475 0.79700005 4.624327e-40
-0.022039995 -0.060039997 0.79800004 4.6134389e-40
-0.020519987 -0.06003999 0.79800004 3.6877972e-40
-0.019000007 -0.060040012 0.79800004 2.7658409e-40
-0.017479973 -0.060039975 0.79800004 2.7622535e-40
-0.015959993 -0.060039997 0.79799998 2.7694282e-40
-0.014421914 -0.059964776 0.79699999 3.6913705e-40
-0.012903813 -0.059964769 0.79700005 3.6949858e-40
-0.011357138 -0.059814285 0.79500002 3.6914125e-40
-0.0098676123 -0.059964757 0.79699999 3.6949858e-40
-0.0083076414 -0.059663832 0.79300004 3.6985591e-40
-0.006779999 -0.059513334 0.79100001 3.6949578e-40
-0.0052533285 -0.059287608 0.78800005 3.6913705e-40
-0.0037428741 -0.059137162 0.78600001 2.7838055e-40
-0.0022342629 -0.058836166 0.78200006 3.7057758e-40
-0.00075144088 -0.059362873 0.78900003 3.6949998e-40
0.00075143529 -0.059362847 0.78900003 3.6878252e-40
0.0022542845 -0.059362859 0.78900003 3.6914125e-40
0.0037571327 -0.059362866 0.78900003 3.6914265e-40
0.0088028554 -0.05349429 0.71100003 2.773534e-40
0.01015714 -0.053494293 0.71100003 9.5156574e-41
0.011511408 -0.053494312 0.71100003 3.7725631e-39
0.012865689 -0.053494312 0.71100003 7.3735106e-39
0.014219971 -0.053494319 0.71100003 1.1256422e-38
0.015574286 -0.05349429 0.71099997 1.502209e-38
-0.081400007 -0.056466669 0.77000004 1.5691362e-39
-0.07972575 -0.056320038 0.76800001 1.2028816e-39
-0.078262866 -0.056320004 0.76799995 3.1353829e-39
-0.076699987 -0.056246653 0.76699996 5.0653352e-39
-0.074552394 -0.055733345 0.76000005 5.8103944e-39
-0.072720021 -0.055440016 0.75600004 6.549023e-39
-0.071185738 -0.055366687 0.75500005 4.2423708e-39
-0.069562875 -0.055220012 0.75300002 2.0264948e-39
-0.068038121 -0.055146698 0.75200003 1.8428364e-39
-0.066251427 -0.054853324 0.74800003 1.6598927e-39
-0.064393342 -0.05448667 0.74299997 1.2911256e-39
-0.062723801 -0.054266654 0.74000001 9.227158e-40
-0.060982853 -0.053973332 0.73600006 1.0134821e-39
-0.059419017 -0.053826641 0.73400003 1.19643e-39
-0.057862855 -0.053679999 0.73200005 1.5655587e-39
-0.056237176 -0.053460028 0.72900009 1.9336461e-39
-0.05477332 -0.053386651 0.72800004 2.1198563e-39
-0.05324002 -0.05324002 0.72600001 2.3974942e-39
-0.051642861 -0.053020004 0.72300005 4.6137205e-39
-0.050057143 -0.052799996 0.71999997 6.8260135e-39
-0.048618086 -0.05272666 0.71900004 5.806126e-39
-0.047248565 -0.05272666 0.71900004 4.7804905e-39
-0.04568759 -0.052506637 0.71599996 2.6678943e-39
-0.0441381 -0.052286662 0.71300006 6.471953e-40
-0.042660009 -0.052140012 0.71100003 8.3126566e-40
-0.041131444 -0.051920015 0.708 1.1064204e-39
-0.039782856 -0.051919997 0.708 1.0142332e-39
-0.038380004 -0.051846676 0.70700002 1.0142136e-39
-0.036928561 -0.051699989 0.70500004 1.0138352e-39
-0.035484772 -0.051553339 0.70300001 1.0112975e-39
-0.034048568 -0.051406667 0.70099998 6.4428761e-40
-0.032713324 -0.051406655 0.70100003 2.7623656e-40
-0.031378098 -0.051406667 0.70100003 1.8476821e-40
-0.029999999 -0.051333342 0.70000005 1.8511713e-40
-0.028543815 -0.051113337 0.69700003 1.8510732e-40
-0.027216192 -0.051113337 0.69700003 1.8510732e-40
-0.025888575 -0.051113337 0.69700003 1.8546606e-40
-0.028084759 -0.058446668 0.79699999 2.7766028e-40
-0.026566656 -0.058446664 0.79700005 3.6985451e-40
-0.025048586 -0.05844669 0.79699999 4.6170823e-40
-0.023530485 -0.058446683 0.79700005 4.6208518e-40
-0.022012385 -0.058446676 0.79699999 3.7023146e-40
-0.020519981 -0.058519982 0.79800004 2.7730155e-40
-0.019000003 -0.058520004 0.79800004 2.7730155e-40
-0.017479995 -0.058519997 0.79800004 2.7694282e-40
-0.015959987 -0.058519989 0.79800004 3.6913705e-40
-0.014421908 -0.058446676 0.79699999 2.7766028e-40
-0.012903808 -0.058446672 0.79699999 2.7874069e-40
-0.011357164 -0.058300022 0.79500002 2.7802602e-40
-0.0098428484 -0.058299985 0.79500002 2.7766449e-40
-0.0083076414 -0.058153354 0.79300004 2.7766169e-40
-0.0067800018 -0.05800667 0.79100001 2.7730295e-40
-0.0052533285 -0.057786658 0.78800005 2.7801902e-40
-0.0037428751 -0.057640024 0.78600001 2.7945955e-40
-0.0022342694 -0.057346646 0.78200012 3.7058319e-40
-0.00074288202 -0.057200026 0.78000003 4.6169561e-40
0.00074283546 -0.057200022 0.78000003 3.6949578e-40
0.0022542826 -0.057860002 0.78900003 3.6949718e-40
0.0037571327 -0.057860009 0.78900003 3.6913845e-40
0.010157123 -0.05214002 0.71100003 3.6956865e-40
0.011511391 -0.052140038 0.71100003 2.0301984e-39
0.012865705 -0.052140012 0.71099997 3.7934172e-39
0.014219988 -0.052140012 0.71099997 8.5839774e-39
0.015574269 -0.05214002 0.71100003 1.337268e-38
0.017071439 -0.052579984 0.71699995 1.3921882e-38
-0.081611417 -0.055142846 0.77200001 1.0163281e-39
-0.079725757 -0.054857172 0.76800001 3.7529575e-40
-0.078262888 -0.054857165 0.76800001 3.5056186e-39
-0.076800033 -0.054857168 0.76800001 6.5476792e-39
-0.074650489 -0.054357149 0.76100004 8.8607969e-39
-0.07291238 -0.054142848 0.75800002 1.1145548e-38
-0.07128004 -0.054000035 0.75600004 6.824601e-39
-0.069470502 -0.053714309 0.75200003 2.4006835e-39
-0.068128586 -0.053785726 0.75300002 2.2105273e-39
-0.066162854 -0.053357136 0.74700004 1.9346747e-39
-0.064393327 -0.053071424 0.74299997 1.4744322e-39
-0.062723778 -0.052857108 0.74000001 9.2306192e-40
-0.060982864 -0.052571438 0.73600006 1.1989285e-39
-0.059419032 -0.052428555 0.73400003 1.4733602e-39
-0.05786287 -0.052285723 0.73200005 1.4733616e-39
-0.056237157 -0.052071448 0.72900003 1.3822562e-39
-0.0546229 -0.051857185 0.72600001 1.4751791e-39
-0.053166673 -0.051785722 0.72500002 1.5745662e-39
-0.051571395 -0.051571392 0.72200006 6.0013423e-39
-0.049987584 -0.051357105 0.71900004 1.0412659e-38
-0.048482873 -0.0512143 0.71700001 9.5014622e-39
-0.04692002 -0.051000018 0.71400005 8.5644377e-39
-0.045496192 -0.05092857 0.71300006 4.5071588e-39
-0.043952387 -0.050714292 0.71000004 3.7279023e-40
-0.042479996 -0.050571419 0.708 7.4158957e-40
-0.041073326 -0.050499991 0.70699996 1.1067736e-39
-0.039726671 -0.050499998 0.70700002 1.0138577e-39
-0.038271409 -0.050357118 0.70500004 8.2909365e-40
-0.036823817 -0.050214291 0.70300001 6.4432965e-40
-0.035383821 -0.050071441 0.70100003 4.602789e-40
-0.034048561 -0.050071422 0.70099998 4.6025648e-40
-0.032666691 -0.050000023 0.70000005 3.6842519e-40
-0.031243823 -0.049857158 0.69800001 2.7731276e-40
-0.029914282 -0.049857147 0.69799995 1.8547166e-40
-0.028543809 -0.049785711 0.69700003 1.8510732e-40
-0.030886644 -0.056499977 0.79099995 1.8546606e-40
-0.029454313 -0.056642883 0.79300004 1.8546606e-40
-0.028084787 -0.056928597 0.79699999 1.8582479e-40
-0.026599975 -0.056999981 0.79800004 3.7057198e-40
-0.025079997 -0.057 0.79800004 4.6205855e-40
-0.023530483 -0.056928575 0.79699999 3.70593e-40
-0.022040009 -0.057000015 0.79800004 2.7803023e-40
-0.020520005 -0.057000007 0.79800004 2.7694422e-40
-0.018999966 -0.056999974 0.79800004 1.8510872e-40
-0.017479988 -0.056999993 0.79799998 2.7694282e-40
-0.01595998 -0.056999981 0.79800004 3.6877832e-40
-0.014421934 -0.056928605 0.79699999 2.7730155e-40
-0.012903804 -0.056928568 0.79699999 1.8582619e-40
-0.011357158 -0.056785733 0.79500002 1.8582899e-40
-0.0098428428 -0.056785699 0.79499996 9.3992094e-41
-0.0083285533 -0.056785695 0.79500002 1.8582619e-40
-0.0067799701 -0.056499969 0.79100001 1.8546606e-40
-0.0052533285 -0.056285705 0.78800005 1.8546606e-40
-0.0037428769 -0.056142882 0.78600001 1.8654506e-40
-0.0022399961 -0.055999994 0.78399998 3.6986012e-40
-0.00074473815 -0.055857122 0.78200006 4.6133408e-40
0.0007447619 -0.055857144 0.78200012 4.6133268e-40
0.0022342918 -0.055857137 0.78200006 3.6913985e-40
0.01848858 -0.051357124 0.71900004 1.4656209e-38
-0.081611447 -0.053672396 0.77200001 1.0130968e-39
-0.079725742 -0.053394303 0.76800001 2.7593809e-40
-0.078466669 -0.053533331 0.77000004 2.9567804e-39
-0.077000007 -0.053533327 0.77000004 5.6365605e-39
-0.075042874 -0.053185724 0.76500005 7.6580667e-39
-0.073104762 -0.052838087 0.76000011 9.673756e-39
-0.071280047 -0.052560046 0.75600004 6.6374155e-39
-0.069747649 -0.052490495 0.75500005 3.6842603e-39
-0.068128601 -0.052351452 0.75300008 3.0381132e-39
-0.065985739 -0.051795255 0.74500012 2.393485e-39
-0.064306684 -0.051586684 0.74200004 1.5659034e-39
-0.062639058 -0.051378109 0.73900002 7.3901959e-40
-0.060982842 -0.051169511 0.736 1.473698e-39
-0.059257157 -0.050891444 0.73200011 2.2076743e-39
-0.057783797 -0.0508219 0.73100001 1.7488653e-39
-0.056005724 -0.050474297 0.72600001 1.3818779e-39
-0.054547623 -0.050404765 0.72500002 1.2907556e-39
-0.053019989 -0.050265696 0.72299999 1.198979e-39
-0.051571388 -0.050196145 0.72200006 3.6936616e-39
-0.049987592 -0.049987596 0.71899998 6.1889832e-39
-0.048415236 -0.04977905 0.71600002 7.0172739e-39
-0.046854265 -0.049570456 0.71300006 7.8455758e-39
-0.045368593 -0.049431443 0.71100003 4.795263e-39
-0.043828558 -0.049222849 0.708 1.7485528e-39
-0.042419981 -0.049153317 0.70700002 1.4741267e-39
-0.041073341 -0.049153339 0.70700002 1.1975286e-39
-0.039614301 -0.049014296 0.70500004 9.2164661e-40
-0.038271423 -0.049014281 0.70500004 7.3616794e-40
-0.036719043 -0.048736185 0.70100003 5.5212421e-40
-0.035383817 -0.048736192 0.70100003 3.6807767e-40
-0.034000006 -0.048666675 0.70000005 2.7658409e-40
-0.032573339 -0.048527621 0.69799995 2.7658549e-40
-0.03124382 -0.048527628 0.69800001 1.8546746e-40
-0.029871436 -0.048458107 0.69700003 1.8546746e-40
-0.028543804 -0.048458088 0.69700003 1.8546606e-40
-0.030886672 -0.054993339 0.79100001 1.8582479e-40
-0.029454308 -0.055132404 0.79300004 1.8546606e-40
-0.027943803 -0.055132382 0.79300004 1.8474859e-40
-0.0266 -0.055480003 0.79800004 5.5280804e-40
-0.025048576 -0.055410482 0.79700005 9.2015283e-40
-0.023530476 -0.055410475 0.79699999 6.4500647e-40
-0.022039978 -0.055479977 0.79800004 3.6914125e-40
-0.020519998 -0.055479996 0.79800004 2.7694562e-40
-0.018999988 -0.055479988 0.79800004 1.8474999e-40
-0.017480012 -0.055480015 0.79800004 2.7658409e-40
-0.015960006 -0.055480003 0.79800004 2.7658409e-40
-0.014421899 -0.055410467 0.79700005 2.7694282e-40
-0.012903828 -0.055410493 0.79699999 2.7730155e-40
-0.011357125 -0.055271409 0.79500002 1.8582479e-40
-0.0098428689 -0.055271439 0.79500002 1.8618352e-40
-0.0082866587 -0.054993324 0.79100001 1.8582479e-40
-0.0067799692 -0.054993302 0.79100001 2.7730155e-40
-0.0052533266 -0.054784756 0.78800005 2.7766028e-40
-0.0037428788 -0.054645739 0.78600001 2.7801902e-40
-0.0022400036 -0.054506667 0.78399998 3.6949578e-40
-0.00074286759 -0.054228585 0.78000003 5.5280944e-40
0.00074282009 -0.054228604 0.78000009 4.6097395e-40
0.0022342876 -0.054367617 0.78200012 3.6914125e-40
0.019940956 -0.050196186 0.72200006 1.5024994e-38
-0.080140948 -0.052201901 0.77200001 9.7642477e-41
-0.078670479 -0.052201908 0.77200001 2.4086443e-39
-0.076999992 -0.052066647 0.77000004 4.6195373e-39
-0.075239062 -0.051863812 0.76700002 6.3687432e-39
-0.073104754 -0.051390462 0.76000005 8.1132491e-39
-0.071280032 -0.051120028 0.75600004 6.550961e-39
-0.069562852 -0.050917137 0.75300002 4.9782109e-39
-0.067585707 -0.050511412 0.74700004 3.8635634e-39
-0.065985732 -0.05037621 0.74500006 2.7604739e-39
-0.064306676 -0.050173339 0.74200004 1.6566655e-39
-0.062639073 -0.049970496 0.73900002 4.6350889e-40
-0.060982838 -0.049767602 0.73600006 1.6573591e-39
-0.059257139 -0.049497142 0.73200005 2.8508731e-39
-0.057625718 -0.049294285 0.72900003 2.1158416e-39
-0.056005746 -0.049091458 0.72600001 1.2900438e-39
-0.054397155 -0.048888579 0.72300005 1.0145429e-39
-0.052946661 -0.048820946 0.72200006 7.4014063e-40
-0.051428594 -0.04868573 0.72000003 1.3851709e-39
-0.049987603 -0.048618071 0.71899998 1.9487437e-39
-0.04848288 -0.048482873 0.71700001 4.5330562e-39
-0.046920013 -0.048280012 0.71399999 7.0111699e-39
-0.045368575 -0.048077144 0.71099997 5.0793874e-39
-0.043828573 -0.04787429 0.708 3.041416e-39
-0.042420004 -0.047806665 0.70700002 2.2091442e-39
-0.040957142 -0.04767143 0.70500004 1.2897005e-39
-0.039501917 -0.047536202 0.70300007 9.2198713e-40
-0.038162872 -0.047536202 0.70300001 5.5284307e-40
-0.03671905 -0.047400959 0.70099998 3.6808607e-40
-0.035333324 -0.047333322 0.70000005 1.8440247e-40
-0.033999998 -0.04733333 0.70000005 1.8438986e-40
-0.032573324 -0.047198087 0.69800001 1.8474859e-40
-0.031243814 -0.047198094 0.69800001 1.8546746e-40
-0.029871419 -0.047130466 0.69700003 9.3630559e-41
-0.028543817 -0.04713048 0.69700003 1.8510732e-40
-0.030886639 -0.053486645 0.79100001 1.8582479e-40
-0.029454309 -0.053621925 0.79299998 1.8546606e-40
-0.027943831 -0.053621925 0.79300004 9.3271827e-41
-0.026599992 -0.053959996 0.79800004 7.361203e-40
-0.025048573 -0.053892381 0.79699999 1.2878521e-39
-0.023530468 -0.053892374 0.79700005 8.279586e-40
-0.022039998 -0.053960003 0.79800004 3.6913845e-40
-0.020519992 -0.053959992 0.7980001 2.7658549e-40
-0.018999983 -0.053959988 0.79799998 1.8474999e-40
-0.017479975 -0.053959977 0.79800004 1.8474859e-40
-0.015959997 -0.053959999 0.79800004 1.8474859e-40
-0.014421893 -0.05389237 0.79699999 2.7658409e-40
-0.012903791 -0.053892367 0.79699999 2.7694282e-40
-0.011357147 -0.05375715 0.79500002 2.7730155e-40
-0.009818105 -0.053621914 0.79300004 1.8582479e-40
-0.0082866549 -0.05348666 0.79100001 2.7801902e-40
-0.0067628673 -0.053351436 0.78900003 3.6949578e-40
-0.0052533275 -0.053283811 0.78800005 3.6913705e-40
-0.0037428825 -0.053148597 0.78600001 3.6913705e-40
-0.0022400045 -0.05301334 0.78400004 4.6061381e-40
-0.00074287318 -0.052742876 0.78000003 5.5245211e-40
0.0007419074 -0.05267524 0.7790001 4.6062082e-40
0.0022257199 -0.052675236 0.7790001 3.6879934e-40
0.0079095084 -0.051052392 0.75500005 3.6949998e-40
0.0093475953 -0.051052403 0.75500005 4.6241028e-40
0.010785677 -0.051052414 0.75500005 4.6206696e-40
0.020023812 -0.049023807 0.72500002 1.5116831e-38
0.021345723 -0.048888557 0.72300005 1.5211545e-38
-0.080140963 -0.050731435 0.77200001 7.3582322e-40
-0.078466654 -0.050599985 0.77000004 2.6791355e-39
-0.077000014 -0.050600011 0.77000004 4.7063352e-39
-0.075337149 -0.050468571 0.76799995 5.9066552e-39
-0.073200963 -0.050008584 0.76100004 7.1955919e-39
-0.07128004 -0.049680036 0.75600004 5.9063175e-39
-0.069562867 -0.04948286 0.75300008 4.6194827e-39
-0.067404777 -0.048957147 0.74500006 3.5941624e-39
-0.065808594 -0.04882573 0.74300003 2.6690013e-39
-0.064133331 -0.048628565 0.74000001 1.9339684e-39
-0.062639073 -0.048562888 0.73900002 1.1992663e-39
-0.060817126 -0.048234269 0.73400003 1.6580654e-39
-0.059176169 -0.048037123 0.73100001 2.2083735e-39
-0.057546668 -0.047839995 0.72800004 1.6573731e-39
-0.055928562 -0.047642842 0.72500002 1.1985684e-39
-0.054397143 -0.047511429 0.72300005 8.3124044e-40
-0.052799992 -0.047314283 0.72000003 5.5537522e-40
-0.051428583 -0.047314294 0.72000003 9.227172e-40
-0.049848575 -0.047117151 0.71700001 1.2890124e-39
-0.048482858 -0.04711714 0.71699995 2.8628009e-39
-0.046854291 -0.046854287 0.71300006 4.5248011e-39
-0.045304779 -0.046657156 0.71000004 3.2312051e-39
-0.043828562 -0.046525706 0.708 2.0269124e-39
-0.042300008 -0.046328574 0.70500004 1.4740763e-39
-0.040899061 -0.046262868 0.70400006 9.2161999e-40
-0.03950192 -0.046197157 0.70300001 6.4502749e-40
-0.038054276 -0.046065703 0.70099998 4.5991737e-40
-0.036719047 -0.046065707 0.70099998 3.684364e-40
-0.035333361 -0.04600003 0.70000005 2.7659249e-40
-0.033999991 -0.045999996 0.70000005 2.7658409e-40
-0.032573339 -0.045868579 0.69799995 2.7658409e-40
-0.031243822 -0.04586859 0.69799995 3.6877832e-40
-0.029871443 -0.045802869 0.69700003 4.6097254e-40
-0.032311436 -0.051848583 0.78900003 3.6913705e-40
-0.030964779 -0.052111447 0.79300004 2.7801902e-40
-0.029454302 -0.052111451 0.7930001 2.7801902e-40
-0.028119996 -0.052439995 0.79800004 2.7730155e-40
-0.026600016 -0.052440017 0.79800004 6.45361e-40
-0.025079979 -0.05243998 0.79800004 1.0134205e-39
-0.023559973 -0.052439973 0.79800004 7.371965e-40
-0.022039995 -0.052439995 0.79800004 3.7057198e-40
-0.020571401 -0.052571408 0.80000001 2.7730155e-40
-0.019047638 -0.052571453 0.80000007 1.8474859e-40
-0.017480001 -0.052439999 0.79800004 2.7658409e-40
-0.015959993 -0.052439991 0.79800004 2.7658409e-40
-0.014421917 -0.052374296 0.79699999 2.7658409e-40
-0.012903815 -0.052374288 0.79700005 2.7658409e-40
-0.011357142 -0.052242864 0.79500002 2.7730155e-40
-0.0098181292 -0.052111465 0.79300004 1.8546606e-40
-0.0082866549 -0.051979993 0.79099995 2.7766028e-40
-0.0067799655 -0.051979966 0.79100001 2.7730155e-40
-0.0052599884 -0.051848557 0.78900003 3.6913705e-40
-0.0037428844 -0.051651459 0.78600001 3.6877832e-40
-0.0022342871 -0.051388577 0.78200006 4.6061381e-40
-0.00074191578 -0.051191434 0.77900004 4.6061942e-40
0.00073999166 -0.05106001 0.77700001 4.6062502e-40
0.0022142692 -0.050928589 0.77500004 4.6065165e-40
0.0036904551 -0.050928589 0.77500004 3.6955884e-40
0.0079095196 -0.049614292 0.755 3.6878112e-40
0.0093476269 -0.049614273 0.75500005 3.7021325e-40
0.010757145 -0.04948286 0.75300008 4.6278022e-40
0.012191417 -0.049482875 0.75300008 3.6988254e-40
0.013607616 -0.049417142 0.75200003 2.7624497e-40
0.014999969 -0.049285743 0.75 1.5698256e-39
0.016428581 -0.049285706 0.75000006 2.9650481e-39
0.020051409 -0.04770859 0.72600001 1.5118985e-38
0.021434275 -0.047708578 0.72600001 1.5946939e-38
-0.080140941 -0.04926094 0.77200001 1.2911438e-39
-0.078670494 -0.049260966 0.77200007 3.0496879e-39
-0.077 -0.049133331 0.77000004 4.7988755e-39
-0.075337149 -0.049005713 0.76799995 5.5389489e-39
-0.073104769 -0.048495241 0.76000005 6.1814302e-39
-0.071280025 -0.048240013 0.75600004 5.1672853e-39
-0.06956286 -0.048048571 0.75300002 4.1516774e-39
-0.067404777 -0.047538102 0.74500006 3.4087062e-39
-0.065808594 -0.047410496 0.74299997 2.5789609e-39
-0.064133339 -0.047219045 0.74000001 2.2105455e-39
-0.06263908 -0.047155276 0.73900002 1.8428364e-39
-0.060817141 -0.046836182 0.73400009 1.750275e-39
-0.059257139 -0.046708561 0.73200005 1.5658936e-39
-0.057546683 -0.046453353 0.7280001 1.290034e-39
-0.055928599 -0.046261925 0.72500002 1.014896e-39
-0.054321881 -0.046070453 0.72200006 7.401168e-40
-0.052800003 -0.045942858 0.72000003 3.7134269e-40
-0.051357139 -0.04587904 0.71900004 4.610286e-40
-0.049848586 -0.045751441 0.71700001 5.5324805e-40
-0.048415225 -0.045687605 0.71599996 1.2872398e-39
-0.046854276 -0.045496181 0.713 1.9379734e-39
-0.045304764 -0.045304764 0.71000004 1.4777127e-39
-0.043766659 -0.045113325 0.70700002 9.2452067e-40
-0.042300001 -0.044985708 0.70500004 7.379532e-40
-0.040840957 -0.044858098 0.70300001 4.613607e-40
-0.039501913 -0.044858098 0.70300001 3.684378e-40
-0.038054269 -0.044730455 0.70099998 2.765981e-40
-0.03666668 -0.044666678 0.70000005 3.6878953e-40
-0.035333354 -0.044666685 0.70000005 3.6878392e-40
-0.033902872 -0.044539064 0.69800001 3.6841958e-40
-0.032526676 -0.04447525 0.69700003 3.6877832e-40
-0.031199042 -0.044475235 0.69700003 6.442848e-40
-0.029871406 -0.04447522 0.69700003 8.2831593e-40
-0.032311436 -0.050345726 0.78900003 5.5281084e-40
-0.030964775 -0.050600968 0.79300004 2.7837915e-40
-0.029602863 -0.050856195 0.79700005 3.7057198e-40
-0.028119989 -0.050919987 0.79800004 3.6985591e-40
-0.026666678 -0.051047631 0.80000001 5.546045e-40
-0.025080003 -0.050920002 0.79800004 7.3755663e-40
-0.023559993 -0.050919995 0.79800004 5.5316817e-40
-0.022040015 -0.050920017 0.79800004 3.6949578e-40
-0.020571424 -0.051047616 0.80000001 2.7694282e-40
-0.019047601 -0.051047608 0.80000007 1.8474859e-40
-0.01747999 -0.050919995 0.79800004 2.7658409e-40
-0.015959982 -0.050919987 0.79800004 3.6841958e-40
-0.014421908 -0.050856199 0.79699999 3.6841958e-40
-0.01290381 -0.050856188 0.79699999 2.7694282e-40
-0.011357142 -0.050728571 0.79499996 2.7730155e-40
-0.0098181274 -0.050600991 0.79300004 1.8546606e-40
-0.0082866251 -0.050473288 0.79100001 1.8618492e-40
-0.0067628608 -0.05034573 0.78899997 1.8582479e-40
-0.0052599846 -0.050345704 0.78900003 2.7766028e-40
-0.0037428853 -0.050154317 0.78600001 3.6914125e-40
-0.002234295 -0.049899053 0.78200006 3.6914546e-40
-0.00074192137 -0.049707633 0.77900004 3.6878672e-40
0.00073998491 -0.049580015 0.77700001 4.6062222e-40
0.0022142574 -0.049452409 0.77500004 4.6099496e-40
0.0036904733 -0.049452379 0.77500004 3.6988955e-40
0.0064799711 -0.048240025 0.75600004 2.7659249e-40
0.0079199616 -0.048240036 0.75600004 2.7730576e-40
0.0093599837 -0.048240017 0.75600004 3.6985591e-40
0.010799972 -0.048240028 0.75600004 3.7058039e-40
0.012175223 -0.047984775 0.75200003 4.6278162e-40
0.013607614 -0.047984764 0.75200003 4.6170122e-40
0.014959985 -0.047729537 0.74800003 2.7659109e-40
0.016384754 -0.047729529 0.74799997 1.0809616e-40
0.017476207 -0.046836171 0.73400003 6.9241212e-39
0.018874312 -0.04683616 0.73400003 1.3735376e-38
0.020134255 -0.046517164 0.72900003 1.521264e-38
0.021493353 -0.046453316 0.72800004 1.6592674e-38
0.022817126 -0.046325728 0.72600007 1.6960365e-38
-0.080140941 -0.047790464 0.77200001 2.0211684e-39
-0.078670494 -0.047790486 0.77200001 3.2286771e-39
-0.077000007 -0.047666661 0.77000004 4.5226403e-39
-0.07553333 -0.047666661 0.76999998 5.0783309e-39
-0.073104754 -0.047047611 0.76000005 5.7218688e-39
-0.071280032 -0.046800029 0.75600004 4.4257406e-39
-0.069008559 -0.046242837 0.74700004 3.2279232e-39
-0.067404769 -0.046119049 0.74500006 2.4885645e-39
-0.065808587 -0.045995247 0.74300003 1.8432007e-39
-0.064133301 -0.045809489 0.74000001 1.8435553e-39
-0.062639095 -0.045747664 0.73900002 1.8439168e-39
-0.060982842 -0.045561891 0.736 1.7502904e-39
-0.059257146 -0.045314297 0.73200005 1.6573788e-39
-0.057625748 -0.045128599 0.72900003 1.3818723e-39
-0.055928584 -0.04488096 0.72500002 1.1982069e-39
-0.054321878 -0.04469521 0.72200006 9.2306473e-40
-0.052800011 -0.044571437 0.71999997 6.4720511e-40
-0.05135715 -0.044509526 0.71900004 6.4577579e-40
-0.04977905 -0.044323817 0.71600002 7.3727357e-40
-0.048280004 -0.044200007 0.71399999 1.1968308e-39
-0.04672287 -0.044014297 0.71099997 1.6556425e-39
-0.045304764 -0.043952379 0.71000004 1.2915207e-39
-0.043766674 -0.043766677 0.70700002 9.2451367e-40
-0.042240001 -0.043580957 0.70400006 6.461135e-40
-0.04084095 -0.043519042 0.70300001 4.6063763e-40
-0.039389532 -0.043395251 0.70100003 3.6878953e-40
-0.038054287 -0.04339524 0.70100003 3.6878672e-40
-0.036666676 -0.043333337 0.70000005 3.6878252e-40
-0.035232395 -0.043209534 0.69799995 3.6913985e-40
-0.033902869 -0.04320953 0.69800001 3.6877832e-40
-0.032526657 -0.043147612 0.69700003 3.6877832e-40
-0.031199055 -0.043147624 0.69700003 4.6097254e-40
-0.033899989 -0.048966654 0.79100001 5.5352831e-40
-0.032557137 -0.049214281 0.79499996 3.6985872e-40
-0.031120956 -0.049338102 0.79699999 2.7873928e-40
-0.029639991 -0.049399987 0.79800004 3.6985451e-40
-0.028120013 -0.049400009 0.79800004 3.6913985e-40
-0.026666641 -0.049523786 0.80000001 4.6205435e-40
-0.025079966 -0.049399965 0.79800004 6.4536521e-40
-0.023559988 -0.049399987 0.79800004 4.6133268e-40
-0.022095205 -0.049523778 0.80000001 2.7694422e-40
-0.020571444 -0.04952383 0.80000007 2.7658409e-40
-0.019047624 -0.049523816 0.80000007 1.8438986e-40
-0.017523803 -0.049523804 0.80000007 3.6806085e-40
-0.015960008 -0.049400009 0.79800004 4.5989635e-40
-0.01443997 -0.049399972 0.79800004 3.6841958e-40
-0.012903832 -0.049338117 0.79700005 3.6949578e-40
-0.011357166 -0.049214311 0.79500002 2.7730155e-40
-0.0098180957 -0.049090482 0.79300004 2.7694422e-40
-0.0082866531 -0.048966654 0.79100001 2.7802042e-40
-0.0067628357 -0.048842836 0.78900003 2.7802042e-40
-0.0052533024 -0.048780918 0.78800005 2.7766028e-40
-0.003742889 -0.048657179 0.78600001 2.7730996e-40
-0.0022343015 -0.048409533 0.78200006 2.7731697e-40
-0.00074190088 -0.048223801 0.77900004 3.6878953e-40
0.00073997234 -0.048100024 0.77699995 4.6061942e-40
0.002214279 -0.0479762 0.77500004 4.6097955e-40
0.0036904351 -0.047976229 0.77499998 3.6986152e-40
0.0051333471 -0.04766665 0.77000004 2.7838756e-40
0.0064799474 -0.046800047 0.75600004 2.7731276e-40
0.0079199672 -0.046800029 0.75600004 1.8547306e-40
0.0093599595 -0.04680004 0.75600004 2.7766309e-40
0.010785721 -0.046738084 0.75500005 3.7057478e-40
0.012223808 -0.046738103 0.75500005 4.6240888e-40
0.013571417 -0.046428576 0.75 6.4715606e-40
0.014960017 -0.04630474 0.74800003 3.6913845e-40
0.016209539 -0.045809504 0.74000001 9.2304931e-41
0.017476194 -0.045438088 0.73400003 6.2715771e-39
0.018874299 -0.045438081 0.73400009 1.2360006e-38
0.020189535 -0.045252364 0.73100001 1.4847119e-38
0.02152284 -0.045128584 0.72900009 1.733168e-38
0.022880001 -0.045066666 0.72800004 1.7514971e-38
0.024199989 -0.044942871 0.72600001 1.7700108e-38
-0.080244742 -0.04637998 0.77300006 2.6672315e-39
-0.078670472 -0.046319991 0.77200001 3.504534e-39
-0.07720001 -0.046320006 0.77200007 4.2460535e-39
-0.075533316 -0.046199977 0.76999998 4.7138615e-39
-0.072623841 -0.045300029 0.75500005 5.1643902e-39
-0.070714317 -0.045000024 0.75000006 3.6777653e-39
-0.068823814 -0.044700004 0.74500006 2.2105483e-39
-0.06722381 -0.044579998 0.74300003 1.6584578e-39
-0.065720014 -0.044520006 0.74200004 1.1081622e-39
-0.064133309 -0.044399969 0.74000001 1.4765804e-39
-0.062469535 -0.044220015 0.73699999 1.8435721e-39
-0.060982853 -0.044159994 0.73600006 1.8417882e-39
-0.059257165 -0.043920022 0.73200011 1.7499429e-39
-0.05754666 -0.04367999 0.72800004 1.5648272e-39
-0.056005742 -0.043560024 0.72600001 1.2900326e-39
-0.054321881 -0.043319974 0.722 1.106356e-39
-0.052800003 -0.043199997 0.72000003 8.3122783e-40
-0.051357139 -0.043139998 0.71900004 9.2164661e-40
-0.04977902 -0.042959969 0.71599996 9.2238229e-40
-0.048212383 -0.042780004 0.71300006 1.1064288e-39
-0.04672287 -0.042660013 0.71100003 1.2900872e-39
-0.045177147 -0.042480003 0.708 1.1074784e-39
-0.04364286 -0.042300001 0.70500004 8.308705e-40
-0.042240024 -0.04224002 0.70400006 6.4502189e-40
-0.040840935 -0.042179983 0.70300001 3.6914966e-40
-0.039389532 -0.042060003 0.70100003 3.6842519e-40
-0.038000006 -0.042000007 0.70000005 3.6842659e-40
-0.036666684 -0.042000011 0.70000005 3.6770912e-40
-0.035333358 -0.042000018 0.70000005 2.7695543e-40
-0.03390288 -0.041880015 0.69800001 2.7696104e-40
-0.032526653 -0.04181999 0.69700003 2.7695123e-40
-0.031199049 -0.041820001 0.69700003 2.7658409e-40
-0.033985715 -0.047580011 0.79300004 1.8546746e-40
-0.032639053 -0.047820009 0.79699999 2.7730435e-40
-0.031120952 -0.047820002 0.79700005 2.7766169e-40
-0.029639982 -0.047879979 0.79800004 3.6913705e-40
-0.028119976 -0.047879972 0.79800004 3.6949718e-40
-0.026599996 -0.047879994 0.79800004 4.6241028e-40
-0.02507999 -0.047879986 0.79800004 4.6205014e-40
-0.02356001 -0.047880009 0.79800004 3.6913845e-40
-0.022095226 -0.047999993 0.80000001 1.8474999e-40
-0.020571437 -0.048000008 0.80000001 1.8439126e-40
-0.019047614 -0.048 0.80000001 1.8439827e-40
-0.017523795 -0.047999986 0.80000001 3.6807627e-40
-0.01596 -0.047880001 0.79800004 5.5174165e-40
-0.014421897 -0.047819994 0.79699999 4.5990055e-40
-0.012903824 -0.04782002 0.79699999 3.6842239e-40
-0.011357132 -0.047699992 0.79500002 3.6842098e-40
-0.0098181218 -0.047580034 0.7930001 2.7730295e-40
-0.0082866512 -0.047459982 0.79100001 2.7838055e-40
-0.0067628655 -0.047340006 0.78900009 2.7802042e-40
-0.0052533024 -0.047279969 0.78800005 1.8510732e-40
-0.0037428909 -0.047160037 0.78600001 9.3636165e-41
-0.0022342741 -0.04691999 0.78200006 2.7767009e-40
-0.00074003637 -0.046620034 0.77700001 3.6914405e-40
0.00073996373 -0.046620037 0.77700001 4.6061802e-40
0.0022142688 -0.046500016 0.77499998 4.6097675e-40
0.0036666808 -0.046199985 0.77000004 3.7021745e-40
0.0051333625 -0.04619997 0.77000004 2.7766589e-40
0.0065999869 -0.046200011 0.77000004 1.8511573e-40
0.0079199709 -0.045360021 0.75600004 9.3277432e-41
0.0093599632 -0.045360036 0.75599998 1.8511153e-40
0.010785695 -0.045300014 0.75500005 2.7766309e-40
0.012223782 -0.045300029 0.75500005 5.5316817e-40
0.013571419 -0.045000009 0.75 8.290362e-40
0.014959989 -0.04488001 0.74800003 4.6062082e-40
0.016209532 -0.044399992 0.74000001 9.6235573e-41
0.017595228 -0.044340011 0.73900002 5.5253773e-39
0.018951414 -0.044220023 0.73699999 1.0974565e-38
0.020327633 -0.044159986 0.73600006 1.4575563e-38
0.021581911 -0.043859996 0.73100001 1.8067461e-38
0.022911401 -0.043740034 0.72900009 1.8159652e-38
0.024266675 -0.04367999 0.7280001 1.8161097e-38
0.025653346 -0.04367999 0.72800004 1.8623873e-38
-0.080244727 -0.044907581 0.77300006 1.3779318e-39
-0.078772366 -0.0449076 0.77300006 3.0396083e-39
-0.07720001 -0.04484953 0.77200001 4.7934763e-39
-0.075729512 -0.044849508 0.77200001 5.2605711e-39
-0.074259058 -0.04484953 0.77200001 5.8097428e-39
-0.070242882 -0.043280978 0.74500012 3.6827693e-39
-0.068639055 -0.04316476 0.74299997 1.4715512e-39
-0.067223817 -0.043164764 0.74299997 1.3815163e-39
-0.065720007 -0.04310666 0.74200004 1.1996432e-39
-0.064133316 -0.042990454 0.74000001 1.47587e-39
-0.062469531 -0.042816199 0.73699999 1.7524695e-39
-0.060817111 -0.042641874 0.73400003 2.0276326e-39
-0.059176184 -0.042467609 0.73100001 2.2105665e-39
-0.057388596 -0.042177167 0.72600001 2.0261571e-39
-0.055928577 -0.042119045 0.72500002 1.8417532e-39
-0.054321874 -0.041944727 0.722 1.4747531e-39
-0.052799992 -0.041828565 0.72000003 1.1081608e-39
-0.051357131 -0.041770466 0.71900004 1.1071169e-39
-0.049779028 -0.041596171 0.71599996 1.1996838e-39
-0.04821239 -0.04142192 0.71300006 1.1993391e-39
-0.046657141 -0.041247614 0.71000004 1.2900802e-39
-0.045177165 -0.041131444 0.708 1.0149128e-39
-0.043580964 -0.040899057 0.70400006 7.3866226e-40
-0.04218002 -0.040840965 0.70300001 5.5424717e-40
-0.040840972 -0.040840968 0.70300001 4.6169281e-40
-0.039389517 -0.040724762 0.70100003 4.6061381e-40
-0.037999999 -0.040666662 0.70000005 5.5209618e-40
-0.036666673 -0.040666673 0.70000005 3.6842939e-40
-0.03523238 -0.040550478 0.69800001 2.7696524e-40
-0.033902872 -0.040550485 0.69800001 2.7733658e-40
-0.032526653 -0.04049236 0.69700003 2.776785e-40
-0.035585705 -0.046185706 0.79500002 2.7766028e-40
-0.034071416 -0.046185702 0.79499996 2.7694282e-40
-0.032639045 -0.046301905 0.79699999 2.7730155e-40
-0.031120945 -0.046301901 0.79699999 3.6949578e-40
-0.029640004 -0.046360005 0.79800004 6.4464354e-40
-0.028119996 -0.046359997 0.79800004 1.0119855e-39
-0.026600018 -0.04636002 0.79800004 7.371965e-40
-0.02514286 -0.046476196 0.80000007 4.6240747e-40
-0.023619069 -0.046476215 0.80000001 3.6913705e-40
-0.022095248 -0.046476204 0.80000007 1.8439126e-40
-0.020571427 -0.046476193 0.80000007 1.8439126e-40
-0.019047637 -0.046476211 0.80000001 1.8440667e-40
-0.017523814 -0.0464762 0.80000001 3.6809168e-40
-0.015959993 -0.046359997 0.7980001 4.5955723e-40
-0.014421921 -0.046301924 0.79700005 3.6806786e-40
-0.012871442 -0.046185732 0.79500002 3.6806505e-40
-0.011357127 -0.046185698 0.79500002 3.6842098e-40
-0.0098181181 -0.046069551 0.79300004 3.6913985e-40
-0.0082866512 -0.045953318 0.79100001 3.7021745e-40
-0.0067628645 -0.045837153 0.78900003 2.7873928e-40
-0.0052533024 -0.04577902 0.78800005 1.8582479e-40
-0.0037428648 -0.045662865 0.78599995 1.8582759e-40
-0.0022342824 -0.045430467 0.78200006 2.7802322e-40
-0.00074004312 -0.045140039 0.77700001 3.6913985e-40
0.00073807291 -0.045023836 0.77499998 3.6877972e-40
0.0022085903 -0.0449076 0.773 4.6061521e-40
0.003666698 -0.044733301 0.77000004 3.6913705e-40
0.005133322 -0.044733349 0.77000004 3.6842239e-40
0.0065828371 -0.044617161 0.76800001 5.5245351e-40
0.0079409573 -0.044036187 0.75800002 7.361245e-40
0.0093847644 -0.044036191 0.75799996 5.5245351e-40
0.010799954 -0.04392004 0.75600004 4.6025788e-40
0.012223816 -0.043861903 0.75500005 6.4464354e-40
0.013571419 -0.043571435 0.75000006 9.208745e-40
0.01489999 -0.043280959 0.74500006 4.6062642e-40
0.016209554 -0.042990442 0.74000001 9.2274103e-41
0.01759522 -0.042932402 0.73900002 4.7013325e-39
0.018951399 -0.042816214 0.73700005 9.2332607e-39
0.020327622 -0.042758092 0.73600006 1.3838012e-38
0.021611406 -0.042525735 0.73200005 1.8437694e-38
0.022974307 -0.042467594 0.73100001 1.8253319e-38
0.024299983 -0.04235144 0.72900003 1.8068564e-38
0.025688557 -0.04235144 0.72900003 1.8623156e-38
0.027077129 -0.042351447 0.72900003 1.9177767e-38
-0.078772366 -0.043435216 0.773 2.666493e-39
-0.077199988 -0.043379031 0.77200001 5.2511992e-39
-0.075729541 -0.043379057 0.77200001 5.9080775e-39
-0.074259043 -0.043379039 0.77200001 6.4511507e-39
-0.070242882 -0.041861933 0.74500006 3.587701e-39
-0.068639055 -0.041749526 0.74299997 7.3829652e-40
-0.067133367 -0.04169336 0.74200004 1.0127352e-39
-0.065720014 -0.041693337 0.74200004 1.2900368e-39
-0.064133309 -0.041580923 0.74000001 1.4744266e-39
-0.062469542 -0.041412398 0.73700005 1.6599053e-39
-0.060651451 -0.041131455 0.73200005 2.2141609e-39
-0.059176195 -0.041075237 0.73100001 2.6711733e-39
-0.057388585 -0.040794298 0.72600001 2.487131e-39
-0.055774286 -0.04062571 0.72300005 2.3023754e-39
-0.054171417 -0.040457122 0.72000003 1.8428308e-39
-0.052800003 -0.040457141 0.72000003 1.2914857e-39
-0.051357143 -0.040400948 0.71900004 1.3819129e-39
-0.049848568 -0.040288568 0.71699995 1.3837262e-39
-0.048212361 -0.040063791 0.71300006 1.2933466e-39
-0.04672287 -0.039951436 0.71100003 1.1993265e-39
-0.045177151 -0.039782859 0.708 9.227116e-40
-0.043580953 -0.039558094 0.70400006 6.4646522e-40
-0.042180005 -0.039501913 0.70300001 5.5460731e-40
-0.040724751 -0.039389502 0.70099998 4.6133548e-40
-0.039389513 -0.03938951 0.70100003 5.5245071e-40
-0.038000021 -0.039333351 0.70000005 6.4428901e-40
-0.036666665 -0.039333332 0.70000005 4.6062082e-40
-0.035333339 -0.03933334 0.70000005 2.7695543e-40
-0.038759984 -0.044839986 0.79800004 2.7731977e-40
-0.037193347 -0.044783823 0.79700005 2.7767009e-40
-0.035675239 -0.044783816 0.79699999 3.7057338e-40
-0.034157142 -0.044783808 0.79699999 3.6949718e-40
-0.032639042 -0.044783801 0.79700005 3.6913845e-40
-0.031159975 -0.044839978 0.79800004 3.6913845e-40
-0.029639997 -0.044840001 0.79799998 1.0119883e-39
-0.028119989 -0.044839993 0.79800004 1.5630083e-39
-0.026666675 -0.044952393 0.80000001 1.0123611e-39
-0.025142852 -0.044952378 0.80000001 4.6133968e-40
-0.023619032 -0.04495237 0.80000001 3.6877972e-40
-0.022095239 -0.044952385 0.80000001 1.8474999e-40
-0.02057142 -0.044952378 0.80000001 1.8439266e-40
-0.019047597 -0.044952363 0.80000001 1.8439967e-40
-0.017523805 -0.044952385 0.80000001 2.7624217e-40
-0.015959986 -0.044839993 0.79800004 3.6807206e-40
-0.014421914 -0.044783823 0.79699999 3.6842519e-40
-0.012871411 -0.044671409 0.79500002 2.7658689e-40
-0.011357153 -0.044671439 0.79500002 3.6842098e-40
-0.0098181143 -0.044559069 0.79300004 4.6097395e-40
-0.0082866475 -0.044446647 0.79100001 3.7057478e-40
-0.0067542479 -0.044278055 0.78800005 2.7766169e-40
-0.0052400245 -0.044165738 0.78600001 2.7658409e-40
-0.0037333425 -0.044053342 0.78400004 1.858332e-40
-0.0022286051 -0.043828607 0.78000003 2.787533e-40
-0.00074002217 -0.043660022 0.77700001 3.6914686e-40
0.00073806278 -0.043547656 0.77500004 3.6878112e-40
0.002208577 -0.043435231 0.77300006 3.6878112e-40
0.0036666817 -0.043266647 0.76999998 3.6878112e-40
0.0051199817 -0.043154303 0.76800001 3.6878112e-40
0.0065828511 -0.043154292 0.76800001 8.2796e-40
0.0079409331 -0.042592399 0.75800002 1.2871417e-39
0.0093847662 -0.042592373 0.75800002 1.0116394e-39
0.010799991 -0.042480007 0.75600004 6.4429181e-40
0.012223788 -0.042423829 0.75500005 8.2759987e-40
0.013625696 -0.042311445 0.75300008 9.2015423e-40
0.014899988 -0.041861914 0.74500006 5.5209758e-40
0.016209546 -0.041580927 0.74000001 9.3700624e-41
0.017595213 -0.04152479 0.73900002 3.7704135e-39
0.018951422 -0.041412383 0.73699999 7.4761851e-39
0.020327613 -0.041356198 0.73600006 1.3105123e-38
0.021670476 -0.041243806 0.73400009 1.8713198e-38
0.022974297 -0.04107523 0.73100001 1.8346944e-38
0.024366679 -0.041075226 0.73099995 1.7978163e-38
0.025759064 -0.041075222 0.73100001 1.8622441e-38
0.027077112 -0.040962882 0.72900003 1.9177781e-38
0.028465714 -0.040962856 0.72900003 2.0830843e-38
-0.078772381 -0.041962847 0.77300006 5.0613569e-39
-0.077199981 -0.041908555 0.77200001 3.5952708e-39
-0.075729519 -0.04190857 0.77200001 4.6148402e-39
-0.07425902 -0.041908547 0.77200001 5.7232771e-39
-0.068639047 -0.040334277 0.74299997 1.4726175e-39
-0.06713336 -0.040280022 0.74200004 1.7510023e-39
-0.065720014 -0.040280011 0.74200004 2.0236375e-39
-0.064133316 -0.040171403 0.74000001 1.6566529e-39
-0.062639065 -0.040117159 0.73900002 1.290041e-39
