# .PCD v0.7 - Point Cloud Data file format
VERSION 0.7
FIELDS x y z rgb
SIZE 4 4 4 4
TYPE F F F F
COUNT 1 1 1 1
WIDTH 950
HEIGHT 1
VIEWPOINT 0 0 0 1 0 0 0
POINTS 950
DATA ascii
-0.041861903 -0.065985709 0.74500006 9.778213e-39
-0.040334284 -0.06580855 0.74300009 1.1070739e-38
-0.038919047 -0.065808557 0.74300009 1.1716828e-38
-0.037503812 -0.065808572 0.74300003 1.2270275e-38
-0.036040001 -0.065719999 0.7420001 7.5578879e-39
-0.03448667 -0.065454274 0.73900008 2.847374e-39
-0.03307905 -0.065454282 0.73900008 2.4872067e-39
-0.031114297 -0.064302891 0.72600001 2.2044709e-39
-0.029690482 -0.064214297 0.72500008 1.3786142e-39
-0.028231438 -0.064037167 0.72300005 6.4431844e-40
-0.026742866 -0.063771456 0.72000003 1.3819017e-39
-0.025371438 -0.063771456 0.72000003 2.210226e-39
-0.023966672 -0.063682862 0.71900004 1.843254e-39
-0.022534277 -0.063505672 0.71700007 1.5673944e-39
-0.021080008 -0.063240021 0.71400011 2.119129e-39
-0.019720007 -0.063240029 0.71400011 2.7626936e-39
-0.018334284 -0.063151404 0.71300012 2.3949914e-39
-0.016976193 -0.063151427 0.71300006 2.1173129e-39
-0.015574281 -0.062974259 0.71100008 1.6570382e-39
-0.014159993 -0.062708542 0.70800006 1.1971587e-39
-0.012811425 -0.062708549 0.70800006 1.0131444e-39
-0.011446672 -0.062620021 0.70700002 8.3019367e-40
-0.010071427 -0.06244285 0.7050001 6.4616535e-40
-0.0087285703 -0.062442847 0.70500004 5.5468578e-40
-0.0073752399 -0.062354289 0.70400012 4.6284748e-40
-0.006034289 -0.0623543 0.70400006 3.7209239e-40
-0.0046866648 -0.062265705 0.70300007 3.7173646e-40
-0.0033476185 -0.062265716 0.70300007 3.7209519e-40
-0.0020028597 -0.062088579 0.70100003 4.6285449e-40
-0.00066761445 -0.062088545 0.70100009 6.4581222e-40
0.00066666305 -0.062000014 0.70000005 8.3056221e-40
0.0019999964 -0.06200001 0.70000005 1.0145919e-39
0.0033333295 -0.062000006 0.70000005 1.3826514e-39
0.0046666628 -0.062000018 0.70000005 1.6585208e-39
0.0059999982 -0.062000014 0.70000005 1.5659721e-39
0.0073333313 -0.06200001 0.70000005 1.4737792e-39
0.0086666662 -0.062000006 0.70000005 1.4737806e-39
0.0099999998 -0.06200001 0.70000005 1.3830213e-39
0.011333335 -0.062000006 0.70000005 1.6588865e-39
0.012666668 -0.062000003 0.70000005 2.0265775e-39
0.014000002 -0.061999999 0.70000005 1.3815668e-39
0.015355245 -0.062088549 0.70100003 7.3801486e-40
0.016738096 -0.062265731 0.70300001 7.383862e-40
0.01810286 -0.062354263 0.70400012 7.3801766e-40
0.019443808 -0.062354296 0.70400006 2.1209213e-39
0.020784762 -0.062354304 0.70400006 3.6057806e-39
0.022157146 -0.06244285 0.7050001 6.4696072e-39
0.023500005 -0.062442847 0.70500004 9.3153431e-39
0.024913328 -0.062620029 0.70700002 8.2882026e-39
0.02626 -0.062620021 0.70700002 7.2878436e-39
0.027606664 -0.062620029 0.70700002 1.3746606e-38
0.028994292 -0.062708564 0.70800006 2.0184733e-38
0.03055715 -0.063151404 0.71300012 1.8892893e-38
0.031915236 -0.063151442 0.71300006 1.7605401e-38
0.033273339 -0.063151427 0.71300006 1.7697592e-38
-0.041861907 -0.064566672 0.74500006 9.8664234e-39
-0.040334284 -0.064393319 0.74300003 1.0514318e-38
-0.038866665 -0.064306661 0.7420001 1.052331e-38
-0.037453331 -0.064306647 0.7420001 1.0410955e-38
-0.035894282 -0.064046651 0.73900008 6.9979052e-39
-0.034486663 -0.064046629 0.73900008 3.5917354e-39
-0.032631438 -0.063180044 0.72900003 2.7562434e-39
-0.03124286 -0.063180022 0.72900003 1.9304063e-39
-0.029608574 -0.062659994 0.72300011 1.4715526e-39
-0.028192384 -0.062573336 0.72200012 9.2127527e-40
-0.026742864 -0.062400024 0.72000003 1.6574138e-39
-0.025336197 -0.062313333 0.7190001 2.301707e-39
-0.023899999 -0.062139969 0.71700007 2.0280054e-39
-0.022502864 -0.062053345 0.71600002 1.6603075e-39
-0.021080012 -0.061880041 0.71400005 2.0280096e-39
-0.019692382 -0.061793331 0.71300006 2.3957131e-39
-0.018334284 -0.061793312 0.71300006 2.3049566e-39
-0.016928574 -0.061620004 0.71100008 2.2102386e-39
-0.015552388 -0.061533358 0.71000004 1.7492535e-39
-0.014159995 -0.061359975 0.70800006 1.2890096e-39
-0.012793339 -0.061273355 0.70700008 1.1964651e-39
-0.011414283 -0.06109998 0.7050001 1.0131542e-39
-0.010057144 -0.06101333 0.70400012 8.3020068e-40
-0.0087161912 -0.061013333 0.70400012 6.4616675e-40
-0.0073647667 -0.060926683 0.70300007 6.4652128e-40
-0.0060257204 -0.060926694 0.70300001 5.5468718e-40
-0.004686668 -0.060926672 0.70300007 4.6249435e-40
-0.0033476229 -0.060926683 0.70300007 3.7137212e-40
-0.001999998 -0.060666651 0.70000011 5.5503891e-40
-0.00066666387 -0.060666654 0.70000011 6.4652408e-40
0.0006666694 -0.060666651 0.70000011 8.2984475e-40
0.0020000036 -0.060666647 0.70000011 9.2239911e-40
0.0033238062 -0.060493357 0.69800001 1.2897425e-39
0.004653329 -0.060493365 0.69800001 1.5656133e-39
0.0059828511 -0.06049338 0.69800001 1.4730674e-39
0.0073333341 -0.060666677 0.70000005 1.3812179e-39
0.0086666681 -0.060666673 0.70000005 1.3808465e-39
0.010000002 -0.060666669 0.70000005 1.3826556e-39
0.01130095 -0.060493357 0.69800007 1.5674182e-39
0.012666668 -0.060666669 0.70000005 1.6585096e-39
0.014000003 -0.060666665 0.70000005 1.1042414e-39
0.015333335 -0.060666662 0.70000005 4.6285028e-40
0.016690476 -0.060753338 0.70100003 9.2348652e-40
0.018025719 -0.060753331 0.70100003 1.2897453e-39
0.019360954 -0.060753353 0.70100003 1.6542104e-39
0.020755231 -0.060926698 0.70300001 2.0409814e-39
0.022094287 -0.060926668 0.70300007 6.297759e-39
0.023466671 -0.061013333 0.70400006 1.0503833e-38
0.024807619 -0.061013333 0.70400006 6.7977059e-39
0.026148573 -0.061013337 0.70400012 3.1527436e-39
0.027528578 -0.06109998 0.7050001 1.1820554e-38
0.029117148 -0.061619993 0.71100008 2.0368767e-38
0.030471435 -0.061619982 0.71100008 1.9174526e-38
0.031915244 -0.06179332 0.71300012 1.7884156e-38
-0.041749522 -0.062978074 0.74300009 8.2093992e-39
-0.040280003 -0.062893316 0.7420001 7.8413761e-39
-0.038866669 -0.062893346 0.7420001 6.5442348e-39
-0.037453327 -0.062893301 0.7420001 5.2398193e-39
-0.035894282 -0.062639043 0.73900002 5.6167826e-39
-0.034346666 -0.062384732 0.73600012 5.8976603e-39
-0.032944765 -0.062384754 0.73600012 4.0530484e-39
-0.031328574 -0.061960958 0.73100001 2.2080722e-39
-0.029567625 -0.061198104 0.72200006 1.3804598e-39
-0.028114289 -0.061028581 0.72000003 6.4650166e-40
-0.026705718 -0.060943812 0.71900004 1.6577767e-39
-0.025336197 -0.06094382 0.71900004 2.7601726e-39
-0.023899999 -0.060774259 0.71700007 2.2106044e-39
-0.022502854 -0.060689494 0.71600008 1.6606676e-39
-0.021080008 -0.060520023 0.71400005 1.9354552e-39
-0.019692384 -0.060435239 0.71300006 2.2113274e-39
-0.018282855 -0.060265694 0.71100008 2.1202164e-39
-0.016904766 -0.060180962 0.71000004 2.1184172e-39
-0.015508573 -0.060011432 0.708 1.6581565e-39
-0.01414 -0.059926663 0.70700002 1.1971881e-39
-0.012757137 -0.059757113 0.7050001 1.104638e-39
-0.01141428 -0.059757113 0.7050001 9.1989078e-40
-0.010057143 -0.059672374 0.70400012 8.2877135e-40
-0.008703813 -0.059587639 0.70300007 7.3657152e-40
-0.0073647681 -0.05958765 0.70300001 6.4580661e-40
-0.006025712 -0.059587598 0.70300007 5.5432985e-40
-0.0046733366 -0.059418116 0.70100003 4.6249295e-40
-0.0033380981 -0.059418112 0.70100003 4.6248455e-40
-0.0020000029 -0.059333347 0.70000005 5.5467037e-40
-0.00066476542 -0.059163827 0.69800001 6.4651847e-40
0.00066475692 -0.059163835 0.69800001 7.3836658e-40
0.0019942783 -0.059163846 0.69800001 9.2204038e-40
0.0033190495 -0.05907904 0.69700003 1.3819381e-39
0.0046466729 -0.059079021 0.69700003 1.9329595e-39
0.0059742946 -0.059079014 0.69700009 1.5652672e-39
0.0073019043 -0.059079058 0.69700003 1.1975399e-39
0.008629526 -0.059079047 0.69700003 1.1978706e-39
0.0099714277 -0.05916382 0.69800001 1.2908131e-39
0.011284763 -0.059079044 0.69700003 1.7514549e-39
0.012612388 -0.059079032 0.69700003 2.2116652e-39
0.013940007 -0.059079021 0.69700009 1.5659034e-39
0.015289518 -0.059163857 0.69800001 1.0138478e-39
0.016666671 -0.059333324 0.70000005 1.1071519e-39
0.018000003 -0.059333324 0.70000005 1.1082239e-39
0.019333337 -0.059333317 0.70000005 1.1057072e-39
0.020696195 -0.05941809 0.70100003 1.1064751e-39
0.022031426 -0.059418112 0.70100003 5.5429692e-39
0.023366665 -0.059418105 0.70100003 9.9614398e-39
0.024772381 -0.059587643 0.70300001 6.454434e-39
0.02611143 -0.059587613 0.70300007 2.959754e-39
0.027489526 -0.059672397 0.70400006 1.0795996e-38
0.028707625 -0.059418075 0.70100009 1.8723625e-38
0.030042857 -0.059418093 0.70100003 1.8719321e-38
-0.041693337 -0.061479986 0.7420001 6.5567246e-39
-0.04017143 -0.061314277 0.74000001 5.0697577e-39
-0.038761906 -0.06131427 0.74000007 2.5718815e-39
-0.037453331 -0.061479986 0.7420001 9.7338395e-41
-0.035797141 -0.061065704 0.73700011 4.1474203e-39
-0.034253336 -0.060817145 0.73400009 8.1957071e-39
-0.032855235 -0.06081713 0.73400009 5.3495171e-39
-0.031328574 -0.060568564 0.73100007 2.3974787e-39
-0.029444767 -0.05957431 0.7190001 1.3790066e-39
-0.028075241 -0.059574291 0.71900004 3.7062803e-40
-0.026631426 -0.059408542 0.71700007 1.7499724e-39
-0.025265718 -0.05940856 0.71700007 3.1282377e-39
-0.023800002 -0.059159998 0.71400011 2.3928531e-39
-0.022408577 -0.059077144 0.71300006 1.5670468e-39
-0.021050474 -0.059077125 0.71300006 1.7499976e-39
-0.019692382 -0.059077136 0.71300012 1.935828e-39
-0.018282861 -0.058911432 0.71100008 2.0301816e-39
-0.016857145 -0.058662854 0.70800006 2.0276607e-39
-0.015508567 -0.058662832 0.70800006 1.5673986e-39
-0.014099994 -0.058414247 0.7050001 1.1060659e-39
-0.012739046 -0.058331423 0.70400012 1.0127927e-39
-0.0113981 -0.058331456 0.70400006 8.2876294e-40
-0.010042861 -0.058248591 0.70300007 8.2840421e-40
-0.008703812 -0.05824858 0.70300001 8.2912028e-40
-0.0073647602 -0.058248561 0.70300007 6.4616535e-40
-0.0060085743 -0.058082864 0.70100003 4.6213562e-40
-0.0046733399 -0.058082886 0.70100003 4.6177549e-40
-0.003338095 -0.058082853 0.70100003 4.6213282e-40
-0.0019942916 -0.057834316 0.69800001 5.5432425e-40
-0.00066476926 -0.057834323 0.69800001 6.4652688e-40
0.00066381012 -0.057751417 0.69700009 7.3837079e-40
0.0019914261 -0.057751436 0.69700003 8.3092094e-40
0.0033095239 -0.057585716 0.69500005 1.566321e-39
0.0046333345 -0.057585709 0.69500005 2.300649e-39
0.0059571452 -0.057585713 0.69500011 1.6574446e-39
0.0072809495 -0.057585742 0.69500005 1.014222e-39
0.0086047603 -0.057585739 0.69500005 1.1056833e-39
0.0099285701 -0.057585731 0.69500005 1.1071407e-39
0.011252381 -0.057585724 0.69500011 1.935835e-39
0.012576192 -0.057585724 0.69500011 2.6690588e-39
0.013900001 -0.057585731 0.69500005 2.1173031e-39
0.015223811 -0.057585727 0.69500005 1.5663084e-39
0.016595244 -0.05775141 0.69700009 1.2915362e-39
0.017948568 -0.057834312 0.69800007 9.2310957e-40
0.019333335 -0.05800001 0.70000005 5.5324805e-40
0.020666668 -0.058000006 0.70000005 1.0130127e-40
0.022 -0.05800001 0.70000005 4.7139372e-39
0.023333332 -0.058000006 0.70000005 9.3143034e-39
0.024701908 -0.058082849 0.70100003 6.0067724e-39
0.026037145 -0.058082871 0.70100003 2.6878236e-39
0.027372383 -0.058082853 0.70100009 9.8639501e-39
0.028707623 -0.058082849 0.70100003 1.6965459e-38
0.030214291 -0.058414266 0.70500004 1.8360252e-38
0.031557158 -0.058414236 0.7050001 1.9727003e-38
-0.04169333 -0.060066648 0.7420001 5.4367676e-39
-0.040171433 -0.059904769 0.74000001 3.216853e-39
-0.038761903 -0.059904743 0.74000001 3.6745157e-39
-0.035797141 -0.059661895 0.73700011 6.4501278e-39
-0.034160003 -0.05925715 0.73200005 8.7560555e-39
-0.03272095 -0.059176184 0.73100007 6.454064e-39
-0.031242864 -0.059014309 0.72900003 4.1434252e-39
-0.029485721 -0.058285743 0.72000003 2.208019e-39
-0.028075242 -0.05820477 0.71900004 3.7061962e-40
-0.026631426 -0.058042828 0.71700007 1.291155e-39
-0.025230484 -0.057961922 0.71600002 2.3035189e-39
-0.023800012 -0.05780004 0.71400005 1.934763e-39
-0.022408573 -0.057719044 0.71300012 1.5663392e-39
-0.021050481 -0.057719056 0.71300006 1.6585264e-39
-0.019637141 -0.057557121 0.71100008 1.752164e-39
-0.018205715 -0.05731428 0.70800006 2.1202304e-39
-0.016833339 -0.057233337 0.70700002 2.3939307e-39
-0.015486672 -0.057233356 0.70700002 1.7503521e-39
-0.014079998 -0.056990467 0.70400012 1.106419e-39
-0.012720952 -0.056909513 0.70300007 1.0131402e-39
-0.011381905 -0.056909524 0.70300007 9.2094736e-40
-0.010014289 -0.05674763 0.70100003 1.0127843e-39
-0.0086790444 -0.056747597 0.70100003 1.1046226e-39
-0.0073438101 -0.056747619 0.70100003 8.2911887e-40
-0.0059999963 -0.056666642 0.70000011 6.4508915e-40
-0.0046666618 -0.056666646 0.70000011 5.5325225e-40
-0.0033333281 -0.056666642 0.70000011 4.6213842e-40
-0.0019942897 -0.056504786 0.69800001 5.5433686e-40
-0.00066380663 -0.056423791 0.69700003 6.4617656e-40
0.00066380849 -0.056423813 0.69700003 7.3837359e-40
0.0019857078 -0.056261942 0.69500005 8.3091954e-40
0.0033095232 -0.056261912 0.69500005 1.198972e-39
0.0046333349 -0.056261905 0.69500005 1.6574306e-39
0.0059571462 -0.056261905 0.69500011 1.1982503e-39
0.0072809504 -0.056261938 0.69500005 6.4651567e-40
0.0086047594 -0.056261931 0.69500005 9.2237669e-40
0.0099285701 -0.056261927 0.69500005 1.1057044e-39
0.01125238 -0.056261927 0.69500011 1.4737792e-39
0.012576195 -0.056261897 0.69500005 1.9322322e-39
0.013880002 -0.056180939 0.69400001 1.6581537e-39
0.015201907 -0.056180947 0.69400001 1.383366e-39
0.016547622 -0.056261923 0.69500005 1.291532e-39
0.01792286 -0.056423813 0.69700003 1.2908033e-39
0.019278089 -0.056504797 0.69800007 6.4614853e-40
0.020607617 -0.056504805 0.69800001 9.2684683e-41
0.021937143 -0.05650479 0.69800001 4.1521609e-39
0.023333335 -0.056666665 0.70000005 8.1265572e-39
0.024666671 -0.056666672 0.70000005 6.9208576e-39
0.026000006 -0.056666665 0.70000005 5.6961409e-39
0.027333336 -0.056666672 0.70000005 1.1239629e-38
0.028666671 -0.056666665 0.70000005 1.678177e-38
0.030000003 -0.056666665 0.70000005 1.8629683e-38
0.031333338 -0.056666657 0.70000005 2.0557488e-38
-0.034160007 -0.05786287 0.73200005 9.3113957e-39
-0.032720953 -0.057783823 0.73100001 7.5668562e-39
-0.031114293 -0.057388578 0.72600001 5.8007731e-39
-0.029485721 -0.056914307 0.72000003 3.0309567e-39
-0.027997144 -0.056677133 0.71700001 2.7806666e-40
-0.026594291 -0.056598105 0.71600002 8.3161319e-40
-0.02523048 -0.056598097 0.71600002 1.3837192e-39
-0.023800008 -0.056440022 0.71400011 1.4766491e-39
-0.022408573 -0.056360945 0.71300006 1.5670426e-39
-0.020991424 -0.056202833 0.71100008 1.565242e-39
-0.019609528 -0.056123812 0.7100001 1.5677643e-39
-0.018180003 -0.055886678 0.70700002 2.2124191e-39
-0.016785709 -0.055728536 0.7050001 2.7619901e-39
-0.01542095 -0.055649508 0.70400012 1.93367e-39
-0.01406 -0.055570468 0.70300007 1.1060673e-39
-0.012684764 -0.055412386 0.70100009 1.1046254e-39
-0.011349524 -0.055412386 0.70100003 1.0131472e-39
-0.009999997 -0.055333313 0.70000011 1.1968168e-39
-0.0086666634 -0.055333309 0.70000011 1.2879362e-39
-0.0073333289 -0.055333313 0.70000011 1.1035492e-39
-0.0059828609 -0.055175256 0.69800001 8.2839861e-40
-0.0046533393 -0.055175263 0.69800001 6.4436608e-40
-0.0033238172 -0.055175271 0.69800001 4.6213842e-40
-0.0019857173 -0.054938108 0.69500005 5.5434106e-40
-0.00066190673 -0.054938111 0.69500011 6.4582483e-40
0.00066095317 -0.054859042 0.69400001 7.383862e-40
0.0019828563 -0.05485905 0.69400001 7.3945119e-40
0.0033047672 -0.054859016 0.69400001 9.2418717e-40
0.0046266662 -0.054859053 0.69400001 1.0149451e-39
0.0059485701 -0.054859061 0.69400001 6.4796041e-40
0.007270481 -0.054859027 0.69400001 2.7953662e-40
0.008592383 -0.054859035 0.69400001 7.3906723e-40
0.0099142855 -0.054859042 0.69400001 1.105703e-39
0.011236193 -0.054859042 0.69400001 1.104638e-39
0.012558097 -0.05485905 0.69400001 1.1060687e-39
0.013880007 -0.054859016 0.69400007 1.1071421e-39
0.015180004 -0.05477998 0.69300008 1.107505e-39
0.016500007 -0.054779962 0.69300008 1.3833731e-39
0.01784572 -0.054859031 0.69400007 1.5663182e-39
0.01919524 -0.054938104 0.69500011 8.3090833e-40
0.020607617 -0.055175275 0.69800001 9.4098593e-41
0.021905715 -0.05509619 0.69700003 3.4920386e-39
0.023266668 -0.055175267 0.69800007 6.9190415e-39
0.024596192 -0.055175252 0.69800007 7.853573e-39
0.025925713 -0.05517526 0.69800007 8.7550872e-39
0.027255239 -0.055175267 0.69800007 1.2616504e-38
0.028584763 -0.055175252 0.69800001 1.6505935e-38
0.029914284 -0.055175267 0.69800001 1.9003126e-38
0.031333335 -0.05533335 0.70000005 2.1387958e-38
-0.032452382 -0.055928577 0.72500008 8.3879974e-39
-0.030942861 -0.055697151 0.72200006 6.9010096e-39
-0.029444765 -0.055465728 0.71900004 3.4937257e-39
-0.027997144 -0.055311423 0.71700007 1.8515497e-40
-0.026594292 -0.055234313 0.71600002 8.3089012e-40
-0.025160011 -0.055080038 0.71400005 1.4744701e-39
-0.023766669 -0.055002838 0.71300012 1.4755589e-39
-0.02234572 -0.054848578 0.71100008 1.3837164e-39
-0.02096191 -0.054771442 0.71000004 1.2907963e-39
-0.019554287 -0.054617137 0.70800006 1.1996951e-39
-0.018180002 -0.054539997 0.70700002 1.6599641e-39
-0.01676191 -0.054308582 0.70400006 2.2113359e-39
-0.015420957 -0.054308586 0.70400006 1.6581691e-39
-0.014020001 -0.054077141 0.70100009 1.1053568e-39
-0.012666664 -0.053999983 0.70000011 1.0131556e-39
-0.01133333 -0.053999975 0.70000011 9.2167604e-40
-0.009971437 -0.053845745 0.69800001 1.0127899e-39
-0.0086419089 -0.053845737 0.69800001 1.1042666e-39
-0.0073123863 -0.053845745 0.69800001 1.012071e-39
-0.0059742853 -0.05376856 0.69700009 9.1987257e-40
-0.0046466696 -0.053768583 0.69700003 6.4507794e-40
-0.0033095286 -0.053614303 0.69500005 4.6249576e-40
-0.001982854 -0.053537119 0.69400001 6.4582063e-40
-0.00065999659 -0.053459983 0.69300008 7.3659254e-40
0.00066000695 -0.053459965 0.69300008 7.3768135e-40
0.0019800055 -0.05345998 0.69300008 7.3910086e-40
0.0033000035 -0.053459976 0.69300008 9.2275644e-40
0.0046200017 -0.053459994 0.69300002 1.1057086e-39
0.0059400005 -0.053460006 0.69300002 7.3800645e-40
0.0072704777 -0.053537145 0.69400001 4.6141816e-40
0.0085923867 -0.053537119 0.69400001 7.376351e-40
0.0099142855 -0.053537149 0.69400001 1.0135073e-39
0.011220005 -0.053459987 0.69300002 1.0138717e-39
0.012540002 -0.053459991 0.69300008 1.015308e-39
0.013860009 -0.053459972 0.69300008 1.1071435e-39
0.015136195 -0.053305708 0.6910001 1.1071491e-39
0.016452385 -0.0533057 0.6910001 1.3830199e-39
0.017820006 -0.053459972 0.69300008 1.5663266e-39
0.019167624 -0.053537119 0.69400007 1.0138731e-39
0.020578099 -0.05376856 0.69700003 5.5253619e-40
0.02190572 -0.053768549 0.69700003 2.3964138e-39
0.023233332 -0.053768586 0.69700003 4.3461916e-39
0.024560956 -0.053768575 0.69700003 7.1113669e-39
0.025888572 -0.053768568 0.69700009 9.9565185e-39
0.027255235 -0.053845737 0.69800001 1.2172452e-38
0.028584762 -0.053845745 0.69800001 1.440774e-38
0.029999996 -0.054000013 0.70000005 1.7990786e-38
0.031378098 -0.054077156 0.70100003 2.1670286e-38
0.032713342 -0.054077119 0.70100009 2.2217692e-38
0.034048576 -0.054077141 0.70100003 2.2774823e-38
0.035383809 -0.05407716 0.70100003 2.3050348e-38
0.037347626 -0.055002846 0.71300012 2.341769e-38
0.038542863 -0.054771438 0.71000004 2.341769e-38
0.039895233 -0.054771464 0.71000004 2.341769e-38
-0.032318097 -0.054321911 0.72200012 9.3124817e-39
-0.030942867 -0.05432193 0.72200012 7.919109e-39
-0.029444769 -0.054096207 0.7190001 4.0411556e-39
-0.027958097 -0.053870469 0.71600002 9.3671197e-41
-0.026520006 -0.053720016 0.71400005 8.3159217e-40
-0.025160007 -0.05372002 0.71400005 1.5670118e-39
-0.023766669 -0.053644743 0.71300006 1.3837164e-39
-0.022314293 -0.053419068 0.71000004 1.1996866e-39
-0.020902857 -0.053268559 0.70800006 1.0149395e-39
-0.019554287 -0.053268574 0.70800006 7.4052458e-40
-0.018128568 -0.053042833 0.70500004 1.2004349e-39
-0.01676191 -0.05296763 0.70400006 1.5677685e-39
-0.015399047 -0.052892365 0.70300007 1.3819381e-39
-0.014020003 -0.052741915 0.70100003 1.1053442e-39
-0.012630484 -0.052516222 0.69800007 1.0127815e-39
-0.011284762 -0.052440949 0.69700009 8.2911327e-40
-0.009957145 -0.052440967 0.69700003 8.2875734e-40
-0.0086295232 -0.052440949 0.69700003 8.2911607e-40
-0.0072809532 -0.052290477 0.69500011 9.2095157e-40
-0.0059571494 -0.052290507 0.69500005 9.2095017e-40
-0.0046333391 -0.052290503 0.69500005 7.3763651e-40
-0.0033047604 -0.052215226 0.69400001 4.6249856e-40
-0.0019742888 -0.051989533 0.69100004 6.4617936e-40
-0.00065714814 -0.051914304 0.69000012 8.2878116e-40
0.00065809005 -0.051989544 0.69100004 8.280721e-40
0.0019742809 -0.051989537 0.69100004 7.3766453e-40
0.0032904686 -0.051989552 0.69100004 9.2168585e-40
0.004606667 -0.051989514 0.6910001 1.1049953e-39
0.0059400043 -0.052139975 0.69300008 9.1988658e-40
0.0072600106 -0.05213996 0.69300008 6.4436468e-40
0.0085800011 -0.052139997 0.69300002 7.3618336e-40
0.0099000009 -0.052140001 0.69300002 8.2910906e-40
0.011187623 -0.051989518 0.6910001 9.2167604e-40
0.012503809 -0.051989533 0.6910001 9.223893e-40
0.013820005 -0.051989526 0.6910001 1.0149395e-39
0.015114288 -0.051914286 0.69000012 1.1074994e-39
0.016428575 -0.051914275 0.69000012 1.3837304e-39
0.017742855 -0.051914297 0.69000012 1.5659636e-39
0.019057145 -0.051914275 0.69000012 1.289018e-39
0.020489531 -0.052215211 0.69400001 9.202327e-40
0.021842858 -0.052290495 0.69500005 1.2861313e-39
0.023166666 -0.052290488 0.69500005 1.6732723e-39
0.024490476 -0.052290492 0.69500011 6.4721058e-39
0.025814289 -0.052290484 0.69500011 1.1156456e-38
0.027216189 -0.052440971 0.69700003 1.1708569e-38
0.028543811 -0.052440953 0.69700003 1.2183218e-38
0.02991429 -0.0525162 0.69800007 1.7065973e-38
0.031333335 -0.052666679 0.70000005 2.1941496e-38
0.032713342 -0.052741896 0.70100003 2.2675454e-38
0.034048568 -0.052741915 0.70100003 2.3415887e-38
0.035383813 -0.052741908 0.70100003 2.341769e-38
0.037190475 -0.053419061 0.7100001 2.341769e-38
0.038542867 -0.053419061 0.71000004 2.341769e-38
0.039726678 -0.053193334 0.70700008 2.341769e-38
-0.032318097 -0.052946668 0.72200012 7.381456e-39
-0.030942865 -0.052946683 0.72200012 8.6670828e-39
-0.029362852 -0.052579954 0.71700007 4.4206973e-39
-0.027958101 -0.052506678 0.71600002 1.8406616e-40
-0.026520004 -0.052359998 0.71400005 9.2233605e-40
-0.025124766 -0.05228667 0.71300006 1.7513891e-39
-0.023699999 -0.052139975 0.71100008 1.5673804e-39
-0.022314293 -0.052066695 0.71000004 1.3830003e-39
-0.020902857 -0.051919993 0.70800006 1.1075008e-39
-0.019526673 -0.05184669 0.70700002 9.2456271e-40
-0.018128565 -0.051699959 0.7050001 1.3844717e-39
-0.016761905 -0.051626649 0.70400012 1.752157e-39
-0.015399049 -0.051553331 0.70300001 1.7499892e-39
-0.013960006 -0.051186688 0.69800001 1.656346e-39
-0.01261238 -0.051113322 0.69700003 1.1046001e-39
-0.011284758 -0.051113307 0.69700009 6.4435627e-40
-0.0099285757 -0.050966676 0.69500005 7.3691764e-40
-0.0086047649 -0.050966669 0.69500005 9.213075e-40
-0.0072704703 -0.050893299 0.69400001 9.213075e-40
-0.0059485715 -0.050893329 0.69400001 1.0135045e-39
-0.0046266681 -0.050893337 0.69400001 6.4580521e-40
-0.0032999997 -0.05082 0.69300008 2.7847023e-40
-0.0019714299 -0.050600007 0.69000012 3.6959527e-40
-0.00065713789 -0.05059997 0.69000012 4.6179371e-40
0.00065714266 -0.050600007 0.69000012 4.6107904e-40
0.0019714285 -0.0506 0.69000012 4.6179651e-40
0.0032809579 -0.050526641 0.68900007 6.4510877e-40
0.0046000015 -0.050599996 0.69000012 8.2913429e-40
0.005914289 -0.050599992 0.69000012 6.4438289e-40
0.0072285696 -0.050600015 0.69000012 3.6849245e-40
0.0085428609 -0.050599992 0.69000012 7.3616654e-40
0.009871426 -0.050673354 0.6910001 1.1038883e-39
0.011171429 -0.050600003 0.69000012 1.01315e-39
0.012485723 -0.050599985 0.69000012 9.213075e-40
0.0138 -0.050600007 0.69000012 1.0145709e-39
0.015092387 -0.050526641 0.68900001 1.1989678e-39
0.016404767 -0.050526641 0.68900007 1.3830059e-39
0.017717145 -0.050526649 0.68900007 1.5648818e-39
0.019029528 -0.050526649 0.68900007 1.1053442e-39
0.020400958 -0.050673328 0.6910001 6.4543947e-40
0.021780005 -0.050819978 0.69300008 7.3762249e-40
0.023100004 -0.050819986 0.69300008 9.2531241e-40
0.02442001 -0.050819963 0.69300008 4.989106e-39
0.025777152 -0.050893307 0.69400007 9.1421525e-39
0.027138097 -0.050966688 0.69500005 9.9625749e-39
0.028461907 -0.05096668 0.69500005 1.0785576e-38
0.02987143 -0.051113334 0.69700003 1.5768436e-38
0.031243812 -0.051186677 0.69800001 2.0752666e-38
0.032666672 -0.051333342 0.70000005 2.2129841e-38
0.03404858 -0.051406663 0.70100003 2.341769e-38
0.035333339 -0.051333334 0.70000005 2.341769e-38
0.03682382 -0.051553324 0.70300007 2.341769e-38
0.038434293 -0.051920004 0.70800006 2.341769e-38
0.039726671 -0.05184669 0.70700002 2.341769e-38
-0.030942865 -0.051571444 0.72200012 9.3056209e-39
-0.029321909 -0.051142856 0.71600002 4.7905462e-39
-0.027880009 -0.05100004 0.71400005 2.8057218e-40
-0.026482856 -0.050928555 0.71300006 1.1056651e-39
-0.025054291 -0.05078572 0.71100008 1.8425113e-39
-0.023666672 -0.050714295 0.7100001 1.6592074e-39
-0.022251429 -0.050571419 0.70800006 1.4748246e-39
-0.02087334 -0.05050002 0.70700002 1.2908005e-39
-0.019471429 -0.050357126 0.70500004 1.1078582e-39
-0.01810286 -0.050285719 0.70400012 1.5688405e-39
-0.016738098 -0.050214283 0.70300007 1.9347406e-39
-0.015289531 -0.049857177 0.69800001 2.1173283e-39
-0.013940003 -0.049785718 0.69700003 2.2073632e-39
-0.01261238 -0.049785711 0.69700009 1.2879264e-39
-0.011252386 -0.049642876 0.69500005 3.7029312e-40
-0.0099285748 -0.049642872 0.69500005 6.4544508e-40
-0.0085923765 -0.04957141 0.69400001 9.2167043e-40
-0.0072704791 -0.04957144 0.69400001 1.0135087e-39
-0.0059485743 -0.049571443 0.69400001 1.1049813e-39
-0.0046199933 -0.049499959 0.69300008 6.4544228e-40
-0.0032904802 -0.049357157 0.6910001 9.3718841e-41
-0.0019714267 -0.04928571 0.69000012 9.2292319e-41
-0.00065428548 -0.049071424 0.6870001 9.3013988e-41
0.00065428816 -0.049071416 0.6870001 9.2660861e-41
0.0019628569 -0.049071431 0.68700004 9.4454523e-41
0.0032714321 -0.049071416 0.6870001 3.6816735e-40
0.0045799995 -0.049071424 0.6870001 5.5649906e-40
0.0058885729 -0.04907142 0.68700004 3.6780161e-40
0.0071971426 -0.049071435 0.68700004 9.5148166e-41
0.0085304817 -0.049214266 0.68900007 7.354701e-40
0.0098428605 -0.04921427 0.68900007 1.3801248e-39
0.01115524 -0.049214281 0.68900001 1.1975441e-39
0.012467627 -0.049214248 0.68900007 9.2311237e-40
0.013740004 -0.04907142 0.6870001 1.1071407e-39
0.01504857 -0.049071435 0.68700004 1.1993391e-39
0.016404768 -0.049214259 0.68900007 1.3837318e-39
0.017717147 -0.04921427 0.68900001 1.5656063e-39
0.019029533 -0.049214236 0.68900007 9.2203757e-40
0.020341916 -0.049214248 0.68900007 2.7845622e-40
0.021654297 -0.049214244 0.68900007 1.8517038e-40
0.023000009 -0.049285688 0.69000012 9.8752305e-41
0.02431429 -0.049285717 0.69000012 3.6007359e-39
0.02562857 -0.049285706 0.69000012 7.1034384e-39
0.026981907 -0.049357146 0.69100004 8.2144719e-39
0.028380007 -0.04949997 0.69300008 9.3172741e-39
0.029785719 -0.049642868 0.69500005 1.4469449e-38
0.031199053 -0.049785707 0.69700003 1.9547316e-38
0.032666672 -0.050000004 0.70000005 2.1489145e-38
0.034000006 -0.050000004 0.70000005 2.341769e-38
0.035333335 -0.050000004 0.70000005 2.341769e-38
0.03671905 -0.050071448 0.70100003 2.341769e-38
0.038054291 -0.050071415 0.70100009 2.341769e-38
0.039614297 -0.0503571 0.7050001 2.341769e-38
0.040899049 -0.050285723 0.70400012 2.341769e-38
-0.029321907 -0.049779035 0.71600008 3.7792753e-39
-0.027958093 -0.049779028 0.71600008 8.2764471e-40
-0.026482861 -0.049570486 0.71300006 1.5652182e-39
-0.025124766 -0.049570471 0.71300006 2.3020517e-39
-0.023666676 -0.049361922 0.7100001 1.8425113e-39
-0.022251433 -0.049222849 0.70800006 1.3829779e-39
-0.020873338 -0.04915335 0.70700002 1.198951e-39
-0.019471431 -0.049014278 0.70500004 1.0145709e-39
-0.018077146 -0.048875242 0.70300007 1.3826388e-39
-0.016690474 -0.04873617 0.70100003 1.7492647e-39
-0.015267621 -0.048458099 0.69700003 1.7485486e-39
-0.013939999 -0.048458084 0.69700003 1.8385919e-39
-0.012576197 -0.048319072 0.69500005 1.2890152e-39
-0.011252387 -0.048319068 0.69500005 7.3943717e-40
-0.0099285766 -0.048319064 0.69500005 8.2983634e-40
-0.0085923811 -0.04824952 0.69400001 9.2203477e-40
-0.0072704721 -0.048249498 0.69400001 1.1049925e-39
-0.0059399973 -0.048179984 0.69300008 1.2879362e-39
-0.0046066716 -0.048040979 0.69100004 2.2073576e-39
-0.0032857163 -0.047971431 0.69000012 3.1232098e-39
-0.0019685684 -0.047901891 0.68900007 3.4998872e-39
-0.00065429107 -0.047762882 0.68700004 3.9497447e-39
0.00065429002 -0.047762834 0.6870001 4.4186136e-39
0.001959997 -0.047693346 0.68600005 4.8731289e-39
0.0032666659 -0.047693335 0.68600005 5.3430684e-39
0.0045733345 -0.047693327 0.68600005 5.7114837e-39
0.0058800033 -0.047693316 0.68600005 5.5274512e-39
0.0071866713 -0.047693312 0.68600005 5.3376748e-39
0.0085057179 -0.047762834 0.6870001 3.5931521e-39
0.0098428596 -0.047901884 0.68900007 1.8403911e-39
0.011122857 -0.047762863 0.6870001 1.4752071e-39
0.012431429 -0.047762856 0.68700004 1.1085868e-39
0.013720005 -0.047693335 0.68600005 1.1078736e-39
0.015048575 -0.047762848 0.6870001 1.1067974e-39
0.016357141 -0.047762871 0.68700004 1.5666923e-39
0.017717147 -0.047901884 0.68900007 2.1166249e-39
0.019029528 -0.047901876 0.68900007 1.474131e-39
0.020341909 -0.047901891 0.68900007 9.2273962e-40
0.021654289 -0.047901891 0.68900001 7.3725395e-40
0.023000004 -0.047971405 0.69000012 5.5143337e-40
0.024314282 -0.047971442 0.69000012 2.0301297e-39
0.025628574 -0.047971413 0.69000012 3.5985849e-39
0.026942853 -0.047971442 0.69000012 4.2494026e-39
0.028298099 -0.048040945 0.6910001 4.9012698e-39
0.029742865 -0.048249513 0.69400001 1.1069365e-38
0.031109525 -0.048319064 0.69500005 1.7253573e-38
0.032526664 -0.048458114 0.69700003 2.0292413e-38
0.034000006 -0.048666663 0.70000005 2.341769e-38
0.035232387 -0.048527621 0.69800007 2.341769e-38
0.036666673 -0.048666663 0.70000005 2.341769e-38
0.038162865 -0.048875242 0.70300001 2.341769e-38
0.039501917 -0.048875224 0.70300007 2.341769e-38
0.040840961 -0.048875235 0.70300007 2.341769e-38
-0.029362857 -0.048482846 0.71700007 2.7590544e-39
-0.027880002 -0.048280008 0.71400011 1.2889802e-39
-0.026297143 -0.047874261 0.70800006 2.025469e-39
-0.024948576 -0.047874298 0.70800006 2.7605047e-39
-0.023566669 -0.047806669 0.70700002 2.0254564e-39
-0.022251433 -0.04787429 0.70800006 1.2907823e-39
-0.020814287 -0.047671411 0.70500004 1.1074784e-39
-0.019443814 -0.04760382 0.70400006 9.2238089e-40
-0.018077148 -0.047536206 0.70300007 1.1971783e-39
-0.016666668 -0.047333326 0.70000011 1.4734023e-39
-0.015267622 -0.04713048 0.69700003 1.4730435e-39
-0.013900002 -0.046995234 0.69500011 1.4730463e-39
-0.012576197 -0.046995264 0.69500005 1.290097e-39
-0.011236192 -0.046927623 0.69400001 1.1057002e-39
-0.0099142836 -0.046927601 0.69400007 1.0124227e-39
-0.0085800001 -0.046859995 0.69300008 8.2984194e-40
-0.0072599975 -0.046859983 0.69300008 1.1968406e-39
-0.0059228567 -0.046724759 0.6910001 1.4741408e-39
-0.004606666 -0.046724752 0.6910001 3.7725393e-39
-0.0032857179 -0.046657152 0.69000012 6.0817264e-39
-0.001968567 -0.046589501 0.68900007 7.0180432e-39
-0.00065332948 -0.046386652 0.68600005 7.8341651e-39
0.00065333379 -0.046386659 0.68600011 8.7593401e-39
0.0019599951 -0.046386696 0.68600005 9.6748238e-39
0.0032666645 -0.046386681 0.68600005 1.0326998e-38
0.0045600003 -0.046251431 0.68400007 1.0872619e-38
0.0058800015 -0.046386667 0.68600005 1.0785078e-38
0.0071866708 -0.046386659 0.68600005 1.0589914e-38
0.0084933406 -0.046386652 0.68600005 6.45838e-39
0.0098142894 -0.046454281 0.6870001 2.3110705e-39
0.011122859 -0.046454288 0.6870001 1.8457903e-39
0.012431432 -0.046454277 0.68700004 1.292625e-39
0.013720003 -0.046386674 0.68600005 1.1093141e-39
0.015048575 -0.046454277 0.6870001 9.2457533e-40
0.016357144 -0.046454292 0.6870001 1.7511032e-39
0.017717144 -0.046589524 0.68900001 2.5772541e-39
0.01902953 -0.046589497 0.68900007 2.1180668e-39
0.020341912 -0.046589501 0.68900007 1.5666811e-39
0.021654291 -0.046589505 0.68900007 1.2893669e-39
0.02296667 -0.046589509 0.68900007 9.2167043e-40
0.024279052 -0.046589512 0.68900001 5.5361519e-40
0.025591435 -0.046589486 0.68900007 1.0055858e-40
0.026942855 -0.04665716 0.69000012 2.831772e-40
0.028257143 -0.046657138 0.69000012 4.7983682e-40
0.029700007 -0.046859983 0.69300008 7.6534844e-39
0.031064769 -0.046927601 0.69400001 1.484969e-38
0.032433338 -0.046995226 0.69500011 1.9193257e-38
0.033902869 -0.047198106 0.69800001 2.341769e-38
0.035232384 -0.047198121 0.69800007 2.341769e-38
0.036561906 -0.047198128 0.69800001 2.341769e-38
0.03800001 -0.047333322 0.70000005 2.341769e-38
0.039333336 -0.047333352 0.70000005 2.341769e-38
0.040666677 -0.047333345 0.70000005 2.341769e-38
-0.029240007 -0.046920016 0.71400005 1.8425071e-39
-0.027723817 -0.046657152 0.71000004 7.3725535e-40
-0.026297146 -0.046525721 0.70800006 1.4740931e-39
-0.024948571 -0.046525698 0.70800006 2.2091274e-39
-0.023566667 -0.046459991 0.70700002 1.7503003e-39
-0.022220006 -0.04646001 0.70700002 1.3822562e-39
-0.02081429 -0.046328571 0.70500004 1.1982419e-39
-0.019443812 -0.046262864 0.70400012 9.2095017e-40
-0.018025717 -0.046065722 0.70100003 1.1975399e-39
-0.016619049 -0.045868576 0.69800001 1.4741211e-39
-0.015223812 -0.045671433 0.69500005 1.3822842e-39
-0.013900001 -0.045671433 0.69500011 1.2908145e-39
-0.012576198 -0.045671459 0.69500005 1.1067904e-39
-0.011236189 -0.045605708 0.69400001 9.2166903e-40
-0.0099142864 -0.045605712 0.69400001 8.3053559e-40
-0.0085799992 -0.045539998 0.69300002 8.3020348e-40
-0.0072390493 -0.045408577 0.6910001 1.3826766e-39
-0.0059228577 -0.045408569 0.69100004 1.9344169e-39
-0.004599995 -0.045342837 0.69000012 3.4156328e-39
-0.0032857158 -0.045342855 0.69000012 4.9944575e-39
-0.0019628557 -0.045145709 0.6870001 5.3586144e-39
-0.00065143377 -0.044948593 0.68400002 5.8238945e-39
0.00065142364 -0.044948593 0.68400002 5.5426511e-39
0.0019542843 -0.044948578 0.68400002 5.2811324e-39
0.0032571417 -0.04494857 0.68400002 5.3611255e-39
0.0045599998 -0.044948582 0.68400002 5.5541053e-39
0.0058628554 -0.044948585 0.68400002 5.4479009e-39
0.0071657114 -0.044948585 0.68400002 5.360352e-39
0.0084933322 -0.045080017 0.68600005 3.4188726e-39
0.0098142857 -0.04514572 0.6870001 1.487802e-39
0.011122861 -0.045145705 0.6870001 1.2025943e-39
0.012431432 -0.045145698 0.6870001 1.0153332e-39
0.013720007 -0.045079984 0.68600005 9.2421239e-40
0.015048578 -0.04514569 0.6870001 8.3311257e-40
0.016357144 -0.045145705 0.6870001 1.3837836e-39
0.017665712 -0.045145728 0.6870001 1.9358574e-39
0.018974289 -0.04514572 0.68700004 1.6596166e-39
0.020341905 -0.045277148 0.68900007 1.3851793e-39
0.021654291 -0.045277119 0.68900007 1.2922606e-39
0.022966672 -0.045277119 0.68900007 1.292625e-39
0.024279049 -0.045277126 0.68900007 1.0171241e-39
0.025591433 -0.045277126 0.68900007 8.3414113e-40
0.026942855 -0.045342859 0.69000012 7.43351e-40
0.028257141 -0.045342855 0.69000012 5.6049696e-40
0.029700005 -0.045539983 0.69300008 4.7071829e-39
0.031020006 -0.045539994 0.69300008 8.8692468e-39
0.032386679 -0.045605689 0.69400001 1.6149771e-38
0.033757146 -0.045671452 0.69500005 2.341769e-38
0.03518191 -0.045802861 0.69700003 2.341769e-38
0.036509532 -0.045802839 0.69700003 2.341769e-38
0.038000003 -0.046000011 0.70000005 2.341769e-38
0.039333336 -0.046000011 0.70000005 2.341769e-38
0.04066667 -0.046000004 0.70000005 2.341769e-38
-0.029240007 -0.045560028 0.71400005 9.2126546e-40
-0.027645716 -0.045177147 0.70800006 9.5474668e-41
-0.026260002 -0.045113336 0.70700008 8.3232224e-40
-0.024913335 -0.045113325 0.70700008 1.5673621e-39
-0.023566671 -0.04511334 0.70700008 1.5684355e-39
-0.022157144 -0.044985704 0.7050001 1.4748176e-39
-0.020784767 -0.044921909 0.70400012 1.1982461e-39
-0.019416196 -0.044858105 0.70300001 9.2166903e-40
-0.017999999 -0.044666655 0.70000005 1.1971825e-39
-0.016595241 -0.044475239 0.69700003 1.3822913e-39
-0.015223813 -0.044347629 0.69500005 1.2908173e-39
-0.013900002 -0.044347625 0.69500011 1.1075204e-39
-0.012558093 -0.044283792 0.69400001 9.2386347e-40
-0.011236194 -0.044283822 0.69400001 7.4017286e-40
-0.0098999972 -0.044219986 0.69300008 7.408707e-40
-0.0085552419 -0.044092402 0.69100004 7.4052458e-40
-0.0072390498 -0.044092394 0.69100004 1.5692105e-39
-0.0059142848 -0.044028558 0.69000012 2.3978879e-39
-0.0045933258 -0.043964721 0.68900007 3.1451331e-39
-0.0032714305 -0.043837138 0.6870001 3.7861907e-39
-0.0019599998 -0.043773331 0.68600005 3.7811727e-39
-0.00065142865 -0.04364571 0.68400007 3.7815314e-39
0.00065142877 -0.043645717 0.68400007 2.306065e-39
0.0019542847 -0.043645717 0.68400007 7.5059291e-40
0.0032571417 -0.043645717 0.68400007 4.6539224e-40
0.0045600003 -0.043645721 0.68400007 1.9633313e-40
0.00586286 -0.043645695 0.68400007 1.8412641e-40
0.0071657165 -0.043645706 0.68400007 1.0089069e-40
0.0084685748 -0.043645702 0.68400007 3.6849525e-40
0.0097999992 -0.043773349 0.68600005 5.5647524e-40
0.011106667 -0.043773338 0.68600005 6.4436748e-40
0.012413337 -0.043773331 0.68600005 6.4580241e-40
0.013720005 -0.043773327 0.68600005 6.4687861e-40
0.017085718 -0.049771424 0.78000003 6.4725275e-40
0.016357146 -0.043837138 0.6870001 9.2277466e-40
0.017665712 -0.043837152 0.6870001 1.198993e-39
0.01902953 -0.043964725 0.68900007 1.1997049e-39
0.020341912 -0.043964736 0.68900007 1.2004223e-39
0.021654293 -0.04396474 0.68900007 1.3851709e-39
0.022966672 -0.043964744 0.68900001 1.5695692e-39
0.024279052 -0.043964744 0.68900013 1.5713727e-39
0.025591439 -0.043964744 0.68900007 1.5706384e-39
0.026903814 -0.043964744 0.68900007 1.1114455e-39
0.028257145 -0.044028562 0.69000012 6.4943458e-40
0.029614292 -0.044092368 0.6910001 1.7453985e-39
0.031020002 -0.044219997 0.69300002 2.8812392e-39
0.032386675 -0.044283807 0.69400001 1.3210674e-38
0.033854291 -0.044475224 0.69700009 2.341446e-38
0.035181906 -0.044475242 0.69700003 2.341769e-38
0.036561903 -0.044539068 0.69800001 2.341769e-38
0.038000006 -0.044666674 0.70000005 2.341769e-38
0.039333336 -0.04466667 0.70000005 2.341769e-38
0.04066667 -0.044666674 0.70000005 2.341769e-38
-0.029485716 -0.044571444 0.72000003 1.0130841e-39
-0.02760667 -0.043766677 0.70700002 6.4647924e-40
-0.026260007 -0.0437667 0.70700002 1.1071113e-39
-0.024842855 -0.043642834 0.7050001 1.5670104e-39
-0.023499999 -0.043642834 0.7050001 1.6592074e-39
-0.022125717 -0.043580949 0.70400012 1.7503325e-39
-0.020755244 -0.043519065 0.70300001 1.3819199e-39
-0.019360952 -0.043395214 0.70100009 1.1053428e-39
-0.017948583 -0.04320956 0.69800001 1.1982587e-39
-0.016595237 -0.043147605 0.69700009 1.3826556e-39
-0.015201903 -0.042961895 0.69400001 1.1993503e-39
-0.01388 -0.042961903 0.69400001 1.1082561e-39
-0.01254 -0.042899996 0.69300008 8.3241333e-40
-0.011219996 -0.042899981 0.69300008 6.4907724e-40
-0.0098714279 -0.042776186 0.6910001 5.5614173e-40
-0.0085428571 -0.04271429 0.69000012 5.5614173e-40
-0.0072285715 -0.04271429 0.69000012 1.0149605e-39
-0.005905712 -0.042652369 0.68900007 1.3812291e-39
-0.0045933314 -0.042652372 0.68900007 1.7543122e-39
-0.0032714291 -0.042528566 0.6870001 2.2130945e-39
-0.0019542805 -0.042342834 0.68400007 2.2109043e-39
-0.00065047684 -0.042280942 0.68300009 2.204803e-39
0.0006504737 -0.042280957 0.68300009 1.3807905e-39
0.0019514302 -0.042280942 0.68300009 5.5138852e-40
0.0032571403 -0.042342871 0.68400002 4.6133268e-40
0.0045600045 -0.042342842 0.68400007 4.5953902e-40
0.0058542881 -0.042280931 0.68300009 2.7622676e-40
0.00716571 -0.042342875 0.68400002 1.8403253e-40
0.0084685702 -0.042342883 0.68400002 2.7658409e-40
0.0098000029 -0.042466655 0.68600005 4.5956004e-40
0.012693334 -0.048533347 0.78400004 4.6065725e-40
0.014186669 -0.048533328 0.7840001 4.6066005e-40
0.015600004 -0.048285708 0.78000009 4.6173765e-40
0.017085718 -0.048285723 0.78000003 3.6991617e-40
0.018571429 -0.048285723 0.78000003 6.4651287e-40
0.02003143 -0.048223816 0.77900004 9.2166623e-40
0.021515235 -0.048223831 0.77900004 1.0145821e-39
0.022821909 -0.047852375 0.77300012 1.1075022e-39
0.024262857 -0.047790475 0.77200001 1.2000622e-39
0.022966672 -0.042652354 0.68900007 1.2940641e-39
0.024279052 -0.042652361 0.68900007 1.3862723e-39
0.025591431 -0.042652361 0.68900001 1.4791826e-39
0.026942855 -0.042714283 0.69000012 1.6617746e-39
0.0282162 -0.042652339 0.68900007 1.7517912e-39
0.029528582 -0.042652346 0.68900007 1.6563432e-39
0.031020006 -0.042899996 0.69300002 1.4746032e-39
0.032433335 -0.04302381 0.69500011 1.1626868e-38
0.033757146 -0.04302384 0.69500005 2.1856484e-38
0.035080954 -0.043023836 0.69500005 2.2591171e-38
0.036509529 -0.043147609 0.69700009 2.341769e-38
0.037891433 -0.043209538 0.69800007 2.341769e-38
0.039220951 -0.043209553 0.69800007 2.341769e-38
0.040550482 -0.043209538 0.69800001 2.341769e-38
-0.030728569 -0.043019988 0.71700001 1.104935e-39
-0.029362854 -0.043019976 0.71700007 1.1045679e-39
-0.027723817 -0.04260001 0.71000004 1.1053008e-39
-0.026260005 -0.042420015 0.70700002 1.3818989e-39
-0.024842853 -0.042299971 0.7050001 1.5666545e-39
-0.023500003 -0.042299993 0.7050001 1.7510499e-39
-0.022125719 -0.042240005 0.70400006 1.9340133e-39
-0.020696193 -0.042059995 0.70100009 1.6567243e-39
-0.019333337 -0.042000007 0.70000011 1.2901012e-39
-0.01792286 -0.041820001 0.69700009 1.2908201e-39
-0.016595239 -0.041819982 0.69700009 1.2915446e-39
-0.015201901 -0.041639976 0.69400007 1.1997147e-39
-0.013879997 -0.041639984 0.69400001 1.0156878e-39
-0.01254 -0.041579999 0.69300008 7.3982533e-40
-0.01118762 -0.04146 0.6910001 4.6322023e-40
-0.0098571414 -0.041399993 0.69000012 4.6176288e-40
-0.0085428553 -0.041399986 0.69000012 3.7028191e-40
-0.0072180936 -0.041339982 0.68900001 3.6991757e-40
-0.0058885701 -0.041219994 0.6870001 3.6955463e-40
-0.0045800013 -0.041220009 0.68700004 4.6102719e-40
-0.0032714282 -0.041219987 0.6870001 5.542794e-40
-0.0019542866 -0.041040003 0.68400007 5.5210879e-40
-0.00065047404 -0.040979993 0.68300009 5.5210739e-40
0.00065048301 -0.04097997 0.68300009 4.6062923e-40
0.0019514279 -0.040980007 0.68300009 2.7659249e-40
0.003752378 -0.047280014 0.78800005 4.6025648e-40
0.0052600009 -0.047339998 0.78900003 6.4392747e-40
0.0067628562 -0.047340006 0.78900003 4.6025648e-40
0.0082657179 -0.047339991 0.78900003 2.7658409e-40
0.0097561888 -0.047280021 0.78800005 2.7730155e-40
0.011228575 -0.047159992 0.78600001 2.7695543e-40
0.012660952 -0.046920013 0.78200006 2.7732537e-40
0.014114289 -0.046800002 0.78000009 2.7732678e-40
0.015579999 -0.046740029 0.77900004 1.8549128e-40
0.017063811 -0.04674001 0.77900004 9.4381655e-41
0.018547617 -0.046740025 0.77900004 3.7133148e-40
0.019979998 -0.046620019 0.77700001 6.4576598e-40
0.021460008 -0.046619985 0.77700007 8.2944257e-40
0.022821909 -0.046379983 0.77300006 9.2164521e-40
0.024262859 -0.046320006 0.77200001 9.2129489e-40
0.025666678 -0.046199962 0.7700001 9.2417876e-40
0.02713334 -0.04619997 0.7700001 1.2007755e-39
0.028600009 -0.04619997 0.7700001 1.3851681e-39
0.030066676 -0.046199977 0.77000004 2.1205752e-39
0.031533346 -0.046199981 0.7700001 2.8527326e-39
0.033000007 -0.046199985 0.77000004 1.4698037e-39
0.032433331 -0.041700006 0.69500011 1.0149221e-38
0.033757143 -0.041700028 0.69500005 2.0189082e-38
0.035080951 -0.041700028 0.69500005 2.1856487e-38
0.036509532 -0.041819971 0.69700009 2.341769e-38
0.037891436 -0.041880019 0.69800001 2.341769e-38
0.039220959 -0.041880026 0.69800001 2.341769e-38
-0.030728571 -0.041654274 0.71700007 1.0134555e-39
-0.029362855 -0.041654263 0.71700007 9.2090252e-40
-0.027606672 -0.041073356 0.70700002 7.3724414e-40
-0.026260002 -0.041073345 0.70700002 1.1056735e-39
-0.024842855 -0.040957127 0.7050001 1.4744631e-39
-0.023500001 -0.040957123 0.7050001 2.0262047e-39
-0.022094294 -0.040840983 0.70300001 2.5775904e-39
-0.020696195 -0.040724769 0.70100003 1.9343972e-39
-0.019278105 -0.040550519 0.69800001 1.3830241e-39
-0.017922856 -0.040492363 0.69700009 1.2004279e-39
-0.016547628 -0.040376216 0.69500005 1.0178387e-39
-0.015179993 -0.040259957 0.69300008 9.2385506e-40
-0.013860001 -0.040259995 0.69300002 8.3092515e-40
-0.012503811 -0.040143821 0.69100004 6.4651847e-40
-0.011187625 -0.04014384 0.69100004 3.6991617e-40
-0.0098571433 -0.040085718 0.69000012 3.6917769e-40
-0.0085304715 -0.040027592 0.68900007 4.6064464e-40
-0.0071971444 -0.039911434 0.68700004 3.6879934e-40
-0.0058885692 -0.039911412 0.6870001 3.6843079e-40
-0.0045800004 -0.039911427 0.6870001 3.6877832e-40
-0.0032666686 -0.039853327 0.68600005 4.6025508e-40
-0.0022457114 -0.045662843 0.78600007 4.6061381e-40
-0.00074666616 -0.045546666 0.7840001 4.6025648e-40
0.00075047632 -0.045779049 0.78800005 3.6842239e-40
0.0022514255 -0.045779068 0.78800005 3.6842239e-40
0.0037523799 -0.045779053 0.78800005 4.6025648e-40
0.0052533285 -0.045779072 0.78800005 6.4392747e-40
0.0067542852 -0.045779057 0.78800011 4.6025508e-40
0.0082552359 -0.045779072 0.78800005 2.7658409e-40
0.0097561944 -0.045779034 0.78800005 2.7694282e-40
0.011228578 -0.045662843 0.78600001 3.6913985e-40
0.012693333 -0.045546681 0.7840001 3.6914125e-40
0.014150483 -0.04543047 0.78200006 3.6949998e-40
0.015579997 -0.045256212 0.77900004 2.7730435e-40
0.017020002 -0.045139998 0.77700001 1.8547166e-40
0.018500002 -0.045139991 0.77700007 3.7022025e-40
0.019979998 -0.045140013 0.77700001 6.4465615e-40
0.02140476 -0.045023832 0.77500004 6.4466175e-40
0.022821916 -0.044907592 0.77300012 7.3614692e-40
0.024262853 -0.044849552 0.77200001 7.3759026e-40
0.025733326 -0.044849552 0.77200001 7.390392e-40
0.02713334 -0.044733334 0.77000004 9.2344168e-40
0.028525718 -0.044617139 0.76800007 1.1989608e-39
0.02998857 -0.044617154 0.76800001 1.75178e-39
0.03145143 -0.044617143 0.76800001 2.3953404e-39
0.032914285 -0.044617154 0.76800007 1.1964496e-39
0.037891429 -0.040550511 0.69800001 2.341769e-38
0.042480003 -0.043920007 0.7560001 2.341769e-38
-0.027606672 -0.039726675 0.70700002 3.6954202e-40
-0.026260007 -0.039726689 0.70700002 8.2873772e-40
-0.024807623 -0.03955809 0.70400006 1.2900844e-39
-0.023466671 -0.039558098 0.70400012 2.2102499e-39
-0.022094287 -0.039501891 0.70300007 3.1293293e-39
-0.020666672 -0.039333336 0.70000005 2.3035343e-39
-0.019278098 -0.039220959 0.69800007 1.4762876e-39
-0.017922856 -0.039164744 0.69700009 1.1092959e-39
-0.016547622 -0.039052382 0.69500005 7.4015324e-40
-0.015179998 -0.038939983 0.69300008 7.3835257e-40
-0.013859996 -0.038939968 0.69300008 6.4578139e-40
-0.012503811 -0.038827624 0.6910001 4.6137612e-40
-0.011171431 -0.038771447 0.69000012 2.7697645e-40
-0.0098571451 -0.038771439 0.69000012 3.6808327e-40
-0.008530478 -0.038715236 0.68900001 4.6027189e-40
-0.0071971426 -0.038602851 0.68700004 4.6026629e-40
-0.005880001 -0.038546674 0.68599999 3.6842519e-40
-0.0045733373 -0.038546689 0.68600005 3.6841958e-40
-0.0037428585 -0.044165716 0.78600001 2.7694282e-40
-0.0022400019 -0.044053338 0.7840001 2.7730155e-40
-0.0007466643 -0.044053324 0.7840001 2.7694422e-40
0.00074857596 -0.044165686 0.78600007 3.6842098e-40
0.0022399982 -0.044053346 0.78400004 4.6025648e-40
0.0037428618 -0.044165686 0.78600001 5.5245071e-40
0.0052400068 -0.044165686 0.78600007 5.5209058e-40
0.0067371433 -0.044165716 0.78600001 4.6025508e-40
0.0082342932 -0.044165686 0.78600007 2.7658409e-40
0.0097066732 -0.044053316 0.7840001 3.6841958e-40
0.011199999 -0.044053353 0.78400004 3.6949718e-40
0.012660952 -0.043940969 0.78200006 3.6913985e-40
0.01411429 -0.043828569 0.78000009 3.6913985e-40
0.015540003 -0.043659993 0.77700007 3.6878252e-40
0.01702 -0.043660022 0.77700001 2.7766449e-40
0.018500006 -0.043659985 0.77700001 4.6241308e-40
0.019928573 -0.043547627 0.7750001 5.5317378e-40
0.021404756 -0.04354766 0.77500004 5.5245912e-40
0.022821911 -0.043435231 0.77300006 4.6134529e-40
0.024262851 -0.04337908 0.77200001 4.6170963e-40
0.025666675 -0.043266658 0.7700001 4.624341e-40
0.02713334 -0.043266632 0.7700001 7.3866506e-40
0.028525708 -0.043154307 0.76800007 9.2306613e-40
0.029988572 -0.043154292 0.76800007 1.3836911e-39
0.031451426 -0.043154281 0.76800007 1.8414337e-39
0.032785717 -0.042985737 0.76500005 1.0116856e-39
0.034242868 -0.042985719 0.7650001 9.4853893e-41
0.042480011 -0.042479988 0.7560001 2.341769e-38
-0.027645716 -0.038434289 0.70800006 7.3652387e-40
-0.026259998 -0.038379993 0.70700002 1.0127716e-39
-0.024807621 -0.038217138 0.70400012 1.3808535e-39
-0.023433333 -0.03816285 0.70300007 1.843282e-39
-0.022031434 -0.038054295 0.70100003 2.3953712e-39
