# .PCD v0.7 - Point Cloud Data file format
VERSION 0.7
FIELDS x y z rgb
SIZE 4 4 4 4
TYPE F F F F
COUNT 1 1 1 1
WIDTH 958
HEIGHT 1
VIEWPOINT 0 0 0 1 0 0 0
POINTS 958
DATA ascii
-0.0099142948 -0.04031812 0.69399995 9.2167884e-40
-0.0085799955 -0.040259987 0.69300002 9.2311657e-40
-0.0072390479 -0.040143814 0.69100004 1.0149535e-39
-0.0059228549 -0.040143806 0.69099998 1.1067834e-39
-0.0046066749 -0.040143829 0.69099998 1.1071365e-39
-0.0032857188 -0.040085725 0.69 1.1982727e-39
-0.001968577 -0.04002763 0.68899995 1.3823207e-39
-0.00065619865 -0.040027641 0.68899995 1.5667105e-39
0.00065429165 -0.039911419 0.68700004 1.7496641e-39
0.001962865 -0.039911415 0.68700004 1.9329721e-39
0.0032809454 -0.040027644 0.68899995 2.0255209e-39
0.0045933221 -0.040027652 0.68899995 2.2091905e-39
0.0059057092 -0.040027633 0.68899995 1.7496515e-39
0.0072180862 -0.040027644 0.68899995 1.2901138e-39
0.0085304631 -0.040027656 0.68899995 1.2901124e-39
0.0098428512 -0.040027637 0.68899995 1.290111e-39
0.011155228 -0.040027644 0.68899995 1.2901082e-39
0.012485718 -0.040085711 0.69 1.3819479e-39
0.013800007 -0.040085699 0.69000006 1.4759386e-39
0.015114288 -0.040085714 0.69 1.6624739e-39
0.016428575 -0.040085707 0.69 1.1082267e-39
0.017742855 -0.040085722 0.69000006 4.6148822e-40
0.019057134 -0.040085733 0.69 4.5202413e-39
0.020371426 -0.040085725 0.69 8.585041e-39
0.021717146 -0.04014381 0.69099998 9.8707408e-39
0.023033328 -0.040143833 0.69099998 1.1242159e-38
0.024349526 -0.040143806 0.69099998 9.9539345e-39
0.025740011 -0.04025998 0.69300002 8.7519034e-39
0.027099036 -0.040318124 0.69399989 1.4292607e-38
0.028420957 -0.040318094 0.69399995 1.9835027e-38
0.029871427 -0.040492382 0.69699997 2.1672457e-38
0.031243809 -0.040550474 0.69799995 2.341769e-38
0.032666668 -0.040666658 0.69999999 2.341769e-38
0.033999994 -0.040666688 0.69999999 2.341769e-38
0.035333324 -0.040666688 0.69999993 2.341769e-38
0.036666669 -0.04066667 0.69999999 2.341769e-38
-0.040232372 -0.040232357 0.71599996 2.2962644e-39
-0.038868573 -0.040232383 0.71599996 9.4036936e-41
-0.037400007 -0.040120021 0.71399999 8.3198033e-40
-0.03598953 -0.040063821 0.713 1.5670272e-39
-0.03453429 -0.039951436 0.71099997 1.7517786e-39
-0.033133332 -0.039895233 0.70999998 1.8432456e-39
-0.031780958 -0.039895251 0.70999998 1.5673691e-39
-0.03030001 -0.039726682 0.7069999 1.2911466e-39
-0.028830469 -0.039558075 0.70400006 1.2889956e-39
-0.027450472 -0.039501894 0.70299995 1.2893529e-39
-0.026111433 -0.039501913 0.70299995 1.1971573e-39
-0.024701912 -0.039389532 0.70099998 1.1046071e-39
-0.023333339 -0.039333344 0.69999993 1.0116983e-39
-0.022000007 -0.039333351 0.69999999 9.2059564e-40
-0.02060762 -0.039220955 0.69799995 7.3658133e-40
-0.019250484 -0.039164778 0.69699997 4.6106643e-40
-0.01792286 -0.039164767 0.69699997 3.6886379e-40
-0.016595243 -0.039164774 0.69699997 2.7667797e-40
-0.015223823 -0.039052412 0.69499999 5.5219287e-40
-0.01388001 -0.038996216 0.69399995 8.2805669e-40
-0.012558101 -0.038996205 0.69399989 1.1039205e-39
-0.011219998 -0.038939994 0.69300002 1.2875901e-39
-0.0098999934 -0.038939979 0.69300002 1.103559e-39
-0.0085552437 -0.038827632 0.69099998 9.2096558e-40
-0.0072390535 -0.038827632 0.69100004 1.0128025e-39
-0.0059142839 -0.038771421 0.69000006 1.0138787e-39
-0.004600002 -0.038771432 0.69 1.1982671e-39
-0.0032857137 -0.038771428 0.69 1.3819521e-39
-0.0019628548 -0.038602851 0.68700004 1.4745177e-39
-0.00065333041 -0.038546667 0.68599999 1.566356e-39
0.00065333868 -0.038546655 0.68599999 1.8411464e-39
0.0019542763 -0.038434312 0.68399996 2.0248118e-39
0.0032714277 -0.038602859 0.68699998 1.8407765e-39
0.0045800023 -0.038602859 0.68700004 1.5656259e-39
0.0058885748 -0.038602855 0.68700004 1.3808773e-39
0.0071971482 -0.038602848 0.68699998 1.1060855e-39
0.008530465 -0.038715262 0.68899995 1.2890376e-39
0.0098428531 -0.038715247 0.68899995 1.4734219e-39
0.011155232 -0.038715258 0.68899995 1.5648945e-39
0.012467609 -0.038715269 0.68899995 1.5656175e-39
0.013779997 -0.038715247 0.68899995 1.5666993e-39
0.015092374 -0.038715258 0.68899995 1.5684916e-39
0.016404752 -0.038715269 0.68899995 1.110749e-39
0.017717138 -0.038715251 0.68899995 5.5581663e-40
0.019029513 -0.038715258 0.68899995 3.4920666e-39
0.020371431 -0.038771428 0.69 6.4577382e-39
0.021685719 -0.038771421 0.69 9.6020586e-39
0.023 -0.038771432 0.69 1.2720511e-38
0.024314281 -0.038771451 0.69 1.1616324e-38
0.025665704 -0.038827643 0.69099998 1.0418573e-38
0.026981909 -0.038827617 0.69099998 1.4008105e-38
0.028420947 -0.038996212 0.69399995 1.7524058e-38
0.029785708 -0.039052404 0.69499999 2.0478954e-38
0.031199049 -0.039164759 0.69699997 2.341769e-38
0.032573335 -0.039220963 0.69800001 2.341769e-38
0.033902865 -0.039220951 0.69800001 2.341769e-38
0.035333328 -0.039333358 0.69999993 2.341769e-38
0.036666665 -0.03933334 0.69999999 2.341769e-38
-0.040232372 -0.038868543 0.71599996 2.1186806e-39
-0.038868573 -0.038868576 0.71599996 1.8585842e-40
-0.0374 -0.038760003 0.71399999 7.3833435e-40
-0.03598953 -0.038705729 0.71299994 1.3826276e-39
-0.034534283 -0.03859714 0.71099997 1.5666671e-39
-0.033133328 -0.038542844 0.70999998 1.7499653e-39
-0.031691439 -0.038434301 0.70799994 1.5673565e-39
-0.030214291 -0.038271438 0.70500004 1.4762427e-39
-0.028830472 -0.038217135 0.70400006 1.382259e-39
-0.02745047 -0.038162839 0.70299995 1.381543e-39
-0.026037155 -0.038054306 0.70099998 1.28899e-39
-0.024666674 -0.03800001 0.69999999 1.1960783e-39
-0.023333341 -0.038000014 0.69999999 1.1042414e-39
-0.021937154 -0.037891451 0.69799995 1.104254e-39
-0.020578096 -0.03783714 0.69699997 9.2059564e-40
-0.019250479 -0.037837148 0.69699997 7.3656311e-40
-0.017871441 -0.037728608 0.69499999 5.5252918e-40
-0.016547624 -0.037728578 0.69499999 4.5998743e-40
-0.015223812 -0.037728578 0.69499999 6.4402697e-40
-0.013880011 -0.037674312 0.69399995 8.2805529e-40
-0.01255811 -0.037674323 0.69399989 8.2805389e-40
-0.011219987 -0.037619971 0.69300002 8.2805389e-40
-0.0098714279 -0.037511427 0.69099998 8.2805389e-40
-0.0085552465 -0.037511446 0.69099998 9.2024952e-40
-0.007228577 -0.037457157 0.69 1.0128025e-39
-0.0059142886 -0.037457149 0.69000006 1.0135269e-39
-0.0046000071 -0.037457161 0.69 1.1975623e-39
-0.0032809558 -0.037402868 0.68899995 1.2894062e-39
-0.0019599928 -0.037239987 0.68600005 1.5659973e-39
-0.00065332296 -0.037239976 0.68599999 1.8422254e-39
0.00065333658 -0.037239995 0.68600005 2.301047e-39
0.0019542838 -0.037131436 0.68399996 2.8513355e-39
0.0032666686 -0.037239999 0.68600005 2.2999554e-39
0.0045600077 -0.037131418 0.68400002 1.7496585e-39
0.0058799987 -0.037239999 0.68599999 1.4734317e-39
0.0071866703 -0.037239991 0.68600005 1.1986399e-39
0.0084685748 -0.037131425 0.68399996 1.2901138e-39
0.009814295 -0.037294269 0.68700004 1.4737792e-39
0.011122857 -0.037294287 0.68699998 1.4730548e-39
0.012431429 -0.037294287 0.68700004 1.4730632e-39
0.013779993 -0.037402883 0.68899995 1.4741464e-39
0.015092372 -0.037402891 0.68899995 1.4752282e-39
0.016404746 -0.037402898 0.68899995 1.2004433e-39
0.01766572 -0.037294272 0.68700004 1.0160521e-39
0.01902952 -0.037402876 0.68899995 2.395374e-39
0.020341897 -0.037402883 0.68900001 3.6926092e-39
0.021685706 -0.037457168 0.69 5.911428e-39
0.022999991 -0.037457161 0.69 8.1355689e-39
0.024314281 -0.037457149 0.69 7.8482229e-39
0.025665712 -0.037511431 0.69099998 7.5727472e-39
0.027060008 -0.037619989 0.69300002 1.0797064e-38
0.02838001 -0.037619978 0.69300002 1.4121109e-38
0.029785711 -0.037728593 0.69499999 1.8726905e-38
0.031109508 -0.037728611 0.69499999 2.341769e-38
0.032526668 -0.037837144 0.69700003 2.341769e-38
0.033854287 -0.037837148 0.69699997 2.341769e-38
0.03523238 -0.037891448 0.69799995 2.341769e-38
0.036561906 -0.037891436 0.69799995 2.341769e-38
0.037891436 -0.037891429 0.69799995 2.341769e-38
-0.040232368 -0.037504733 0.71600002 1.9303615e-39
-0.038868573 -0.037504762 0.71600002 2.7734639e-40
-0.0374 -0.037400007 0.71399999 7.3654629e-40
-0.035989523 -0.037347622 0.71299994 1.1056861e-39
-0.034631424 -0.037347611 0.713 1.3819143e-39
-0.033179998 -0.037242845 0.71100003 1.567016e-39
-0.031691428 -0.037085708 0.70799994 1.5677293e-39
-0.030214285 -0.036928568 0.70500004 1.5677293e-39
-0.028789526 -0.036823809 0.70299995 1.4744589e-39
-0.027450476 -0.036823809 0.70300001 1.3819045e-39
-0.026037155 -0.036719065 0.70099998 1.2893515e-39
-0.024666674 -0.03666668 0.69999999 1.1968e-39
-0.023333341 -0.03666668 0.69999999 1.2889956e-39
-0.021937139 -0.036561891 0.69800001 1.2886453e-39
-0.020578101 -0.036509536 0.69699997 1.1042652e-39
-0.019250486 -0.036509544 0.69699997 9.2024111e-40
-0.017871441 -0.036404792 0.69499999 7.3621839e-40
-0.016547631 -0.036404785 0.69499999 5.525488e-40
-0.015201909 -0.036352389 0.69399995 7.3586386e-40
-0.013880007 -0.0363524 0.69399995 8.2769515e-40
-0.012539995 -0.036299989 0.69300002 5.5218586e-40
-0.011187625 -0.036195252 0.69099998 2.7739544e-40
-0.0098714316 -0.036195248 0.69099998 6.4437729e-40
-0.0085428609 -0.036142867 0.69 9.2060685e-40
-0.0072285719 -0.03614286 0.69000006 1.0124479e-39
-0.0059057288 -0.036090504 0.68899995 1.0135269e-39
-0.0045933491 -0.036090512 0.68899995 1.1053666e-39
-0.0032714258 -0.035985705 0.68700004 1.1975693e-39
-0.001960004 -0.035933346 0.68599999 1.6574726e-39
-0.00065143191 -0.035828583 0.68399996 2.1173676e-39
0.00065143668 -0.035828561 0.68400002 2.8531263e-39
0.0019542815 -0.035828583 0.68399996 3.5885222e-39
0.0032571375 -0.035828587 0.68399996 2.7584098e-39
0.0045533297 -0.035776202 0.68299997 1.840415e-39
0.0058542825 -0.035776198 0.68299997 1.5649099e-39
0.0071552373 -0.03577619 0.68299997 1.1986413e-39
0.0084561938 -0.03577619 0.68299997 1.3823081e-39
0.0097571453 -0.035776187 0.68299997 1.4737848e-39
0.011074286 -0.035828579 0.68399996 1.4723513e-39
0.012377143 -0.035828587 0.68400002 1.3815934e-39
0.013740006 -0.035985708 0.68700004 1.3819535e-39
0.015048569 -0.035985731 0.68699998 1.2908369e-39
0.01635715 -0.035985701 0.68699998 1.3826752e-39
0.017665723 -0.035985697 0.68700004 1.4745107e-39
0.018974289 -0.035985716 0.68699998 1.1968518e-39
0.02034189 -0.036090512 0.68899995 9.2782914e-40
0.021654278 -0.036090493 0.68899995 2.2149876e-39
0.022966655 -0.036090501 0.68899995 3.4210544e-39
0.024314288 -0.036142852 0.69 4.0682161e-39
0.02562857 -0.036142863 0.69 4.6246423e-39
0.026981901 -0.036195248 0.69099998 7.6692364e-39
0.028298091 -0.036195248 0.69099998 1.0616274e-38
0.029700009 -0.036299985 0.69299996 1.707279e-38
0.031064766 -0.036352381 0.69399995 2.3415538e-38
0.032433331 -0.03640477 0.69499999 2.341769e-38
0.033854291 -0.036509514 0.69699997 2.341769e-38
0.035181902 -0.036509525 0.69700003 2.341769e-38
0.036561899 -0.036561925 0.69799995 2.341769e-38
0.037891436 -0.036561891 0.69800001 2.341769e-38
-0.041828569 -0.036342856 0.71999997 3.8632383e-39
-0.040457144 -0.036342859 0.72000003 3.7782075e-39
-0.039085716 -0.036342859 0.71999997 3.6745521e-39
-0.037504755 -0.036140926 0.71599996 2.2059198e-39
-0.03598953 -0.03598953 0.713 6.4650866e-40
-0.034631435 -0.035989545 0.713 1.1071197e-39
-0.033180002 -0.035888571 0.71100003 1.4769784e-39
-0.031691439 -0.035737161 0.70799994 1.5688195e-39
-0.030214287 -0.035585716 0.70500004 1.5688153e-39
-0.028789524 -0.035484754 0.70299995 1.5670174e-39
-0.027372386 -0.035383817 0.70099998 1.4733855e-39
-0.026000008 -0.035333347 0.69999999 1.3808297e-39
-0.024666673 -0.035333347 0.69999993 1.1964454e-39
-0.023333343 -0.03533335 0.69999999 1.1971657e-39
-0.021937139 -0.035232373 0.69800001 1.1978874e-39
-0.020578096 -0.035181899 0.69699997 1.0131444e-39
-0.019195251 -0.035080977 0.69499999 8.2877275e-40
-0.017871439 -0.035080973 0.69499999 7.3695407e-40
-0.016523816 -0.035030488 0.69399989 6.4475284e-40
-0.015179997 -0.034979995 0.69299996 8.2805809e-40
-0.013859993 -0.034979984 0.69300002 1.1032016e-39
-0.012503808 -0.034879047 0.69100004 8.2840701e-40
-0.011171435 -0.034828585 0.69 5.5397392e-40
-0.0098571451 -0.034828581 0.69 6.4544788e-40
-0.0085304892 -0.034778126 0.68899995 8.2984615e-40
-0.007218102 -0.034778107 0.68899995 8.2985596e-40
-0.0058885701 -0.034677133 0.68699998 9.2205159e-40
-0.0045799958 -0.034677133 0.68700004 1.105724e-39
-0.0032666645 -0.034626663 0.68600005 1.2890446e-39
-0.0019542903 -0.034525726 0.68399996 1.3812473e-39
-0.00065142446 -0.034525704 0.68399996 1.5656315e-39
0.00065143063 -0.034525711 0.68400002 3.5027809e-39
0.001951427 -0.034475241 0.68299997 5.5242352e-39
0.0032523808 -0.034475241 0.68299997 4.1427525e-39
0.0045533367 -0.034475237 0.68299997 2.8495278e-39
0.005854289 -0.03447523 0.68299997 2.0244475e-39
0.0071552438 -0.034475226 0.68299997 1.2911942e-39
0.0084561864 -0.034475248 0.68299997 1.0149661e-39
0.0097571416 -0.034475245 0.68299997 8.313021e-40
0.011074281 -0.034525726 0.68399996 1.0142626e-39
0.012377146 -0.034525707 0.68399996 1.2901236e-39
0.013679993 -0.03452573 0.68399996 1.1068058e-39
0.014982861 -0.034525711 0.68399996 1.015329e-39
0.016285716 -0.034525715 0.68399996 1.3833885e-39
0.017640008 -0.034626655 0.68599999 1.7510934e-39
0.01894667 -0.03462667 0.68599999 1.6585432e-39
0.020253334 -0.034626655 0.68599999 1.6574614e-39
0.021559997 -0.03462667 0.68599999 2.1173494e-39
0.022899996 -0.034677155 0.68699998 2.5718815e-39
0.024208575 -0.034677133 0.68699998 2.4908262e-39
0.025591426 -0.034778111 0.68899995 2.4026117e-39
0.026903801 -0.034778114 0.68899995 3.877753e-39
0.028257146 -0.034828577 0.69000006 5.3468337e-39
0.029614283 -0.034879066 0.69099998 1.2362992e-38
0.030930478 -0.034879059 0.69099998 1.9376928e-38
0.032386664 -0.035030484 0.69399995 2.1397309e-38
0.033708569 -0.035030477 0.69399995 2.341769e-38
0.035080947 -0.035080969 0.69499999 2.341769e-38
0.036404759 -0.035080969 0.69499999 2.341769e-38
0.03783714 -0.03518191 0.69699997 2.341769e-38
0.039220948 -0.035232391 0.69799995 2.341769e-38
-0.041828562 -0.034971412 0.71999997 4.1527858e-39
-0.040457137 -0.034971416 0.71999997 5.6451505e-39
-0.039085716 -0.034971442 0.71999997 7.0922378e-39
-0.037504751 -0.03477712 0.71600002 3.6741948e-39
-0.036040001 -0.034680005 0.71399999 1.8624518e-40
-0.034631431 -0.034631431 0.713 8.3161038e-40
-0.033133328 -0.034485705 0.71000004 1.3847842e-39
-0.031691436 -0.034388587 0.70799994 1.4777043e-39
-0.030214293 -0.034242872 0.70499998 1.5688195e-39
-0.02878952 -0.034145698 0.70299995 1.5677419e-39
-0.027372384 -0.034048576 0.70099992 1.565937e-39
-0.026000008 -0.034000013 0.69999999 1.3804612e-39
-0.02459619 -0.033902854 0.69799995 1.1971545e-39
-0.023333343 -0.03400002 0.69999999 1.1964426e-39
-0.021937143 -0.033902857 0.69799995 1.1053316e-39
-0.02057809 -0.033854268 0.69699997 9.2166763e-40
-0.019195247 -0.033757165 0.69499993 7.3729179e-40
-0.017871438 -0.033757161 0.69500005 7.373044e-40
-0.016523814 -0.03370858 0.69399989 6.4474443e-40
-0.015136196 -0.033562873 0.69099998 1.0113619e-39
-0.013820003 -0.033562869 0.69099998 1.2872258e-39
-0.012485719 -0.033514298 0.69 1.1039107e-39
-0.011171429 -0.033514287 0.69 8.2875734e-40
-0.0098428698 -0.033465751 0.68899995 7.3727497e-40
-0.0085304817 -0.033465732 0.68899995 6.4581082e-40
-0.0071971389 -0.033368561 0.68699998 7.3801766e-40
-0.0058885682 -0.033368561 0.68700004 8.3020908e-40
-0.004573334 -0.033320002 0.68599999 1.1064316e-39
-0.0032666635 -0.033319995 0.68599999 1.2890334e-39
-0.0019542824 -0.033222854 0.68399996 1.1039345e-39
-0.00065142772 -0.033222854 0.68399996 9.274648e-40
0.00065141899 -0.033222876 0.68399996 4.1593117e-39
0.0019514242 -0.033174299 0.68299997 7.3717464e-39
0.0032523761 -0.033174295 0.68299997 5.6221944e-39
0.004553332 -0.033174291 0.68299991 3.8690593e-39
0.005854296 -0.033174265 0.68299997 2.5751017e-39
0.0071552382 -0.033174284 0.68299997 1.2897565e-39
0.0084561929 -0.033174284 0.68299997 7.3909526e-40
0.0097428514 -0.033125736 0.68199998 1.8772074e-40
0.0110581 -0.033174276 0.68299997 6.4689542e-40
0.012359054 -0.033174273 0.68299997 1.1064372e-39
0.013660008 -0.033174269 0.68299997 9.2277326e-40
0.014982858 -0.033222858 0.68399996 6.4798563e-40
0.016285712 -0.033222862 0.68400002 1.2919131e-39
0.017588567 -0.033222862 0.68399996 1.9347644e-39
0.018891424 -0.033222869 0.68399996 2.1198745e-39
0.020253334 -0.033319995 0.68599999 2.3013875e-39
0.021560006 -0.033319984 0.68599999 2.0255167e-39
0.02286667 -0.033320002 0.68599999 1.6563754e-39
0.024173338 -0.033319991 0.68599999 9.2096978e-40
0.025517153 -0.03336855 0.68700004 9.8057261e-41
0.026903795 -0.033465751 0.68899995 9.2338562e-41
0.028216174 -0.033465758 0.68899995 1.053272e-40
0.029528558 -0.033465743 0.68899995 7.7471178e-39
0.030885719 -0.033514284 0.69 1.531174e-38
0.032246672 -0.033562846 0.69099998 1.9376928e-38
0.033660006 -0.033659995 0.69300002 2.341769e-38
0.035030469 -0.03370858 0.69399995 2.341769e-38
0.036404762 -0.033757154 0.69499999 2.341769e-38
0.03783714 -0.033854306 0.69699997 2.341769e-38
0.039220944 -0.033902876 0.69799995 2.341769e-38
-0.041828565 -0.033599991 0.71999997 7.6519136e-39
-0.040457141 -0.033599995 0.71999997 9.319746e-39
-0.039085723 -0.033600021 0.71999997 1.0966947e-38
-0.037504762 -0.033413325 0.71599996 5.5234435e-39
-0.036040004 -0.033320006 0.71399999 1.8408297e-40
-0.034534279 -0.033179983 0.71100003 5.5502349e-40
-0.033133324 -0.033133321 0.71000004 9.2560668e-40
-0.031691428 -0.033039995 0.70799994 1.2018418e-39
-0.030171426 -0.032853324 0.704 1.5691838e-39
-0.028789518 -0.032806642 0.70299995 1.5677475e-39
-0.027372388 -0.032713342 0.70099998 1.5659342e-39
-0.02600001 -0.032666683 0.69999999 1.4733616e-39
-0.024666676 -0.032666687 0.69999993 1.3818933e-39
-0.023333333 -0.032666668 0.69999999 1.2893487e-39
-0.021937149 -0.032573342 0.69799995 1.1971643e-39
-0.020578096 -0.032526664 0.69699997 1.1053372e-39
-0.019195246 -0.03243335 0.69499999 9.2095857e-40
-0.017871434 -0.032433346 0.69499999 7.3693726e-40
-0.016523814 -0.032386675 0.69399989 5.5218306e-40
-0.015136189 -0.03224666 0.69099998 8.2804128e-40
-0.013820007 -0.032246683 0.69099998 1.1039079e-39
-0.012485714 -0.032199997 0.69 9.2023691e-40
-0.011155244 -0.032153349 0.68899995 8.2803427e-40
-0.0098428661 -0.032153357 0.68899995 8.2874192e-40
-0.0085057141 -0.032059997 0.68700004 7.3728198e-40
-0.0071971393 -0.032059986 0.68699998 8.2949162e-40
-0.0058799968 -0.032013319 0.68599999 9.2203898e-40
-0.0045733247 -0.032013312 0.68599999 1.105703e-39
-0.0032666645 -0.032013327 0.68599999 1.2893796e-39
-0.0019514321 -0.031873345 0.68299997 1.0128025e-39
-0.00065047963 -0.031873338 0.68299997 6.4587808e-40
0.00065047509 -0.031873334 0.68299997 4.3401619e-39
0.0019514288 -0.031873334 0.68299997 8.0282659e-39
0.0032523836 -0.03187333 0.68299997 6.0900109e-39
0.0045533259 -0.031873353 0.68299997 4.2457424e-39
0.0058542807 -0.031873345 0.68299997 2.5783289e-39
0.0071552354 -0.031873345 0.68299997 1.0128109e-39
0.0084561901 -0.031873342 0.68299997 1.0128011e-39
0.0097571416 -0.031873334 0.68299997 1.1053414e-39
0.011058098 -0.03187333 0.68299997 1.198958e-39
0.012359042 -0.031873353 0.68299997 1.3826472e-39
0.013659995 -0.031873353 0.68299997 1.1986357e-39
0.014960947 -0.031873345 0.68299997 1.1060869e-39
0.016261902 -0.031873342 0.68299997 1.4748666e-39
0.017588567 -0.031920016 0.68399996 1.8418541e-39
0.01889142 -0.03192002 0.68399996 2.118441e-39
0.020194288 -0.031919993 0.68399996 2.3928671e-39
0.021497132 -0.031920023 0.68399996 2.1177137e-39
0.0228 -0.031920001 0.68399996 1.9329385e-39
0.024102854 -0.031920001 0.68399996 1.4740903e-39
0.025480008 -0.032013316 0.68600005 1.0163562e-39
0.026786681 -0.032013305 0.68600005 6.457926e-40
0.02813429 -0.032059997 0.68700004 1.8418106e-40
0.029528566 -0.032153353 0.68899995 4.245825e-39
0.030840943 -0.032153361 0.68899995 8.2249494e-39
0.032199994 -0.032200016 0.69 1.5873547e-38
0.033514284 -0.032200009 0.69 2.341769e-38
0.034879051 -0.03224666 0.69099998 2.341769e-38
0.036352374 -0.032386694 0.69399989 2.341769e-38
0.037728563 -0.032433361 0.69499999 2.341769e-38
0.039052375 -0.032433353 0.69499999 2.341769e-38
0.040492378 -0.032526664 0.69699997 2.341769e-38
-0.041828569 -0.03222857 0.71999997 1.1062809e-38
-0.040400952 -0.0321838 0.71899998 1.2923251e-38
-0.039031435 -0.032183822 0.71899998 1.4736534e-38
-0.037504762 -0.032049514 0.71599996 7.4516442e-39
-0.035989527 -0.031915244 0.713 9.6192133e-41
-0.034534287 -0.03182571 0.71100003 2.7878553e-40
-0.033040009 -0.031691443 0.70799994 3.7315037e-40
-0.031646673 -0.031646684 0.7069999 9.2597522e-40
-0.030171432 -0.031512387 0.704 1.4762763e-39
-0.028789524 -0.031467613 0.70299995 1.5674e-39
-0.027372386 -0.031378102 0.70099998 1.5666615e-39
-0.025999999 -0.031333327 0.69999999 1.5655643e-39
-0.024596198 -0.031243822 0.69799995 1.5652111e-39
-0.023266669 -0.031243816 0.69800001 1.4730239e-39
-0.021905726 -0.031199072 0.69699997 1.2893613e-39
-0.020578101 -0.03119906 0.69700003 1.1971769e-39
-0.019195253 -0.031109558 0.69499999 1.1049883e-39
-0.017845724 -0.03106478 0.69399995 8.2877135e-40
-0.016499989 -0.031019969 0.69300002 4.6141676e-40
-0.015136193 -0.030930478 0.69099998 6.4507654e-40
-0.013800009 -0.030885736 0.69 8.2875314e-40
-0.012485719 -0.030885728 0.69 8.2876014e-40
-0.011155251 -0.030840984 0.68899995 8.2875874e-40
-0.0098142847 -0.030751426 0.68700004 8.2839861e-40
-0.0085057216 -0.030751446 0.68699998 8.2876995e-40
-0.0071866582 -0.030706648 0.68600005 9.2061806e-40
-0.0058799977 -0.030706661 0.68600005 9.2168725e-40
-0.0045733266 -0.03070665 0.68600005 1.1053526e-39
-0.0032571449 -0.03061715 0.68399996 1.2893894e-39
-0.0019514274 -0.030572379 0.68299997 8.2842523e-40
-0.00065047265 -0.030572375 0.68299997 3.7610711e-40
0.00065048021 -0.030572372 0.68299997 4.5270432e-39
0.0019514335 -0.030572368 0.68299997 8.5724448e-39
0.0032523789 -0.030572392 0.68299997 6.6467454e-39
0.0045533339 -0.030572388 0.68299997 4.6091369e-39
0.0058542858 -0.030572383 0.68299997 2.6637226e-39
0.00715524 -0.030572379 0.68299997 6.4800385e-40
0.0084437989 -0.030527651 0.68199998 1.2861888e-39
0.0097428495 -0.03052764 0.68199998 1.9354776e-39
0.011041902 -0.030527633 0.68199998 1.7525059e-39
0.012340945 -0.030527644 0.68199998 1.5681287e-39
0.01366 -0.030572383 0.68299997 1.5670623e-39
0.014960956 -0.030572383 0.68299997 1.5677825e-39
0.016261905 -0.030572377 0.68299997 1.6596208e-39
0.017562861 -0.030572373 0.68299997 1.7521822e-39
0.018863805 -0.030572394 0.68299997 2.1191739e-39
0.02016476 -0.03057239 0.68299997 2.3953866e-39
0.021465711 -0.03057239 0.68299997 2.3028238e-39
0.022766668 -0.030572385 0.68299997 2.1191388e-39
0.024102854 -0.030617155 0.68400002 2.0265733e-39
0.025405712 -0.030617159 0.68399996 1.9350979e-39
0.02678667 -0.030706665 0.68599999 1.1064274e-39
0.028093327 -0.030706678 0.68599999 2.7850246e-40
0.029442865 -0.030751422 0.68700004 7.3555698e-40
0.030751429 -0.030751439 0.68699998 1.1345669e-39
0.032153331 -0.030840958 0.68899995 1.2290528e-38
0.03346571 -0.030840965 0.68900001 2.3414103e-38
0.034828581 -0.030885708 0.69 2.341769e-38
0.03619523 -0.030930499 0.69099998 2.341769e-38
0.037674282 -0.03106478 0.69399995 2.341769e-38
0.039052367 -0.031109566 0.69499999 2.341769e-38
0.040492374 -0.031199064 0.69699997 2.341769e-38
-0.041828573 -0.030857155 0.71999997 1.2462291e-38
-0.040400956 -0.030814292 0.71899998 1.3378879e-38
-0.039031431 -0.030814288 0.71899998 1.4288502e-38
-0.037504762 -0.030685706 0.71599996 7.1854788e-39
-0.036039997 -0.030599998 0.71399999 9.2246077e-41
-0.034534283 -0.030471416 0.71099997 4.6208237e-40
-0.033040006 -0.030342869 0.70799994 9.2343747e-40
-0.03164668 -0.030300023 0.7069999 1.200044e-39
-0.030171426 -0.030171424 0.704 1.5673986e-39
-0.02878952 -0.030128559 0.70299995 1.5674098e-39
-0.027372386 -0.030042864 0.70099998 1.659583e-39
-0.026037151 -0.030042874 0.70099998 1.5662901e-39
-0.024596192 -0.029914284 0.69800001 1.4733827e-39
-0.023266662 -0.029914275 0.69799995 1.38155e-39
-0.021905722 -0.029871443 0.69699997 1.19753e-39
-0.020578096 -0.029871428 0.69699997 1.1057044e-39
-0.019195242 -0.029785721 0.69499999 1.0135129e-39
-0.01784572 -0.029742872 0.69399995 7.3765052e-40
-0.0165 -0.029699994 0.69299996 4.6248595e-40
-0.015136196 -0.029614301 0.69099998 5.5322843e-40
-0.013800004 -0.029571438 0.69 5.5288231e-40
-0.012467625 -0.029528584 0.68899995 6.4544648e-40
-0.011122854 -0.029442852 0.68700004 7.3800645e-40
-0.0098142838 -0.029442854 0.68700004 8.2913149e-40
-0.0085057197 -0.029442871 0.68699998 9.1989919e-40
-0.0071866675 -0.029400004 0.68599999 9.2134253e-40
-0.0058799959 -0.029399991 0.68599999 9.2277185e-40
-0.0045733354 -0.029400008 0.68599999 8.3093075e-40
-0.0032571477 -0.029314298 0.68399996 8.3165663e-40
-0.0019514312 -0.029271437 0.68299997 5.5400615e-40
-0.00065047637 -0.029271429 0.68299997 2.7852909e-40
0.00064952095 -0.029228579 0.68199998 3.0447427e-39
0.0019485618 -0.029228594 0.68199998 5.8119807e-39
0.0032476054 -0.029228607 0.68199998 7.1005237e-39
0.0045466567 -0.0292286 0.68199998 8.3704448e-39
0.0058457088 -0.029228585 0.68199998 7.4596302e-39
0.0071447529 -0.029228603 0.68199998 6.444786e-39
0.0084438035 -0.029228596 0.68199998 4.5169665e-39
0.009742856 -0.029228581 0.68199998 2.5880399e-39
0.011041895 -0.0292286 0.68199998 2.3082062e-39
0.012340947 -0.029228592 0.68199998 2.0298327e-39
0.013639988 -0.029228602 0.68199998 1.7536115e-39
0.01493903 -0.029228617 0.68199998 1.5713783e-39
0.016238093 -0.029228583 0.68199998 1.5703035e-39
0.017562857 -0.029271437 0.68299997 1.662869e-39
0.018863812 -0.029271433 0.68299997 1.9380294e-39
0.020164765 -0.029271424 0.68299997 2.214954e-39
0.021465719 -0.02927142 0.68299997 2.121308e-39
0.022766674 -0.02927142 0.68299997 2.0301928e-39
0.024102859 -0.029314283 0.68400002 2.0294781e-39
0.025405709 -0.029314306 0.68399996 1.9379972e-39
0.026708571 -0.029314285 0.68399996 1.6606914e-39
0.028011428 -0.029314287 0.68399996 1.4755673e-39
0.02940001 -0.029399976 0.68600005 1.0124255e-39
0.030706672 -0.029399993 0.68600005 6.4342721e-40
0.032153327 -0.02952859 0.68899995 1.0243601e-38
0.033465706 -0.029528599 0.68899995 1.9836106e-38
0.034828573 -0.029571427 0.69000006 2.158098e-38
0.036195241 -0.029614292 0.69099998 2.341769e-38
0.037620008 -0.029699994 0.69299996 2.341769e-38
0.039052382 -0.029785726 0.69499999 2.341769e-38
0.040492382 -0.029871432 0.69699997 2.341769e-38
0.041699987 -0.029785747 0.69499999 2.341769e-38
-0.040400952 -0.029444758 0.71899998 1.3749078e-38
-0.039031424 -0.029444754 0.71899998 1.3729945e-38
-0.037557147 -0.029362865 0.71699995 6.9088849e-39
-0.036039997 -0.029239999 0.71399999 9.7971782e-41
-0.034631431 -0.029199058 0.713 7.3757205e-40
-0.033133328 -0.029076181 0.71000004 1.3822422e-39
-0.031646669 -0.028953338 0.70699996 1.5673776e-39
-0.030171432 -0.028830485 0.704 1.659583e-39
-0.028789528 -0.028789528 0.70299995 1.6592369e-39
-0.027450476 -0.028789524 0.70299995 1.6592215e-39
-0.026000012 -0.028666688 0.69999993 1.5666531e-39
-0.024596196 -0.028584767 0.69799995 1.3826262e-39
-0.023266668 -0.02858476 0.69799995 1.2907935e-39
-0.021905717 -0.028543808 0.69699997 1.1060533e-39
-0.020519061 -0.028461931 0.69499999 1.0138675e-39
-0.019167621 -0.028420949 0.69399995 9.2167744e-40
-0.01784572 -0.028420966 0.69399995 7.3800925e-40
-0.016452381 -0.028298095 0.69099998 4.6249856e-40
-0.015114288 -0.028257145 0.69 3.6922393e-40
-0.013799998 -0.028257141 0.69 2.781059e-40
-0.01246763 -0.028216215 0.68899995 4.6177829e-40
-0.011122855 -0.028134281 0.68700004 6.4617095e-40
-0.0098142913 -0.028134298 0.68699998 8.2984615e-40
-0.0085057179 -0.028134296 0.68699998 1.0131654e-39
-0.0071971347 -0.02813427 0.68700004 9.2241312e-40
-0.0058799977 -0.028093325 0.68600005 8.3092795e-40
-0.0045733275 -0.028093318 0.68600005 6.4796742e-40
-0.0032571501 -0.028011449 0.68399996 3.7068128e-40
-0.0019514246 -0.02797047 0.68299997 2.76706e-40
-0.00065048289 -0.027970489 0.68299997 9.3421766e-41
0.00064951583 -0.027929544 0.68199998 1.5617401e-39
0.0019485576 -0.027929556 0.68199998 3.0569494e-39
0.003238091 -0.027847629 0.67999995 7.6641609e-39
0.0045333281 -0.027847633 0.67999995 1.2160517e-38
0.0058285771 -0.027847612 0.67999995 1.2267063e-38
0.0071447538 -0.027929544 0.68199998 1.224946e-38
0.0084190499 -0.027847614 0.67999995 7.7491371e-39
0.0097142877 -0.027847618 0.67999995 3.1433465e-39
0.011009525 -0.027847623 0.67999995 2.862075e-39
0.012304762 -0.027847627 0.67999995 2.4900681e-39
0.013639984 -0.027929569 0.68199998 2.0298131e-39
0.014939046 -0.027929535 0.68199998 1.478084e-39
0.016238086 -0.02792955 0.68199998 1.5702796e-39
0.017562851 -0.027970485 0.68299997 1.5702853e-39
0.018863807 -0.027970482 0.68299997 1.7546807e-39
0.02016476 -0.027970485 0.68299997 1.9376244e-39
0.021465715 -0.027970476 0.68299997 1.9376146e-39
0.022766661 -0.027970502 0.68299997 1.9376188e-39
0.024067614 -0.027970493 0.68299997 1.9386992e-39
0.025405718 -0.028011434 0.68399996 1.9379818e-39
0.026708571 -0.028011436 0.68399996 2.3056825e-39
0.028011424 -0.028011438 0.68400002 2.577952e-39
0.029400006 -0.028093332 0.68599999 1.3783424e-39
0.030706674 -0.028093323 0.68599999 9.9925192e-41
0.032060001 -0.028134288 0.68700004 8.1123186e-39
0.03346571 -0.028216209 0.68899995 1.6138983e-38
0.03482857 -0.028257154 0.69 1.9836106e-38
0.036195237 -0.028298108 0.69099998 2.341769e-38
0.037620001 -0.028379997 0.69300002 2.341769e-38
0.038996182 -0.028420979 0.69399989 2.341769e-38
0.040376179 -0.028461933 0.69499999 2.341769e-38
0.041820005 -0.028543808 0.69699997 2.341769e-38
-0.03755714 -0.02799714 0.71699995 4.7019519e-39
-0.036040001 -0.027880002 0.71399999 2.7588904e-40
-0.034631427 -0.027840946 0.713 5.5352551e-40
-0.033133328 -0.027723793 0.71000004 8.3049915e-40
-0.031646673 -0.027606674 0.70700002 1.2911438e-39
-0.030171437 -0.027489545 0.704 1.7524863e-39
-0.028789526 -0.027450474 0.70299995 1.75178e-39
-0.027372396 -0.027372407 0.70099998 1.8428896e-39
-0.02603716 -0.02737242 0.70099998 1.9343566e-39
-0.024596199 -0.02725525 0.69799995 2.1180304e-39
-0.023266671 -0.027255243 0.69799995 1.5663014e-39
-0.021905722 -0.027216202 0.69699997 1.1060547e-39
-0.020519057 -0.027138116 0.69499999 1.0138661e-39
-0.019195246 -0.027138112 0.69499999 1.0135115e-39
-0.017845718 -0.027099056 0.69399989 8.3020348e-40
-0.016499991 -0.027059974 0.69300002 5.5542286e-40
-0.015114293 -0.026942873 0.69 5.5435367e-40
-0.013800004 -0.026942866 0.69 6.4617936e-40
-0.012467626 -0.026903829 0.68899995 7.3764491e-40
-0.011122853 -0.026825706 0.68700004 9.2203477e-40
-0.0098142885 -0.026825722 0.68699998 9.2131871e-40
-0.008505716 -0.026825724 0.68700004 9.2096558e-40
-0.0071971342 -0.026825694 0.68700004 9.2204738e-40
-0.0058799949 -0.026786657 0.68599999 8.3092094e-40
-0.0045733354 -0.026786672 0.68599999 8.2947621e-40
-0.0032571435 -0.026708577 0.68399996 7.3586526e-40
-0.0019514293 -0.02666953 0.68299997 3.0407392e-39
-0.00064953155 -0.026630497 0.68199998 5.3284024e-39
0.00064761826 -0.026552387 0.67999995 6.1757535e-39
0.0019428541 -0.026552388 0.67999995 7.01667e-39
0.003238091 -0.026552392 0.67999995 7.937225e-39
0.0045333402 -0.026552368 0.67999995 8.9527964e-39
0.0058285762 -0.026552372 0.67999995 8.0287003e-39
0.007123813 -0.026552374 0.67999995 7.0166573e-39
0.0084190508 -0.026552377 0.67999995 4.5226894e-39
0.0097142886 -0.026552377 0.67999995 2.1295575e-39
0.011009526 -0.026552379 0.67999995 1.8475644e-39
0.012304761 -0.026552383 0.67999995 1.6613781e-39
0.013599999 -0.026552383 0.67999995 1.3847898e-39
0.014939039 -0.026630498 0.68199998 1.2004013e-39
0.016261905 -0.026669528 0.68299997 1.1085658e-39
0.017562859 -0.026669525 0.68299997 1.1092847e-39
0.018863814 -0.026669519 0.68299997 1.2929557e-39
0.020164769 -0.026669519 0.68299997 1.4755477e-39
0.021465708 -0.02666954 0.68299997 1.5680964e-39
0.022766665 -0.026669536 0.68299997 1.6602977e-39
0.024067618 -0.026669528 0.68299997 1.6610207e-39
0.025368575 -0.026669526 0.68299997 1.6606676e-39
0.026669528 -0.026669523 0.68299997 1.9368958e-39
0.028011434 -0.026708562 0.68399996 2.3049566e-39
0.029314283 -0.02670859 0.68399996 1.1979098e-39
0.030617142 -0.026708564 0.68399996 1.8420629e-40
0.032060005 -0.026825713 0.68700004 4.1554469e-39
0.033368565 -0.02682573 0.68699998 8.1392235e-39
0.034828577 -0.026942857 0.69 1.5783147e-38
0.036195241 -0.026981905 0.69100004 2.341769e-38
0.037620008 -0.027059974 0.69300002 2.341769e-38
0.038996182 -0.027099073 0.69399989 2.341769e-38
0.040376194 -0.027138099 0.69500005 2.341769e-38
0.041819997 -0.027216204 0.69699997 2.341769e-38
-0.037557144 -0.02663142 0.71699995 2.3938676e-39
-0.036040001 -0.026520008 0.71399999 3.7132167e-40
-0.034534276 -0.026408557 0.71100003 3.6987553e-40
-0.033040009 -0.026297154 0.70799994 2.7914006e-40
-0.031646669 -0.026260011 0.70699996 1.0142052e-39
-0.030171422 -0.026148561 0.70400006 1.7507024e-39
-0.02878952 -0.026111418 0.70300001 1.8436323e-39
-0.027372384 -0.026037147 0.70099998 1.9354524e-39
-0.026000012 -0.02600003 0.69999999 2.3935397e-39
-0.024596192 -0.025925716 0.69800001 2.7605201e-39
-0.023266664 -0.025925709 0.69800001 1.9336405e-39
-0.021905717 -0.025888572 0.69699997 1.0145765e-39
-0.020519059 -0.025814308 0.69500005 1.105703e-39
-0.019195247 -0.0258143 0.69499999 1.1057058e-39
-0.017845718 -0.02577715 0.69399989 9.2203898e-40
-0.016452389 -0.025665728 0.69099998 6.4653109e-40
-0.015114288 -0.025628572 0.69 8.2984335e-40
-0.013780009 -0.025591454 0.68899995 9.2131591e-40
-0.012431424 -0.025517134 0.68700004 1.0127885e-39
-0.011122852 -0.02551713 0.68700004 1.1049883e-39
-0.0098142875 -0.025517151 0.68699998 1.0124409e-39
-0.0084933294 -0.025479987 0.68600005 8.2949442e-40
-0.0071866564 -0.025479974 0.68599999 8.2950283e-40
-0.0058799968 -0.025479991 0.68599999 8.3021749e-40
-0.004560004 -0.025405724 0.68400002 1.0110172e-39
-0.0032571459 -0.025405724 0.68399996 1.1168811e-39
-0.0019485785 -0.025331445 0.68199998 5.9131712e-39
-0.00064761768 -0.025257142 0.67999995 1.0594993e-38
0.00064665993 -0.025220012 0.67899996 1.0795891e-38
0.0019399857 -0.025220037 0.67899996 1.0872658e-38
0.0032333301 -0.025220009 0.67900002 8.2987515e-39
0.0045266552 -0.025220027 0.67899996 5.7198131e-39
0.0058199922 -0.025220025 0.67899996 3.7865929e-39
0.0071133338 -0.025219997 0.67900002 1.7597072e-39
0.0084066605 -0.02522002 0.67899996 1.3783284e-39
0.0096999956 -0.02522001 0.67899996 1.0156401e-39
0.01099333 -0.025220012 0.67900002 9.2056621e-40
0.012286665 -0.025220005 0.67899996 8.3052017e-40
0.013579991 -0.025220025 0.67899996 8.3051457e-40
0.01489525 -0.025257122 0.67999995 8.3051597e-40
0.016190484 -0.025257127 0.67999995 7.3760428e-40
0.017485723 -0.025257124 0.67999995 6.4756524e-40
0.018863808 -0.025368579 0.68299997 8.3159917e-40
0.020164765 -0.025368575 0.68299997 1.0152604e-39
0.023728561 -0.028042881 0.755 1.1989229e-39
0.025166653 -0.028042879 0.755 1.291127e-39
0.026604751 -0.028042883 0.755 1.3836911e-39
0.027931416 -0.027931461 0.75199997 1.383338e-39
0.026708575 -0.025405711 0.68399996 1.6592088e-39
0.028011432 -0.025405716 0.68399996 1.9354412e-39
0.029314276 -0.025405737 0.68399996 1.1074938e-39
0.030617142 -0.025405718 0.68399996 1.8666417e-40
0.032060005 -0.025517138 0.68700004 1.8526567e-40
0.033368565 -0.025517154 0.68700004 1.2580858e-40
0.034778092 -0.025591435 0.68899995 1.1830982e-38
0.036090471 -0.025591446 0.68899995 2.3413738e-38
0.03957428 -0.027077146 0.72899997 2.341769e-38
0.040962864 -0.027077129 0.72899997 2.341769e-38
0.040492382 -0.025888562 0.69699997 2.341769e-38
0.041820005 -0.025888572 0.69699997 2.341769e-38
0.043147627 -0.02588856 0.69700003 2.341769e-38
-0.037557147 -0.025265723 0.71699995 2.116566e-39
-0.036040004 -0.025160011 0.71399999 1.2007222e-39
-0.034534287 -0.025054283 0.71099997 1.0148974e-39
-0.033040009 -0.024948584 0.70799994 8.3088171e-40
-0.031557146 -0.024842864 0.70500004 1.1982377e-39
-0.030128567 -0.024772363 0.70299995 1.5656063e-39
-0.028707618 -0.024701901 0.70099998 1.7514549e-39
-0.027333338 -0.024666667 0.69999999 1.8454218e-39
-0.025925713 -0.024596186 0.69800001 2.0269194e-39
-0.024596196 -0.024596201 0.69800001 2.2095086e-39
-0.023266668 -0.024596192 0.69799995 1.7503241e-39
-0.021842863 -0.024490489 0.69499999 1.2907991e-39
-0.020578096 -0.024560954 0.69700003 1.1978986e-39
-0.019195244 -0.024490485 0.69499999 1.1053484e-39
-0.017820004 -0.024420016 0.69299996 9.2167884e-40
-0.016452391 -0.024349548 0.69099998 8.2947621e-40
-0.015092383 -0.024279052 0.68899995 8.294678e-40
-0.013780007 -0.02427906 0.68899995 9.2058863e-40
-0.012431423 -0.024208559 0.68700004 9.2094877e-40
-0.011106671 -0.024173342 0.68599999 1.0135115e-39
-0.0097999992 -0.024173332 0.68599999 9.2132571e-40
-0.0084933387 -0.024173342 0.68599999 7.383834e-40
-0.0071866675 -0.024173332 0.68599999 1.1064527e-39
-0.0058799977 -0.024173323 0.68599999 1.383757e-39
-0.0045599956 -0.02410285 0.68400002 1.5720957e-39
-0.0032523826 -0.024067622 0.68299997 1.6747506e-39
-0.0019428527 -0.023961898 0.68000001 3.9800225e-39
-0.00064667239 -0.023926685 0.67899996 6.1991286e-39
0.00064665993 -0.023926686 0.67900002 5.8163471e-39
0.001939995 -0.023926679 0.67900002 5.5318219e-39
0.0032333217 -0.023926696 0.67899996 4.2396173e-39
0.0045266571 -0.023926694 0.67899996 2.9431374e-39
0.0058200005 -0.023926666 0.67900002 2.0269138e-39
0.0071133254 -0.023926685 0.67899996 1.1942608e-39
0.0084066624 -0.023926683 0.67899996 1.0109135e-39
0.0096999966 -0.023926679 0.67900002 8.2725234e-40
0.01099333 -0.023926673 0.67899996 7.3650285e-40
0.012286657 -0.023926698 0.67899996 6.4430442e-40
0.013580001 -0.02392667 0.67900002 6.4501628e-40
0.014895251 -0.023961877 0.68000001 6.4537642e-40
0.017999992 -0.026640024 0.75599998 5.5390105e-40
0.019440001 -0.026640005 0.75599992 4.6207116e-40
0.020880008 -0.026639989 0.75599998 6.4610649e-40
0.022320006 -0.026639994 0.75599998 7.3828671e-40
0.023728564 -0.026604775 0.755 9.2194369e-40
0.025166649 -0.026604798 0.755 1.0137932e-39
0.02660476 -0.026604777 0.755 1.1060014e-39
0.027931416 -0.026499081 0.75199997 1.105291e-39
0.029090466 -0.026252413 0.745 1.2911214e-39
0.030509517 -0.0262524 0.745 1.4758826e-39
0.031928569 -0.026252383 0.745 1.0152842e-39
0.033347607 -0.026252419 0.745 5.5538923e-40
0.034766655 -0.026252406 0.745 3.6920571e-40
0.035505705 -0.025759073 0.73099995 9.2397417e-41
0.036898095 -0.025759049 0.73099995 6.4707913e-39
0.038185719 -0.025688568 0.72899997 1.2855522e-38
0.039574288 -0.025688553 0.72899997 1.8087644e-38
0.040962864 -0.025688563 0.72899997 2.3325854e-38
0.040550478 -0.02459619 0.69799995 2.341769e-38
0.041879997 -0.024596205 0.69799995 2.341769e-38
0.043209523 -0.024596192 0.69799995 2.341769e-38
-0.036040004 -0.023800015 0.71399999 2.0258095e-39
-0.034631435 -0.023766683 0.713 1.6573816e-39
-0.033133328 -0.023666658 0.71000004 1.2896949e-39
-0.031646665 -0.023566656 0.70699996 1.3819045e-39
-0.030171424 -0.023466656 0.70400006 1.3822828e-39
-0.028789522 -0.023433328 0.70299995 1.5666909e-39
-0.027372383 -0.023366667 0.70099998 1.7517856e-39
-0.026000006 -0.023333341 0.69999999 1.6592229e-39
-0.024560956 -0.023233341 0.69699997 1.567023e-39
-0.023266673 -0.023266671 0.69799995 1.5673776e-39
-0.021842873 -0.023166703 0.69499999 1.5663112e-39
-0.020519063 -0.023166696 0.69499999 1.290097e-39
-0.019167626 -0.023133347 0.69399995 1.0138717e-39
-0.017819997 -0.023099992 0.69299996 1.0127927e-39
-0.016452385 -0.023033345 0.69100004 9.213145e-40
-0.01509239 -0.022966685 0.68899995 9.2095297e-40
-0.013780011 -0.022966692 0.68899995 8.2912028e-40
-0.012413332 -0.022866661 0.68599999 9.2059984e-40
-0.011106658 -0.022866651 0.68599999 9.2096558e-40
-0.009800001 -0.022866666 0.68599999 8.2842103e-40
-0.0084933294 -0.022866653 0.68599999 6.4619758e-40
-0.0071866694 -0.02286667 0.68599999 1.2908537e-39
-0.0058628554 -0.022799997 0.68399996 1.9362007e-39
-0.0045600003 -0.022799999 0.68400002 2.1263177e-39
-0.0032476329 -0.022733362 0.68199992 2.2203266e-39
-0.0019400076 -0.022633353 0.67899996 2.0402639e-39
-0.00064667425 -0.02263335 0.67900002 1.7622253e-39
0.00064666086 -0.022633348 0.67899996 9.2133692e-40
0.0019399866 -0.022633368 0.67899996 9.8378159e-41
0.0032285645 -0.022600016 0.67799997 9.2254484e-41
0.0045266654 -0.022633336 0.67899996 9.3683809e-41
0.0058114212 -0.022600017 0.67799997 3.6774976e-40
0.0071028536 -0.022600008 0.67799997 5.521158e-40
0.0084066605 -0.022633348 0.67900002 6.4428761e-40
0.0096999975 -0.022633342 0.67899996 6.4465335e-40
0.010993332 -0.022633344 0.67900002 5.5354232e-40
0.012286667 -0.022633336 0.67900002 4.6134529e-40
0.013579991 -0.022633357 0.67899996 4.6026629e-40
0.016538091 -0.025166675 0.755 4.6170402e-40
0.017999999 -0.025200009 0.75599992 3.7059019e-40
0.019440005 -0.025199994 0.75599998 2.7840577e-40
0.02085237 -0.025166698 0.755 3.6917488e-40
0.022290464 -0.025166696 0.755 4.6206836e-40
0.023728572 -0.025166672 0.755 6.453638e-40
0.025166657 -0.025166696 0.755 7.3792517e-40
0.026604755 -0.025166692 0.755 8.2941175e-40
0.027931429 -0.025066674 0.75199997 8.3049075e-40
0.029168576 -0.024899988 0.74699998 9.2340664e-40
0.030509518 -0.02483335 0.74500006 9.2341645e-40
0.031928562 -0.024833357 0.745 9.2199133e-40
0.033347618 -0.024833348 0.745 9.2127106e-40
0.034533333 -0.024666663 0.74000001 5.5141655e-40
0.035942856 -0.024666669 0.73999995 9.2686084e-41
0.036898088 -0.024366688 0.73099995 1.1036823e-39
0.038290471 -0.024366682 0.73099995 2.1548327e-39
0.039574288 -0.024299985 0.72899997 1.2751134e-38
0.040962864 -0.024299996 0.72900003 2.3226842e-38
0.042351436 -0.024299979 0.72899997 2.3325854e-38
0.043740012 -0.024299972 0.72899997 2.341769e-38
-0.036039997 -0.022439996 0.71399999 2.2102008e-39
-0.034631427 -0.022408569 0.713 1.8414043e-39
-0.033040006 -0.02225144 0.70799994 1.4726442e-39
-0.031691436 -0.022251444 0.70799994 1.3811828e-39
-0.030214287 -0.022157153 0.70499998 1.2904375e-39
-0.028789522 -0.022094274 0.70299995 1.4751973e-39
-0.027372392 -0.022031454 0.70099998 1.7514213e-39
-0.025925718 -0.021937154 0.69799995 1.6599431e-39
-0.024560962 -0.021905735 0.69699997 1.5670286e-39
-0.023233339 -0.02190572 0.69700003 1.5670258e-39
-0.02190572 -0.021905728 0.69699997 1.6581523e-39
-0.020519052 -0.021842858 0.69500005 1.3822955e-39
-0.019167624 -0.021811439 0.69399995 1.1982601e-39
-0.017819997 -0.021779992 0.69300002 1.1057002e-39
-0.016428571 -0.021685716 0.69000006 1.0135101e-39
-0.015114292 -0.021685727 0.69 1.1046324e-39
-0.013739994 -0.021591414 0.68700004 1.1046366e-39
-0.01241332 -0.021559969 0.68600005 1.1042806e-39
-0.011106661 -0.021559985 0.68600005 1.104645e-39
-0.0097714281 -0.02149714 0.68399996 9.2133833e-40
-0.0084685804 -0.02149716 0.68399996 7.3768415e-40
-0.0071657132 -0.021497142 0.68399996 1.1064779e-39
-0.0058628581 -0.021497143 0.68399996 1.4745093e-39
-0.0045533339 -0.021465717 0.68299991 1.4773497e-39
-0.0032476282 -0.021434305 0.68199998 1.3862163e-39
-0.0019428621 -0.021371439 0.67999995 1.2014537e-39
-0.00064667332 -0.02134002 0.67899996 1.0105814e-39
0.00064665155 -0.021340037 0.67899996 7.3576577e-40
0.0019399959 -0.021340007 0.67900002 4.5954042e-40
0.0032285645 -0.02130859 0.67799997 3.6841958e-40
0.0045199962 -0.021308577 0.67800003 2.7695263e-40
0.0058114212 -0.02130859 0.67799997 3.6879793e-40
0.0071028536 -0.021308584 0.67799997 4.6098375e-40
0.008394286 -0.021308575 0.67800003 5.5280944e-40
0.0096999947 -0.021340011 0.67900002 6.4464914e-40
0.010993332 -0.021340009 0.67899996 5.5389405e-40
0.012286657 -0.021340026 0.67899996 4.6241728e-40
0.01512 -0.023760008 0.75599998 4.6205715e-40
0.016559996 -0.023760015 0.75599992 4.6278022e-40
0.018000005 -0.02376 0.75599998 5.5461992e-40
0.019439999 -0.023760004 0.75599998 7.3794619e-40
0.020852374 -0.023728594 0.755 6.4576598e-40
0.02229047 -0.02372859 0.755 6.4610369e-40
0.023728557 -0.023728615 0.755 9.2123043e-40
0.025166661 -0.023728589 0.755 1.1052644e-39
0.026534282 -0.023665724 0.75299996 9.2159757e-40
0.027931428 -0.02363429 0.75199997 7.3864404e-40
0.02916857 -0.023477148 0.74699998 9.2231503e-40
0.030591425 -0.023477146 0.74699998 1.0148736e-39
0.031928562 -0.023414312 0.745 1.0141617e-39
0.033258092 -0.023351446 0.74299997 1.1056357e-39
0.03453334 -0.023257131 0.73999995 9.2052697e-40
0.035942852 -0.023257161 0.73999995 7.3510716e-40
0.03694858 -0.0230057 0.73199999 9.1918033e-40
0.038342863 -0.023005705 0.73199999 1.1026103e-39
0.039574288 -0.022911418 0.72900003 8.6719804e-39
0.040962875 -0.022911403 0.72900003 1.6330924e-38
0.042351432 -0.022911413 0.72900003 1.983216e-38
0.043740008 -0.022911403 0.72900003 2.341769e-38
-0.033133332 -0.020961899 0.70999998 1.5652055e-39
-0.031691428 -0.02090285 0.70799994 1.3801136e-39
-0.030214285 -0.020814281 0.70500004 1.1060449e-39
-0.028830476 -0.020784756 0.704 1.3833492e-39
-0.027450478 -0.020755241 0.70299995 1.6602935e-39
-0.026000008 -0.020666679 0.69999999 1.6624487e-39
-0.024560958 -0.020578099 0.69699997 1.5688139e-39
-0.023166679 -0.020519072 0.69499999 1.6595676e-39
-0.021842867 -0.020519068 0.69499999 1.6585026e-39
-0.020489525 -0.020489516 0.69399995 1.4741253e-39
-0.019139998 -0.020459985 0.69299996 1.2897327e-39
-0.017768584 -0.020400977 0.69099998 1.197893e-39
-0.016428575 -0.020371437 0.69 1.1053498e-39
-0.015048576 -0.020282863 0.68700004 1.2872384e-39
-0.013720003 -0.020253334 0.68599999 1.3794326e-39
-0.012413331 -0.020253325 0.68599999 1.3794326e-39
-0.011074286 -0.020194281 0.68399996 1.2890306e-39
-0.0097714299 -0.020194286 0.68399996 1.1057184e-39
-0.008456191 -0.020164762 0.68299997 8.2985876e-40
-0.0071552359 -0.020164756 0.68299997 9.2205859e-40
-0.0058542937 -0.020164782 0.68299997 1.0138689e-39
-0.0045466749 -0.020135257 0.68199998 8.3017265e-40
-0.0032476338 -0.020135272 0.68199998 5.5464795e-40
-0.0019400085 -0.020046685 0.67899996 4.6028451e-40
-0.00064667425 -0.020046685 0.67900002 2.766009e-40
0.00064666179 -0.020046679 0.67900002 5.5209618e-40
0.0019399978 -0.020046674 0.67899996 8.2759987e-40
0.0032333236 -0.020046694 0.67899996 6.4464354e-40
0.0045266664 -0.020046668 0.67899996 4.6097815e-40
0.0058199922 -0.020046689 0.67899996 4.6098235e-40
0.0071028518 -0.020017156 0.67799997 3.6914265e-40
0.0083942832 -0.020017147 0.67799997 4.6097395e-40
0.010871418 -0.022467652 0.76099998 5.5353672e-40
0.012304762 -0.022438098 0.75999999 5.5462272e-40
0.013716194 -0.022379046 0.75800002 4.6242289e-40
0.015120006 -0.022319999 0.75600004 4.6277602e-40
0.016560001 -0.022320002 0.75599998 4.6277882e-40
0.018000009 -0.022319984 0.75599998 8.3012361e-40
0.019440006 -0.022319987 0.75599998 1.1049196e-39
0.02085237 -0.022290507 0.755 1.0127324e-39
0.022290476 -0.022290485 0.755 8.2904881e-40
0.023728563 -0.022290507 0.755 1.1963768e-39
0.025100004 -0.022231426 0.75299996 1.4722448e-39
0.026499042 -0.022201927 0.75199997 1.1052644e-39
0.027857143 -0.022142854 0.75 6.4573094e-40
0.029168576 -0.022054283 0.74700004 9.2052417e-40
0.030509517 -0.021995248 0.745 1.1052742e-39
0.031842858 -0.021936188 0.74299997 1.1978313e-39
0.033258088 -0.021936212 0.74299991 1.197474e-39
0.034626678 -0.021906646 0.74200004 1.2893095e-39
0.035942856 -0.021847622 0.73999995 1.3797339e-39
0.03720095 -0.02175905 0.73699999 7.3511417e-40
0.038604759 -0.021759061 0.73699999 9.3060231e-41
0.039682847 -0.021581938 0.73099995 4.686347e-39
0.041075237 -0.021581914 0.73099995 9.3273326e-39
0.042467616 -0.021581912 0.73099995 1.6438192e-38
0.043859988 -0.021581933 0.73099995 2.341769e-38
0.045252372 -0.021581931 0.73099995 2.341769e-38
-0.033040006 -0.0195543 0.70799994 1.7499625e-39
-0.031691436 -0.019554302 0.70799994 1.1978832e-39
-0.030214285 -0.019471433 0.70500004 6.4614713e-40
-0.028789526 -0.019416193 0.70300001 1.0156359e-39
-0.027372383 -0.01936095 0.70099998 1.3840597e-39
-0.025925716 -0.019278103 0.69800001 1.5691712e-39
-0.024560964 -0.019250497 0.69699997 1.7531939e-39
-0.023166675 -0.019195257 0.69499999 1.8428686e-39
-0.021811441 -0.019167641 0.69399995 1.8418064e-39
-0.020489525 -0.019167611 0.69399995 1.5659538e-39
-0.019139998 -0.019139985 0.69300002 1.3808465e-39
-0.017768569 -0.019084748 0.69100004 1.2900844e-39
-0.016428581 -0.019057162 0.69 1.197907e-39
-0.015048574 -0.018974291 0.68700004 1.1968476e-39
-0.013719993 -0.018946648 0.68600005 1.2876041e-39
-0.012377145 -0.018891428 0.68399996 1.1972007e-39
-0.011074288 -0.018891435 0.68399996 1.1071519e-39
