# .PCD v0.7 - Point Cloud Data file format
VERSION 0.7
FIELDS x y z rgb
SIZE 4 4 4 4
TYPE F F F F
COUNT 1 1 1 1
WIDTH 954
HEIGHT 1
VIEWPOINT 0 0 0 1 0 0 0
POINTS 954
DATA ascii
0.029602852 -0.058446635 0.79700011 5.5209338e-40
0.031120948 -0.058446646 0.79700011 9.2015283e-40
0.032639045 -0.058446653 0.79700005 1.2882151e-39
0.034157146 -0.058446668 0.79700005 1.1963824e-39
0.035675231 -0.058446635 0.79700005 1.1038434e-39
0.037193328 -0.058446646 0.79700005 1.1049322e-39
0.038711432 -0.058446653 0.79700011 1.1971405e-39
0.044858091 -0.051553283 0.70300001 1.6234372e-38
0.04626286 -0.051626634 0.70400012 1.9830725e-38
0.04767143 -0.051699974 0.7050001 2.341769e-38
0.049014285 -0.05169997 0.7050001 2.341769e-38
0.050499998 -0.051846646 0.70700002 2.341769e-38
0.051846668 -0.051846653 0.70700002 2.341769e-38
0.053193334 -0.051846661 0.70700008 2.341769e-38
-0.016833343 -0.050499968 0.70700002 3.6806365e-40
-0.015486673 -0.050499972 0.70700002 3.6878252e-40
-0.014140004 -0.050499983 0.70700002 2.7658549e-40
-0.012757155 -0.050357096 0.70500004 3.6841958e-40
-0.011414295 -0.050357115 0.70500004 3.6877832e-40
-0.010071437 -0.050357111 0.70500004 3.6913705e-40
-0.0087533398 -0.050499968 0.70700002 3.6949578e-40
-0.0074066711 -0.050499983 0.70700002 3.6985591e-40
-0.0060600056 -0.050499991 0.70700002 2.7874349e-40
-0.0052866619 -0.056642875 0.79300004 2.7874909e-40
-0.0037761913 -0.056642864 0.79300004 2.7802602e-40
-0.0022600112 -0.056499951 0.79100001 5.5352831e-40
-0.00075523369 -0.056642879 0.79300004 7.3648184e-40
0.00075524021 -0.056642868 0.7930001 7.3576437e-40
0.0022771405 -0.05692856 0.79700011 6.4428761e-40
0.0037952298 -0.05692853 0.79700005 5.5245351e-40
0.0053133266 -0.056928542 0.79700011 3.6913985e-40
0.0068314159 -0.056928512 0.79700005 2.7694422e-40
0.008349522 -0.056928564 0.79700005 9.3989292e-41
0.0098676188 -0.056928575 0.79700011 2.7730155e-40
0.011385708 -0.056928545 0.79700005 3.6949718e-40
0.012903806 -0.056928553 0.79700011 3.6913985e-40
0.014421894 -0.056928523 0.79700005 2.7694422e-40
0.015939992 -0.056928534 0.79700011 3.6913705e-40
0.017458089 -0.056928542 0.79700005 3.6877972e-40
0.018976185 -0.056928553 0.79700005 5.5245211e-40
0.020442843 -0.056785658 0.79499996 6.4464494e-40
0.021957129 -0.056785658 0.79500002 6.4464494e-40
0.023530472 -0.056928545 0.79700011 6.4428761e-40
0.025048561 -0.056928512 0.79700005 6.4357294e-40
0.026566666 -0.056928568 0.79700005 5.5245351e-40
0.028084766 -0.056928575 0.79700011 6.4393028e-40
0.029602855 -0.056928545 0.79700005 6.4428901e-40
0.031042852 -0.056785688 0.79500002 1.1953006e-39
0.032639038 -0.056928523 0.79700005 1.6551969e-39
0.034157138 -0.056928538 0.79700011 1.2874976e-39
0.035675243 -0.05692859 0.79700005 8.2832994e-40
0.037193332 -0.056928553 0.79700005 8.2869708e-40
0.038711432 -0.056928568 0.79700011 8.2906562e-40
0.040229518 -0.056928534 0.79700005 9.2090953e-40
0.041747615 -0.056928545 0.79700011 1.0163562e-39
0.046197139 -0.050214238 0.70300001 1.9650641e-38
0.047603808 -0.050285686 0.70400006 2.3417331e-38
0.048944756 -0.050285697 0.70400012 2.341769e-38
0.050357133 -0.050357096 0.70500004 2.341769e-38
0.051846668 -0.050499976 0.70700002 2.341769e-38
0.053193338 -0.050499983 0.70700002 2.341769e-38
-0.016833346 -0.049153287 0.70700002 3.6806365e-40
-0.015486679 -0.049153298 0.70700002 3.6842239e-40
-0.014140007 -0.049153298 0.70700002 3.6806225e-40
-0.01275715 -0.049014263 0.7050001 3.6841958e-40
-0.011414294 -0.049014263 0.7050001 3.6841958e-40
-0.010071437 -0.049014255 0.7050001 3.6877832e-40
-0.0097933421 -0.05499329 0.79100001 3.6877832e-40
-0.0082866838 -0.054993264 0.79100001 2.7766028e-40
-0.0067800111 -0.054993287 0.79100001 1.8654365e-40
-0.0052733514 -0.054993261 0.79100001 1.8654365e-40
-0.0037666792 -0.054993279 0.79100001 2.7766309e-40
-0.0022600098 -0.054993294 0.79099995 3.6949858e-40
-0.00075524347 -0.055132359 0.79300004 5.5281224e-40
0.00075712893 -0.055271365 0.79500002 5.5281365e-40
0.0022714231 -0.055271402 0.79500002 6.4465054e-40
0.0037952317 -0.055410445 0.79700005 5.5317378e-40
0.0053133285 -0.055410452 0.79700005 5.5352971e-40
0.0068314183 -0.055410422 0.79700005 4.6169001e-40
0.0083599938 -0.05547997 0.79800004 3.7021325e-40
0.0098799886 -0.055479944 0.79800004 3.7021325e-40
0.011399993 -0.055479959 0.79800004 3.6985451e-40
0.012919988 -0.055479936 0.79800004 3.6949578e-40
0.014439991 -0.055479955 0.79800004 3.6841958e-40
0.015939992 -0.055410445 0.79700011 3.6913705e-40
0.017458092 -0.055410456 0.79700011 3.6913845e-40
0.018976182 -0.055410422 0.79700011 4.6097395e-40
0.02049429 -0.055410475 0.79700005 5.5280944e-40
0.022012375 -0.055410445 0.79700005 5.5316677e-40
0.023530472 -0.055410456 0.79700005 5.5316958e-40
0.025048569 -0.055410467 0.79700011 4.6097815e-40
0.026566658 -0.055410437 0.79700011 4.6097815e-40
0.028084759 -0.055410445 0.79700011 4.6133688e-40
0.029602859 -0.05541046 0.79700005 4.6169421e-40
0.031120952 -0.055410467 0.79700005 7.3684057e-40
0.032639038 -0.055410437 0.79700005 1.1045413e-39
0.034157138 -0.055410445 0.79700005 9.2015283e-40
0.035675235 -0.05541046 0.79700011 7.3612871e-40
0.037193324 -0.055410426 0.79700011 7.3649164e-40
0.038711436 -0.055410475 0.79700005 8.2869008e-40
0.040229518 -0.055410445 0.79700005 7.3757625e-40
0.041747618 -0.055410456 0.79700005 7.3904341e-40
0.04315713 -0.055271376 0.79500002 7.4122803e-40
0.044671427 -0.055271417 0.79500002 6.5046453e-40
0.046197135 -0.048875194 0.70300001 1.9460872e-38
0.047603812 -0.048944741 0.70400006 2.341769e-38
0.048944756 -0.048944715 0.70400006 2.341769e-38
0.050357137 -0.049014255 0.70500004 2.341769e-38
0.051699996 -0.049014248 0.70500004 2.341769e-38
0.053042851 -0.049014255 0.7050001 2.341769e-38
0.054385714 -0.049014263 0.70500004 2.341769e-38
0.05572857 -0.049014263 0.70500004 2.341769e-38
-0.016833339 -0.047806647 0.70700002 3.6806225e-40
-0.015486672 -0.047806658 0.70700002 3.6806365e-40
-0.014140011 -0.047806628 0.70700002 3.6806225e-40
-0.012757146 -0.047671422 0.7050001 3.6806085e-40
-0.01141429 -0.04767143 0.7050001 3.6841958e-40
-0.010071433 -0.047671422 0.7050001 3.6806085e-40
-0.0097933402 -0.053486634 0.79100001 3.6877832e-40
-0.0082657216 -0.05335141 0.78900003 2.7766028e-40
-0.0067628622 -0.05335141 0.78900009 9.3989292e-41
-0.0052733491 -0.053486604 0.79100001 1.8618492e-40
-0.0037666783 -0.053486623 0.79100001 1.8582619e-40
-0.0022542956 -0.053351387 0.78900003 2.7730295e-40
-0.00075334497 -0.053486615 0.79100001 3.6914265e-40
0.00075714104 -0.053757139 0.79500002 4.6133968e-40
0.0022714194 -0.053757098 0.79499996 5.5354092e-40
0.0037952317 -0.053892355 0.79700005 6.4609949e-40
0.0053133289 -0.053892367 0.79700005 6.4573094e-40
0.0068399869 -0.053959932 0.7980001 6.453624e-40
0.0083599901 -0.053959951 0.79800004 5.5424577e-40
0.0098799933 -0.053959966 0.79800004 4.6277041e-40
0.011399989 -0.05395994 0.79800004 3.7057478e-40
0.012919991 -0.053959958 0.79800004 3.6985591e-40
0.014439994 -0.053959973 0.79800004 3.6949718e-40
0.015959989 -0.053959947 0.79800004 3.6913845e-40
0.017458092 -0.053892367 0.79700011 3.6949718e-40
0.018976182 -0.053892337 0.79700005 3.6913985e-40
0.020494282 -0.053892344 0.79700011 3.6985732e-40
0.022012375 -0.053892355 0.79700005 3.6985732e-40
0.023530472 -0.053892367 0.79700005 3.7023006e-40
0.025048573 -0.053892378 0.79700011 3.7024548e-40
0.026566658 -0.053892344 0.79700005 2.7839737e-40
0.028084759 -0.053892355 0.79700011 2.7838476e-40
0.029602848 -0.053892326 0.79700005 2.7802462e-40
0.031120945 -0.053892337 0.79700011 3.6913985e-40
0.032639049 -0.053892389 0.79700011 4.6133408e-40
0.034199987 -0.053959936 0.79800004 5.5245071e-40
0.035675235 -0.053892367 0.79700011 6.4428901e-40
0.037193324 -0.053892337 0.79700005 7.3576857e-40
0.038711429 -0.053892348 0.79700011 7.3648884e-40
0.040229529 -0.0538924 0.79700005 6.4465755e-40
0.041642852 -0.053757116 0.79500002 4.6280825e-40
0.043157134 -0.053757109 0.79500002 4.6355514e-40
0.04467142 -0.053757109 0.79499996 4.642712e-40
0.047603805 -0.047603779 0.70400012 2.3416614e-38
0.048944756 -0.047603771 0.70400006 2.341769e-38
0.050357141 -0.04767143 0.70500004 2.341769e-38
0.0517 -0.047671419 0.7050001 2.341769e-38
0.053042855 -0.047671415 0.7050001 2.341769e-38
0.054385714 -0.047671411 0.7050001 2.341769e-38
-0.016833343 -0.046459965 0.70700002 3.6770352e-40
-0.015486675 -0.046459977 0.70700002 3.6806225e-40
-0.014140003 -0.04645998 0.70700002 3.6842098e-40
-0.012757151 -0.04632853 0.70500004 3.6841958e-40
-0.011414296 -0.046328526 0.7050001 3.6841958e-40
-0.0082552442 -0.051782839 0.78800005 4.6061381e-40
-0.0067542996 -0.051782802 0.78799999 1.8510732e-40
-0.0052533462 -0.051782802 0.78800005 1.8546606e-40
-0.0037571406 -0.05184859 0.78900003 1.8510732e-40
-0.0022542898 -0.051848553 0.78900009 2.7694282e-40
-0.00075335149 -0.051979914 0.79100001 3.6878392e-40
0.00075523648 -0.052111425 0.79300004 3.6914826e-40
0.0022714231 -0.052242838 0.79500002 4.6171383e-40
0.003795234 -0.052374266 0.79700011 4.6244251e-40
0.0053133229 -0.052374236 0.79700011 5.5462132e-40
0.006831429 -0.052374288 0.79700005 8.2939353e-40
0.0083599938 -0.052439969 0.79800004 1.1974558e-39
0.0098799886 -0.052439943 0.79800004 8.3047393e-40
0.011399993 -0.052439958 0.79800004 4.6348787e-40
0.012919987 -0.052439936 0.7980001 4.6240888e-40
0.014439991 -0.05243995 0.79800004 4.6169141e-40
0.015959993 -0.052439965 0.79800004 4.6169141e-40
0.01747999 -0.052439943 0.79800004 4.6241028e-40
0.018999994 -0.052439958 0.79800004 4.6205295e-40
0.020494282 -0.052374259 0.79700011 5.5424717e-40
0.022012379 -0.052374266 0.79700011 4.6241168e-40
0.023559995 -0.052439965 0.79800004 4.624383e-40
0.025048576 -0.052374288 0.79700005 3.702707e-40
0.026566662 -0.052374259 0.79700005 2.7877011e-40
0.028084762 -0.05237427 0.79700005 2.7838616e-40
0.029602859 -0.052374281 0.79700011 2.7838335e-40
0.031120948 -0.052374244 0.79700011 4.6205154e-40
0.032639042 -0.052374259 0.79700011 5.5424437e-40
0.034157142 -0.05237427 0.79700005 7.3683777e-40
0.035675235 -0.052374281 0.79700005 9.1979269e-40
0.037193328 -0.052374251 0.79700005 8.279572e-40
0.038711429 -0.052374259 0.79700005 7.3648324e-40
0.040229522 -0.05237427 0.79700011 5.5353111e-40
0.041642848 -0.052242808 0.79500002 3.7096294e-40
0.043048572 -0.052111402 0.79300004 5.5645282e-40
0.04455905 -0.052111432 0.79300004 7.4156154e-40
0.046069521 -0.052111421 0.79300004 1.1067525e-39
0.050357133 -0.046328526 0.70500004 2.341769e-38
0.051699992 -0.046328522 0.70500004 2.341769e-38
0.053042851 -0.046328541 0.70500004 2.341769e-38
0.054385711 -0.046328537 0.70500004 2.341769e-38
-0.0082552489 -0.050281864 0.78800005 7.3540284e-40
-0.0067542968 -0.05028186 0.78800005 2.7658409e-40
-0.0052533438 -0.05028186 0.78800005 2.7658409e-40
-0.0037571434 -0.050345719 0.78900003 1.8474999e-40
-0.0022542933 -0.050345682 0.78900003 2.7658549e-40
-0.00075143529 -0.050345689 0.78900003 3.6878252e-40
0.00075523555 -0.050600946 0.79299998 3.6842659e-40
0.0022714194 -0.05072853 0.79499996 2.776757e-40
0.0037857047 -0.05072853 0.79500002 3.705958e-40
0.0053133229 -0.050856147 0.79700005 3.7022726e-40
0.0068314206 -0.050856158 0.79700011 1.1038252e-39
0.0083599892 -0.050919946 0.79800004 1.7477499e-39
0.0098799923 -0.050919965 0.79800004 1.1056203e-39
0.011399988 -0.050919939 0.7980001 4.6276901e-40
0.012919991 -0.050919954 0.79800004 4.6240888e-40
0.014439994 -0.050919972 0.79800004 4.6205014e-40
0.015959989 -0.050919946 0.79800004 5.5352691e-40
0.017479993 -0.050919961 0.79800004 5.5352831e-40
0.01899999 -0.050919935 0.7980001 6.4572254e-40
0.020494282 -0.050856166 0.79700005 6.4608127e-40
0.022012379 -0.050856177 0.79700011 5.546045e-40
0.023559991 -0.050919943 0.79800004 4.6206416e-40
0.025079992 -0.050919957 0.79800004 3.6988394e-40
0.026566654 -0.050856128 0.79700005 2.7839597e-40
0.028084762 -0.05085618 0.79700005 2.7766729e-40
0.029602859 -0.050856188 0.79700011 2.7803443e-40
0.031120948 -0.050856158 0.79700005 4.624313e-40
0.032639042 -0.050856173 0.79700011 6.4573235e-40
0.034157131 -0.050856136 0.79700005 9.2051016e-40
0.035675239 -0.050856188 0.79700005 1.1038224e-39
0.037193336 -0.050856203 0.79700005 9.1979269e-40
0.038711429 -0.050856173 0.79700005 7.3648184e-40
0.040128566 -0.050728545 0.79500002 4.6169421e-40
0.041538093 -0.050600938 0.79300004 1.8764507e-40
0.043048579 -0.050600968 0.79300004 5.5716187e-40
0.044446658 -0.05047328 0.79099995 9.227158e-40
0.045837142 -0.050345697 0.78900003 5.5250956e-40
0.047340002 -0.050345708 0.78900009 1.9096475e-40
0.050357141 -0.044985697 0.70500004 2.341769e-38
0.051699996 -0.044985689 0.70500004 2.341769e-38
0.053193334 -0.045113306 0.70700002 2.341769e-38
0.054539997 -0.045113318 0.70700002 2.341769e-38
-0.0082342951 -0.048657104 0.78600001 5.5209058e-40
-0.0067371549 -0.048657093 0.78600001 3.6841958e-40
-0.0052533485 -0.048780881 0.78800005 2.7658409e-40
-0.0037523885 -0.048780918 0.78799999 2.7622676e-40
-0.0022542954 -0.04884281 0.78900003 2.7694562e-40
-0.000751429 -0.048842855 0.78900009 2.7730435e-40
0.00075332285 -0.048966624 0.79100001 2.7730435e-40
0.0022599944 -0.048966639 0.79100001 2.7695123e-40
0.0037857015 -0.049214222 0.79500002 2.776729e-40
0.0053133252 -0.049338058 0.79700005 2.7766869e-40
0.0068314229 -0.049338069 0.79700011 6.4500647e-40
0.0083599938 -0.049399965 0.79800004 1.0123485e-39
0.0098799886 -0.049399942 0.7980001 6.4572254e-40
0.011399993 -0.049399957 0.79800004 2.7873788e-40
0.012919996 -0.049399972 0.79800004 2.7873648e-40
0.01443999 -0.04939995 0.79800004 3.7057338e-40
0.015959993 -0.049399965 0.79800004 3.6985591e-40
0.01747999 -0.049399938 0.7980001 3.6877972e-40
0.018999994 -0.049399957 0.79800004 4.6169141e-40
0.020519998 -0.049399972 0.79800004 5.5352691e-40
0.022039991 -0.049399946 0.79800004 4.6169001e-40
0.023559995 -0.049399965 0.79800004 4.6097254e-40
0.025079988 -0.049399938 0.7980001 3.6985451e-40
0.026566662 -0.04933808 0.79700011 2.7838055e-40
0.028084755 -0.04933805 0.79700011 2.7802462e-40
0.029602859 -0.049338102 0.79700005 2.7732678e-40
0.031120952 -0.049338069 0.79700005 3.6989935e-40
0.032557141 -0.049214289 0.79500002 4.6171383e-40
0.034071419 -0.049214244 0.79499996 6.4500367e-40
0.035585705 -0.049214244 0.79500002 8.2831593e-40
0.037099991 -0.049214244 0.79500002 6.4464494e-40
0.038614288 -0.049214281 0.79500002 5.5281084e-40
0.040027618 -0.049090467 0.79300004 4.6169281e-40
0.041538101 -0.049090497 0.79300004 3.70593e-40
0.042939987 -0.048966609 0.79100001 6.4647643e-40
0.044446655 -0.048966583 0.79100001 9.2091654e-40
0.045837149 -0.048842866 0.78900003 5.5286549e-40
0.047339998 -0.048842832 0.78900009 2.7632064e-40
0.050285708 -0.043580905 0.70400006 2.341769e-38
0.051699992 -0.043642834 0.7050001 2.341769e-38
0.053193338 -0.043766666 0.70700002 2.341769e-38
0.054539997 -0.043766633 0.70700002 2.341769e-38
-0.0082342979 -0.047159951 0.78600007 3.6877832e-40
-0.0067371568 -0.04715994 0.78600007 3.6842379e-40
-0.0052400082 -0.04715997 0.78600001 3.6842939e-40
-0.0037523862 -0.047279984 0.78800005 2.7658969e-40
-0.0022514414 -0.047279939 0.78799999 2.7694422e-40
-0.0007514325 -0.047339983 0.78900003 1.8582619e-40
0.00075332471 -0.047459967 0.79100001 1.8618492e-40
0.0022599872 -0.047459941 0.79100001 1.8547026e-40
0.0037761899 -0.04758 0.79300004 1.8583179e-40
0.0052999998 -0.047699999 0.79500002 1.8583039e-40
0.0068314234 -0.047819979 0.79700005 1.8546886e-40
0.008349522 -0.047819987 0.79700011 1.8582759e-40
0.0098676104 -0.047819957 0.79700005 1.8618492e-40
0.011399996 -0.047879979 0.79800004 9.4708158e-41
0.012919991 -0.047879949 0.79800004 1.8618352e-40
0.014439994 -0.047879972 0.79800004 1.8654225e-40
0.015939999 -0.047820002 0.79700011 1.8618492e-40
0.017458089 -0.047819972 0.79700005 1.8582619e-40
0.018976185 -0.047819979 0.79700011 3.6985591e-40
0.020494279 -0.04781995 0.79700005 4.6169001e-40
0.022012375 -0.047819957 0.79700011 4.6133128e-40
0.02353048 -0.047820009 0.79700005 3.6949578e-40
0.025048569 -0.047819979 0.79700005 3.6985451e-40
0.026566666 -0.047819991 0.79700011 2.7802182e-40
0.028084755 -0.047819961 0.79700005 2.7802462e-40
0.029602852 -0.047819972 0.79700011 2.776771e-40
0.031120941 -0.047819942 0.79700005 2.7733098e-40
0.032557141 -0.04769998 0.79499996 2.7731697e-40
0.034071423 -0.04769998 0.79500002 3.6878112e-40
0.035585701 -0.047699936 0.79499996 4.6097535e-40
0.037099995 -0.047699977 0.79499996 4.6097395e-40
0.038517144 -0.04758 0.7930001 3.6949858e-40
0.04002763 -0.047580026 0.79300004 4.6169281e-40
0.041433319 -0.047459938 0.79100001 4.6206416e-40
0.042939991 -0.047459953 0.79100007 6.4538903e-40
0.044334285 -0.047339991 0.78900003 8.2943417e-40
0.045837145 -0.047339994 0.78900003 5.5358576e-40
0.047339991 -0.047339961 0.78900003 2.7664995e-40
0.050214283 -0.04217995 0.70300001 2.341769e-38
0.051846664 -0.042419981 0.70700002 2.341769e-38
0.053419046 -0.042599969 0.71000004 2.341769e-38
0.054617137 -0.04247997 0.70800006 2.341769e-38
-0.0067371503 -0.045662824 0.78600001 3.6842939e-40
-0.0052266838 -0.045546584 0.78400004 2.766023e-40
-0.003742869 -0.045662802 0.78600007 2.765939e-40
-0.0022400185 -0.045546576 0.78400004 2.7694282e-40
-0.00075048651 -0.045779005 0.78800005 2.7766028e-40
0.00075142412 -0.045837119 0.78900009 2.7730155e-40
0.0022542819 -0.045837123 0.78900009 2.7694422e-40
0.0037666606 -0.045953304 0.79100001 2.7730295e-40
0.0052866722 -0.046069548 0.79300004 2.7766169e-40
0.006814281 -0.046185695 0.79500002 2.7730295e-40
0.0083285663 -0.046185695 0.79500002 2.7730295e-40
0.0098676113 -0.046301872 0.79700005 2.7766028e-40
0.01138571 -0.046301879 0.79700011 3.6985451e-40
0.012903807 -0.046301894 0.79700011 2.7801902e-40
0.014421895 -0.04630186 0.79700011 2.7801902e-40
0.015939999 -0.046301909 0.79700005 4.6133128e-40
0.017458089 -0.046301879 0.79700005 7.3683777e-40
0.018976189 -0.046301894 0.79700005 5.5316677e-40
0.020494279 -0.04630186 0.79700005 4.6169001e-40
0.022012375 -0.046301872 0.79700011 3.6949578e-40
0.023530472 -0.046301879 0.79700011 3.6949578e-40
0.025048569 -0.046301894 0.79700005 3.6949578e-40
0.026566666 -0.046301901 0.79700005 3.6913985e-40
0.028084759 -0.046301872 0.79700005 3.6914265e-40
0.029602855 -0.046301883 0.79700005 3.6914686e-40
0.031120945 -0.046301849 0.79700005 3.6914966e-40
0.032557134 -0.046185676 0.79499996 3.6914546e-40
0.034071419 -0.046185672 0.79500002 3.6914125e-40
0.035496198 -0.046069548 0.79300004 3.6985732e-40
0.037006661 -0.046069492 0.79300004 4.6133268e-40
0.038419992 -0.045953285 0.79099995 5.5281084e-40
0.039926659 -0.045953263 0.79100001 5.5352831e-40
0.041433327 -0.045953281 0.79099995 5.5425278e-40
0.042831428 -0.045837112 0.78900009 6.4609388e-40
0.044334285 -0.045837119 0.78900003 8.3050616e-40
0.045779038 -0.045778997 0.78800005 8.2945238e-40
0.047280002 -0.045779038 0.78800005 9.1946899e-40
0.050214279 -0.040840898 0.70300001 2.341769e-38
0.051846661 -0.0410733 0.70700002 2.341769e-38
0.053419042 -0.041247591 0.71000004 2.341769e-38
0.054771427 -0.041247591 0.71000004 2.341769e-38
-0.0052266838 -0.044053253 0.78400004 2.7695263e-40
-0.0037238132 -0.043940935 0.78200006 2.7694842e-40
-0.0022342971 -0.043940902 0.78200006 2.7658549e-40
-0.00074858963 -0.044165622 0.78600007 2.7694562e-40
0.00075141923 -0.044334248 0.78900009 2.7694842e-40
0.0022542779 -0.044334248 0.78900003 2.7694842e-40
0.0037666543 -0.044446606 0.79100001 3.6878532e-40
0.0052733244 -0.044446625 0.79100001 3.6914826e-40
0.0067971442 -0.044559054 0.79300004 3.6879373e-40
0.0083285626 -0.044671386 0.79500002 2.7694983e-40
0.0098428568 -0.044671424 0.79500002 4.6061381e-40
0.011357134 -0.044671386 0.79499996 6.4464354e-40
0.012871419 -0.044671383 0.79500002 4.6097395e-40
0.014421898 -0.044783771 0.79700005 2.7730155e-40
0.015939996 -0.044783786 0.79700011 8.279558e-40
0.017458085 -0.044783752 0.79700005 1.2874934e-39
0.018976189 -0.044783801 0.79700005 8.2831593e-40
0.02049429 -0.044783812 0.79700011 3.6949718e-40
0.022012375 -0.044783786 0.79700005 3.6949858e-40
0.023530472 -0.044783793 0.79700011 3.6914265e-40
0.025048561 -0.044783764 0.79700005 4.6098235e-40
0.026566658 -0.044783771 0.79700011 4.6098095e-40
0.028084766 -0.044783823 0.79700005 4.6062222e-40
0.029602855 -0.044783793 0.79700005 3.6879093e-40
0.031120956 -0.044783805 0.79700011 3.6879653e-40
0.032557141 -0.044671413 0.79500002 3.6914966e-40
0.034071423 -0.044671409 0.79500002 3.6914546e-40
0.03549619 -0.044559024 0.79300004 2.7802462e-40
0.037006669 -0.04455905 0.79300004 5.5352831e-40
0.038419988 -0.044446588 0.79100001 7.3683917e-40
0.039926659 -0.044446606 0.79100001 7.371979e-40
0.041328572 -0.044334274 0.78900003 6.4608267e-40
0.042831425 -0.04433424 0.78900003 7.3756364e-40
0.044278078 -0.044278018 0.78800005 7.3865385e-40
0.045779042 -0.044278059 0.78799999 1.1982055e-39
0.047279999 -0.044278059 0.78799999 1.5644558e-39
0.05341905 -0.039895214 0.71000004 2.341769e-38
0.054539997 -0.039726641 0.70700002 2.341769e-38
-0.0051666787 -0.042071372 0.77500004 2.7730155e-40
-0.003709536 -0.042288519 0.77900004 2.7730295e-40
-0.0022257196 -0.042288553 0.77900004 3.6877972e-40
-0.00074191228 -0.042288542 0.77900004 4.6062082e-40
0.00075047067 -0.042777121 0.78800005 3.6878953e-40
0.0022514232 -0.042777121 0.78800005 2.765953e-40
0.0037666569 -0.042939954 0.79100001 3.6878953e-40
0.0052733268 -0.042939968 0.79100001 3.6879793e-40
0.0067971433 -0.043048576 0.79300004 3.6880634e-40
0.0083076172 -0.043048561 0.7930001 2.7695683e-40
0.0098180985 -0.04304859 0.79300004 3.6877832e-40
0.011328573 -0.043048579 0.7930001 5.5280944e-40
0.012871425 -0.043157119 0.79500002 3.6913845e-40
0.014385701 -0.043157078 0.79500002 2.7658549e-40
0.015939996 -0.043265693 0.79700005 4.6061381e-40
0.017458092 -0.0432657 0.79700011 7.3648043e-40
0.018976182 -0.043265671 0.79700011 5.5281084e-40
0.020494282 -0.043265685 0.79700011 3.6914125e-40
0.022012379 -0.043265693 0.79700005 3.6914125e-40
0.023530476 -0.043265704 0.79700005 3.6843079e-40
0.025048565 -0.043265674 0.79700005 3.6879653e-40
0.026566662 -0.043265685 0.79700005 4.6062923e-40
0.028084759 -0.043265693 0.79700011 4.6062502e-40
0.029528566 -0.043157108 0.79500002 4.6063063e-40
0.031042852 -0.043157108 0.79500002 5.5283046e-40
0.032475241 -0.043048568 0.79300004 6.4430162e-40
0.033985712 -0.043048557 0.79300004 4.6098375e-40
0.035406657 -0.042939942 0.79100001 2.7802602e-40
0.03691332 -0.042939916 0.79100001 5.5316958e-40
0.038419988 -0.042939931 0.79100001 8.2831593e-40
0.039825708 -0.042831399 0.78900003 8.2974946e-40
0.041328568 -0.042831399 0.78900003 8.3118439e-40
0.042777136 -0.042777076 0.78800005 8.3082566e-40
0.044278082 -0.042777076 0.78800005 8.3119139e-40
0.045779046 -0.042777117 0.78800005 1.2910919e-39
0.047279995 -0.042777117 0.78800005 1.7509813e-39
0.052066658 -0.038542811 0.71000004 2.341769e-38
0.053494286 -0.038597107 0.71100003 2.341769e-38
0.054771431 -0.038542844 0.71000004 2.341769e-38
-0.019802865 -0.037557121 0.71700001 4.6098656e-40
-0.018437151 -0.037557125 0.71700001 5.5282205e-40
-0.0094466815 -0.039966594 0.76300001 3.6913705e-40
-0.0079933461 -0.039966613 0.76300007 3.6913705e-40
-0.0065742922 -0.040176164 0.76700008 3.6913705e-40
-0.0051200064 -0.040228546 0.76800001 2.7730155e-40
-0.0036666691 -0.040333323 0.76999998 1.8510732e-40
-0.0022057262 -0.040438037 0.77200001 4.6061521e-40
-0.00073620258 -0.040490426 0.773 6.4429041e-40
0.00073999574 -0.040699981 0.77700001 4.6026629e-40
0.0022285623 -0.040857095 0.78000003 2.7695123e-40
0.0037142842 -0.040857129 0.78000003 3.6914265e-40
0.0052533313 -0.041276183 0.78800005 3.6878812e-40
0.0067628552 -0.041328564 0.78900009 3.68435e-40
0.0082657132 -0.041328568 0.78900003 2.7730856e-40
0.0097933225 -0.041433282 0.79100001 3.6877832e-40
0.011299985 -0.041433256 0.79100001 3.6949578e-40
0.012806656 -0.041433275 0.79100001 3.6913845e-40
0.014313318 -0.041433252 0.79100001 2.7694282e-40
0.015900001 -0.041642852 0.79500002 1.8510732e-40
0.017414279 -0.041642811 0.79499996 9.3631961e-41
0.018976185 -0.041747585 0.79700005 2.7730435e-40
0.020494282 -0.041747592 0.79700011 3.6913985e-40
0.022012372 -0.041747563 0.79700005 3.6878112e-40
0.023530476 -0.041747615 0.79700005 3.6914405e-40
0.024985708 -0.041642807 0.79500002 3.6914826e-40
0.026499998 -0.041642845 0.79500002 3.6914686e-40
0.028014284 -0.041642845 0.79500002 4.6062222e-40
0.029528562 -0.041642804 0.79500002 4.6098235e-40
0.030964766 -0.041538097 0.79300004 6.4501488e-40
0.032393325 -0.04143329 0.79100001 8.2832714e-40
0.033899989 -0.041433267 0.79100001 5.5246192e-40
0.035406649 -0.041433245 0.79100001 2.7767009e-40
0.036913317 -0.04143326 0.79100001 5.5281645e-40
0.038322847 -0.04132852 0.78900003 8.29039e-40
0.039825715 -0.041328564 0.78900009 9.2195069e-40
0.041276183 -0.041276135 0.78800005 9.2230802e-40
0.042668562 -0.041171387 0.78600001 9.2266536e-40
0.044165704 -0.041171372 0.78600001 9.2338983e-40
0.045662846 -0.041171361 0.78600007 1.4758447e-39
0.052066661 -0.037190437 0.71000004 2.341769e-38
0.053494278 -0.0372428 0.71099997 2.341769e-38
0.054848567 -0.037242807 0.71100003 2.341769e-38
-0.022597156 -0.036292318 0.71900004 3.6915386e-40
-0.021227632 -0.036292333 0.71900004 3.6915667e-40
-0.019802865 -0.036191426 0.71700001 3.69514e-40
-0.018437147 -0.036191426 0.71700001 4.6062923e-40
-0.0094466796 -0.03851328 0.76300007 5.5280804e-40
-0.0080142953 -0.038614247 0.76500005 4.6097254e-40
-0.0065742945 -0.038715199 0.76699996 3.6877832e-40
-0.0051200152 -0.038765647 0.76800001 2.7694282e-40
-0.0036571473 -0.038765699 0.76800001 2.7658409e-40
-0.0022057244 -0.038967572 0.77200001 3.6841958e-40
-0.00073620619 -0.039018024 0.77300006 4.6026068e-40
0.00073809223 -0.039119039 0.77500004 3.6843079e-40
0.0022199983 -0.039219994 0.77700007 2.7694842e-40
0.003709519 -0.039320927 0.77900004 2.7730155e-40
0.005213324 -0.039472334 0.78200006 2.7730295e-40
0.0067371288 -0.039674219 0.78600007 2.7766169e-40
0.0082552312 -0.0397752 0.78800005 3.6985591e-40
0.0097561823 -0.0397752 0.78800005 3.6985451e-40
0.011257128 -0.039775163 0.78800005 3.7057198e-40
0.012758088 -0.0397752 0.78799999 3.6949578e-40
0.014277136 -0.039825678 0.78900003 3.6913705e-40
0.015779996 -0.039825685 0.78900003 2.7730155e-40
0.01732666 -0.039926626 0.79100001 2.7766169e-40
0.018833332 -0.039926648 0.79100001 3.6949718e-40
0.020339992 -0.039926622 0.79100001 5.5316817e-40
0.021846663 -0.039926641 0.79100001 4.6097254e-40
0.023353323 -0.039926615 0.79100001 3.6985591e-40
0.024859995 -0.039926633 0.79100001 3.6985732e-40
0.026366655 -0.039926611 0.79100001 3.6985872e-40
0.027873326 -0.039926626 0.79100001 3.6914265e-40
0.029379986 -0.039926603 0.79100001 4.6097675e-40
0.030886661 -0.039926618 0.79100001 5.5280944e-40
0.032311428 -0.039825708 0.78900003 6.4429181e-40
0.033814281 -0.03982567 0.78900009 5.5282065e-40
0.035317138 -0.039825674 0.78900003 4.6170402e-40
0.036820002 -0.039825723 0.78900009 6.4501628e-40
0.038322851 -0.039825685 0.78900009 9.2052277e-40
0.039825711 -0.039825693 0.78900003 1.0130743e-39
0.041276187 -0.0397752 0.78800005 1.1045483e-39
0.042342849 -0.039371409 0.77999997 8.2975646e-40
0.043828562 -0.039371401 0.78000003 6.4681135e-40
0.044733338 -0.03886668 0.77000004 1.1989089e-39
0.045899991 -0.03861421 0.76500005 1.6580752e-39
0.047357131 -0.038614206 0.76500005 9.1979269e-40
0.048686657 -0.038513288 0.76300001 9.2372193e-41
0.05013999 -0.038513273 0.76300001 1.1706866e-38
0.051458087 -0.038412325 0.7610001 2.3417689e-38
0.049153332 -0.035686649 0.70700002 2.341769e-38
0.050500002 -0.035686657 0.70700002 2.341769e-38
0.052066661 -0.035838064 0.71000004 2.341769e-38
0.053419039 -0.035838068 0.71000004 2.341769e-38
0.054848567 -0.035888501 0.71099997 2.341769e-38
0.056360949 -0.035989489 0.71300006 2.341769e-38
0.057719048 -0.035989508 0.71300012 2.341769e-38
-0.023900013 -0.034825668 0.71700001 3.684336e-40
-0.022534296 -0.034825675 0.71700001 3.6879513e-40
-0.021168582 -0.034825675 0.71700001 3.684392e-40
-0.019858107 -0.034922801 0.71899998 2.7732958e-40
-0.018488586 -0.034922801 0.71900004 3.6881475e-40
-0.017119057 -0.034922816 0.71900004 3.6844481e-40
-0.0094219176 -0.036962807 0.76100004 6.4428901e-40
-0.0080142953 -0.037157107 0.76500005 5.5281645e-40
-0.0065571535 -0.0371571 0.76500005 3.6914125e-40
-0.0051200152 -0.037302788 0.76800001 3.6877832e-40
-0.0036571557 -0.037302796 0.76800001 2.7694282e-40
-0.0022057213 -0.037497103 0.77199996 2.7658549e-40
-0.00073620095 -0.03754567 0.77300006 2.765939e-40
0.00073808548 -0.037642814 0.77500004 2.7660371e-40
0.0022142776 -0.037642825 0.7750001 2.7695263e-40
0.0036999919 -0.037739962 0.77700007 2.7730295e-40
0.0051933303 -0.037837129 0.77900004 1.8582619e-40
0.0067028524 -0.037982833 0.78200006 2.7802042e-40
0.008213318 -0.038079925 0.78400004 3.6949718e-40
0.0097314259 -0.038177121 0.78600001 3.6985591e-40
0.011228566 -0.03817711 0.78600007 2.7802042e-40
0.012725706 -0.038177099 0.78600007 3.6949718e-40
0.014222846 -0.038177088 0.78600007 3.6913705e-40
0.015759986 -0.038274221 0.78800005 3.6877832e-40
0.017282851 -0.038322814 0.78900009 3.6913845e-40
0.018785708 -0.038322821 0.78900003 5.5316817e-40
0.020288568 -0.038322829 0.78900003 6.4464774e-40
0.021791425 -0.038322836 0.78900009 5.5245491e-40
0.023294285 -0.038322844 0.78900003 3.6950279e-40
0.024797142 -0.038322844 0.78900003 3.6986432e-40
0.026299991 -0.03832281 0.78900003 2.7802602e-40
0.027802859 -0.038322859 0.78900009 3.6914265e-40
0.02926857 -0.038274258 0.78800005 4.6098235e-40
0.030808568 -0.038322829 0.78900003 4.6098656e-40
0.032188557 -0.038177073 0.78600007 4.6062502e-40
0.033771414 -0.038274217 0.78800005 5.5245772e-40
0.035182849 -0.038177088 0.78600001 5.5281925e-40
0.036679987 -0.03817708 0.78600007 7.3685038e-40
0.037982851 -0.037982807 0.78200012 9.2016124e-40
0.039371427 -0.037885692 0.77999997 1.1045483e-39
0.040700004 -0.037739985 0.77700007 1.1963824e-39
0.042071421 -0.037642818 0.77500004 8.290404e-40
0.043379042 -0.037497092 0.77200001 3.7095033e-40
0.044733334 -0.0374 0.76999998 9.2269058e-40
0.046019997 -0.037254252 0.76700002 1.3811366e-39
0.047357142 -0.037157103 0.76500005 7.350455e-40
0.048686665 -0.037059978 0.76300007 1.013391e-40
0.050008558 -0.036962781 0.76100004 1.1699333e-38
0.051458083 -0.036962792 0.76100004 2.331222e-38
0.049153332 -0.034339964 0.70700002 2.341769e-38
0.050499994 -0.034339976 0.70700002 2.341769e-38
0.052066665 -0.03448569 0.71000004 2.341769e-38
0.053494282 -0.034534249 0.71100003 2.341769e-38
0.055002853 -0.03463139 0.71300006 2.341769e-38
0.056360953 -0.034631409 0.71300012 2.341769e-38
0.057719044 -0.034631398 0.71300012 2.341769e-38
-0.023866672 -0.03341331 0.71600008 4.6098656e-40
-0.022534296 -0.033459976 0.71700001 5.5246612e-40
-0.021168578 -0.03345998 0.71700001 3.6879793e-40
-0.019802868 -0.03345998 0.71700001 2.7733939e-40
-0.018437147 -0.033459984 0.71700001 2.7699887e-40
-0.017071437 -0.033459969 0.71700001 3.6845602e-40
-0.015705723 -0.033459969 0.71700001 3.684364e-40
-0.014900017 -0.0347666 0.74500012 3.6806926e-40
-0.013480968 -0.0347666 0.74500012 3.6841958e-40
-0.01211048 -0.034906659 0.74800003 3.6877972e-40
-0.010714296 -0.034999955 0.75000006 4.6061661e-40
-0.0093600089 -0.035279974 0.75600004 5.5281785e-40
-0.0079619214 -0.035466593 0.76000005 4.6098796e-40
-0.0065400149 -0.035606608 0.76300001 3.6914546e-40
-0.0051200073 -0.035839971 0.76800001 3.6913705e-40
-0.0036666626 -0.035933353 0.77000004 3.6913845e-40
-0.0022000009 -0.035933334 0.77000004 2.7694422e-40
-0.00073524634 -0.036026631 0.77199996 2.765995e-40
0.00073618419 -0.036073305 0.77300006 2.7661211e-40
0.0022142797 -0.036166638 0.77500004 3.68435e-40
0.0036904642 -0.036166605 0.77500004 2.7730295e-40
0.0051799868 -0.036259934 0.77700001 1.8618492e-40
0.0066857049 -0.036399953 0.78000003 2.7730155e-40
0.0081923809 -0.036493331 0.78200006 3.6877972e-40
0.0097066555 -0.036586612 0.78400004 3.6913845e-40
0.011199985 -0.03658659 0.78400004 3.6949718e-40
0.012693322 -0.036586605 0.7840001 4.6097395e-40
0.014186657 -0.036586627 0.78400004 5.5280944e-40
0.015679985 -0.036586601 0.7840001 4.6097254e-40
0.017173324 -0.03658662 0.78400004 3.6913845e-40
0.018714275 -0.036679938 0.78600001 4.6097395e-40
0.020262849 -0.036773279 0.78800005 5.5245631e-40
0.021763798 -0.036773279 0.78800005 4.6062502e-40
0.023205705 -0.036679946 0.78600001 3.6915106e-40
0.024702847 -0.036679931 0.78600007 3.6986993e-40
0.026199996 -0.036679961 0.78600001 2.7874629e-40
0.027697135 -0.036679953 0.78600001 4.6133548e-40
0.029194277 -0.036679938 0.78600007 5.5246472e-40
0.030613326 -0.036586616 0.78400004 5.5247593e-40
0.032024749 -0.036493272 0.78200006 5.5246472e-40
0.033428561 -0.036399946 0.78000003 5.5245351e-40
0.034779992 -0.036259942 0.77700007 4.6062222e-40
0.03625999 -0.036259964 0.77700001 6.4429601e-40
0.037642844 -0.036166616 0.77500004 8.2724674e-40
0.039119039 -0.036166623 0.7750001 9.2015563e-40
0.040490467 -0.036073282 0.773 1.1041882e-39
0.04190857 -0.036026638 0.77199996 8.2940054e-40
0.043266669 -0.035933338 0.7700001 6.4645962e-40
0.044617139 -0.035839975 0.76800001 1.0145317e-39
0.04601999 -0.035793282 0.76700008 1.4740511e-39
0.047233328 -0.035606638 0.76300001 7.361203e-40
0.048686657 -0.035606615 0.76300001 9.2370792e-41
0.050008565 -0.035513293 0.76100004 1.170543e-38
0.051458083 -0.035513259 0.76100004 2.3325852e-38
0.049153335 -0.032993332 0.70700002 2.3325854e-38
0.050500002 -0.032993335 0.70700002 2.341769e-38
0.051846661 -0.032993302 0.70700002 2.341769e-38
0.053644758 -0.03327328 0.71300006 2.341769e-38
0.055002861 -0.033273324 0.71300006 2.341769e-38
0.056439988 -0.033319935 0.71400005 2.341769e-38
-0.02390001 -0.03209427 0.71700001 5.5282205e-40
-0.022534288 -0.03209427 0.71700001 6.4430022e-40
-0.021168578 -0.032094277 0.71700001 4.6063063e-40
-0.019858107 -0.032183755 0.71900004 2.7697225e-40
-0.018514294 -0.032228544 0.72000003 2.7698486e-40
-0.017142866 -0.032228544 0.72000003 2.7697225e-40
-0.015749533 -0.032183781 0.71900004 2.7696104e-40
-0.014860006 -0.03325808 0.74300003 2.7659249e-40
-0.013444769 -0.033258073 0.74300009 3.6841958e-40
-0.012061914 -0.033347581 0.74500006 3.6877972e-40
-0.010671427 -0.033437155 0.74700004 3.6842379e-40
-0.0093476214 -0.03379523 0.75500005 3.6914265e-40
-0.0079199998 -0.033840001 0.75600004 3.6914546e-40
-0.0064971475 -0.033929512 0.75800008 3.6949998e-40
-0.0051200152 -0.034377076 0.76800001 3.6913705e-40
-0.0036666654 -0.034466673 0.77000004 3.6949718e-40
-0.0022000039 -0.03446665 0.77000004 3.6877972e-40
-0.00073524436 -0.034556165 0.77200001 2.765939e-40
0.00073523034 -0.03455615 0.77200001 3.684378e-40
0.002205713 -0.034556184 0.77200001 3.6843219e-40
0.0036809493 -0.03460094 0.77300006 2.7694842e-40
0.0051533217 -0.034600895 0.77300006 1.8546886e-40
0.0066428501 -0.03469044 0.7750001 2.7658409e-40
0.0081399931 -0.034779966 0.77700001 2.7694983e-40
0.009657138 -0.034914259 0.78000003 3.6879093e-40
0.011171427 -0.035003796 0.78200006 3.6914546e-40
0.012660943 -0.035003763 0.78200012 5.5245211e-40
0.01415047 -0.03500377 0.78200006 7.361217e-40
0.015639994 -0.035003774 0.78200012 5.5244931e-40
0.017173324 -0.035093289 0.78400004 3.6913845e-40
0.018666651 -0.035093263 0.78400004 3.6949718e-40
0.020211421 -0.035182811 0.78600001 3.6914125e-40
0.021708559 -0.0351828 0.78600007 3.6878672e-40
0.023146655 -0.035093278 0.7840001 3.6914686e-40
0.02463999 -0.035093296 0.78400004 3.6914826e-40
0.026133321 -0.03509327 0.78400004 2.7766729e-40
0.02762666 -0.035093293 0.78400004 4.6061661e-40
0.029119987 -0.03509327 0.78400004 6.4429321e-40
0.030535236 -0.0350038 0.78200012 6.4394149e-40
0.031942844 -0.034914225 0.78000003 6.4393728e-40
0.033385713 -0.034869507 0.77900004 5.5173745e-40
0.034779999 -0.034779977 0.77700007 3.6878672e-40
0.036259998 -0.034779999 0.77700001 5.5210179e-40
0.037642848 -0.034690432 0.77500004 6.4465054e-40
0.039018095 -0.034600928 0.77300006 8.279586e-40
0.04043809 -0.034556139 0.77200001 9.2087309e-40
0.041800003 -0.03446668 0.77000004 9.2195209e-40
0.043154281 -0.034377106 0.76800001 9.2231923e-40
0.044617135 -0.034377076 0.76800001 1.1981943e-39
0.045899998 -0.034242831 0.76500005 1.4733294e-39
0.047233324 -0.034153283 0.76300001 8.268796e-40
0.04855904 -0.034063745 0.76100004 1.024153e-40
0.050008558 -0.034063715 0.76100004 1.1703279e-38
0.051458091 -0.034063768 0.76100004 2.3221102e-38
0.050499998 -0.031646661 0.70700002 2.341769e-38
0.051846668 -0.031646665 0.70700002 2.341769e-38
0.053644761 -0.03191521 0.71300012 2.341769e-38
0.055002857 -0.03191521 0.71300006 2.341769e-38
0.056439988 -0.031959936 0.71400005 2.341769e-38
-0.023900006 -0.030728567 0.71700001 7.3613291e-40
-0.022534288 -0.030728571 0.71700001 6.4429742e-40
-0.021168575 -0.030728575 0.71700001 5.5246192e-40
-0.019858103 -0.030814247 0.71900004 4.6063343e-40
-0.018565733 -0.030942786 0.72200012 3.6880494e-40
-0.017119065 -0.030814216 0.71900004 3.68442e-40
-0.015705716 -0.030728567 0.71700001 2.766023e-40
-0.014840017 -0.031799927 0.74200004 2.765939e-40
-0.013426681 -0.03179995 0.74200004 2.7730155e-40
-0.012061917 -0.031928521 0.74500006 3.6985732e-40
-0.010671434 -0.032014273 0.74700004 4.6133548e-40
-0.0093104849 -0.032228544 0.75200009 5.5281084e-40
-0.0079095252 -0.032357145 0.75500005 4.6169001e-40
-0.0064800028 -0.03239999 0.75600004 3.7057198e-40
-0.00505334 -0.032485686 0.75800002 3.7021325e-40
-0.0036666696 -0.032999992 0.77000004 3.7021465e-40
-0.0021942968 -0.032914232 0.76800001 2.7730295e-40
-0.0007333369 -0.032999989 0.77000004 2.7658969e-40
0.00073333457 -0.033000011 0.77000004 3.6878672e-40
0.0022057071 -0.033085678 0.77200001 3.6842939e-40
0.0036761812 -0.03308567 0.77200001 2.7695263e-40
0.0051466636 -0.0330857 0.77199996 2.7730716e-40
0.0066256975 -0.033128493 0.77300006 2.7694282e-40
0.0081190439 -0.033214264 0.77500004 3.6843219e-40
0.009619996 -0.033299975 0.77700007 3.6880214e-40
0.011128563 -0.033385672 0.77900004 3.6879233e-40
0.012628564 -0.033428527 0.77999997 5.5245351e-40
0.014114277 -0.033428524 0.78000003 7.361231e-40
0.015639991 -0.033514228 0.78200012 5.5280804e-40
0.017129514 -0.033514235 0.78200006 3.6913845e-40
0.018619046 -0.033514284 0.78200006 4.6097395e-40
0.020159993 -0.033599954 0.7840001 5.5245211e-40
0.021653328 -0.033599969 0.78400004 5.5245351e-40
0.023146655 -0.033599947 0.78400004 5.5245491e-40
0.024639986 -0.033599924 0.7840001 4.6097815e-40
0.026133321 -0.033599943 0.78400004 3.6878112e-40
0.027556181 -0.033514239 0.78200006 4.6097254e-40
0.029045708 -0.033514246 0.78200012 5.5281084e-40
0.030535232 -0.033514254 0.78200006 6.4428901e-40
0.0319019 -0.033385687 0.7790001 7.3612591e-40
0.033299997 -0.033299994 0.77700007 6.4465054e-40
0.034690466 -0.033214234 0.7750001 5.5353391e-40
0.03616666 -0.033214241 0.77500004 7.3720631e-40
0.037545707 -0.033128534 0.773 9.2159056e-40
0.038967617 -0.033085681 0.77200001 1.0130617e-39
0.040333334 -0.033000015 0.77000004 1.1052587e-39
0.0418 -0.032999992 0.77000004 1.1056203e-39
0.0430981 -0.032871425 0.76700002 1.1056273e-39
0.044442855 -0.032785699 0.76500005 1.3825743e-39
0.045659989 -0.032614235 0.76100004 1.7517016e-39
0.047047608 -0.032571364 0.76000005 9.2050876e-40
0.048495233 -0.032571368 0.76000005 9.2370792e-41
0.050008565 -0.032614224 0.76100004 1.1707943e-38
0.053870481 -0.030685687 0.71600008 2.341769e-38
0.055234283 -0.030685663 0.71600008 2.341769e-38
0.056598097 -0.03068568 0.71600008 2.341769e-38
-0.022534292 -0.029362828 0.71699995 6.4430582e-40
-0.021139059 -0.029321877 0.71600008 6.4430582e-40
-0.019940969 -0.029567553 0.72200012 5.5246752e-40
-0.018565729 -0.029567568 0.72200006 4.6027189e-40
-0.017190494 -0.029567556 0.72200006 3.684378e-40
-0.015640009 -0.029239966 0.71400011 3.684392e-40
-0.014780017 -0.030263746 0.73900008 2.7695543e-40
-0.013390481 -0.030304741 0.74000001 2.7766729e-40
-0.012061913 -0.0305095 0.74500006 2.7802462e-40
-0.010671428 -0.030591426 0.74700004 4.6169561e-40
-0.0093104839 -0.030796157 0.75200003 6.4500647e-40
-0.0079095252 -0.030919043 0.75500011 5.5388844e-40
-0.0064800102 -0.030959951 0.75600004 3.7021885e-40
-0.0050533419 -0.031041866 0.75800002 3.7022025e-40
-0.0036333455 -0.031246612 0.76300001 2.7766589e-40
-0.0021800073 -0.031246634 0.76300007 2.7730716e-40
-0.00073143817 -0.031451385 0.76800001 2.7731136e-40
0.00073141285 -0.031451352 0.76800001 3.6915106e-40
0.0022000025 -0.031533346 0.77000004 3.6879093e-40
0.0036761835 -0.031615201 0.77200001 3.6878953e-40
0.0051466576 -0.031615194 0.77200001 2.7694983e-40
0.0066171316 -0.031615183 0.77200001 3.6842379e-40
0.0081190374 -0.031738039 0.77500004 3.6878812e-40
0.0095952284 -0.03173805 0.7750001 3.6879233e-40
0.011099989 -0.031819947 0.77700007 3.6878672e-40
0.012612374 -0.031901874 0.77900004 5.5209338e-40
0.014114283 -0.031942841 0.78000003 6.4428621e-40
0.015599997 -0.031942837 0.77999997 5.5280944e-40
0.017129518 -0.032024726 0.78200012 3.6913985e-40
0.018619042 -0.032024734 0.78200006 5.5245351e-40
0.020108569 -0.032024741 0.78200012 7.361231e-40
0.021598093 -0.032024749 0.78200012 7.361231e-40
0.02308761 -0.032024711 0.78200012 7.361245e-40
0.024577137 -0.032024719 0.78200006 5.5281224e-40
0.026066661 -0.032024726 0.78200012 3.6913985e-40
0.027556185 -0.03202473 0.78200012 4.6097395e-40
0.029045712 -0.032024737 0.78200006 4.6097535e-40
0.030340001 -0.031819988 0.77700007 6.4428901e-40
0.031819995 -0.031819969 0.77700007 8.2832013e-40
0.033214275 -0.031738047 0.77500004 8.29039e-40
0.034690466 -0.031738054 0.7750001 7.3720631e-40
0.036073323 -0.031656139 0.77300012 1.0130743e-39
0.0375457 -0.031656131 0.77300006 1.1967397e-39
0.038967613 -0.031615216 0.77199996 1.1970942e-39
0.040333331 -0.031533334 0.77000004 1.1970956e-39
0.041691419 -0.031451382 0.76800001 1.2889325e-39
0.042985711 -0.031328522 0.76500005 1.2896584e-39
0.044326663 -0.031246642 0.76300001 1.658085e-39
0.045659989 -0.031164698 0.76100004 1.9332216e-39
0.047109514 -0.031164711 0.76100004 1.0105506e-39
0.048495233 -0.031123769 0.76000005 1.0384462e-40
0.053870469 -0.029321838 0.71600008 2.341769e-38
0.055234283 -0.029321855 0.71600008 2.341769e-38
0.056598093 -0.029321872 0.71600008 2.341769e-38
-0.021139067 -0.027958026 0.71600008 4.6064184e-40
-0.019940965 -0.028192332 0.72200006 4.6027189e-40
-0.018565729 -0.028192325 0.72200006 4.6026068e-40
-0.017190494 -0.028192317 0.72200006 3.6879093e-40
-0.015815254 -0.02819231 0.72200006 4.6063343e-40
-0.014780017 -0.028856117 0.73900008 6.4430162e-40
-0.013426684 -0.028973263 0.74200004 4.6098516e-40
-0.012061913 -0.02909044 0.74500006 2.7767009e-40
-0.010671427 -0.029168582 0.74700004 3.6950139e-40
-0.0092485761 -0.029168552 0.74700004 5.5245631e-40
-0.0078885816 -0.029402817 0.75300002 4.6133968e-40
-0.0064714369 -0.029480917 0.75500005 3.6986572e-40
-0.0050333375 -0.02948093 0.75500005 2.776729e-40
-0.0036190632 -0.029676119 0.76000005 2.765953e-40
-0.0021742971 -0.029715188 0.76100004 2.7695263e-40
-0.00072858692 -0.029871352 0.76500005 2.7731697e-40
0.00073047157 -0.029949497 0.76700008 3.6915667e-40
0.002194271 -0.029988499 0.76800001 4.6062923e-40
0.0036666617 -0.030066641 0.77000004 3.6878953e-40
0.0051333327 -0.030066663 0.7700001 3.6842939e-40
0.0066000037 -0.030066682 0.77000004 3.6878672e-40
0.0080876071 -0.030144706 0.77200001 3.6914405e-40
0.0095704589 -0.030183727 0.77300006 3.6914125e-40
0.011071424 -0.030261872 0.7750001 3.6878112e-40
0.012580001 -0.030340001 0.77700007 4.6097395e-40
0.014096186 -0.03041807 0.77900004 5.5245071e-40
0.015599995 -0.030457107 0.78000003 3.6949718e-40
0.017085709 -0.030457105 0.77999997 2.7730576e-40
0.018571422 -0.0304571 0.78000003 4.6097815e-40
0.020057134 -0.030457094 0.78000003 6.4428901e-40
0.021542855 -0.03045713 0.78000003 6.4428621e-40
0.02302856 -0.030457085 0.78000003 7.361231e-40
0.024577141 -0.030535208 0.78200012 6.4500507e-40
0.025966663 -0.030418066 0.77899998 5.5352831e-40
0.027450472 -0.030418055 0.77900004 5.5352831e-40
0.028859995 -0.030339962 0.77700007 5.5352831e-40
0.030340001 -0.030339982 0.77700007 6.4500507e-40
0.031738088 -0.030261854 0.77500004 8.2867887e-40
0.033214279 -0.030261861 0.7750001 7.372035e-40
0.03460094 -0.03018374 0.77300006 7.3684898e-40
0.03607332 -0.030183734 0.77300006 1.012717e-39
0.037497133 -0.030144719 0.77200001 1.1963838e-39
0.038866661 -0.030066628 0.77000004 1.1052616e-39
0.040228564 -0.029988514 0.76800001 1.0137848e-39
0.041637141 -0.029949492 0.76700002 1.1978145e-39
0.042873334 -0.029793305 0.76300001 1.29002e-39
0.044326659 -0.029793285 0.76300001 1.7499247e-39
0.045779988 -0.029793268 0.76300001 2.209807e-39
0.047109511 -0.029715177 0.76100004 1.1956565e-39
-0.018565729 -0.026817085 0.72200012 3.6844621e-40
-0.017214291 -0.026854267 0.72300005 3.6880774e-40
-0.015837155 -0.026854245 0.72299999 6.4431844e-40
-0.01478001 -0.027448533 0.73900008 9.2017385e-40
-0.013426677 -0.027559958 0.74199998 6.4429882e-40
-0.012061915 -0.02767138 0.74500006 2.776743e-40
-0.010671432 -0.027745698 0.74700004 3.6915106e-40
-0.0092485808 -0.02774567 0.74700004 3.6915526e-40
-0.0078781042 -0.027931388 0.75200003 3.695168e-40
-0.0064457241 -0.027931387 0.75200009 2.7768691e-40
-0.0050200131 -0.027968505 0.75300002 2.7697645e-40
-0.0036000065 -0.02807997 0.75600004 1.8513675e-40
-0.0021657203 -0.028154258 0.75800002 2.7660931e-40
-0.00072667969 -0.028339939 0.76300007 2.7697645e-40
0.00072664977 -0.028339917 0.76300007 3.6882176e-40
0.0021914209 -0.028488534 0.76700002 4.6100618e-40
0.0036523656 -0.028488494 0.76700002 4.6063763e-40
0.0051199892 -0.02852566 0.76800001 3.6879513e-40
0.0065828394 -0.028525626 0.76800001 3.6843079e-40
0.008066671 -0.02860002 0.77000004 2.7731136e-40
0.0095580844 -0.02867423 0.77199996 2.7767009e-40
0.011042853 -0.028711405 0.77300006 2.7766869e-40
0.012547615 -0.028785696 0.7750001 3.6986152e-40
0.014059993 -0.028859971 0.77700007 4.6133828e-40
0.015579998 -0.028934268 0.77900004 2.7838616e-40
0.017063804 -0.028934257 0.77900004 9.4356432e-41
0.018547613 -0.028934246 0.77900004 3.6986432e-40
0.020031419 -0.028934235 0.77900004 5.5281645e-40
0.021542843 -0.028971368 0.77999997 6.4465194e-40
0.022999045 -0.028934257 0.77900004 6.4500787e-40
0.024419989 -0.028859939 0.77700007 6.4608127e-40
0.025900003 -0.028859999 0.77700007 6.4572394e-40
0.027379997 -0.028859979 0.77700007 6.4572534e-40
0.028785706 -0.028785655 0.77500004 5.5353251e-40
0.030261904 -0.028785706 0.77500004 6.4572954e-40
0.031656183 -0.02871139 0.77300006 7.3720491e-40
0.033085708 -0.028674241 0.77200001 7.3756364e-40
0.034556188 -0.028674273 0.77199996 7.3720911e-40
0.035933331 -0.028599987 0.77000004 1.0123611e-39
0.037399996 -0.028599964 0.77000004 1.1967453e-39
0.038765702 -0.028525647 0.76800001 1.013789e-39
0.040071428 -0.028414251 0.76500005 8.3083406e-40
0.041419983 -0.028339928 0.76300007 1.107058e-39
0.042760935 -0.028265614 0.76100004 1.2903857e-39
0.044210471 -0.028265666 0.76100004 1.933251e-39
0.045659989 -0.028265635 0.76100004 2.4824507e-39
-0.018591441 -0.025477098 0.72300005 5.5249555e-40
-0.017261911 -0.025547592 0.72500002 5.5285428e-40
-0.015880961 -0.025547579 0.72500002 6.4468978e-40
-0.014500002 -0.025547611 0.72500002 7.3686859e-40
-0.013426677 -0.026146619 0.74200004 5.5318079e-40
-0.01202953 -0.026181877 0.74300009 3.6987273e-40
-0.010671429 -0.026322855 0.74700004 3.6915947e-40
-0.009248578 -0.026322823 0.74700004 4.6064184e-40
-0.0078571513 -0.02642853 0.75000006 3.6917068e-40
-0.0064457241 -0.026499005 0.75200009 3.6953922e-40
-0.0050133429 -0.026499005 0.75200009 3.691903e-40
-0.0035857251 -0.026534235 0.75300002 3.6882456e-40
-0.002157144 -0.026604762 0.75500005 4.6065305e-40
-0.00072382344 -0.026780883 0.76000005 5.5286129e-40
0.0007247508 -0.026816139 0.7610001 5.528739e-40
0.0021799912 -0.02688662 0.76300001 6.4505272e-40
0.0036428457 -0.026957085 0.76500005 5.5284307e-40
0.0051133242 -0.027027575 0.76700002 4.6063763e-40
0.0065742773 -0.027027577 0.76700002 4.6062642e-40
0.0080456976 -0.027062776 0.76800001 4.6062782e-40
0.0095333299 -0.027133316 0.77000004 3.6915106e-40
0.011028569 -0.027203795 0.77200001 3.6915106e-40
0.012499044 -0.027203787 0.77200001 4.6134389e-40
0.01398761 -0.027238997 0.77300006 6.4465755e-40
0.015499995 -0.027309487 0.77500004 5.5318079e-40
0.017019995 -0.02737996 0.77700007 3.6950979e-40
