# .PCD v0.7 - Point Cloud Data file format
VERSION 0.7
FIELDS x y z rgb
SIZE 4 4 4 4
TYPE F F F F
COUNT 1 1 1 1
WIDTH 952
HEIGHT 1
VIEWPOINT 0 0 0 1 0 0 0
POINTS 952
DATA ascii
0.00066667085 -0.056666661 0.70000005 2.484341e-39
0.0019942974 -0.056504745 0.69800001 1.3798096e-39
0.0033333409 -0.056666657 0.70000005 1.1046674e-39
0.0046666707 -0.056666669 0.70000005 7.3732402e-40
0.0060000061 -0.056666665 0.70000005 9.1991601e-40
0.0073333443 -0.056666654 0.70000005 1.1943281e-39
0.0086790547 -0.056747608 0.70100003 6.4329549e-40
0.010014299 -0.056747597 0.70100003 9.2386206e-41
0.01134953 -0.056747612 0.70100003 6.7405189e-39
0.012684771 -0.056747604 0.70100003 1.3468527e-38
0.014060009 -0.056909513 0.70300007 1.1984074e-38
0.015399059 -0.056909505 0.70300001 1.0491751e-38
0.016761906 -0.056990471 0.704 1.2073047e-38
0.018128574 -0.057071429 0.70500004 1.3743323e-38
0.019526672 -0.05723333 0.70700002 1.6328366e-38
0.02087334 -0.057233322 0.70700002 1.8815103e-38
0.022220001 -0.057233322 0.70700002 1.7701602e-38
0.023600008 -0.057314273 0.70799994 1.6502318e-38
0.025019057 -0.057476178 0.71000004 1.6406136e-38
0.026371431 -0.057476182 0.71000004 1.6219967e-38
0.027840961 -0.057719033 0.71300006 1.6314326e-38
0.02919906 -0.057719029 0.71300006 1.6411164e-38
-0.040119998 -0.056439996 0.71399999 1.1049911e-39
-0.038760003 -0.056439996 0.71400005 8.2913149e-40
-0.037347615 -0.056360934 0.71300006 7.3694286e-40
-0.035888571 -0.056202848 0.71100003 6.4581923e-40
-0.034388565 -0.055965699 0.708 9.2132151e-40
-0.032993332 -0.05588666 0.70700002 1.1049981e-39
-0.031646661 -0.055886649 0.70700002 9.2205019e-40
-0.030300003 -0.055886667 0.70699996 6.4618637e-40
-0.028830476 -0.055649519 0.704 7.38382e-40
-0.027489521 -0.055649512 0.704 7.3802466e-40
-0.026111428 -0.055570472 0.70300001 6.4619057e-40
-0.02477238 -0.055570465 0.70300001 4.6252238e-40
-0.023466669 -0.055649523 0.704 8.2986717e-40
-0.022094283 -0.055570465 0.70300001 1.1053751e-39
-0.020755239 -0.055570476 0.70300001 9.2170547e-40
-0.019360948 -0.055412378 0.70100003 7.3803868e-40
-0.018077137 -0.055570457 0.70300001 1.1039513e-39
-0.01669047 -0.055412367 0.70100003 1.3798166e-39
-0.015355233 -0.055412371 0.70100009 1.4723695e-39
-0.014019994 -0.055412371 0.70100003 1.4734471e-39
-0.012684753 -0.05541236 0.70100003 1.2901377e-39
-0.011349521 -0.055412374 0.70100003 1.1057464e-39
-0.0099999961 -0.055333328 0.70000005 1.1053849e-39
-0.0086418996 -0.055175226 0.69799995 1.0128375e-39
-0.0073123756 -0.055175226 0.69800001 1.288351e-39
-0.0059828521 -0.055175226 0.69800001 1.4745499e-39
-0.004653323 -0.055175219 0.69800001 2.6709393e-39
-0.0033238041 -0.05517523 0.69800001 3.8791543e-39
-0.0019942806 -0.055175234 0.69799995 4.4438033e-39
-0.00066475256 -0.055175219 0.69800001 4.9782852e-39
0.00066476443 -0.055175234 0.69800001 3.3072802e-39
0.0019942936 -0.055175222 0.69800001 1.5631232e-39
0.0033238172 -0.055175226 0.69800001 1.0121116e-39
0.0046533407 -0.055175222 0.69799995 3.6961349e-40
0.005982866 -0.055175226 0.69800001 7.3658974e-40
0.0073333341 -0.055333335 0.70000005 1.103573e-39
0.008666669 -0.055333335 0.70000005 6.4331931e-40
0.010000004 -0.055333328 0.70000005 9.4139231e-41
0.011333341 -0.055333328 0.70000005 4.1403227e-39
0.012684773 -0.055412363 0.70100003 8.2134223e-39
0.014020008 -0.055412367 0.70100009 1.2273249e-38
0.015399055 -0.055570465 0.70300007 1.6307907e-38
0.016738102 -0.055570465 0.70300007 1.5854104e-38
0.018102854 -0.05564953 0.704 1.5405339e-38
0.01952667 -0.055886667 0.70700002 1.7621597e-38
0.020873338 -0.05588666 0.70700002 1.9729868e-38
0.022220004 -0.055886663 0.70699996 1.7976025e-38
0.023566671 -0.055886667 0.70700002 1.6133166e-38
0.024948582 -0.055965699 0.708 1.6128095e-38
0.026297145 -0.05596571 0.708 1.6128828e-38
0.027723815 -0.056123801 0.7100001 1.6406862e-38
0.029117147 -0.056202859 0.71100003 1.6686673e-38
0.03055715 -0.056360938 0.71300006 1.7608258e-38
-0.043020003 -0.05531143 0.71700001 1.5659693e-39
-0.041596185 -0.055234265 0.71600002 1.4734149e-39
-0.040120002 -0.055080004 0.71399999 1.1971895e-39
-0.038760006 -0.055080015 0.71399999 1.0128067e-39
-0.037347615 -0.055002842 0.71300006 1.0135284e-39
-0.035888571 -0.054848559 0.71100003 1.0145947e-39
-0.034388568 -0.05461714 0.70799994 1.0138675e-39
-0.033039995 -0.054617122 0.708 1.0131556e-39
-0.031646669 -0.054539997 0.70700002 7.3837079e-40
-0.030299999 -0.05453999 0.70700002 4.6322583e-40
-0.028830476 -0.054308567 0.70400006 5.54704e-40
-0.027489522 -0.054308567 0.704 6.4582483e-40
-0.026111428 -0.054231424 0.70300007 6.4582623e-40
-0.024772378 -0.054231416 0.70300001 5.5363621e-40
-0.023433331 -0.05423142 0.70300001 7.3767014e-40
-0.022094283 -0.054231416 0.70300007 9.2134253e-40
-0.020696182 -0.054077119 0.70100009 8.302259e-40
-0.019360946 -0.054077122 0.70100003 6.4620038e-40
-0.018025707 -0.054077122 0.70100009 1.1046632e-39
-0.01669047 -0.054077126 0.70100003 1.4720052e-39
-0.015333332 -0.053999994 0.70000005 1.8400646e-39
-0.013959995 -0.0538457 0.69800001 2.1166515e-39
-0.01263047 -0.0538457 0.69800001 1.7500312e-39
-0.011300946 -0.0538457 0.69799995 1.3826892e-39
-0.009971424 -0.053845704 0.69800001 1.2894188e-39
-0.0086418996 -0.053845704 0.69800001 1.2879923e-39
-0.0073123709 -0.053845692 0.69800001 1.380911e-39
-0.005982853 -0.053845707 0.69800001 1.5656526e-39
-0.0046533295 -0.053845707 0.69799995 2.3032008e-39
-0.0033238004 -0.053845692 0.69800001 3.0422176e-39
-0.0019942825 -0.053845707 0.69800001 4.3408569e-39
-0.00066380447 -0.053768564 0.69700003 5.6301103e-39
0.00066380983 -0.053768571 0.69700003 3.8669083e-39
0.0019914326 -0.053768571 0.69699997 2.1137789e-39
0.0033190507 -0.053768564 0.69699997 1.2883314e-39
0.0046466733 -0.053768564 0.69699997 4.6215804e-40
0.0059828642 -0.053845707 0.69800001 7.3729179e-40
0.0073123877 -0.053845707 0.69800001 1.0131766e-39
0.0086666718 -0.05399999 0.70000005 6.4441793e-40
0.010000006 -0.053999986 0.70000005 3.6781282e-40
0.011333344 -0.053999986 0.70000005 2.2145434e-39
0.012666674 -0.053999998 0.70000005 4.1650934e-39
0.014000007 -0.053999994 0.70000005 1.0614864e-38
0.015355242 -0.054077126 0.70100003 1.6969794e-38
0.016738106 -0.054231416 0.70300007 1.7154885e-38
0.01810286 -0.05430856 0.70400006 1.7248874e-38
0.01952667 -0.054540012 0.70699996 1.8260858e-38
0.020873338 -0.054540001 0.70700002 1.9272481e-38
0.022220012 -0.05453999 0.70700002 1.84395e-38
0.023566674 -0.054539997 0.70700002 1.7599649e-38
0.024948578 -0.05461714 0.708 1.6587964e-38
0.026297145 -0.054617133 0.70799994 1.5577078e-38
0.027723815 -0.054771416 0.71000004 1.6315727e-38
0.029076196 -0.05477142 0.71000004 1.7054378e-38
0.030471435 -0.05484857 0.71100003 1.7884506e-38
-0.044509523 -0.054096181 0.71900004 1.5666685e-39
-0.043020003 -0.053945705 0.71700001 1.5663224e-39
-0.041596189 -0.053870466 0.71600002 1.565965e-39
-0.040119998 -0.053720001 0.71400005 1.3815794e-39
-0.03870571 -0.053644735 0.71300006 1.1053638e-39
-0.037242852 -0.053494271 0.71100003 1.1975679e-39
-0.035888575 -0.053494286 0.71100003 1.2890334e-39
-0.034388565 -0.053268556 0.708 1.10571e-39
-0.033039998 -0.053268563 0.708 8.3020908e-40
-0.031646665 -0.053193327 0.70700002 5.5506693e-40
-0.030299995 -0.053193316 0.70700002 2.7955484e-40
-0.02883048 -0.052967619 0.70400006 4.6286149e-40
-0.027489524 -0.052967612 0.70400006 5.5398233e-40
-0.026111428 -0.052892376 0.70300001 6.4510456e-40
-0.024772374 -0.052892361 0.70300007 6.4582903e-40
-0.023433331 -0.052892372 0.70300001 7.3731281e-40
-0.022094283 -0.052892372 0.70300001 7.38389e-40
-0.020696182 -0.052741881 0.70100003 6.4727237e-40
-0.01936095 -0.052741896 0.70100003 5.5472081e-40
-0.018025713 -0.0527419 0.70100003 1.1046604e-39
-0.016666662 -0.052666657 0.70000005 1.564198e-39
-0.01528952 -0.052516174 0.69800001 2.2077653e-39
-0.013959992 -0.052516166 0.69800001 2.7605776e-39
-0.012630472 -0.052516181 0.69800001 2.2110052e-39
-0.011300948 -0.052516181 0.69799995 1.5667203e-39
-0.0099571412 -0.052440953 0.69700003 1.5656441e-39
-0.0086295204 -0.052440945 0.69700003 1.4730968e-39
-0.0073123737 -0.05251617 0.69800001 1.565298e-39
-0.0059742848 -0.052440953 0.69700003 1.6582083e-39
-0.0046466612 -0.052440953 0.69700003 1.9340735e-39
-0.0033190423 -0.052440945 0.69699997 2.2146163e-39
-0.0019942797 -0.052516174 0.69800001 4.2464921e-39
-0.00066189712 -0.052290466 0.69499999 6.2647038e-39
0.000661909 -0.052290466 0.69500005 4.416499e-39
0.0019857199 -0.052290466 0.69500005 2.5761919e-39
0.0033190544 -0.052440945 0.69700003 1.5645567e-39
0.0046466752 -0.052440941 0.69700003 5.5435928e-40
0.005974296 -0.052440938 0.69700003 7.3658833e-40
0.0073123849 -0.052516181 0.69800001 9.2134393e-40
0.0086419117 -0.052516174 0.69800001 7.3732402e-40
0.009971437 -0.052516174 0.69800001 5.5255861e-40
0.011300957 -0.052516188 0.69800001 3.6851067e-40
0.012630482 -0.052516174 0.69800001 1.132039e-40
0.014000012 -0.052666653 0.70000005 8.8674615e-39
0.01533334 -0.052666664 0.70000005 1.7611567e-38
0.016690485 -0.052741889 0.70100003 1.8362398e-38
0.018077152 -0.052892379 0.70300001 1.9083088e-38
0.019471433 -0.053042848 0.70499998 1.8900491e-38
0.02081429 -0.053042855 0.70499998 1.8717888e-38
0.022157148 -0.053042851 0.70499998 1.891016e-38
0.023566674 -0.053193334 0.70699996 1.8985453e-38
0.024913337 -0.053193338 0.70700002 1.6955346e-38
0.026297152 -0.053268552 0.708 1.4936056e-38
0.027723819 -0.053419042 0.71000004 1.6224637e-38
0.028994294 -0.053268556 0.708 1.7423539e-38
0.030557152 -0.053644747 0.71300006 1.8253664e-38
-0.047314279 -0.052799981 0.72000003 1.1071169e-39
-0.045942854 -0.052799985 0.72000003 1.291141e-39
-0.044509523 -0.052726652 0.71900004 1.567379e-39
-0.043020003 -0.052579992 0.71700001 1.5666741e-39
-0.041596193 -0.052506663 0.71600002 1.566321e-39
-0.040119998 -0.052359995 0.71400005 1.3815794e-39
-0.038760006 -0.052360002 0.71399999 1.1968462e-39
-0.037347615 -0.052286647 0.71300006 1.1968602e-39
-0.035737138 -0.051919989 0.708 1.1957714e-39
-0.034388568 -0.05192 0.708 1.1049981e-39
-0.033039998 -0.051919989 0.708 1.1057226e-39
-0.031646669 -0.051846664 0.70699996 7.3874493e-40
-0.030300003 -0.051846668 0.70700002 4.6358456e-40
-0.028830476 -0.051626664 0.704 7.3800084e-40
-0.02745047 -0.05155332 0.70300007 1.0124367e-39
-0.026111424 -0.051553313 0.70300001 8.2948882e-40
-0.02477238 -0.051553328 0.70300001 7.3838059e-40
-0.023433328 -0.051553313 0.70300007 7.38389e-40
-0.022094278 -0.051553313 0.70300007 7.3874914e-40
-0.020696186 -0.051406655 0.70100003 7.3874914e-40
-0.019360948 -0.051406655 0.70100003 8.302259e-40
-0.018025711 -0.051406659 0.70100003 1.1053737e-39
-0.01669047 -0.051406648 0.70100009 1.28833e-39
-0.015333334 -0.051333338 0.70000005 1.8407807e-39
-0.013959995 -0.051186655 0.69799995 2.4857886e-39
-0.012630466 -0.051186644 0.69800001 2.0273356e-39
-0.011300948 -0.051186655 0.69800001 1.5663644e-39
-0.009957145 -0.051113341 0.69699997 1.4741688e-39
-0.0086295195 -0.051113326 0.69700003 1.3819788e-39
-0.0073018973 -0.051113322 0.69700003 1.3823417e-39
-0.0059742839 -0.05111333 0.69700003 1.3837822e-39
-0.0046466622 -0.051113326 0.69700003 1.3827102e-39
-0.0033190413 -0.051113326 0.69700003 1.380918e-39
-0.0019914214 -0.051113319 0.69700003 3.043284e-39
-0.0006618934 -0.05096665 0.69500005 4.7964092e-39
0.00066190807 -0.050966661 0.69499999 3.8694433e-39
0.0019857236 -0.05096665 0.69500005 2.944257e-39
0.0033095325 -0.05096665 0.69500005 1.9333337e-39
0.0046333433 -0.050966654 0.69500005 8.3094897e-40
0.0059742932 -0.051113326 0.69700003 8.2987277e-40
0.0073019122 -0.051113322 0.69700003 9.220656e-40
0.0086295279 -0.051113334 0.69700003 8.2951124e-40
0.0099571487 -0.051113326 0.69700003 8.2878116e-40
0.011284772 -0.051113326 0.69700003 4.6034897e-40
0.012612385 -0.051113334 0.69700003 9.239041e-41
0.013960007 -0.051186655 0.69800001 6.5557731e-39
0.015289532 -0.051186655 0.69799995 1.2930828e-38
0.016666673 -0.051333331 0.70000005 1.4298695e-38
0.01802572 -0.051406655 0.70100003 1.5575777e-38
0.01944381 -0.051626664 0.70400006 1.6686766e-38
0.020784764 -0.051626671 0.70400006 1.7696942e-38
0.022125714 -0.051626671 0.704 1.8346951e-38
0.023500005 -0.051699992 0.70500004 1.8987268e-38
0.024913341 -0.051846664 0.70700002 1.7695809e-38
0.026260011 -0.051846657 0.70700002 1.6497652e-38
0.027645718 -0.051919989 0.708 1.7051902e-38
0.028994288 -0.05192 0.70799994 1.7609746e-38
0.030471431 -0.052140001 0.71100003 1.8715374e-38
-0.04882095 -0.051571425 0.72200006 2.0236782e-39
-0.047314279 -0.051428556 0.72000003 1.1063938e-39
-0.04594285 -0.051428556 0.72000003 1.2907781e-39
-0.044385716 -0.051214285 0.71700001 1.4748218e-39
-0.042960003 -0.051142853 0.71600002 1.56703e-39
-0.041479997 -0.051000003 0.71400005 1.5663196e-39
-0.040119998 -0.050999999 0.71399999 1.473775e-39
-0.038705707 -0.050928544 0.71300006 1.2893908e-39
-0.03724286 -0.050785705 0.71100003 1.1968434e-39
-0.035737138 -0.050571416 0.708 1.0128067e-39
-0.034388568 -0.050571423 0.70799994 1.1957518e-39
-0.032993335 -0.050499998 0.70700002 1.289025e-39
-0.031646665 -0.050499994 0.70700002 1.0138801e-39
-0.030299999 -0.050499998 0.70700002 6.4617516e-40
-0.028789518 -0.050214272 0.70300001 1.0124381e-39
-0.027489528 -0.050285727 0.704 1.3801431e-39
-0.026111422 -0.050214272 0.70300007 1.1053582e-39
-0.02477238 -0.050214279 0.70300007 8.3021609e-40
-0.023433331 -0.050214279 0.70300001 7.3874493e-40
-0.022031423 -0.050071415 0.70100009 6.4691084e-40
-0.020696184 -0.050071415 0.70100003 9.2242013e-40
-0.019333329 -0.04999999 0.70000005 1.105731e-39
-0.017999999 -0.050000001 0.70000005 1.105731e-39
-0.016619043 -0.049857136 0.69800001 1.0135424e-39
-0.015267614 -0.049785707 0.69700003 1.565277e-39
-0.013939993 -0.0497857 0.69700003 2.1188123e-39
-0.012612378 -0.049785711 0.69700003 1.8461869e-39
-0.01128476 -0.049785707 0.69700003 1.5678007e-39
-0.0099571384 -0.049785703 0.69700003 1.4748778e-39
-0.0086295176 -0.0497857 0.69700003 1.2904964e-39
-0.0073018954 -0.049785696 0.69700003 1.1979518e-39
-0.0059742811 -0.049785707 0.69700003 1.0149997e-39
-0.0046333265 -0.049642846 0.69500005 7.3985336e-40
-0.0033095158 -0.049642846 0.69499999 4.6363501e-40
-0.0019857059 -0.049642846 0.69499999 1.8411731e-39
-0.00066094904 -0.049571428 0.69399995 3.2255256e-39
0.00066095532 -0.049571421 0.69399995 3.3205939e-39
0.0019828635 -0.049571417 0.69400001 3.3173471e-39
0.0033047688 -0.049571414 0.69400001 2.2102807e-39
0.0046266695 -0.049571425 0.69400001 1.1060967e-39
0.0059571504 -0.049642846 0.69500005 1.0128221e-39
0.0072809556 -0.049642861 0.69499999 8.2986016e-40
0.0086047696 -0.04964285 0.69500005 1.0138829e-39
0.0099285785 -0.04964285 0.69500005 1.1046408e-39
0.011252388 -0.04964285 0.69499999 6.433109e-40
0.012576199 -0.049642846 0.69499999 9.6309842e-41
0.013900007 -0.04964285 0.69500005 4.1489757e-39
0.015289532 -0.049857136 0.69799995 8.2116566e-39
0.01661906 -0.049857125 0.69800001 1.0141313e-38
0.018000007 -0.049999986 0.70000005 1.208888e-38
0.019360963 -0.050071415 0.70100003 1.4390515e-38
0.020755243 -0.050214287 0.70300001 1.6689986e-38
0.022094298 -0.050214272 0.70300007 1.7793443e-38
0.023466669 -0.050285716 0.704 1.8898675e-38
0.024842858 -0.050357137 0.70500004 1.8434453e-38
0.026260007 -0.050499994 0.70700002 1.7972398e-38
0.027606674 -0.050500002 0.70700002 1.7875175e-38
0.028994288 -0.050571416 0.708 1.7702644e-38
0.030428579 -0.05071428 0.71000004 1.9267815e-38
0.031780958 -0.050714273 0.71000004 2.0744025e-38
0.033133339 -0.05071428 0.71000004 2.2131987e-38
-0.048685711 -0.050057124 0.72000003 1.7488835e-39
-0.047314283 -0.050057124 0.72000003 1.1971489e-39
-0.04594285 -0.050057124 0.72000003 1.1978608e-39
-0.044385716 -0.049848571 0.71700001 1.1985936e-39
-0.042960003 -0.049779043 0.71599996 1.3826388e-39
-0.041479997 -0.049639996 0.71400005 1.5663196e-39
-0.040119998 -0.049640007 0.71399999 1.473775e-39
-0.038705714 -0.04957046 0.71300006 1.381578e-39
-0.037242848 -0.04943141 0.71100003 1.1975441e-39
-0.035888571 -0.049431417 0.71100003 1.1057072e-39
-0.034485716 -0.049361903 0.71000004 1.0131514e-39
-0.033039998 -0.049222853 0.708 9.2167464e-40
-0.031691425 -0.049222846 0.708 7.3800224e-40
-0.030300003 -0.049153332 0.70700002 5.5397812e-40
-0.028871432 -0.049014289 0.70499998 7.3729599e-40
-0.027489522 -0.048944756 0.70400006 9.2025372e-40
-0.026111428 -0.048875235 0.70300001 8.2913849e-40
-0.024772376 -0.048875224 0.70300007 6.4582903e-40
-0.023433328 -0.048875224 0.70300007 6.4618917e-40
-0.022031423 -0.048736174 0.70100009 6.465507e-40
-0.020696186 -0.048736174 0.70100003 8.2986577e-40
-0.019333333 -0.048666663 0.70000005 9.2134253e-40
-0.017999997 -0.04866666 0.70000005 9.2134113e-40
-0.016595233 -0.048458081 0.69700003 1.0135424e-39
-0.015267618 -0.048458096 0.69700003 1.3819676e-39
-0.013939997 -0.048458088 0.69700003 1.7507599e-39
-0.012612376 -0.048458084 0.69700003 1.5681805e-39
-0.011284763 -0.048458096 0.69700003 1.4756079e-39
-0.0099571412 -0.048458092 0.69700003 1.3826752e-39
-0.0086295214 -0.048458088 0.69700003 1.2904922e-39
-0.0073018991 -0.048458084 0.69700003 1.197949e-39
-0.0059742848 -0.048458096 0.69700003 1.0142766e-39
-0.0046333247 -0.048319031 0.69500005 8.3132031e-40
-0.0033095148 -0.048319031 0.69500005 6.473018e-40
-0.0019857041 -0.048319031 0.69500005 1.4738325e-39
-0.00066094904 -0.04824952 0.69399995 2.3929133e-39
0.00066095626 -0.048249517 0.69400001 3.0429448e-39
0.0019828635 -0.048249509 0.69400001 3.691512e-39
0.0033047698 -0.048249509 0.69400001 2.4872263e-39
0.0046266713 -0.048249517 0.69400001 1.2883328e-39
0.0059485789 -0.048249509 0.69400001 1.1042933e-39
0.0072704791 -0.04824952 0.69399995 9.2096838e-40
0.0085923821 -0.048249528 0.69399995 8.2983634e-40
0.0099142864 -0.048249524 0.69399995 8.3056501e-40
0.011252388 -0.048319031 0.69500005 6.4475284e-40
0.0125762 -0.048319031 0.69499999 4.5967915e-40
0.013900002 -0.048319045 0.69499999 2.3061057e-39
0.015267616 -0.048458103 0.69699997 4.1554217e-39
0.016619056 -0.048527602 0.69800001 9.9687308e-39
0.018000005 -0.048666667 0.70000005 1.5685872e-38
0.019333344 -0.048666656 0.70000005 1.6971591e-38
0.020696197 -0.048736181 0.70100003 1.8255859e-38
0.022094298 -0.048875224 0.70300001 1.9178524e-38
0.023433344 -0.048875224 0.70300007 2.0012554e-38
0.024807621 -0.048944764 0.704 1.9638731e-38
0.026185725 -0.049014274 0.70500004 1.9265268e-38
0.02752858 -0.04901427 0.70500004 1.8897185e-38
0.02895334 -0.049153324 0.70699996 1.8537043e-38
0.030428577 -0.049361903 0.71000004 1.9913883e-38
0.031780954 -0.049361907 0.71000004 2.1386872e-38
-0.049023814 -0.049023807 0.72500002 1.5652097e-39
-0.047642857 -0.049023807 0.72500002 1.2893459e-39
-0.04594285 -0.048685696 0.72000003 1.1045987e-39
-0.044385724 -0.048482861 0.71700001 9.2237529e-40
-0.042959999 -0.048415225 0.71599996 1.2908061e-39
-0.041480001 -0.048280001 0.71399999 1.5663182e-39
-0.040119998 -0.048280001 0.71400005 1.5656077e-39
-0.038705707 -0.048212353 0.71300006 1.4737722e-39
-0.03724286 -0.04807714 0.71100003 1.2897411e-39
-0.035888568 -0.048077125 0.71100008 1.1057072e-39
-0.034388568 -0.047874283 0.708 8.2912168e-40
-0.032993335 -0.047806665 0.70700002 5.5396832e-40
-0.031691432 -0.047874287 0.70799994 5.5468018e-40
-0.030300001 -0.047806662 0.70700002 4.6249435e-40
-0.02878952 -0.047536179 0.70300001 4.6214543e-40
-0.027372371 -0.047400925 0.70100009 4.617895e-40
-0.026037142 -0.04740094 0.70100003 4.6179371e-40
-0.024666671 -0.047333341 0.70000005 4.6215384e-40
-0.023333333 -0.047333326 0.70000005 5.5363341e-40
-0.022031423 -0.047400936 0.70100003 6.4583184e-40
-0.020607613 -0.047198083 0.69800001 7.3731281e-40
-0.019278087 -0.047198076 0.69800001 7.3731421e-40
-0.01794857 -0.047198087 0.69800001 8.2879377e-40
-0.016595237 -0.047130469 0.69700003 9.2170827e-40
-0.015267616 -0.047130469 0.69700003 1.1057408e-39
-0.013939995 -0.047130462 0.69700003 1.2904978e-39
-0.012612381 -0.047130477 0.69700003 1.2912265e-39
-0.01128476 -0.047130469 0.69700003 1.2904964e-39
-0.0099571394 -0.047130466 0.69700003 1.2890489e-39
-0.0086295186 -0.047130462 0.69700003 1.2901321e-39
-0.0073019019 -0.047130473 0.69700003 1.1975847e-39
-0.005974282 -0.047130469 0.69700003 1.0146242e-39
-0.0046333275 -0.046995226 0.69499999 9.2349773e-40
-0.0033095176 -0.046995226 0.69500005 7.3984075e-40
-0.0019857069 -0.046995226 0.69500005 1.1061219e-39
-0.00066094717 -0.046927612 0.69399995 1.4759793e-39
0.00066095812 -0.046927609 0.69400001 2.7659866e-39
0.0019828654 -0.046927605 0.69400001 4.0505961e-39
0.0033047716 -0.046927601 0.69400001 2.7587895e-39
0.0046266746 -0.046927612 0.69400001 1.3808857e-39
0.0059485808 -0.046927605 0.69400001 1.1954085e-39
0.0072704838 -0.046927612 0.69399995 9.2133132e-40
0.008592383 -0.04692762 0.69399995 7.3765472e-40
0.0099142892 -0.046927616 0.69399995 5.5434667e-40
0.011252386 -0.046995226 0.69500005 7.3658693e-40
0.012576198 -0.046995226 0.69500005 8.2771057e-40
0.013900006 -0.046995226 0.69500005 4.5965813e-40
0.015267623 -0.047130466 0.69700003 1.1464023e-40
0.016619058 -0.047198083 0.69800001 9.7086624e-39
0.018000003 -0.04733333 0.70000005 1.9266036e-38
0.01933334 -0.047333326 0.70000005 1.9553406e-38
0.020696197 -0.04740094 0.70100003 1.9819583e-38
0.022031434 -0.047400944 0.70100003 2.046781e-38
0.023433335 -0.047536191 0.70300001 2.1112802e-38
0.024807621 -0.047603805 0.70400006 2.0842668e-38
0.026185716 -0.047671422 0.70500004 2.0464903e-38
0.02752858 -0.047671415 0.70499998 1.991172e-38
0.028871434 -0.047671426 0.70499998 1.936144e-38
0.030300006 -0.047806658 0.70700002 2.0647871e-38
0.031691436 -0.047874279 0.708 2.1942201e-38
-0.049023811 -0.047642853 0.72500002 1.6574012e-39
-0.047445714 -0.047445703 0.72200012 1.4737372e-39
-0.045942854 -0.047314268 0.72000009 1.0142066e-39
-0.044385716 -0.04711714 0.71700001 5.5503891e-40
-0.042959996 -0.047051415 0.71600002 9.2382423e-40
-0.041480005 -0.046920005 0.71399999 1.3837234e-39
-0.040063806 -0.046854261 0.71300012 1.3830101e-39
-0.03870571 -0.046854269 0.71300006 1.4737722e-39
-0.037190475 -0.046657141 0.71000004 1.4734149e-39
-0.035838097 -0.046657145 0.71000004 1.3812151e-39
-0.034340002 -0.046459999 0.70700002 9.213145e-40
-0.032900002 -0.046328567 0.70499998 3.6993299e-40
-0.031646669 -0.046459995 0.70700002 4.621174e-40
-0.030171432 -0.04626286 0.704 4.6248875e-40
-0.02878952 -0.046197135 0.70300007 4.6214123e-40
-0.027372377 -0.046065699 0.70100003 4.617867e-40
-0.026037138 -0.046065703 0.70100003 4.6250697e-40
-0.024666661 -0.045999989 0.70000005 4.6250977e-40
-0.023333333 -0.046 0.70000005 5.5434807e-40
-0.022031423 -0.046065699 0.70100003 6.4618917e-40
-0.020607617 -0.045868564 0.69800001 7.3767014e-40
-0.019250469 -0.045802843 0.69700003 8.2915251e-40
-0.017922852 -0.04580285 0.69700003 7.3767995e-40
-0.016595233 -0.04580285 0.69700003 6.4656051e-40
-0.015267612 -0.045802843 0.69700003 9.220656e-40
-0.013939997 -0.045802854 0.69700003 1.1982952e-39
-0.012612376 -0.04580285 0.69700003 1.106824e-39
-0.011284757 -0.045802843 0.69700003 1.0146256e-39
-0.0099571422 -0.045802858 0.69700003 1.1982924e-39
-0.0086295204 -0.04580285 0.69700003 1.3826836e-39
-0.0073018991 -0.04580285 0.69700003 1.2904908e-39
-0.0059742839 -0.045802858 0.69700003 1.1982839e-39
-0.0046333275 -0.045671422 0.69500005 1.1082281e-39
-0.0033095176 -0.045671422 0.69500005 1.1082463e-39
-0.001991428 -0.045802861 0.69699997 1.3834109e-39
-0.00065999629 -0.045539994 0.69299996 1.5678007e-39
0.00066000305 -0.045540001 0.69300002 2.3035623e-39
0.0019800006 -0.045540001 0.69299996 3.0364512e-39
0.0033000046 -0.045539994 0.69300002 2.3939601e-39
0.0046266755 -0.0456057 0.69400001 1.7500214e-39
0.0059485808 -0.0456057 0.69400001 1.3812291e-39
0.0072704842 -0.045605704 0.69399995 1.1060841e-39
0.0085923839 -0.045605715 0.69399995 8.3022029e-40
0.0099142902 -0.045605708 0.69399995 4.6287551e-40
0.011236196 -0.045605708 0.69400001 6.4582483e-40
0.012576204 -0.045671411 0.69500005 8.2876014e-40
0.013900014 -0.045671411 0.69500005 4.6032374e-40
0.015267629 -0.045802843 0.69700003 9.3096665e-41
0.016619056 -0.045868557 0.69800001 7.1989817e-39
0.017948575 -0.045868557 0.69800001 1.4207566e-38
0.019333344 -0.046 0.70000005 1.5590866e-38
0.020666681 -0.045999981 0.70000011 1.7051613e-38
0.022031432 -0.046065703 0.70100003 1.5858457e-38
0.023366677 -0.046065696 0.70100009 1.4679669e-38
0.024772391 -0.046197128 0.70300001 1.641881e-38
0.026148576 -0.046262857 0.70400006 1.8165822e-38
0.027489522 -0.046262871 0.704 1.9269268e-38
0.028871432 -0.046328571 0.70499998 2.0369508e-38
0.03030001 -0.046459999 0.70700002 2.1571628e-38
0.031646676 -0.046459999 0.70700002 2.2682993e-38
0.033133343 -0.04665713 0.71000004 2.3050348e-38
-0.04882095 -0.046070468 0.72200012 1.6581088e-39
-0.047445714 -0.046070464 0.72200006 1.5662747e-39
-0.045942854 -0.045942843 0.72000003 9.2342766e-40
-0.044509523 -0.045879032 0.71900004 1.887563e-40
-0.043020006 -0.045751426 0.71700001 6.4974146e-40
-0.041596185 -0.045687608 0.71599996 1.1085672e-39
-0.040119998 -0.045559999 0.71399999 1.2918879e-39
-0.038760003 -0.045559995 0.71400005 1.4741324e-39
-0.037190471 -0.045304749 0.71000004 1.5652574e-39
-0.035737146 -0.045177143 0.70799994 1.6567285e-39
-0.034339998 -0.045113325 0.70700002 9.2096278e-40
-0.032899998 -0.044985708 0.70500004 1.8662633e-40
-0.031557143 -0.0449857 0.70500004 3.6957005e-40
-0.03017143 -0.044921905 0.704 4.6213562e-40
-0.028789518 -0.044858076 0.70300007 4.6250556e-40
-0.027372375 -0.044730466 0.70100003 3.710288e-40
-0.026037138 -0.044730466 0.70100003 3.7138613e-40
-0.024666671 -0.044666674 0.70000005 3.7066586e-40
-0.023333335 -0.044666667 0.70000005 5.5469279e-40
-0.021937136 -0.044539031 0.69800001 6.4582063e-40
-0.020607613 -0.044539031 0.69800001 8.2950143e-40
-0.019250479 -0.044475242 0.69700003 9.2169986e-40
-0.017922856 -0.044475239 0.69700003 6.4655771e-40
-0.016595237 -0.044475235 0.69700003 3.7069109e-40
-0.015267616 -0.044475231 0.69700003 7.3803307e-40
-0.013939995 -0.044475228 0.69700003 1.1060967e-39
-0.01261238 -0.044475239 0.69700003 9.2350613e-40
-0.011284759 -0.044475231 0.69699997 6.4728078e-40
-0.0099571375 -0.044475231 0.69699997 1.0153388e-39
-0.0086295241 -0.044475239 0.69699997 1.3830423e-39
-0.0073019029 -0.044475235 0.69699997 1.3830452e-39
-0.0059571401 -0.044347614 0.69499999 1.2926362e-39
-0.0046466622 -0.044475231 0.69700003 1.3858982e-39
-0.0033095158 -0.044347603 0.69500005 1.4763086e-39
-0.0019857124 -0.044347614 0.69499999 1.5674378e-39
-0.00065999723 -0.044219997 0.69299996 1.6596334e-39
0.00066000212 -0.044220004 0.69299996 1.8440247e-39
0.0019742977 -0.044092361 0.69100004 1.9358616e-39
0.0033000037 -0.044219997 0.69299996 2.0305698e-39
0.0046200077 -0.044219989 0.69300002 2.0265971e-39
0.005940007 -0.044219993 0.69299996 1.6574362e-39
0.0072600036 -0.044219997 0.69300002 1.289388e-39
0.0085800029 -0.044220001 0.69299996 8.302217e-40
0.0099142892 -0.044283804 0.69399995 3.7140014e-40
0.011236195 -0.044283796 0.69400001 6.4726396e-40
0.012558099 -0.044283807 0.69400001 8.2948041e-40
0.013900008 -0.044347607 0.69500005 4.5960768e-40
0.015267628 -0.044475231 0.69700003 9.4856696e-41
0.016595246 -0.044475228 0.69700003 4.6020505e-39
0.01792286 -0.044475235 0.69700003 9.138631e-39
0.019278103 -0.044539038 0.69799995 1.1734829e-38
0.020607628 -0.044539027 0.69800001 1.4197854e-38
0.022000007 -0.044666663 0.70000005 1.1234693e-38
0.023333339 -0.044666659 0.70000005 8.220276e-39
0.024701912 -0.044730466 0.70100003 1.1987335e-38
0.026037155 -0.044730458 0.70100003 1.5768394e-38
0.027450481 -0.044858091 0.70300001 1.8630022e-38
0.028830482 -0.044921894 0.70400006 2.1387605e-38
0.030214291 -0.044985708 0.70499998 2.2401747e-38
0.03164668 -0.045113329 0.70700002 2.3416249e-38
0.033133347 -0.045304757 0.71000004 2.341769e-38
0.03448572 -0.04530476 0.71000004 2.341769e-38
-0.048820954 -0.044695232 0.72200006 1.9346817e-39
-0.047445718 -0.044695228 0.72200006 2.1176324e-39
-0.04594285 -0.044571415 0.72000003 1.2903913e-39
-0.044509523 -0.044509511 0.71899998 5.5572414e-40
-0.043020003 -0.044385705 0.71700001 8.3232364e-40
-0.041596189 -0.044323806 0.71599996 1.1082015e-39
-0.040120002 -0.044200007 0.71399999 1.6581495e-39
-0.03870571 -0.044138078 0.71300006 2.208459e-39
-0.037242856 -0.044014279 0.71100003 2.1169948e-39
-0.035838097 -0.043952376 0.71000004 2.1162718e-39
-0.034388572 -0.043828569 0.708 1.4730576e-39
-0.032899991 -0.043642838 0.70500004 8.3019928e-40
-0.031557143 -0.043642845 0.70500004 7.3799384e-40
-0.03017143 -0.043580946 0.70400006 7.3800645e-40
-0.02878952 -0.043519042 0.70300001 6.4618216e-40
-0.027372375 -0.043395225 0.70100003 6.4689542e-40
-0.02603714 -0.043395225 0.70100009 5.5397812e-40
-0.024666661 -0.043333318 0.70000005 4.6105802e-40
-0.023333332 -0.043333326 0.70000005 5.5360118e-40
-0.021937137 -0.043209508 0.69800001 6.4473462e-40
-0.020607613 -0.043209512 0.69800001 8.2913849e-40
-0.019250477 -0.043147616 0.69700003 1.0135312e-39
-0.017922854 -0.043147616 0.69699997 8.2950563e-40
-0.016595233 -0.043147612 0.69699997 7.3695407e-40
-0.01522381 -0.04302381 0.69499999 9.2134253e-40
-0.013939994 -0.043147605 0.69700003 1.1975693e-39
-0.012612374 -0.043147601 0.69700003 1.1060953e-39
-0.011252377 -0.043023799 0.69500005 9.2170827e-40
-0.0099285673 -0.043023799 0.69499999 1.1986511e-39
-0.0086047584 -0.043023799 0.69500005 1.475238e-39
-0.0072809481 -0.043023799 0.69500005 1.3841227e-39
-0.0059571378 -0.043023799 0.69500005 1.2944354e-39
-0.0046333326 -0.043023814 0.69499999 1.2929963e-39
-0.0033047604 -0.042961899 0.69399995 1.2919243e-39
-0.0019857092 -0.043023799 0.69500005 1.3834039e-39
-0.00065999397 -0.042899989 0.69300002 1.4752436e-39
0.00065810781 -0.042776164 0.69100004 1.5670819e-39
0.0019742968 -0.042776171 0.6910001 1.56637e-39
0.0033000032 -0.0429 0.69299996 1.6600034e-39
0.0046200072 -0.042899992 0.69300002 1.6578146e-39
0.0059400047 -0.042899992 0.69299996 1.4730309e-39
0.0072600031 -0.0429 0.69300002 1.2879446e-39
0.0085800001 -0.0429 0.69299996 1.0138927e-39
0.0099000037 -0.042899992 0.69300002 7.3910366e-40
0.011236198 -0.042961892 0.69400001 7.3910366e-40
0.012558099 -0.042961899 0.69400001 7.3908265e-40
0.013880004 -0.042961892 0.69400001 3.6956585e-40
0.015223823 -0.043023791 0.69500005 9.2311938e-41
0.016595241 -0.043147612 0.69700003 3.3191562e-39
0.017922863 -0.043147609 0.69700003 6.4692583e-39
0.01925048 -0.04314762 0.69700003 1.126666e-38
0.020607628 -0.043209504 0.69800001 1.6126716e-38
0.021937147 -0.043209519 0.69800001 1.151803e-38
0.023333348 -0.043333318 0.70000005 7.0094967e-39
0.024666674 -0.043333333 0.70000005 8.8501667e-39
0.026037157 -0.043395221 0.70100003 1.0616978e-38
0.027372383 -0.043395232 0.70100003 1.6236934e-38
0.02878953 -0.043519046 0.70300001 2.1852895e-38
0.030214293 -0.043642845 0.70500004 2.2589018e-38
0.031557158 -0.043642845 0.70500004 2.341769e-38
0.032993335 -0.04376667 0.70700002 2.341769e-38
0.034340009 -0.043766662 0.70700002 2.341769e-38
-0.04882095 -0.043319985 0.72200006 2.301665e-39
-0.047445714 -0.043319982 0.72200012 2.5768127e-39
-0.045942854 -0.043199982 0.72000003 1.7488583e-39
-0.044509519 -0.043139983 0.71900004 8.3123203e-40
-0.043020003 -0.043019991 0.71700001 1.015273e-39
-0.041596182 -0.042959981 0.71600002 1.1067623e-39
-0.040119998 -0.04284 0.71400005 2.0240537e-39
-0.03870571 -0.042779978 0.71300006 2.85059e-39
-0.037347611 -0.042779975 0.71300006 2.6690868e-39
-0.035888571 -0.042659983 0.71100008 2.4897024e-39
-0.034388568 -0.042479996 0.70799994 2.0240495e-39
-0.032899994 -0.042299982 0.70500004 1.4726834e-39
-0.031557143 -0.04229999 0.70500004 1.1975413e-39
-0.030128572 -0.042179991 0.70300001 9.2202917e-40
-0.028789517 -0.042179983 0.70300007 9.213061e-40
-0.027450476 -0.042179994 0.70300001 8.2911887e-40
-0.026037138 -0.042059984 0.70100003 7.3621419e-40
-0.024666669 -0.041999999 0.70000005 5.5326066e-40
-0.023333333 -0.041999999 0.70000005 6.4509756e-40
-0.021999998 -0.041999992 0.70000005 6.4510176e-40
-0.020607613 -0.041879985 0.69800001 8.2913569e-40
-0.019250471 -0.041819982 0.69700003 1.0128039e-39
-0.017922852 -0.041819993 0.69700003 1.0120836e-39
-0.016595233 -0.041819986 0.69700003 1.0128081e-39
-0.015223807 -0.041699994 0.69500005 1.1961259e-39
-0.013939997 -0.041819993 0.69700003 1.2890418e-39
-0.012576188 -0.041699994 0.69499999 1.289046e-39
-0.011252373 -0.041699983 0.69500005 1.1979308e-39
-0.0099285636 -0.041699979 0.69500005 1.3819633e-39
-0.0086047594 -0.041699994 0.69499999 1.5663588e-39
-0.0072809444 -0.041699983 0.69500005 1.4756065e-39
-0.0059571345 -0.041699983 0.69500005 1.2926446e-39
-0.0046266662 -0.041640002 0.69399995 1.2000832e-39
-0.0033047595 -0.041639995 0.69400001 1.1078932e-39
-0.0019828524 -0.041639991 0.69400001 1.1982966e-39
-0.00065999536 -0.041579992 0.69300002 1.2904936e-39
0.00065810687 -0.041459978 0.6910001 1.2901377e-39
0.0019742902 -0.041459996 0.69100004 1.1997385e-39
0.0033000009 -0.041580003 0.69299996 1.2930103e-39
0.0046200049 -0.041579995 0.69299996 1.2908369e-39
0.005940007 -0.041579988 0.69300002 1.2883062e-39
0.0072600008 -0.041580003 0.69299996 1.2883188e-39
0.0085800048 -0.041579995 0.69300002 1.1975721e-39
0.0099000037 -0.041579999 0.69299996 1.1057338e-39
0.011236196 -0.041639987 0.69400001 8.302259e-40
0.012558099 -0.041639995 0.69400001 5.5506553e-40
0.013880005 -0.041639987 0.69400001 3.710246e-40
0.015223821 -0.041699983 0.69499999 9.3388135e-41
0.016547628 -0.041699987 0.69500005 1.9290443e-39
0.017922858 -0.041819997 0.69699997 3.7992102e-39
0.019250486 -0.041819986 0.69700003 1.0918707e-38
0.020578099 -0.041819993 0.69700003 1.7961283e-38
0.02190572 -0.04181999 0.69700003 1.1885375e-38
0.023266669 -0.04188 0.69799995 5.8034033e-39
0.024666673 -0.041999999 0.70000005 5.6028495e-39
0.02600001 -0.041999999 0.70000005 5.454068e-39
0.027372392 -0.042059984 0.70100009 1.3847064e-38
0.028707629 -0.042059984 0.70100003 2.2217727e-38
0.030171433 -0.042239994 0.704 2.2866677e-38
0.03155715 -0.04229999 0.70500004 2.341769e-38
0.032900009 -0.042299993 0.70500004 2.341769e-38
0.034242868 -0.042299993 0.70500004 2.341769e-38
-0.047445718 -0.041944753 0.72200006 2.3020265e-39
-0.046070471 -0.041944742 0.72200006 1.7502989e-39
-0.044509523 -0.041770462 0.71899998 1.1989327e-39
-0.043139994 -0.041770458 0.71900004 9.2235567e-40
-0.041654292 -0.041654292 0.71700001 6.4686319e-40
-0.040232383 -0.041596189 0.71600002 2.389958e-39
-0.038760003 -0.041480001 0.71399999 4.1337758e-39
-0.037347615 -0.04142189 0.71300006 6.5466282e-39
-0.035838097 -0.041247617 0.71000004 8.9353965e-39
-0.034388565 -0.041131414 0.708 4.8816894e-39
-0.032899998 -0.04095713 0.70500004 8.2911187e-40
-0.031557143 -0.040957134 0.70500004 7.3765612e-40
-0.030171426 -0.040899035 0.70400006 6.4723314e-40
-0.028789522 -0.040840946 0.70300001 7.3725255e-40
-0.02745047 -0.040840935 0.70300007 7.3619457e-40
-0.026037138 -0.040724747 0.70100003 7.3657152e-40
-0.024666663 -0.040666658 0.70000005 7.3801766e-40
-0.02333333 -0.040666658 0.70000005 8.291455e-40
-0.022 -0.040666666 0.70000005 8.2842103e-40
-0.020607609 -0.040550452 0.69800001 9.2060825e-40
-0.019250475 -0.040492367 0.69700003 1.1046296e-39
-0.017922852 -0.040492367 0.69700003 1.0135017e-39
-0.016595237 -0.040492374 0.69700003 9.2167884e-40
-0.015267616 -0.040492374 0.69700003 1.0135255e-39
-0.013939995 -0.040492367 0.69700003 1.1060841e-39
-0.012576185 -0.040376175 0.69500005 1.1060883e-39
-0.011252381 -0.04037619 0.69499999 1.1990056e-39
-0.0099285673 -0.040376179 0.69500005 1.1982924e-39
-0.0086047566 -0.040376179 0.69500005 1.2901391e-39
-0.0072809518 -0.04037619 0.69499999 1.2912251e-39
-0.0059485724 -0.040318098 0.69399995 1.2000944e-39
-0.0046266643 -0.04031809 0.69399995 1.0164108e-39
-0.0032999991 -0.040260002 0.69299996 7.405498e-40
-0.0019799951 -0.040259995 0.69300002 9.2350613e-40
-0.00065808662 -0.040143792 0.6910001 1.1068212e-39
0.00065810222 -0.040143799 0.69100004 1.1990168e-39
0.0019714357 -0.040085699 0.69000006 1.1997315e-39
0.0032904875 -0.040143788 0.69100004 1.2922816e-39
0.0046066744 -0.040143795 0.6910001 1.2919201e-39
0.0059228651 -0.040143803 0.69100004 1.3819577e-39
0.0072390572 -0.040143799 0.69100004 1.4716464e-39
0.0085552493 -0.040143792 0.69100004 1.2886971e-39
0.0099000037 -0.040259998 0.69299996 1.0131864e-39
0.011220005 -0.040259991 0.69300002 8.302287e-40
0.012558101 -0.040318083 0.69400001 5.5543828e-40
0.013880006 -0.040318083 0.69400001 5.5436068e-40
0.015223815 -0.040376183 0.69500005 4.6108885e-40
0.016547626 -0.040376179 0.69499999 1.1979224e-39
0.017871436 -0.040376183 0.69500005 1.9413323e-39
0.019195246 -0.040376183 0.69500005 8.1206129e-39
0.020519055 -0.040376183 0.69500005 1.4271373e-38
0.021842867 -0.040376183 0.69499999 1.0315922e-38
0.023233343 -0.040492363 0.69700003 6.3382383e-39
0.024596198 -0.040550467 0.69800001 4.5958162e-39
0.026000014 -0.040666658 0.70000005 2.8607578e-39
0.027333342 -0.04066667 0.70000005 1.1442126e-38
0.028666675 -0.040666666 0.70000005 2.0110536e-38
0.030128583 -0.040840939 0.70300007 2.1764292e-38
0.031512383 -0.040899038 0.704 2.341769e-38
0.032853339 -0.040899042 0.70400006 2.341769e-38
0.034242868 -0.040957138 0.70500004 2.341769e-38
0.03558572 -0.04095713 0.70500004 2.341769e-38
-0.047445714 -0.040569507 0.72200006 1.9343356e-39
-0.046134286 -0.040625706 0.72300005 1.750673e-39
-0.044571426 -0.040457126 0.72000003 1.4740777e-39
-0.043199994 -0.040457126 0.72000003 8.2870689e-40
-0.041828562 -0.040457118 0.72000003 9.3681006e-41
-0.040232379 -0.040232372 0.71599996 2.7554937e-39
-0.038760003 -0.040119994 0.71400005 5.4445994e-39
-0.037347615 -0.040063795 0.71300006 1.0447529e-38
-0.035838097 -0.03989524 0.71000004 1.5290354e-38
-0.034388565 -0.039782841 0.708 7.738256e-39
-0.032899998 -0.039614279 0.70500004 9.9087216e-41
-0.031646661 -0.039726648 0.70700002 2.7669759e-40
-0.030171428 -0.03955809 0.70400006 3.6922953e-40
-0.028789524 -0.039501902 0.70300001 5.5216204e-40
-0.027450476 -0.039501902 0.70300001 6.4472481e-40
-0.026037138 -0.039389506 0.70100003 8.2804688e-40
-0.024666667 -0.039333332 0.70000005 9.2096418e-40
-0.023333332 -0.039333325 0.70000005 1.0128053e-39
-0.021999996 -0.039333325 0.70000005 1.0128039e-39
-0.020607617 -0.039220944 0.69800001 1.1042792e-39
-0.019250477 -0.039164755 0.69700003 1.1053526e-39
-0.017922854 -0.039164755 0.69700003 1.0149493e-39
-0.016595235 -0.039164748 0.69700003 8.3056782e-40
-0.01526762 -0.039164763 0.69700003 9.2241032e-40
-0.013899993 -0.039052363 0.69500005 9.2205579e-40
-0.012576183 -0.03905236 0.69500005 1.0138969e-39
-0.011252379 -0.039052371 0.69500005 1.1064527e-39
-0.0099285692 -0.039052371 0.69499999 1.105738e-39
-0.0086047538 -0.03905236 0.69500005 1.0142654e-39
-0.0072809495 -0.039052375 0.69500005 1.1064653e-39
-0.0059485706 -0.038996194 0.69399995 1.1078904e-39
-0.0046199947 -0.038939986 0.69299996 7.4125606e-40
-0.0032904679 -0.038827602 0.69100004 3.7356095e-40
-0.0019742753 -0.038827594 0.6910001 6.4871431e-40
-0.00065713574 -0.038771417 0.69000006 9.2386487e-40
0.00065714901 -0.038771417 0.69000006 1.1071799e-39
0.0019714334 -0.038771421 0.69000012 1.1997301e-39
0.0032857172 -0.038771424 0.69000006 1.2919201e-39
0.0046000029 -0.038771424 0.69000006 1.2919201e-39
0.0059142928 -0.038771417 0.69000006 1.4752324e-39
0.0072390544 -0.038827609 0.69100004 1.6571097e-39
0.0085552465 -0.038827602 0.6910001 1.2879755e-39
0.0098714335 -0.038827609 0.69100004 9.2170547e-40
0.011220004 -0.038939994 0.69299996 7.383904e-40
0.01254001 -0.038939986 0.69300002 5.5506833e-40
0.013880009 -0.038996175 0.69400001 7.3837079e-40
0.015201917 -0.038996171 0.69400001 8.2913569e-40
0.016523816 -0.038996179 0.69400001 4.5964692e-40
0.01784572 -0.038996186 0.69399995 1.0135732e-40
0.019195246 -0.039052363 0.69500005 5.3511328e-39
0.020519059 -0.039052363 0.69500005 1.0597209e-38
0.021842869 -0.039052363 0.69500005 8.7683645e-39
0.023166668 -0.039052375 0.69499999 6.8146181e-39
0.024490483 -0.039052367 0.69500005 3.4901566e-39
0.025888573 -0.039164752 0.69700003 1.9784653e-40
0.027216196 -0.039164752 0.69700003 9.0418125e-39
0.028584773 -0.039220937 0.69800001 1.7888889e-38
0.030042864 -0.039389506 0.70100003 2.0662625e-38
0.031467628 -0.039501891 0.70300007 2.341769e-38
0.03280668 -0.039501902 0.70300001 2.341769e-38
0.034194287 -0.03955809 0.70400006 2.341769e-38
0.035535239 -0.03955809 0.704 2.341769e-38
-0.046134278 -0.039248545 0.72300005 1.9350755e-39
-0.044571433 -0.039085712 0.72000003 1.7510163e-39
-0.043199994 -0.039085697 0.72000003 9.2052137e-40
-0.041828565 -0.039085697 0.72000003 9.2230662e-41
-0.040288568 -0.038922846 0.71700001 4.9792633e-39
-0.038760003 -0.038759992 0.71400005 9.8591759e-39
-0.037347615 -0.038705695 0.71300006 1.0522548e-38
-0.03583809 -0.038542848 0.71000004 1.1264671e-38
-0.034388568 -0.038434286 0.70799994 7.9193962e-39
-0.032993335 -0.038379993 0.70700002 4.6840419e-39
-0.031646665 -0.038379986 0.70700002 5.1579807e-39
-0.030171432 -0.038217146 0.704 5.6949849e-39
-0.028830476 -0.038217138 0.70400006 3.0324533e-39
-0.02745047 -0.038162842 0.70300001 3.6994279e-40
-0.026111428 -0.038162854 0.70300001 6.4509055e-40
-0.024701901 -0.038054269 0.70100009 1.0127927e-39
-0.023366662 -0.038054273 0.70100003 1.1049883e-39
-0.022 -0.037999999 0.70000005 1.1971867e-39
-0.020607613 -0.03789141 0.69800001 1.105354e-39
-0.019250475 -0.037837129 0.69700003 1.105717e-39
-0.017922856 -0.037837144 0.69700003 1.0138843e-39
-0.016595237 -0.037837137 0.69700003 9.2169285e-40
-0.015223803 -0.037728559 0.69500005 9.2133692e-40
-0.013899999 -0.037728567 0.69499999 1.0128179e-39
-0.012576185 -0.037728556 0.69500005 1.0135396e-39
-0.011252375 -0.037728559 0.69500005 1.0146172e-39
-0.009914279 -0.037674274 0.69400001 1.0146186e-39
-0.0085923783 -0.037674278 0.69399995 1.0142584e-39
-0.0072704768 -0.037674289 0.69399995 1.3826752e-39
-0.0059399982 -0.037620001 0.69300002 1.7510878e-39
-0.0046066549 -0.037511405 0.69100004 1.3837388e-39
-0.0032904679 -0.037511412 0.6910001 1.0164038e-39
-0.0019742791 -0.037511416 0.69100004 1.0160521e-39
-0.00065713807 -0.037457135 0.69000006 1.1078918e-39
0.00065714668 -0.037457138 0.69000006 1.107896e-39
0.0019714362 -0.037457131 0.69000006 1.1993686e-39
0.0032857205 -0.037457131 0.69000006 1.2000818e-39
0.0046000052 -0.037457135 0.69000006 1.2922788e-39
0.0059142965 -0.037457123 0.69000006 1.4755939e-39
0.0072285761 -0.037457142 0.69000006 1.6589034e-39
0.0085552493 -0.037511412 0.69100004 1.2904824e-39
0.0098714344 -0.03751142 0.69100004 9.2277886e-40
0.011187627 -0.037511412 0.69100004 8.3058043e-40
0.012540002 -0.037620001 0.69300002 7.3836798e-40
0.01386 -0.037620004 0.69299996 8.3054399e-40
0.015201912 -0.037674278 0.69400001 9.2275224e-40
0.016523812 -0.037674282 0.69399995 8.2913569e-40
0.01784572 -0.037674282 0.69399995 7.3520245e-40
0.019167626 -0.037674274 0.69399995 3.781254e-39
0.020489527 -0.037674282 0.69399995 6.9262736e-39
0.021811435 -0.037674282 0.69399995 8.3088409e-39
0.023166675 -0.037728559 0.69500005 9.6715462e-39
0.024490487 -0.037728563 0.69499999 4.8748161e-39
0.025814291 -0.037728563 0.69500005 1.8417406e-40
0.027255245 -0.037891425 0.69799995 6.456393e-39
0.028584769 -0.037891414 0.69800001 1.2741061e-38
0.030000009 -0.037999995 0.70000005 1.8085491e-38
0.031378105 -0.038054273 0.70100009 2.341769e-38
0.03280668 -0.038162842 0.70300007 2.341769e-38
0.034145724 -0.038162854 0.70300001 2.341769e-38
0.035535246 -0.038217138 0.70400006 2.341769e-38
-0.046134282 -0.037871413 0.72300005 2.1201674e-39
-0.044571426 -0.037714269 0.72000003 2.0250781e-39
-0.043199994 -0.037714269 0.72000003 1.1023945e-39
-0.041828565 -0.037714269 0.72000003 1.0374373e-40
-0.040232375 -0.037504748 0.71600002 7.2095755e-39
-0.038760006 -0.037400011 0.71399999 1.4282742e-38
-0.037400004 -0.037399996 0.71400005 1.0702271e-38
-0.035888571 -0.037242841 0.71100003 7.0991125e-39
-0.034534283 -0.037242852 0.71100003 8.173823e-39
-0.033039995 -0.037085693 0.708 9.216368e-39
-0.031691425 -0.037085701 0.708 1.0159184e-38
-0.030214284 -0.036928568 0.70499998 1.1049477e-38
-0.02883048 -0.03687619 0.704 5.604915e-39
-0.027450472 -0.036823798 0.70300007 9.3714637e-41
-0.026111428 -0.036823805 0.70300007 5.5254039e-40
-0.024701901 -0.036719032 0.70100003 1.0127955e-39
-0.02336666 -0.036719035 0.70100003 1.1971853e-39
-0.021999994 -0.036666658 0.70000005 1.2890222e-39
-0.020607613 -0.036561888 0.69800001 1.1971881e-39
-0.01927809 -0.036561888 0.69800001 1.1053568e-39
-0.017922856 -0.036509518 0.69699997 1.0131654e-39
-0.016595235 -0.036509514 0.69699997 9.2097399e-40
-0.015223805 -0.036404755 0.69500005 1.0120948e-39
-0.013879999 -0.036352377 0.69400001 1.104652e-39
-0.012558093 -0.036352377 0.69400001 1.0131794e-39
-0.011236185 -0.03635237 0.69400001 9.2242153e-40
-0.0099000018 -0.036300007 0.69299996 1.0153346e-39
-0.0085799973 -0.036299996 0.69300002 1.015336e-39
-0.007259998 -0.0363 0.69299996 1.6585432e-39
-0.0059399949 -0.036299992 0.69300002 2.3013861e-39
-0.0046066553 -0.036195215 0.6910001 1.9336784e-39
-0.0032857102 -0.036142852 0.69000006 1.5670595e-39
-0.0019714208 -0.036142841 0.69000012 1.3830353e-39
-0.00065618812 -0.036090475 0.68900001 1.1997315e-39
0.00065619813 -0.03609046 0.68900001 1.2000972e-39
0.0019685747 -0.036090471 0.68900001 1.1997329e-39
0.0032809577 -0.036090471 0.68900001 1.200086e-39
0.0045933388 -0.036090467 0.68900001 1.1997287e-39
0.0059057209 -0.036090467 0.68900001 1.3837612e-39
0.0072181034 -0.036090463 0.68900001 1.5674266e-39
0.0085304789 -0.036090475 0.68900001 1.2919159e-39
0.0098571461 -0.036142852 0.69000006 9.2385366e-40
0.01117143 -0.036142856 0.69000006 9.2277606e-40
0.012485719 -0.036142848 0.69000006 9.2240471e-40
0.013820006 -0.036195226 0.69100004 9.2203337e-40
0.015180005 -0.0363 0.69299996 9.2240191e-40
0.016500007 -0.036299992 0.69300002 1.1071575e-39
0.017820006 -0.036299992 0.69299996 1.2879797e-39
0.019140007 -0.036299985 0.69300002 2.2963975e-39
0.020489529 -0.036352377 0.69399995 3.2442302e-39
0.021811431 -0.036352374 0.69399995 7.8687099e-39
0.023133341 -0.036352366 0.69400001 1.24263e-38
0.024490481 -0.036404759 0.69500005 6.2452355e-39
0.025814295 -0.036404755 0.69499999 9.4474141e-41
0.027216192 -0.036509514 0.69699997 3.8580017e-39
0.028543813 -0.036509514 0.69700003 7.5767031e-39
0.029914295 -0.036561891 0.69800001 1.5519837e-38
0.031333342 -0.036666662 0.70000005 2.341769e-38
0.032666672 -0.036666658 0.70000005 2.341769e-38
0.034000009 -0.03666665 0.70000005 2.341769e-38
0.035484772 -0.036823791 0.70300001 2.341769e-38
-0.044571426 -0.036342841 0.72000003 1.197474e-39
-0.043199994 -0.036342841 0.72000003 3.1238474e-39
-0.041828565 -0.036342841 0.72000003 5.1436103e-39
-0.040232379 -0.036140949 0.71600002 8.6761464e-39
-0.038760006 -0.036040004 0.71399999 1.2278897e-38
-0.0374 -0.036039989 0.71400005 1.0226591e-38
-0.035989523 -0.035989512 0.71300006 8.2657524e-39
-0.034485716 -0.035838094 0.71000004 1.0043622e-38
-0.033133335 -0.035838097 0.71000004 1.1919516e-38
-0.031691425 -0.035737131 0.70799994 1.2276896e-38
-0.030214284 -0.035585705 0.70499998 1.2636203e-38
-0.028830472 -0.035535228 0.70400006 6.3514273e-39
-0.027489528 -0.035535239 0.704 9.2276905e-41
-0.026111424 -0.035484746 0.70300007 5.5290193e-40
-0.024701899 -0.035383791 0.70100003 9.2132151e-40
-0.02336666 -0.035383794 0.70100009 1.0135157e-39
-0.022000004 -0.035333335 0.70000005 1.1049925e-39
-0.020578094 -0.035181899 0.69699997 1.1049925e-39
-0.019250475 -0.035181899 0.69700003 1.104638e-39
-0.017871423 -0.035080936 0.69500005 9.2096978e-40
-0.016547617 -0.035080951 0.69499999 7.3694286e-40
-0.0152019 -0.035030462 0.69400001 1.0124508e-39
-0.01388 -0.035030473 0.69400001 1.1972035e-39
-0.01254 -0.034979999 0.69299996 1.1053723e-39
-0.011219997 -0.034979992 0.69299996 1.0138969e-39
-0.0099000037 -0.034980007 0.69299996 1.0146158e-39
-0.0085552298 -0.034879029 0.69100004 1.1075303e-39
-0.0072390418 -0.034879036 0.69100004 1.474875e-39
-0.0059228484 -0.034879033 0.6910001 1.8418527e-39
-0.00460666 -0.03487904 0.69100004 1.6585334e-39
-0.0032857074 -0.034828559 0.69000006 1.5670609e-39
-0.0019714176 -0.034828551 0.69000012 1.4748708e-39
-0.00065618858 -0.034778092 0.68900001 1.3830466e-39
0.00065619254 -0.034778088 0.68900001 1.382699e-39
