# .PCD v0.7 - Point Cloud Data file format
VERSION 0.7
FIELDS x y z rgb
SIZE 4 4 4 4
TYPE F F F F
COUNT 1 1 1 1
WIDTH 944
HEIGHT 1
VIEWPOINT 0 0 0 1 0 0 0
POINTS 944
DATA ascii
-0.040334295 -0.09269812 0.74300003 1.5940532e-38
-0.038919061 -0.092698127 0.74300009 1.3727508e-38
-0.03750382 -0.09269812 0.74300003 1.1532787e-38
-0.036088586 -0.09269812 0.74300009 1.2272139e-38
-0.034673344 -0.09269812 0.74300003 1.3005033e-38
-0.033481903 -0.093321912 0.74800003 1.3374891e-38
-0.032057133 -0.093321912 0.74800003 1.3649314e-38
-0.030509533 -0.092947632 0.74500012 1.364895e-38
-0.029090481 -0.09294764 0.74500006 1.3557116e-38
-0.045995243 -0.091282867 0.74300003 9.9647805e-39
-0.044700008 -0.091528594 0.74500012 9.9633526e-39
-0.043280955 -0.091528594 0.74500012 9.8625474e-39
-0.041861899 -0.091528587 0.74500006 9.500585e-39
-0.040442869 -0.091528602 0.74500012 9.0424809e-39
-0.038919054 -0.091282874 0.74300003 9.3190594e-39
-0.03760476 -0.091528587 0.74500006 9.6993129e-39
-0.036088578 -0.091282867 0.74300009 1.0523677e-38
-0.034673344 -0.091282882 0.74300009 1.1439169e-38
-0.033258107 -0.091282882 0.74300009 1.190194e-38
-0.031928573 -0.091528594 0.74500012 1.2455462e-38
-0.03050953 -0.091528587 0.74500012 1.3097591e-38
-0.029168582 -0.091774307 0.7470001 1.3741512e-38
-0.027671427 -0.091528587 0.74500012 1.3831909e-38
-0.026252378 -0.091528594 0.74500012 1.3923393e-38
-0.024900001 -0.091774307 0.74700004 1.3925552e-38
-0.023414284 -0.091528594 0.74500012 1.4017034e-38
-0.047346674 -0.089746676 0.7420001 9.2715512e-41
-0.045995247 -0.089867637 0.74300009 1.0779068e-40
-0.044700012 -0.090109535 0.74500012 1.0780049e-40
-0.043280955 -0.090109535 0.74500012 1.0924102e-40
-0.041861914 -0.090109542 0.74500012 1.1190784e-39
-0.040442862 -0.090109527 0.74500012 2.1350183e-39
-0.039023813 -0.090109535 0.74500012 4.989822e-39
-0.037604775 -0.090109542 0.74500012 7.7517042e-39
-0.036185715 -0.090109535 0.74500012 8.7755279e-39
-0.034673344 -0.089867644 0.74300009 9.7771326e-39
-0.03325811 -0.089867637 0.74300003 1.0521528e-38
-0.03192858 -0.090109542 0.74500012 1.1162943e-38
-0.030509528 -0.090109535 0.74500012 1.2544422e-38
-0.029168585 -0.090351447 0.7470001 1.3829754e-38
-0.027671441 -0.090109542 0.74500012 1.3737554e-38
-0.026322864 -0.09035144 0.7470001 1.3647526e-38
-0.024900002 -0.09035144 0.74700004 1.3649332e-38
-0.023414295 -0.090109535 0.74500012 1.3648616e-38
-0.047538098 -0.088690482 0.74500006 6.4434646e-40
-0.045995258 -0.088452391 0.74300003 5.5144458e-40
-0.044700008 -0.08869049 0.74500012 6.4759467e-40
-0.043280955 -0.08869049 0.74500006 7.3513799e-40
-0.04186191 -0.088690504 0.74500012 1.1986329e-39
-0.040442865 -0.08869049 0.74500012 1.6535308e-39
-0.039023809 -0.088690497 0.74500006 2.7659852e-39
-0.037604772 -0.08869049 0.74500012 3.960211e-39
-0.036185719 -0.088690497 0.74500012 4.4276449e-39
-0.034673344 -0.088452406 0.74300003 4.9740364e-39
-0.033258114 -0.088452399 0.74300009 5.2614231e-39
-0.031928573 -0.08869049 0.74500012 5.6398914e-39
-0.030509528 -0.088690497 0.74500006 7.7542644e-39
-0.029090479 -0.088690497 0.74500012 9.9683524e-39
-0.027671434 -0.08869049 0.74500012 1.1070729e-38
-0.026322866 -0.088928595 0.7470001 1.2268915e-38
-0.024900002 -0.088928588 0.74700004 1.2728829e-38
-0.023477152 -0.088928595 0.7470001 1.3188004e-38
-0.022054292 -0.088928588 0.7470001 1.3371671e-38
-0.020631433 -0.088928588 0.7470001 1.3553542e-38
-0.047538105 -0.087271452 0.74500012 1.1978552e-39
-0.046119053 -0.087271452 0.74500012 1.0127562e-39
-0.044700008 -0.087271452 0.74500006 1.195358e-39
-0.043397143 -0.087505728 0.7470001 1.2868446e-39
-0.041861903 -0.087271452 0.74500012 1.1946602e-39
-0.040442865 -0.087271444 0.74500006 1.1028247e-39
-0.03902382 -0.087271452 0.74500012 6.4364861e-40
-0.03760476 -0.087271459 0.74500012 9.5149567e-41
-0.036185715 -0.087271444 0.74500012 9.2283912e-41
-0.034673348 -0.087037168 0.74300009 9.6260797e-41
-0.033347622 -0.087271452 0.74500012 9.3061632e-41
-0.031928573 -0.087271452 0.74500006 1.0598441e-40
-0.030509535 -0.087271459 0.74500012 3.0472398e-39
-0.029090483 -0.087271452 0.74500012 5.9978349e-39
-0.027671423 -0.087271452 0.74500012 8.3995708e-39
-0.026322857 -0.087505728 0.7470001 1.0792344e-38
-0.024900001 -0.087505728 0.7470001 1.1809378e-38
-0.023477148 -0.087505735 0.7470001 1.2726311e-38
-0.022054287 -0.087505728 0.7470001 1.318873e-38
-0.020631434 -0.087505735 0.7470001 1.3555702e-38
-0.019157147 -0.087271444 0.74500006 1.3464215e-38
-0.047538105 -0.085852392 0.74500012 9.2161578e-40
-0.046242859 -0.086082861 0.7470001 7.3830773e-40
-0.044820007 -0.086082868 0.74700004 9.2090673e-40
-0.043397155 -0.086082868 0.7470001 1.1035085e-39
-0.041974291 -0.086082868 0.7470001 9.1948581e-40
-0.040551431 -0.086082868 0.7470001 7.3543226e-40
-0.039023817 -0.085852392 0.74500012 4.6025928e-40
-0.037604772 -0.085852399 0.74500012 2.7623236e-40
-0.036185712 -0.085852399 0.74500006 1.84757e-40
-0.034673341 -0.085621923 0.74300003 1.8441648e-40
-0.033347629 -0.085852392 0.74500012 1.8515216e-40
-0.031928573 -0.085852399 0.74500006 2.7592408e-40
-0.030509535 -0.085852399 0.74500012 1.6588487e-39
-0.029090486 -0.085852399 0.74500012 3.0357155e-39
-0.027671438 -0.085852392 0.74500006 4.2461291e-39
-0.026252393 -0.085852399 0.74500012 5.4561714e-39
-0.024900001 -0.086082876 0.7470001 7.2947114e-39
-0.023477143 -0.086082868 0.74700004 9.2293833e-39
-0.022054289 -0.086082868 0.7470001 1.1071861e-38
-0.020631429 -0.086082868 0.7470001 1.3005773e-38
-0.019157143 -0.085852392 0.74500006 1.3096877e-38
-0.017738106 -0.085852392 0.74500012 1.3281263e-38
-0.046242863 -0.084660016 0.7470001 4.6278863e-40
-0.044819999 -0.084660009 0.74700004 6.4646102e-40
-0.044036191 -0.085906677 0.75800008 8.2870409e-40
-0.042480007 -0.085680023 0.7560001 6.4396251e-40
-0.040985733 -0.0855667 0.75500011 3.684406e-40
-0.03944286 -0.085340016 0.75300008 3.6878392e-40
-0.037958097 -0.085226677 0.75200009 3.6878392e-40
-0.036331423 -0.084773339 0.74800003 3.6914405e-40
-0.03486 -0.084660016 0.7470001 2.776785e-40
-0.03343714 -0.084660009 0.74700004 3.706e-40
-0.032014292 -0.084660023 0.7470001 3.6917628e-40
-0.030509528 -0.084433354 0.74500012 2.7591567e-40
-0.029168572 -0.084660016 0.7470001 9.3699223e-41
-0.027745727 -0.084660023 0.7470001 9.2283912e-41
-0.026322864 -0.084660023 0.7470001 1.0666123e-40
-0.024933338 -0.084773339 0.74800003 2.8667778e-39
-0.023477145 -0.084660016 0.74700004 5.6330278e-39
-0.022054292 -0.084660023 0.7470001 9.0471486e-39
-0.020631433 -0.084660016 0.7470001 1.2353947e-38
-0.019157149 -0.084433354 0.74500012 1.272739e-38
-0.0177381 -0.084433354 0.74500012 1.3097233e-38
-0.016319048 -0.084433347 0.74500006 1.3835136e-38
-0.045780003 -0.085020013 0.76300001 6.4572814e-40
-0.044210482 -0.084797159 0.76100004 6.4501628e-40
-0.042704776 -0.084685735 0.76000011 5.5282766e-40
-0.041040003 -0.084240019 0.75600004 4.6062642e-40
-0.039600007 -0.084240012 0.75600004 4.6097815e-40
-0.038160011 -0.084240012 0.75600004 4.6097815e-40
-0.036720008 -0.084240019 0.75600004 5.5353111e-40
-0.034860011 -0.083237156 0.7470001 7.3792237e-40
-0.033437148 -0.083237156 0.74700004 5.5425418e-40
-0.03205714 -0.083348595 0.74800003 4.6171103e-40
-0.030591436 -0.083237164 0.7470001 3.6880774e-40
-0.029207621 -0.083348587 0.74800009 2.7624217e-40
-0.027782859 -0.083348587 0.74800003 1.8475279e-40
-0.02635809 -0.083348587 0.74800003 1.8441508e-40
-0.02500001 -0.083571449 0.75000012 1.5691432e-39
-0.023508569 -0.083348587 0.74800003 2.9496464e-39
-0.022083811 -0.083348587 0.74800009 4.6149831e-39
-0.020576194 -0.083014302 0.74500006 6.2784449e-39
-0.019157145 -0.083014309 0.74500012 9.2290372e-39
-0.0177381 -0.083014302 0.74500012 1.2177443e-38
-0.016319051 -0.083014309 0.74500006 1.2268903e-38
-0.014900006 -0.083014309 0.74500012 1.2362895e-38
-0.045780007 -0.083566681 0.76300001 6.4500787e-40
-0.044326663 -0.083566673 0.76300001 3.6950419e-40
-0.042704772 -0.083238117 0.76000011 4.6098375e-40
-0.041040014 -0.082800031 0.7560001 4.6097955e-40
-0.039600004 -0.082800023 0.75600004 5.5281224e-40
-0.03816 -0.082800008 0.75600004 5.5317098e-40
-0.036720004 -0.082800016 0.75600004 8.2939493e-40
-0.034906667 -0.081923805 0.74800003 1.1049028e-39
-0.033481903 -0.08192382 0.74800003 8.2975646e-40
-0.032057136 -0.081923813 0.74800003 5.5353812e-40
-0.030632382 -0.08192382 0.74800009 4.6134949e-40
-0.027833344 -0.091452405 0.8350001 1.8406896e-40
-0.026242867 -0.091452405 0.8350001 1.8698226e-40
-0.024652388 -0.091452412 0.8350001 1.8451598e-40
-0.020631433 -0.081814304 0.7470001 1.1067315e-40
-0.01920858 -0.081814311 0.7470001 5.6402291e-39
-0.017785719 -0.081814297 0.7470001 1.1157539e-38
-0.016362859 -0.081814289 0.74700004 1.0699801e-38
-0.014900006 -0.081595257 0.74500012 1.0146258e-38
-0.013480954 -0.081595249 0.74500006 9.4955011e-39
-0.045780014 -0.082113355 0.76300007 5.5316817e-40
-0.047928579 -0.08878573 0.82500005 4.6097395e-40
-0.042480007 -0.08136002 0.7560001 3.6913845e-40
-0.041040014 -0.08136002 0.7560001 3.6913845e-40
-0.039600007 -0.081360012 0.7560001 3.6949718e-40
-0.038160007 -0.08136002 0.7560001 4.6097395e-40
-0.036720008 -0.08136002 0.7560001 6.4500367e-40
-0.034906667 -0.080499053 0.74800003 7.371993e-40
-0.037197158 -0.08943145 0.83100009 5.5388704e-40
-0.035614297 -0.08943145 0.83100009 4.6169561e-40
-0.034031432 -0.089431442 0.83100003 5.5353251e-40
-0.029353335 -0.089646682 0.83300006 4.6026909e-40
-0.027766669 -0.089646682 0.83300006 3.6808888e-40
-0.026180007 -0.08964669 0.83300012 2.7588344e-40
-0.024652394 -0.089861929 0.8350001 1.8439406e-40
-0.020631436 -0.080391452 0.7470001 1.8556275e-40
-0.019208575 -0.080391452 0.7470001 2.9593728e-39
-0.017785713 -0.080391444 0.7470001 5.6427178e-39
-0.016362861 -0.080391452 0.74700004 8.2144957e-39
-0.014900005 -0.080176212 0.74500012 1.0689351e-38
-0.013517147 -0.080391444 0.7470001 1.2718301e-38
-0.012094287 -0.080391444 0.7470001 1.4833378e-38
-0.049620003 -0.087425731 0.82700002 4.6169141e-40
-0.047928579 -0.087214299 0.82500005 4.6133268e-40
-0.046357159 -0.087214306 0.82500011 3.6913985e-40
-0.044677142 -0.087002866 0.82300001 1.8546746e-40
-0.043109529 -0.087002866 0.82300001 2.7802042e-40
-0.041743811 -0.087425731 0.82700002 3.6913845e-40
-0.04016858 -0.087425731 0.82700008 3.6877972e-40
-0.038686682 -0.087637171 0.82900012 3.6949718e-40
-0.03719715 -0.087848581 0.83100009 3.7057338e-40
-0.035614293 -0.087848581 0.83100003 2.7838195e-40
-0.03403144 -0.087848589 0.83100009 5.5353111e-40
-0.032448579 -0.087848581 0.83100009 8.2867747e-40
-0.030865716 -0.087848581 0.83100003 7.361231e-40
-0.029353332 -0.088060014 0.83300006 6.4429461e-40
-0.027766671 -0.088060006 0.83300006 4.6063063e-40
-0.0260543 -0.087637164 0.82900006 2.765967e-40
-0.024475256 -0.087637179 0.82900012 2.7587503e-40
-0.019208577 -0.078968592 0.7470001 1.8448375e-40
-0.017738104 -0.078757159 0.74500012 1.1244159e-40
-0.016319053 -0.078757167 0.74500012 5.7345603e-39
-0.014900004 -0.078757159 0.74500012 1.1247568e-38
-0.013480959 -0.078757159 0.74500012 1.6039166e-38
-0.012094289 -0.078968585 0.7470001 2.0730665e-38
-0.010671429 -0.078968585 0.7470001 2.184632e-38
-0.049620003 -0.085850492 0.82700002 4.6133128e-40
-0.047928583 -0.085642867 0.82500005 5.5280944e-40
-0.046357155 -0.085642867 0.82500011 4.6025788e-40
-0.044894286 -0.085850492 0.82700002 2.7622676e-40
-0.04331905 -0.0858505 0.82700008 3.6877832e-40
-0.041743811 -0.0858505 0.82700002 4.6061381e-40
-0.040168572 -0.0858505 0.82700008 3.6877832e-40
-0.038686674 -0.086058117 0.82900006 3.6913705e-40
-0.037107632 -0.086058117 0.82900006 3.6985451e-40
-0.035528585 -0.086058117 0.82900012 3.6985732e-40
-0.033949535 -0.08605811 0.82900006 4.6133548e-40
-0.032370482 -0.086058117 0.82900006 4.6097675e-40
-0.030791439 -0.086058117 0.82900012 4.6097675e-40
-0.029212398 -0.086058117 0.82900006 5.5245491e-40
-0.027633345 -0.08605811 0.82900006 4.6061942e-40
-0.026054304 -0.086058117 0.82900012 3.6878812e-40
-0.024357144 -0.085642867 0.82500005 3.6843219e-40
-0.022785725 -0.085642874 0.82500011 3.6806786e-40
-0.019157143 -0.077338114 0.74500006 2.7622535e-40
-0.017738104 -0.077338114 0.74500012 2.7596752e-40
-0.016319053 -0.077338107 0.74500012 2.9586693e-39
-0.014900004 -0.077338107 0.74500006 5.7317283e-39
-0.013480959 -0.077338107 0.74500012 1.162827e-38
-0.012061911 -0.077338114 0.74500012 1.7622334e-38
-0.010671435 -0.077545725 0.7470001 2.0101896e-38
-0.0092485826 -0.077545732 0.7470001 2.2583951e-38
-0.051195249 -0.084275261 0.82700008 2.7802042e-40
-0.049740005 -0.084479064 0.82900006 4.6097395e-40
-0.048044767 -0.084275253 0.82700002 6.4464634e-40
-0.046469532 -0.084275261 0.82700008 5.5137591e-40
-0.04500287 -0.084479071 0.82900006 3.6842239e-40
-0.043319054 -0.084275261 0.82700008 4.6025648e-40
-0.041743811 -0.084275253 0.82700002 5.5280944e-40
-0.040168572 -0.084275246 0.82700002 4.6025508e-40
-0.038686685 -0.084479071 0.82900012 2.7766169e-40
-0.037018098 -0.084275253 0.82700002 3.6985591e-40
-0.035528582 -0.084479071 0.82900006 4.6169421e-40
-0.033949543 -0.084479079 0.82900012 2.7695123e-40
-0.032292385 -0.084275253 0.82700002 9.3636165e-41
-0.030717153 -0.084275261 0.82700008 2.7730576e-40
-0.029141909 -0.084275253 0.82700002 3.6878252e-40
-0.027500004 -0.084071442 0.82500005 4.6061942e-40
-0.025928583 -0.084071457 0.82500011 4.6062082e-40
-0.024357146 -0.084071442 0.82500005 4.6062222e-40
-0.022785723 -0.08407145 0.82500011 4.6026068e-40
-0.019157154 -0.075919062 0.74500012 4.5989915e-40
-0.017738104 -0.075919069 0.74500012 3.681127e-40
-0.016319053 -0.075919069 0.74500012 2.7632625e-40
-0.014860011 -0.075715266 0.74300009 1.1390455e-40
-0.013480962 -0.075919062 0.74500012 7.3037035e-39
-0.01206191 -0.075919069 0.74500006 1.4390123e-38
-0.01067143 -0.076122873 0.7470001 1.8354853e-38
-0.0092238188 -0.075919069 0.74500012 2.2306291e-38
-0.0078047705 -0.075919062 0.74500006 2.2489962e-38
-0.052898102 -0.082900017 0.82900006 5.5352831e-40
-0.051195238 -0.082700014 0.82700002 4.6276901e-40
-0.049620006 -0.082700022 0.82700008 5.5424577e-40
-0.048044764 -0.082700014 0.82700002 5.5352831e-40
-0.046469536 -0.082700022 0.82700008 5.5316958e-40
-0.044894286 -0.082700014 0.82700002 6.4464634e-40
-0.043319046 -0.082700014 0.82700002 7.3684057e-40
-0.041743819 -0.082700022 0.82700008 8.2939213e-40
-0.040168572 -0.082700014 0.82700002 7.3755523e-40
-0.038686678 -0.08290001 0.82900006 6.4607987e-40
-0.037018098 -0.082700022 0.82700002 7.3791676e-40
-0.035442855 -0.082700014 0.82700002 9.2123323e-40
-0.033867627 -0.082700022 0.82700008 5.5317798e-40
-0.032292388 -0.082700014 0.82700002 2.7695123e-40
-0.030717151 -0.082700022 0.82700008 3.6914125e-40
-0.029141909 -0.082700014 0.82700002 5.5245351e-40
-0.027500004 -0.082500018 0.82500005 4.6061802e-40
-0.025928583 -0.082500018 0.82500011 3.6878252e-40
-0.024357146 -0.082500011 0.82500005 3.6878112e-40
-0.022785727 -0.082500018 0.82500011 2.7658829e-40
-0.017738096 -0.074500009 0.74500012 3.6806365e-40
-0.016319048 -0.074500009 0.74500006 2.7622535e-40
-0.014860011 -0.074300021 0.74300003 9.2306332e-41
-0.013444774 -0.074300028 0.74300009 3.7895132e-39
-0.012029536 -0.074300013 0.74300009 7.4834158e-39
-0.01064286 -0.074500017 0.74500012 1.3656518e-38
-0.0092238113 -0.074500017 0.74500012 1.9827088e-38
-0.0078257155 -0.074700013 0.7470001 2.1296111e-38
-0.0064028548 -0.074700013 0.7470001 2.2857295e-38
-0.054477148 -0.081320964 0.82900006 7.3648184e-40
-0.052898105 -0.081320971 0.82900012 7.372007e-40
-0.051195242 -0.081124775 0.82700002 6.4680013e-40
-0.049620006 -0.081124775 0.82700008 5.5639957e-40
-0.048044767 -0.081124783 0.82700002 4.6312914e-40
-0.046357155 -0.080928586 0.82500011 6.464414e-40
-0.044785719 -0.080928594 0.82500005 8.2940474e-40
-0.04331905 -0.081124783 0.82700002 1.0134443e-39
-0.041743819 -0.08112479 0.82700008 1.1056273e-39
-0.040168572 -0.081124775 0.82700002 1.0144995e-39
-0.038686682 -0.081320979 0.82900012 9.2266395e-40
-0.037018098 -0.081124775 0.82700008 1.1063349e-39
-0.035442863 -0.081124775 0.82700002 1.2892941e-39
-0.033949535 -0.081320964 0.82900012 8.2976487e-40
-0.032292392 -0.081124775 0.82700002 3.6986292e-40
-0.030717148 -0.081124775 0.82700002 5.5281084e-40
-0.029141909 -0.081124775 0.82700008 6.4464634e-40
-0.0275 -0.080928586 0.82500005 4.6061661e-40
-0.025928581 -0.080928594 0.82500011 2.7694562e-40
-0.024357151 -0.080928586 0.82500005 1.8511013e-40
-0.022785723 -0.080928586 0.82500011 9.327463e-41
-0.021214293 -0.080928586 0.82500005 2.7694562e-40
-0.0177381 -0.073080964 0.74500006 3.6878532e-40
-0.016319055 -0.073080972 0.74500012 2.7623656e-40
-0.016500007 -0.080928594 0.82500011 9.298316e-41
-0.014928577 -0.080928586 0.82500005 2.777906e-40
-0.012029529 -0.072884776 0.74300003 4.8556813e-40
-0.011757141 -0.08073239 0.82300001 8.8688586e-39
-0.0092857219 -0.073571444 0.75000012 1.724241e-38
-0.0078571495 -0.073571444 0.75000006 2.0193721e-38
-0.006411422 -0.073375247 0.74800003 2.304168e-38
-0.0049866647 -0.07337524 0.74800003 2.2672884e-38
-0.057635248 -0.079741918 0.82900006 6.4392747e-40
-0.055920955 -0.079549536 0.82700008 1.0116268e-39
-0.05434572 -0.079549529 0.82700002 1.3789716e-39
-0.052770484 -0.079549544 0.82700008 1.1049028e-39
-0.051319059 -0.079741932 0.82900012 8.301138e-40
-0.049500007 -0.079357155 0.82500011 6.4680013e-40
-0.047928575 -0.079357147 0.82500005 4.6277041e-40
-0.046357151 -0.079357162 0.82500011 5.5424717e-40
-0.044894293 -0.079549544 0.82700008 6.4610229e-40
-0.043319054 -0.079549536 0.82700008 8.297929e-40
-0.041743811 -0.079549536 0.82700002 1.0134457e-39
-0.040168576 -0.079549536 0.82700008 9.2230802e-40
-0.038593341 -0.079549529 0.82700002 9.2338282e-40
-0.037018102 -0.079549536 0.82700008 9.2302269e-40
-0.035442863 -0.079549536 0.82700008 9.2231363e-40
-0.033867624 -0.079549536 0.82700002 7.3829091e-40
-0.032292392 -0.079549544 0.82700008 4.6241728e-40
-0.030717151 -0.079549544 0.82700002 5.5388424e-40
-0.029141912 -0.079549544 0.82700008 5.5352551e-40
-0.02756667 -0.079549536 0.82700008 4.6133128e-40
-0.025928579 -0.079357162 0.82500005 3.6913845e-40
-0.024357146 -0.079357155 0.82500005 3.6913845e-40
-0.022785721 -0.079357162 0.82500011 2.7730295e-40
-0.02121429 -0.079357155 0.82500005 3.6913705e-40
-0.019642867 -0.079357162 0.82500011 3.6950699e-40
-0.018027617 -0.079164766 0.82300001 2.7696524e-40
-0.016460003 -0.079164766 0.82300007 9.2226458e-41
-0.014892381 -0.079164773 0.82300001 1.8586262e-40
-0.013324765 -0.079164766 0.82300007 2.8067728e-40
-0.011757142 -0.079164766 0.82300001 6.4621047e-39
-0.010189523 -0.079164766 0.82300007 1.2733131e-38
-0.0078571476 -0.072142869 0.75000006 1.7431116e-38
-0.0064285756 -0.072142877 0.75000006 2.2126908e-38
-0.0049866708 -0.071950488 0.74800009 2.2212988e-38
-0.0035571421 -0.071854301 0.7470001 2.2395949e-38
-0.059071437 -0.077974297 0.82700008 8.2831873e-40
-0.057496194 -0.077974297 0.82700002 8.2832714e-40
-0.055785727 -0.077785738 0.82500005 1.3786311e-39
-0.054214291 -0.07778573 0.82500005 1.9303531e-39
-0.05264286 -0.07778573 0.82500005 1.4726035e-39
-0.051071431 -0.077785723 0.82500005 1.0134261e-39
-0.049500015 -0.07778573 0.82500005 7.3792097e-40
-0.047928575 -0.077785723 0.82500005 4.6169702e-40
-0.046357151 -0.07778573 0.82500011 4.6098095e-40
-0.044785712 -0.07778573 0.82500005 4.6134669e-40
-0.04331905 -0.077974305 0.82700008 6.4538482e-40
-0.041743815 -0.077974297 0.82700002 8.2940474e-40
-0.04016858 -0.077974297 0.82700008 8.2975366e-40
-0.038593337 -0.077974305 0.82700002 8.3046973e-40
-0.037018094 -0.07797429 0.82700002 7.3935169e-40
-0.035442863 -0.077974297 0.82700008 5.5496744e-40
-0.033867624 -0.077974297 0.82700002 5.5425418e-40
-0.032292392 -0.077974297 0.82700008 5.5424998e-40
-0.030717153 -0.077974297 0.82700002 5.546031e-40
-0.029141907 -0.077974297 0.82700002 4.6205154e-40
-0.027566671 -0.077974305 0.82700008 4.6169421e-40
-0.025991432 -0.077974297 0.82700002 4.6133408e-40
-0.024416197 -0.077974297 0.82700008 4.6097535e-40
-0.022840954 -0.077974297 0.82700008 4.6061521e-40
-0.021214291 -0.077785738 0.82500005 4.6025508e-40
-0.019642863 -0.077785738 0.82500011 3.6914265e-40
-0.018071437 -0.07778573 0.82500005 2.7731416e-40
-0.016500007 -0.07778573 0.82500011 9.292991e-41
-0.014892379 -0.077597149 0.82300001 9.2575382e-41
-0.013324763 -0.077597164 0.82300001 9.7335593e-41
-0.011757151 -0.077597156 0.82300007 4.1485974e-39
-0.01018952 -0.077597156 0.82300001 8.1259084e-39
-0.0064285733 -0.070714287 0.75000006 2.119959e-38
-0.004986662 -0.070525721 0.74800003 2.1839922e-38
-0.0035618932 -0.070525713 0.74800003 2.2490664e-38
-0.0021285762 -0.070242874 0.74500006 2.2675771e-38
-0.062071439 -0.076214306 0.82500005 1.0127044e-39
-0.060500011 -0.076214306 0.82500011 1.4729609e-39
-0.059071437 -0.076399066 0.82700008 1.1967383e-39
-0.057496198 -0.076399058 0.82700002 1.0127268e-39
-0.05578573 -0.076214306 0.82500005 1.1956986e-39
-0.054214299 -0.076214306 0.82500011 1.4711868e-39
-0.052770484 -0.076399058 0.82700002 1.104184e-39
-0.051195249 -0.076399058 0.82700008 7.372035e-40
-0.049620006 -0.076399058 0.82700002 5.5317518e-40
-0.048044764 -0.076399058 0.82700002 3.6878812e-40
-0.046469532 -0.076399066 0.82700008 4.6062502e-40
-0.044894289 -0.076399058 0.82700002 6.4429181e-40
-0.043319058 -0.076399066 0.82700008 6.4464634e-40
-0.041743815 -0.076399058 0.82700002 7.3648184e-40
-0.040168568 -0.076399051 0.82700002 8.290348e-40
-0.038593341 -0.076399058 0.82700008 9.2122902e-40
-0.037018094 -0.076399058 0.82700002 7.382741e-40
-0.035442866 -0.076399058 0.82700008 6.4644e-40
-0.033867624 -0.076399066 0.82700008 6.4608267e-40
-0.032292388 -0.076399058 0.82700002 5.5352971e-40
-0.030717153 -0.076399066 0.82700008 5.5388704e-40
-0.029141907 -0.076399058 0.82700002 4.6169561e-40
-0.027566668 -0.076399051 0.82700002 4.6133828e-40
-0.025991436 -0.076399058 0.82700008 3.6914265e-40
-0.02441619 -0.076399051 0.82700002 4.6097535e-40
-0.022840958 -0.076399058 0.82700008 5.5245071e-40
-0.021265715 -0.076399058 0.82700002 5.5244931e-40
-0.01969048 -0.076399051 0.82700002 5.5280944e-40
-0.018071435 -0.076214299 0.82500005 3.6913845e-40
-0.016500007 -0.076214306 0.82500011 1.8511013e-40
-0.01492858 -0.076214299 0.82500005 1.8475279e-40
-0.013324761 -0.076029532 0.82300001 2.759549e-40
-0.011728575 -0.07584478 0.8210001 2.2164226e-39
-0.010164764 -0.075844772 0.82100004 4.1651215e-39
-0.0086009568 -0.075844772 0.8210001 1.1536061e-38
-0.0035618956 -0.069100954 0.74800003 2.2958461e-38
-0.0021285715 -0.068823829 0.74500006 2.304563e-38
-0.00070953026 -0.068823829 0.74500012 2.3044549e-38
-0.06192096 -0.074461915 0.82300007 1.4718819e-39
-0.060353335 -0.074461907 0.82300001 2.1154492e-39
-0.059071429 -0.074823812 0.82700002 1.6562745e-39
-0.057357159 -0.074642874 0.82500011 1.1041966e-39
-0.055785727 -0.074642874 0.82500005 1.0116548e-39
-0.054214299 -0.074642874 0.82500011 9.1980951e-40
-0.052770481 -0.074823819 0.82700008 7.3613011e-40
-0.051195242 -0.074823819 0.82700002 4.6098235e-40
-0.049620006 -0.074823819 0.82700008 3.6878953e-40
-0.048044767 -0.074823819 0.82700002 2.7695263e-40
-0.046469532 -0.074823827 0.82700008 5.5209898e-40
-0.044894286 -0.074823819 0.82700008 7.361245e-40
-0.04331905 -0.074823819 0.82700002 7.361217e-40
-0.041743815 -0.074823827 0.82700008 6.4464494e-40
-0.040168572 -0.074823819 0.82700002 8.279572e-40
-0.038593341 -0.074823819 0.82700008 9.2086889e-40
-0.037018098 -0.074823819 0.82700008 8.2975086e-40
-0.035442859 -0.074823819 0.82700002 7.3755803e-40
-0.033867624 -0.074823827 0.82700008 6.4608127e-40
-0.032292385 -0.074823819 0.82700002 5.5352831e-40
-0.030717155 -0.074823827 0.82700008 5.5388564e-40
-0.029141907 -0.074823819 0.82700008 4.6169421e-40
-0.027566664 -0.074823812 0.82700002 3.6950279e-40
-0.025991434 -0.074823819 0.82700008 2.7767149e-40
-0.024416188 -0.074823819 0.82700002 4.6098796e-40
-0.022840954 -0.074823819 0.82700008 6.4465194e-40
-0.021265715 -0.074823819 0.82700008 6.4392607e-40
-0.019690476 -0.074823819 0.82700002 6.442848e-40
-0.018115245 -0.074823827 0.82700008 4.6097395e-40
-0.016500005 -0.074642874 0.82500011 2.7694983e-40
-0.014928579 -0.074642867 0.82500005 3.6843219e-40
-0.01332476 -0.074461915 0.82300007 3.681169e-40
-0.011757143 -0.074461915 0.82300001 2.7596752e-40
-0.010164767 -0.07428097 0.8210001 1.121235e-40
-0.0086009558 -0.074280955 0.82100004 8.4932854e-39
-0.065688573 -0.073602878 0.83100009 7.361217e-40
-0.063642859 -0.07307145 0.82500011 9.2015143e-40
-0.061920952 -0.072894298 0.82300001 1.1963754e-39
-0.060353335 -0.072894298 0.82300007 1.5644362e-39
-0.059071437 -0.073248588 0.82700002 1.2882137e-39
-0.057496201 -0.073248595 0.82700008 1.0116352e-39
-0.055920959 -0.07324858 0.82700008 9.198039e-40
-0.054345723 -0.073248573 0.82700002 8.2761108e-40
-0.052770488 -0.07324858 0.82700008 7.3613431e-40
-0.051195242 -0.07324858 0.82700002 6.4429882e-40
-0.04962001 -0.073248588 0.82700008 5.5246192e-40
-0.047928579 -0.07307145 0.82500005 5.5209898e-40
-0.046469528 -0.07324858 0.82700002 7.361245e-40
-0.044894297 -0.073248588 0.82700008 1.0119883e-39
-0.043319061 -0.073248588 0.82700002 8.2867326e-40
-0.041743811 -0.073248573 0.82700002 7.371965e-40
-0.040168576 -0.073248588 0.82700008 7.371965e-40
-0.038593341 -0.07324858 0.82700002 8.2903339e-40
-0.037018105 -0.073248588 0.82700008 8.2867466e-40
-0.035528582 -0.073425725 0.82900012 9.1943396e-40
-0.03386762 -0.07324858 0.82700002 7.371979e-40
-0.032370485 -0.07342574 0.82900012 4.6097395e-40
-0.030791439 -0.073425733 0.82900012 4.6169001e-40
-0.029212389 -0.073425725 0.82900006 4.6133408e-40
-0.027633343 -0.07342574 0.82900012 4.6133688e-40
-0.025991434 -0.073248588 0.82700002 4.6134809e-40
-0.024416195 -0.073248588 0.82700008 6.4538903e-40
-0.022840954 -0.073248573 0.82700002 8.2868727e-40
-0.021265723 -0.07324858 0.82700008 6.4464354e-40
-0.019690486 -0.07324858 0.82700002 5.5244931e-40
-0.018115237 -0.073248573 0.82700002 4.6097254e-40
-0.016500009 -0.07307145 0.82500011 3.6878812e-40
-0.014928574 -0.073071443 0.82500005 3.684392e-40
-0.013324758 -0.07289429 0.82300001 4.5956144e-40
-0.011757139 -0.072894298 0.82300001 2.7697085e-40
-0.010189522 -0.07289429 0.82300001 9.5581167e-41
-0.0086009614 -0.072717145 0.82100004 6.550741e-39
-0.0070371428 -0.072717153 0.82100004 1.3105507e-38
-0.065372378 -0.071673349 0.82700002 7.3576437e-40
-0.063488565 -0.071326673 0.82300001 9.2051296e-40
-0.061920956 -0.07132668 0.82300001 1.0127086e-39
-0.060353342 -0.07132668 0.82300001 1.0127086e-39
-0.059071437 -0.071673349 0.82700008 9.197969e-40
-0.057496194 -0.071673349 0.82700002 8.279628e-40
-0.05565048 -0.07132668 0.82300007 8.2796561e-40
-0.054345723 -0.071673349 0.82700002 7.3648884e-40
-0.052770488 -0.071673356 0.82700008 8.279642e-40
-0.051319055 -0.071846679 0.82900006 8.2832294e-40
-0.049620003 -0.071673349 0.82700002 8.279642e-40
-0.048044764 -0.071673356 0.82700008 7.3648604e-40
-0.046469525 -0.071673341 0.82700002 1.0116324e-39
-0.044894297 -0.071673349 0.82700008 1.2878535e-39
-0.043319054 -0.071673349 0.82700008 1.0134205e-39
-0.041743815 -0.071673349 0.82700002 7.3791396e-40
-0.04016858 -0.071673356 0.82700008 7.3791536e-40
-0.038593344 -0.071673349 0.82700002 6.4572954e-40
-0.037018105 -0.071673349 0.82700008 9.2016824e-40
-0.035442863 -0.071673349 0.82700008 1.1045483e-39
-0.033867624 -0.071673349 0.82700002 7.3791676e-40
-0.032292392 -0.071673356 0.82700008 3.7021465e-40
-0.030717146 -0.071673341 0.82700002 4.6169001e-40
-0.029141907 -0.071673341 0.82700002 4.6205014e-40
-0.027633339 -0.071846686 0.82900006 5.5352831e-40
-0.025991432 -0.071673349 0.82700002 5.5353391e-40
-0.024416197 -0.071673356 0.82700008 8.2976347e-40
-0.022840958 -0.071673349 0.82700002 1.01271e-39
-0.021265715 -0.071673349 0.82700002 7.3647903e-40
-0.019690484 -0.071673349 0.82700008 3.6913705e-40
-0.018115241 -0.071673349 0.82700002 3.6913705e-40
-0.016540006 -0.071673349 0.82700008 3.6878672e-40
-0.014964762 -0.071673349 0.82700002 4.6062923e-40
-0.013357148 -0.071500018 0.82500011 4.6027049e-40
-0.011757147 -0.071326673 0.82300007 2.7624217e-40
-0.010189526 -0.07132668 0.82300001 9.5170587e-41
-0.0086219115 -0.07132668 0.82300007 4.6913385e-39
-0.0070542851 -0.071326673 0.82300001 9.3204691e-39
-0.067109533 -0.07026764 0.82900012 9.197941e-40
-0.065214291 -0.069928586 0.82500005 9.2015283e-40
-0.063488573 -0.069759056 0.82300001 9.208745e-40
-0.06192096 -0.069759056 0.82300007 7.3720631e-40
-0.060353331 -0.069759056 0.82300001 6.4536941e-40
-0.058642857 -0.069589525 0.82100004 7.3648464e-40
-0.057496198 -0.07009811 0.82700002 8.2760407e-40
-0.055785723 -0.069928586 0.82500005 8.2832154e-40
-0.054345727 -0.070098117 0.82700008 9.2087309e-40
-0.052770484 -0.07009811 0.82700002 1.0127058e-39
-0.051195242 -0.07009811 0.82700008 1.1045427e-39
-0.049620006 -0.07009811 0.82700002 9.2123043e-40
-0.047928587 -0.069928594 0.82500011 8.301138e-40
-0.046469525 -0.07009811 0.82700008 8.290376e-40
-0.044894289 -0.07009811 0.82700002 9.2051156e-40
-0.043214291 -0.069928586 0.82500005 7.3791396e-40
-0.041743815 -0.070098117 0.82700002 5.546031e-40
-0.040168576 -0.07009811 0.82700002 5.5424437e-40
-0.038593341 -0.070098117 0.82700008 6.4645542e-40
-0.037018094 -0.07009811 0.82700002 8.2942436e-40
-0.035442863 -0.07009811 0.82700008 1.0134401e-39
-0.03386762 -0.07009811 0.82700002 7.3791817e-40
-0.032292385 -0.070098102 0.82700002 5.5424577e-40
-0.030717146 -0.07009811 0.82700008 5.5424297e-40
-0.029141903 -0.07009811 0.82700002 5.5531917e-40
-0.027566673 -0.070098117 0.82700008 4.6204874e-40
-0.025991431 -0.070098117 0.82700002 4.6097254e-40
-0.024416193 -0.07009811 0.82700002 9.2086749e-40
-0.0228962 -0.070267648 0.82900012 1.2878507e-39
-0.02131715 -0.070267633 0.82900012 9.2015002e-40
-0.019738102 -0.07026764 0.82900006 5.5244931e-40
-0.018115241 -0.07009811 0.82700002 4.6061381e-40
-0.016539995 -0.070098102 0.82700002 3.6842519e-40
-0.014964766 -0.07009811 0.82700008 3.6878953e-40
-0.013389524 -0.07009811 0.82700002 4.6098095e-40
-0.011785714 -0.069928586 0.82500005 2.7658829e-40
-0.010214295 -0.069928594 0.82500011 9.2247478e-41
-0.008642857 -0.069928586 0.82500005 2.3975096e-39
-0.0070714336 -0.069928586 0.82500011 4.7139358e-39
-0.068854287 -0.068854295 0.83100003 1.0116282e-39
-0.066947624 -0.068522871 0.82700008 1.2871445e-39
-0.065214291 -0.068357155 0.82500005 1.103842e-39
-0.063488565 -0.068191431 0.82300001 8.2868868e-40
-0.06192096 -0.068191446 0.82300001 5.5353531e-40
-0.060206674 -0.068025723 0.82100004 2.7802742e-40
-0.058785718 -0.068191439 0.82300001 5.5245631e-40
-0.057496198 -0.068522871 0.82700008 7.3612591e-40
-0.055650476 -0.068191439 0.82300001 9.197969e-40
-0.054345727 -0.068522871 0.82700008 1.0123471e-39
-0.052642863 -0.068357155 0.82500005 1.1967341e-39
-0.051071435 -0.068357162 0.82500011 1.288571e-39
-0.049620003 -0.068522871 0.82700008 1.1052587e-39
-0.04804476 -0.068522871 0.82700002 8.2975226e-40
-0.046469528 -0.068522871 0.82700008 7.372007e-40
-0.044785723 -0.068357162 0.82500011 5.5388704e-40
-0.043214295 -0.068357155 0.82500005 4.6240888e-40
-0.041743815 -0.068522871 0.82700008 3.7021605e-40
-0.04016858 -0.068522863 0.82700002 4.6097815e-40
-0.038500004 -0.068357162 0.82500005 5.5389825e-40
-0.036928579 -0.068357155 0.82500011 7.3793638e-40
-0.035442859 -0.068522863 0.82700002 9.219563e-40
-0.033867624 -0.068522878 0.82700008 8.3011099e-40
-0.032370482 -0.068688594 0.82900006 6.4607987e-40
-0.030717149 -0.068522871 0.82700008 6.45361e-40
-0.029212397 -0.068688594 0.82900012 5.5388424e-40
-0.027633345 -0.068688594 0.82900006 4.6169001e-40
-0.026054302 -0.068688601 0.82900012 3.6949578e-40
-0.024475249 -0.068688601 0.82900012 1.0123443e-39
-0.0228962 -0.068688594 0.82900006 1.5633586e-39
-0.021317156 -0.068688594 0.82900012 1.1034651e-39
-0.019738108 -0.068688594 0.82900012 6.4428761e-40
-0.018159058 -0.068688601 0.82900006 4.6025788e-40
-0.016539998 -0.068522871 0.82700002 2.7694983e-40
-0.014964767 -0.068522871 0.82700008 3.6879093e-40
-0.013389528 -0.068522871 0.82700002 3.6879793e-40
-0.011814285 -0.068522863 0.82700002 2.7625198e-40
-0.010239054 -0.068522878 0.82700008 9.2250281e-41
-0.0086428579 -0.068357155 0.82500005 9.2279708e-41
-0.0071057174 -0.068688586 0.82900006 1.1569681e-40
-0.005526673 -0.068688594 0.82900012 1.1727247e-38
-0.068688586 -0.06710954 0.82900006 1.0116282e-39
-0.066947617 -0.066947624 0.82700002 1.1953188e-39
-0.065214291 -0.066785723 0.82500005 9.2018926e-40
-0.063488565 -0.066623822 0.82300007 7.3686299e-40
-0.06192096 -0.066623822 0.82300001 6.4572954e-40
-0.060353339 -0.066623822 0.82300007 5.5461151e-40
-0.059071433 -0.066947624 0.82700002 6.4536941e-40
-0.057496198 -0.066947632 0.82700008 8.279614e-40
-0.055785723 -0.06678573 0.82500005 8.2831733e-40
-0.05434572 -0.066947632 0.82700002 8.2831593e-40
-0.052770484 -0.066947639 0.82700008 1.012703e-39
-0.051195242 -0.066947632 0.82700002 1.1052573e-39
-0.049620006 -0.066947632 0.82700008 1.0137806e-39
-0.047928587 -0.06678573 0.82500011 8.3046832e-40
-0.046469521 -0.066947624 0.82700002 7.382741e-40
-0.044894289 -0.066947632 0.82700008 7.3863283e-40
-0.043214295 -0.06678573 0.82500005 8.3010959e-40
-0.041743819 -0.066947639 0.82700008 1.0134261e-39
-0.040168576 -0.066947632 0.82700002 8.290418e-40
-0.038500007 -0.066785723 0.82500005 7.3720771e-40
-0.036928583 -0.06678573 0.82500011 8.301194e-40
-0.035442859 -0.066947632 0.82700002 9.2230943e-40
-0.033785723 -0.06678573 0.82500011 8.3046832e-40
-0.032292385 -0.066947632 0.82700002 7.3863283e-40
-0.03071714 -0.066947624 0.82700002 6.4571973e-40
-0.02914191 -0.066947632 0.82700008 6.4464354e-40
-0.027633348 -0.06710954 0.82900012 6.45361e-40
-0.025991436 -0.066947639 0.82700008 6.4464354e-40
-0.024416193 -0.066947632 0.82700002 9.2050876e-40
-0.022896202 -0.06710954 0.82900012 1.2882123e-39
-0.02131716 -0.067109548 0.82900006 9.2051436e-40
-0.019738108 -0.06710954 0.82900006 5.5281365e-40
-0.018159065 -0.067109548 0.82900012 4.6061942e-40
-0.016540002 -0.066947624 0.82700002 3.6878812e-40
-0.01500096 -0.06710954 0.82900006 3.6879093e-40
-0.013389526 -0.066947632 0.82700008 3.6880914e-40
-0.011814287 -0.066947632 0.82700002 3.6810849e-40
-0.010239053 -0.066947639 0.82700008 3.6776097e-40
-0.0086638164 -0.066947632 0.82700002 2.7593529e-40
-0.0071228719 -0.067271464 0.83100009 9.2372193e-41
-0.0055400101 -0.067271456 0.83100009 1.1348068e-38
-0.068357155 -0.065214306 0.82500011 1.0116324e-39
-0.066785716 -0.065214306 0.82500005 1.0116422e-39
-0.065214299 -0.065214306 0.82500011 8.2834115e-40
-0.063642867 -0.065214306 0.82500005 5.5318219e-40
-0.062221903 -0.065372385 0.82700002 7.372021e-40
-0.060646679 -0.065372393 0.82700008 8.2940054e-40
-0.059071433 -0.065372393 0.82700002 8.2940474e-40
-0.057496194 -0.065372385 0.82700002 8.2868307e-40
-0.055920959 -0.065372393 0.82700008 7.3648604e-40
-0.054477155 -0.065530494 0.82900012 6.4464914e-40
-0.052770488 -0.0653724 0.82700008 8.279614e-40
-0.051195242 -0.065372393 0.82700002 9.2194789e-40
-0.049620003 -0.065372393 0.82700002 9.2266395e-40
-0.048044764 -0.065372393 0.82700008 8.3046832e-40
-0.046469528 -0.065372385 0.82700002 8.2975086e-40
-0.044894293 -0.065372393 0.82700008 8.3010959e-40
-0.043214295 -0.065214299 0.82500005 1.1970928e-39
-0.041743815 -0.065372385 0.82700002 1.5640789e-39
-0.04016858 -0.0653724 0.82700008 1.2885752e-39
-0.038500007 -0.065214299 0.82500005 9.2159196e-40
-0.036928587 -0.065214306 0.82500005 9.2230943e-40
-0.035442863 -0.065372393 0.82700002 8.3082986e-40
-0.033785727 -0.065214306 0.82500005 8.3118579e-40
-0.032292392 -0.065372393 0.82700008 8.3046832e-40
-0.030717144 -0.065372385 0.82700002 7.3791536e-40
-0.02914191 -0.065372393 0.82700008 6.4572113e-40
-0.027566671 -0.065372393 0.82700002 7.3791536e-40
-0.025991429 -0.065372385 0.82700002 8.290348e-40
-0.024416197 -0.0653724 0.82700008 9.2015563e-40
-0.022840958 -0.065372393 0.82700002 1.0127212e-39
-0.021265719 -0.065372393 0.82700008 7.3722873e-40
-0.019690482 -0.065372393 0.82700002 4.6099356e-40
-0.018115239 -0.065372393 0.82700002 4.6098235e-40
-0.016540002 -0.065372393 0.82700008 4.6098095e-40
-0.014964763 -0.065372393 0.82700002 4.6062082e-40
-0.01338953 -0.065372393 0.82700008 3.6880074e-40
-0.011814291 -0.065372393 0.82700002 5.5177108e-40
-0.010263823 -0.065530494 0.82900012 6.4360798e-40
-0.0086638201 -0.0653724 0.82700008 3.6774556e-40
-0.0071228649 -0.065688588 0.83100009 1.0562147e-40
-0.0055400049 -0.06568858 0.83100009 1.1073973e-38
-0.071500011 -0.063642874 0.82500011 7.371993e-40
-0.069759049 -0.063488573 0.82300001 9.2087309e-40
-0.068191424 -0.06348858 0.82300007 9.2015843e-40
-0.066785716 -0.063642867 0.82500005 1.011638e-39
-0.065214299 -0.063642874 0.82500011 8.2832854e-40
-0.063642859 -0.063642867 0.82500005 7.3648604e-40
-0.062221911 -0.063797154 0.82700002 7.3683777e-40
-0.060646672 -0.063797154 0.82700002 8.290418e-40
-0.059071437 -0.063797154 0.82700008 8.2940894e-40
-0.057496198 -0.063797154 0.82700002 8.2904601e-40
-0.055920962 -0.063797161 0.82700008 6.4537081e-40
-0.054477155 -0.063951448 0.82900006 5.5317798e-40
-0.052898113 -0.063951448 0.82900012 9.2159616e-40
-0.051195245 -0.063797161 0.82700008 1.3832806e-39
-0.049620006 -0.063797161 0.82700002 1.1066937e-39
-0.048044767 -0.063797161 0.82700008 9.2230382e-40
-0.046469528 -0.063797154 0.82700002 8.3046692e-40
-0.044894293 -0.063797154 0.82700002 8.3010959e-40
-0.043319054 -0.063797154 0.82700008 9.2158636e-40
-0.041743811 -0.063797154 0.82700002 1.0127058e-39
-0.04016858 -0.063797161 0.82700008 9.2158916e-40
-0.038593341 -0.063797154 0.82700002 9.2230522e-40
-0.037018098 -0.063797154 0.82700002 9.2266255e-40
-0.035442866 -0.063797161 0.82700008 9.2302129e-40
-0.033785723 -0.063642867 0.82500005 9.2266115e-40
-0.032370489 -0.06395144 0.82900012 1.0137806e-39
-0.030791439 -0.063951448 0.82900006 8.3010959e-40
-0.029212393 -0.063951448 0.82900006 7.382741e-40
-0.027566671 -0.063797154 0.82700008 8.2975086e-40
-0.025991431 -0.063797154 0.82700002 8.2939633e-40
-0.024416197 -0.063797161 0.82700008 9.208773e-40
-0.022840958 -0.063797161 0.82700002 9.2126125e-40
-0.021265715 -0.063797154 0.82700002 8.2873212e-40
-0.019738102 -0.06395144 0.82900006 6.4432124e-40
-0.018115243 -0.063797161 0.82700002 6.4465615e-40
-0.016540006 -0.063797161 0.82700008 6.4500928e-40
-0.014964771 -0.063797154 0.82700002 5.5244931e-40
-0.013389526 -0.063797154 0.82700002 3.6879373e-40
-0.011814287 -0.063797154 0.82700008 5.5247874e-40
-0.010239049 -0.063797154 0.82700002 7.3578539e-40
-0.0086428579 -0.063642867 0.82500005 3.6807907e-40
-0.0070714331 -0.063642867 0.82500011 9.2323148e-41
-0.005540004 -0.064105727 0.83100003 8.1233748e-39
-0.071500011 -0.062071446 0.82500011 8.2868447e-40
-0.069759041 -0.061920948 0.82300001 8.2904461e-40
-0.068191424 -0.061920956 0.82300001 9.2052277e-40
-0.066623807 -0.061920963 0.82300007 9.2016544e-40
-0.065214306 -0.062071443 0.82500011 9.2016684e-40
-0.063642859 -0.062071443 0.82500005 8.2832714e-40
-0.062071431 -0.062071435 0.82500005 8.2832294e-40
-0.060500007 -0.062071439 0.82500005 8.2940334e-40
-0.058928579 -0.062071439 0.82500005 8.2976487e-40
-0.057357151 -0.062071439 0.82500005 8.2976207e-40
-0.055920959 -0.062221907 0.82700002 6.4644841e-40
-0.054345723 -0.062221915 0.82700008 3.7093912e-40
-0.052770484 -0.062221911 0.82700002 1.1056217e-39
-0.051195249 -0.062221918 0.82700008 1.8410203e-39
-0.049620006 -0.062221915 0.82700002 1.3818414e-39
-0.048044767 -0.062221911 0.82700002 9.2230662e-40
-0.046469536 -0.062221911 0.82700008 9.2266676e-40
-0.044894293 -0.062221911 0.82700002 8.2975506e-40
-0.043319054 -0.062221911 0.82700008 6.464428e-40
-0.041743815 -0.062221911 0.82700002 3.7057898e-40
-0.040168572 -0.062221907 0.82700002 6.4608547e-40
-0.038593344 -0.062221915 0.82700008 9.2194929e-40
-0.036928579 -0.062071443 0.82500005 9.2266395e-40
-0.035357151 -0.062071435 0.82500005 9.2230522e-40
-0.033867624 -0.062221911 0.82700002 1.0137806e-39
-0.032370485 -0.062372398 0.82900006 1.1052587e-39
-0.030791443 -0.062372398 0.82900012 1.0137834e-39
-0.029212393 -0.062372398 0.82900012 8.3011099e-40
-0.027566671 -0.062221915 0.82700008 8.2975226e-40
-0.025991434 -0.062221911 0.82700002 8.290362e-40
-0.024416193 -0.062221907 0.82700002 8.2832013e-40
-0.022840962 -0.062221915 0.82700008 8.2833275e-40
-0.021265719 -0.062221915 0.82700002 8.2762649e-40
-0.019690486 -0.062221915 0.82700008 8.2797401e-40
-0.018115249 -0.062221918 0.82700002 8.2832294e-40
-0.016540002 -0.062221907 0.82700002 8.2831873e-40
-0.014964771 -0.062221911 0.82700008 6.4392747e-40
-0.01338953 -0.062221911 0.82700002 3.6878953e-40
-0.011814292 -0.062221911 0.82700008 5.5283046e-40
-0.010239051 -0.062221911 0.82700008 7.3578119e-40
-0.0086428635 -0.062071439 0.82500005 4.5955303e-40
-0.0070714359 -0.062071439 0.82500005 1.0126483e-40
-0.074642859 -0.060500015 0.82500011 8.2867606e-40
-0.073071435 -0.060500007 0.82500005 8.2868447e-40
-0.071500003 -0.060500018 0.82500011 9.2124444e-40
-0.069759056 -0.060353342 0.82300007 1.1049154e-39
-0.06835714 -0.060500015 0.82500011 1.0127212e-39
-0.066785716 -0.060500011 0.82500005 9.2052697e-40
-0.065214299 -0.060500015 0.82500011 1.0123625e-39
-0.063642859 -0.060500015 0.82500005 1.0120037e-39
-0.062221911 -0.060646676 0.82700008 1.0123611e-39
-0.060646672 -0.060646672 0.82700002 9.219591e-40
-0.058928575 -0.060500011 0.82500005 9.219563e-40
-0.057357155 -0.060500011 0.82500005 9.219563e-40
-0.055785716 -0.060500003 0.82500005 7.3828391e-40
-0.054214295 -0.060500011 0.82500005 5.5532617e-40
-0.052770484 -0.060646676 0.82700002 9.2194649e-40
-0.051195242 -0.060646676 0.82700002 1.3807652e-39
-0.049620006 -0.060646683 0.82700008 1.1974516e-39
-0.04804476 -0.060646676 0.82700002 1.0137862e-39
-0.046469536 -0.060646676 0.82700008 1.0130729e-39
-0.044894293 -0.060646676 0.82700002 9.2016124e-40
-0.043214288 -0.060500007 0.82500005 7.3720631e-40
-0.041642867 -0.060500015 0.82500011 6.4572954e-40
-0.040168576 -0.060646672 0.82700002 6.4572954e-40
-0.038593344 -0.060646676 0.82700008 7.3792097e-40
-0.036928583 -0.060500015 0.82500005 6.4608267e-40
-0.035357155 -0.060500015 0.82500011 6.4536521e-40
-0.033867624 -0.060646676 0.82700008 7.3755803e-40
-0.032292385 -0.060646672 0.82700002 9.2087169e-40
-0.030717149 -0.060646679 0.82700008 9.2194929e-40
-0.029141912 -0.060646676 0.82700002 9.2230802e-40
-0.027633348 -0.060793348 0.82900012 8.2939493e-40
-0.026054297 -0.060793344 0.82900006 8.279586e-40
-0.024416193 -0.060646672 0.82700002 9.1979269e-40
-0.02284096 -0.060646679 0.82700008 1.0112695e-39
-0.021265721 -0.060646679 0.82700008 9.1979129e-40
-0.01969048 -0.060646672 0.82700002 8.279572e-40
-0.018115249 -0.060646679 0.82700008 8.2831733e-40
-0.016540004 -0.060646672 0.82700002 8.279586e-40
-0.014964769 -0.060646679 0.82700008 5.5245071e-40
-0.013389532 -0.060646676 0.82700008 2.7730996e-40
-0.011814284 -0.060646668 0.82700002 5.5282345e-40
-0.010239052 -0.060646676 0.82700008 8.2796981e-40
-0.0086638127 -0.060646672 0.82700002 4.6026769e-40
-0.0070885797 -0.060646683 0.82700008 1.8482286e-40
-0.0055400068 -0.060940012 0.83100009 4.3357758e-39
-0.0039571468 -0.060940009 0.83100003 8.4683297e-39
-0.074642859 -0.058928583 0.82500011 9.2051717e-40
-0.073071435 -0.058928575 0.82500005 9.2124304e-40
-0.071500011 -0.058928587 0.82500011 1.1056413e-39
-0.069928579 -0.058928575 0.82500005 1.2889536e-39
-0.068357147 -0.058928583 0.82500011 1.1052826e-39
-0.066785716 -0.058928583 0.82500005 9.2125004e-40
-0.065214299 -0.058928587 0.82500011 1.1045609e-39
-0.063642859 -0.058928583 0.82500005 1.1963936e-39
-0.062071439 -0.058928579 0.82500011 1.1038378e-39
-0.060500007 -0.058928583 0.82500005 1.0134387e-39
-0.058928587 -0.05892859 0.82500011 1.0137974e-39
-0.057357155 -0.058928579 0.82500005 9.2196331e-40
-0.055785716 -0.058928575 0.82500005 8.2977048e-40
-0.054345716 -0.059071429 0.82700002 6.4644981e-40
-0.052770484 -0.059071437 0.82700008 8.3011239e-40
-0.051195242 -0.059071437 0.82700002 9.2158776e-40
-0.04962001 -0.059071444 0.82700008 1.0137806e-39
-0.048044767 -0.059071444 0.82700002 1.1049056e-39
-0.046469532 -0.05907144 0.82700002 1.1034777e-39
-0.044894293 -0.059071437 0.82700008 1.0119995e-39
-0.043214288 -0.058928575 0.82500005 9.2016404e-40
-0.041743822 -0.059071444 0.82700008 8.2904601e-40
-0.040168576 -0.059071437 0.82700008 6.4501768e-40
-0.038593333 -0.059071433 0.82700002 4.6241588e-40
-0.036928583 -0.058928583 0.82500005 4.6241028e-40
-0.035442863 -0.059071437 0.82700002 3.7021605e-40
-0.033867631 -0.059071444 0.82700008 5.5352691e-40
-0.032370482 -0.059214305 0.82900006 6.4573094e-40
-0.030717149 -0.059071437 0.82700002 8.3012921e-40
-0.029212393 -0.059214298 0.82900006 9.2159757e-40
-0.027633343 -0.059214294 0.82900006 9.2087169e-40
-0.026054297 -0.059214305 0.82900012 8.290348e-40
-0.024475247 -0.059214301 0.82900012 1.0119869e-39
-0.022896195 -0.059214298 0.82900006 1.1956565e-39
-0.021265717 -0.05907144 0.82700008 1.0119855e-39
-0.019690482 -0.059071437 0.82700002 8.2832013e-40
-0.018115249 -0.059071444 0.82700008 8.2832574e-40
-0.016540008 -0.059071444 0.82700008 8.2832013e-40
-0.014964765 -0.05907144 0.82700002 5.5280944e-40
-0.013389532 -0.05907144 0.82700008 1.8547306e-40
-0.01181429 -0.05907144 0.82700002 5.5282205e-40
-0.010239055 -0.059071444 0.82700008 9.198025e-40
-0.0086638089 -0.05907144 0.82700008 5.5174025e-40
-0.0070885723 -0.059071433 0.82700002 1.8984792e-40
-0.0055133374 -0.05907144 0.82700008 3.5121388e-39
-0.003938097 -0.059071437 0.82700002 6.7249098e-39
-0.0023628601 -0.059071437 0.82700002 5.7035622e-39
-0.081320964 -0.057635255 0.82900012 8.3013201e-40
-0.07974191 -0.057635248 0.82900006 6.4609388e-40
-0.07778573 -0.057357155 0.82500005 7.3756224e-40
-0.076214284 -0.057357151 0.82500005 8.290418e-40
-0.074642859 -0.057357151 0.82500011 9.2123883e-40
-0.073248565 -0.057496194 0.82700002 1.1056385e-39
-0.071500003 -0.057357159 0.82500011 1.2893207e-39
-0.069759049 -0.057218097 0.82300001 1.472633e-39
-0.068191431 -0.057218101 0.82300001 1.2889606e-39
-0.066785716 -0.057357155 0.82500005 1.1974796e-39
-0.065214299 -0.057357159 0.82500011 1.1974754e-39
-0.063642859 -0.057357151 0.82500005 1.1981887e-39
-0.062071435 -0.057357151 0.82500011 1.3807793e-39
-0.060500007 -0.057357155 0.82500005 1.5644544e-39
-0.058928587 -0.057357159 0.82500011 1.2889508e-39
-0.057357151 -0.057357151 0.82500005 9.2161158e-40
-0.055785719 -0.057357155 0.82500011 8.2977889e-40
-0.05434572 -0.057496194 0.82700002 8.2976768e-40
-0.052770488 -0.057496201 0.82700008 9.2159056e-40
-0.051195245 -0.057496198 0.82700008 1.1049e-39
-0.049620003 -0.057496198 0.82700002 1.1048972e-39
-0.048044775 -0.057496205 0.82700008 1.1960251e-39
-0.046469532 -0.057496201 0.82700002 1.104198e-39
-0.044894293 -0.057496201 0.82700008 1.0120037e-39
-0.043319054 -0.057496198 0.82700008 1.1045567e-39
-0.041743811 -0.057496198 0.82700002 1.1971111e-39
-0.040168576 -0.057496198 0.82700008 9.2124584e-40
-0.038593337 -0.057496198 0.82700002 7.3828391e-40
-0.037018102 -0.057496201 0.82700008 6.4607987e-40
-0.035528582 -0.057635251 0.82900006 6.464386e-40
-0.033867624 -0.057496198 0.82700002 7.371965e-40
-0.032292396 -0.057496201 0.82700008 7.3721471e-40
-0.030717153 -0.057496201 0.82700002 8.2978589e-40
-0.029141914 -0.057496205 0.82700008 9.2160597e-40
-0.027633345 -0.057635251 0.82900012 9.2158916e-40
-0.026054295 -0.057635248 0.82900006 8.3011099e-40
-0.024416195 -0.057496198 0.82700008 9.2122622e-40
-0.0228962 -0.057635251 0.82900012 1.0123443e-39
-0.021265721 -0.057496205 0.82700008 8.2831453e-40
-0.019690488 -0.057496198 0.82700008 6.4465335e-40
-0.018115245 -0.057496194 0.82700002 7.3685598e-40
-0.016540008 -0.057496201 0.82700008 8.2832434e-40
-0.014964771 -0.057496201 0.82700002 5.5316817e-40
-0.013389533 -0.057496201 0.82700008 3.6950279e-40
-0.011814293 -0.057496198 0.82700008 6.4465475e-40
-0.010239052 -0.057496198 0.82700002 1.0116338e-39
-0.0086638127 -0.057496198 0.82700008 5.5173465e-40
-0.0070714331 -0.057357151 0.82500005 1.8447113e-40
-0.0054999986 -0.057357144 0.82500005 4.5201881e-39
-0.0039285733 -0.057357155 0.82500005 8.8482665e-39
-0.002357146 -0.057357151 0.82500005 9.1273323e-39
-0.083099999 -0.056191433 0.83100003 1.1063812e-39
