# .PCD v0.7 - Point Cloud Data file format
VERSION 0.7
FIELDS x y z rgb
SIZE 4 4 4 4
TYPE F F F F
COUNT 1 1 1 1
WIDTH 950
HEIGHT 1
VIEWPOINT 0 0 0 1 0 0 0
POINTS 950
DATA ascii
-0.0021228467 -0.014860016 0.74300003 3.6950979e-40
-0.00070761453 -0.014860009 0.74300003 4.6134249e-40
0.00071144075 -0.014940022 0.74700004 4.6133968e-40
0.0021428743 -0.015000024 0.75000006 5.5245351e-40
0.0035714393 -0.015000015 0.75000006 5.5244931e-40
0.0050200014 -0.015059999 0.75300002 5.5209618e-40
0.0064542908 -0.015060008 0.75300002 4.6062502e-40
0.0078885816 -0.015060013 0.75300002 4.6061942e-40
0.0093476428 -0.015100034 0.75500005 2.7801902e-40
0.010800021 -0.015120029 0.75600004 1.8690099e-40
0.012240024 -0.015120031 0.75600004 2.7837775e-40
0.013680021 -0.015120029 0.75600004 3.6913845e-40
0.015200032 -0.015200043 0.75999999 3.6985591e-40
0.016669553 -0.015220042 0.76100004 3.7057338e-40
0.018166687 -0.01526003 0.76300001 5.5352551e-40
0.019620035 -0.01526005 0.76299995 7.3720771e-40
0.021128597 -0.015300037 0.76500005 6.4502469e-40
0.022585724 -0.015300016 0.76500005 5.5246472e-40
0.024042886 -0.015300041 0.76499999 5.5281505e-40
0.025500027 -0.01530004 0.76500005 4.6062642e-40
0.027027652 -0.015340047 0.76700002 5.5282486e-40
0.028488606 -0.015340051 0.76700002 7.3648884e-40
0.029949546 -0.015340034 0.76700002 6.4500507e-40
0.031451456 -0.015360042 0.76800001 5.5352831e-40
0.032914314 -0.015360037 0.76800001 5.5352831e-40
0.03437718 -0.015360053 0.76800001 6.4536661e-40
0.035840034 -0.015360047 0.76799995 6.4501068e-40
0.037302889 -0.015360042 0.76799995 6.4393168e-40
0.038765758 -0.015360057 0.76799995 7.361217e-40
0.040176209 -0.015340032 0.76700002 7.361217e-40
0.041691463 -0.015360046 0.76799995 8.2903199e-40
0.042985734 -0.015300019 0.76500005 8.2905441e-40
0.044442873 -0.015300028 0.76499999 1.1974936e-39
0.045660038 -0.015220048 0.76100004 1.5666531e-39
0.047109555 -0.015220046 0.76100004 1.6610235e-39
0.048559081 -0.015220042 0.76099998 1.663892e-39
0.049642894 -0.013900051 0.69499999 1.3000356e-38
0.051113363 -0.013940042 0.69699997 1.8256607e-38
0.052440979 -0.013940036 0.69699997 2.341769e-38
0.053768598 -0.013940036 0.69699997 2.341769e-38
0.05533335 -0.014000012 0.70000005 2.341769e-38
0.056666698 -0.014000027 0.69999999 2.341769e-38
0.058000036 -0.01400004 0.69999999 2.341769e-38
-0.01866856 -0.013137165 0.72599995 6.4361078e-40
-0.017285705 -0.013137164 0.72600001 4.6029992e-40
-0.015946634 -0.013173386 0.72799999 5.5213542e-40
-0.014579977 -0.013191465 0.72900003 5.5249695e-40
-0.013227586 -0.013227675 0.73099995 5.5285709e-40
-0.011851407 -0.013245748 0.73199999 4.6136351e-40
-0.01052855 -0.013336223 0.73700005 4.6063063e-40
-0.0091247363 -0.01333623 0.73700005 4.6063623e-40
-0.0077419016 -0.013372386 0.73900002 5.5283747e-40
-0.006342852 -0.013390485 0.74000001 6.4466596e-40
-0.0049466458 -0.013426701 0.74200004 4.6063063e-40
-0.00353809 -0.01344477 0.74300003 2.7768551e-40
-0.0021199903 -0.013426682 0.74200004 3.7024828e-40
-0.00070759311 -0.013444802 0.74300003 3.6987974e-40
0.00070954178 -0.013480978 0.74500006 3.6951119e-40
0.0021371578 -0.01353526 0.74800003 2.7731276e-40
0.0035714365 -0.013571437 0.75000006 4.6062082e-40
0.0049999999 -0.013571428 0.75000006 6.4429461e-40
0.0064543001 -0.013625733 0.75300002 5.5210459e-40
0.00788859 -0.01362574 0.75300002 3.6914546e-40
0.0093476316 -0.013661923 0.75500005 2.7873788e-40
0.010800027 -0.013680037 0.75600004 9.4708158e-41
0.012240011 -0.013680013 0.75600004 2.7802042e-40
0.013680027 -0.013680036 0.75600004 3.6949718e-40
0.015160031 -0.013716233 0.75800002 4.6169141e-40
0.016647648 -0.013752424 0.76000005 4.6169001e-40
0.018119086 -0.013770532 0.76100004 4.6133128e-40
0.019568589 -0.013770502 0.76100004 4.6133688e-40
0.021073362 -0.013806709 0.76299995 5.5246052e-40
0.022526693 -0.013806704 0.76300001 6.4465194e-40
0.02404288 -0.013842889 0.76499999 5.5281505e-40
0.02550002 -0.013842889 0.76499999 3.6914546e-40
0.026957164 -0.013842886 0.76500005 3.6878812e-40
0.028414292 -0.013842863 0.76500005 2.7730716e-40
0.029871451 -0.01384289 0.76499999 3.6913985e-40
0.031410512 -0.013879094 0.76699996 4.6169281e-40
0.032914318 -0.013897188 0.76799995 4.6169281e-40
0.034377187 -0.013897204 0.76799995 4.6170262e-40
0.035840038 -0.013897198 0.76799995 6.4466596e-40
0.037254326 -0.013879105 0.76699996 8.2832574e-40
0.038715269 -0.013879088 0.76699996 7.361217e-40
0.040176224 -0.013879091 0.76699996 6.4500367e-40
0.041528594 -0.013842892 0.76500005 7.3683917e-40
0.04298573 -0.013842867 0.76500005 7.3757205e-40
0.044326689 -0.01380669 0.76300001 1.1052896e-39
0.045660038 -0.013770523 0.76100004 1.3826065e-39
0.047109555 -0.013770521 0.76100004 1.1081931e-39
0.048559062 -0.013770489 0.76100004 7.4014343e-40
0.050008602 -0.013770506 0.76100004 1.6556369e-39
0.051186685 -0.012630492 0.69800001 1.9927941e-38
0.052440971 -0.012612395 0.69700003 2.341769e-38
0.053845722 -0.012630478 0.69800007 2.341769e-38
0.055333372 -0.012666705 0.69999999 2.341769e-38
0.056666709 -0.012666713 0.69999999 2.341769e-38
0.058000017 -0.012666682 0.69999999 2.341769e-38
-0.018668553 -0.011754321 0.72599995 7.3580781e-40
-0.017285708 -0.011754302 0.72599995 5.5177949e-40
-0.015946643 -0.011786705 0.72800004 6.4397372e-40
-0.014579968 -0.011802906 0.72900003 6.4398072e-40
-0.013227595 -0.011835273 0.73099995 5.528697e-40
-0.011851405 -0.011851463 0.73200005 4.6172784e-40
-0.010514264 -0.011916224 0.736 5.5317938e-40
-0.0091247363 -0.011932418 0.73699999 5.5247313e-40
-0.0077209244 -0.011932423 0.73699999 5.5320181e-40
-0.0063342811 -0.011964772 0.73900002 5.5355773e-40
-0.0049333354 -0.011980951 0.74000001 3.6916507e-40
-0.0035333179 -0.012013355 0.74200004 1.8514936e-40
-0.0021199856 -0.012013357 0.74200004 2.7771634e-40
-0.00070760428 -0.012029547 0.74300003 3.6989375e-40
0.00071144447 -0.012094308 0.74700004 3.695182e-40
0.0021371727 -0.01211052 0.74800003 4.6099076e-40
0.0035619249 -0.012110506 0.74800003 5.5282065e-40
0.0050000143 -0.012142878 0.75 6.4465895e-40
0.0064285938 -0.012142887 0.75000006 5.5246612e-40
0.0078781024 -0.012175248 0.75200003 4.6026489e-40
0.00934764 -0.01222384 0.75500005 3.6949858e-40
0.010785724 -0.012223822 0.75500005 1.8618632e-40
0.012223828 -0.012223834 0.75500005 2.7766169e-40
0.013680031 -0.012240046 0.75599998 3.6913845e-40
0.015160018 -0.012272403 0.75800002 4.6133128e-40
0.016603827 -0.012272405 0.75800002 5.5352551e-40
0.018095272 -0.012304811 0.76000005 5.5352551e-40
0.019542893 -0.012304815 0.76000005 5.5352551e-40
0.021018123 -0.012320993 0.76100004 5.5316677e-40
0.022467647 -0.01232099 0.76100004 6.4464634e-40
0.02398002 -0.012353363 0.76300001 5.5281365e-40
0.025433369 -0.012353384 0.76299995 4.6097675e-40
0.026886681 -0.012353358 0.76300001 6.4464494e-40
0.0284143 -0.012385732 0.76500005 9.2051016e-40
0.029871445 -0.012385739 0.76499999 7.3683917e-40
0.0314105 -0.012418125 0.76700002 6.453638e-40
0.032871455 -0.012418129 0.76700002 5.5388704e-40
0.034377173 -0.012434327 0.76800001 4.6170963e-40
0.035793364 -0.012418136 0.76700002 5.5320181e-40
0.037254319 -0.012418138 0.76700002 6.4573795e-40
0.038614303 -0.012385735 0.76500005 6.4572113e-40
0.039966688 -0.012353361 0.76300001 5.546031e-40
0.041311439 -0.012320968 0.76100004 7.3863283e-40
0.042873349 -0.012353354 0.76300001 8.3047953e-40
0.0443267 -0.012353376 0.76299995 1.1981901e-39
0.045660038 -0.012320999 0.76100004 1.6580962e-39
0.047109559 -0.012320993 0.76099998 1.0141814e-39
0.048559073 -0.012320984 0.76100004 4.6067827e-40
0.050008599 -0.01232098 0.76100004 2.8538018e-39
0.051186666 -0.01130094 0.69800007 2.1670663e-38
0.052516196 -0.011300949 0.69800007 2.341769e-38
0.053845722 -0.011300957 0.69800007 2.341769e-38
0.055333365 -0.011333364 0.70000005 2.341769e-38
0.056666691 -0.011333352 0.69999999 2.341769e-38
0.058000036 -0.011333369 0.69999999 2.341769e-38
-0.017357113 -0.010414334 0.72899997 6.4432544e-40
-0.015968544 -0.01041433 0.72899997 7.3615533e-40
-0.014619968 -0.010442907 0.73099995 7.3616654e-40
-0.013227606 -0.010442879 0.73099995 6.4470239e-40
-0.011851397 -0.010457188 0.73199999 4.6137191e-40
-0.010514268 -0.010514313 0.73600006 5.5354933e-40
-0.0091247382 -0.010528609 0.73699999 6.450345e-40
-0.0077209254 -0.010528615 0.73699999 5.5356614e-40
-0.0063342885 -0.010557143 0.73900002 3.6988674e-40
-0.004933326 -0.010571441 0.74000001 2.7696664e-40
-0.0035333273 -0.01060001 0.74200004 9.3659987e-41
-0.0021142785 -0.010571439 0.74000001 2.7769532e-40
-0.00070664036 -0.010600038 0.74200004 3.6952521e-40
0.00071144261 -0.010671451 0.7470001 4.6063623e-40
0.002137156 -0.010685731 0.74800003 5.5246472e-40
0.0035619249 -0.010685745 0.74800003 5.5245912e-40
0.0050000246 -0.010714321 0.75000006 5.5246052e-40
0.0064457208 -0.010742867 0.75200003 5.5210459e-40
0.0078781126 -0.010742883 0.75200003 5.5245912e-40
0.0093228808 -0.01075718 0.75300002 4.6097815e-40
0.010785746 -0.01078576 0.75500005 2.7730576e-40
0.01222383 -0.010785743 0.75500005 3.6878112e-40
0.013661935 -0.010785753 0.75500005 3.6913845e-40
0.01512002 -0.010800029 0.75599998 5.5245071e-40
0.016603827 -0.010828597 0.75800002 6.4500647e-40
0.018047642 -0.010828604 0.75799996 6.4608547e-40
0.019542877 -0.01085717 0.76000005 5.5352971e-40
0.021018123 -0.010871468 0.76100004 6.4500367e-40
0.022467645 -0.010871464 0.76100004 6.4465194e-40
0.02391718 -0.010871481 0.76100004 5.5246612e-40
0.025366699 -0.010871478 0.76099998 4.6098095e-40
0.026886694 -0.010900044 0.76299995 1.0119869e-39
0.028340027 -0.010900036 0.76300001 1.4711644e-39
0.029793361 -0.010900036 0.76299995 1.1038224e-39
0.031246688 -0.010900032 0.76300001 7.371979e-40
0.032700021 -0.010900033 0.76299995 6.464386e-40
0.034153353 -0.010900026 0.76300001 4.6205855e-40
0.03560669 -0.010900029 0.76300001 4.6063203e-40
0.036962882 -0.010871459 0.76100004 4.6205855e-40
0.038513366 -0.010900041 0.76300001 4.6276761e-40
0.039966702 -0.010900045 0.76299995 4.638438e-40
0.041311454 -0.010871463 0.76100004 7.4006776e-40
0.042760976 -0.01087146 0.76100004 9.2302689e-40
0.044210512 -0.010871476 0.76100004 1.3825701e-39
0.045600023 -0.010857167 0.76000005 1.8410399e-39
0.047047645 -0.010857171 0.76000005 1.0130968e-39
0.048495267 -0.010857178 0.76000005 1.876717e-40
0.050008599 -0.010871453 0.76100004 4.1434336e-39
0.051333372 -0.010000044 0.69999999 2.341769e-38
0.052666694 -0.01000003 0.70000005 2.341769e-38
0.054000039 -0.010000043 0.69999999 2.341769e-38
0.055333365 -0.010000033 0.69999999 2.341769e-38
0.056666695 -0.010000016 0.69999999 2.341769e-38
0.058000024 -0.01000003 0.69999999 2.341769e-38
0.059333369 -0.010000044 0.69999999 2.341769e-38
-0.01735712 -0.0090257563 0.72899997 5.5356054e-40
-0.016012361 -0.0090505071 0.73100001 5.5282906e-40
-0.014639983 -0.0090628862 0.73199999 6.4468137e-40
-0.013245689 -0.0090628974 0.73199999 4.6138593e-40
-0.011883774 -0.0090876725 0.73400003 3.6954062e-40
-0.010514266 -0.009112414 0.736 4.6172504e-40
-0.0091123506 -0.009112427 0.73600006 5.5320741e-40
-0.0077209263 -0.0091248024 0.73699999 4.6173485e-40
-0.0063342932 -0.0091495141 0.73900002 3.7060421e-40
-0.0049266662 -0.0091495253 0.73900002 2.7803723e-40
-0.0035238082 -0.0091619082 0.74000001 2.7803583e-40
-0.0021142869 -0.0091619026 0.74000001 3.6950979e-40
-0.00070664968 -0.0091866925 0.74200004 4.6099076e-40
0.00071144541 -0.0092485975 0.74700004 4.6063623e-40
0.0021342996 -0.009248592 0.74700004 5.5246332e-40
0.0035619268 -0.0092609841 0.74800003 5.5245491e-40
0.0049866796 -0.0092609702 0.74800003 5.5245772e-40
0.0064285868 -0.009285735 0.75000006 5.5246052e-40
0.0078571513 -0.0092857257 0.75000006 5.5245912e-40
0.0093105007 -0.00931051 0.75199997 4.6097955e-40
0.010757149 -0.0093228621 0.75300002 3.6914265e-40
0.01219144 -0.0093228696 0.75300002 4.6133408e-40
0.013625729 -0.009322878 0.75300002 5.5352831e-40
0.01506002 -0.0093228854 0.75300002 6.4500367e-40
0.016560024 -0.0093600359 0.75600004 7.3612731e-40
0.018000022 -0.0093600284 0.75600004 7.3685038e-40
0.019491455 -0.0093847951 0.75800002 7.3720491e-40
0.0209905 -0.009409558 0.76000005 8.2831733e-40
0.022438122 -0.0094095636 0.76000005 1.0116422e-39
0.02391718 -0.0094219549 0.76099998 8.2798242e-40
0.025333367 -0.0094095729 0.76000005 6.4429882e-40
0.026816217 -0.0094219418 0.76100004 9.1979129e-40
0.028265739 -0.009421939 0.76100004 1.1952978e-39
0.029715275 -0.0094219567 0.76100004 1.0119855e-39
0.031164797 -0.009421953 0.76099998 8.2831453e-40
0.032614317 -0.0094219502 0.76099998 6.4571973e-40
0.034063835 -0.00942194 0.76100004 5.5424297e-40
0.035513356 -0.0094219372 0.76100004 6.4571973e-40
0.036962889 -0.0094219539 0.76100004 7.3791396e-40
0.038412414 -0.0094219493 0.76099998 6.4679593e-40
0.039809544 -0.0094095534 0.76000005 5.567541e-40
0.041148588 -0.009384783 0.75799996 8.3226059e-40
0.042760976 -0.0094219344 0.76100004 1.1066937e-39
0.044210512 -0.0094219483 0.76100004 1.4743972e-39
0.045360025 -0.0093600387 0.75600004 1.932867e-39
0.046800014 -0.0093600145 0.75600004 1.0127282e-39
0.04817621 -0.0093476344 0.75500005 1.8407457e-40
0.049614314 -0.0093476456 0.75500005 5.2483168e-39
0.051333353 -0.0086666849 0.69999999 2.341769e-38
0.05266669 -0.008666696 0.69999999 2.341769e-38
0.054000024 -0.0086666849 0.70000005 2.341769e-38
0.055412397 -0.008679051 0.70100009 2.341769e-38
0.056747645 -0.0086790733 0.70100009 2.341769e-38
-0.016034275 -0.0076685925 0.73199999 4.6065165e-40
-0.014639976 -0.0076686055 0.73199999 4.6138172e-40
-0.013245703 -0.0076685925 0.73200005 3.6991897e-40
-0.011883787 -0.0076895603 0.73399997 2.7807367e-40
-0.010485684 -0.0076895715 0.73400003 3.7061822e-40
-0.0091123497 -0.0077105262 0.736 3.6989795e-40
-0.0077209328 -0.007720985 0.73700005 3.6953642e-40
-0.0063342792 -0.0077419155 0.73900002 3.6989095e-40
-0.0049333223 -0.0077523966 0.74000001 3.6988674e-40
-0.0035238166 -0.0077523743 0.74000001 3.6952801e-40
-0.0021142776 -0.0077523966 0.74000001 4.6064744e-40
-0.00070760149 -0.0077838344 0.74300003 4.6064744e-40
0.00070953526 -0.0078047798 0.74500006 4.6028871e-40
0.0021343024 -0.0078257378 0.74700004 4.6063763e-40
0.003561924 -0.007836218 0.74800003 4.6062782e-40
0.0049866945 -0.0078362301 0.74800003 4.6063063e-40
0.0064114458 -0.0078362161 0.74800003 5.5247033e-40
0.0078571485 -0.0078571476 0.75000006 5.5246752e-40
0.0092857303 -0.0078571662 0.75000006 4.6063063e-40
0.010742871 -0.0078781117 0.75200003 3.6950839e-40
0.012175246 -0.0078781061 0.75200003 5.5353531e-40
0.01360764 -0.0078781201 0.75200003 6.4536801e-40
0.015040016 -0.0078781154 0.75200003 7.371993e-40
0.016538119 -0.0079095559 0.75500005 8.2832013e-40
0.017976198 -0.0079095419 0.75500005 9.198011e-40
0.01944001 -0.0079200137 0.75600004 9.2015563e-40
0.020880025 -0.007920037 0.75600004 1.1034637e-39
0.022379078 -0.0079409964 0.75799996 1.2871417e-39
0.023822889 -0.0079409964 0.75799996 1.0112835e-39
0.025266686 -0.0079409759 0.75799996 7.3612871e-40
0.026710495 -0.0079409759 0.75800002 8.279572e-40
0.028154304 -0.0079409769 0.75800002 8.279572e-40
0.029598098 -0.0079409573 0.75800002 8.2831733e-40
0.031041929 -0.0079409862 0.75799996 8.2831733e-40
0.032485742 -0.0079409862 0.75800002 7.3684057e-40
0.033929549 -0.0079409853 0.75800002 6.453638e-40
0.035280019 -0.0079200249 0.75600004 8.3011099e-40
0.036720026 -0.0079200277 0.75600004 1.0134219e-39
0.038160019 -0.007920024 0.75600004 8.2974946e-40
0.039547633 -0.0079095401 0.75500005 6.4823226e-40
0.040985733 -0.0079095513 0.755 1.0166518e-39
0.042423822 -0.0079095354 0.75500005 1.2910891e-39
0.043861926 -0.0079095457 0.75500005 1.6584381e-39
0.045180012 -0.0078885797 0.75300002 1.932867e-39
0.0466143 -0.0078885872 0.75300002 1.0127184e-39
0.047984775 -0.0078781005 0.75200003 9.2967745e-41
0.049417149 -0.007878093 0.75200003 6.3371033e-39
0.051333349 -0.0073333443 0.70000005 2.341769e-38
0.052666698 -0.0073333574 0.69999999 2.341769e-38
0.054077171 -0.0073438329 0.70100003 2.341769e-38
0.055412404 -0.0073438291 0.70100009 2.341769e-38
0.056909546 -0.0073647774 0.70300001 2.341769e-38
-0.016034268 -0.0062743169 0.73199999 8.2872651e-40
-0.014639991 -0.0062743002 0.73199999 7.3725956e-40
-0.013245697 -0.0062743169 0.73199999 6.4543387e-40
-0.011883786 -0.0062914663 0.73400003 5.5358996e-40
-0.010485679 -0.0062914812 0.73399997 6.4577579e-40
-0.0091123534 -0.0063086138 0.73600006 6.4576598e-40
-0.0077209338 -0.0063171727 0.73699999 5.5356194e-40
-0.0063342866 -0.0063342866 0.73900002 4.6173065e-40
-0.0049333139 -0.0063428883 0.74000001 4.6173485e-40
-0.0035238054 -0.0063428641 0.74000001 4.6173905e-40
-0.0021142655 -0.0063428865 0.74000001 4.6066566e-40
-0.00070665247 -0.006360021 0.74200004 5.5213962e-40
0.00070761953 -0.0063685724 0.74300003 5.5249415e-40
0.0021285841 -0.0063857329 0.74500006 6.4467717e-40
0.003561924 -0.0064114579 0.74800003 6.4466596e-40
0.0049800114 -0.0064028748 0.7470001 6.4431143e-40
0.0064114477 -0.006411456 0.74800003 6.4431423e-40
0.0078362012 -0.0064114402 0.74800003 6.4467156e-40
0.0092857275 -0.0064285896 0.75000006 6.4502749e-40
0.010714306 -0.0064286008 0.75000006 5.5390526e-40
0.012142872 -0.0064285896 0.75000006 5.5354232e-40
0.013607635 -0.0064457334 0.75199997 6.4537221e-40
0.015060022 -0.0064543155 0.75299996 7.3648324e-40
0.016538106 -0.0064714453 0.75500005 8.2760267e-40
0.017928582 -0.0064543015 0.75300002 8.2760267e-40
0.019414295 -0.0064714407 0.75500005 8.2759987e-40
0.020880032 -0.0064800465 0.75599998 9.1943256e-40
0.022320015 -0.00648002 0.75600004 1.0112709e-39
0.023760013 -0.0064800172 0.75600004 8.2760127e-40
0.025200028 -0.0064800419 0.75600004 6.4392887e-40
0.026640013 -0.0064800172 0.75600004 8.2831593e-40
0.028080026 -0.0064800419 0.75600004 1.011631e-39
0.029520012 -0.0064800153 0.75600004 9.2015563e-40
0.030960029 -0.0064800396 0.75600004 8.2832013e-40
0.032357164 -0.0064714574 0.755 8.2832013e-40
0.033795264 -0.0064714612 0.75500005 7.3612591e-40
0.035233356 -0.0064714509 0.75500005 1.1041854e-39
0.036671448 -0.0064714565 0.75500005 1.472242e-39
0.038109533 -0.0064714481 0.75500005 1.1059734e-39
0.039442874 -0.0064543081 0.75300002 8.3262212e-40
0.040985741 -0.0064714635 0.75500005 1.0159358e-39
0.042311456 -0.0064543216 0.75299996 1.2910961e-39
0.04374573 -0.0064542997 0.75300002 1.7495674e-39
0.045120012 -0.0064457236 0.75200003 2.2083749e-39
0.046552394 -0.0064457208 0.75200003 1.1956607e-39
0.047857158 -0.0064285863 0.75000006 9.2261491e-41
0.048957162 -0.0063857269 0.74500006 8.8418052e-39
0.050376218 -0.0063857422 0.74500006 1.7518581e-38
0.052666683 -0.0060000182 0.70000005 2.341769e-38
0.054231431 -0.0060257134 0.70300001 2.341769e-38
0.055570502 -0.0060257413 0.70300001 2.341769e-38
0.056909535 -0.0060257246 0.70300001 2.341769e-38
0.058082882 -0.0060085957 0.70100003 2.341769e-38
-0.013281872 -0.0048933816 0.73399997 9.2093755e-40
-0.011916154 -0.0049067219 0.736 8.2945378e-40
-0.010514255 -0.0049067163 0.736 9.2092494e-40
-0.0091123534 -0.0049067107 0.736 9.2091093e-40
-0.0077209338 -0.0049133603 0.73699999 7.3686719e-40
-0.0063171214 -0.0049133678 0.73699999 5.5320321e-40
-0.0049266643 -0.0049266689 0.73900002 5.5321161e-40
-0.003519038 -0.0049266801 0.73900002 4.6102299e-40
-0.0021114296 -0.0049266634 0.73900002 5.5214803e-40
-0.00070664781 -0.0049466961 0.74200004 5.5250256e-40
0.00070667238 -0.0049466756 0.74200004 7.3616935e-40
0.0021228741 -0.0049533588 0.74300003 8.2835377e-40
0.0035476319 -0.004966686 0.74500006 8.2870269e-40
0.0049666786 -0.0049666823 0.745 8.2834536e-40
0.0064028692 -0.004980017 0.74700004 8.2762929e-40
0.0078362152 -0.004986702 0.74800003 7.3615533e-40
0.0092609674 -0.0049866862 0.74800003 7.3651827e-40
0.010714302 -0.0050000227 0.75000006 7.3758606e-40
0.012142868 -0.0050000134 0.75000006 6.4538342e-40
0.013571451 -0.005000032 0.75000006 5.5318639e-40
0.015040002 -0.0050133369 0.75200003 6.4394149e-40
0.016494285 -0.0050200005 0.75300002 7.3577698e-40
0.017928576 -0.005020008 0.75300002 7.3577838e-40
0.019414317 -0.0050333771 0.75500005 7.3613151e-40
0.0208524 -0.0050333603 0.75500005 7.3576717e-40
0.022320021 -0.0050400286 0.75599998 6.4393588e-40
0.023760021 -0.0050400253 0.75600004 5.5210459e-40
0.025200035 -0.0050400482 0.75600004 4.6062362e-40
0.026604792 -0.0050333776 0.75500005 8.29039e-40
0.028042875 -0.0050333617 0.75500005 1.1956621e-39
0.029480983 -0.005033372 0.75500005 1.0116296e-39
0.030919068 -0.0050333561 0.75500005 8.279628e-40
0.032357167 -0.0050333687 0.75500005 8.2796701e-40
0.033795271 -0.005033378 0.75500005 8.2796561e-40
0.035233356 -0.0050333603 0.75500005 1.3786184e-39
0.036671456 -0.0050333724 0.75500005 1.9310622e-39
0.038008589 -0.0050200275 0.75300002 1.4722406e-39
0.039390497 -0.0050133658 0.75200003 9.2266536e-40
0.040877156 -0.0050200205 0.75299996 1.1066993e-39
0.042142883 -0.005000019 0.75000006 1.1989089e-39
0.043571442 -0.0050000111 0.75000006 1.840698e-39
0.045000028 -0.0050000278 0.75000006 2.4821074e-39
0.046304785 -0.0049866918 0.74800003 1.2860907e-39
0.047665734 -0.0049800207 0.74700004 9.9856529e-41
0.048957147 -0.0049666581 0.74500006 1.132684e-38
0.05037621 -0.0049666739 0.74500006 2.247882e-38
0.051795252 -0.0049666702 0.74500006 2.2958513e-38
0.054308586 -0.0046933484 0.70400006 2.341769e-38
0.055649541 -0.0046933466 0.70400006 2.341769e-38
0.056909543 -0.0046866876 0.70300007 2.341769e-38
-0.013336177 -0.0035095441 0.73699999 9.2129348e-40
-0.011932364 -0.0035095515 0.73699999 8.2981252e-40
-0.01052855 -0.0035095571 0.73699999 8.2944818e-40
-0.0091247363 -0.0035095646 0.73699999 9.2090673e-40
-0.0077209226 -0.0035095701 0.73699999 8.2869428e-40
-0.0063171093 -0.0035095776 0.73699999 8.2798943e-40
-0.0049266708 -0.0035190417 0.73900002 6.4468838e-40
-0.0035190445 -0.0035190529 0.73900002 4.6066706e-40
-0.0021114175 -0.003519064 0.73900002 5.5251097e-40
-0.00070665433 -0.0035333487 0.74200004 5.5286549e-40
0.00070667797 -0.0035333505 0.7420001 9.2020327e-40
0.0021228639 -0.003538104 0.74300003 1.2875369e-39
0.003538097 -0.0035380984 0.74300003 1.0123807e-39
0.0049666618 -0.0035476109 0.74500006 8.2942576e-40
0.0063857217 -0.0035476296 0.74500006 7.3651266e-40
0.0078257238 -0.003557157 0.74700004 7.3616374e-40
0.0092485966 -0.0035571775 0.74700004 7.3724975e-40
0.010685739 -0.0035619393 0.74800003 7.3831333e-40
0.012110492 -0.0035619235 0.74800003 7.3794199e-40
0.013571447 -0.0035714547 0.75000006 7.3758326e-40
0.01500001 -0.0035714435 0.75000006 8.2834115e-40
0.01647239 -0.0035809635 0.75200003 1.0116534e-39
0.017904781 -0.0035809802 0.75200003 1.0120121e-39
0.019362876 -0.0035857402 0.75300002 1.0120037e-39
0.020797152 -0.0035857263 0.75299996 9.198011e-40
0.022290492 -0.0035952602 0.75500005 7.3613712e-40
0.023728596 -0.0035952714 0.75500005 7.3614272e-40
0.025166698 -0.0035952835 0.75500005 7.3613852e-40
0.026604783 -0.0035952667 0.75500005 8.2832714e-40
0.028042883 -0.0035952774 0.75500005 1.0116338e-39
0.029480968 -0.0035952607 0.75500005 9.1979129e-40
0.030919073 -0.0035952728 0.75500005 8.279642e-40
0.032357175 -0.003595283 0.755 9.2016684e-40
0.033705711 -0.0035857128 0.75300002 1.0123583e-39
0.035140008 -0.0035857179 0.75300002 1.2878606e-39
0.036574297 -0.0035857263 0.75300002 1.6555571e-39
0.038008589 -0.0035857318 0.75300002 1.3807638e-39
0.039390478 -0.0035809504 0.75200003 1.1056217e-39
0.040822871 -0.0035809625 0.75200003 1.1985376e-39
0.042142879 -0.003571443 0.75000006 1.3829471e-39
0.043571457 -0.0035714614 0.75000006 1.2893375e-39
0.044880033 -0.0035619393 0.74800003 1.2864733e-39
0.046242878 -0.0035571684 0.74700004 1.7452962e-39
0.047665749 -0.0035571887 0.74700004 2.2046012e-39
0.048957143 -0.0035476133 0.74500006 1.2543395e-38
0.050376207 -0.0035476289 0.74500006 2.2958493e-38
0.051795252 -0.0035476256 0.74500006 2.3234019e-38
0.05304287 -0.0033571499 0.70500004 2.341769e-38
0.054385729 -0.0033571611 0.70500004 2.341769e-38
0.055728581 -0.0033571443 0.70500004 2.341769e-38
-0.013336165 -0.0021057522 0.73699999 9.2166623e-40
-0.011932351 -0.0021057578 0.73699999 8.2982233e-40
-0.01052855 -0.0021057448 0.73699999 8.3017405e-40
-0.0091247391 -0.0021057522 0.73699999 8.2944958e-40
-0.0077209244 -0.0021057578 0.73699999 9.2092074e-40
-0.0063342848 -0.0021114296 0.73900002 1.0123989e-39
-0.0049266587 -0.0021114408 0.73900002 7.3653508e-40
-0.0035190501 -0.002111424 0.73900002 4.610328e-40
-0.0021114231 -0.0021114352 0.73900002 5.528739e-40
-0.00070474698 -0.0021143092 0.74000001 5.528725e-40
0.00070667051 -0.0021200052 0.7420001 1.1035239e-39
0.0021228723 -0.0021228793 0.74300003 1.6545271e-39
0.0035381175 -0.0021228904 0.74300003 1.2871753e-39
0.0049533513 -0.002122883 0.74300003 8.287153e-40
0.0063857245 -0.0021285864 0.74500006 7.3616374e-40
0.0078047705 -0.0021285827 0.74500006 6.4468978e-40
0.0092485808 -0.0021342991 0.74700004 6.4541145e-40
0.010685736 -0.0021371713 0.74800003 6.461121e-40
0.012110506 -0.0021371853 0.74800003 7.3793218e-40
0.013535258 -0.0021371713 0.74800003 8.2941595e-40
0.015000009 -0.0021428673 0.75000006 1.1034931e-39
0.016472399 -0.0021485987 0.75199997 1.2875242e-39
0.017904777 -0.002148594 0.75199997 1.2882417e-39
0.01933717 -0.002148608 0.75199997 1.2878774e-39
0.020797161 -0.0021514513 0.75300002 1.103842e-39
0.022231452 -0.0021514597 0.75299996 8.2834115e-40
0.023728585 -0.0021571603 0.75500005 9.2018366e-40
0.025166687 -0.0021571724 0.75500005 9.1981652e-40
0.026534304 -0.0021514532 0.75300002 8.2761528e-40
0.028042875 -0.0021571678 0.75500005 7.3613852e-40
0.029480979 -0.0021571785 0.75500005 8.2797401e-40
0.030919062 -0.0021571626 0.75500005 8.2870829e-40
0.03227143 -0.0021514322 0.75300002 1.0127548e-39
0.033705723 -0.0021514383 0.75300002 1.1964118e-39
0.035140015 -0.0021514448 0.75300002 1.2878746e-39
0.036574304 -0.0021514499 0.75300002 1.2882263e-39
0.037958112 -0.0021485894 0.75200003 1.2889367e-39
0.039285727 -0.0021428673 0.75000006 1.1981817e-39
0.040714305 -0.0021428766 0.75000006 1.3829344e-39
0.04203051 -0.0021371788 0.74800003 1.4747812e-39
0.043455258 -0.0021371648 0.74800003 8.3122783e-40
0.044820029 -0.002134315 0.74700004 9.3348898e-41
0.046119045 -0.002128558 0.74500006 2.2045227e-39
0.047538109 -0.0021285738 0.74500006 4.2587366e-39
0.048825745 -0.002122889 0.74300003 1.3866779e-38
0.050240979 -0.0021228774 0.74300003 2.341768e-38
0.051656213 -0.0021228718 0.74300003 2.341769e-38
0.053193353 -0.0020200091 0.70700002 2.341769e-38
0.054540027 -0.0020200203 0.70700002 2.341769e-38
0.055886682 -0.0020200054 0.70700002 2.341769e-38
-0.01196476 -0.0007038138 0.73900002 1.0131458e-39
-0.010557151 -0.00070379704 0.73900002 9.2165782e-40
-0.0091495262 -0.00070381007 0.73900002 8.2982933e-40
-0.0077418988 -0.00070381939 0.73900002 1.0135059e-39
-0.0063342894 -0.00070380262 0.73900002 1.1971671e-39
-0.0049266643 -0.0007038138 0.73900002 8.2909785e-40
-0.003519037 -0.00070382498 0.73900002 5.5323544e-40
-0.0021114305 -0.00070380821 0.73900002 5.5323684e-40
-0.00070476934 -0.00070475257 0.74000001 6.447136e-40
0.00070669473 -0.00070670649 0.74200004 9.1986136e-40
0.002120014 -0.000706686 0.74200004 1.2868334e-39
0.0035381082 -0.00070763781 0.74300003 1.1038673e-39
0.004953342 -0.0007076285 0.74300003 9.205592e-40
0.0063685742 -0.00070762105 0.74300003 7.3689101e-40
0.0077838381 -0.00070766016 0.74300003 5.5321722e-40
0.0092238197 -0.00070953771 0.74500006 6.4576598e-40
0.010671438 -0.00071144133 0.74700004 7.3794199e-40
0.012110488 -0.00071239873 0.74800003 7.3792237e-40
0.013535258 -0.0007124127 0.74800003 7.3793638e-40
0.014960013 -0.00071239687 0.74800003 8.2870829e-40
0.016428601 -0.0007143275 0.75000006 9.1982773e-40
0.017857164 -0.00071431912 0.75000006 1.0127408e-39
0.019285731 -0.00071430887 0.75000006 1.1049322e-39
0.020769538 -0.0007162097 0.75200003 9.2089832e-40
0.022201914 -0.00071620318 0.75200003 7.368756e-40
0.023665715 -0.00071714289 0.75300002 7.3688261e-40
0.025100008 -0.00071715034 0.75300002 6.4467717e-40
0.026534295 -0.00071715779 0.75300002 7.3650145e-40
0.027968585 -0.00071716338 0.75300002 8.2834396e-40
0.02936383 -0.00071621808 0.75200003 8.2834956e-40
0.030796207 -0.0007162097 0.75200003 8.2909225e-40
0.032228582 -0.00071620411 0.75200003 9.213117e-40
0.033571444 -0.00071430329 0.75000006 1.0127646e-39
0.035000011 -0.00071429258 0.75000006 1.0123821e-39
0.036428593 -0.00071431074 0.75000006 1.1045665e-39
0.037857156 -0.00071430142 0.75000006 1.1978271e-39
0.039180987 -0.00071241829 0.74799997 1.290743e-39
0.040605735 -0.00071240804 0.74800003 1.4744182e-39
0.041974314 -0.00071145996 0.74700004 1.7513638e-39
0.043397155 -0.00071143528 0.74700004 9.2161999e-40
0.044580016 -0.00070763734 0.74300003 9.2293721e-41
0.04599525 -0.00070762989 0.74300003 5.4299349e-39
0.047410499 -0.00070764293 0.74300003 1.0789854e-38
0.048760019 -0.0007066832 0.7420001 1.7161397e-38
0.050173353 -0.00070669065 0.74200004 2.341769e-38
0.049361926 -0.00067622244 0.71000004 2.341769e-38
0.050714295 -0.00067620008 0.71000004 2.341769e-38
0.051920027 -0.00067432068 0.708 2.341769e-38
0.053268585 -0.00067429087 0.708 2.341769e-38
0.054540012 -0.00067333906 0.70700002 2.341769e-38
0.055886686 -0.00067335024 0.70699996 2.341769e-38
-0.011964765 0.00070381322 0.73900002 1.1060519e-39
-0.010557138 0.00070380204 0.73900002 1.0138563e-39
-0.0091495309 0.00070381881 0.73900002 8.3018246e-40
-0.0077419044 0.00070380763 0.73900002 1.1053274e-39
-0.0063342792 0.00070379832 0.73900002 1.2893543e-39
-0.0049266699 0.00070381322 0.73900002 1.0134877e-39
-0.0035190426 0.0007038039 0.73900002 6.4542966e-40
-0.0021114175 0.00070379273 0.73900002 6.4507233e-40
-0.00070475816 0.00070475758 0.74000001 6.4507794e-40
0.00070477993 0.00070473523 0.74000001 7.3620298e-40
0.0021200196 0.00070663885 0.74200004 8.2838459e-40
0.0035333408 0.00070665934 0.74200004 9.2020748e-40
0.0049533485 0.00070759811 0.74300003 1.0127632e-39
0.0063685947 0.00070758507 0.74300003 7.3690222e-40
0.0077838288 0.00070759252 0.74300003 4.621076e-40
0.0092238225 0.00070950732 0.74500006 6.4649045e-40
0.010671456 0.00071139232 0.74700004 8.3015583e-40
0.012094294 0.0007114184 0.74700004 7.37956e-40
0.013517166 0.00071139791 0.74700004 5.5392768e-40
0.014960029 0.0007123432 0.74800003 5.5321302e-40
0.016428597 0.00071424776 0.75000006 5.5321302e-40
0.017809547 0.00071234506 0.74800003 7.3724414e-40
0.019285727 0.00071426824 0.75000006 9.2091373e-40
0.02071429 0.00071427849 0.75000006 8.2907684e-40
0.022142876 0.00071426266 0.75 6.4541565e-40
0.023571456 0.00071425055 0.75000006 5.5359137e-40
0.025000019 0.00071426173 0.75000006 3.6990356e-40
0.026499074 0.00071615883 0.75200003 6.4539183e-40
0.027931448 0.00071616349 0.75199997 8.2870549e-40
0.029285733 0.00071426266 0.75000006 8.2798943e-40
0.0307143 0.00071427476 0.75000006 8.297957e-40
0.032142881 0.00071426359 0.75000006 8.3052718e-40
0.033571444 0.00071427383 0.75000006 8.2943837e-40
0.035000026 0.00071425521 0.75000006 8.2799083e-40
0.036331441 0.00071236648 0.74800003 8.2977468e-40
0.037756212 0.00071235438 0.74800003 1.1067063e-39
0.039128602 0.00071139139 0.74700004 1.2900284e-39
0.04044288 0.00070950732 0.74500006 1.6555865e-39
0.041861918 0.00070950825 0.74500006 2.0236375e-39
0.043164779 0.00070761022 0.74300003 1.1034819e-39
0.044520017 0.00070663885 0.74200004 9.2655256e-41
0.045933355 0.00070664071 0.74200004 8.724913e-39
0.047346674 0.00070665887 0.74200004 1.7322381e-38
0.048760008 0.00070666074 0.74200004 2.0387119e-38
0.050173357 0.00070663233 0.74200004 2.341769e-38
0.049361926 0.00067615852 0.71000004 2.341769e-38
0.050714314 0.00067616039 0.71000004 2.341769e-38
0.052140024 0.00067712896 0.71100003 2.341769e-38
0.053494301 0.00067714014 0.71100003 2.341769e-38
0.054540019 0.00067332172 0.70700002 2.341769e-38
-0.010557146 0.002111431 0.73900002 1.4748302e-39
-0.0091495169 0.0021114217 0.73900002 1.4737428e-39
-0.0077419099 0.0021114366 0.73900002 1.2904179e-39
-0.0063342839 0.0021114273 0.73900002 1.1063938e-39
-0.0049266568 0.0021114161 0.73900002 7.3762249e-40
-0.0035190501 0.0021114328 0.73900002 4.621174e-40
-0.0021114231 0.0021114217 0.73900002 6.4507093e-40
-0.00070474885 0.0021142659 0.74000001 8.2911467e-40
0.00070475851 0.0021142901 0.74000001 8.2876855e-40
0.0021142985 0.0021142678 0.74000001 9.2094877e-40
0.0035333454 0.0021199824 0.74200004 9.2093475e-40
0.0049466831 0.0021199768 0.74200004 1.0138506e-39
0.0063685845 0.0021228397 0.74300003 9.2166062e-40
0.0077838185 0.0021228471 0.74300003 9.2165362e-40
0.0092238085 0.0021285785 0.74500006 9.2164521e-40
0.010642867 0.0021285617 0.74500006 9.2201235e-40
0.012110506 0.002137102 0.74800003 8.2982513e-40
0.013517151 0.0021342763 0.74700004 7.3797982e-40
0.014960028 0.0021371038 0.74800003 7.3761128e-40
0.01638478 0.0021371178 0.74800003 7.3761268e-40
0.017809533 0.0021371327 0.74800003 8.2944818e-40
0.019234303 0.0021371196 0.74800003 9.2092494e-40
0.020659056 0.0021371346 0.74800003 8.2944818e-40
0.022142874 0.0021428398 0.75000006 7.376281e-40
0.02357145 0.0021428277 0.75000006 6.4580661e-40
0.025000013 0.0021428389 0.75000006 6.4542406e-40
0.02642858 0.0021428482 0.75000006 7.3759447e-40
0.027782889 0.0021371029 0.74800003 8.2906703e-40
0.029207636 0.0021371169 0.74800003 8.2978029e-40
0.030632406 0.0021371038 0.74800003 8.3121802e-40
0.032057162 0.0021371178 0.74800003 9.2269618e-40
0.033481933 0.0021371066 0.74800003 1.0141715e-39
0.034906685 0.0021371206 0.74800003 1.0134513e-39
0.036331456 0.0021371066 0.74800003 1.0141589e-39
0.037604779 0.0021285645 0.74500006 1.1985376e-39
0.03902382 0.0021285673 0.74500006 1.474777e-39
0.040334303 0.0021228471 0.74300003 1.3818807e-39
0.04174953 0.0021228527 0.74300003 1.1960391e-39
0.043164764 0.0021228648 0.74300003 6.4393028e-40
0.044520024 0.0021199656 0.74200004 9.2299326e-41
0.045933347 0.002119988 0.74200004 1.0239861e-38
0.047155257 0.0021114151 0.73900002 2.0387043e-38
0.048562862 0.0021114319 0.73900002 2.1948322e-38
0.048077155 0.0020314229 0.71100003 2.341769e-38
0.049431458 0.0020314024 0.71100003 2.341769e-38
0.050785739 0.002031408 0.71100003 2.341769e-38
0.052286673 0.0020371375 0.71300006 2.341769e-38
0.053494301 0.0020314285 0.71100003 2.341769e-38
0.0548486 0.002031408 0.71100003 2.341769e-38
-0.0091495235 0.0035190487 0.73900002 2.1205597e-39
-0.0077418978 0.0035190375 0.73900002 1.5684678e-39
-0.0063342904 0.0035190543 0.73900002 9.2882126e-40
-0.0049266624 0.0035190431 0.73900002 5.5212421e-40
-0.003519037 0.0035190338 0.73900002 1.8514095e-40
-0.0021056768 0.003509471 0.73699999 6.4324364e-40
-0.00070380355 0.0035190394 0.73900002 1.0116842e-39
0.00070382346 0.0035190282 0.73900002 1.0124255e-39
0.0021142911 0.003523804 0.74000001 9.2094176e-40
0.003533337 0.0035333296 0.74200004 1.0127702e-39
0.0049466887 0.0035333016 0.74200004 1.0134905e-39
0.0063600228 0.0035333016 0.74200004 1.1971629e-39
0.007783825 0.0035380756 0.74300003 1.2889942e-39
0.0091990735 0.0035380607 0.74300003 1.1049603e-39
0.010614306 0.0035380682 0.74300003 9.2129068e-40
0.01209431 0.00355711 0.74700004 9.2093335e-40
0.013480959 0.0035476105 0.74500006 8.2981112e-40
0.014960025 0.0035618709 0.74800003 9.2164241e-40
0.016384795 0.0035618588 0.74800003 9.2164941e-40
0.017809547 0.0035618728 0.74800003 9.2201515e-40
0.019234318 0.0035618588 0.74800003 9.2165222e-40
0.02065907 0.0035618737 0.74800003 9.2200534e-40
0.022083845 0.0035618625 0.74800003 8.2981812e-40
0.023571447 0.0035714058 0.75000006 8.2982653e-40
0.025000013 0.0035714169 0.75000006 8.2980551e-40
0.026358116 0.0035618774 0.74800003 8.2978449e-40
0.027782887 0.0035618634 0.74800003 8.2978169e-40
0.029207639 0.0035618765 0.74800003 8.3085648e-40
0.030591451 0.0035571128 0.74700004 8.3121241e-40
0.032014307 0.0035571118 0.74700004 1.014882e-39
0.033347629 0.0035476123 0.74500006 1.1981957e-39
0.03476667 0.0035476179 0.74500006 1.1978383e-39
0.03608859 0.0035380784 0.74300003 1.1063574e-39
0.037503824 0.0035380858 0.74300003 1.3825757e-39
0.038919054 0.0035380914 0.74300003 1.6588081e-39
0.040280014 0.0035333193 0.74200004 1.0174029e-39
0.041693348 0.0035333212 0.7420001 3.6989515e-40
0.043106686 0.0035333119 0.74200004 2.7591287e-40
0.044340011 0.0035190375 0.73900002 1.246441e-40
0.045809533 0.003523804 0.74000001 1.1846342e-38
0.04721906 0.0035238003 0.74000001 2.3417652e-38
0.04862858 0.0035238049 0.74000001 2.341769e-38
0.048077177 0.0033856814 0.71100003 2.341769e-38
0.049431454 0.0033856889 0.71100003 2.341769e-38
0.050785732 0.0033856982 0.71100003 2.341769e-38
0.052140016 0.0033857075 0.71100003 2.341769e-38
0.053494316 0.0033856889 0.71100003 2.341769e-38
-0.0077419044 0.0049266662 0.73900002 4.4275973e-39
-0.0063342764 0.004926655 0.73900002 7.2834057e-39
-0.0049266699 0.0049266717 0.73900002 7.0957284e-39
-0.0035190426 0.0049266606 0.73900002 6.8887398e-39
-0.0021114175 0.0049266494 0.73900002 3.7695615e-39
-0.00070380914 0.0049266662 0.73900002 6.4324224e-40
0.00070381787 0.004926655 0.73900002 5.5251517e-40
0.0021143004 0.0049333139 0.74000001 5.5359277e-40
0.0035333603 0.0049466281 0.74200004 6.4542826e-40
0.0049466793 0.0049466467 0.74200004 8.2981672e-40
0.0063600144 0.0049466467 0.74200004 9.2129348e-40
0.0077733477 0.0049466467 0.7420001 1.0134877e-39
0.0091866869 0.0049466412 0.74200004 9.2165082e-40
0.010614295 0.0049533225 0.74300003 9.2128788e-40
0.01202953 0.0049533318 0.74300003 9.2128227e-40
0.013444774 0.0049533178 0.74300009 9.2164241e-40
0.014860027 0.0049532973 0.74300003 9.2200114e-40
0.016384779 0.0049866461 0.74800003 9.2201515e-40
0.017785734 0.0049799732 0.74700004 9.2202917e-40
0.019157138 0.004966673 0.74500006 9.2166062e-40
0.020631446 0.0049799778 0.74700004 8.2981532e-40
0.022083825 0.004986648 0.74800003 7.3726236e-40
0.023508593 0.004986634 0.74800003 7.3797982e-40
0.024933346 0.0049866489 0.74800003 8.3015583e-40
0.02635812 0.0049866368 0.74800003 9.2161438e-40
0.02778287 0.0049866517 0.74800003 1.1052854e-39
0.029168598 0.0049799657 0.74700004 1.0138086e-39
0.030509524 0.0049666665 0.74500006 9.2268497e-40
0.031928584 0.0049666506 0.74500006 1.1978271e-39
0.033258114 0.0049533122 0.74300003 1.3815037e-39
0.034673348 0.0049533206 0.74300003 1.3815079e-39
0.036040016 0.0049466505 0.7420001 1.2903899e-39
0.037453357 0.004946643 0.74200004 1.8417616e-39
0.038866688 0.0049466449 0.74200004 2.301658e-39
0.040171437 0.0049333298 0.74000001 1.2893151e-39
0.041580956 0.0049333344 0.74000001 2.7592548e-40
0.042816214 0.0049133091 0.73700005 5.4284271e-39
0.044160035 0.0049066297 0.73600006 1.0691525e-38
0.045561932 0.0049066353 0.736 1.7067768e-38
0.046963852 0.0049066204 0.73600006 2.341769e-38
0.048365749 0.0049066269 0.73600006 2.341769e-38
0.048077177 0.0047399676 0.71100003 2.341769e-38
0.049431458 0.004739977 0.71100003 2.341769e-38
0.050785735 0.0047399863 0.71100003 2.341769e-38
-0.0063342839 0.0063342839 0.73900002 1.3544807e-38
-0.0049266568 0.0063342727 0.73900002 1.3567037e-38
-0.0035238147 0.0063428651 0.74000001 1.3534018e-38
-0.0021114231 0.0063342783 0.73900002 6.9031928e-39
-0.00070379424 0.0063342671 0.73900002 2.8705599e-40
0.00070381229 0.0063342839 0.73900002 1.8406476e-40
0.0021114394 0.0063342727 0.73900002 9.3308261e-41
0.0035238198 0.0063428464 0.74000001 3.6845882e-40
0.004933326 0.0063428706 0.74000001 6.4505272e-40
0.0063600061 0.0063599921 0.74200004 6.4470379e-40
0.0077733384 0.0063599921 0.74200004 6.4578279e-40
0.0091866907 0.006359966 0.74200004 7.3798122e-40
0.01060001 0.0063599846 0.74200004 8.2980551e-40
0.012013344 0.0063599846 0.74200004 9.2091373e-40
0.013426679 0.0063599856 0.7420001 1.0134611e-39
0.014840017 0.0063599772 0.74200004 9.2197872e-40
0.016253348 0.0063599772 0.74200004 8.3016144e-40
0.017666683 0.0063599772 0.74200004 8.2982092e-40
0.019105729 0.0063685547 0.74300003 8.3052998e-40
0.020520963 0.006368563 0.74300003 7.3832875e-40
0.021995245 0.0063857012 0.74500006 5.5430323e-40
0.023414295 0.0063857068 0.74500006 7.3797702e-40
0.024833351 0.0063856901 0.74500006 8.2978869e-40
0.0262524 0.0063856938 0.745 1.1052714e-39
0.027671421 0.0063857255 0.74500006 1.2893081e-39
0.029012388 0.0063685612 0.74300003 1.1964034e-39
0.030386686 0.0063599772 0.74200004 1.0141631e-39
0.03180002 0.0063599763 0.74200004 1.288948e-39
0.033123825 0.0063428371 0.74000001 1.5655391e-39
0.034533337 0.0063428641 0.74000001 1.5648314e-39
0.035942871 0.0063428381 0.74000001 1.4737176e-39
0.037301905 0.0063342922 0.73900002 2.2087645e-39
0.038709532 0.0063342811 0.73900002 2.941638e-39
0.040008597 0.0063171103 0.73700005 1.561579e-39
0.041412398 0.0063171261 0.73699999 1.8450757e-40
0.042816211 0.0063171177 0.73699999 1.0653499e-38
0.044040028 0.0062914011 0.73400003 2.1177698e-38
0.045438152 0.0062913666 0.73399997 2.2315664e-38
0.046836238 0.006291376 0.73400003 2.341769e-38
0.048234325 0.0062913862 0.73400003 2.341769e-38
0.04821239 0.0061114258 0.71300006 2.341769e-38
0.049570475 0.0061114258 0.71300006 2.341769e-38
0.05092857 0.0061114295 0.71300006 2.341769e-38
-0.0035238054 0.0077523752 0.74000001 1.2725913e-38
-0.0021114287 0.0077419053 0.73900002 9.8667835e-39
-0.00070379983 0.0077418941 0.73900002 7.0086601e-39
0.00070192915 0.007720917 0.73699999 6.2645454e-39
0.0021057453 0.0077209133 0.73699999 5.4193775e-39
0.0035190589 0.0077418885 0.73900002 2.9409009e-39
0.0049466775 0.0077733188 0.74200004 5.5284027e-40
0.0063428753 0.0077523547 0.74000001 6.4541425e-40
0.0077733439 0.0077733169 0.7420001 8.2909225e-40
0.0091866842 0.0077733104 0.74200004 9.2129348e-40
0.010600016 0.0077733104 0.74200004 9.2199553e-40
0.01201335 0.0077733104 0.7420001 1.0138142e-39
0.013426688 0.007773303 0.74200004 1.1059972e-39
0.014840024 0.007773303 0.74200004 1.0141505e-39
0.016253341 0.0077733225 0.74200004 8.3086069e-40
0.017666675 0.0077733235 0.74200004 8.3088171e-40
0.019080028 0.0077732964 0.74200004 8.3159497e-40
0.020493349 0.007773316 0.74200004 7.3867767e-40
0.02199525 0.0078047453 0.74500006 7.3760848e-40
0.023414297 0.0078047509 0.74500006 8.2980971e-40
0.024766684 0.0077837924 0.74300003 1.0134513e-39
0.026181918 0.0077838008 0.74300003 1.1978089e-39
0.027560018 0.0077733085 0.74200004 1.2907346e-39
0.028973341 0.00777333 0.74200004 1.2900312e-39
0.030304756 0.007752392 0.74000001 1.1989103e-39
0.031714294 0.0077523696 0.74000001 1.3822198e-39
0.033079073 0.0077418773 0.73900002 1.6588165e-39
0.034486681 0.0077418941 0.73900002 1.1985754e-39
0.035797186 0.0077208946 0.73699999 8.3052578e-40
0.037200969 0.0077209356 0.73700005 1.1964412e-39
0.038604785 0.00772093 0.73700005 1.5615972e-39
0.039954316 0.0077104499 0.736 5.5108486e-39
0.041356232 0.0077104331 0.73600006 9.4603117e-39
0.042525724 0.007668558 0.73199999 1.5933815e-38
0.043740023 0.0076371203 0.72900003 2.2315664e-38
0.045128599 0.0076371259 0.72900003 2.2866677e-38
0.046261936 0.0075951959 0.72500002 2.341769e-38
0.047445741 0.0075637861 0.72200006 2.341769e-38
0.048685726 0.00754285 0.72000003 2.341769e-38
0.00070194033 0.0091247074 0.73699999 1.2261974e-38
0.0021057415 0.0091247242 0.73699999 1.0772474e-38
0.0035190533 0.0091495179 0.73900002 5.605966e-39
0.0049333465 0.0091618877 0.74000001 3.6991337e-40
0.0063343071 0.0091494955 0.73900002 7.3797842e-40
0.007752391 0.0091618896 0.74000001 1.0131262e-39
0.0091866897 0.0091866367 0.74200004 1.0127688e-39
0.01060001 0.0091866571 0.74200004 1.0134751e-39
0.012013343 0.0091866571 0.74200004 1.1067343e-39
0.013390485 0.0091618923 0.74000001 1.1978467e-39
0.014800007 0.009161897 0.74000001 1.0138114e-39
0.016253348 0.0091866488 0.74200004 8.3051457e-40
0.017666683 0.0091866506 0.7420001 8.3088871e-40
0.019028578 0.009161897 0.74000001 7.3940915e-40
0.020493353 0.0091866432 0.74200004 8.3016705e-40
0.021906685 0.0091866441 0.74200004 8.3016985e-40
0.023320008 0.0091866637 0.74200004 1.0138436e-39
0.024733361 0.0091866367 0.74200004 1.1974978e-39
0.02614668 0.0091866562 0.74200004 1.2896752e-39
0.027560012 0.0091866553 0.74200004 1.2903955e-39
0.02889524 0.0091619045 0.74000001 1.3818765e-39
0.030263834 0.0091494992 0.73900002 1.3822408e-39
0.031671438 0.009149516 0.73900002 1.5651999e-39
0.033079065 0.0091495048 0.73900002 1.657034e-39
0.03439337 0.009124713 0.73699999 9.2378499e-40
0.035797168 0.0091247335 0.73700005 9.4388662e-41
0.03720098 0.0091247261 0.73700005 9.2229261e-41
0.038552426 0.0091123227 0.736 9.3018192e-41
0.039845761 0.0090875607 0.73399997 9.4595942e-39
0.041131455 0.0090628304 0.73200005 1.8780627e-38
0.042467657 0.0090504251 0.73099995 2.1121803e-38
0.043680031 0.0090132877 0.72800004 2.341769e-38
0.044880975 0.0089761689 0.72500002 2.341769e-38
0.046134312 0.0089514032 0.72300005 2.341769e-38
0.047445737 0.0089390185 0.72200006 2.341769e-38
0.048685737 0.0089142732 0.71999997 2.341769e-38
0.0049333372 0.010571426 0.74000001 1.8382303e-39
0.0063343015 0.010557124 0.73900002 1.7481787e-39
0.0077523855 0.010571426 0.74000001 1.7478144e-39
0.009161911 0.010571424 0.74000001 1.4715848e-39
0.010571432 0.010571427 0.74000001 1.2875495e-39
0.011980959 0.010571426 0.74000001 1.1971433e-39
0.013390479 0.01057143 0.74000001 1.1971433e-39
0.014800004 0.010571426 0.74000001 1.013831e-39
0.016209528 0.010571431 0.74000001 8.3016845e-40
0.017619051 0.01057143 0.74000001 8.3053559e-40
0.019028574 0.010571433 0.74000001 8.3161319e-40
0.020438112 0.010571411 0.74000001 8.3053699e-40
0.021818103 0.010557136 0.73900002 9.2201235e-40
0.023225728 0.010557125 0.73900002 1.0134877e-39
0.024666669 0.010571436 0.74000001 1.1975146e-39
0.026076205 0.010571412 0.74000001 1.2897047e-39
0.02748573 0.010571409 0.74000001 1.4744462e-39
0.028856199 0.010557137 0.73900002 1.5666335e-39
0.030263826 0.010557126 0.73900002 1.6588417e-39
0.031585753 0.010528516 0.73699999 1.2886425e-39
0.03298955 0.010528535 0.73700005 9.1877535e-40
0.034393355 0.010528553 0.73699999 1.3793737e-39
0.035748608 0.010514243 0.73600006 1.9289294e-39
0.03715051 0.010514248 0.73600006 6.8094599e-39
0.038447645 0.010485692 0.73400003 1.1757634e-38
0.039737169 0.010457121 0.73200005 1.6393351e-38
0.041075267 0.010442825 0.73100001 2.1121803e-38
0.042351458 0.010414254 0.72899997 2.0662625e-38
0.043560021 0.010371406 0.72599995 2.0111612e-38
0.044880975 0.010357125 0.72499996 1.9273613e-38
0.046134308 0.01032855 0.72300005 1.8366738e-38
0.047445741 0.010314258 0.72200006 1.8818382e-38
0.048685733 0.010285698 0.72000003 1.9285093e-38
0.0063342941 0.011964751 0.73900002 2.8516522e-39
0.0077523948 0.011980934 0.74000001 2.3910286e-39
0.0091619017 0.01198096 0.74000001 2.021523e-39
0.010571442 0.011980937 0.74000001 1.5641364e-39
0.011980952 0.011980961 0.74000001 1.3801052e-39
0.013390488 0.011980937 0.74000001 1.1056749e-39
0.014780003 0.011964763 0.73900002 1.0138394e-39
0.016209537 0.011980939 0.74000001 8.3017545e-40
0.017619044 0.011980965 0.74000001 9.2165782e-40
0.019002862 0.011964757 0.73900002 9.2309275e-40
0.020410487 0.011964746 0.73900002 9.2237529e-40
0.021818098 0.011964764 0.73900002 9.2165642e-40
0.023225721 0.011964752 0.73900002 1.0116969e-39
0.02463335 0.011964741 0.73900002 1.1053232e-39
0.02604096 0.011964759 0.73900002 1.3801094e-39
0.027448587 0.01196475 0.73900002 1.5666503e-39
0.028778125 0.01193234 0.73699999 1.7510387e-39
0.030181926 0.011932366 0.73700005 1.9318273e-39
0.031585738 0.011932354 0.73700005 1.0109486e-39
0.032944806 0.011916135 0.736 9.2635638e-41
0.034346707 0.01191614 0.736 1.9290303e-39
0.035748612 0.011916148 0.736 3.7044236e-39
0.037150513 0.011916153 0.736 1.3550579e-38
0.038342874 0.011851409 0.73200005 2.3385316e-38
0.039682891 0.011835195 0.73099995 2.341769e-38
0.041075271 0.011835195 0.73099995 2.3417689e-38
0.042351466 0.011802817 0.72899997 2.0111611e-38
0.043560032 0.011754248 0.72599995 1.6776433e-38
0.044880986 0.011738058 0.72499996 1.5014657e-38
0.046134327 0.011705669 0.72299999 1.3281277e-38
0.047445737 0.011689492 0.72200006 1.4203954e-38
0.0077523724 0.013390491 0.74000001 3.1267957e-39
0.0091619128 0.013390469 0.74000001 2.7594355e-39
0.010571451 0.013390445 0.74000001 2.3938886e-39
0.011980961 0.013390469 0.74000001 1.8418008e-39
0.013390497 0.013390444 0.74000001 1.2900718e-39
0.014779997 0.013372392 0.73900002 1.2897131e-39
0.016187623 0.013372381 0.73900002 1.290076e-39
0.017619053 0.013390472 0.74000001 1.2900802e-39
0.019002857 0.013372386 0.73900002 1.2918739e-39
0.020410482 0.013372376 0.73900002 1.4737498e-39
0.021818105 0.013372364 0.73900002 1.6574194e-39
