# .PCD v0.7 - Point Cloud Data file format
VERSION 0.7
FIELDS x y z rgb
SIZE 4 4 4 4
TYPE F F F F
COUNT 1 1 1 1
WIDTH 943
HEIGHT 1
VIEWPOINT 0 0 0 1 0 0 0
POINTS 943
DATA ascii
-0.00076192088 -0.078476213 0.80000007 4.6063763e-40
0.00076188304 -0.07847622 0.80000007 4.602761e-40
0.0022857094 -0.078476198 0.80000007 3.6847423e-40
-0.032639053 -0.076663829 0.79700011 9.2086749e-40
-0.031120973 -0.076663844 0.79700011 9.2158495e-40
-0.029602865 -0.076663814 0.79700011 9.2158495e-40
-0.028084783 -0.076663844 0.79700011 1.0137792e-39
-0.026600016 -0.076760016 0.7980001 9.2158495e-40
-0.025080021 -0.076760031 0.7980001 8.2867326e-40
-0.023560014 -0.076760016 0.7980001 7.3647903e-40
-0.022040019 -0.076760024 0.7980001 5.5244931e-40
-0.020571452 -0.076952405 0.80000007 4.6061381e-40
-0.019047627 -0.07695239 0.80000001 2.7694422e-40
-0.017523821 -0.076952398 0.80000007 2.7766169e-40
-0.016000016 -0.076952405 0.80000007 2.7802182e-40
-0.014476211 -0.076952405 0.80000007 6.4572394e-40
-0.012952404 -0.076952413 0.80000007 1.0134275e-39
-0.011428582 -0.07695239 0.80000001 9.2231223e-40
-0.0099047758 -0.076952398 0.80000007 8.3047253e-40
-0.0083809718 -0.076952398 0.80000007 6.4500227e-40
-0.0068571628 -0.076952405 0.80000007 5.5209058e-40
-0.005333357 -0.076952413 0.80000007 4.6097254e-40
-0.0038095342 -0.07695239 0.80000001 4.6169281e-40
-0.0022857303 -0.076952398 0.80000007 4.6097815e-40
-0.00076192274 -0.076952405 0.80000007 5.5281785e-40
0.00075998221 -0.076760024 0.7980001 5.5246192e-40
0.0022799948 -0.076760009 0.7980001 6.4393448e-40
-0.032639056 -0.075145744 0.79700011 9.1979129e-40
-0.031120962 -0.075145736 0.79700011 1.0134205e-39
-0.029602883 -0.075145751 0.79700011 1.0144966e-39
-0.028120009 -0.075240016 0.7980001 1.0144966e-39
-0.026600016 -0.075240023 0.7980001 1.0148554e-39
-0.02508002 -0.075240023 0.79800004 9.2158636e-40
-0.023560014 -0.075240016 0.7980001 7.371979e-40
-0.022040015 -0.075240023 0.7980001 4.6097395e-40
-0.02057145 -0.075428605 0.80000007 3.6877832e-40
-0.019047646 -0.075428605 0.80000007 1.8546746e-40
-0.017523838 -0.075428613 0.80000007 1.8618492e-40
-0.016000016 -0.07542859 0.80000001 9.4352228e-41
-0.014476208 -0.07542859 0.80000007 3.6986012e-40
-0.012952406 -0.075428598 0.80000007 6.4573375e-40
-0.0114286 -0.075428613 0.80000007 6.4645962e-40
-0.0099047935 -0.075428613 0.80000007 6.4608968e-40
-0.00838097 -0.07542859 0.80000001 6.442848e-40
-0.0068571656 -0.075428598 0.80000007 6.4464354e-40
-0.005333358 -0.075428605 0.80000007 5.5352551e-40
-0.0038095501 -0.075428613 0.80000007 4.6133268e-40
-0.0022857462 -0.075428613 0.80000007 5.5281224e-40
-0.00076192367 -0.075428598 0.80000001 5.5281365e-40
0.0007599878 -0.075240023 0.7980001 7.3648604e-40
0.0022799799 -0.075240031 0.7980001 8.279628e-40
0.0037999905 -0.075240016 0.7980001 5.5245772e-40
-0.035675239 -0.073627621 0.79700011 8.290362e-40
-0.034157161 -0.073627643 0.79700011 9.2122902e-40
-0.03263906 -0.073627643 0.79700011 1.1045385e-39
-0.031160017 -0.07372003 0.7980001 1.2892857e-39
-0.029640006 -0.073720008 0.7980001 1.1059734e-39
-0.028120013 -0.073720023 0.7980001 9.2301988e-40
-0.026600035 -0.073720053 0.7980001 7.3863143e-40
-0.025080023 -0.07372003 0.7980001 6.4607987e-40
-0.02356003 -0.073720045 0.7980001 5.5316958e-40
-0.02209525 -0.073904783 0.80000001 4.6061521e-40
-0.020571446 -0.07390479 0.80000007 3.6877832e-40
-0.019047642 -0.073904797 0.80000007 2.7730295e-40
-0.017523834 -0.073904805 0.80000007 2.7730295e-40
-0.016000029 -0.073904805 0.80000007 2.7730576e-40
-0.014476205 -0.07390479 0.80000001 4.6133828e-40
-0.012952398 -0.07390479 0.80000001 6.4538202e-40
-0.011428596 -0.073904797 0.80000007 8.3014322e-40
-0.0099047897 -0.073904805 0.80000007 1.0145149e-39
-0.0083809858 -0.073904812 0.80000007 7.3755523e-40
-0.006857147 -0.07390476 0.80000007 4.6169001e-40
-0.0053333393 -0.073904775 0.80000007 4.6133128e-40
-0.003819085 -0.074089579 0.80200011 4.6061521e-40
-0.0022857285 -0.073904783 0.80000007 4.6061521e-40
-0.0007619246 -0.07390479 0.80000007 4.6025648e-40
0.00076189794 -0.073904768 0.80000007 5.5244931e-40
0.0022799762 -0.073720038 0.7980001 6.4464914e-40
0.0037999896 -0.073720023 0.7980001 6.4465475e-40
-0.037100017 -0.071928598 0.79500008 8.2939353e-40
-0.035675257 -0.072109558 0.79700011 9.2087309e-40
-0.034157161 -0.07210955 0.79700011 1.0130645e-39
-0.032639079 -0.072109573 0.79700011 1.2882095e-39
-0.031160021 -0.07220003 0.7980001 1.5640747e-39
-0.029640011 -0.072200015 0.7980001 1.1970928e-39
-0.028120032 -0.072200052 0.7980001 7.3791676e-40
-0.02660002 -0.07220003 0.7980001 5.5424717e-40
-0.025080027 -0.072200038 0.7980001 3.6986432e-40
-0.023560015 -0.072200023 0.7980001 3.6915386e-40
-0.022095257 -0.072380982 0.80000007 3.6878672e-40
-0.020571452 -0.072380982 0.80000007 3.6877832e-40
-0.019095272 -0.072561957 0.80200011 2.7694282e-40
-0.01756764 -0.072561942 0.80200011 3.6877972e-40
-0.016040022 -0.072561942 0.80200011 3.6913985e-40
-0.014512402 -0.072561942 0.80200011 4.6133548e-40
-0.012984783 -0.072561942 0.80200011 5.5353672e-40
-0.011457166 -0.072561949 0.80200005 1.0134401e-39
-0.009929535 -0.072561927 0.80200011 1.3807722e-39
-0.0084019145 -0.072561927 0.80200011 8.2903199e-40
-0.006874301 -0.072561927 0.80200005 2.7801902e-40
-0.0053733499 -0.072923847 0.80600011 3.6949718e-40
-0.0038381128 -0.072923839 0.80600011 3.6878112e-40
-0.0022971539 -0.072742872 0.80400008 3.6842519e-40
-0.0007657216 -0.072742872 0.80400008 3.6842379e-40
0.00076188397 -0.072380982 0.80000007 4.6025788e-40
0.0022857066 -0.07238096 0.80000001 4.6097815e-40
0.0037999859 -0.07220003 0.7980001 7.3720491e-40
-0.037240017 -0.07068003 0.7980001 1.381124e-39
-0.035720021 -0.07068003 0.7980001 1.3814855e-39
-0.034200009 -0.070680015 0.7980001 1.4726007e-39
-0.032639064 -0.070591457 0.79700011 1.3807624e-39
-0.031160006 -0.070680007 0.7980001 1.2882109e-39
-0.029640026 -0.070680045 0.7980001 1.0130631e-39
-0.028120017 -0.07068003 0.7980001 7.3684197e-40
-0.026600024 -0.07068003 0.7980001 5.5317378e-40
-0.025080008 -0.070680015 0.7980001 3.6879653e-40
-0.023619063 -0.07085716 0.80000007 2.7697225e-40
-0.022095254 -0.070857167 0.80000007 2.7695823e-40
-0.02057145 -0.070857175 0.80000007 2.7694282e-40
-0.019095276 -0.071034335 0.80200011 2.7658409e-40
-0.017567644 -0.07103432 0.80200011 3.6877832e-40
-0.016040025 -0.07103432 0.80200011 3.6877832e-40
-0.014512406 -0.07103432 0.80200011 4.6133128e-40
-0.012984788 -0.07103432 0.80200011 5.5352831e-40
-0.011457168 -0.07103432 0.80200011 7.3755943e-40
-0.0099295536 -0.071034327 0.80200011 9.2158776e-40
-0.0084438268 -0.071388595 0.80600011 5.5388424e-40
-0.0069085904 -0.071388595 0.80600011 2.7837915e-40
-0.005373348 -0.071388595 0.80600011 2.7766169e-40
-0.0038381109 -0.071388595 0.80600011 2.7658969e-40
-0.0022971483 -0.071211435 0.80400008 2.7659249e-40
-0.00076573464 -0.071211465 0.80400008 3.6806786e-40
0.00076569588 -0.071211457 0.80400008 5.5209618e-40
0.0022971423 -0.071211435 0.80400008 6.4464914e-40
-0.03876001 -0.069160022 0.7980001 1.7506155e-39
-0.037240017 -0.069160037 0.7980001 1.8420937e-39
-0.035720009 -0.069160014 0.7980001 1.9342893e-39
-0.034157172 -0.069073372 0.79700011 1.9332117e-39
-0.032639056 -0.069073342 0.79700011 1.4736755e-39
-0.031160025 -0.069160037 0.7980001 9.2158636e-40
-0.029640013 -0.069160022 0.7980001 8.2939213e-40
-0.028120017 -0.069160037 0.7980001 6.4500647e-40
-0.026600027 -0.069160037 0.7980001 4.6133828e-40
-0.025080016 -0.069160022 0.7980001 2.7695683e-40
-0.023619061 -0.069333352 0.80000001 2.7696384e-40
-0.022095254 -0.06933336 0.80000007 1.8511853e-40
-0.02057145 -0.069333367 0.80000007 2.7694282e-40
-0.019095259 -0.06950669 0.80200005 2.7658409e-40
-0.017567655 -0.06950672 0.80200011 3.6841958e-40
-0.016040038 -0.06950672 0.80200011 3.6877832e-40
-0.014548574 -0.069680013 0.80400008 4.6097254e-40
-0.013017143 -0.069680005 0.80400002 4.6133268e-40
-0.011485732 -0.069680028 0.80400008 4.6169421e-40
-0.0099542849 -0.069680005 0.80400008 3.7021465e-40
-0.0084228609 -0.069679998 0.80400002 3.7057198e-40
-0.0068914476 -0.069680028 0.80400008 2.7801902e-40
-0.005386679 -0.070026688 0.80800003 1.8546746e-40
-0.0038381175 -0.069853365 0.80600011 9.327463e-41
-0.0022971604 -0.069680028 0.80400008 2.7622956e-40
-0.00076572999 -0.06968002 0.80400008 3.6806505e-40
0.00076571637 -0.069679998 0.80400002 6.4393028e-40
0.0022914072 -0.069506697 0.80200005 8.2831873e-40
0.0038190268 -0.069506697 0.80200005 8.2975366e-40
-0.041747626 -0.067555241 0.79700011 2.2090798e-39
-0.040280007 -0.067640014 0.7980001 2.3927494e-39
-0.038711447 -0.067555264 0.79700011 2.2094343e-39
-0.037240002 -0.067640014 0.7980001 2.1179575e-39
-0.035720024 -0.067640044 0.7980001 2.209793e-39
-0.034157157 -0.067555256 0.79700011 2.3934654e-39
-0.032639075 -0.067555286 0.79700011 1.6573465e-39
-0.031160029 -0.067640044 0.7980001 1.0127044e-39
-0.029640017 -0.067640029 0.7980001 7.3683777e-40
-0.02812002 -0.067640029 0.7980001 5.5281084e-40
-0.026666688 -0.067809559 0.80000007 4.6061942e-40
-0.025142882 -0.067809567 0.80000007 3.6842939e-40
-0.023619076 -0.067809574 0.80000007 3.6879093e-40
-0.022150503 -0.067979082 0.80200005 3.6878532e-40
-0.020622885 -0.06797909 0.80200005 3.6877832e-40
-0.019142875 -0.068148598 0.80400008 4.5989635e-40
-0.017611446 -0.068148591 0.80400008 3.6841958e-40
-0.016080001 -0.068148576 0.80400008 3.6913705e-40
-0.014548588 -0.068148598 0.80400008 4.6097254e-40
-0.01301716 -0.068148591 0.80400008 4.6097395e-40
-0.011485728 -0.068148591 0.80400002 5.5316958e-40
-0.0099543007 -0.068148598 0.80400008 6.4464494e-40
-0.0084228711 -0.068148591 0.80400008 4.6133128e-40
-0.0069085932 -0.068318129 0.80600011 3.6877832e-40
-0.005373348 -0.068318121 0.80600005 2.7694282e-40
-0.0038476347 -0.068487637 0.80800009 1.8510732e-40
-0.0023028667 -0.068318114 0.80600005 2.7658409e-40
-0.00076762988 -0.068318114 0.80600011 3.6770352e-40
0.00076759764 -0.068318136 0.80600011 5.5209338e-40
0.0023028364 -0.068318121 0.80600005 6.4392887e-40
0.0038380788 -0.068318129 0.80600011 8.2867606e-40
-0.041747645 -0.066037178 0.79700011 2.6689789e-39
-0.040280011 -0.066120021 0.7980001 3.1281536e-39
-0.038760018 -0.066120036 0.7980001 2.7600927e-39
-0.037240021 -0.066120036 0.7980001 2.3012712e-39
-0.035720024 -0.066120043 0.7980001 2.5767763e-39
-0.034200016 -0.066120028 0.7980001 2.7597298e-39
-0.032680023 -0.066120036 0.7980001 1.9335705e-39
-0.031160014 -0.066120021 0.7980001 1.1048986e-39
-0.029714305 -0.066285737 0.80000007 7.3648043e-40
-0.028190497 -0.066285752 0.80000007 3.6878252e-40
-0.026666673 -0.066285722 0.80000007 3.6842799e-40
-0.025142867 -0.066285737 0.80000007 3.6879373e-40
-0.023678122 -0.06645146 0.80200011 4.6099356e-40
-0.022150503 -0.066451468 0.80200011 4.6098375e-40
-0.020622885 -0.066451468 0.80200005 5.5280944e-40
-0.019142872 -0.066617161 0.80400008 5.5245071e-40
-0.017611427 -0.066617139 0.80400008 4.6025648e-40
-0.016080014 -0.066617161 0.80400008 3.6913845e-40
-0.014548586 -0.066617161 0.80400008 4.6133408e-40
-0.013017155 -0.066617154 0.80400002 4.6134249e-40
-0.011485729 -0.066617161 0.80400008 6.4502189e-40
-0.009954297 -0.066617154 0.80400008 8.2832434e-40
-0.0084228665 -0.066617154 0.80400002 6.4428621e-40
-0.0069085998 -0.066782899 0.80600011 3.6914125e-40
-0.0053733424 -0.066782869 0.80600011 3.6842659e-40
-0.0038381184 -0.066782899 0.80600011 2.7658689e-40
-0.0022971707 -0.066617176 0.80400008 3.6841958e-40
-0.00076763734 -0.066782884 0.80600011 3.6806225e-40
0.00076760136 -0.066782884 0.80600011 4.6025788e-40
0.0023028448 -0.066782884 0.80600005 4.6062082e-40
0.0038285635 -0.066617154 0.80400008 8.2832574e-40
0.0053599929 -0.066617154 0.80400002 1.1041896e-39
-0.043428589 -0.064761929 0.80000007 2.4874645e-39
-0.041800011 -0.064600013 0.7980001 2.4871044e-39
-0.040280014 -0.064600028 0.7980001 2.5778623e-39
-0.038760018 -0.064600028 0.7980001 2.2098e-39
-0.037240025 -0.064600043 0.7980001 1.8420965e-39
-0.035720009 -0.064600021 0.7980001 1.8410161e-39
-0.03420002 -0.064600036 0.7980001 1.8392225e-39
-0.032680009 -0.064600013 0.7980001 1.2882095e-39
-0.031160019 -0.064600028 0.7980001 7.361217e-40
-0.029714307 -0.064761929 0.80000007 5.5245071e-40
-0.028190499 -0.064761937 0.80000007 2.7623236e-40
-0.026666693 -0.064761937 0.80000007 4.6026629e-40
-0.025142869 -0.064761914 0.80000001 7.3578259e-40
-0.023678117 -0.064923845 0.80200011 5.5247874e-40
-0.0221505 -0.064923845 0.80200011 4.6062923e-40
-0.020622881 -0.064923845 0.80200011 4.6097395e-40
-0.019142849 -0.065085702 0.80400008 4.6133268e-40
-0.017611438 -0.065085731 0.80400008 3.6913845e-40
-0.016080009 -0.065085731 0.80400008 2.7730576e-40
-0.014584782 -0.065247647 0.80600011 3.6950139e-40
-0.013049539 -0.065247647 0.80600005 4.6099356e-40
-0.011514302 -0.06524764 0.80600011 5.5284307e-40
-0.0099790767 -0.065247662 0.80600011 6.4430302e-40
-0.0084438194 -0.06524764 0.80600011 4.6133268e-40
-0.006908596 -0.065247655 0.80600011 3.7022025e-40
-0.0053866855 -0.065409549 0.80800003 2.7731416e-40
-0.0038476319 -0.065409549 0.80800009 2.7659109e-40
-0.0023028769 -0.065247647 0.80600011 3.6841958e-40
-0.00076571788 -0.065085717 0.80400002 3.6806225e-40
0.00076569401 -0.065085739 0.80400008 3.6842239e-40
0.0022971414 -0.065085724 0.80400008 4.6062502e-40
0.0038190184 -0.064923853 0.80200011 6.4466175e-40
0.0053466489 -0.064923838 0.80200011 9.2052417e-40
-0.044952396 -0.063238114 0.80000001 2.4903554e-39
-0.043428589 -0.063238122 0.80000007 2.76442e-39
-0.041904781 -0.063238129 0.80000007 2.3970724e-39
-0.040280014 -0.06308002 0.7980001 2.0275724e-39
-0.038760021 -0.063080035 0.7980001 1.6591486e-39
-0.037333347 -0.063238122 0.80000001 1.2900101e-39
-0.035809539 -0.063238122 0.80000007 1.1052616e-39
-0.034200024 -0.063080035 0.7980001 8.2867606e-40
-0.032680012 -0.06308002 0.7980001 6.4392607e-40
-0.031238126 -0.063238136 0.80000007 3.6877972e-40
-0.029714303 -0.063238114 0.80000007 2.7694422e-40
-0.028190495 -0.063238122 0.80000007 1.8511153e-40
-0.026666692 -0.063238129 0.80000007 6.4429321e-40
-0.025142886 -0.063238136 0.80000007 1.0112821e-39
-0.023678117 -0.063396223 0.80200011 7.3578119e-40
-0.0221505 -0.063396223 0.80200011 4.6062502e-40
-0.020622881 -0.063396223 0.80200011 4.6097395e-40
-0.019095263 -0.063396223 0.80200011 3.6949718e-40
-0.017567644 -0.06339623 0.80200011 2.7802182e-40
-0.016080024 -0.063554317 0.80400008 1.8618632e-40
-0.014548592 -0.063554309 0.80400008 3.7021745e-40
-0.013017147 -0.063554294 0.80400008 4.6170122e-40
-0.011514309 -0.063712418 0.80600011 4.6099216e-40
-0.0099790702 -0.063712418 0.80600011 3.6914686e-40
-0.0084438277 -0.063712411 0.80600011 3.6949718e-40
-0.0069085895 -0.063712411 0.80600011 2.7766449e-40
-0.0053866901 -0.063870512 0.80800009 2.7730996e-40
-0.0038476412 -0.063870512 0.80800009 2.7694702e-40
-0.0023028806 -0.063712426 0.80600011 3.6841958e-40
-0.00076573371 -0.063554309 0.80400008 3.6842098e-40
0.00076571264 -0.063554287 0.80400008 3.6842379e-40
0.0022913998 -0.06339623 0.80200011 3.6878812e-40
0.0038094937 -0.063238136 0.80000007 5.5246612e-40
0.0053199837 -0.063080028 0.7980001 6.4465755e-40
0.0068314145 -0.06300097 0.79700011 5.5246192e-40
0.0083495164 -0.06300097 0.79700011 3.6914546e-40
-0.047880005 -0.061560016 0.7980001 2.674032e-39
-0.046476215 -0.061714329 0.80000007 2.581486e-39
-0.044952411 -0.061714333 0.80000007 2.4896576e-39
-0.043428585 -0.061714314 0.80000001 2.3970934e-39
-0.041904781 -0.061714314 0.80000007 2.0279451e-39
-0.040280018 -0.061560031 0.7980001 1.7509953e-39
-0.038760025 -0.061560042 0.7980001 1.3822086e-39
-0.037333366 -0.061714333 0.80000007 1.0119967e-39
-0.035809539 -0.06171431 0.80000001 7.3684898e-40
-0.034285735 -0.061714318 0.80000007 5.5245491e-40
-0.032761928 -0.061714325 0.80000007 4.6061381e-40
-0.031238126 -0.061714329 0.80000007 3.6913845e-40
-0.02971432 -0.061714336 0.80000007 3.6913845e-40
-0.028190495 -0.061714314 0.80000001 2.7802182e-40
-0.026666692 -0.061714318 0.80000007 4.6097675e-40
-0.025205752 -0.061868623 0.80200011 7.3576857e-40
-0.023678131 -0.061868619 0.80200011 5.5245912e-40
-0.022150515 -0.061868623 0.80200011 4.6097815e-40
-0.020622881 -0.061868604 0.80200011 3.6913845e-40
-0.019142859 -0.062022857 0.80400008 3.6913985e-40
-0.017611446 -0.06202288 0.80400008 3.6985732e-40
-0.016120009 -0.062177159 0.80600011 3.7057478e-40
-0.014584784 -0.062177181 0.80600011 4.6241028e-40
-0.013049527 -0.062177151 0.80600011 5.5424577e-40
-0.011514301 -0.06217717 0.80600011 5.5316958e-40
-0.0099790627 -0.06217717 0.80600011 5.5209338e-40
-0.0084647853 -0.062331468 0.80800009 4.6097395e-40
-0.0069257352 -0.06233146 0.80800009 3.6913985e-40
-0.0053866808 -0.062331449 0.80800003 2.7730435e-40
-0.00384763 -0.062331446 0.80800003 1.8510872e-40
-0.002302876 -0.062177174 0.80600011 2.7694282e-40
-0.00076572626 -0.062022872 0.80400002 3.6878112e-40
0.00076378108 -0.061868612 0.80200011 3.6878252e-40
0.0022913998 -0.061868615 0.80200011 4.6062362e-40
0.0038095114 -0.061714303 0.80000007 5.5318079e-40
0.0053199795 -0.061560035 0.7980001 6.4501628e-40
0.0068314136 -0.06148288 0.79700011 5.5282065e-40
0.0083495127 -0.061482884 0.79700011 4.6170122e-40
0.0098676095 -0.061482877 0.79700011 4.6169982e-40
-0.047880005 -0.060040019 0.7980001 2.8569813e-39
-0.046592392 -0.060340967 0.80200005 2.8562653e-39
-0.044952411 -0.060190517 0.80000007 2.397808e-39
-0.043320026 -0.060040042 0.7980001 1.9357523e-39
-0.041800018 -0.060040027 0.7980001 1.7506366e-39
-0.040280018 -0.060040034 0.7980001 1.4740469e-39
-0.03876001 -0.060040019 0.7980001 1.105979e-39
-0.037240017 -0.060040027 0.7980001 6.4500787e-40
-0.035809543 -0.060190506 0.80000007 4.6062082e-40
-0.034200009 -0.060040019 0.7980001 1.8511013e-40
-0.032761913 -0.060190491 0.80000007 2.7658409e-40
-0.031238111 -0.060190499 0.80000007 3.6878112e-40
-0.029788597 -0.060340989 0.80200005 3.6878392e-40
-0.028260967 -0.060340971 0.80200011 3.6914125e-40
-0.026733346 -0.060340974 0.80200011 3.6878252e-40
-0.025268573 -0.060491428 0.80400002 3.6878392e-40
-0.02373716 -0.06049145 0.80400008 3.6878532e-40
-0.022205729 -0.060491443 0.80400008 3.6878252e-40
-0.020674283 -0.060491424 0.80400002 3.6842098e-40
-0.019142872 -0.060491446 0.80400008 3.6913845e-40
-0.017611442 -0.060491443 0.80400008 4.6169141e-40
-0.016120018 -0.06064193 0.80600005 5.5388564e-40
-0.014584779 -0.06064193 0.80600011 5.5424577e-40
-0.013049537 -0.060641926 0.80600005 5.5352691e-40
-0.011514299 -0.060641922 0.80600011 6.4464494e-40
-0.010003812 -0.060792387 0.80800003 6.4428621e-40
-0.0084647741 -0.060792405 0.80800003 5.5280944e-40
-0.0069257258 -0.060792401 0.80800003 3.6913845e-40
-0.0054000174 -0.060942888 0.81000012 2.7694422e-40
-0.0038571546 -0.060942881 0.81000012 9.3273228e-41
-0.0023028704 -0.06064193 0.80600011 1.8546606e-40
-0.00076572719 -0.060491443 0.80400008 2.7694562e-40
0.00076380343 -0.060340963 0.80200005 3.6842379e-40
0.0022856852 -0.060190517 0.80000007 4.6097815e-40
0.003799984 -0.060040027 0.7980001 5.5424998e-40
0.0053199758 -0.060040042 0.7980001 6.4536801e-40
0.0068314057 -0.059964791 0.79700011 5.5245772e-40
0.008349509 -0.059964787 0.79700011 4.6133828e-40
0.009867602 -0.059964787 0.79700017 5.5353251e-40
-0.047880024 -0.058520049 0.7980001 2.4881988e-39
-0.046360005 -0.058520004 0.7980001 2.3945682e-39
-0.044840019 -0.058520034 0.7980001 2.0268647e-39
-0.043320011 -0.058520019 0.7980001 1.657006e-39
-0.041800018 -0.058520027 0.7980001 1.3814925e-39
-0.040280003 -0.058520015 0.7980001 1.1970984e-39
-0.038760014 -0.058520019 0.7980001 9.2086749e-40
-0.037240002 -0.058520004 0.7980001 6.4392747e-40
-0.035720006 -0.058520019 0.7980001 4.6061521e-40
-0.034200028 -0.058520049 0.7980001 2.7730295e-40
-0.032680016 -0.05852003 0.7980001 2.7694282e-40
-0.031238111 -0.058666687 0.80000007 3.6842519e-40
-0.029788597 -0.058813367 0.80200011 3.6878812e-40
-0.028260978 -0.058813371 0.80200011 3.6842659e-40
-0.026733359 -0.058813371 0.80200005 4.6025788e-40
-0.025268584 -0.058960017 0.80400008 5.5209338e-40
-0.023737153 -0.058960013 0.80400002 4.6025788e-40
-0.022205727 -0.058960013 0.80400008 3.6842098e-40
-0.020674294 -0.058960013 0.80400008 2.7694282e-40
-0.019142866 -0.058960013 0.80400008 2.7694282e-40
-0.017655255 -0.059106693 0.80600011 5.5280804e-40
-0.016120011 -0.059106685 0.80600005 8.2831593e-40
-0.014584787 -0.059106704 0.80600011 6.4500367e-40
-0.01304953 -0.059106678 0.80600005 4.6097395e-40
-0.011514304 -0.059106696 0.80600011 4.6097254e-40
-0.0099790674 -0.059106696 0.80600011 4.6061381e-40
-0.0084647825 -0.059253369 0.80800003 3.6877832e-40
-0.0069257324 -0.059253365 0.80800009 3.6877832e-40
-0.0054133427 -0.059546687 0.81200004 2.7694282e-40
-0.0038571463 -0.059400007 0.81000012 2.7694282e-40
-0.0023028825 -0.0591067 0.80600011 2.7694282e-40
-0.00076383009 -0.058813363 0.80200011 3.6913985e-40
0.00076188025 -0.058666695 0.80000007 4.6061802e-40
0.0022799845 -0.058520019 0.7980001 5.5281084e-40
0.0037999821 -0.058520034 0.7980001 5.5352551e-40
0.0053199921 -0.058520019 0.7980001 6.453624e-40
0.0068399822 -0.058520023 0.7980001 5.5316958e-40
0.0083599994 -0.058520012 0.7980001 4.6133408e-40
0.009867603 -0.058446694 0.79700011 5.5352831e-40
-0.048000023 -0.057142891 0.80000007 2.2116203e-39
-0.046592399 -0.057285741 0.80200011 1.934316e-39
-0.044952396 -0.057142876 0.80000001 1.6580864e-39
-0.043428585 -0.057142884 0.80000007 1.2889452e-39
-0.041800026 -0.05700003 0.7980001 1.1045511e-39
-0.040280011 -0.057000019 0.7980001 8.2868027e-40
-0.038857173 -0.057142906 0.80000007 7.3576437e-40
-0.037333343 -0.05714288 0.80000001 6.4428761e-40
-0.035809539 -0.057142887 0.80000007 4.6097675e-40
-0.034285735 -0.057142891 0.80000007 2.7694702e-40
-0.032761928 -0.057142898 0.80000007 3.6842519e-40
-0.031316221 -0.057285771 0.80200011 3.6878672e-40
-0.029788593 -0.057285748 0.80200011 3.6878953e-40
-0.028331451 -0.057428606 0.80400008 2.7694842e-40
-0.026800007 -0.057428584 0.80400008 4.6025648e-40
-0.025331449 -0.057571463 0.80600011 6.4393308e-40
-0.023796206 -0.057571456 0.80600005 4.5991036e-40
-0.02220572 -0.057428584 0.80400008 2.7659109e-40
-0.020725744 -0.057571474 0.80600011 1.8510872e-40
-0.019190485 -0.057571448 0.80600011 9.3273228e-41
-0.017655263 -0.057571471 0.80600011 6.4428621e-40
-0.016120004 -0.057571441 0.80600011 1.1034679e-39
-0.014620968 -0.05771431 0.80800003 7.3613151e-40
-0.013081914 -0.057714306 0.80800009 3.6950139e-40
-0.01154288 -0.057714321 0.80800009 3.6913705e-40
-0.010003828 -0.057714321 0.80800009 2.7694282e-40
-0.0084647899 -0.057714332 0.80800009 2.7694282e-40
-0.0069428594 -0.057857152 0.81000012 2.7694282e-40
-0.0054000099 -0.057857163 0.81000012 3.6913705e-40
-0.0038571481 -0.057857156 0.81000006 3.6877972e-40
-0.002302875 -0.057571456 0.80600011 3.6842098e-40
-0.00076382636 -0.057285745 0.80200011 3.6878112e-40
0.00076189887 -0.057142869 0.80000007 4.6061802e-40
0.0022799785 -0.057000026 0.7980001 5.5280944e-40
0.0037999928 -0.057000011 0.7980001 5.5352551e-40
0.0053199846 -0.057000022 0.7980001 5.5352691e-40
0.0068314192 -0.056928586 0.79700011 5.5352971e-40
0.0083495006 -0.056928609 0.79700011 4.6169561e-40
0.0098676132 -0.056928582 0.79700011 5.5424998e-40
-0.049523827 -0.055619076 0.80000007 1.8428518e-39
-0.048120018 -0.055758126 0.80200011 1.6577417e-39
-0.046592399 -0.055758126 0.80200011 1.4726288e-39
-0.044952415 -0.055619091 0.80000007 1.2885906e-39
-0.043428589 -0.055619076 0.80000001 1.1034805e-39
-0.041904781 -0.055619076 0.80000007 9.198039e-40
-0.040380973 -0.055619083 0.80000007 8.2760547e-40
-0.038857173 -0.055619083 0.80000007 6.4428901e-40
-0.037333366 -0.055619095 0.80000007 5.5281365e-40
-0.035809543 -0.055619076 0.80000001 4.6097815e-40
-0.034285735 -0.055619076 0.80000001 2.7695123e-40
-0.032761928 -0.055619087 0.80000007 2.7695403e-40
-0.031316221 -0.055758148 0.80200011 2.7731276e-40
-0.029862877 -0.055897173 0.80400008 2.7695403e-40
-0.028331432 -0.055897146 0.80400008 3.6878392e-40
-0.026800001 -0.055897146 0.80400002 4.6061381e-40
-0.025331447 -0.056036219 0.80600011 5.5210319e-40
-0.023796203 -0.056036208 0.80600005 3.6844341e-40
-0.022260966 -0.056036204 0.80600011 2.7623937e-40
-0.02072574 -0.056036226 0.80600011 2.7694562e-40
-0.019190485 -0.056036197 0.80600011 2.7730435e-40
-0.017655259 -0.056036219 0.80600011 5.5280944e-40
-0.01616003 -0.056175277 0.80800003 8.2796701e-40
-0.014620976 -0.056175273 0.80800009 5.5318639e-40
-0.013081925 -0.056175269 0.80800009 3.7022305e-40
-0.011571439 -0.056314304 0.81000012 2.7730155e-40
-0.010028576 -0.056314297 0.81000012 2.7658409e-40
-0.0084857112 -0.05631429 0.81000012 2.7694282e-40
-0.006942864 -0.056314301 0.81000006 2.7694282e-40
-0.0054133511 -0.056453362 0.8120001 2.7730155e-40
-0.0038571565 -0.056314312 0.81000012 2.7694422e-40
-0.0023028704 -0.056036208 0.80600011 2.7694562e-40
-0.0007619246 -0.05561908 0.80000007 3.6842239e-40
0.00075998454 -0.055480022 0.7980001 4.6061661e-40
0.002277123 -0.055410504 0.79700011 5.5245071e-40
0.0037952231 -0.055410501 0.79700011 6.4464354e-40
0.0053133206 -0.055410497 0.79700011 7.3648184e-40
0.0068314131 -0.055410501 0.79700011 6.4464774e-40
0.0083495127 -0.055410493 0.79700011 6.4429181e-40
0.0098675927 -0.055410516 0.79700011 5.5353531e-40
-0.049523827 -0.054095272 0.80000007 1.1056441e-39
-0.048000004 -0.054095246 0.80000007 1.103849e-39
-0.046592411 -0.054230526 0.80200011 1.0120093e-39
-0.044952396 -0.054095261 0.80000007 9.1945218e-40
-0.043428589 -0.054095268 0.80000007 8.2761528e-40
-0.041904785 -0.054095276 0.80000007 8.2761248e-40
-0.040380962 -0.054095253 0.80000007 7.3613431e-40
-0.038857155 -0.054095261 0.80000007 6.4429601e-40
-0.037333351 -0.054095261 0.80000007 4.6062642e-40
-0.035809543 -0.054095268 0.80000007 3.6879233e-40
-0.03428572 -0.054095246 0.80000001 2.7732537e-40
-0.032761913 -0.054095253 0.80000007 2.7733518e-40
-0.031316202 -0.054230496 0.80200005 1.8548708e-40
-0.029788606 -0.054230526 0.80200011 2.7695123e-40
-0.028401921 -0.054500975 0.80600011 3.6914125e-40
-0.02686668 -0.054500967 0.80600011 3.6913705e-40
-0.025331452 -0.05450099 0.80600011 3.6878532e-40
-0.023796197 -0.05450096 0.80600005 3.6843219e-40
-0.022260973 -0.054500982 0.80600011 2.7659249e-40
-0.02077716 -0.054636218 0.80800009 3.6842239e-40
-0.019238124 -0.054636233 0.80800009 3.6949858e-40
-0.017699072 -0.054636229 0.80800009 4.6169281e-40
-0.016160024 -0.054636225 0.80800009 4.6169702e-40
-0.014620965 -0.054636214 0.80800003 3.7058319e-40
-0.013081915 -0.05463621 0.80800003 2.7802602e-40
-0.011571431 -0.054771431 0.81000012 2.7730295e-40
-0.010028569 -0.054771423 0.81000012 2.7694422e-40
-0.0084857196 -0.054771435 0.81000006 2.7658409e-40
-0.0069428557 -0.054771427 0.81000006 1.8582479e-40
-0.0054000109 -0.054771446 0.81000012 1.8618352e-40
-0.0038571612 -0.054771457 0.81000012 1.8582759e-40
-0.0023028778 -0.054500986 0.80600011 2.7730576e-40
-0.00076383847 -0.054230522 0.80200011 2.7694702e-40
0.00075997895 -0.053960025 0.7980001 3.6878252e-40
0.0022771244 -0.053892415 0.79700011 4.6133408e-40
0.003795237 -0.053892389 0.79700011 6.4464494e-40
0.0053133164 -0.053892408 0.79700011 8.2831873e-40
0.0068314141 -0.053892408 0.79700011 8.2760267e-40
0.0083494959 -0.05389243 0.79700011 7.3612591e-40
0.0098676067 -0.053892404 0.79700011 5.5317378e-40
0.021729512 -0.049767636 0.73600006 1.622139e-38
0.023068568 -0.049632385 0.73400009 1.6131368e-38
0.024466664 -0.049632382 0.73400009 1.6043113e-38
0.025864756 -0.049632393 0.73400009 1.6963613e-38
-0.051175248 -0.052702874 0.80200005 1.1052756e-39
-0.04952383 -0.052571461 0.80000007 1.0120037e-39
-0.048000026 -0.052571468 0.80000007 9.2016684e-40
-0.046592411 -0.052702904 0.80200011 9.1944938e-40
-0.045064796 -0.052702904 0.80200011 8.2761388e-40
-0.043537177 -0.052702904 0.80200011 8.2761528e-40
-0.04200954 -0.052702889 0.80200011 7.3613852e-40
-0.040380977 -0.052571468 0.80000007 5.5246752e-40
-0.038857155 -0.052571446 0.80000007 4.6063203e-40
-0.037426688 -0.052702889 0.80200011 2.7696244e-40
-0.035899069 -0.052702896 0.80200005 3.6915807e-40
-0.034285735 -0.052571464 0.80000007 4.6137051e-40
-0.032761931 -0.052571472 0.80000007 3.6955183e-40
-0.031316202 -0.052702878 0.80200005 2.7804985e-40
-0.029862868 -0.05283431 0.80400008 2.7730716e-40
-0.028401928 -0.052965753 0.80600011 3.6913985e-40
-0.026866671 -0.052965723 0.80600011 3.6913705e-40
-0.025331447 -0.052965745 0.80600011 4.6097395e-40
-0.023855256 -0.05309717 0.80800009 3.6913845e-40
-0.022316217 -0.053097188 0.80800009 2.7694562e-40
-0.020777168 -0.053097181 0.80800009 3.6913985e-40
-0.019238098 -0.053097151 0.80800003 4.6169281e-40
-0.017699061 -0.053097166 0.80800003 4.6205154e-40
-0.016160013 -0.053097159 0.80800003 4.6241028e-40
-0.014657146 -0.053228579 0.81000012 3.7021605e-40
-0.013114285 -0.053228568 0.81000012 2.7730435e-40
-0.011571434 -0.053228579 0.81000006 2.7694562e-40
-0.010028568 -0.053228572 0.81000006 3.6842098e-40
-0.0084857251 -0.053228594 0.81000012 2.7730155e-40
-0.0069428761 -0.053228602 0.81000012 1.8654225e-40
-0.0054000136 -0.053228594 0.81000012 2.7837775e-40
-0.0038476272 -0.053097155 0.80800009 2.7873928e-40
-0.0023028713 -0.052965738 0.80600011 2.7802462e-40
-0.00076383847 -0.052702904 0.80200011 2.7730716e-40
0.00075999525 -0.052440003 0.7980001 4.6133688e-40
0.0022799762 -0.05244004 0.7980001 5.5424717e-40
0.0037952161 -0.052374322 0.79700011 6.453638e-40
0.02172951 -0.048365731 0.73600006 1.6501548e-38
0.023131412 -0.048365742 0.73600012 1.6869642e-38
0.024533311 -0.048365738 0.73600006 1.7240218e-38
0.025935235 -0.04836572 0.73600006 1.7794107e-38
0.027337139 -0.04836572 0.73600006 1.8440195e-38
-0.051047634 -0.051047646 0.80000007 8.2975927e-40
-0.049523827 -0.051047653 0.80000007 8.290418e-40
-0.048000026 -0.051047653 0.80000007 8.2832434e-40
-0.046592411 -0.051175278 0.80200011 7.3613151e-40
-0.045064796 -0.051175281 0.80200011 8.2760968e-40
-0.043537177 -0.051175285 0.80200011 8.2832994e-40
-0.042009544 -0.05117527 0.80200011 6.4430302e-40
-0.040481929 -0.051175267 0.80200011 3.6915386e-40
-0.03895431 -0.051175267 0.80200011 2.765995e-40
-0.037426692 -0.051175274 0.80200011 9.3644572e-41
-0.035899069 -0.051175274 0.80200011 3.6986853e-40
-0.034285735 -0.051047653 0.80000007 6.4502329e-40
-0.032843836 -0.051175274 0.80200005 4.6100197e-40
-0.031394307 -0.051302891 0.80400008 2.776771e-40
-0.029937161 -0.051430501 0.80600011 3.6914125e-40
-0.028472403 -0.051558129 0.80800009 3.6913845e-40
-0.026933353 -0.051558126 0.80800009 4.6061381e-40
-0.025394315 -0.051558137 0.80800009 4.6133128e-40
-0.023855265 -0.051558137 0.80800009 3.6985591e-40
-0.022316195 -0.051558103 0.80800003 2.7766169e-40
-0.02077716 -0.051558122 0.80800003 3.6877972e-40
-0.019238107 -0.051558115 0.80800009 4.6205014e-40
-0.01769907 -0.051558129 0.80800009 4.6276761e-40
-0.016160021 -0.051558129 0.80800009 4.6241028e-40
-0.014657151 -0.051685728 0.81000006 3.7057478e-40
-0.013114287 -0.051685721 0.81000006 2.7766309e-40
-0.011571443 -0.051685736 0.81000012 3.6842098e-40
-0.010003824 -0.051558122 0.80800003 3.6877972e-40
-0.0084857317 -0.051685736 0.81000012 2.7730155e-40
-0.0069257249 -0.051558111 0.80800009 1.8582479e-40
-0.0053866855 -0.051558129 0.80800009 2.7766028e-40
-0.0038476374 -0.051558122 0.80800009 3.6986292e-40
-0.0023028816 -0.051430512 0.80600011 3.6987133e-40
-0.00076571136 -0.051302854 0.80400002 2.7803023e-40
0.0007618849 -0.051047653 0.80000001 4.6097815e-40
0.0022856907 -0.051047653 0.80000007 6.4536521e-40
0.017690463 -0.047410496 0.74300009 5.8981087e-39
0.019028554 -0.047219068 0.74000007 1.1618108e-38
0.020410471 -0.047155239 0.73900008 1.4207091e-38
0.021759043 -0.047027621 0.73700005 1.6686673e-38
0.023131408 -0.046963841 0.73600006 1.7513218e-38
0.024533322 -0.046963822 0.73600006 1.8343688e-38
0.025935227 -0.046963818 0.73600006 1.8624581e-38
0.02733713 -0.04696383 0.73600012 1.8900459e-38
-0.051047619 -0.049523812 0.80000007 6.4607847e-40
-0.049523812 -0.049523816 0.80000007 7.371979e-40
-0.048000012 -0.049523819 0.80000007 6.4500507e-40
-0.046592396 -0.049647629 0.80200005 6.4429041e-40
-0.045064777 -0.049647637 0.80200005 6.4465194e-40
-0.043537177 -0.049647667 0.80200011 7.3756784e-40
-0.042009555 -0.049647667 0.80200011 5.5354232e-40
-0.04048194 -0.049647667 0.80200011 4.6206416e-40
-0.038954321 -0.049647667 0.80200011 3.6950839e-40
-0.037520006 -0.049771436 0.80400008 2.7767009e-40
-0.035988573 -0.049771436 0.80400008 3.7021885e-40
-0.034371454 -0.049647652 0.80200011 5.5352971e-40
-0.032925732 -0.049771454 0.80400008 3.6949858e-40
-0.031472411 -0.049895287 0.80600011 2.7766309e-40
-0.029937154 -0.049895257 0.80600011 2.7766169e-40
-0.028472411 -0.050019093 0.80800009 3.6913845e-40
-0.026933344 -0.050019063 0.80800003 3.6949578e-40
-0.025394291 -0.050019056 0.80800009 4.6204874e-40
-0.023914305 -0.050142892 0.81000012 3.7057198e-40
-0.022371443 -0.050142877 0.81000012 2.7873648e-40
-0.02082858 -0.050142873 0.81000012 3.7021325e-40
-0.019285718 -0.050142862 0.81000012 4.6240747e-40
-0.017742869 -0.050142869 0.81000006 4.6204874e-40
-0.016240008 -0.050266676 0.81200004 4.6169141e-40
-0.014657141 -0.050142854 0.81000006 3.6949858e-40
-0.01311431 -0.050142895 0.81000012 3.6913845e-40
-0.011571446 -0.050142884 0.81000012 3.6877832e-40
-0.010003833 -0.050019085 0.80800009 4.6025508e-40
-0.0084647806 -0.050019082 0.80800009 2.7730155e-40
-0.0069257305 -0.050019074 0.80800009 1.8582479e-40
-0.0053866948 -0.050019093 0.80800009 2.7801902e-40
-0.0038476253 -0.050019059 0.80800003 3.6950979e-40
-0.0022971688 -0.049771469 0.80400008 3.6988254e-40
-0.00076572533 -0.049771443 0.80400008 3.7058879e-40
0.00076570612 -0.049771443 0.80400008 4.6133688e-40
0.0022857047 -0.049523827 0.80000007 5.5352971e-40
0.017690469 -0.04599525 0.74300003 5.9928224e-39
0.019105701 -0.045995254 0.74300003 1.1899374e-38
0.020438099 -0.045809522 0.74000007 1.4756341e-38
0.021818085 -0.045747638 0.73900008 1.769832e-38
0.02316284 -0.045623831 0.73700005 1.7882721e-38
0.024533322 -0.045561917 0.73600006 1.8159666e-38
0.02593522 -0.045561928 0.73600012 1.8530959e-38
0.027337126 -0.045561925 0.73600006 1.890011e-38
0.028739046 -0.04556191 0.73600006 1.954369e-38
-0.051047638 -0.048000026 0.80000007 4.6240888e-40
-0.049523812 -0.048000008 0.80000001 5.5352691e-40
-0.048120026 -0.048120037 0.80200005 5.5316958e-40
-0.046708576 -0.048240002 0.80400002 4.6098095e-40
-0.045177162 -0.048240028 0.80400008 5.5282205e-40
-0.043645717 -0.048240006 0.80400008 6.4501908e-40
-0.042114288 -0.048240006 0.80400002 5.5390386e-40
-0.040683832 -0.048360035 0.80600011 4.6206556e-40
-0.039051428 -0.048240006 0.80400008 4.6206416e-40
-0.037519999 -0.048239999 0.80400002 3.7058319e-40
-0.036078114 -0.048360024 0.80600011 3.7093912e-40
-0.034457158 -0.048240021 0.80400008 3.7022025e-40
-0.033007629 -0.04836002 0.80600011 3.6986152e-40
-0.031550486 -0.048480019 0.80800003 2.7766589e-40
-0.030011436 -0.048480012 0.80800003 2.7802182e-40
-0.028542874 -0.048600022 0.81000012 2.7766309e-40
-0.027000023 -0.048600033 0.81000012 3.6913985e-40
-0.025457161 -0.048600025 0.81000012 3.6985732e-40
-0.023914296 -0.048600018 0.81000012 2.7909802e-40
-0.022371436 -0.048600007 0.81000012 1.869122e-40
-0.020880004 -0.04872001 0.8120001 3.7095033e-40
-0.019333333 -0.048719995 0.81200004 4.6206275e-40
-0.017742859 -0.048599999 0.81000006 4.6098235e-40
-0.016280016 -0.048840024 0.81400007 3.6914405e-40
-0.014693337 -0.048720002 0.81200004 3.6878252e-40
-0.0131143 -0.048600022 0.81000012 3.6877972e-40
-0.011571436 -0.048600011 0.81000012 4.6025508e-40
-0.01000384 -0.048480049 0.80800009 4.6025508e-40
-0.0084647713 -0.048480019 0.80800003 2.7694282e-40
-0.0069257212 -0.048480015 0.80800003 9.4348024e-41
-0.0053866836 -0.048480026 0.80800003 1.8690099e-40
-0.0038476347 -0.048480023 0.80800009 2.7802742e-40
-0.0022971493 -0.04824001 0.80400008 3.695126e-40
-0.00076382962 -0.048120033 0.80200005 3.6950559e-40
0.00076378853 -0.048120033 0.80200005 3.6878252e-40
0.0081399949 -0.046620008 0.77700001 4.6170122e-40
0.0096199941 -0.046620011 0.77700001 4.6277321e-40
0.01769047 -0.044580009 0.74300003 6.0817783e-39
0.019079996 -0.044520013 0.74200004 1.2080178e-38
0.020438101 -0.044399995 0.74000001 1.540351e-38
0.021818096 -0.04434 0.73900008 1.8618477e-38
0.023162836 -0.04422003 0.73700011 1.8251861e-38
0.024566654 -0.044220023 0.73700005 1.7885959e-38
0.025970453 -0.044220034 0.73700011 1.8346937e-38
0.027337139 -0.044160008 0.73600006 1.8806844e-38
0.028739044 -0.044160008 0.73600006 1.9907806e-38
-0.051175255 -0.046592411 0.80200011 5.5424577e-40
-0.04952383 -0.046476223 0.80000007 6.4464634e-40
-0.048120018 -0.046592414 0.80200011 4.6133268e-40
-0.046708588 -0.046708595 0.80400008 3.6878812e-40
-0.045177158 -0.046708591 0.80400002 4.6063203e-40
-0.043645728 -0.046708595 0.80400008 5.5211019e-40
-0.042114299 -0.046708591 0.80400008 5.5318779e-40
-0.040683828 -0.046824783 0.80600011 5.5390386e-40
-0.039148603 -0.046824805 0.80600011 5.5390245e-40
-0.037613343 -0.046824779 0.80600011 6.4645121e-40
-0.036078122 -0.046824798 0.80600011 4.6241728e-40
-0.034542862 -0.046824772 0.80600005 3.7022446e-40
-0.03300764 -0.046824791 0.80600011 3.6950699e-40
-0.031550493 -0.046940982 0.80800003 2.7730996e-40
-0.030011447 -0.046940979 0.80800009 3.6914125e-40
-0.028542878 -0.047057167 0.81000012 5.5281365e-40
-0.027000016 -0.047057159 0.81000012 5.5281365e-40
-0.025457149 -0.047057152 0.81000012 5.5281365e-40
-0.023973344 -0.047173347 0.8120001 4.6169421e-40
-0.022426669 -0.047173336 0.81200004 3.6987693e-40
-0.020880008 -0.047173351 0.8120001 3.7025248e-40
-0.019333335 -0.047173336 0.8120001 3.706014e-40
-0.017786691 -0.04717337 0.8120001 3.6915526e-40
-0.016240016 -0.047173359 0.8120001 3.6843079e-40
-0.014620974 -0.04694099 0.80800009 3.6878252e-40
-0.013081919 -0.046940975 0.80800003 4.6061661e-40
-0.011542869 -0.046940971 0.80800003 4.6061381e-40
-0.0099790636 -0.046824787 0.80600011 3.6841958e-40
-0.0084438398 -0.046824809 0.80600011 2.7766028e-40
-0.0069085839 -0.046824783 0.80600011 1.8690099e-40
-0.0053733611 -0.046824798 0.80600011 2.7837775e-40
-0.0038381035 -0.046824768 0.80600011 3.6985732e-40
-0.0022971437 -0.046708576 0.80400002 3.6950139e-40
-0.00076383009 -0.046592414 0.80200011 3.6914125e-40
0.00076378993 -0.046592414 0.80200011 3.6877972e-40
0.0081399865 -0.045140024 0.77700007 6.4500787e-40
0.009595233 -0.045023814 0.7750001 5.5424717e-40
0.011071423 -0.045023818 0.77500004 4.6420954e-40
0.012547609 -0.045023829 0.7750001 8.3191446e-40
0.014899989 -0.043280967 0.74500006 6.4428761e-40
0.016319035 -0.043280967 0.74500006 9.2285313e-41
0.017690457 -0.043164793 0.74300003 6.4562837e-39
0.019079996 -0.043106675 0.74200004 1.2731996e-38
0.020438096 -0.042990476 0.74000007 1.5770148e-38
0.021818092 -0.042932376 0.73900008 1.8803592e-38
0.023162847 -0.042816207 0.73700005 1.8529164e-38
0.024566645 -0.042816214 0.73700011 1.82551e-38
0.025970463 -0.042816207 0.73700005 1.8898675e-38
0.027337136 -0.042758107 0.73600006 1.9541533e-38
0.028739018 -0.042758137 0.73600006 2.0741501e-38
0.030140938 -0.042758115 0.73600006 2.1945071e-38
-0.051302869 -0.045177154 0.80400002 7.382755e-40
-0.049895264 -0.045289561 0.80600011 6.453624e-40
-0.048360024 -0.045289554 0.80600011 4.6169141e-40
-0.046824787 -0.045289554 0.80600011 1.8583039e-40
-0.045289539 -0.045289546 0.80600005 2.7695403e-40
-0.043754302 -0.045289546 0.80600011 3.6915106e-40
-0.042219076 -0.045289569 0.80600011 4.6027189e-40
-0.040784784 -0.045401942 0.80800009 5.5355213e-40
-0.039148595 -0.045289561 0.80600011 7.3723293e-40
-0.037706677 -0.045401923 0.80800003 8.2941735e-40
-0.036167629 -0.045401923 0.80800009 6.4609668e-40
-0.034542877 -0.045289554 0.80600011 3.6987273e-40
-0.033089541 -0.045401931 0.80800009 3.6879653e-40
-0.031550504 -0.045401946 0.80800009 2.7695823e-40
-0.030011455 -0.045401946 0.80800009 5.5210459e-40
-0.028542865 -0.0455143 0.81000012 7.3648884e-40
-0.027000004 -0.045514293 0.81000012 7.3612591e-40
-0.025457153 -0.0455143 0.81000006 7.3684197e-40
-0.023973348 -0.045626685 0.8120001 6.4500647e-40
-0.022426672 -0.04562667 0.8120001 5.5317938e-40
-0.020880014 -0.045626685 0.8120001 4.6063623e-40
-0.019333338 -0.04562667 0.8120001 2.776785e-40
-0.017786676 -0.045626678 0.81200004 2.765981e-40
-0.016240019 -0.045626692 0.8120001 2.7695123e-40
-0.014620963 -0.045401923 0.80800003 4.6097535e-40
-0.013081912 -0.04540192 0.80800009 5.5245071e-40
-0.011514298 -0.045289543 0.80600005 4.6061381e-40
-0.009979059 -0.045289543 0.80600011 2.7730155e-40
-0.0084438343 -0.045289561 0.80600011 2.7837775e-40
-0.0069085774 -0.045289531 0.80600011 2.7837775e-40
-0.0053733527 -0.045289554 0.80600011 3.6913705e-40
-0.0022914594 -0.045064811 0.80200011 3.6914265e-40
-0.00076382823 -0.045064792 0.80200011 3.6914125e-40
0.0066599976 -0.043660007 0.77700001 6.4500928e-40
0.0081399949 -0.043660015 0.77700001 7.372007e-40
0.0095952218 -0.043547638 0.7750001 6.453638e-40
0.011071428 -0.043547623 0.7750001 4.6313054e-40
0.012547595 -0.043547649 0.7750001 8.3155293e-40
0.01495998 -0.042030506 0.74800009 6.4321001e-40
0.016384747 -0.042030495 0.74800009 1.0018303e-40
0.017738067 -0.041861933 0.74500006 6.7357502e-39
0.019105708 -0.041749533 0.74300003 1.3373058e-38
0.020438099 -0.041580953 0.74000001 1.6233273e-38
0.021818092 -0.041524757 0.73900002 1.8989419e-38
0.023162844 -0.041412402 0.73700011 1.8806471e-38
0.02456666 -0.041412391 0.73700005 1.8530244e-38
0.025970455 -0.041412402 0.73700011 1.945075e-38
0.027374277 -0.041412391 0.73700005 2.0280883e-38
0.028778089 -0.041412376 0.73700005 2.1662749e-38
0.030181892 -0.041412398 0.73700011 2.2955273e-38
-0.051302869 -0.043645732 0.80400008 1.0134219e-39
-0.04989526 -0.043754317 0.80600011 1.1963754e-39
-0.04836002 -0.043754309 0.80600011 9.2086749e-40
-0.046824779 -0.043754306 0.80600011 5.5424577e-40
-0.045401935 -0.043862902 0.80800009 5.5388844e-40
-0.043862861 -0.043862864 0.80800003 6.4608687e-40
-0.042323828 -0.043862883 0.80800003 4.6170122e-40
-0.040784772 -0.043862879 0.80800003 3.7096294e-40
-0.039245736 -0.043862894 0.80800003 4.6138453e-40
-0.037706688 -0.04386289 0.80800009 4.6137191e-40
-0.036167637 -0.043862887 0.80800009 3.6952241e-40
-0.034628596 -0.043862902 0.80800009 2.7804424e-40
-0.03308953 -0.043862872 0.80800003 1.8513115e-40
-0.031550478 -0.043862864 0.80800003 1.8477241e-40
-0.030011445 -0.043862879 0.80800003 6.4430863e-40
-0.028613342 -0.044080012 0.81200004 1.0130757e-39
-0.027000008 -0.043971434 0.81000006 9.2123043e-40
-0.025457144 -0.043971431 0.81000006 8.2975366e-40
-0.023973351 -0.044080026 0.8120001 7.3755803e-40
-0.022426676 -0.044080012 0.8120001 7.3684197e-40
-0.020879997 -0.044079997 0.81200004 5.5281365e-40
-0.019333342 -0.044080012 0.8120001 3.6950419e-40
-0.017742861 -0.043971431 0.81000012 3.6878812e-40
-0.016200012 -0.043971442 0.81000006 3.6914265e-40
-0.014620972 -0.04386289 0.80800009 5.5245071e-40
-0.013081919 -0.043862887 0.80800009 8.2759847e-40
-0.011542884 -0.043862902 0.80800009 5.5244931e-40
-0.0099790646 -0.043754313 0.80600011 2.7766028e-40
-0.0084438287 -0.043754313 0.80600011 3.7021325e-40
-0.0069085876 -0.043754309 0.80600011 3.7057198e-40
0.0066599846 -0.042180017 0.77700007 6.4500928e-40
0.0081190439 -0.042071436 0.7750001 8.290362e-40
0.0095704487 -0.041962899 0.77300012 6.4571973e-40
0.011042838 -0.041962888 0.77300012 4.6276901e-40
0.012515214 -0.041962892 0.77300006 7.3863703e-40
0.013571397 -0.040714338 0.75000012 1.0134233e-39
0.014999979 -0.04071432 0.75000012 5.5209058e-40
0.016384741 -0.040605746 0.74800009 9.2296523e-41
0.017785694 -0.040551461 0.7470001 7.3821987e-39
0.019105712 -0.040334292 0.74300003 1.4668089e-38
0.020493316 -0.040280029 0.7420001 1.6876481e-38
0.021847621 -0.040171422 0.74000001 1.8991217e-38
0.023225719 -0.040117133 0.73900008 1.8896878e-38
0.024566652 -0.04000859 0.73700011 1.8709966e-38
0.025970472 -0.040008575 0.73700005 1.9725882e-38
0.027374271 -0.040008597 0.73700011 2.0651458e-38
0.028778085 -0.040008578 0.73700011 2.1942941e-38
-0.051558118 -0.042323839 0.80800009 1.3804191e-39
-0.049895268 -0.042219087 0.80600011 1.7470408e-39
-0.048480008 -0.042323824 0.80800003 1.3789786e-39
-0.04694096 -0.04232382 0.80800003 9.208801e-40
-0.045401923 -0.042323835 0.80800003 9.2124304e-40
-0.043862868 -0.042323828 0.80800009 8.2868587e-40
-0.042323835 -0.042323846 0.80800009 5.5245772e-40
-0.040784784 -0.042323843 0.80800009 1.8512694e-40
-0.039245736 -0.042323839 0.80800009 1.8406336e-40
-0.037706677 -0.042323828 0.80800003 9.2938318e-41
-0.036167629 -0.04232382 0.80800003 9.2215248e-41
-0.034628578 -0.042323817 0.80800009 9.2932713e-41
-0.033089537 -0.042323835 0.80800009 9.2215248e-41
-0.031550489 -0.042323828 0.80800009 9.3661388e-41
-0.030011455 -0.042323843 0.80800009 7.3544628e-40
-0.028472401 -0.042323839 0.80800009 1.2882389e-39
-0.027000016 -0.04242859 0.81000012 1.1052714e-39
-0.025457164 -0.042428605 0.81000012 8.2975927e-40
-0.023973333 -0.042533338 0.81200004 8.3011239e-40
-0.02242668 -0.042533349 0.8120001 8.2867747e-40
-0.020880003 -0.042533338 0.8120001 6.4464914e-40
-0.019333346 -0.042533353 0.8120001 3.6878392e-40
-0.017786684 -0.042533357 0.8120001 3.6842519e-40
-0.016160032 -0.042323858 0.80800009 3.6878112e-40
-0.014620962 -0.042323828 0.80800003 7.3576297e-40
-0.013081911 -0.04232382 0.80800003 1.0116282e-39
-0.011514317 -0.042219095 0.80600011 6.4428621e-40
-0.0099542951 -0.042114295 0.80400008 2.7766028e-40
-0.0084228637 -0.042114295 0.80400002 3.6985451e-40
-0.0068914373 -0.042114299 0.80400008 4.6204874e-40
-0.0053466768 -0.04200954 0.80200005 8.2903199e-40
-0.0038095347 -0.041904781 0.80000001 1.1045441e-39
-0.0022857275 -0.041904788 0.80000007 8.2796701e-40
0.006659992 -0.040700007 0.77700001 7.3613291e-40
0.0081190467 -0.040595241 0.7750001 8.2832154e-40
0.0095333308 -0.040333338 0.7700001 6.4500367e-40
0.010971424 -0.040228583 0.76800001 4.6241308e-40
0.012434277 -0.040228587 0.76800007 6.4608968e-40
0.01360759 -0.039390516 0.75200009 8.290404e-40
0.014999991 -0.039285734 0.75000012 4.5954322e-40
0.016428538 -0.039285768 0.75000012 1.030627e-40
0.017809503 -0.039180987 0.74800009 8.0329406e-39
0.01920856 -0.03912859 0.7470001 1.5950561e-38
0.020520946 -0.038919054 0.74300003 1.7520771e-38
0.021906653 -0.038866684 0.7420001 1.8989061e-38
0.023257123 -0.038761921 0.74000001 1.8987984e-38
0.024633327 -0.038709529 0.73900008 1.8896517e-38
0.026040958 -0.038709514 0.73900002 1.999927e-38
0.027448572 -0.038709525 0.73900002 2.1022046e-38
0.028856179 -0.038709536 0.73900008 2.2223829e-38
-0.051558111 -0.04078478 0.80800003 1.1045665e-39
-0.050019071 -0.040784791 0.80800003 1.3797101e-39
-0.048480019 -0.040784791 0.80800003 1.104198e-39
-0.046940971 -0.040784784 0.80800009 9.2089131e-40
-0.045289535 -0.040683828 0.80600005 1.1045665e-39
-0.043862879 -0.040784795 0.80800009 1.3789856e-39
-0.042323813 -0.040784765 0.80800003 2.2080036e-39
-0.040784772 -0.040784784 0.80800003 2.9391044e-39
-0.039245721 -0.040784776 0.80800003 3.4965774e-39
-0.03780001 -0.040885732 0.81000012 3.9496564e-39
-0.036257152 -0.040885728 0.81000012 4.5110726e-39
-0.034628596 -0.040784802 0.80800009 5.1435207e-39
-0.033089548 -0.040784799 0.80800009 4.7858659e-39
-0.031628575 -0.040885717 0.81000006 4.5042847e-39
-0.030011443 -0.040784784 0.80800003 3.4998564e-39
-0.02854288 -0.04088575 0.81000012 2.483192e-39
-0.027000019 -0.040885739 0.81000012 1.7477723e-39
-0.025457153 -0.040885732 0.81000012 1.0127198e-39
-0.023914291 -0.040885724 0.81000012 9.2051436e-40
-0.022371428 -0.040885713 0.81000012 8.279614e-40
-0.020880006 -0.040986676 0.8120001 6.4428901e-40
-0.019285716 -0.040885717 0.81000006 5.5209338e-40
-0.017699057 -0.04078478 0.80800003 4.6025508e-40
-0.016160009 -0.040784776 0.80800009 3.6877972e-40
-0.014584775 -0.040683828 0.80600005 4.6061521e-40
-0.013049536 -0.040683828 0.80600011 6.4428621e-40
-0.011514312 -0.040683851 0.80600011 4.6097395e-40
-0.0099543063 -0.040582888 0.80400008 3.6913845e-40
-0.0068743075 -0.04048194 0.80200011 3.7057198e-40
0.0051666605 -0.039119054 0.7750001 7.3721051e-40
0.0065999827 -0.038866691 0.7700001 7.3685598e-40
0.0080457097 -0.038765721 0.76800007 7.3613011e-40
0.0094961654 -0.038715273 0.76700002 6.453624e-40
