# .PCD v0.7 - Point Cloud Data file format
VERSION 0.7
FIELDS x y z rgb
SIZE 4 4 4 4
TYPE F F F F
COUNT 1 1 1 1
WIDTH 968
HEIGHT 1
VIEWPOINT 0 0 0 1 0 0 0
POINTS 968
DATA ascii
0.033785716 -0.055785719 0.82500005 1.1035043e-39
0.035442863 -0.055920959 0.82700008 9.1984034e-40
0.037018094 -0.055920951 0.82700002 6.4432684e-40
0.038593337 -0.055920959 0.82700002 4.6065025e-40
0.04016858 -0.055920962 0.82700008 2.7697505e-40
0.041743815 -0.055920955 0.82700002 2.7696944e-40
0.04331905 -0.055920955 0.82700002 2.776827e-40
0.044894289 -0.055920955 0.82700008 3.6987413e-40
0.046469525 -0.055920955 0.82700002 3.695168e-40
0.048044764 -0.055920955 0.82700002 5.5283046e-40
0.049620006 -0.055920959 0.82700002 6.4467437e-40
0.051195242 -0.055920962 0.82700008 5.5248995e-40
0.052770481 -0.055920951 0.82700002 4.6136631e-40
0.054345723 -0.055920962 0.82700002 4.6172084e-40
0.055920962 -0.055920966 0.82700008 4.6171523e-40
0.05749619 -0.055920955 0.82700002 4.613523e-40
0.059071433 -0.055920955 0.82700002 3.6986853e-40
0.060646676 -0.055920951 0.82700008 3.7058039e-40
0.062221907 -0.055920959 0.82700002 3.7021885e-40
0.063951433 -0.056056194 0.82900006 4.6133548e-40
0.065530479 -0.056056194 0.82900006 4.6098095e-40
0.067109525 -0.056056194 0.829 3.6914966e-40
0.068522856 -0.055920959 0.82700002 2.776729e-40
0.070267625 -0.056056194 0.829 4.6170402e-40
0.071846664 -0.056056198 0.82900006 6.4501488e-40
0.073425718 -0.056056201 0.82900006 7.3684898e-40
0.075004756 -0.056056198 0.829 8.290418e-40
0.071779996 -0.052540004 0.77700001 9.2015983e-40
0.073259994 -0.052540004 0.77700001 9.2054659e-40
0.074740008 -0.052540008 0.77700001 7.3726096e-40
0.074650481 -0.051458102 0.76100004 4.6462713e-40
0.076100007 -0.051458109 0.76100004 2.3117431e-39
0.077549532 -0.051458102 0.76100004 4.0544749e-39
0.078479998 -0.051119998 0.75600004 5.9715521e-39
0.079919994 -0.051119991 0.75600004 7.9231181e-39
0.081359997 -0.051120006 0.75600004 6.8882367e-39
0.082690477 -0.051052392 0.75500005 5.9024345e-39
0.083905719 -0.050917149 0.75299996 5.235188e-39
0.08522667 -0.050849535 0.75200003 4.524853e-39
0.086659044 -0.050849535 0.75200009 4.7845318e-39
0.013324758 -0.054082856 0.82300001 7.3722312e-40
0.014892381 -0.054082859 0.82300001 4.613523e-40
0.016419996 -0.053951424 0.82099998 5.5318079e-40
0.018027609 -0.054082848 0.82299995 6.4467437e-40
0.019595234 -0.054082852 0.82300001 6.4540724e-40
0.021162851 -0.054082856 0.82300001 7.3830492e-40
0.022730468 -0.054082852 0.82300001 6.4573795e-40
0.02429809 -0.054082856 0.82300001 5.5391086e-40
0.025865717 -0.054082859 0.82300001 4.6172504e-40
0.027500002 -0.054214288 0.82500005 4.6173625e-40
0.029071426 -0.054214291 0.82500005 4.6174606e-40
0.030642862 -0.054214295 0.82500005 4.6138172e-40
0.032136187 -0.054082852 0.82300001 5.5249275e-40
0.033703804 -0.054082848 0.82300001 7.3617355e-40
0.035357144 -0.054214288 0.82500005 6.4470659e-40
0.036928575 -0.054214291 0.82500005 5.5286129e-40
0.038593337 -0.054345723 0.82700008 4.6065585e-40
0.040168568 -0.054345716 0.82700002 4.6100898e-40
0.041743815 -0.054345716 0.82700002 4.6100337e-40
0.043319054 -0.054345723 0.82700008 4.613593e-40
0.044894289 -0.054345716 0.82700002 4.613551e-40
0.046469528 -0.054345723 0.82700002 3.6916087e-40
0.048044764 -0.054345723 0.82700008 4.6099637e-40
0.049619999 -0.054345712 0.82700002 6.4466876e-40
0.051195245 -0.054345723 0.82700002 6.4502749e-40
0.052770484 -0.05434572 0.82700008 6.4610509e-40
0.054345716 -0.054345712 0.82700002 5.5391086e-40
0.055920955 -0.05434572 0.82700002 4.6242989e-40
0.05749619 -0.05434572 0.82700008 5.5390245e-40
0.059071437 -0.054345727 0.82700008 6.4609248e-40
0.060646672 -0.05434572 0.82700002 6.4608828e-40
0.062221907 -0.05434572 0.82700002 6.4608687e-40
0.063951433 -0.054477144 0.829 5.5317378e-40
0.065372378 -0.054345716 0.82700002 4.6098235e-40
0.066947632 -0.054345723 0.82700002 4.6098516e-40
0.068522871 -0.054345723 0.82700008 3.6986853e-40
0.070267625 -0.054477163 0.82900006 4.6134529e-40
0.071846671 -0.054477155 0.829 5.5281785e-40
0.073425718 -0.054477155 0.82900006 6.4500787e-40
0.070119046 -0.050928574 0.77500004 7.3791676e-40
0.071595244 -0.050928567 0.77500004 8.2867326e-40
0.073071428 -0.050928578 0.77500004 9.2089411e-40
0.074547626 -0.050928574 0.77500004 6.4505552e-40
0.074650474 -0.050008584 0.76100004 3.6846723e-40
0.076100007 -0.050008576 0.76100004 2.1190758e-39
0.07754954 -0.050008576 0.76100004 3.7746048e-39
0.07847999 -0.049679991 0.75599998 9.7740246e-39
0.079920001 -0.049680002 0.75600004 1.5684644e-38
0.081252396 -0.049614292 0.75500005 1.5212695e-38
0.082690477 -0.04961428 0.755 1.4676015e-38
0.083905712 -0.04948286 0.75299996 1.4292513e-38
0.08522667 -0.049417153 0.75200009 1.4025162e-38
0.086428568 -0.049285717 0.75000006 1.2908331e-38
0.014892379 -0.052515239 0.82300001 4.6206416e-40
0.016459998 -0.052515235 0.82300001 5.5389124e-40
0.017983805 -0.052387618 0.82100004 6.4537922e-40
0.019595236 -0.052515239 0.82300001 5.5391366e-40
0.021162855 -0.052515239 0.82300001 4.6207537e-40
0.022730466 -0.052515227 0.82300001 4.6242989e-40
0.024298089 -0.052515235 0.82300001 4.624341e-40
0.025928572 -0.05264286 0.82500005 5.542752e-40
0.0275 -0.05264286 0.82500005 5.5392347e-40
0.029071433 -0.052642867 0.82500005 5.5393048e-40
0.030642863 -0.052642867 0.82500005 5.5357035e-40
0.032136194 -0.052515239 0.82300001 4.6065585e-40
0.033703804 -0.052515231 0.82300001 3.6882035e-40
0.035357147 -0.052642863 0.82500005 3.6917909e-40
0.036928579 -0.05264286 0.82500005 3.6882035e-40
0.038500011 -0.052642871 0.82500011 4.6029572e-40
0.040071432 -0.05264286 0.82500005 5.5248294e-40
0.041743819 -0.052770488 0.82700008 6.4431143e-40
0.043319046 -0.052770481 0.82700002 6.4467016e-40
0.044894293 -0.052770488 0.82700002 5.531934e-40
0.046469536 -0.052770492 0.82700008 3.6916507e-40
0.048044764 -0.052770484 0.82700002 4.6064324e-40
0.049620003 -0.052770481 0.82700002 5.5283466e-40
0.051195245 -0.052770488 0.82700008 7.3686299e-40
0.052770484 -0.052770484 0.82700002 8.2905582e-40
0.05434572 -0.052770484 0.82700002 6.4538342e-40
0.056056187 -0.052898094 0.829 3.6987273e-40
0.057496194 -0.052770481 0.82700002 6.4537642e-40
0.05921429 -0.052898098 0.829 8.2976067e-40
0.060646679 -0.052770488 0.82700008 8.2975787e-40
0.062372394 -0.052898102 0.82900006 8.290418e-40
0.063951433 -0.052898098 0.829 6.4465335e-40
0.065530479 -0.052898102 0.82900006 4.6062642e-40
0.067109525 -0.052898094 0.829 4.6062923e-40
0.068522863 -0.052770488 0.82700002 4.6099076e-40
0.070267625 -0.052898102 0.82900006 4.613523e-40
0.071846664 -0.052898098 0.829 4.6134669e-40
0.073425718 -0.052898105 0.82900006 5.5281785e-40
0.074642852 -0.05264286 0.82500005 5.5318079e-40
0.071779996 -0.049580012 0.77700001 7.3613852e-40
0.07307142 -0.049452379 0.77499998 9.2054799e-40
0.074547619 -0.049452372 0.77499998 6.4470239e-40
0.075337149 -0.049005721 0.76800001 2.7701008e-40
0.076800004 -0.049005724 0.76800001 1.92934e-39
0.077549525 -0.048559062 0.7610001 3.5149876e-39
0.078480005 -0.048240002 0.75600004 1.3481702e-38
0.079920009 -0.048239999 0.75599998 2.3408617e-38
0.081252389 -0.048176184 0.755 2.3417656e-38
0.08269047 -0.048176195 0.755 2.3413343e-38
0.083905712 -0.048048582 0.75300002 2.341764e-38
0.085566662 -0.048176195 0.75500005 2.3411493e-38
0.087004758 -0.048176192 0.75500005 2.1029821e-38
0.014892376 -0.050947618 0.82300001 6.4644701e-40
0.016459998 -0.050947614 0.82300001 6.4571973e-40
0.018027613 -0.05094761 0.82300001 6.4536801e-40
0.019595236 -0.050947614 0.82300001 5.5317938e-40
0.021214286 -0.051071431 0.82500005 5.5282766e-40
0.022785719 -0.051071439 0.82500005 4.6171663e-40
0.024298094 -0.050947621 0.82300001 4.624355e-40
0.025928576 -0.051071435 0.82500005 5.54271e-40
0.027500005 -0.051071439 0.82500005 5.542752e-40
0.029071432 -0.051071435 0.82500005 5.542794e-40
0.030642863 -0.051071435 0.82500005 5.5428221e-40
0.032214284 -0.051071428 0.82500005 4.6137191e-40
0.033703808 -0.050947618 0.82300001 3.6880914e-40
0.035357147 -0.051071439 0.82500005 4.6063483e-40
0.036928583 -0.051071443 0.82500005 4.6028591e-40
0.038500011 -0.051071443 0.82500011 5.5212981e-40
0.040071432 -0.051071428 0.82500005 5.5248014e-40
0.041743819 -0.051195245 0.82700002 6.4430722e-40
0.043319058 -0.051195249 0.82700008 7.3578819e-40
0.044894293 -0.051195245 0.82700002 6.4431423e-40
0.046469528 -0.051195242 0.82700002 4.6064604e-40
0.048044767 -0.051195249 0.82700008 5.5248294e-40
0.049620003 -0.051195245 0.82700002 6.4431423e-40
0.051195242 -0.051195245 0.82700002 7.3686299e-40
0.052770488 -0.051195245 0.82700008 8.2905441e-40
0.054477148 -0.051319055 0.82900006 7.3721471e-40
0.056056187 -0.051319048 0.829 5.5282345e-40
0.057635244 -0.051319063 0.82900006 7.3720771e-40
0.059214298 -0.051319063 0.82900006 9.2159476e-40
0.06079334 -0.051319059 0.829 7.372035e-40
0.06237239 -0.051319059 0.82900006 6.4429461e-40
0.063951433 -0.051319055 0.829 4.6062642e-40
0.065530479 -0.051319059 0.82900006 3.68435e-40
0.067109525 -0.051319059 0.82900006 5.5210879e-40
0.068522863 -0.051195253 0.82700008 7.3578399e-40
0.070267618 -0.051319055 0.82900006 6.4467016e-40
0.071846671 -0.051319055 0.829 5.5318639e-40
0.073425718 -0.051319052 0.82900006 5.5317938e-40
0.075004771 -0.051319052 0.82900006 5.5355073e-40
0.071595237 -0.047976188 0.77499998 7.368742e-40
0.07307142 -0.047976192 0.77499998 1.0134709e-39
0.074066669 -0.047666665 0.77000004 9.2093195e-40
0.075337149 -0.047542863 0.76800001 9.1987817e-40
0.076700002 -0.047480963 0.76700002 2.2088261e-39
0.077753335 -0.047233328 0.76300001 3.5983201e-39
0.078479998 -0.046800002 0.75600004 1.3567616e-38
0.079814292 -0.046738099 0.755 2.341769e-38
0.081252381 -0.046738092 0.755 2.341769e-38
0.082471423 -0.046614297 0.75300002 2.341769e-38
0.083905712 -0.046614297 0.75300002 2.341769e-38
0.085340001 -0.046614297 0.75300002 2.341769e-38
0.086774282 -0.046614289 0.75300002 2.0654374e-38
0.014928575 -0.049500003 0.82500005 7.3756924e-40
0.01646 -0.049380004 0.82300001 6.4536941e-40
0.018027613 -0.049379993 0.82299995 5.5353952e-40
0.019642858 -0.049500003 0.82500005 5.5282906e-40
0.02121429 -0.049500007 0.82500005 5.53192e-40
0.022785719 -0.049500011 0.82500005 5.531976e-40
0.024357144 -0.0495 0.82500005 4.6208097e-40
0.025991434 -0.04962001 0.82700008 5.5463533e-40
0.0275 -0.049500003 0.82500005 5.5463673e-40
0.029071433 -0.049500007 0.82500005 5.5463814e-40
0.030642863 -0.049500007 0.82500011 5.5392207e-40
0.032214291 -0.049500003 0.82500005 4.6137051e-40
0.033785719 -0.049500007 0.82500005 3.6953221e-40
0.035357147 -0.049500007 0.82500005 4.6100618e-40
0.036928579 -0.049500007 0.82500005 5.5248434e-40
0.038500004 -0.049500003 0.82500005 5.5212841e-40
0.040071435 -0.0495 0.82500005 5.5247313e-40
0.04164286 -0.049500003 0.82500005 7.3577278e-40
0.04331905 -0.049620003 0.82700002 8.2797401e-40
0.044894293 -0.049620006 0.82700002 7.3578539e-40
0.046469532 -0.04962001 0.82700008 5.5283466e-40
0.048044764 -0.049620003 0.82700002 6.4431423e-40
0.049620006 -0.04962001 0.82700002 7.3650846e-40
0.051195245 -0.04962001 0.82700008 8.2834396e-40
0.052770481 -0.049619999 0.82700002 8.2870129e-40
0.054477148 -0.049740005 0.82900006 8.2906002e-40
0.056056198 -0.049740013 0.82900006 7.3722172e-40
0.05763524 -0.049740005 0.829 8.2905582e-40
0.059214294 -0.049740009 0.82900006 9.2124584e-40
0.060793336 -0.049740002 0.829 7.3721331e-40
0.06237239 -0.049740009 0.82900006 4.6134809e-40
0.063951433 -0.049739998 0.829 3.6915526e-40
0.065530479 -0.049740002 0.829 1.8512554e-40
0.067109525 -0.049740009 0.82900006 6.4394569e-40
0.068522856 -0.049620003 0.82700002 1.0116464e-39
0.070267625 -0.049740005 0.82900006 8.2797682e-40
0.071846664 -0.049740002 0.829 5.5318499e-40
0.073248565 -0.049620003 0.82700002 5.5282345e-40
0.074823812 -0.049620006 0.82700002 4.6136211e-40
0.071595237 -0.046500005 0.77500004 8.2836217e-40
0.073071428 -0.046500009 0.77500004 1.1049547e-39
0.074066669 -0.046200003 0.77000004 1.2889942e-39
0.075337149 -0.046080008 0.76800001 1.4748414e-39
0.076699995 -0.046020009 0.76700002 2.5718689e-39
0.077753328 -0.045779999 0.76300001 3.7052251e-39
0.078376189 -0.045300007 0.755 1.3588781e-38
0.079814292 -0.045299996 0.75500005 2.3416973e-38
0.081252389 -0.045300003 0.75500005 2.341769e-38
0.08247143 -0.045180012 0.75299996 2.3325854e-38
0.083905719 -0.045180008 0.75299996 2.3417331e-38
0.085340001 -0.045180008 0.75300002 2.341769e-38
0.086774275 -0.045180004 0.75300002 2.0295283e-38
0.014928577 -0.047928583 0.82500005 9.2160317e-40
0.016500007 -0.047928587 0.82500011 8.2940754e-40
0.01807143 -0.047928572 0.82500005 7.3721892e-40
0.019642854 -0.047928575 0.82500005 7.3758326e-40
0.021265713 -0.048044764 0.82700002 7.3794619e-40
0.022785719 -0.047928579 0.82500005 7.3759026e-40
0.024416197 -0.048044771 0.82700008 7.3759306e-40
0.025928576 -0.047928583 0.82500005 7.3831193e-40
0.027500005 -0.047928579 0.82500005 8.2978729e-40
0.02907143 -0.047928579 0.82500005 6.4575477e-40
0.03064286 -0.047928575 0.82500005 5.5356194e-40
0.032214291 -0.047928579 0.82500005 4.6172644e-40
0.033785716 -0.047928579 0.82500005 3.6989515e-40
0.035357147 -0.047928583 0.82500005 4.6137612e-40
0.036928583 -0.047928583 0.82500011 5.5284868e-40
0.038500004 -0.047928575 0.82500005 5.5320181e-40
0.040071432 -0.047928572 0.82500005 6.4502049e-40
0.041642867 -0.047928587 0.82500005 7.3683777e-40
0.043214288 -0.047928583 0.82500005 7.3720631e-40
0.044894289 -0.04804476 0.82700002 6.4502049e-40
0.046469532 -0.048044771 0.82700002 5.5354793e-40
0.048044767 -0.048044771 0.82700002 5.5283326e-40
0.049620014 -0.048044771 0.82700008 6.450317e-40
0.051195242 -0.048044767 0.82700002 6.4467717e-40
0.052770481 -0.048044764 0.82700002 6.4467857e-40
0.054477144 -0.048160955 0.82900006 6.4575617e-40
0.056056194 -0.048160963 0.82900006 7.379504e-40
0.057635237 -0.048160955 0.829 7.3759166e-40
0.05921429 -0.048160955 0.82900006 8.2942155e-40
0.060793329 -0.048160952 0.829 7.3722172e-40
0.06237239 -0.048160955 0.829 6.4574496e-40
0.063951433 -0.048160955 0.82900006 4.613551e-40
0.065530472 -0.048160948 0.829 2.7696524e-40
0.067109525 -0.048160955 0.82900006 5.5246893e-40
0.068522856 -0.048044767 0.82700008 9.1980951e-40
0.070098102 -0.048044764 0.82700002 8.2868868e-40
0.071846671 -0.048160959 0.82900006 7.3721331e-40
0.073248565 -0.048044771 0.82700008 5.5354232e-40
0.074823812 -0.048044764 0.82700002 4.6136911e-40
0.077039994 -0.043919995 0.75599998 4.6121034e-39
0.078376181 -0.043861903 0.75500005 1.4032174e-38
0.079814285 -0.043861911 0.75500005 2.341769e-38
0.081252389 -0.043861903 0.75500005 2.341769e-38
0.08247143 -0.043745723 0.75299996 2.3417331e-38
0.083905719 -0.043745719 0.75299996 2.341769e-38
0.085340008 -0.043745723 0.75299996 2.341769e-38
0.016500002 -0.046357144 0.82500005 1.0134415e-39
0.018071434 -0.046357151 0.82500005 9.2197031e-40
0.019642862 -0.046357155 0.82500005 9.2233465e-40
0.021265717 -0.046469536 0.82700008 9.2197732e-40
0.022785719 -0.046357155 0.82500011 9.2162139e-40
0.02435714 -0.046357144 0.82500005 9.2162839e-40
0.025928574 -0.046357151 0.82500005 1.0141898e-39
0.027500004 -0.046357147 0.82500005 1.013101e-39
0.029071432 -0.046357151 0.82500011 7.3650706e-40
0.03064286 -0.046357147 0.82500005 4.6136491e-40
0.032214288 -0.046357147 0.82500005 3.6989375e-40
0.033785719 -0.046357151 0.82500005 2.7806106e-40
0.035357147 -0.046357147 0.82500005 3.6990076e-40
0.036928575 -0.046357144 0.82500005 4.6173625e-40
0.038500004 -0.046357147 0.82500005 6.4576598e-40
0.040071435 -0.046357155 0.82500005 7.3722312e-40
0.041642863 -0.046357155 0.82500005 7.3684617e-40
0.043214291 -0.046357151 0.82500011 6.4537501e-40
0.044785712 -0.046357147 0.82500005 5.5354372e-40
0.046357151 -0.046357147 0.82500005 4.6171383e-40
0.04804476 -0.046469528 0.82700002 5.5247874e-40
0.049620006 -0.046469525 0.82700002 5.532004e-40
0.051195249 -0.046469536 0.82700008 5.5284447e-40
0.052770481 -0.046469525 0.82700002 4.6173205e-40
0.054477148 -0.046581909 0.829 5.5429061e-40
0.056056194 -0.046581913 0.82900006 6.4612331e-40
0.057635237 -0.046581905 0.829 6.4612051e-40
0.059214287 -0.046581909 0.82900006 6.4539744e-40
0.06079334 -0.046581913 0.82900006 7.3650986e-40
0.062372386 -0.046581913 0.829 8.2906282e-40
0.063951433 -0.046581909 0.82900006 5.5355633e-40
0.065530472 -0.046581905 0.829 2.776813e-40
0.066947624 -0.046469536 0.82700008 5.5246192e-40
0.068522863 -0.046469532 0.82700002 8.2868727e-40
0.070098102 -0.046469532 0.82700002 8.2904881e-40
0.071673349 -0.046469543 0.82700008 8.2940474e-40
0.073248573 -0.046469532 0.82700002 6.4573235e-40
0.074823812 -0.046469536 0.82700002 3.6988674e-40
0.076938093 -0.042423811 0.75500005 5.4544141e-39
0.078168571 -0.042311426 0.75299996 1.4509647e-38
0.079814285 -0.042423815 0.75500005 2.341769e-38
0.081252381 -0.042423803 0.755 2.341769e-38
0.082471423 -0.042311434 0.75299996 2.341769e-38
0.083905712 -0.042311434 0.75299996 2.341769e-38
0.016500004 -0.044785716 0.82500005 1.1981915e-39
0.01807143 -0.044785716 0.82500005 1.107079e-39
0.019690482 -0.044894293 0.82700008 1.0141729e-39
0.021265717 -0.044894293 0.82700002 1.0138156e-39
0.022840956 -0.044894297 0.82700002 8.2978729e-40
0.024416195 -0.044894293 0.82700008 7.3760568e-40
0.025928577 -0.044785723 0.82500005 8.2909505e-40
0.027500005 -0.044785719 0.82500005 9.2019206e-40
0.029071432 -0.044785719 0.82500011 7.3650005e-40
0.030642863 -0.044785716 0.82500005 5.5284027e-40
0.032214291 -0.044785723 0.82500005 4.6137332e-40
0.033785719 -0.044785719 0.82500005 3.6954062e-40
0.035442855 -0.044894286 0.82700002 4.6173625e-40
0.036928579 -0.044785716 0.82500005 5.5357735e-40
0.038500004 -0.044785716 0.82500005 6.4577579e-40
0.040071435 -0.044785719 0.82500005 8.2942716e-40
0.041743815 -0.044894289 0.82700002 7.3757205e-40
0.043214295 -0.044785723 0.82500011 6.4609668e-40
0.044894297 -0.0448943 0.82700008 5.5426119e-40
0.046357151 -0.044785719 0.82500005 4.6279283e-40
0.048044771 -0.044894297 0.82700002 5.5355914e-40
0.04962001 -0.044894297 0.82700008 7.3723293e-40
0.051195242 -0.044894289 0.82700002 7.3723573e-40
0.052770488 -0.044894297 0.82700002 7.3724554e-40
0.054477148 -0.045002863 0.829 8.2980831e-40
0.056056194 -0.045002863 0.82900006 9.216382e-40
0.05763524 -0.04500287 0.82900006 8.2943837e-40
0.05921429 -0.045002859 0.829 8.287153e-40
0.06079334 -0.045002867 0.82900006 8.2870829e-40
0.062372386 -0.045002855 0.829 8.2942716e-40
0.063951433 -0.045002863 0.82900006 5.5392207e-40
0.065530472 -0.045002855 0.829 3.7023426e-40
0.066947624 -0.044894289 0.82700002 5.5317098e-40
0.068522871 -0.044894304 0.82700008 7.3720771e-40
0.070098095 -0.044894286 0.82700002 8.2940894e-40
0.071673341 -0.044894289 0.82700002 9.2159757e-40
0.073248573 -0.044894297 0.82700002 7.3792097e-40
0.074823819 -0.0448943 0.82700008 6.4574636e-40
0.07663238 -0.040822849 0.75200003 6.6446953e-39
0.078064762 -0.040822856 0.75200003 1.5045952e-38
0.079497151 -0.040822864 0.75200009 2.341769e-38
0.081037149 -0.040877141 0.75299996 2.341769e-38
0.082361899 -0.040822856 0.75200009 2.341769e-38
0.016500002 -0.043214284 0.82500005 1.3818751e-39
0.018071435 -0.043214295 0.82500005 1.2904039e-39
0.019690476 -0.04331905 0.82700002 1.1974964e-39
0.021265719 -0.043319058 0.82700008 1.0141842e-39
0.022840953 -0.04331905 0.82700002 7.3831894e-40
0.02441619 -0.043319054 0.82700002 4.6210059e-40
0.025991431 -0.04331905 0.82700008 6.4470239e-40
0.027500005 -0.043214295 0.82500005 7.3652107e-40
0.029071424 -0.043214284 0.82500005 7.3650566e-40
0.03064286 -0.043214291 0.82500005 6.4467857e-40
0.032214291 -0.043214291 0.82500005 5.5249275e-40
0.033785716 -0.043214291 0.82500005 3.6953922e-40
0.035442859 -0.043319054 0.82700002 4.6209078e-40
0.037018105 -0.043319058 0.82700008 5.5392908e-40
0.038593337 -0.04331905 0.82700002 7.3724414e-40
0.040071435 -0.043214299 0.82500005 9.2126125e-40
0.041743815 -0.043319054 0.82700008 7.3757765e-40
0.04331905 -0.04331905 0.82700002 5.5426399e-40
0.044894293 -0.043319058 0.82700002 4.6278582e-40
0.046469532 -0.043319058 0.82700008 3.705958e-40
0.048044764 -0.04331905 0.82700002 6.4538903e-40
0.049620003 -0.04331905 0.82700002 9.2125985e-40
0.051195245 -0.043319054 0.82700008 1.0127436e-39
0.052770484 -0.043319046 0.82700002 1.0134709e-39
0.054477144 -0.043423809 0.829 1.1056749e-39
0.056056187 -0.043423813 0.829 1.1971475e-39
0.057635244 -0.043423828 0.82900006 1.1042316e-39
0.05921429 -0.043423817 0.829 9.2091093e-40
0.06079334 -0.043423824 0.82900006 9.2054379e-40
0.062372386 -0.043423813 0.829 8.2942436e-40
0.063951433 -0.043423817 0.82900006 6.4575196e-40
0.065530486 -0.04342382 0.82900006 3.6988114e-40
0.066947624 -0.043319054 0.82700008 5.5318639e-40
0.068522863 -0.043319054 0.82700002 6.4574215e-40
0.070098095 -0.043319046 0.82700002 8.3013482e-40
0.071673341 -0.043319054 0.82700008 9.2197452e-40
0.073248573 -0.043319046 0.82700002 9.2161999e-40
0.074823804 -0.043319058 0.82700002 9.2091654e-40
0.076632388 -0.039390478 0.75200009 7.8493131e-39
0.078064762 -0.039390475 0.75200003 1.5703508e-38
0.079497144 -0.039390478 0.75200003 2.341769e-38
0.018071434 -0.041642867 0.82500005 1.6581158e-39
0.019642862 -0.041642863 0.82500005 1.4737316e-39
0.021214295 -0.041642874 0.82500011 1.2904179e-39
0.022785719 -0.041642863 0.82500005 1.1063854e-39
0.024357148 -0.04164286 0.82500005 9.2199694e-40
0.025928577 -0.041642867 0.82500005 9.2092074e-40
0.027500004 -0.041642863 0.82500005 9.194746e-40
0.02907143 -0.041642863 0.82500005 8.2834536e-40
0.030642862 -0.041642863 0.82500005 8.2835236e-40
0.032214295 -0.041642871 0.82500005 6.4504711e-40
0.033785723 -0.041642871 0.82500005 4.6173205e-40
0.035442859 -0.041743815 0.82700002 4.6172784e-40
0.037018098 -0.041743815 0.82700002 5.5392347e-40
0.038593337 -0.041743815 0.82700008 7.3723573e-40
0.040168576 -0.041743819 0.82700008 9.2161859e-40
0.041743815 -0.041743819 0.82700002 8.2905862e-40
0.043319054 -0.041743815 0.82700002 7.3757905e-40
0.044894293 -0.041743819 0.82700008 7.3793358e-40
0.046469525 -0.041743815 0.82700002 6.4645822e-40
0.048044767 -0.041743815 0.82700002 1.012724e-39
0.04962001 -0.041743822 0.82700008 1.3807933e-39
0.051195242 -0.041743815 0.82700002 1.3804443e-39
0.052770484 -0.041743815 0.82700002 1.3815317e-39
0.054345727 -0.041743815 0.82700008 1.1982293e-39
0.055920951 -0.041743811 0.82700002 1.0141968e-39
0.057496194 -0.041743815 0.82700002 9.2164101e-40
0.059214287 -0.041844763 0.829 8.2943697e-40
0.060793336 -0.041844767 0.82900006 7.3723153e-40
0.06237239 -0.041844774 0.82900006 6.4575056e-40
0.063951433 -0.041844767 0.829 5.5355213e-40
0.065530479 -0.041844767 0.82900006 3.6988534e-40
0.067109525 -0.041844763 0.829 6.4539603e-40
0.068522863 -0.041743822 0.82700002 9.2197872e-40
0.070098102 -0.041743822 0.82700008 9.2233605e-40
0.071673341 -0.041743807 0.82700002 9.227102e-40
0.073425718 -0.04184477 0.82900006 7.3761829e-40
0.07642857 -0.037857145 0.75000006 7.9465254e-39
0.077857152 -0.037857145 0.75000012 1.4679327e-38
0.079285711 -0.037857145 0.75000006 2.1489145e-38
0.080929525 -0.037958089 0.75200009 2.1946887e-38
0.018071434 -0.040071439 0.82500005 1.9318357e-39
0.019642862 -0.040071439 0.82500005 1.7492507e-39
0.021265717 -0.040168576 0.82700008 1.5659328e-39
0.022785718 -0.040071432 0.82500005 1.4740931e-39
0.024416188 -0.040168568 0.82700002 1.290062e-39
0.025928577 -0.040071443 0.82500005 1.1967916e-39
0.027500007 -0.040071439 0.82500011 1.1042302e-39
0.02907143 -0.040071435 0.82500005 1.0120276e-39
0.03064286 -0.040071432 0.82500005 9.2091233e-40
0.032214288 -0.040071435 0.82500005 7.3724274e-40
0.033785723 -0.040071439 0.82500005 4.6138032e-40
0.035442863 -0.040168576 0.82700002 5.5250116e-40
0.037018102 -0.040168576 0.82700008 5.5321862e-40
0.038593333 -0.040168568 0.82700002 7.3653228e-40
0.040168576 -0.040168572 0.82700002 9.2091233e-40
0.041743815 -0.04016858 0.82700008 9.1982913e-40
0.04331905 -0.040168568 0.82700002 9.2126266e-40
0.044894293 -0.040168572 0.82700002 9.2162139e-40
0.046469528 -0.040168576 0.82700008 9.2090392e-40
0.04804476 -0.040168572 0.82700002 1.3786451e-39
0.049620006 -0.040168576 0.82700002 1.8385442e-39
0.051195242 -0.04016858 0.82700008 1.8385484e-39
0.052770481 -0.040168568 0.82700002 1.7495912e-39
0.05434572 -0.040168568 0.82700002 1.2911382e-39
0.055920951 -0.040168572 0.82700002 7.3904621e-40
0.057496198 -0.04016858 0.82700008 7.3832454e-40
0.059071429 -0.040168568 0.82700002 6.4540164e-40
0.060646676 -0.040168576 0.82700002 5.5248014e-40
0.062372394 -0.040265728 0.82900006 4.613537e-40
0.063797146 -0.040168568 0.82700002 4.6098656e-40
0.065530479 -0.04026572 0.82900006 3.7024127e-40
0.066947624 -0.040168576 0.82700008 8.2835657e-40
0.068522856 -0.040168568 0.82700002 1.1978566e-39
0.070098095 -0.040168568 0.82700002 1.1056665e-39
0.071673341 -0.040168576 0.82700008 9.2093055e-40
0.073425718 -0.040265728 0.82900006 5.5216625e-40
0.076428577 -0.036428578 0.75000006 8.0362001e-39
0.077857144 -0.036428571 0.75000006 1.3761292e-38
0.079285711 -0.036428574 0.75000006 1.9449004e-38
0.080714293 -0.036428571 0.75000012 2.0564673e-38
0.019642863 -0.038500007 0.82500011 1.196814e-39
0.021265713 -0.038593337 0.82700002 8.3161739e-40
0.022785718 -0.038500007 0.82500005 1.2900704e-39
0.024357146 -0.038500007 0.82500005 1.7506814e-39
0.025928574 -0.038500007 0.82500005 1.4733785e-39
0.027499998 -0.0385 0.82500005 1.2889858e-39
0.02907143 -0.038500004 0.82500005 1.1975034e-39
0.030642862 -0.038500004 0.82500005 1.1060239e-39
0.032214295 -0.038500015 0.82500005 9.216326e-40
0.033785723 -0.038500011 0.82500011 8.2908805e-40
0.035357144 -0.038500004 0.82500005 9.2093195e-40
0.036928572 -0.038500004 0.82500005 1.1046043e-39
0.038500007 -0.038500011 0.82500005 1.2886355e-39
0.040168576 -0.038593341 0.82700008 1.4722967e-39
0.041743811 -0.038593337 0.82700002 1.1056623e-39
0.043319054 -0.038593344 0.82700002 7.3904061e-40
0.044894297 -0.038593344 0.82700008 6.4541425e-40
0.046469528 -0.038593337 0.82700002 6.4505412e-40
0.048044764 -0.038593341 0.82700002 2.0243774e-39
0.049620006 -0.038593337 0.82700008 3.3986799e-39
0.051195245 -0.038593337 0.82700002 3.0392286e-39
0.052770484 -0.038593337 0.82700002 2.670816e-39
0.054345723 -0.038593341 0.82700008 1.9339839e-39
0.055920955 -0.038593337 0.82700002 1.1982195e-39
0.05749619 -0.038593337 0.82700002 9.2127387e-40
0.059071437 -0.038593344 0.82700008 6.4432124e-40
0.060646672 -0.038593333 0.82700002 6.4466876e-40
0.062221907 -0.038593337 0.82700002 7.3721051e-40
0.063797146 -0.038593344 0.82700008 9.2158636e-40
0.065530472 -0.03868667 0.82900006 1.1985516e-39
0.067109525 -0.038686667 0.82900006 1.4744406e-39
0.068688579 -0.03868667 0.829 1.84287e-39
0.070267625 -0.03868667 0.82900006 1.1971615e-39
0.021214288 -0.036928579 0.82500005 9.4035535e-41
0.022785716 -0.036928579 0.82500005 1.1038729e-39
0.024357146 -0.036928579 0.82500005 2.1151423e-39
0.025928579 -0.036928587 0.82500005 1.8403561e-39
0.027433334 -0.036839049 0.82300001 1.4733785e-39
0.029000951 -0.036839046 0.82300001 1.3822646e-39
0.030568568 -0.036839046 0.82300001 1.2904291e-39
0.032136194 -0.036839046 0.82300001 1.1978762e-39
0.033703811 -0.036839049 0.82300001 1.1056889e-39
0.035357144 -0.036928575 0.82500005 1.3808423e-39
0.036928579 -0.036928579 0.82500005 1.6567117e-39
0.038500004 -0.036928583 0.82500005 1.8403855e-39
0.040168576 -0.037018105 0.82700002 1.9318385e-39
0.041743819 -0.037018105 0.82700008 1.1992817e-39
0.04331905 -0.037018098 0.82700002 4.6208938e-40
0.044894289 -0.037018098 0.82700002 3.6810429e-40
0.046469528 -0.037018102 0.82700008 2.8132888e-40
0.048044764 -0.037018098 0.82700002 2.5829938e-39
0.049620006 -0.037018102 0.82700002 4.8874894e-39
0.051195245 -0.037018102 0.82700002 4.2482255e-39
0.052770488 -0.037018102 0.82700008 3.5953003e-39
0.054345716 -0.037018094 0.82700002 2.5761093e-39
0.055920962 -0.037018105 0.82700002 1.5644825e-39
0.057496198 -0.037018105 0.82700008 1.1042274e-39
0.059071429 -0.037018102 0.82700002 5.5285148e-40
0.060646672 -0.037018098 0.82700002 7.3651827e-40
0.062221907 -0.037018105 0.82700008 9.2090953e-40
0.063797139 -0.037018094 0.82700002 1.4730001e-39
0.065372378 -0.037018105 0.82700002 1.9350601e-39
0.067109525 -0.037107624 0.82900006 2.2116554e-39
0.068688571 -0.037107617 0.829 2.4842794e-39
0.070267618 -0.03710762 0.82900006 1.2878956e-39
0.075199999 -0.033660963 0.75200009 6.9121947e-39
0.07642857 -0.03357143 0.75000006 5.4511477e-39
0.077857144 -0.033571437 0.75000006 6.8172708e-39
0.079074293 -0.033481918 0.74800003 8.1291832e-39
0.02121429 -0.035357147 0.82500005 6.0622386e-39
0.022675235 -0.035185713 0.82100004 3.7688805e-39
0.024475245 -0.035528582 0.82900006 1.4697729e-39
0.025865715 -0.035271429 0.82300001 1.1042316e-39
0.027433332 -0.035271425 0.82299995 8.3089292e-40
0.029000949 -0.035271425 0.82300001 7.387127e-40
0.030568568 -0.035271421 0.82300001 7.408679e-40
0.032136191 -0.035271425 0.82300001 6.4652408e-40
0.033703811 -0.035271425 0.82300001 6.4724575e-40
0.035357144 -0.035357144 0.82500005 7.3800925e-40
0.036928579 -0.035357151 0.82500005 9.2383824e-40
0.038500007 -0.035357155 0.82500005 1.104645e-39
0.040168576 -0.03544287 0.82700008 1.2868418e-39
0.041743811 -0.035442859 0.82700002 1.9303685e-39
0.043319054 -0.035442863 0.82700002 2.6636204e-39
0.044894297 -0.03544287 0.82700008 4.1459055e-39
0.046469528 -0.035442863 0.82700002 5.7028826e-39
0.048044767 -0.035442863 0.82700002 6.2737029e-39
0.049620006 -0.035442863 0.82700008 6.9319741e-39
0.051195238 -0.035442859 0.82700002 4.434835e-39
0.052770484 -0.035442863 0.82700002 2.0387912e-39
0.05434572 -0.035442866 0.82700008 1.5677055e-39
0.055920955 -0.035442859 0.82700002 1.1953426e-39
0.05749619 -0.035442863 0.82700002 1.0120318e-39
0.059071437 -0.035442863 0.82700008 8.2800624e-40
0.060646679 -0.03544287 0.82700008 1.287904e-39
0.0622219 -0.035442859 0.82700002 1.7470983e-39
0.063797146 -0.035442866 0.82700002 2.3035077e-39
0.065530479 -0.035528578 0.829 2.8563157e-39
0.067271426 -0.035614286 0.83099997 2.1184031e-39
0.068854287 -0.035614293 0.83100003 1.2882627e-39
0.073767625 -0.032228582 0.75200009 7.5618661e-39
0.075200006 -0.032228574 0.75200003 9.3063356e-39
0.07642857 -0.032142855 0.75000006 1.0978837e-38
0.07806477 -0.032228574 0.75200003 1.3195177e-38
0.079497151 -0.032228582 0.75200009 1.5515851e-38
0.0037000005 -0.031820003 0.77700001 6.4394849e-40
0.0051800008 -0.031820003 0.77700001 7.3797001e-40
0.006659999 -0.031819999 0.77700001 1.1979e-39
0.022675233 -0.033621896 0.82099998 6.4390071e-39
0.02429809 -0.033703804 0.82300001 8.4165909e-40
0.025865713 -0.033703808 0.82300001 4.5956424e-40
0.027433336 -0.033703811 0.82300001 9.7982993e-41
0.029000955 -0.033703811 0.82300001 9.2265695e-41
0.030568572 -0.033703811 0.82300001 9.5857223e-41
0.032136191 -0.033703804 0.82300001 9.2274103e-41
0.033785719 -0.033785719 0.82500005 9.4434905e-41
0.035357144 -0.033785716 0.82500005 9.2290918e-41
0.036928583 -0.033785719 0.82500005 9.4804848e-41
0.038500007 -0.033785723 0.82500005 3.6780161e-40
0.040071432 -0.033785712 0.82500005 5.5793539e-40
0.041743815 -0.033867624 0.82700002 2.7555343e-39
0.043319046 -0.033867616 0.82700002 4.8935977e-39
0.044894293 -0.033867624 0.82700002 8.0321657e-39
0.046469528 -0.033867627 0.82700002 1.1059525e-38
0.048044771 -0.033867627 0.82700008 1.0060833e-38
0.049620006 -0.033867616 0.82700002 8.9372504e-39
0.051195242 -0.03386762 0.82700002 4.7034583e-39
0.052770488 -0.033867627 0.82700008 3.7747618e-40
0.05434572 -0.03386762 0.82700002 6.4434366e-40
0.055920955 -0.033867624 0.82700002 8.2801745e-40
0.057496198 -0.033867627 0.82700008 1.0116898e-39
0.059071433 -0.033867616 0.82700002 1.1042526e-39
0.060646672 -0.033867624 0.82700002 1.8393037e-39
0.062221907 -0.033867627 0.82700008 2.4882535e-39
0.063797139 -0.03386762 0.82700002 3.1379206e-39
0.065372385 -0.033867624 0.82700002 3.7732217e-39
0.067271426 -0.034031428 0.83100003 1.9336265e-39
0.068854287 -0.034031436 0.83100003 9.5166383e-41
0.073571429 -0.030714288 0.75000006 6.7314385e-39
0.074999996 -0.030714292 0.75000006 1.1588674e-38
0.07673429 -0.030837148 0.75300002 1.6498354e-38
0.0022142832 -0.030261902 0.77500004 8.279586e-40
0.0036904749 -0.030261902 0.77500004 8.2831453e-40
0.0051799994 -0.030339997 0.77700001 8.287125e-40
0.0066599981 -0.030339995 0.77700001 9.2345709e-40
0.0081400005 -0.030340001 0.77700001 1.0188939e-39
0.0096199997 -0.030340001 0.77700001 1.8482973e-39
0.024298085 -0.032136183 0.82300001 7.5793992e-39
0.025865709 -0.032136187 0.82300001 7.2862153e-39
0.027433332 -0.032136194 0.82300001 7.0903769e-39
0.029000951 -0.032136191 0.82300001 6.9078115e-39
0.03056857 -0.032136191 0.82300001 6.6215486e-39
0.032136194 -0.032136194 0.82300001 6.5376108e-39
0.033785716 -0.032214288 0.82500005 6.5250678e-39
0.035357144 -0.032214291 0.82500005 6.6276779e-39
0.036928579 -0.032214295 0.82500005 6.7091088e-39
0.038500011 -0.032214295 0.82500011 7.1847865e-39
0.040071435 -0.032214291 0.82500005 7.6472416e-39
0.041743815 -0.032292385 0.82700002 8.487442e-39
0.04331905 -0.032292388 0.82700002 9.4291482e-39
0.044894293 -0.032292385 0.82700008 8.4989873e-39
0.046469532 -0.032292385 0.82700002 7.6770893e-39
0.048044767 -0.032292388 0.82700002 6.08822e-39
0.049620006 -0.032292392 0.82700008 4.5022038e-39
0.051195242 -0.032292385 0.82700002 2.6690196e-39
0.052770481 -0.032292385 0.82700002 8.2729999e-40
0.054214288 -0.032214288 0.82500005 1.1038953e-39
0.055785716 -0.032214288 0.82500005 1.3794046e-39
0.057357147 -0.032214291 0.82500005 1.9314966e-39
0.058928583 -0.032214295 0.82500005 2.4828837e-39
0.060499996 -0.032214291 0.82500005 2.7645026e-39
0.062071435 -0.032214291 0.82500005 3.1364983e-39
0.063642859 -0.032214295 0.82500005 2.4889751e-39
0.065214291 -0.032214295 0.82500005 1.9307581e-39
0.066785716 -0.032214284 0.82500005 4.2276908e-39
0.06885428 -0.032448575 0.83099997 6.5251351e-39
0.069285713 -0.029285712 0.75000006 1.3914703e-38
0.070714287 -0.029285716 0.75000006 5.7219683e-39
0.072142862 -0.029285718 0.75000006 6.3673223e-39
0.073571436 -0.029285721 0.75000006 7.0073429e-39
0.074999996 -0.02928571 0.75000006 1.0968866e-38
0.076428562 -0.029285714 0.75000006 1.4957299e-38
0.0036904775 -0.028785715 0.77500004 1.0130701e-39
0.0051799989 -0.028860003 0.77700001 8.3014322e-40
0.0066600014 -0.028860003 0.77700001 6.4793519e-40
0.0081400042 -0.028860005 0.77700001 3.7315457e-40
0.0095952377 -0.028785717 0.77500004 1.5677433e-39
0.011071429 -0.028785717 0.77500004 2.6748237e-39
0.024298092 -0.030568572 0.82300001 1.4191632e-38
0.025865715 -0.030568574 0.82300001 1.4199119e-38
0.027433326 -0.030568562 0.82300001 1.4096541e-38
0.029000945 -0.030568566 0.82300001 1.3643123e-38
0.030568568 -0.03056857 0.82300001 1.3175699e-38
0.032136194 -0.030568574 0.82300001 1.3094988e-38
0.033785723 -0.030642867 0.82500005 1.2899125e-38
0.035357151 -0.030642867 0.82500005 1.3183604e-38
0.036928579 -0.030642865 0.82500005 1.335938e-38
0.038406663 -0.030568566 0.82299995 1.4015499e-38
0.040071435 -0.030642865 0.82500005 1.4651901e-38
0.041642863 -0.030642863 0.82500005 1.4301432e-38
0.043319054 -0.030717159 0.82700008 1.3820371e-38
0.044894289 -0.030717148 0.82700002 9.0406172e-39
0.046469532 -0.030717149 0.82700002 4.1567907e-39
0.048044767 -0.030717151 0.82700008 2.1126901e-39
0.049619999 -0.030717142 0.82700002 9.3723045e-41
0.051195245 -0.030717151 0.82700002 6.4363881e-40
0.052770484 -0.030717153 0.82700008 1.1960923e-39
0.054214284 -0.03064286 0.82500005 1.5637972e-39
0.055785719 -0.030642863 0.82500005 1.933656e-39
0.057357155 -0.030642865 0.82500005 2.8523753e-39
0.058928579 -0.030642869 0.82500011 3.77397e-39
0.0605 -0.030642862 0.82500005 3.7829481e-39
0.062071435 -0.030642865 0.82500005 3.6839156e-39
0.063642867 -0.030642865 0.82500005 1.9347139e-39
0.065214291 -0.030642867 0.82500005 9.6618128e-41
0.060552377 -0.027782867 0.74800003 6.5208485e-39
0.061977148 -0.027782867 0.74800003 1.299604e-38
0.064826667 -0.027782865 0.74800003 2.3417669e-38
0.066162854 -0.027745724 0.74700004 2.2774842e-38
0.067585714 -0.02774572 0.74700004 2.2021051e-38
0.069285713 -0.027857145 0.75000006 1.3529043e-38
0.070714287 -0.027857145 0.75000006 4.9883549e-39
0.072142854 -0.027857142 0.75000006 6.1876085e-39
0.073571436 -0.027857147 0.75000006 7.2885653e-39
0.075000003 -0.027857151 0.75000012 1.0322015e-38
0.006659999 -0.027380001 0.77700001 5.5428921e-40
0.0081190495 -0.027309528 0.77500004 2.7807086e-40
0.0095952395 -0.027309528 0.77500004 1.0134765e-39
0.011071431 -0.027309529 0.77500004 1.7485809e-39
0.027433334 -0.029000953 0.82300001 7.8615338e-39
0.02893047 -0.028930472 0.82099998 8.218481e-39
0.030494278 -0.028930468 0.82099998 8.6905756e-39
0.03205809 -0.02893047 0.82099998 8.5904921e-39
0.033703804 -0.029000945 0.82300001 8.5994562e-39
0.035271429 -0.029000951 0.82300001 8.4046603e-39
0.036839046 -0.029000947 0.82300001 8.2338995e-39
0.038406674 -0.029000955 0.82300001 7.9411696e-39
0.040071435 -0.029071433 0.82500005 7.6746076e-39
0.041642867 -0.029071433 0.82500005 7.3793456e-39
0.043319054 -0.02914191 0.82700002 7.0815613e-39
0.044894289 -0.029141912 0.82700008 5.2476834e-39
0.046469525 -0.029141905 0.82700002 3.4902099e-39
0.048044767 -0.029141907 0.82700002 2.6661567e-39
0.049620003 -0.029141907 0.82700002 1.8403743e-39
0.051195249 -0.029141918 0.82700008 1.8436211e-39
0.052770484 -0.029141907 0.82700002 1.9336602e-39
0.054214284 -0.029071432 0.82500005 2.3960634e-39
0.055650476 -0.029000949 0.82300001 2.9485197e-39
0.05721809 -0.029000947 0.82300001 2.4904269e-39
0.058785707 -0.029000947 0.82300001 2.0280278e-39
0.060353331 -0.029000949 0.82300001 2.8545529e-39
0.061920956 -0.029000953 0.82300001 3.6778087e-39
0.063488573 -0.029000949 0.82300001 6.530055e-39
0.059127614 -0.0263581 0.74799997 9.376727e-39
0.060552377 -0.026358096 0.74800003 1.3823703e-38
0.061977144 -0.026358107 0.74800003 1.8274878e-38
0.063401908 -0.026358105 0.74800003 2.0846296e-38
0.064740002 -0.026322858 0.74700004 2.341769e-38
0.066162854 -0.026322864 0.74700004 2.240463e-38
0.067585714 -0.026322857 0.74699998 2.1385366e-38
0.069100946 -0.026358102 0.74799997 1.3539783e-38
0.07071428 -0.026428569 0.75000006 5.810564e-39
0.072142854 -0.026428575 0.75000006 7.1034636e-39
0.073571436 -0.026428578 0.75000006 8.391645e-39
0.0081190486 -0.025833337 0.77499998 1.8477522e-40
0.0095952321 -0.025833325 0.77499998 5.5140114e-40
0.01104286 -0.025766674 0.77300006 8.2801465e-40
0.012515237 -0.025766667 0.77300006 1.7464004e-39
0.02893047 -0.027366661 0.82100004 2.8617724e-39
0.030494282 -0.027366664 0.82100004 4.0660427e-39
0.032058094 -0.027366661 0.82100004 4.1603949e-39
0.033703804 -0.027433325 0.82299995 4.2511584e-39
0.035357151 -0.027500011 0.82500005 3.6007807e-39
0.036928579 -0.027500005 0.82500011 2.9597161e-39
0.038406666 -0.027433332 0.82300001 1.8397437e-39
0.040071435 -0.027500005 0.82500005 6.5699318e-40
0.041642863 -0.027500007 0.82500005 4.5968195e-40
0.043319058 -0.027566675 0.82700008 2.7958707e-40
0.044894293 -0.027566664 0.82700002 1.5624029e-39
0.046469525 -0.02756667 0.82700002 2.8520179e-39
0.048044771 -0.027566675 0.82700008 3.221843e-39
0.049620006 -0.027566668 0.82700002 3.5927891e-39
0.051195242 -0.02756667 0.82700002 3.1404444e-39
0.052770484 -0.027566671 0.82700008 2.5844162e-39
0.054082856 -0.027433332 0.82300001 3.2301401e-39
0.05565048 -0.027433336 0.82300001 3.8711921e-39
0.057218082 -0.02743333 0.82299995 2.1331308e-39
0.05878571 -0.027433323 0.82300001 2.8677573e-40
0.055 -0.025000004 0.75000012 2.0209288e-39
0.056428567 -0.025000002 0.75000006 3.693705e-39
0.057857148 -0.025000008 0.75000006 1.1223145e-38
0.059285711 -0.024999999 0.75000006 1.8695607e-38
0.060552374 -0.024933333 0.74800003 2.1121779e-38
0.061977141 -0.024933338 0.74800003 2.3417677e-38
0.063401908 -0.024933346 0.74800003 2.3417689e-38
0.064740002 -0.02490001 0.74699998 2.341769e-38
0.066162854 -0.024900002 0.74699998 2.2131993e-38
0.067585722 -0.02490001 0.74700004 2.0729234e-38
0.069100954 -0.024933344 0.74800003 1.3617967e-38
0.070525713 -0.024933329 0.74800003 6.5470192e-39
0.072142862 -0.025000004 0.75000006 8.0243058e-39
0.073571429 -0.025000002 0.75000006 9.4021886e-39
0.0095704813 -0.024294293 0.77300006 3.4969249e-39
0.011000003 -0.024200005 0.77000004 1.3778926e-39
0.012385718 -0.024042862 0.76500005 1.3796862e-39
0.013842856 -0.024042856 0.76499999 1.3801248e-39
0.015159994 -0.02382285 0.75800002 2.2185624e-39
0.016603807 -0.023822855 0.75800002 3.0562081e-39
0.018047618 -0.023822859 0.75800002 3.4199684e-39
0.019439995 -0.023759995 0.75599998 3.7015621e-39
0.02099048 -0.023885719 0.76000005 3.1386984e-39
0.022438094 -0.023885719 0.76000005 2.5797218e-39
0.030494282 -0.025802853 0.82100004 3.8575056e-39
0.032058097 -0.025802858 0.82100004 3.6806576e-39
0.033703808 -0.025865711 0.82300001 3.4901833e-39
0.035357147 -0.025928581 0.82500005 3.1275174e-39
0.036839049 -0.025865715 0.82300001 2.663661e-39
0.038406663 -0.025865704 0.82300001 2.2055443e-39
0.03997428 -0.025865711 0.82300001 1.6534621e-39
0.04164286 -0.025928579 0.82500005 1.7485332e-39
0.043214288 -0.025928581 0.82500011 1.8411002e-39
0.044894293 -0.025991438 0.82700002 2.4868325e-39
0.046469532 -0.025991438 0.82700008 3.1332571e-39
0.04804476 -0.025991431 0.82700002 3.1353983e-39
0.049620006 -0.025991432 0.82700002 3.2290429e-39
0.051071435 -0.025928572 0.82500005 2.9546266e-39
0.05264286 -0.025928576 0.82500005 2.6755482e-39
0.054082856 -0.025865709 0.82300001 2.3971873e-39
0.055650473 -0.025865715 0.82300001 2.1216668e-39
0.051795237 -0.023414284 0.74500006 4.9707041e-39
0.053428575 -0.023508579 0.74800003 7.8212675e-39
0.055 -0.023571432 0.75000006 1.0693714e-38
0.05642857 -0.023571432 0.75000006 1.3556087e-38
0.057857141 -0.02357143 0.75000006 1.7329641e-38
0.059285711 -0.02357143 0.75000006 2.1121803e-38
0.060552381 -0.023508571 0.74799997 2.2223829e-38
0.062142856 -0.023571424 0.75000006 2.3325853e-38
0.063401908 -0.023508582 0.74800003 2.3417328e-38
0.06474001 -0.023477156 0.74700004 2.3417689e-38
0.066162854 -0.02347715 0.74700004 2.1483405e-38
0.067676194 -0.023508575 0.74800003 1.9536798e-38
0.069100954 -0.023508582 0.74800003 1.1416407e-38
0.070525713 -0.023508567 0.74800003 3.3262972e-39
0.072142862 -0.023571435 0.75000012 4.8900356e-39
0.073571429 -0.023571432 0.75000006 6.3723305e-39
0.01235333 -0.022526663 0.76300001 1.0141379e-39
0.013770484 -0.022467632 0.7610001 9.4032732e-41
0.015159999 -0.022379048 0.75800002 8.2804408e-40
0.016603805 -0.022379046 0.75800002 1.5709803e-39
0.018095244 -0.022438103 0.76000005 2.7630509e-39
0.019491423 -0.022379035 0.75800002 3.8744291e-39
0.020935241 -0.02237905 0.75800002 4.4358705e-39
0.022379046 -0.022379046 0.75800002 4.9786075e-39
0.033703808 -0.02429809 0.82300001 2.7608943e-39
0.035357147 -0.024357153 0.82500005 2.5718367e-39
0.036839053 -0.024298096 0.82300001 2.3924719e-39
0.038406666 -0.024298094 0.82300001 2.5736332e-39
0.040168572 -0.02441619 0.82700002 2.6697777e-39
0.041743819 -0.024416197 0.82700002 3.0403538e-39
0.043319054 -0.024416199 0.82700008 3.4094923e-39
0.044894289 -0.024416188 0.82700002 3.4098552e-39
0.046469528 -0.024416193 0.82700002 3.3208924e-39
0.048044767 -0.024416195 0.82700008 3.0486173e-39
0.049620003 -0.024416193 0.82700002 2.7713298e-39
0.051195245 -0.024416195 0.82700002 2.7734962e-39
0.047665723 -0.022054292 0.74700004 2.7695865e-39
0.049088575 -0.022054289 0.74699998 1.561771e-39
0.050376184 -0.021995228 0.74500006 2.9258411e-40
0.051934294 -0.022054289 0.74700004 7.8066029e-39
0.053357143 -0.022054289 0.74700004 1.5294465e-38
0.054853339 -0.022083823 0.74800003 1.9376881e-38
0.056428574 -0.022142865 0.75000012 2.3409057e-38
0.057857145 -0.022142861 0.75000006 2.341769e-38
0.059285711 -0.022142861 0.75000006 2.3417689e-38
0.060552385 -0.022083823 0.74800003 2.3325853e-38
0.061977144 -0.022083819 0.74800003 2.3233299e-38
0.0634019 -0.022083817 0.74800003 2.3324417e-38
0.064826667 -0.022083825 0.74800003 2.341733e-38
0.066251434 -0.022083817 0.74799997 2.0938132e-38
0.067676187 -0.022083815 0.74800003 1.8332567e-38
0.012304764 -0.020990483 0.76000005 1.476544e-39
0.013752384 -0.02099048 0.76000005 6.4393448e-40
0.0152 -0.020990478 0.76000005 1.1963894e-39
0.016647624 -0.020990485 0.76000005 1.7481184e-39
0.01809524 -0.020990483 0.76000005 1.9339404e-39
0.019491429 -0.020935236 0.75800002 2.1173157e-39
0.020990482 -0.020990487 0.76000005 4.7917289e-39
0.0224381 -0.020990487 0.76000005 7.5489686e-39
0.023885718 -0.020990485 0.76000005 8.9383602e-39
0.046242855 -0.020631436 0.74700004 1.0683215e-38
0.047665723 -0.020631427 0.74699998 1.2608231e-38
0.049088579 -0.020631436 0.74700004 1.2258524e-38
0.050511435 -0.020631434 0.74700004 1.1904847e-38
0.051934294 -0.020631436 0.74700004 1.5580811e-38
0.053571429 -0.020714285 0.75000006 1.9376923e-38
0.055000007 -0.020714294 0.75000006 2.1397309e-38
0.056428567 -0.020714285 0.75000006 2.341769e-38
0.057857148 -0.02071429 0.75000006 2.3417331e-38
0.059127621 -0.020659054 0.74800003 2.3325136e-38
0.012304771 -0.019542869 0.76000011 1.9292643e-39
0.013752388 -0.019542867 0.76000005 1.1049084e-39
0.015160001 -0.01949143 0.75800002 1.4740553e-39
0.016669527 -0.019568576 0.76100004 1.841756e-39
0.018095242 -0.019542862 0.76000005 1.1077881e-39
0.019491429 -0.01949143 0.75800002 2.8206316e-40
0.020990485 -0.019542867 0.76000011 5.2487904e-39
0.0224381 -0.019542869 0.76000005 1.0137995e-38
0.023885718 -0.019542865 0.76000005 1.3186904e-38
0.047729529 -0.019234298 0.74800003 2.2384115e-38
0.049154289 -0.019234285 0.74800003 2.2958475e-38
0.050579052 -0.01923429 0.74800003 2.3409417e-38
0.052003812 -0.0192343 0.74800003 2.3417684e-38
0.053571433 -0.019285716 0.75000006 2.3417686e-38
0.054853335 -0.019234292 0.74800003 2.3417687e-38
0.056278102 -0.0192343 0.74800003 2.341697e-38
0.057857148 -0.019285724 0.75000006 2.3324777e-38
0.059127618 -0.019234292 0.74800003 2.323294e-38
0.013716187 -0.018047616 0.75800002 1.2900186e-39
0.015160001 -0.01804762 0.75800002 1.4751385e-39
0.016647626 -0.018095251 0.76000005 1.5673327e-39
0.018095246 -0.018095249 0.76000005 9.2304931e-40
0.019542862 -0.018095249 0.76000005 1.8451037e-40
0.020990482 -0.018095246 0.76000005 2.7732131e-39
0.022438098 -0.018095246 0.76000005 5.4748885e-39
0.02391715 -0.018119058 0.7610001 1.246521e-38
0.025333341 -0.018095251 0.76000005 1.955878e-38
0.026780957 -0.018095251 0.76000005 1.8625712e-38
0.047857143 -0.017857144 0.75000006 2.2958513e-38
0.049154289 -0.017809523 0.74799997 2.3142183e-38
0.050579049 -0.017809531 0.74800003 2.3325854e-38
0.052003812 -0.017809533 0.74800003 2.3325496e-38
0.053428572 -0.017809538 0.74800003 2.3325134e-38
0.054853339 -0.017809527 0.74800003 2.3325131e-38
0.056278095 -0.017809531 0.74800003 2.3324415e-38
0.057702858 -0.017809536 0.74800003 2.3324774e-38
0.016647624 -0.016647628 0.76000011 1.2921906e-39
0.018095242 -0.016647626 0.76000005 7.4010559e-40
0.019542858 -0.016647624 0.76000005 9.4419491e-41
0.020990482 -0.016647626 0.76000005 3.6780722e-40
0.022467624 -0.016669532 0.7610001 6.7426839e-40
0.023917146 -0.01666953 0.76100004 1.1823056e-38
0.025333343 -0.016647631 0.76000011 2.2860549e-38
0.026780957 -0.016647629 0.76000005 2.3142168e-38
0.04928571 -0.016428577 0.75000012 2.3325134e-38
0.05071428 -0.016428575 0.75000006 2.3141463e-38
0.052142862 -0.016428577 0.75000006 2.3232583e-38
0.053571425 -0.016428567 0.75000006 2.323294e-38
0.054853331 -0.016384764 0.74800003 2.323258e-38
0.019542864 -0.015200011 0.76000005 1.8692481e-40
0.020990482 -0.015200009 0.76000005 2.7658409e-40
0.022467624 -0.015220008 0.76100004 3.6784645e-40
0.023917146 -0.01522001 0.76100004 1.1720437e-38
0.025366666 -0.01522 0.76100004 2.295848e-38
0.026816195 -0.015220008 0.76100004 2.3234019e-38
0.020990487 -0.013752396 0.76000011 1.8404514e-40
0.022467623 -0.013770483 0.76100004 1.0958294e-40
0.023979994 -0.013806658 0.76299995 1.1640473e-38
0.025433334 -0.013806664 0.76300001 2.304495e-38
0.026886664 -0.013806663 0.76299995 2.3234019e-38
0.0304181 -0.014096198 0.77900004 2.3324418e-38
0.031901915 -0.014096201 0.7790001 2.3141106e-38
0.022379046 -0.012272382 0.75800002 9.274634e-41
0.028860001 -0.01258 0.77700001 2.3416612e-38
0.0304181 -0.012612388 0.77900004 2.3324415e-38
0.031901915 -0.01261239 0.7790001 2.3140744e-38
