# .PCD v0.7 - Point Cloud Data file format
VERSION 0.7
FIELDS x y z rgb
SIZE 4 4 4 4
TYPE F F F F
COUNT 1 1 1 1
WIDTH 955
HEIGHT 1
VIEWPOINT 0 0 0 1 0 0 0
POINTS 955
DATA ascii
0.028683817 -0.072097167 0.81400007 6.2700455e-39
0.030234294 -0.072097167 0.81400007 6.6366883e-39
0.031784765 -0.07209716 0.81400007 7.0994699e-39
0.033335246 -0.072097175 0.81400007 7.6547596e-39
0.034885719 -0.072097175 0.81400007 6.4544116e-39
0.0364362 -0.072097167 0.81400007 5.348078e-39
0.037986673 -0.07209716 0.81400007 4.6130311e-39
0.03953715 -0.072097175 0.81400007 3.8776087e-39
0.04108762 -0.072097167 0.81400007 2.4885744e-39
0.042638101 -0.07209716 0.81400007 1.1971153e-39
0.044188578 -0.072097175 0.81400007 8.2939073e-40
0.045739058 -0.07209719 0.81400007 5.546045e-40
0.047289532 -0.07209716 0.81400001 6.4608267e-40
0.048840005 -0.07209716 0.81400007 8.3012501e-40
0.050390486 -0.072097175 0.81400007 1.2911074e-39
0.051940959 -0.072097167 0.81400007 1.7506394e-39
0.053491436 -0.07209716 0.81400007 9.2016824e-40
0.055109527 -0.072185718 0.81500012 9.2382003e-41
0.056800954 -0.07236287 0.81700003 1.181449e-38
0.058500011 -0.072540022 0.81900012 2.341769e-38
-0.016240006 -0.070373334 0.8120001 1.566974e-39
-0.014693339 -0.070373334 0.8120001 2.8673804e-39
-0.013146667 -0.070373356 0.8120001 4.1516564e-39
-0.011600001 -0.070373349 0.8120001 4.7930825e-39
-0.010053334 -0.070373349 0.8120001 5.4341317e-39
-0.0085066669 -0.070373349 0.8120001 4.7001596e-39
-0.0069771418 -0.070546694 0.81400007 3.963668e-39
-0.0054266667 -0.070546687 0.81400007 3.9647316e-39
-0.003876186 -0.070546694 0.81400007 3.8736262e-39
-0.0023200039 -0.070373341 0.8120001 3.4137452e-39
-0.00077333231 -0.070373349 0.8120001 2.8613169e-39
0.00077332999 -0.070373334 0.8120001 2.7712947e-39
0.0023199988 -0.070373341 0.81200004 2.6783578e-39
0.0038666683 -0.070373349 0.8120001 2.5854223e-39
0.0053999959 -0.070199989 0.81000012 2.4921575e-39
0.0069428575 -0.070200004 0.81000012 2.4914456e-39
0.008485714 -0.070200004 0.81000012 2.4918114e-39
0.010053332 -0.070373341 0.8120001 2.492896e-39
0.011600002 -0.070373356 0.8120001 2.4921883e-39
0.013146666 -0.070373334 0.8120001 2.4014402e-39
0.014693336 -0.070373349 0.8120001 2.3052803e-39
0.016240003 -0.070373349 0.8120001 1.9311042e-39
0.017786669 -0.070373341 0.8120001 1.5677125e-39
0.019333338 -0.070373364 0.8120001 1.7460067e-39
0.020880004 -0.070373364 0.8120001 1.8450196e-39
0.022481909 -0.070546687 0.81400007 2.5746841e-39
0.023973338 -0.070373356 0.8120001 3.2257975e-39
0.025520006 -0.070373349 0.8120001 3.7775433e-39
0.027133342 -0.070546702 0.81400007 4.3335828e-39
0.028683819 -0.070546694 0.81400007 5.5335469e-39
0.03023429 -0.070546687 0.81400001 6.6363085e-39
0.031784769 -0.070546694 0.81400001 7.0072546e-39
0.033335242 -0.070546694 0.81400007 7.372419e-39
0.034885719 -0.070546694 0.81400007 6.2657043e-39
0.0364362 -0.070546709 0.81400007 5.0718288e-39
0.037986673 -0.070546702 0.81400007 4.521878e-39
0.039537147 -0.070546694 0.81400007 3.9654743e-39
0.04108762 -0.070546687 0.81400007 2.4842598e-39
0.042638101 -0.070546702 0.81400007 1.0130799e-39
0.044188574 -0.070546694 0.81400007 9.1979129e-40
0.045739051 -0.070546687 0.81400007 7.3791676e-40
0.047289535 -0.070546702 0.81400007 7.382769e-40
0.048840012 -0.070546709 0.81400007 7.3864964e-40
0.050390478 -0.070546694 0.81400001 1.2907514e-39
0.051940959 -0.070546687 0.81400007 1.8413945e-39
0.053557143 -0.070633329 0.81500012 1.0105604e-39
0.055109527 -0.070633344 0.81500006 1.0600823e-40
0.056800961 -0.07080669 0.81700009 1.1809467e-38
0.058500003 -0.07098002 0.81900007 2.3408363e-38
0.060060006 -0.07098002 0.81900012 2.341769e-38
-0.016200002 -0.068657137 0.81000012 1.4701162e-39
-0.014729525 -0.068996206 0.81400007 2.5850608e-39
-0.013146665 -0.06882669 0.8120001 3.6914153e-39
-0.011600001 -0.068826668 0.8120001 3.9647918e-39
-0.010053334 -0.068826683 0.8120001 4.2374173e-39
-0.008527617 -0.068996221 0.81400007 3.5012871e-39
-0.006977139 -0.068996228 0.81400007 2.7644326e-39
-0.005426663 -0.068996221 0.81400001 2.6740124e-39
-0.0038761878 -0.068996221 0.81400007 2.6776039e-39
-0.0023200011 -0.068826675 0.81200004 2.3974367e-39
-0.00077332975 -0.06882669 0.8120001 2.118001e-39
0.00077333627 -0.06882669 0.8120001 1.8443036e-39
0.0023200023 -0.06882669 0.8120001 1.6577473e-39
0.0038666695 -0.068826683 0.8120001 1.6606017e-39
0.0053999964 -0.068657137 0.81000006 1.6595311e-39
0.0069428589 -0.068657152 0.81000012 1.5680586e-39
0.0085066678 -0.068826675 0.8120001 1.4755126e-39
0.010053335 -0.068826675 0.8120001 1.3851191e-39
0.011600001 -0.068826668 0.8120001 1.2918472e-39
0.013146668 -0.068826668 0.8120001 1.3843988e-39
0.014693335 -0.068826668 0.8120001 1.4729973e-39
0.016240004 -0.06882669 0.8120001 1.1967635e-39
0.01778667 -0.068826683 0.8120001 8.2761388e-40
0.019333337 -0.068826683 0.8120001 1.1038224e-39
0.020880004 -0.068826683 0.8120001 1.3782555e-39
0.022481916 -0.068996236 0.81400007 1.747394e-39
0.024032386 -0.068996213 0.81400001 2.1140437e-39
0.025582863 -0.068996206 0.81400007 2.4860744e-39
0.027133342 -0.068996221 0.81400007 2.8530675e-39
0.028683821 -0.068996228 0.81400007 3.2279527e-39
0.030234294 -0.068996228 0.81400007 3.6024875e-39
0.031784769 -0.068996228 0.81400007 3.9669765e-39
0.033335239 -0.068996213 0.81400001 4.4293601e-39
0.034885716 -0.068996213 0.81400007 4.1488089e-39
0.036436193 -0.068996213 0.81400007 3.9672665e-39
0.037986673 -0.068996221 0.81400007 3.6002595e-39
0.03953715 -0.068996236 0.81400007 3.2325615e-39
0.04108762 -0.068996228 0.81400007 2.0279409e-39
0.042638101 -0.068996228 0.81400007 8.2796841e-40
0.044188574 -0.068996213 0.81400007 7.371965e-40
0.045739051 -0.068996228 0.81400007 5.546045e-40
0.047289528 -0.068996221 0.81400007 6.464414e-40
0.048840009 -0.068996221 0.81400007 8.2941034e-40
0.050390486 -0.068996228 0.81400007 1.19856e-39
0.051940959 -0.068996228 0.81400007 1.5683963e-39
0.053557146 -0.069080956 0.81500006 8.2867326e-40
0.055109523 -0.069080941 0.81500006 9.2372193e-41
0.056800958 -0.069250494 0.81700009 1.1709738e-38
0.058500007 -0.069420025 0.81900012 2.3234018e-38
0.060060009 -0.069420025 0.81900012 2.3325854e-38
-0.016200004 -0.067114286 0.81000012 1.2903885e-39
-0.014729525 -0.067445733 0.81400007 2.310985e-39
-0.013081909 -0.06694857 0.80800009 3.2293596e-39
-0.011600005 -0.067279994 0.8120001 3.1368262e-39
-0.010078092 -0.067445748 0.81400007 3.0410335e-39
-0.0085276198 -0.067445725 0.81400007 2.302751e-39
-0.0069771409 -0.06744574 0.81400007 1.566974e-39
-0.0054266634 -0.067445748 0.81400007 1.4726119e-39
-0.0038761832 -0.067445762 0.81400007 1.3832918e-39
-0.0023199993 -0.067280017 0.8120001 1.3800674e-39
-0.00077333231 -0.067280017 0.8120001 1.2893165e-39
0.00077333464 -0.067280017 0.8120001 1.0134597e-39
0.0023200007 -0.067280009 0.8120001 6.4682536e-40
0.0038666667 -0.067280009 0.8120001 7.3936991e-40
0.0054133339 -0.067280009 0.8120001 7.3865665e-40
0.0069599999 -0.067280002 0.8120001 6.4574916e-40
0.0085066659 -0.067280002 0.8120001 4.6279844e-40
0.010053336 -0.067280009 0.81200004 2.7948898e-40
0.011599999 -0.067279994 0.81200004 9.5456451e-41
0.013146671 -0.067280024 0.8120001 3.7096014e-40
0.014693336 -0.067280009 0.8120001 6.4646102e-40
0.016240006 -0.067280024 0.8120001 3.7094893e-40
0.017786669 -0.067280009 0.8120001 9.5435432e-41
0.019333338 -0.067280017 0.8120001 5.5532337e-40
0.020880001 -0.067280002 0.8120001 9.2195069e-40
0.022481913 -0.06744574 0.81400007 1.0141463e-39
0.02403239 -0.067445755 0.81400007 1.0145233e-39
0.025582867 -0.067445748 0.81400007 1.1996474e-39
0.027133338 -0.067445725 0.81400007 1.2907753e-39
0.028683817 -0.06744574 0.81400007 9.2272701e-40
0.03023429 -0.067445733 0.81400007 5.5896815e-40
0.031784765 -0.067445733 0.81400007 1.0127618e-39
0.033335242 -0.067445748 0.81400007 1.3851289e-39
0.034885723 -0.067445755 0.81400007 2.1165871e-39
0.036436193 -0.067445733 0.81400007 2.8584275e-39
0.03798667 -0.067445733 0.81400007 2.6790416e-39
0.039537147 -0.06744574 0.81400007 2.3999436e-39
0.04108762 -0.067445755 0.81400007 1.566604e-39
0.042638101 -0.067445748 0.81400007 6.4644701e-40
0.044188574 -0.06744574 0.81400007 5.5424437e-40
0.045739058 -0.067445748 0.81400007 3.7057618e-40
0.047289528 -0.067445733 0.81400007 6.4644561e-40
0.048840005 -0.067445725 0.81400007 8.2976908e-40
0.050390482 -0.06744574 0.81400007 1.1052882e-39
0.051940959 -0.067445748 0.81400007 1.2896612e-39
0.05349144 -0.067445748 0.81400007 7.350441e-40
0.055041913 -0.067445748 0.81400007 1.0205657e-40
0.056661904 -0.067528576 0.81500012 1.1611083e-38
0.058357146 -0.067694284 0.81700009 2.3037431e-38
0.059913341 -0.067694299 0.81700003 2.3234019e-38
-0.016200004 -0.06557142 0.81000012 1.1963978e-39
-0.014657144 -0.065571427 0.81000006 1.937539e-39
-0.013114291 -0.065571435 0.81000012 2.5843503e-39
-0.0116 -0.065733343 0.8120001 2.675125e-39
-0.010078097 -0.065895252 0.81400007 2.7626459e-39
-0.0085276179 -0.065895259 0.81400007 2.0268745e-39
-0.00697714 -0.065895274 0.81400007 1.2896654e-39
-0.0054266653 -0.065895259 0.81400007 1.1970984e-39
-0.0038761897 -0.065895267 0.81400007 1.1041924e-39
-0.0023199974 -0.065733351 0.8120001 1.1049154e-39
-0.00077333418 -0.065733336 0.8120001 1.1971097e-39
0.00077333464 -0.065733351 0.8120001 8.3012641e-40
0.0023199988 -0.065733336 0.8120001 5.5425838e-40
0.0038666676 -0.065733343 0.8120001 5.5425558e-40
0.0054133339 -0.065733343 0.8120001 5.5282486e-40
0.0069599999 -0.065733336 0.81200004 5.5318639e-40
0.0085066715 -0.065733358 0.8120001 5.5246893e-40
0.010053338 -0.065733358 0.8120001 4.6134949e-40
0.011600004 -0.065733351 0.8120001 4.6026909e-40
0.01314667 -0.065733351 0.8120001 5.5389405e-40
0.014693336 -0.065733351 0.8120001 5.5496744e-40
0.016240004 -0.065733343 0.8120001 4.6348787e-40
0.01778667 -0.065733343 0.8120001 3.7272998e-40
0.019333337 -0.065733336 0.8120001 6.4787913e-40
0.020880001 -0.065733336 0.8120001 9.2338702e-40
0.022481911 -0.065895267 0.81400007 1.0148652e-39
0.024032386 -0.065895259 0.81400007 1.1070706e-39
0.025582867 -0.065895274 0.81400007 1.106363e-39
0.02713334 -0.065895267 0.81400007 1.105298e-39
0.028683817 -0.065895267 0.81400007 8.3052017e-40
0.030234288 -0.065895259 0.81400007 5.542724e-40
0.031784769 -0.065895267 0.81400007 9.2123043e-40
0.033335242 -0.065895259 0.81400007 1.2875256e-39
0.034885719 -0.065895267 0.81400007 1.8414365e-39
0.036436196 -0.065895274 0.81400007 2.3945879e-39
0.037986673 -0.065895282 0.81400007 2.2144902e-39
0.039537147 -0.065895259 0.81400007 2.029373e-39
0.041087616 -0.065895252 0.81400007 1.3840008e-39
0.042638101 -0.065895267 0.81400007 8.3083266e-40
0.044188574 -0.065895267 0.81400007 6.4644e-40
0.045739055 -0.065895259 0.81400007 5.5353251e-40
0.047289532 -0.065895267 0.81400007 7.3828391e-40
0.048900008 -0.065976195 0.81500006 1.0138002e-39
0.050390482 -0.065895259 0.81400007 1.1985572e-39
0.051940955 -0.065895252 0.81400007 1.474407e-39
0.053557146 -0.065976202 0.81500012 7.361203e-40
0.055109523 -0.065976188 0.81500012 9.2369391e-41
0.05680095 -0.066138111 0.81700009 1.1612516e-38
0.058357149 -0.066138126 0.81700009 2.3050344e-38
0.059913341 -0.066138119 0.81700009 2.3234019e-38
-0.016240003 -0.064186655 0.8120001 1.1049182e-39
-0.014693335 -0.06418667 0.8120001 1.5669726e-39
-0.01311429 -0.064028576 0.81000012 1.9379201e-39
-0.011628566 -0.064344794 0.81400007 2.2159559e-39
-0.010078094 -0.064344779 0.81400007 2.488217e-39
-0.0085276151 -0.064344786 0.81400007 1.7517226e-39
-0.0069771423 -0.064344779 0.81400007 9.230367e-40
-0.0054266648 -0.064344794 0.81400007 9.2158916e-40
-0.0038809525 -0.064423814 0.81500012 8.2975646e-40
-0.0023199993 -0.06418667 0.8120001 9.219549e-40
-0.00077523221 -0.064344794 0.81400007 1.0137904e-39
0.00077333185 -0.06418667 0.8120001 7.3864264e-40
0.0023200016 -0.064186685 0.81200004 4.6277461e-40
0.0038666693 -0.064186685 0.8120001 3.7057898e-40
0.005413339 -0.0641867 0.8120001 2.7802883e-40
0.0069600027 -0.064186685 0.8120001 4.6134529e-40
0.0085276226 -0.064344786 0.81400007 5.5317938e-40
0.010078101 -0.064344794 0.81400007 7.3613151e-40
0.011628579 -0.064344801 0.81400007 8.2868167e-40
0.01317905 -0.064344771 0.81400007 6.4536661e-40
0.014729527 -0.064344779 0.81400007 4.6277041e-40
0.016280007 -0.064344786 0.81400007 5.556807e-40
0.017786669 -0.064186677 0.8120001 5.5604084e-40
0.019333333 -0.064186662 0.8120001 7.3971463e-40
0.020880008 -0.064186692 0.8120001 9.2302549e-40
0.022481909 -0.064344771 0.81400007 1.0152197e-39
0.024032388 -0.064344786 0.81400007 1.105986e-39
0.025582863 -0.064344779 0.81400007 1.0134415e-39
0.027133342 -0.064344794 0.81400007 9.2197031e-40
0.028683819 -0.064344786 0.81400007 7.3938252e-40
0.030234294 -0.064344786 0.81400007 4.6314596e-40
0.031784769 -0.064344794 0.81400007 8.301166e-40
0.033335242 -0.064344786 0.81400007 1.1056399e-39
0.034885719 -0.064344779 0.81400007 1.4755098e-39
0.036436193 -0.064344779 0.81400007 1.8442769e-39
0.038033333 -0.064423814 0.81500012 1.754584e-39
0.039585713 -0.0644238 0.81500006 1.6613052e-39
0.041138098 -0.064423822 0.81500012 1.2928786e-39
0.042690478 -0.064423822 0.81500012 9.2302409e-40
0.044242855 -0.064423807 0.81500012 8.3011099e-40
0.045795236 -0.064423807 0.81500012 6.464428e-40
0.047347624 -0.064423807 0.81500006 9.2267096e-40
0.048900004 -0.064423814 0.81500012 1.1985446e-39
0.050390486 -0.064344801 0.81400007 1.3836603e-39
0.051940955 -0.064344771 0.81400007 1.5658824e-39
0.053557143 -0.0644238 0.81500006 8.268796e-40
0.055109523 -0.0644238 0.81500006 1.002615e-40
0.056800958 -0.064581916 0.81700009 1.1603906e-38
0.058357146 -0.064581923 0.81700009 2.3035636e-38
0.059913341 -0.064581916 0.81700009 2.3234019e-38
-0.016239999 -0.062640026 0.8120001 8.2833275e-40
-0.014693336 -0.062640011 0.8120001 1.2896752e-39
-0.01311429 -0.06248571 0.81000012 1.7510261e-39
-0.011571432 -0.062485717 0.81000012 2.3964067e-39
-0.010090475 -0.062871441 0.81500012 3.0381566e-39
-0.0085276151 -0.062794328 0.81400007 2.0261487e-39
-0.0069771418 -0.062794305 0.81400007 1.0145107e-39
-0.005426662 -0.06279432 0.81400007 7.3863143e-40
-0.0038761888 -0.062794313 0.81400001 5.546045e-40
-0.0023200028 -0.062639996 0.8120001 6.464414e-40
-0.0007752371 -0.062794298 0.81400007 8.3011239e-40
0.00077333371 -0.062640011 0.8120001 6.4608267e-40
0.0023200025 -0.062640019 0.8120001 4.6241028e-40
0.0038666667 -0.062640004 0.8120001 3.7057198e-40
0.0054133367 -0.062640019 0.8120001 1.8654646e-40
0.0069599999 -0.062640004 0.8120001 3.6986152e-40
0.0085066678 -0.062640019 0.8120001 4.6205435e-40
0.010078098 -0.062794305 0.81400007 4.6169281e-40
0.011628576 -0.062794313 0.81400007 4.6205014e-40
0.013179055 -0.06279432 0.81400007 4.6240747e-40
0.014729533 -0.062794335 0.81400007 4.6276761e-40
0.016280001 -0.062794298 0.81400007 4.6312634e-40
0.017786672 -0.062640019 0.8120001 4.6348787e-40
0.019333338 -0.062640019 0.8120001 8.3047253e-40
0.020880004 -0.062640019 0.8120001 1.1970942e-39
0.022481913 -0.062794313 0.81400007 1.1056147e-39
0.02403239 -0.06279432 0.81400007 1.0130673e-39
0.025582863 -0.062794298 0.81400007 9.2159616e-40
0.02713334 -0.062794305 0.81400007 9.219563e-40
0.028683817 -0.062794305 0.81400007 8.3047953e-40
0.030234292 -0.06279432 0.81400007 7.3828531e-40
0.031784769 -0.062794313 0.81400007 9.219563e-40
0.033335242 -0.062794305 0.81400007 1.0134373e-39
0.034885723 -0.06279432 0.81400007 1.6584423e-39
0.036436196 -0.062794313 0.81400007 2.3952745e-39
0.038033333 -0.062871419 0.81500006 1.9360914e-39
0.039682865 -0.063025743 0.81700009 1.4769097e-39
0.041138098 -0.062871434 0.81500012 1.199604e-39
0.042690475 -0.062871419 0.81500012 9.2230382e-40
0.044242859 -0.062871434 0.81500006 8.3046832e-40
0.045795232 -0.062871419 0.81500006 7.3899436e-40
0.04734762 -0.062871426 0.81500012 9.2302689e-40
0.049020007 -0.063025735 0.81700009 1.107065e-39
0.050390482 -0.062794305 0.81400007 1.3836561e-39
0.052004758 -0.062871411 0.81500006 1.7524218e-39
0.053557146 -0.062871449 0.81500012 9.2050876e-40
0.055244759 -0.063025713 0.81700003 9.2369391e-41
0.056940004 -0.063180022 0.81900012 1.1610004e-38
0.058500011 -0.063180037 0.81900012 2.3142179e-38
0.060060009 -0.063180029 0.81900012 2.3325854e-38
-0.016280001 -0.061243825 0.81400007 4.6062642e-40
-0.01472952 -0.061243836 0.81400007 1.0120009e-39
-0.013179046 -0.061243851 0.81400007 1.4751427e-39
-0.011642857 -0.061319053 0.81500012 2.48858e-39
-0.010090481 -0.061319042 0.81500012 3.4969641e-39
-0.0085380981 -0.061319053 0.81500012 2.3002216e-39
-0.006977139 -0.061243843 0.81400007 1.0148722e-39
-0.0054266658 -0.061243825 0.81400007 6.475204e-40
-0.0038809516 -0.061319061 0.81500012 1.8726672e-40
-0.0023257094 -0.061243847 0.81400007 3.7058039e-40
-0.00077523524 -0.061243836 0.81400001 5.5389265e-40
0.0007752378 -0.061243817 0.81400007 5.5281645e-40
0.0023200007 -0.061093345 0.8120001 4.6205435e-40
0.0038761944 -0.06124384 0.81400007 2.7873928e-40
0.0054266741 -0.061243851 0.81400007 9.5069693e-41
0.0069771465 -0.06124384 0.81400007 2.7694842e-40
0.0085276207 -0.061243825 0.81400001 3.6985872e-40
0.010078099 -0.061243836 0.81400007 2.7873928e-40
0.011628572 -0.061243817 0.81400007 9.5068292e-41
0.013179052 -0.061243828 0.81400007 2.7909662e-40
0.014729529 -0.06124384 0.81400007 3.7093211e-40
0.016280008 -0.061243847 0.81400007 3.7057478e-40
0.01778667 -0.061093342 0.8120001 2.7910362e-40
0.019333338 -0.061093353 0.8120001 8.2976347e-40
0.020880003 -0.061093338 0.8120001 1.3807708e-39
0.022481913 -0.061243847 0.81400007 1.1052587e-39
0.024032384 -0.061243832 0.81400007 8.2975506e-40
0.025582863 -0.06124384 0.81400007 8.301166e-40
0.027133342 -0.061243854 0.81400007 8.301152e-40
0.028683813 -0.06124381 0.81400007 9.2266816e-40
0.030234288 -0.061243821 0.81400007 1.0148638e-39
0.031823814 -0.061319068 0.81500012 1.0145079e-39
0.033335242 -0.061243832 0.81400007 9.2267516e-40
0.034928571 -0.061319038 0.81500006 1.9335859e-39
0.036480956 -0.061319064 0.81500012 2.8526569e-39
0.038126674 -0.06146954 0.81700009 2.1172555e-39
0.039682865 -0.06146954 0.81700009 1.2903745e-39
0.041239049 -0.06146954 0.81700009 1.1059846e-39
0.042795241 -0.061469536 0.81700009 9.2230802e-40
0.044351432 -0.06146954 0.81700009 9.2194509e-40
0.045795236 -0.061319053 0.81500012 8.3047393e-40
0.047347624 -0.061319053 0.81500012 9.2267516e-40
0.049020007 -0.061469547 0.81700009 9.2339823e-40
0.050390482 -0.061243825 0.81400007 1.474777e-39
0.052004762 -0.061319061 0.81500012 1.9339404e-39
0.053557146 -0.061319046 0.81500012 1.0105506e-39
0.055244762 -0.061469547 0.81700009 9.9544039e-41
0.056940008 -0.061620016 0.81900012 1.1692872e-38
0.058500007 -0.061620027 0.81900012 2.3218589e-38
0.060060013 -0.061620027 0.81900012 2.3325854e-38
-0.016279997 -0.059693359 0.81400007 4.6061942e-40
-0.014729526 -0.059693344 0.81400007 7.3791396e-40
-0.013179048 -0.059693355 0.81400007 1.1077825e-39
-0.011642863 -0.059766658 0.81500012 1.8439154e-39
-0.010090478 -0.059766669 0.81500006 2.5785994e-39
-0.0085380999 -0.059766654 0.81500006 1.8431965e-39
-0.0069857128 -0.059766687 0.81500012 1.1989061e-39
-0.0054333336 -0.059766673 0.81500012 8.3048094e-40
-0.0038809553 -0.059766658 0.81500012 5.5389685e-40
-0.0023257125 -0.059693351 0.81400007 6.4573094e-40
-0.00077523454 -0.059693363 0.81400007 7.3685038e-40
0.00077524595 -0.059693374 0.81400007 5.5317938e-40
0.0023257136 -0.059693336 0.81400007 4.6169842e-40
0.0038761913 -0.059693348 0.81400007 3.7093491e-40
0.0054266704 -0.059693359 0.81400007 3.7236984e-40
0.0069771498 -0.05969337 0.81400007 3.7057618e-40
0.0085380962 -0.059766673 0.81500012 4.6205295e-40
0.010090474 -0.059766661 0.81500012 3.7021605e-40
0.011642857 -0.059766673 0.81500006 2.7873928e-40
0.013179054 -0.059693359 0.81400007 3.7093351e-40
0.014729525 -0.059693348 0.81400007 5.5496324e-40
0.016280005 -0.059693359 0.81400007 5.546045e-40
0.017830485 -0.059693366 0.81400007 5.5389685e-40
0.019333337 -0.059546676 0.8120001 8.2941175e-40
0.020931432 -0.059693344 0.81400007 1.1049098e-39
0.022481909 -0.059693351 0.81400007 8.2939493e-40
0.024032388 -0.059693363 0.81400007 6.464414e-40
0.025614284 -0.059766646 0.81500012 6.4608267e-40
0.027166668 -0.059766661 0.81500006 6.4608127e-40
0.028719051 -0.059766669 0.81500012 7.3899016e-40
0.030271433 -0.059766684 0.81500012 8.3262492e-40
0.03182381 -0.059766665 0.81500012 9.2338843e-40
0.033376187 -0.05976665 0.81500006 1.0152253e-39
0.03501429 -0.059913348 0.81700009 1.566597e-39
0.036570482 -0.05991336 0.81700009 2.1176142e-39
0.03812667 -0.059913345 0.81700009 1.657006e-39
0.039682861 -0.059913337 0.81700003 1.1960349e-39
0.041239049 -0.059913352 0.81700003 9.2160457e-40
0.042795237 -0.059913337 0.81700003 6.4644701e-40
0.044351432 -0.059913348 0.81700003 7.3827269e-40
0.045907617 -0.059913334 0.81700003 8.3047813e-40
0.04734762 -0.05976665 0.81500006 1.0148764e-39
0.049020004 -0.05991333 0.81700003 1.1996278e-39
0.050390482 -0.059693344 0.81400001 1.6598843e-39
0.051940959 -0.059693355 0.81400007 2.1208414e-39
0.053557143 -0.059766661 0.81500012 1.1045385e-39
0.056940015 -0.060060039 0.81900012 1.170758e-38
0.058500003 -0.060060009 0.81900012 2.332585e-38
-0.016279997 -0.058142889 0.81400007 3.6951119e-40
-0.014729523 -0.058142878 0.81400007 5.5461572e-40
-0.013179046 -0.058142889 0.81400007 6.4754142e-40
-0.011642861 -0.058214277 0.81500006 1.1081678e-39
-0.010115237 -0.058357161 0.81700009 1.5687718e-39
-0.0085590454 -0.058357175 0.81700009 1.4790803e-39
-0.0069857156 -0.058214288 0.81500012 1.2921794e-39
-0.0054333378 -0.05821427 0.81500012 1.104921e-39
-0.0038809539 -0.058214284 0.81500006 8.2976768e-40
-0.0023257106 -0.058142886 0.81400007 8.2976067e-40
-0.00077523664 -0.058142871 0.81400007 8.2940614e-40
0.00077524199 -0.058142882 0.81400007 6.4466315e-40
0.0023257209 -0.058142893 0.81400007 4.6170542e-40
0.003876199 -0.058142904 0.81400007 5.5425418e-40
0.0054333354 -0.058214299 0.81500012 5.5461011e-40
0.0069857147 -0.058214288 0.81500012 5.5424858e-40
0.0085380981 -0.058214299 0.81500006 4.6205295e-40
0.010090475 -0.058214281 0.81500006 4.6169141e-40
0.011642858 -0.058214292 0.81500012 3.7057478e-40
0.013179055 -0.058142893 0.81400007 5.5496464e-40
0.014729529 -0.058142878 0.81400007 7.3863563e-40
0.016280003 -0.058142863 0.81400007 8.3011239e-40
0.017830482 -0.058142878 0.81400007 8.2976067e-40
0.019380959 -0.058142886 0.81400007 8.2940894e-40
0.020931439 -0.058142897 0.81400007 8.2904461e-40
0.022481913 -0.058142878 0.81400007 6.4500787e-40
0.024032384 -0.058142867 0.81400007 3.6986012e-40
0.025582865 -0.058142878 0.81400007 3.6985872e-40
0.027133338 -0.058142859 0.81400007 3.7093772e-40
0.028683815 -0.058142874 0.81400007 5.5461151e-40
0.030271431 -0.058214277 0.81500006 6.4717148e-40
0.031823806 -0.058214266 0.81500006 9.230423e-40
0.033376191 -0.058214296 0.81500012 1.1074308e-39
0.034928575 -0.058214284 0.81500012 1.1992649e-39
0.036570482 -0.058357175 0.81700009 1.2900242e-39
0.03812667 -0.058357157 0.81700009 1.1974712e-39
0.039682865 -0.058357172 0.81700009 1.1049168e-39
0.041239053 -0.058357157 0.81700009 7.3757485e-40
0.042795248 -0.058357168 0.81700009 3.7058459e-40
0.044351432 -0.058357153 0.81700009 6.464428e-40
0.04590762 -0.058357168 0.81700009 8.3047953e-40
0.047347624 -0.058214303 0.81500012 1.105993e-39
0.048900004 -0.058214284 0.81500012 1.3833016e-39
0.050452381 -0.058214284 0.81500012 1.8439238e-39
0.052004762 -0.058214284 0.81500006 2.2101714e-39
-0.010115237 -0.056800976 0.81700003 1.3851051e-39
-0.0085590491 -0.056800958 0.81700009 1.4776412e-39
-0.0069857137 -0.056661911 0.81500006 1.5687662e-39
-0.0054333368 -0.056661896 0.81500006 1.3833072e-39
-0.0038809534 -0.056661904 0.81500012 1.1056371e-39
-0.0023257136 -0.056592394 0.81400007 1.0141491e-39
-0.00077523571 -0.056592405 0.81400007 1.0137974e-39
0.00077524385 -0.056592416 0.81400007 9.2125145e-40
0.002325715 -0.056592397 0.81400007 8.2905441e-40
0.0038809543 -0.056661911 0.81500012 7.3793218e-40
0.0054466687 -0.056800961 0.81700009 7.3792657e-40
0.0070028612 -0.056800976 0.81700009 6.4608547e-40
0.0085590482 -0.056800961 0.81700009 6.4536521e-40
0.010115242 -0.056800976 0.81700009 5.5388424e-40
0.011671436 -0.056800991 0.81700009 4.6276901e-40
0.013195239 -0.056661904 0.81500012 5.5496464e-40
0.014747615 -0.056661889 0.81500006 7.3863703e-40
0.016280008 -0.05659242 0.81400007 7.382783e-40
0.017830484 -0.056592409 0.81400007 8.2976067e-40
0.019380955 -0.05659239 0.81400007 7.3721191e-40
0.020931436 -0.056592401 0.81400007 6.4429601e-40
0.022481915 -0.056592412 0.81400007 6.4500928e-40
0.024032393 -0.05659242 0.81400007 6.4464914e-40
0.025582863 -0.056592409 0.81400007 6.4608267e-40
0.02716667 -0.056661904 0.81500012 6.4752601e-40
0.028719047 -0.056661889 0.81500006 7.3865105e-40
0.030271437 -0.056661926 0.81500012 9.2161298e-40
0.031901907 -0.056800969 0.81700003 1.1989201e-39
0.033458095 -0.056800958 0.81700003 1.5669782e-39
0.035100002 -0.056940023 0.81900007 1.4740637e-39
0.036660004 -0.056940034 0.81900012 1.3807891e-39
0.038220007 -0.056940019 0.81900012 1.2885906e-39
0.03978001 -0.056940034 0.81900012 1.196395e-39
0.041340005 -0.056940019 0.81900012 8.2940894e-40
0.042900007 -0.056940034 0.81900012 5.5389965e-40
0.044460006 -0.056940019 0.81900012 7.3792517e-40
0.04590762 -0.05680098 0.81700009 9.219577e-40
0.047463812 -0.056800961 0.81700009 1.1985432e-39
0.049020007 -0.056800976 0.81700009 1.5666181e-39
0.050452378 -0.056661896 0.81500006 1.5677083e-39
0.052004766 -0.056661904 0.81500012 1.6605989e-39
-0.015000954 -0.056056201 0.82900006 3.705986e-40
-0.013421903 -0.056056213 0.82900012 4.6208377e-40
-0.011842864 -0.056056179 0.82900012 8.297943e-40
-0.010115237 -0.055244777 0.81700009 1.1078049e-39
-0.0085590454 -0.055244792 0.81700009 1.4772937e-39
-0.0069857147 -0.055109531 0.81500012 1.8450014e-39
-0.0054333317 -0.055109546 0.81500012 1.6620563e-39
-0.0038809525 -0.055109531 0.81500012 1.3833086e-39
-0.0023257055 -0.05504195 0.81400007 1.2907444e-39
-0.00077523431 -0.055041932 0.81400007 1.1063588e-39
0.00077619194 -0.055109534 0.81500012 1.1056455e-39
0.0023285719 -0.055109523 0.81500012 1.1059986e-39
0.003890475 -0.055244759 0.81700009 1.0141575e-39
0.0054466687 -0.055244774 0.81700003 8.3048654e-40
0.0070028622 -0.055244789 0.81700003 8.3012781e-40
0.00855905 -0.055244774 0.81700009 7.3792657e-40
0.010115243 -0.055244789 0.81700003 6.4608547e-40
0.01167143 -0.05524477 0.81700009 5.5496884e-40
0.013195241 -0.055109531 0.81500006 6.4716447e-40
0.014747622 -0.055109542 0.81500012 6.4680294e-40
0.016280005 -0.055041924 0.81400007 7.3791957e-40
0.017830484 -0.055041935 0.81400007 7.3756644e-40
0.019380961 -0.055041946 0.81400007 6.4466035e-40
0.020931432 -0.055041905 0.81400007 4.6134389e-40
0.022481911 -0.05504192 0.81400007 7.3720491e-40
0.02403239 -0.055041932 0.81400007 9.2159476e-40
0.025582867 -0.055041939 0.81400007 9.219535e-40
0.027166666 -0.055109501 0.81500006 9.2267657e-40
0.028719055 -0.055109538 0.81500012 1.0148764e-39
0.030345721 -0.055244789 0.81700009 1.1074434e-39
0.031901907 -0.055244777 0.81700009 1.5673523e-39
0.033458099 -0.055244789 0.81700009 1.9336097e-39
0.035100006 -0.055380039 0.81900012 1.6573759e-39
0.036660001 -0.055380024 0.81900012 1.3807919e-39
0.038220003 -0.055380009 0.81900012 1.2882361e-39
0.039780006 -0.055380028 0.81900012 1.1963964e-39
0.041239053 -0.055244796 0.81700009 1.0130799e-39
0.042795241 -0.055244785 0.81700009 7.3757064e-40
0.044351429 -0.055244774 0.81700003 9.2159757e-40
0.045795232 -0.055109512 0.81500012 1.0141519e-39
0.04734762 -0.055109523 0.81500006 1.3825729e-39
0.048900004 -0.055109508 0.81500006 1.6584578e-39
0.050452385 -0.055109546 0.81500012 1.3829723e-39
0.052004769 -0.055109531 0.81500012 1.0138268e-39
-0.015037142 -0.054608591 0.83100009 4.6171523e-40
-0.01342191 -0.054477129 0.82900006 5.5355633e-40
-0.011842861 -0.054477148 0.82900012 7.3759026e-40
-0.010115237 -0.053688586 0.81700009 1.0138184e-39
-0.0085590435 -0.053688601 0.81700009 1.3836743e-39
-0.0070028557 -0.053688589 0.81700009 1.7531785e-39
-0.0054466631 -0.053688597 0.81700009 1.5684397e-39
-0.0038809571 -0.053557131 0.81500006 1.474798e-39
-0.0023257111 -0.053491451 0.81400007 1.5659034e-39
-0.00077523245 -0.053491462 0.81400007 1.7499345e-39
0.00077618798 -0.053557135 0.81500012 1.5655461e-39
0.002334293 -0.053688608 0.81700009 1.3833016e-39
0.0038904799 -0.053688597 0.81700009 1.198546e-39
0.0054466678 -0.053688578 0.81700009 1.1070748e-39
0.007020005 -0.053820029 0.81900012 9.2233325e-40
0.0085590547 -0.053688608 0.81700009 8.2977188e-40
0.010115243 -0.053688589 0.81700009 9.219577e-40
0.011671431 -0.053688582 0.81700003 9.2231643e-40
0.01319524 -0.05355715 0.81500012 9.2231643e-40
0.014747617 -0.053557139 0.81500012 9.219535e-40
0.016280005 -0.053491458 0.81400007 9.2194789e-40
0.017830485 -0.053491466 0.81400007 9.2159616e-40
0.019380957 -0.053491451 0.81400007 8.2940894e-40
0.020931438 -0.053491466 0.81400007 7.3756924e-40
0.022509525 -0.053557143 0.81500012 8.30118e-40
0.024061905 -0.053557131 0.81500006 9.2339123e-40
0.025614293 -0.053557165 0.81500012 1.0148708e-39
0.027233338 -0.053688578 0.81700009 1.1067105e-39
0.02878953 -0.053688586 0.81700003 1.1074308e-39
0.030345714 -0.053688575 0.81700009 1.1088867e-39
0.031901907 -0.053688582 0.81700009 1.3829779e-39
0.033458099 -0.053688575 0.81700009 1.6573928e-39
0.035100002 -0.053820007 0.81900012 1.4729875e-39
0.036570482 -0.053688597 0.81700009 1.2882403e-39
0.038126674 -0.053688586 0.81700009 1.1960461e-39
0.039682865 -0.053688593 0.81700009 1.1045623e-39
0.041239046 -0.053688582 0.81700009 1.0123611e-39
0.042795241 -0.053688593 0.81700009 8.2904741e-40
0.044351429 -0.053688582 0.81700009 1.1052686e-39
0.04579524 -0.053557135 0.81500006 1.2893011e-39
0.047347624 -0.053557146 0.81500012 1.3818554e-39
0.048840009 -0.053491458 0.81400007 1.5666279e-39
0.050390482 -0.053491469 0.81400007 1.0142052e-39
0.052004762 -0.053557128 0.81500012 5.5144458e-40
-0.015037142 -0.053025745 0.83100009 5.5282766e-40
-0.013421907 -0.052898098 0.82900012 5.5282626e-40
-0.011814288 -0.052770488 0.82700008 7.3613852e-40
-0.010139997 -0.052260026 0.81900012 8.2906422e-40
-0.0085590472 -0.052132383 0.81700003 1.1978566e-39
-0.0070028566 -0.052132394 0.81700003 1.5666489e-39
-0.0054466678 -0.052132383 0.81700009 1.5677419e-39
-0.0038809506 -0.052004777 0.81500012 1.4751735e-39
-0.0023257141 -0.051940963 0.81400007 1.931107e-39
-0.0007752364 -0.05194097 0.81400007 2.3910033e-39
0.00077618915 -0.052004762 0.81500006 2.0233054e-39
0.0023285716 -0.052004769 0.81500012 1.5659132e-39
0.0038904794 -0.052132405 0.81700009 1.473712e-39
0.0054466678 -0.05213239 0.81700009 1.2900438e-39
0.0070200088 -0.052260045 0.81900012 1.1052994e-39
0.0085800001 -0.052260011 0.81900012 9.2233745e-40
0.010140004 -0.052260019 0.81900012 1.1063588e-39
0.011671429 -0.052132387 0.81700009 1.2903843e-39
0.013227623 -0.052132402 0.81700009 1.2900214e-39
0.014747619 -0.052004762 0.81500006 1.1985432e-39
0.016280003 -0.051940963 0.81400007 1.1063476e-39
0.017830482 -0.051940978 0.81400007 1.0141561e-39
0.019380961 -0.051940985 0.81400007 1.0138016e-39
0.020957142 -0.052004758 0.81500012 9.2232344e-40
0.022509521 -0.05200474 0.81500006 9.2268077e-40
0.024061913 -0.052004777 0.81500012 9.2339964e-40
0.025677146 -0.052132394 0.81700009 1.1067133e-39
0.027233342 -0.052132405 0.81700009 1.1985502e-39
0.028789528 -0.05213239 0.81700009 1.1989103e-39
0.030345716 -0.052132383 0.81700003 1.1074448e-39
0.031901907 -0.052132398 0.81700003 1.1985754e-39
0.033458095 -0.052132383 0.81700003 1.2896822e-39
0.035100006 -0.052260026 0.81900012 1.1967579e-39
0.036570478 -0.052132383 0.81700003 1.1042134e-39
0.038126674 -0.05213239 0.81700003 1.1035057e-39
0.039682861 -0.052132376 0.81700003 1.011652e-39
0.041239049 -0.052132394 0.81700003 1.0112765e-39
0.042795233 -0.052132379 0.81700009 9.208759e-40
0.044242859 -0.052004751 0.81500006 1.2889353e-39
0.045795243 -0.052004784 0.81500012 1.5651663e-39
0.047289528 -0.051940981 0.81400007 1.4719029e-39
0.048840009 -0.051940963 0.81400007 1.3818695e-39
0.050390482 -0.05194097 0.81400007 7.3866926e-40
-0.015037148 -0.051442843 0.83100003 5.5246192e-40
-0.013421903 -0.051319066 0.82900012 5.5245631e-40
-0.011814293 -0.051195219 0.82700002 6.442848e-40
-0.010214286 -0.051071435 0.82500011 8.2762369e-40
-0.0085799918 -0.050700035 0.81900012 1.0127562e-39
-0.0070199966 -0.050700024 0.81900012 1.1053316e-39
-0.0054599987 -0.050700009 0.81900012 3.409851e-39
-0.0038904711 -0.050576229 0.81700009 5.6106575e-39
-0.0023285709 -0.050452389 0.81500006 4.8791839e-39
-0.00077523408 -0.050390504 0.81400001 4.1351757e-39
0.00077618915 -0.050452385 0.81500012 2.6668868e-39
0.002334286 -0.050576199 0.81700003 1.1996642e-39
0.0038904736 -0.050576188 0.81700003 1.0145513e-39
0.0054466678 -0.050576203 0.81700003 8.3159917e-40
0.0070200018 -0.050700013 0.81900012 8.3052298e-40
0.0085800039 -0.050700031 0.81900012 8.3123203e-40
0.010140006 -0.050700039 0.81900012 1.1070874e-39
0.011700005 -0.050700024 0.81900012 1.4751385e-39
0.013227624 -0.05057621 0.81700003 1.4744126e-39
0.014783811 -0.050576199 0.81700009 1.5669684e-39
0.016300002 -0.050452396 0.81500012 1.4736994e-39
0.017852383 -0.050452385 0.81500012 1.3815051e-39
0.01940476 -0.050452366 0.81500006 1.2893109e-39
0.020957148 -0.050452404 0.81500012 1.1070762e-39
0.022509526 -0.050452393 0.81500012 1.1074364e-39
0.024061907 -0.050452378 0.81500012 1.1077951e-39
0.025677146 -0.050576206 0.81700009 1.1992719e-39
0.02723334 -0.050576217 0.81700009 1.2903899e-39
0.02878953 -0.050576203 0.81700009 1.1067175e-39
0.030345721 -0.050576217 0.81700009 1.0152449e-39
0.031901907 -0.050576199 0.81700009 1.0141729e-39
0.033458102 -0.050576214 0.81700009 1.105284e-39
0.03501429 -0.050576199 0.81700009 1.1045581e-39
0.036570486 -0.050576214 0.81700009 1.1031414e-39
0.03812667 -0.050576203 0.81700009 1.0113227e-39
0.039682865 -0.05057621 0.81700009 9.1946059e-40
0.041239053 -0.050576225 0.81700009 9.1979129e-40
0.042795241 -0.05057621 0.81700009 9.2086889e-40
0.044351436 -0.050576221 0.81700009 1.3814827e-39
0.04579524 -0.050452385 0.81500012 1.934302e-39
0.04734762 -0.050452366 0.81500012 1.7495674e-39
0.048900004 -0.050452404 0.81500012 1.6580808e-39
0.050390482 -0.050390508 0.81400007 9.208759e-40
-0.015037146 -0.049860001 0.83100009 6.4430302e-40
-0.013389532 -0.049619984 0.82700002 4.6063063e-40
-0.011814288 -0.049620003 0.82700002 6.4394149e-40
-0.010214288 -0.049500011 0.82500005 8.2798242e-40
-0.0086219059 -0.049380019 0.82300007 7.3615814e-40
-0.0070199966 -0.049140017 0.81900012 6.5153792e-40
-0.005459995 -0.049140029 0.81900012 5.2630837e-39
-0.0038904757 -0.049020011 0.81700009 9.7630286e-39
-0.0023285709 -0.048900008 0.81500012 7.8398711e-39
-0.00077523314 -0.048840035 0.81400007 5.804736e-39
0.00077619124 -0.048900008 0.81500012 3.3093485e-39
0.0023342916 -0.049020037 0.81700009 8.3122503e-40
0.0038904785 -0.049020022 0.81700009 6.4432544e-40
0.0054600034 -0.049140021 0.81900012 3.7061121e-40
0.0070200013 -0.049140006 0.81900007 5.542808e-40
0.0085800029 -0.049140021 0.81900012 6.461135e-40
0.010140006 -0.049140036 0.81900012 1.1989187e-39
0.011700003 -0.049140017 0.81900012 1.657013e-39
0.013227623 -0.049020015 0.81700009 1.7492002e-39
0.014783815 -0.04902003 0.81700009 1.8403169e-39
0.016299998 -0.048899993 0.81500012 1.8399581e-39
0.017852379 -0.048899982 0.81500006 1.7474192e-39
0.019404765 -0.048900019 0.81500012 1.5630447e-39
0.020957144 -0.048900008 0.81500012 1.2911172e-39
0.022564767 -0.049020018 0.81700003 1.2914661e-39
0.024061909 -0.048900001 0.81500006 1.2918276e-39
0.025677148 -0.049020015 0.81700003 1.291829e-39
0.027233334 -0.04902 0.81700003 1.2903941e-39
0.02878953 -0.049020011 0.81700003 1.1060042e-39
0.030345716 -0.049019996 0.81700009 9.2162279e-40
0.031901907 -0.049020015 0.81700003 9.2091233e-40
0.033458095 -0.04902 0.81700009 8.2906843e-40
0.035100006 -0.049140036 0.81900012 1.0123709e-39
0.036570486 -0.049020022 0.81700009 1.1034959e-39
0.03812667 -0.049020007 0.81700009 9.194732e-40
0.039682865 -0.049020022 0.81700009 7.3614692e-40
0.041138101 -0.048900023 0.81500012 8.2796701e-40
0.042690478 -0.048900012 0.81500012 9.219549e-40
0.044242851 -0.048900001 0.81500012 1.5658796e-39
0.045739058 -0.048840027 0.81400007 2.2098154e-39
0.047289528 -0.048840012 0.81400007 2.1179926e-39
0.048900001 -0.048900001 0.81500012 1.9325125e-39
-0.013389532 -0.048044741 0.82700008 4.6064184e-40
-0.011814291 -0.048044756 0.82700008 4.6064464e-40
-0.010214285 -0.047928583 0.82500011 5.531934e-40
-0.0086219087 -0.047812384 0.82300007 5.5247173e-40
-0.0070371414 -0.047696199 0.82100016 5.5217185e-40
-0.0054599964 -0.047580022 0.81900012 3.0493656e-39
-0.0038904762 -0.047463819 0.81700003 5.6444666e-39
-0.0023285693 -0.047347639 0.81500012 6.5574701e-39
-0.00077619078 -0.047347624 0.81500012 7.5664904e-39
0.00077809347 -0.047463804 0.81700009 6.7273214e-39
0.0023342865 -0.047463819 0.81700009 5.886101e-39
0.0038904792 -0.047463827 0.81700009 5.2472055e-39
0.0054466678 -0.047463819 0.81700009 4.6872215e-39
0.0070028603 -0.047463827 0.81700009 4.2298348e-39
0.0085590491 -0.047463816 0.81700009 3.7656393e-39
0.010140005 -0.04758003 0.81900007 2.9402002e-39
0.011700002 -0.047580011 0.81900012 2.2044345e-39
0.013227623 -0.047463827 0.81700009 2.2973406e-39
0.014783811 -0.047463812 0.81700009 2.2962616e-39
0.016300004 -0.047347646 0.81500012 2.7561537e-39
0.017852385 -0.047347628 0.81500012 3.2146417e-39
0.019452384 -0.047463823 0.81700009 2.7623082e-39
0.021008581 -0.047463838 0.81700009 2.2127105e-39
0.022564767 -0.047463819 0.81700009 1.7520785e-39
0.02412096 -0.047463834 0.81700009 1.291829e-39
0.025677145 -0.047463819 0.81700009 1.1989215e-39
0.027233338 -0.047463834 0.81700009 1.1978453e-39
0.028789528 -0.047463819 0.81700009 1.0134555e-39
0.030345721 -0.047463831 0.81700009 9.2019487e-40
0.031901915 -0.047463845 0.81700009 7.3689242e-40
0.033540007 -0.047580019 0.81900012 5.5249415e-40
0.035100006 -0.04758003 0.81900012 7.3615393e-40
0.036570482 -0.047463827 0.81700009 1.0116576e-39
0.038126674 -0.047463816 0.81700003 9.2017665e-40
0.039682861 -0.047463808 0.81700003 9.2017525e-40
0.041138098 -0.04734762 0.81500012 9.2196611e-40
0.042690471 -0.047347605 0.81500006 1.0163113e-39
0.044242859 -0.04734762 0.81500006 1.3832918e-39
0.04579524 -0.047347628 0.81500012 1.8431979e-39
0.047289532 -0.047289547 0.81400007 1.474791e-39
-0.0070371451 -0.046132382 0.8210001 3.691903e-40
-0.0054599922 -0.046020042 0.81900012 9.2094316e-40
-0.0038904762 -0.045907628 0.81700009 1.3977476e-39
-0.0023285737 -0.045795232 0.81500012 5.3621498e-39
-0.0007761952 -0.045795217 0.81500006 9.2195672e-39
0.00077809836 -0.045907639 0.81700009 1.0055381e-38
0.0023342916 -0.04590765 0.81700009 1.0868991e-38
0.003890479 -0.045907639 0.81700009 9.9549448e-39
0.0054466678 -0.045907624 0.81700003 9.0236727e-39
0.0070028561 -0.045907613 0.81700003 7.9119595e-39
0.0085590491 -0.045907624 0.81700003 6.8124237e-39
0.010115236 -0.045907609 0.81700003 4.7758802e-39
0.011671429 -0.045907624 0.81700003 2.7676934e-39
0.013227624 -0.045907635 0.81700003 2.7554951e-39
0.014783812 -0.045907624 0.81700003 2.7673305e-39
0.0163 -0.045795243 0.81500012 3.7656813e-39
0.017896194 -0.04590762 0.81700009 4.7005408e-39
0.019452384 -0.045907635 0.81700003 3.967296e-39
0.021008575 -0.045907617 0.81700009 3.132513e-39
0.022564767 -0.045907632 0.81700009 2.2116329e-39
0.024120955 -0.045907617 0.81700009 1.290764e-39
0.025677146 -0.045907632 0.81700009 1.1971321e-39
0.02730001 -0.046020035 0.81900012 1.0134541e-39
0.02886001 -0.046020024 0.81900007 9.2161298e-40
0.030420003 -0.046020012 0.81900012 8.2906422e-40
0.031901907 -0.045907624 0.81700009 5.5320461e-40
0.033458102 -0.045907643 0.81700009 2.7697645e-40
0.035100002 -0.046020001 0.81900012 5.5212e-40
0.036570482 -0.045907639 0.81700009 8.2834115e-40
0.03812667 -0.045907628 0.81700009 1.0127268e-39
0.039682869 -0.045907635 0.81700009 1.1052812e-39
0.04113809 -0.045795221 0.81500006 1.1063588e-39
0.042690478 -0.045795254 0.81500012 1.0155967e-39
0.044242859 -0.04579524 0.81500012 1.1992635e-39
0.045795236 -0.045795228 0.81500012 1.384012e-39
-0.00077618845 -0.04424287 0.81500012 4.7099799e-39
0.00077809859 -0.044351447 0.81700009 5.2631747e-39
0.0023342906 -0.044351462 0.81700009 5.8249511e-39
0.0038904781 -0.044351444 0.81700009 6.8315542e-39
0.0054466664 -0.044351432 0.81700009 7.7552902e-39
0.0070028594 -0.044351444 0.81700009 7.7499078e-39
0.0085590528 -0.044351459 0.81700009 7.7652884e-39
0.010115241 -0.044351444 0.81700009 7.1998799e-39
0.011671434 -0.044351455 0.81700009 6.7529021e-39
0.013227622 -0.044351444 0.81700009 6.5563182e-39
0.014820001 -0.044460002 0.81900012 6.384484e-39
0.016340004 -0.04435144 0.81700009 6.4626848e-39
0.017896196 -0.044351459 0.81700009 6.56885e-39
0.01950001 -0.044460036 0.81900012 4.3396658e-39
0.021008579 -0.044351455 0.81700009 2.118029e-39
0.022620004 -0.044460014 0.81900012 1.6584858e-39
0.024120955 -0.044351429 0.81700003 1.2889816e-39
0.025677146 -0.044351444 0.81700003 1.0131052e-39
0.027300011 -0.044460028 0.81900012 7.3651126e-40
0.028789528 -0.044351436 0.81700003 7.3721612e-40
0.030345716 -0.044351425 0.81700003 7.3685738e-40
0.031901907 -0.04435144 0.81700003 7.3649865e-40
0.033458095 -0.044351421 0.81700003 7.3614272e-40
0.03501429 -0.044351436 0.81700003 9.1981511e-40
0.036570482 -0.044351451 0.81700003 1.1038434e-39
0.038033333 -0.044242848 0.81500012 1.1967537e-39
0.03958571 -0.044242833 0.81500006 1.3818653e-39
0.041138098 -0.044242866 0.81500012 1.2903927e-39
0.042690475 -0.044242855 0.81500012 1.2914647e-39
0.044242863 -0.044242866 0.81500012 1.4754888e-39
-0.00077619287 -0.042690467 0.81500012 9.9476777e-41
0.00077809207 -0.042795233 0.81700009 4.6252799e-40
0.0023285733 -0.042690486 0.81500012 7.5203765e-40
0.0038809523 -0.042690475 0.81500012 3.6075616e-39
0.0054466673 -0.042795241 0.81700009 6.4548361e-39
0.0070028603 -0.042795256 0.81700003 7.5672808e-39
0.0085590472 -0.042795241 0.81700009 8.5781621e-39
0.010115241 -0.042795256 0.81700009 9.5976529e-39
0.011671429 -0.042795241 0.81700009 1.0601755e-38
0.013227623 -0.042795252 0.81700009 1.0332358e-38
0.01478381 -0.042795237 0.81700009 9.9546001e-39
0.016340004 -0.042795252 0.81700009 9.2231335e-39
0.017896198 -0.042795263 0.81700009 8.3861828e-39
0.019452384 -0.042795248 0.81700009 4.704484e-39
0.021008579 -0.04279526 0.81700009 1.0185016e-39
0.022564767 -0.042795248 0.81700009 1.1982195e-39
0.02412096 -0.042795263 0.81700009 1.288969e-39
0.025677146 -0.042795245 0.81700009 8.2906282e-40
0.02723334 -0.042795263 0.81700009 3.695196e-40
0.028789528 -0.042795245 0.81700009 5.5354372e-40
0.030345719 -0.042795256 0.81700009 6.4501628e-40
0.031901911 -0.042795271 0.81700009 9.2015983e-40
0.033458099 -0.042795256 0.81700009 1.104198e-39
0.035014294 -0.042795271 0.81700009 1.1956831e-39
0.036480948 -0.04269046 0.81500006 1.2882347e-39
0.03803334 -0.042690493 0.81500012 1.4726204e-39
0.039585717 -0.042690482 0.81500012 1.5651705e-39
0.041138094 -0.042690471 0.81500012 1.5658852e-39
0.042690478 -0.042690482 0.81500006 1.5666082e-39
0.00077809743 -0.04123906 0.81700009 7.3650846e-40
0.0023285749 -0.041138113 0.81500012 8.2729438e-40
0.0038904785 -0.04123906 0.81700009 2.0276396e-39
0.0054466724 -0.041239075 0.81700009 3.3069116e-39
0.0070028594 -0.04123906 0.81700009 3.7786756e-39
0.0085590528 -0.041239072 0.81700009 4.3318339e-39
0.010115236 -0.041239038 0.81700003 4.8878608e-39
0.011671429 -0.041239049 0.81700003 5.3459803e-39
0.013227623 -0.04123906 0.81700003 5.1623275e-39
0.014783811 -0.041239049 0.81700003 5.0625789e-39
0.016299998 -0.041138086 0.81500012 4.6069663e-39
0.017830484 -0.041087642 0.81400007 4.2320559e-39
0.019380955 -0.041087627 0.81400007 2.5800581e-39
0.020957144 -0.041138098 0.81500006 1.0123905e-39
0.022509528 -0.041138105 0.81500012 1.013101e-39
0.024061909 -0.041138094 0.81500012 1.1052854e-39
0.025614286 -0.041138079 0.81500012 8.2940894e-40
0.027166668 -0.04113809 0.81500006 5.5318359e-40
0.028719051 -0.041138101 0.81500012 6.4501768e-40
0.030420007 -0.041340016 0.81900007 8.2868167e-40
0.031980004 -0.041340031 0.81900012 9.2086749e-40
0.033458099 -0.041239068 0.81700009 1.0130771e-39
0.035014287 -0.041239053 0.81700009 1.1967621e-39
0.036480956 -0.041138109 0.81500012 1.4726246e-39
0.038033336 -0.041138094 0.81500012 1.6566515e-39
0.039585717 -0.041138105 0.81500012 1.8403127e-39
0.04113809 -0.04113809 0.81500006 1.8406602e-39
0.0038904788 -0.039682873 0.81700009 5.5213962e-40
0.0054466664 -0.039682858 0.81700009 9.298316e-41
0.0070028594 -0.039682869 0.81700009 9.2288116e-41
0.0085380934 -0.039585706 0.81500012 9.6225764e-41
0.010090477 -0.039585717 0.81500006 9.2269899e-41
0.011628573 -0.039537154 0.81400007 9.6937624e-41
0.013195239 -0.039585713 0.81500012 9.2279708e-41
0.014747622 -0.039585724 0.81500012 9.5502694e-41
0.016280005 -0.039537162 0.81400007 9.2987363e-41
0.017830484 -0.039537173 0.81400007 9.5129949e-41
0.019380962 -0.039537184 0.81400007 5.5465775e-40
0.020931436 -0.039537173 0.81400007 9.2091513e-40
0.022509525 -0.03958571 0.81500012 9.1983053e-40
0.024061909 -0.039585717 0.81500006 9.2125705e-40
0.025614288 -0.039585702 0.81500006 8.2977328e-40
0.027166668 -0.039585713 0.81500012 7.3722032e-40
0.028860008 -0.039780021 0.81900012 8.2833695e-40
0.030420009 -0.039780036 0.81900012 9.2124444e-40
0.031980004 -0.039780021 0.81900012 9.2159897e-40
0.033540007 -0.039780013 0.81900012 9.2196891e-40
0.035100006 -0.039780024 0.81900012 1.2893221e-39
0.0085380943 -0.038033333 0.81500006 2.7589605e-40
0.010078101 -0.037986703 0.81400007 4.5955583e-40
0.01162858 -0.037986711 0.81400007 7.3505391e-40
0.01319524 -0.038033336 0.81500012 5.5173184e-40
0.014747618 -0.038033325 0.81500012 4.6026769e-40
0.016280005 -0.037986696 0.81400007 6.4395129e-40
0.017830485 -0.037986707 0.81400007 8.276391e-40
0.019380959 -0.037986692 0.81400007 1.1042372e-39
0.020931438 -0.037986699 0.81400007 1.3800926e-39
0.022509526 -0.038033333 0.81500006 1.1967705e-39
0.024032382 -0.037986673 0.81400007 1.1052896e-39
0.025582863 -0.037986685 0.81400007 1.0138086e-39
0.02716667 -0.038033336 0.81500012 1.0134499e-39
0.02886001 -0.038220041 0.81900012 1.0134499e-39
0.030420002 -0.038220003 0.81900012 1.1056427e-39
0.031980004 -0.038220014 0.81900012 1.106e-39
0.03354001 -0.038220026 0.81900012 1.1063672e-39
0.035100006 -0.038220018 0.81900007 1.3811646e-39
0.014747622 -0.036480971 0.81500012 8.2764611e-40
0.016280003 -0.0364362 0.81400007 1.1942818e-39
0.017830482 -0.036436211 0.81400007 1.4712289e-39
0.02403239 -0.03643623 0.81400007 1.2896822e-39
0.025582865 -0.036436215 0.81400001 1.289678e-39
-0.0036904777 -0.024357136 0.7750001 6.559621e-39
-0.0022085691 -0.024294296 0.77300006 6.6460742e-39
-0.00073619024 -0.024294289 0.77300012 6.7471386e-39
-0.0022085656 -0.022821937 0.77300012 6.1922608e-39
-0.0007352432 -0.02279236 0.77200007 8.393768e-39
0.00073523691 -0.02279238 0.77200007 9.8717133e-39
-0.00073524215 -0.021321885 0.77200001 4.3354773e-39
0.0007361928 -0.021349538 0.77300012 5.3539509e-39
0.0022085733 -0.021349534 0.77300012 6.2881111e-39
0.0036809579 -0.021349553 0.77300012 6.8359165e-39
0.0065399986 -0.019619994 0.76300007 5.7237605e-39
0.0079933349 -0.019620009 0.76300007 7.4682818e-39
0.0094219008 -0.019568553 0.7610001 8.1215391e-39
0.010871428 -0.019568566 0.7610001 8.7607863e-39
0.005100002 -0.018214297 0.7650001 2.7558818e-39
0.0065399995 -0.018166659 0.76300007 3.3155268e-39
0.0079933349 -0.018166674 0.76300007 3.8608253e-39
0.0094219018 -0.018119033 0.7610001 4.2400293e-39
0.010857144 -0.018095247 0.76000011 4.6963327e-39
0.012304761 -0.018095236 0.76000005 4.7017095e-39
0.013752383 -0.018095249 0.76000005 4.7867164e-39
0.0050866725 -0.016713362 0.76300007 1.6563474e-39
0.0065228553 -0.016669512 0.76100004 1.0131528e-39
0.0079723774 -0.016669501 0.7610001 2.7990096e-40
0.0094095198 -0.016647596 0.76000005 4.6428661e-40
0.01085714 -0.016647607 0.76000011 5.582731e-40
0.012272377 -0.016603786 0.75800002 5.5576198e-40
0.013680005 -0.016560029 0.7560001 5.5755424e-40
0.01512001 -0.016560039 0.7560001 1.0135017e-39
0.0065228567 -0.015219995 0.76100004 1.3826164e-39
