# .PCD v0.7 - Point Cloud Data file format
VERSION 0.7
FIELDS x y z rgb
SIZE 4 4 4 4
TYPE F F F F
COUNT 1 1 1 1
WIDTH 943
HEIGHT 1
VIEWPOINT 0 0 0 1 0 0 0
POINTS 943
DATA ascii
-0.0066257515 -0.024294341 0.77300006 3.6913845e-40
-0.0051533673 -0.024294337 0.77300006 2.7730155e-40
-0.0036762166 -0.024262898 0.77200001 2.7694282e-40
-0.002200014 -0.02420002 0.7700001 3.6877832e-40
-0.00073144597 -0.024137175 0.76800001 4.6061521e-40
0.00073141401 -0.024137165 0.76800001 4.6097395e-40
0.002194257 -0.024137188 0.76800001 4.6097395e-40
0.0036523482 -0.024105765 0.76700002 4.6097254e-40
0.0050999722 -0.024042897 0.76500005 5.5281084e-40
0.0065571195 -0.024042888 0.76500005 4.6061802e-40
0.007993307 -0.023980044 0.76300001 4.6062222e-40
0.0094218822 -0.023917178 0.76100004 4.6098516e-40
0.010871422 -0.023917155 0.76100004 5.5246192e-40
0.01230475 -0.023885736 0.76000005 4.6098516e-40
0.013752375 -0.023885725 0.76000005 3.6950699e-40
0.015119985 -0.023760019 0.75600004 3.6950419e-40
0.016538065 -0.023728618 0.755 3.6950979e-40
0.017976165 -0.023728607 0.75500005 3.6987273e-40
0.019337125 -0.023634309 0.75200003 4.6278162e-40
0.020769496 -0.023634328 0.75200003 4.6277742e-40
0.022142841 -0.023571456 0.75000006 4.6278022e-40
0.023508551 -0.023508599 0.74800003 4.6242429e-40
0.024933301 -0.023508618 0.74800003 5.5462272e-40
0.026252385 -0.023414277 0.74500006 8.3013341e-40
0.027597133 -0.023351442 0.74300003 1.1974656e-39
0.028895203 -0.023257196 0.74000001 6.4428901e-40
0.0301819 -0.023162862 0.73700005 1.8412081e-40
0.031585693 -0.023162883 0.73700005 5.721241e-39
0.032855205 -0.023068616 0.73399997 1.125579e-38
0.034253314 -0.023068607 0.73400003 1.2450394e-38
0.03555426 -0.023005763 0.73200005 1.3642458e-38
0.036898084 -0.022974312 0.73100001 1.2907052e-38
0.038185686 -0.022911472 0.72900003 1.226168e-38
0.039574265 -0.022911454 0.72900009 1.1619177e-38
0.040906653 -0.022880014 0.72800004 1.0972097e-38
-0.038705733 -0.021050503 0.71300006 1.7542743e-39
-0.03734763 -0.021050487 0.71300006 1.6624529e-39
-0.035888601 -0.020991469 0.71100003 1.5691978e-39
-0.034048598 -0.020696228 0.70100003 1.1085994e-39
-0.032666691 -0.0206667 0.70000005 5.5466336e-40
-0.03119906 -0.020578118 0.69700003 4.6062362e-40
-0.029785726 -0.020519068 0.69500005 2.7766589e-40
-0.028420985 -0.020489579 0.69400001 2.7873788e-40
-0.027060011 -0.020460017 0.69300002 2.7837915e-40
-0.025740033 -0.020460054 0.69299996 2.7802042e-40
-0.024349544 -0.020400982 0.69099998 1.8582619e-40
-0.023033362 -0.020400999 0.69099998 5.5245071e-40
-0.024357161 -0.022880981 0.77500004 8.2831593e-40
-0.022880979 -0.022880992 0.7750001 5.5280944e-40
-0.021404799 -0.022881007 0.77500004 1.8546606e-40
-0.019877182 -0.022821961 0.77300006 2.7730155e-40
-0.018452402 -0.022880984 0.77500004 3.6913705e-40
-0.016932394 -0.022821927 0.77300006 3.6913845e-40
-0.01550002 -0.022880984 0.77500004 3.6913705e-40
-0.01402384 -0.022881001 0.77500004 3.6913705e-40
-0.012547656 -0.022881011 0.77500004 3.6913845e-40
-0.011042885 -0.02282195 0.77300006 3.6878112e-40
-0.0095705008 -0.022821944 0.77300006 3.6878112e-40
-0.0080981171 -0.022821939 0.77300006 3.6878252e-40
-0.0066171559 -0.022792401 0.77200001 2.7766309e-40
-0.0051466846 -0.022792408 0.77200001 2.7837915e-40
-0.0036762147 -0.022792418 0.77200001 1.8546746e-40
-0.0021943091 -0.022674322 0.76800001 2.7730435e-40
-0.00073144818 -0.022674315 0.76800001 2.7731697e-40
0.00073140883 -0.022674317 0.76800001 3.7024127e-40
0.0021914169 -0.022644782 0.76700002 4.6098796e-40
0.003642821 -0.02258577 0.76500005 6.4428761e-40
0.0050999671 -0.022585763 0.76500005 8.2832013e-40
0.0065399804 -0.022526696 0.76300007 6.4429321e-40
0.0079933153 -0.022526694 0.76300001 4.6098235e-40
0.0094218738 -0.022467667 0.76100004 5.5317798e-40
0.01085713 -0.022438115 0.76000005 6.4501488e-40
0.012272362 -0.022379078 0.75800002 5.5246192e-40
0.013679991 -0.022320019 0.75600004 4.6098095e-40
0.015099962 -0.02229053 0.755 3.6914265e-40
0.016538067 -0.022290519 0.75500005 2.7803023e-40
0.017928552 -0.022231456 0.75300002 3.7059019e-40
0.019337123 -0.022201931 0.75200003 4.6278442e-40
0.020714259 -0.022142896 0.75000006 3.7166639e-40
0.022083769 -0.022083877 0.74799997 2.7947917e-40
0.023508528 -0.022083875 0.74799997 3.7096154e-40
0.024899997 -0.022054294 0.74700004 4.6279844e-40
0.026181882 -0.021936225 0.74300003 9.2197592e-40
0.027597137 -0.021936201 0.74300003 1.2885948e-39
0.028895216 -0.021847649 0.74000001 8.2690202e-40
0.030263789 -0.021818122 0.73900002 2.8565469e-40
0.031585708 -0.02175905 0.73700011 6.0964821e-39
0.032944743 -0.021729548 0.73600006 1.1896489e-38
0.034253307 -0.021670518 0.73400003 1.3003917e-38
0.035554264 -0.021611469 0.73199999 1.401195e-38
0.036948532 -0.02161148 0.73199999 1.3369098e-38
0.038342822 -0.021611474 0.73199999 1.272517e-38
0.039574273 -0.021522881 0.72900009 1.2359262e-38
-0.038705729 -0.019692399 0.71300012 1.6624444e-39
-0.037347641 -0.019692408 0.71300006 1.5698999e-39
-0.032666698 -0.019333381 0.70000005 7.3616794e-40
-0.031199042 -0.019250473 0.69700003 5.5246752e-40
-0.029742878 -0.019167654 0.69400001 3.6878812e-40
-0.02842097 -0.019167645 0.69400001 3.6949578e-40
-0.027060026 -0.019140044 0.69300002 3.6985451e-40
-0.02574002 -0.019140033 0.69300002 2.7766028e-40
-0.02434955 -0.019084796 0.69099998 1.8546746e-40
-0.023033353 -0.019084793 0.69099998 3.6877972e-40
-0.024294315 -0.02134957 0.77300006 6.4428621e-40
-0.022821931 -0.021349564 0.77300006 4.6097395e-40
-0.021349549 -0.02134956 0.77300006 2.7694422e-40
-0.019851452 -0.021321939 0.77200001 3.6877832e-40
-0.018404793 -0.02134957 0.77300006 3.6877972e-40
-0.01691051 -0.021321956 0.77200001 4.6097395e-40
-0.015460039 -0.021349581 0.77300006 4.6097395e-40
-0.013987654 -0.021349577 0.77300006 4.6061381e-40
-0.012515268 -0.021349574 0.77300006 5.5245211e-40
-0.011042886 -0.021349568 0.77300006 4.6061802e-40
-0.0095705148 -0.021349583 0.77300006 4.6061942e-40
-0.0080876555 -0.021321962 0.77200001 3.6950139e-40
-0.0066171717 -0.021321947 0.77199996 2.7802322e-40
-0.0051333304 -0.021266663 0.7700001 2.7730435e-40
-0.0036666736 -0.021266676 0.77000004 2.7658829e-40
-0.0021942959 -0.021211447 0.76800001 2.7694702e-40
-0.00073049555 -0.021183841 0.76700002 3.6880774e-40
0.00073045224 -0.021183847 0.76700002 4.6102579e-40
0.002191396 -0.02118386 0.76700002 4.6064324e-40
0.0036428324 -0.021128612 0.76500005 5.5245491e-40
0.0050866506 -0.021073358 0.76300001 7.3648744e-40
0.0065399888 -0.021073351 0.76300007 5.5246052e-40
0.0079723587 -0.021018131 0.76100004 4.6062502e-40
0.0094095133 -0.020990495 0.76000005 4.6134109e-40
0.010857122 -0.020990513 0.76000005 4.6241868e-40
0.012272367 -0.020935263 0.75800002 3.6950839e-40
0.013661883 -0.020852413 0.75500005 3.6878532e-40
0.01509998 -0.020852411 0.75500005 3.6913845e-40
0.016494282 -0.020797152 0.75300002 4.6134109e-40
0.017904731 -0.020769568 0.75200003 6.4573795e-40
0.019285697 -0.020714315 0.75000006 8.2977188e-40
0.020714257 -0.020714326 0.75000006 6.4610369e-40
0.022083776 -0.0206591 0.74799997 4.6280124e-40
0.023508536 -0.0206591 0.74799997 5.5464654e-40
0.024899988 -0.020631444 0.74700004 6.4683797e-40
0.026252382 -0.020576194 0.74500012 1.1052952e-39
0.027597137 -0.020520959 0.74300003 1.5648314e-39
0.028895203 -0.020438151 0.74000001 1.6555907e-39
0.030263806 -0.020410486 0.73900002 1.7485781e-39
0.031585708 -0.020355247 0.73700005 6.4616787e-39
0.032944735 -0.020327656 0.73600006 1.1168982e-38
0.034346655 -0.020327641 0.73600006 1.1438766e-38
0.035651423 -0.020272398 0.73400003 1.1808256e-38
0.037049487 -0.020272434 0.73400003 1.1713545e-38
0.038342834 -0.020217175 0.73200005 1.162423e-38
0.039682858 -0.020189522 0.73100007 1.1622086e-38
-0.032666694 -0.01800004 0.70000005 8.287181e-40
-0.031243838 -0.017948616 0.69800001 6.4394709e-40
-0.029785741 -0.017871471 0.69500005 4.6062502e-40
-0.028420974 -0.017845744 0.69400001 4.6097535e-40
-0.027060013 -0.017820023 0.69300002 3.6914125e-40
-0.025740026 -0.01782004 0.69299996 2.7730716e-40
-0.02434955 -0.01776861 0.69100004 9.3637566e-41
-0.023033354 -0.017768608 0.69099998 2.7694983e-40
-0.024262894 -0.019851482 0.77200001 3.6914265e-40
-0.022792408 -0.01985147 0.77199996 3.6914125e-40
-0.021321937 -0.019851478 0.77199996 3.6877972e-40
-0.01985145 -0.019851459 0.77200001 3.6841958e-40
-0.018380977 -0.019851469 0.77200001 3.6877972e-40
-0.016866688 -0.019800032 0.77000004 4.6097395e-40
-0.015440024 -0.019851463 0.77199996 5.5245071e-40
-0.013969554 -0.019851472 0.77199996 6.4392607e-40
-0.012499082 -0.019851483 0.77199996 6.4428901e-40
-0.011028592 -0.019851463 0.77200001 5.5245772e-40
-0.0095581226 -0.019851472 0.77200001 4.6134809e-40
-0.0080666756 -0.019800017 0.77000004 3.705986e-40
-0.00660002 -0.019800032 0.77000004 2.7803583e-40
-0.0051333448 -0.01980002 0.7700001 2.7659249e-40
-0.0036666743 -0.019800013 0.77000004 2.765939e-40
-0.0021914595 -0.019722903 0.76700002 3.6879093e-40
-0.00073049788 -0.01972289 0.76700002 4.6064044e-40
0.00072854303 -0.01967147 0.76500005 4.6029572e-40
0.0021856909 -0.019671464 0.76500005 4.6064184e-40
0.0036333245 -0.019620014 0.76300001 5.5246472e-40
0.005086645 -0.019620037 0.76300001 5.5246893e-40
0.0065228404 -0.019568598 0.76100004 5.521144e-40
0.0079723615 -0.019568602 0.76100004 4.6099496e-40
0.0094095161 -0.019542871 0.76000005 3.6915807e-40
0.010828559 -0.019491451 0.75800002 2.776827e-40
0.012239975 -0.019440038 0.75599998 2.7732537e-40
0.013625705 -0.019362872 0.75300002 1.8548427e-40
0.015059975 -0.019362891 0.75300002 4.6098516e-40
0.016494278 -0.019362869 0.75300002 6.4502049e-40
0.017904725 -0.019337192 0.75200003 9.2053258e-40
0.019285677 -0.019285776 0.75000006 1.196402e-39
0.020714251 -0.01928577 0.75000006 9.1982352e-40
0.022083767 -0.019234346 0.74800003 6.4575477e-40
0.02350853 -0.019234344 0.74800003 7.379532e-40
0.024899993 -0.01920858 0.74700004 8.2942155e-40
0.02625237 -0.019157166 0.74500006 1.3789912e-39
0.027597129 -0.01910574 0.74300003 1.8388917e-39
0.028895218 -0.0190286 0.74000001 2.482106e-39
0.030263804 -0.019002864 0.73900002 3.1347103e-39
0.031585705 -0.018951442 0.73700005 6.8322367e-39
0.032989502 -0.018951459 0.73700005 1.0418838e-38
0.034346648 -0.018925741 0.73600006 9.9571434e-39
0.035651393 -0.018874336 0.73399997 9.5022918e-39
0.037049498 -0.018874327 0.73400003 9.9607728e-39
0.038342826 -0.018822905 0.73200005 1.0424262e-38
0.039737117 -0.018822901 0.73200005 1.0880934e-38
-0.031243835 -0.016619081 0.69800007 5.5318919e-40
-0.029785741 -0.016547659 0.69500005 5.5282205e-40
-0.028420992 -0.016523868 0.69400001 5.5281365e-40
-0.027060015 -0.01650003 0.69299996 5.5245772e-40
-0.025740022 -0.016500037 0.69300002 3.6878953e-40
-0.02434954 -0.016452407 0.69099998 2.7731416e-40
-0.023033358 -0.016452422 0.69099998 6.4465615e-40
-0.024200005 -0.01833334 0.7700001 1.0119953e-39
-0.022733349 -0.018333355 0.77000004 8.2832013e-40
-0.021266673 -0.01833334 0.7700001 6.4428761e-40
-0.019800015 -0.018333357 0.77000004 4.6061381e-40
-0.018333346 -0.018333351 0.77000004 3.6913845e-40
-0.016866671 -0.018333336 0.77000004 4.6061521e-40
-0.015400012 -0.018333353 0.77000004 6.4356874e-40
-0.013933337 -0.01833334 0.7700001 6.4392607e-40
-0.01246668 -0.018333355 0.77000004 7.3612591e-40
-0.011000025 -0.01833337 0.77000004 5.5281925e-40
-0.0095333345 -0.018333336 0.77000004 4.6171944e-40
-0.0080457237 -0.018285733 0.76800001 3.7026089e-40
-0.0065828818 -0.018285753 0.76800001 3.6988534e-40
-0.0051200194 -0.018285744 0.76800001 3.6914966e-40
-0.0036571445 -0.01828572 0.76800001 3.684364e-40
-0.002185744 -0.018214332 0.76500005 5.5246893e-40
-0.00072859612 -0.018214324 0.76500005 6.4430863e-40
0.00072853861 -0.018214336 0.76500005 7.3578959e-40
0.0021799817 -0.018166697 0.76300001 8.2762369e-40
0.0036333208 -0.018166689 0.76300007 7.3614552e-40
0.005073308 -0.018119087 0.76100004 7.3650986e-40
0.0065142736 -0.01809526 0.76000005 6.4467857e-40
0.0079619 -0.018095249 0.76000005 5.532004e-40
0.0093847485 -0.01804764 0.75800002 4.6136211e-40
0.010799978 -0.018000035 0.75599998 4.6136351e-40
0.012239977 -0.018000035 0.75599998 4.6100618e-40
0.013607608 -0.017904775 0.75200009 4.613593e-40
0.015039978 -0.01790479 0.75200003 5.5283046e-40
0.016472366 -0.017904783 0.75200003 7.3686299e-40
0.017857112 -0.01785719 0.75000006 8.2870129e-40
0.019285686 -0.017857185 0.75000006 1.0127366e-39
0.020659015 -0.017809574 0.74800003 7.3723433e-40
0.022083778 -0.017809572 0.74800003 5.5392067e-40
0.023508538 -0.01780957 0.74800003 7.3794759e-40
0.024899986 -0.017785737 0.74700004 1.0134401e-39
0.026181892 -0.017690493 0.74300003 1.0123485e-39
0.027597129 -0.017690491 0.74300003 1.0112863e-39
0.028895203 -0.017619107 0.73999995 2.4824605e-39
0.0302638 -0.017595245 0.73900002 4.0476758e-39
0.031671427 -0.017595235 0.73900002 8.2011455e-39
0.032989517 -0.01754763 0.73700011 1.2430574e-38
0.034346648 -0.01752384 0.73600006 1.3266392e-38
0.035748541 -0.017523849 0.73600006 1.418049e-38
0.037049491 -0.017476235 0.73400003 1.474267e-38
0.038447596 -0.017476225 0.73400003 1.5384088e-38
-0.031243831 -0.015289557 0.69800001 4.6134249e-40
-0.029785724 -0.015223821 0.69500005 5.5317378e-40
-0.02842099 -0.015201963 0.69400001 6.4428901e-40
-0.026981931 -0.01513623 0.69100004 6.4429321e-40
-0.025665734 -0.015136224 0.69099998 5.5210319e-40
-0.024349542 -0.01513622 0.69100004 3.6878953e-40
-0.023033345 -0.015136215 0.69099998 1.0116366e-39
-0.02413716 -0.016822884 0.76800001 1.5630055e-39
-0.02264479 -0.01680099 0.76700002 1.195302e-39
-0.021211457 -0.016822899 0.76800001 8.2831733e-40
-0.019748595 -0.016822891 0.76800001 6.4464494e-40
-0.018285733 -0.016822886 0.76800001 3.6913985e-40
-0.016822876 -0.016822888 0.76800001 5.5245351e-40
-0.015360015 -0.016822878 0.76800001 6.4428901e-40
-0.013897153 -0.016822873 0.76800001 7.3576577e-40
-0.01243431 -0.016822895 0.76800001 7.3613011e-40
-0.010971448 -0.016822888 0.76800001 6.4430022e-40
-0.0094962129 -0.016800985 0.76700002 4.613593e-40
-0.00803525 -0.016800972 0.76700002 4.6173065e-40
-0.0065743211 -0.016801005 0.76700002 3.6988394e-40
-0.00511336 -0.016800992 0.76700002 4.6170823e-40
-0.0036523987 -0.016800977 0.76700002 4.6099356e-40
-0.002180018 -0.01671336 0.76300001 6.4430722e-40
-0.00072667969 -0.016713355 0.76300007 8.2798242e-40
0.00072665385 -0.016713353 0.76300007 1.0113003e-39
0.0021742703 -0.016669549 0.7610001 1.1953314e-39
0.0036237924 -0.016669555 0.76100004 1.0116632e-39
0.0050666546 -0.016647639 0.76000005 8.287111e-40
0.0064971303 -0.016603829 0.75800002 7.3615954e-40
0.0079409415 -0.016603826 0.75800002 5.5284728e-40
0.0093599791 -0.016560029 0.75599998 6.4504151e-40
0.010799979 -0.016560033 0.75599998 6.450387e-40
0.012239994 -0.016560009 0.75600004 6.4431984e-40
0.013607605 -0.016472401 0.75200009 6.450345e-40
0.015039976 -0.016472416 0.75200003 7.3614973e-40
0.016472366 -0.016472405 0.75200003 7.3651266e-40
0.017857121 -0.016428603 0.75000012 8.2835096e-40
0.019285681 -0.016428623 0.75000006 8.2907123e-40
0.020659022 -0.016384799 0.74800003 6.4540304e-40
0.022083772 -0.016384821 0.74800003 3.7061262e-40
0.023477132 -0.016362874 0.74700004 8.3050476e-40
0.024833329 -0.016319055 0.74500006 1.1971111e-39
0.026181895 -0.016275251 0.74300003 6.453638e-40
0.027597137 -0.016275249 0.74300003 9.2943923e-41
0.028895203 -0.016209576 0.74000001 2.5718129e-39
0.030263804 -0.016187625 0.73900008 4.9825787e-39
0.031671427 -0.016187618 0.73900002 9.6773952e-39
0.032989509 -0.016143825 0.73700005 1.4377863e-38
0.034393325 -0.016143821 0.73700005 1.6681283e-38
0.03574856 -0.016121924 0.73600006 1.889002e-38
0.037150458 -0.016121937 0.73600006 1.9629033e-38
0.038447604 -0.016078118 0.73400003 2.0272225e-38
-0.028420975 -0.013880032 0.69400001 6.4500367e-40
-0.026981922 -0.013820023 0.69099998 5.5209758e-40
-0.02566574 -0.013820038 0.69100004 4.6062642e-40
-0.02434955 -0.013820034 0.69100004 4.6062362e-40
-0.025566699 -0.015340049 0.76700002 7.3648464e-40
-0.024105741 -0.015340035 0.76700002 1.0127072e-39
-0.02258574 -0.015300037 0.76500005 9.2051156e-40
-0.021128591 -0.01530003 0.76500005 7.371993e-40
-0.019722886 -0.015340042 0.76700002 5.5316817e-40
-0.018261937 -0.015340049 0.76700002 3.6878252e-40
-0.016800977 -0.015340036 0.76700002 4.6097955e-40
-0.015340012 -0.015340021 0.76700002 5.5281505e-40
-0.013879085 -0.015340055 0.76700002 5.5281505e-40
-0.012418123 -0.015340043 0.76700002 5.5210459e-40
-0.01095716 -0.015340028 0.76700002 4.6063343e-40
-0.0094962148 -0.015340037 0.76700002 4.6099917e-40
-0.0080143018 -0.015300023 0.76500005 3.6952941e-40
-0.006557168 -0.015300036 0.76500005 3.6952521e-40
-0.0051000207 -0.015300029 0.76500005 3.695196e-40
-0.0036428864 -0.015300044 0.76500005 4.6099777e-40
-0.0021743095 -0.015220034 0.76100004 5.53192e-40
-0.00072477001 -0.015220013 0.76100004 6.4467437e-40
0.00072380539 -0.015200008 0.76000005 8.2799083e-40
0.0021714121 -0.015200025 0.76000005 1.0116688e-39
0.0036190376 -0.015200016 0.76000005 8.2872091e-40
0.0050533218 -0.015160016 0.75800002 7.3796021e-40
0.0064799706 -0.015120043 0.75599998 6.4504571e-40
0.007919969 -0.015120047 0.75599998 5.5285288e-40
0.0093599847 -0.015120025 0.75600004 5.5357175e-40
0.010799983 -0.015120025 0.75600004 5.5356614e-40
0.01222378 -0.015100043 0.755 5.5356054e-40
0.013607603 -0.015040024 0.75200009 6.4575617e-40
0.015039974 -0.015040041 0.75200003 6.450387e-40
0.016472362 -0.015040028 0.75200003 5.5284868e-40
0.017857116 -0.015000041 0.75000006 7.3688261e-40
0.019285694 -0.015000035 0.75000006 8.2907824e-40
0.020659015 -0.014960044 0.74800003 7.3760147e-40
0.022054274 -0.014940015 0.74700004 6.4576458e-40
0.023477137 -0.014940009 0.74700004 6.4612051e-40
0.024833318 -0.014900026 0.74500006 7.3757625e-40
0.026181899 -0.014860009 0.74300003 1.7463108e-39
0.027597118 -0.014860037 0.74300003 2.847304e-39
0.028973315 -0.014840032 0.74200004 7.4681781e-39
0.030304743 -0.014800026 0.74000001 1.1990105e-38
0.031671427 -0.014779997 0.73900008 1.4385824e-38
0.032989509 -0.014740021 0.73700005 1.6702181e-38
0.034393322 -0.014740021 0.73699999 1.7157794e-38
0.035748553 -0.014720031 0.73600006 1.7630603e-38
0.037150472 -0.014720014 0.73600006 1.6789017e-38
0.038447596 -0.014680025 0.73400003 1.5970356e-38
-0.026981922 -0.012503837 0.69100004 3.6914966e-40
-0.02566573 -0.012503832 0.69099998 4.6063203e-40
-0.026886692 -0.013806705 0.76300001 4.6098375e-40
-0.025500027 -0.013842899 0.76500005 4.6097815e-40
-0.024042878 -0.013842891 0.76500005 4.6134109e-40
-0.022585746 -0.013842904 0.76500005 5.5318079e-40
-0.021128599 -0.013842897 0.76500005 6.4537782e-40
-0.019671449 -0.01384289 0.76500005 4.6134949e-40
-0.018214317 -0.013842902 0.76500005 2.776799e-40
-0.01675717 -0.013842895 0.76500005 3.6987553e-40
-0.01530002 -0.013842888 0.76500005 3.6987273e-40
-0.013842884 -0.0138429 0.76500005 3.7022866e-40
-0.012385738 -0.013842894 0.76500005 2.776827e-40
-0.010928604 -0.013842906 0.76500005 3.6916788e-40
-0.0094714556 -0.013842898 0.76500005 3.6917208e-40
-0.0080143092 -0.013842889 0.76500005 3.6989375e-40
-0.0065400093 -0.013806679 0.76300001 3.6953221e-40
-0.0050866888 -0.0138067 0.76300001 3.6917068e-40
-0.0036333553 -0.0138067 0.76300001 3.6953081e-40
-0.0021714368 -0.013752396 0.76000005 4.6208518e-40
-0.00072383077 -0.013752415 0.76000005 4.6173065e-40
0.00072189153 -0.013716212 0.75800002 6.4468838e-40
0.0021714335 -0.013752376 0.76000005 7.3652668e-40
0.0036095143 -0.013716203 0.75800002 7.3724835e-40
0.005053326 -0.013716203 0.75800002 6.4576458e-40
0.0064799893 -0.013680017 0.75600004 5.5356194e-40
0.0079095 -0.013661944 0.75500005 4.6174186e-40
0.0093475981 -0.013661938 0.755 4.6283347e-40
0.010785681 -0.013661955 0.755 3.7062943e-40
0.012223798 -0.013661925 0.75500005 5.5429202e-40
0.0136076 -0.013607648 0.75200009 6.4577018e-40
0.01503997 -0.013607663 0.75200003 5.5357875e-40
0.016428553 -0.013571461 0.75000006 3.6954483e-40
0.017857127 -0.013571451 0.75000006 6.4504851e-40
0.019234262 -0.01353527 0.74800003 8.2907403e-40
0.020659022 -0.013535268 0.74800003 8.2942996e-40
0.022054281 -0.013517148 0.74700004 8.297943e-40
0.023414271 -0.013480972 0.74500006 5.5357735e-40
0.024833322 -0.013480966 0.74500006 1.8515497e-40
0.026181888 -0.013444788 0.74300003 2.9391395e-39
0.027597122 -0.013444795 0.74300003 5.6279131e-39
0.028973315 -0.013426696 0.74200004 1.2371798e-38
0.030304728 -0.013390529 0.74000001 1.8983643e-38
0.031671412 -0.013372407 0.73900002 1.898979e-38
0.032989506 -0.013336218 0.73700005 1.8989443e-38
0.034393337 -0.013336186 0.73700005 1.7708422e-38
0.035748564 -0.013318106 0.73600006 1.6316156e-38
0.037150465 -0.013318115 0.73600006 1.4017374e-38
0.038447592 -0.01328195 0.73399997 1.1622449e-38
-0.026886685 -0.01235336 0.76300001 4.6206275e-40
-0.025366694 -0.012320993 0.76100004 4.6169561e-40
-0.023917155 -0.01232097 0.76100004 4.6098796e-40
-0.022467649 -0.012320995 0.76100004 6.4502749e-40
-0.02101811 -0.012320972 0.76100004 9.2089832e-40
-0.019620022 -0.012353366 0.76300001 6.450373e-40
-0.018166671 -0.012353337 0.76300007 3.6953081e-40
-0.016669542 -0.012320981 0.76100004 3.6952941e-40
-0.015260015 -0.012353355 0.76300001 3.6988394e-40
-0.013806694 -0.012353375 0.76300001 2.7804284e-40
-0.012353342 -0.012353345 0.76300007 2.7805125e-40
-0.010900008 -0.012353345 0.76300001 3.6917769e-40
-0.0094466871 -0.012353363 0.76300001 4.6029712e-40
-0.0079933526 -0.012353364 0.76300001 4.6101598e-40
-0.0065400139 -0.012353356 0.76300007 4.6137472e-40
-0.0050733592 -0.012320993 0.76100004 4.6137332e-40
-0.0036238204 -0.012320969 0.76100004 4.6137612e-40
-0.0021657278 -0.012272401 0.75800002 4.6173625e-40
-0.00072191737 -0.012272399 0.75800002 4.6209919e-40
0.00072189479 -0.012272397 0.75800002 5.5322002e-40
0.0021657064 -0.012272393 0.75800002 6.4469819e-40
0.0036095185 -0.012272391 0.75800002 6.4505832e-40
0.0050399913 -0.012240015 0.75600004 6.4540444e-40
0.0064799893 -0.012240019 0.75600004 5.5355493e-40
0.0079094982 -0.01222385 0.755 5.5322563e-40
0.0093475813 -0.012223866 0.755 5.5397252e-40
0.010785697 -0.012223834 0.75500005 5.5467737e-40
0.012191408 -0.012191462 0.75300002 5.5394589e-40
0.013607597 -0.012175272 0.75200009 6.4506813e-40
0.014999969 -0.012142901 0.75000006 6.4543107e-40
0.016428545 -0.012142896 0.75000006 6.4506112e-40
0.017809492 -0.012110527 0.74799997 7.3688401e-40
0.019234259 -0.012110519 0.74800003 9.2090673e-40
0.020659018 -0.012110517 0.74800003 9.2161578e-40
0.02205427 -0.012094305 0.74700004 9.2270739e-40
0.023414278 -0.012061915 0.74500006 5.5394589e-40
0.02483331 -0.012061936 0.74500006 1.8410539e-40
0.026181892 -0.012029548 0.74300003 3.2247339e-39
0.027597126 -0.012029554 0.74300003 6.189405e-39
0.028973302 -0.012013382 0.74200004 1.0340762e-38
0.030304741 -0.011980978 0.74000001 1.4583123e-38
0.031671423 -0.011964767 0.73900002 1.3926993e-38
0.032989521 -0.011932383 0.73700011 1.3282352e-38
0.034346659 -0.011916195 0.73600006 1.2166337e-38
0.03574856 -0.01191621 0.73600006 1.1132421e-38
0.037150461 -0.011916214 0.73600006 1.0409166e-38
0.038447585 -0.01188386 0.73400003 9.7584057e-39
-0.025333354 -0.01085717 0.76000005 4.6205295e-40
-0.023885727 -0.010857164 0.76000005 4.6170682e-40
-0.022438101 -0.010857155 0.76000005 8.2906142e-40
-0.020990495 -0.010857171 0.76000005 1.1042148e-39
-0.019568577 -0.01087144 0.7610001 7.3651827e-40
-0.018095266 -0.01085718 0.76000005 3.6917769e-40
-0.016647639 -0.010857172 0.76000005 3.6882176e-40
-0.015200012 -0.010857162 0.76000005 2.7769111e-40
-0.013770488 -0.010871445 0.7610001 2.7732117e-40
-0.012320968 -0.010871449 0.76100004 2.7768971e-40
-0.010871441 -0.010871449 0.7610001 3.6845742e-40
-0.0094219213 -0.010871452 0.76100004 4.6066005e-40
-0.007972396 -0.010871452 0.7610001 4.6066986e-40
-0.0065228753 -0.010871456 0.76100004 4.6138312e-40
-0.0050733499 -0.010871455 0.7610001 4.6137892e-40
-0.0036190529 -0.01085715 0.76000005 4.6210479e-40
-0.0021657245 -0.010828589 0.75800002 4.6175587e-40
-0.00072191365 -0.010828584 0.75800002 4.6175167e-40
0.00072189805 -0.010828581 0.75800002 5.5286549e-40
0.002159982 -0.010800029 0.75600004 5.5286689e-40
0.0035999794 -0.010800031 0.75600004 5.5322703e-40
0.0050399774 -0.010800035 0.75600004 5.5357875e-40
0.0064713969 -0.010785764 0.755 6.4504851e-40
0.0079095 -0.01078575 0.75500005 6.4506393e-40
0.0093475981 -0.010785746 0.75500005 6.4543807e-40
0.010785682 -0.010785765 0.75500005 6.4542966e-40
0.012191406 -0.010757177 0.75300002 6.4470519e-40
0.013607594 -0.010742894 0.75200009 5.5358576e-40
0.014999982 -0.010714314 0.75000006 7.3725675e-40
0.01642856 -0.010714308 0.75000006 9.2091794e-40
0.017809484 -0.010685771 0.74800003 9.2054939e-40
0.019234248 -0.010685771 0.74799997 9.2089692e-40
0.020631419 -0.010671445 0.74700004 9.2160317e-40
0.022054264 -0.010671458 0.74700004 9.2198152e-40
0.023414267 -0.010642885 0.74500006 5.5501789e-40
0.024833331 -0.010642857 0.74500006 1.8663474e-40
0.026181895 -0.010614303 0.74300003 3.4949e-39
0.027597127 -0.010614309 0.74300003 6.7342929e-39
0.028973304 -0.010600048 0.74200004 8.401719e-39
0.030304726 -0.010571484 0.73999995 1.0055468e-38
0.031671423 -0.010557148 0.73900002 8.7611548e-39
0.032989517 -0.01052858 0.73700011 7.4740257e-39
0.034346655 -0.010514303 0.73600006 6.7257113e-39
0.035748556 -0.010514305 0.73600012 5.9935175e-39
0.037049491 -0.010485758 0.73400003 6.9125689e-39
-0.026499072 -0.0093105072 0.75200003 4.6136631e-40
-0.025066681 -0.009310496 0.75200003 4.6169141e-40
-0.02366573 -0.0093228808 0.75300002 4.6134949e-40
-0.022290515 -0.0093476735 0.75500005 5.532004e-40
-0.020797156 -0.0093228789 0.75300002 7.3615954e-40
-0.019414313 -0.0093476614 0.75500005 6.4432824e-40
-0.018000025 -0.0093600377 0.75599998 5.5213822e-40
-0.016560027 -0.0093600415 0.75599998 4.6102439e-40
-0.015120029 -0.0093600471 0.75599998 4.6172364e-40
-0.013680014 -0.009360021 0.75600004 3.6986993e-40
-0.012240016 -0.0093600247 0.75600004 3.6987974e-40
-0.010828589 -0.0093847904 0.75799996 5.5284307e-40
-0.0093847783 -0.0093847867 0.75799996 6.4433665e-40
-0.0079619214 -0.0094095487 0.76000005 6.4506953e-40
-0.0064971554 -0.0093847802 0.75800002 6.4577999e-40
-0.0050533437 -0.0093847783 0.75800002 6.4613031e-40
-0.003609533 -0.0093847765 0.75800002 5.561053e-40
-0.0021657213 -0.0093847727 0.75800002 5.5432845e-40
-0.00072001421 -0.0093600219 0.75600004 5.5324104e-40
0.00071998278 -0.0093600256 0.75600004 5.528697e-40
0.0021571149 -0.0093476614 0.755 6.4434786e-40
0.003595199 -0.0093476772 0.755 6.4506533e-40
0.0050333156 -0.0093476465 0.75500005 6.4542406e-40
0.0064542727 -0.009322877 0.75300002 6.4506533e-40
0.007888562 -0.0093228733 0.75300002 6.4506673e-40
0.0093228454 -0.0093228752 0.75300002 6.4506673e-40
0.010757133 -0.0093228696 0.75300002 6.4506533e-40
0.012175216 -0.0093105109 0.75200003 6.4506393e-40
0.013571399 -0.0092857582 0.75000006 7.3797001e-40
0.014999975 -0.0092857508 0.75000006 7.3760428e-40
0.016384732 -0.009261 0.74800003 7.3723854e-40
0.017809493 -0.0092609981 0.74800003 8.2870829e-40
0.019234253 -0.009261 0.74799997 9.2052838e-40
0.020631425 -0.009248578 0.74700004 1.0127072e-39
0.02205427 -0.0092485948 0.74700004 1.1964034e-39
0.023414273 -0.0092238272 0.74500006 9.2056201e-40
0.024766659 -0.0091990633 0.74300003 5.5327748e-40
0.026181897 -0.0091990614 0.74300003 3.9659563e-39
0.027559984 -0.0091866916 0.74200004 7.2899428e-39
0.028973322 -0.0091866823 0.74200004 8.2068334e-39
0.030304728 -0.0091619538 0.74000001 9.1183668e-39
0.031585716 -0.0091247568 0.73700011 8.4783826e-39
0.032989509 -0.0091247773 0.73700005 7.9227089e-39
0.034346636 -0.0091124261 0.73600006 7.4656866e-39
0.035748556 -0.0091124075 0.73600006 7.0090287e-39
-0.026499074 -0.0078781303 0.75200003 5.5355773e-40
-0.025000036 -0.0078571923 0.75000006 5.5354092e-40
-0.023634311 -0.0078781359 0.75200003 4.613607e-40
-0.022201926 -0.0078781229 0.75200003 3.6918049e-40
-0.020769535 -0.0078781135 0.75200009 2.773506e-40
-0.019362887 -0.0078886179 0.75300002 4.6102579e-40
-0.017928585 -0.0078885909 0.75300002 6.4469819e-40
-0.016538115 -0.0079095513 0.75500005 6.4470099e-40
-0.015060012 -0.0078885891 0.75300002 5.5357175e-40
-0.01362574 -0.0078886123 0.75300002 5.5391927e-40
-0.012223849 -0.007909582 0.75500005 4.6172925e-40
-0.010785748 -0.0079095773 0.755 6.4540584e-40
-0.0093476335 -0.0079095466 0.75500005 8.2872791e-40
-0.0079200221 -0.0079200352 0.75599998 8.2909645e-40
-0.0064800247 -0.007920037 0.75599998 8.2945098e-40
-0.0050400267 -0.0079200398 0.75599998 7.3761268e-40
-0.0036095288 -0.0079409601 0.75800002 6.4614573e-40
-0.0021571671 -0.0079095606 0.75500005 6.4543807e-40
-0.00071908289 -0.0079095764 0.75500005 6.447108e-40
0.00071901607 -0.0079095736 0.755 6.4398352e-40
0.0021571182 -0.0079095615 0.75500005 6.4434646e-40
0.0035952153 -0.0079095587 0.75500005 6.447094e-40
0.0050332989 -0.0079095764 0.75500005 6.4507374e-40
0.0064542708 -0.0078885956 0.75300002 6.4436188e-40
0.0078885425 -0.0078886161 0.75300002 5.5288091e-40
0.0093104551 -0.0078781312 0.75200003 6.4506953e-40
0.010742843 -0.0078781182 0.75200003 6.447122e-40
0.012175214 -0.007878135 0.75200003 7.365491e-40
0.013571411 -0.007857169 0.75000006 8.2944818e-40
0.014959965 -0.0078362459 0.74800003 7.3760007e-40
0.016384725 -0.0078362441 0.74800003 5.5392908e-40
0.017809484 -0.0078362422 0.74800003 7.3688261e-40
0.019208567 -0.0078257201 0.74700004 8.287125e-40
0.020631414 -0.007825735 0.74700004 1.1953328e-39
0.021936169 -0.0077838404 0.74299997 1.4708617e-39
0.023351409 -0.0077838423 0.74300003 1.1943015e-39
0.024766661 -0.0077838181 0.74300003 9.2958917e-40
0.026181899 -0.0077838162 0.74300003 4.4330021e-39
0.027559983 -0.0077733574 0.74200004 7.8352062e-39
0.028973309 -0.0077733686 0.74200004 8.0174283e-39
0.030304726 -0.0077524344 0.73999995 8.1099798e-39
0.031585712 -0.0077209538 0.73700005 8.2036076e-39
0.032989506 -0.0077209743 0.73700005 8.2947284e-39
0.034346648 -0.0077105025 0.73600006 8.1128539e-39
0.035748549 -0.0077105137 0.73600006 7.9291913e-39
-0.024900002 -0.0064028548 0.74700004 7.3722452e-40
-0.023508601 -0.0064114723 0.74800003 7.368784e-40
-0.022142887 -0.0064286208 0.75000006 7.3653228e-40
-0.020714317 -0.0064286152 0.75000006 8.2873212e-40
-0.01933717 -0.0064457525 0.75200003 7.3654209e-40
-0.017904777 -0.0064457394 0.75200003 5.528711e-40
-0.016472409 -0.0064457562 0.75200003 5.528697e-40
-0.015040019 -0.0064457431 0.75200003 5.5322563e-40
-0.013625727 -0.0064543076 0.75300002 5.5322142e-40
-0.012175257 -0.0064457469 0.75200003 6.4469819e-40
-0.010757154 -0.0064543057 0.75300002 7.3653228e-40
-0.0093228659 -0.0064542992 0.75300002 8.2801325e-40
-0.0079095522 -0.00647147 0.755 7.3725675e-40
-0.006480007 -0.0064800102 0.75600004 7.3797562e-40
-0.0050400081 -0.006480014 0.75600004 6.4542406e-40
-0.0036000111 -0.0064800158 0.75600004 5.528739e-40
-0.0021571699 -0.0064714681 0.755 5.528767e-40
-0.00071906613 -0.0064714579 0.75500005 5.5215083e-40
0.0007190319 -0.0064714532 0.75500005 6.4433665e-40
0.0021571158 -0.0064714709 0.75500005 6.4470379e-40
0.0035856972 -0.0064543122 0.75300002 7.3726376e-40
0.0050199814 -0.006454316 0.75300002 8.294706e-40
0.0064456915 -0.0064457497 0.75200003 8.2840561e-40
0.0078780809 -0.0064457385 0.75200009 7.3620158e-40
0.0093104513 -0.0064457534 0.75200003 8.2838459e-40
0.010714273 -0.0064285928 0.75000006 1.0117011e-39
0.012142848 -0.0064285873 0.75000006 8.2875033e-40
0.013535211 -0.0064114695 0.74800003 7.3797282e-40
0.014959972 -0.0064114714 0.74800003 5.5428361e-40
0.01636285 -0.0064028697 0.7470001 4.6245512e-40
0.017785709 -0.0064028585 0.74700004 8.2944398e-40
0.019157132 -0.0063857259 0.74500012 1.2889872e-39
0.020520937 -0.0063685915 0.74300003 1.9304063e-39
0.021936171 -0.0063685989 0.74299997 2.4810816e-39
0.023351412 -0.0063686008 0.74300003 3.6864421e-39
0.02476665 -0.006368597 0.74300003 4.8842566e-39
0.026181901 -0.0063685747 0.74300003 6.2696882e-39
0.02755997 -0.0063600438 0.74200004 7.650808e-39
0.028973307 -0.0063600363 0.74200004 7.8341202e-39
0.030304726 -0.0063429074 0.74000001 8.0185115e-39
0.031585708 -0.0063171508 0.73700005 8.2032615e-39
0.032989506 -0.0063171694 0.73700005 8.4802057e-39
-0.02490001 -0.0049800118 0.74700004 9.2090392e-40
-0.023508612 -0.0049867267 0.74799997 9.2019767e-40
-0.022083832 -0.0049866987 0.74800003 1.1953566e-39
-0.020659069 -0.0049866997 0.74800003 1.379029e-39
-0.019285729 -0.0050000194 0.75000006 9.1985435e-40
-0.01785717 -0.0050000418 0.75000006 4.6067827e-40
-0.01647241 -0.0050133793 0.75200003 4.6067967e-40
-0.015040021 -0.0050133662 0.75200003 4.610356e-40
-0.013607632 -0.0050133532 0.75200003 6.4506112e-40
-0.012175262 -0.00501337 0.75200003 8.2873212e-40
-0.010742874 -0.0050133588 0.75200003 8.2837338e-40
-0.0093105035 -0.0050133737 0.75200003 7.3689662e-40
-0.0078885835 -0.0050200177 0.75300002 7.3689662e-40
-0.0064543127 -0.005020041 0.75300002 6.4542126e-40
-0.0050200098 -0.0050200159 0.75300002 5.528711e-40
-0.0035952688 -0.0050333804 0.755 4.61037e-40
-0.0021514366 -0.005020014 0.75300002 4.6068107e-40
-0.00071622094 -0.0050133774 0.75200003 4.610342e-40
0.00071713573 -0.0050200103 0.75300002 5.5286409e-40
0.0021485393 -0.0050133811 0.75200003 6.4542266e-40
0.0035809274 -0.00501337 0.75200003 8.2981672e-40
0.0049999822 -0.005000026 0.75000006 1.0127773e-39
0.0064285584 -0.0050000204 0.75000006 1.0113493e-39
0.0078780772 -0.0050133606 0.75200009 9.2022429e-40
0.0092856912 -0.0050000371 0.75000006 1.1035295e-39
0.010714252 -0.005000052 0.75000006 1.2875593e-39
0.012110457 -0.0049866969 0.74800003 1.0116955e-39
0.013535217 -0.0049866969 0.74800003 6.4577018e-40
0.014959979 -0.0049866987 0.74800003 4.624397e-40
0.016362855 -0.0049800025 0.74700004 2.7842679e-40
0.017738085 -0.0049666753 0.74500006 1.013129e-39
0.019157134 -0.0049666753 0.74500006 1.7470941e-39
0.02052094 -0.0049533518 0.74300003 2.6640141e-39
0.021936174 -0.0049533574 0.74300003 3.5042061e-39
0.023351414 -0.0049533555 0.74300003 6.1861316e-39
0.024766654 -0.0049533555 0.74300003 8.7528507e-39
0.026146635 -0.0049467171 0.74200004 8.1107071e-39
0.02755997 -0.0049467077 0.74200004 7.3753057e-39
0.028973311 -0.0049466984 0.74200004 7.6497346e-39
0.030304743 -0.00493336 0.74000001 7.83413e-39
0.03167142 -0.0049266787 0.73900002 8.2940306e-39
-0.024900015 -0.0035571663 0.74700004 9.2019487e-40
-0.023477156 -0.0035571598 0.74700004 9.1984594e-40
-0.022083856 -0.0035619729 0.74800003 1.1035253e-39
-0.020659078 -0.0035619468 0.74800003 1.2868376e-39
-0.019234315 -0.0035619477 0.74800003 1.0116884e-39
-0.017857159 -0.0035714537 0.75000006 7.3582743e-40
-0.016428584 -0.0035714472 0.75000006 6.447136e-40
-0.015000021 -0.003571464 0.75000012 5.528753e-40
-0.013607635 -0.0035809774 0.75200009 7.3690082e-40
-0.012175264 -0.0035809942 0.75200003 8.2909505e-40
-0.010742877 -0.0035809812 0.75200003 9.2093055e-40
-0.0093105063 -0.0035809979 0.75200003 1.1045987e-39
-0.0078781182 -0.0035809849 0.75200003 9.2128227e-40
-0.0064457296 -0.0035809737 0.75200003 7.3725675e-40
-0.0050133574 -0.0035809886 0.75200003 6.4542406e-40
-0.0035857265 -0.0035857346 0.75300002 5.5358996e-40
-0.0021428824 -0.0035714649 0.75000006 4.6175447e-40
-0.00071430707 -0.0035714612 0.75000006 4.6175307e-40
0.00071618019 -0.00358097 0.75200003 5.5358576e-40
0.0021428433 -0.0035714481 0.75000006 7.3833715e-40
0.0035714009 -0.0035714705 0.75000006 7.3798122e-40
0.0049999761 -0.0035714649 0.75000006 7.3726516e-40
0.0064285514 -0.0035714593 0.75000006 7.3726656e-40
0.0078571131 -0.0035714742 0.75000006 8.2909926e-40
0.0092856893 -0.0035714686 0.75000006 1.0127674e-39
0.010714266 -0.0035714631 0.75000012 1.1964356e-39
0.012110433 -0.0035619729 0.74800003 1.0124031e-39
0.01351714 -0.0035571505 0.7470001 9.2126686e-40
0.014940002 -0.003557143 0.74700004 8.2905441e-40
0.016362848 -0.0035571561 0.74700004 7.3617215e-40
0.017738078 -0.0035476473 0.74500006 1.4716016e-39
0.019157141 -0.0035476212 0.74500006 2.2973966e-39
0.020520944 -0.0035381105 0.74300003 3.3172644e-39
0.021936163 -0.0035381366 0.74300003 4.3386386e-39
0.023351418 -0.0035381143 0.74300003 6.2751392e-39
0.024766658 -0.0035381161 0.74300003 8.2994354e-39
0.026146654 -0.0035333571 0.74200004 7.7440868e-39
0.027559971 -0.0035333738 0.74199998 7.283473e-39
0.028973296 -0.003533385 0.74200004 7.4664251e-39
0.030304726 -0.0035238632 0.74000001 7.6497472e-39
0.03167142 -0.0035190631 0.73900002 8.6635348e-39
-0.02335145 -0.002122883 0.74300003 9.2021308e-40
-0.021995254 -0.0021285911 0.74500006 1.1035366e-39
-0.020576201 -0.0021285845 0.74500012 1.1953538e-39
-0.019234307 -0.0021371732 0.74800003 1.1035015e-39
-0.017809544 -0.0021371741 0.74800003 9.1984454e-40
-0.016384784 -0.0021371741 0.74800003 8.2874052e-40
-0.01496002 -0.0021371741 0.74800003 6.4506953e-40
-0.013571452 -0.0021428962 0.75000006 7.3726516e-40
-0.012142878 -0.0021428925 0.75000006 8.2910066e-40
-0.010714322 -0.0021429129 0.75000006 1.1046085e-39
-0.0092857461 -0.0021429055 0.75000006 1.3804696e-39
-0.00785717 -0.0021428999 0.75000006 1.1056763e-39
-0.0064285961 -0.0021428943 0.75000006 8.2909785e-40
-0.0050133602 -0.0021486145 0.75200003 7.3726656e-40
-0.0035809721 -0.0021486033 0.75200003 6.457884e-40
-0.0021428703 -0.0021428776 0.75000006 5.5466896e-40
-0.00071240065 -0.0021371741 0.74800003 3.7028191e-40
0.00071236084 -0.0021371741 0.74800003 6.4542966e-40
0.0021428368 -0.0021428887 0.75000006 8.2910486e-40
0.0035618707 -0.0021371946 0.74800003 6.4579821e-40
0.0049866321 -0.0021371965 0.74800003 3.7064485e-40
0.0064113932 -0.0021371965 0.74800003 5.5431163e-40
0.0078361547 -0.0021371946 0.74800003 6.4613452e-40
0.0092609171 -0.0021371965 0.74800003 8.297929e-40
0.01068568 -0.0021371965 0.74800003 1.0134723e-39
0.012110441 -0.0021371983 0.74800003 1.10424e-39
0.013517146 -0.0021342852 0.7470001 1.1056651e-39
0.014939993 -0.0021342982 0.74700004 1.1049393e-39
0.016319031 -0.0021285985 0.74500006 1.1053162e-39
0.017738093 -0.0021285706 0.74500006 1.9307777e-39
0.019105706 -0.0021228672 0.74300003 2.7626655e-39
0.020520948 -0.002122869 0.74300003 3.9690714e-39
0.021936167 -0.0021228932 0.74300003 5.1665566e-39
0.023351422 -0.0021228727 0.74300003 6.4598234e-39
0.024766659 -0.0021228709 0.74300003 7.7440826e-39
0.026146652 -0.0021200192 0.74200004 7.4664223e-39
0.027559977 -0.0021200322 0.74200004 7.1912703e-39
0.0289733 -0.0021200527 0.74200004 7.283103e-39
0.030304743 -0.0021143158 0.74000001 7.3771063e-39
0.031671435 -0.0021114212 0.73900002 9.1291694e-39
-0.023351448 -0.00070764043 0.74300003 1.1046113e-39
-0.021995246 -0.00070953474 0.74500006 1.2875775e-39
-0.020576213 -0.00070955243 0.74500006 1.470496e-39
-0.019157145 -0.00070952543 0.74500006 1.1949545e-39
-0.017785732 -0.00071145606 0.74700004 9.194718e-40
-0.016362853 -0.0007114216 0.7470001 7.3654209e-40
-0.014960028 -0.00071242184 0.74800003 6.4542966e-40
-0.013535265 -0.00071242184 0.74800003 7.3691063e-40
-0.012110505 -0.00071242184 0.74800003 8.283902e-40
-0.010685742 -0.0007124237 0.74800003 9.2058583e-40
-0.0092609813 -0.0007124237 0.74800003 1.0134933e-39
-0.0078571606 -0.00071431056 0.75000006 8.2945799e-40
-0.0064114588 -0.0007124237 0.74800003 7.365519e-40
-0.0050000292 -0.00071432733 0.75000006 6.4507934e-40
-0.003571453 -0.00071431987 0.75000006 5.5324104e-40
-0.0021371865 -0.00071244792 0.74800003 5.5359557e-40
-0.00071240717 -0.00071242184 0.74800003 5.5324104e-40
0.00071235432 -0.00071241998 0.74800003 8.2875033e-40
0.0021371157 -0.00071242184 0.74800003 1.1953805e-39
0.0035618772 -0.00071242184 0.74800003 9.213145e-40
0.0049866396 -0.0007124237 0.74800003 7.3906863e-40
0.0064028515 -0.00071143836 0.7470001 6.4650446e-40
0.007836163 -0.00071242184 0.74800003 5.5464654e-40
0.0092609255 -0.0007124237 0.74800003 9.2232484e-40
0.010685687 -0.0007124237 0.74800003 1.3822394e-39
0.012110434 -0.00071244605 0.74800003 1.3826164e-39
0.013480952 -0.00070952729 0.74500006 1.383694e-39
0.014899985 -0.00070954778 0.74500006 1.474812e-39
0.016319038 -0.00070954219 0.74500006 1.567372e-39
0.017690461 -0.00070764974 0.74300003 1.9343622e-39
0.019105695 -0.00070764602 0.74300003 2.393883e-39
0.02052095 -0.00070762553 0.74300003 3.2286379e-39
0.021936171 -0.0007076516 0.74300003 4.0619831e-39
0.023319976 -0.00070670166 0.74199998 5.1661699e-39
0.024733301 -0.00070671469 0.74200004 6.3625691e-39
0.026146643 -0.00070670724 0.74200004 6.5473429e-39
0.027559977 -0.00070669421 0.74200004 6.8235626e-39
0.028973319 -0.00070668862 0.74200004 7.0994222e-39
0.03038664 -0.00070670724 0.74199998 7.3745896e-39
0.03179998 -0.00070669607 0.74200004 9.3114055e-39
-0.023351442 0.00070760201 0.74300003 1.1964454e-39
-0.021936204 0.00070760294 0.74300003 1.4716016e-39
-0.020520981 0.00070757593 0.74300003 1.7467269e-39
-0.019105729 0.00070759829 0.74300003 1.2868096e-39
-0.017690491 0.00070759922 0.74300003 8.2836357e-40
-0.016275249 0.00070759922 0.74300003 7.3654349e-40
-0.014900001 0.00070951774 0.74500012 6.4507233e-40
-0.013480968 0.00070949725 0.74500006 7.3619737e-40
-0.012094302 0.00071140088 0.74700004 8.283916e-40
-0.010671422 0.00071143813 0.7470001 7.3619877e-40
-0.0092485743 0.00071142137 0.7470001 6.4543527e-40
-0.0078362245 0.00071232847 0.74800003 6.4543107e-40
-0.0064114635 0.00071232847 0.74800003 5.5359697e-40
-0.0049867039 0.00071232847 0.74800003 5.5288091e-40
-0.0035714409 0.00071426749 0.75000006 4.6140274e-40
-0.0021342891 0.00071142137 0.7470001 5.5359417e-40
-0.00070953218 0.00070951029 0.74500006 6.4543247e-40
0.00070950261 0.0007094898 0.74500006 1.1038939e-39
0.0021371241 0.00071235083 0.74800003 1.5634315e-39
0.0035618846 0.00071235083 0.74800003 1.2882837e-39
0.0049799965 0.00071142137 0.7470001 1.0134835e-39
0.0063857031 0.00070950843 0.74500006 7.3724835e-40
0.0078257052 0.00071141392 0.74700004 4.6208938e-40
0.0092485519 0.00071140088 0.74700004 1.1056427e-39
0.010671433 0.00071143254 0.7470001 1.658469e-39
0.012094282 0.00071142137 0.7470001 1.6595648e-39
0.013480958 0.00070952892 0.74500012 1.6599221e-39
0.014859988 0.00070759736 0.74300003 1.8435917e-39
0.016275221 0.00070759549 0.74299997 1.9361349e-39
0.017690461 0.00070759177 0.74300003 1.9368425e-39
0.019105699 0.00070759549 0.74300003 1.9368411e-39
0.020520935 0.00070759177 0.74299997 2.4889275e-39
0.021906642 0.00070663251 0.74200004 2.9524238e-39
0.023319963 0.00070661388 0.74200004 3.9637044e-39
0.024733301 0.00070662133 0.74200004 4.8867467e-39
0.026146641 0.00070663064 0.74200004 5.7197486e-39
0.027559981 0.00070663809 0.74200004 6.4526137e-39
0.02897332 0.00070664741 0.74200004 6.9160707e-39
0.030386657 0.00070665299 0.74200004 7.3778126e-39
-0.021936201 0.0021228453 0.74300003 1.1046113e-39
-0.020410474 0.0021114282 0.73900008 1.1971545e-39
-0.019002864 0.0021114207 0.73900008 1.0127562e-39
-0.017595239 0.0021114282 0.73900002 7.3725675e-40
-0.016209543 0.002114252 0.74000001 7.3762109e-40
-0.01480002 0.0021142557 0.74000001 7.3798683e-40
-0.013444775 0.0021228369 0.74300003 8.2911187e-40
-0.012029536 0.0021228387 0.74300003 8.2875314e-40
-0.01064288 0.0021285366 0.74500006 7.3727497e-40
-0.0092238123 0.0021285664 0.74500006 5.5431864e-40
-0.0078257211 0.0021342735 0.74700004 5.5467457e-40
-0.0064028739 0.0021342605 0.74700004 4.631964e-40
-0.0049800114 0.0021342661 0.74700004 5.539529e-40
-0.0035619321 0.0021370992 0.74800003 6.447122e-40
-0.0021285773 0.0021285608 0.74500006 7.3762249e-40
-0.00070763694 0.0021228276 0.74300003 8.3017685e-40
0.00070760178 0.0021228294 0.74300003 1.1049659e-39
0.0021228367 0.0021228257 0.74300003 1.2889914e-39
0.0035380735 0.0021228257 0.74300003 9.2092775e-40
0.0049533271 0.0021228462 0.74300003 5.5429202e-40
0.0063685658 0.0021228481 0.74300003 1.5644699e-39
0.0077837878 0.002122822 0.74300003 2.5725065e-39
0.0091990409 0.0021228443 0.74300003 2.6711565e-39
0.010642844 0.0021285533 0.74500006 2.761218e-39
0.012061899 0.0021285589 0.74500012 2.4868073e-39
0.013444752 0.0021228425 0.74300003 2.2116568e-39
0.014859993 0.0021228425 0.74300003 2.1201772e-39
0.016275208 0.0021228164 0.74300003 1.9368383e-39
0.017690465 0.0021228369 0.74300003 1.9371704e-39
0.019105703 0.0021228387 0.74300003 1.9382578e-39
0.020493306 0.0021199591 0.74200004 2.2134168e-39
0.021906644 0.0021199684 0.74200004 2.5800595e-39
0.023319982 0.0021199759 0.74200004 3.3165554e-39
0.024733303 0.0021199535 0.74200004 4.052338e-39
0.026146643 0.0021199647 0.74200004 4.6058845e-39
0.027559981 0.0021199721 0.74200004 5.1564939e-39
0.028973307 0.002119961 0.74200004 6.9128029e-39
0.030386647 0.0021199684 0.74200004 8.5709524e-39
-0.020217177 0.0034856673 0.73199999 6.45787e-40
-0.018822882 0.003485671 0.73199999 6.4577999e-40
-0.01754762 0.0035095166 0.73700005 6.4614293e-40
-0.016143825 0.0035095017 0.73700005 7.3798122e-40
-0.014780015 0.0035190235 0.73900002 8.2982653e-40
-0.013390509 0.0035237565 0.73999995 8.2911887e-40
-0.011980985 0.0035237584 0.73999995 8.29472e-40
-0.010614311 0.003538056 0.74300003 6.45794e-40
-0.0091990586 0.0035380784 0.74300003 4.6283907e-40
-0.0078047714 0.0035476021 0.74500006 4.63195e-40
-0.0063857245 0.003547604 0.74500006 3.7099937e-40
-0.0049666711 0.0035476114 0.74500006 6.4614713e-40
-0.0035476382 0.0035475909 0.74500006 8.2981812e-40
-0.0021228739 0.0035380709 0.74300003 9.2201375e-40
-0.00070763507 0.0035380709 0.74300003 1.0131276e-39
0.00070760364 0.0035380728 0.74300003 1.0134821e-39
0.0021228385 0.0035380672 0.74299997 1.0120346e-39
0.0035380782 0.0035380672 0.74300003 5.5140954e-40
0.0049533159 0.0035380709 0.74300003 9.692221e-41
0.00636855 0.0035380635 0.74300003 2.3942712e-39
0.0077837897 0.0035380654 0.74300003 4.7023625e-39
0.0091990298 0.0035380672 0.74300003 4.2453458e-39
0.010614282 0.0035380877 0.74300003 3.7786167e-39
0.012029503 0.0035380598 0.74300003 3.3143988e-39
0.013444743 0.0035380635 0.74300003 2.7633802e-39
0.014859995 0.003538084 0.74300003 2.3967501e-39
0.016275216 0.0035380598 0.74300003 1.9375558e-39
0.017690469 0.0035380784 0.74300003 1.9364628e-39
0.019105705 0.0035380803 0.74300003 1.8457049e-39
0.020493306 0.0035332951 0.74200004 2.029736e-39
0.021906646 0.0035333026 0.74200004 2.1205023e-39
0.023319982 0.00353331 0.74200004 2.6700887e-39
0.024733322 0.0035333175 0.74200004 3.1292985e-39
0.02614663 0.0035332784 0.74200004 3.4952363e-39
0.02755997 0.0035332858 0.74200004 3.8765759e-39
0.028973307 0.0035332951 0.74200004 6.823571e-39
0.030386647 0.0035333026 0.74200004 9.7734584e-39
-0.020189527 0.0048733288 0.73100001 9.2093755e-40
-0.018822877 0.0048799729 0.73200005 8.2945799e-40
-0.017428588 0.0048799766 0.73200005 8.3017685e-40
-0.016121928 0.0049066329 0.73600006 8.3017685e-40
-0.014720009 0.0049066497 0.73600006 9.2166623e-40
-0.013336199 0.004913318 0.73700005 1.1057086e-39
-0.011932381 0.0049133291 0.73700005 1.1982503e-39
-0.010557152 0.0049266508 0.73900002 9.2201375e-40
-0.0091619324 0.0049332893 0.73999995 7.3834136e-40
-0.0077524227 0.0049332725 0.74000001 6.4650446e-40
-0.0063428967 0.0049332744 0.74000001 6.4614573e-40
-0.0049533439 0.0049533183 0.74300003 7.3798122e-40
-0.0035476177 0.0049666679 0.74500006 8.3017826e-40
-0.0021200343 0.0049466165 0.74200004 7.3691063e-40
-0.00070669444 0.0049466239 0.74200004 6.436304e-40
0.00070664531 0.0049466332 0.74200004 1.1949923e-39
0.002119984 0.0049466426 0.74200004 1.7452668e-39
0.0035333238 0.0049466519 0.74200004 4.3313477e-39
0.0049533197 0.0049533108 0.74300003 6.8974265e-39
0.0063599688 0.0049466202 0.74200004 7.6522639e-39
0.0077733076 0.0049466258 0.74200004 8.4956606e-39
0.0091866478 0.0049466351 0.74200004 5.7219585e-39
0.010599987 0.0049466444 0.74200004 3.0482712e-39
0.012029506 0.0049533034 0.74300003 2.8584457e-39
0.013426634 0.0049466128 0.74200004 2.6715377e-39
0.014839971 0.0049466221 0.74200004 2.1212324e-39
0.016253307 0.0049466314 0.74200004 1.6631255e-39
0.017666649 0.0049466407 0.74200004 1.6613248e-39
0.019079987 0.0049466463 0.74200004 1.7531519e-39
0.02049331 0.0049466295 0.74200004 1.9368131e-39
0.021906648 0.004946637 0.74200004 2.2119594e-39
0.023319971 0.0049466239 0.74200004 2.484952e-39
0.024733309 0.0049466314 0.74200004 2.8501822e-39
0.02614665 0.0049466407 0.74200004 4.2417459e-39
0.02755997 0.0049466221 0.74200004 5.6329704e-39
0.028973311 0.0049466332 0.74200004 8.2130327e-39
-0.021404795 0.0062142396 0.72500002 1.0127731e-39
