# .PCD v0.7 - Point Cloud Data file format
VERSION 0.7
FIELDS x y z rgb
SIZE 4 4 4 4
TYPE F F F F
COUNT 1 1 1 1
WIDTH 947
HEIGHT 1
VIEWPOINT 0 0 0 1 0 0 0
POINTS 947
DATA ascii
0.016190475 -0.013600015 0.67999995 1.2926572e-39
0.017485714 -0.013600013 0.67999995 1.3826878e-39
0.018836189 -0.013639995 0.68200004 1.4752296e-39
0.020135241 -0.013639997 0.68199998 1.5663546e-39
0.021434287 -0.013639997 0.68199998 1.383048e-39
0.022733334 -0.01364 0.68200004 1.29156e-39
0.02406762 -0.013660001 0.68300003 1.5674126e-39
0.025368575 -0.013659994 0.68300003 1.9351245e-39
0.026708568 -0.013680017 0.6839999 1.7536171e-39
0.028093331 -0.01372 0.68599999 1.6632236e-39
0.0294 -0.013719994 0.68599999 3.3230854e-39
0.030706665 -0.013720002 0.68599999 4.9894703e-39
0.032059997 -0.013740004 0.68700004 7.8486405e-39
0.033368569 -0.013739994 0.68700004 1.071058e-38
0.034778088 -0.013780002 0.68900001 1.024133e-38
0.036090471 -0.013779994 0.68900001 9.7854031e-39
0.037402853 -0.013780013 0.68899995 1.254623e-38
0.038771424 -0.013800004 0.69000006 1.5398879e-38
0.040259998 -0.013859997 0.69300002 1.7330302e-38
0.041639995 -0.013880007 0.69399995 1.9277173e-38
0.043147616 -0.013939994 0.69700003 2.130368e-38
0.044666663 -0.014000003 0.69999999 2.341769e-38
0.04606571 -0.014019989 0.70100003 2.341769e-38
0.047536191 -0.014060009 0.70299995 2.341769e-38
-0.030471427 -0.012865704 0.71099997 7.3690923e-40
-0.029117145 -0.012865719 0.71099997 1.010601e-39
-0.027723812 -0.012847628 0.70999998 1.2893431e-39
-0.026297143 -0.012811432 0.70799994 1.6592032e-39
-0.024807619 -0.012739056 0.704 1.9357915e-39
-0.023433333 -0.012720944 0.70299995 2.2116624e-39
-0.022000005 -0.012666679 0.69999999 2.3949844e-39
-0.020607624 -0.012630483 0.69800001 1.84434e-39
-0.019250475 -0.012612383 0.69699997 1.2918879e-39
-0.017922856 -0.012612374 0.69700003 1.199688e-39
-0.01654762 -0.012576198 0.69499999 1.1067792e-39
-0.01518 -0.01254 0.69299996 1.1064232e-39
-0.013820002 -0.012503819 0.69099998 1.1057058e-39
-0.012503811 -0.012503818 0.69099998 1.105347e-39
-0.011171428 -0.012485716 0.69000006 1.1053526e-39
-0.0098571442 -0.012485716 0.69000006 1.0124465e-39
-0.0085428581 -0.012485718 0.69000006 9.2241032e-40
-0.007218095 -0.012467618 0.68899995 1.1075232e-39
-0.0058885692 -0.01243142 0.68700004 1.1997105e-39
-0.0045733307 -0.012413321 0.68600005 1.1993447e-39
-0.0032666661 -0.012413329 0.68599999 1.1071589e-39
-0.00196 -0.012413337 0.68599999 1.291197e-39
-0.00065047434 -0.012359041 0.68300003 1.3833955e-39
0.00065047643 -0.012359048 0.68299997 1.7525353e-39
0.0019514291 -0.012359045 0.68300003 2.121315e-39
0.0032523817 -0.012359044 0.68300003 2.4893787e-39
0.0045533329 -0.012359051 0.68299997 2.7656055e-39
0.0058457162 -0.012340949 0.68199998 2.856369e-39
0.0071447627 -0.012340951 0.68200004 2.8570822e-39
0.0084190462 -0.012304774 0.67999995 2.5804939e-39
0.0097142849 -0.012304772 0.67999995 2.2124289e-39
0.01100952 -0.012304783 0.67999995 2.0280348e-39
0.012286668 -0.01228667 0.67899996 1.7532318e-39
0.01358 -0.012286672 0.67900002 1.6610221e-39
0.014895234 -0.012304777 0.67999995 1.4773708e-39
0.016190473 -0.012304776 0.67999995 1.3844801e-39
0.017485712 -0.012304773 0.67999995 1.2919229e-39
0.018780954 -0.012304773 0.67999995 1.6592607e-39
0.020076185 -0.012304783 0.67999995 1.9336924e-39
0.021371426 -0.012304782 0.67999995 1.5656357e-39
0.022666665 -0.01230478 0.67999995 1.1990056e-39
0.024032382 -0.012340939 0.68200004 1.4748666e-39
0.025368573 -0.012359045 0.68300003 1.7528899e-39
0.026669525 -0.012359054 0.68299997 2.0316305e-39
0.02801143 -0.012377154 0.68399996 2.2160288e-39
0.029314285 -0.012377161 0.68400002 2.1242045e-39
0.030706668 -0.012413329 0.68599999 1.9513333e-39
0.032013331 -0.012413334 0.68599999 5.2685697e-39
0.033368573 -0.012431428 0.68700004 8.4849575e-39
0.034778088 -0.012467613 0.68900001 8.9505837e-39
0.036090467 -0.012467621 0.68900001 9.319753e-39
0.037402857 -0.012467626 0.68899995 1.2546226e-38
0.038771424 -0.012485728 0.69000006 1.566972e-38
0.04014381 -0.012503812 0.69099998 1.6403341e-38
0.041639995 -0.012558103 0.69400001 1.7065228e-38
0.04314762 -0.012612378 0.69699997 2.0295283e-38
0.044539046 -0.012630481 0.69799995 2.341769e-38
0.046 -0.012666681 0.69999999 2.341769e-38
0.047400948 -0.012684756 0.70100003 2.341769e-38
-0.030471429 -0.011511425 0.71099997 1.5655741e-39
-0.029117141 -0.011511425 0.71099997 1.2896991e-39
-0.027723808 -0.011495239 0.70999998 1.0145541e-39
-0.026297145 -0.011462864 0.70799994 1.3833338e-39
-0.024772383 -0.011381906 0.70299995 1.7517618e-39
-0.023433335 -0.011381908 0.70299995 1.9357999e-39
-0.022000007 -0.011333354 0.69999999 2.2102499e-39
-0.02060762 -0.011300949 0.69800001 1.6588964e-39
-0.019278094 -0.011300951 0.69800001 1.1982769e-39
-0.01792286 -0.011284772 0.69699997 1.1979112e-39
-0.01654762 -0.011252388 0.69499999 1.1057142e-39
-0.015180003 -0.01122001 0.69299996 1.1060687e-39
-0.013820002 -0.01118763 0.69099998 1.1053484e-39
-0.012485717 -0.011171441 0.69000006 1.1053442e-39
-0.01117143 -0.011171442 0.69000006 1.1057086e-39
-0.0098571451 -0.011171441 0.69000006 1.0138787e-39
-0.0085428599 -0.011171442 0.69000006 1.0149675e-39
-0.0071971421 -0.011122852 0.68700004 1.1993672e-39
-0.0058885734 -0.011122867 0.68699998 1.3848206e-39
-0.0045733321 -0.011106661 0.68600005 1.107868e-39
-0.0032666638 -0.011106656 0.68599999 8.3165102e-40
-0.0019599986 -0.011106662 0.68599999 1.199e-39
-0.00065047783 -0.011058102 0.68299997 1.5656301e-39
0.00065047527 -0.0110581 0.68300003 1.9358462e-39
0.0019514281 -0.011058098 0.68300003 2.3060622e-39
0.0032523819 -0.011058091 0.68299997 2.5826477e-39
0.0045533353 -0.011058089 0.68300003 2.8592374e-39
0.0058457153 -0.011041903 0.68200004 3.1347495e-39
0.0071447627 -0.011041905 0.68199998 3.5020859e-39
0.00844381 -0.011041905 0.68199998 3.0411091e-39
0.0097428607 -0.011041893 0.68200004 2.6716106e-39
0.011009521 -0.011009543 0.67999995 2.3042644e-39
0.012304759 -0.011009541 0.67999995 1.93763e-39
0.013599997 -0.01100954 0.67999995 1.7532318e-39
0.014895236 -0.011009539 0.67999995 1.6610431e-39
0.016190475 -0.011009535 0.67999995 1.5681371e-39
0.01748571 -0.011009548 0.67999995 1.4755869e-39
0.01878095 -0.011009546 0.67999995 1.5667077e-39
0.020076184 -0.011009544 0.67999995 1.7496599e-39
0.021371426 -0.011009542 0.67999995 1.474152e-39
0.022666665 -0.011009539 0.67999995 1.1990056e-39
0.02403238 -0.011041908 0.68199998 1.5674252e-39
0.025368573 -0.011058094 0.68300003 1.9372797e-39
0.026669526 -0.011058092 0.68300003 2.1234618e-39
0.028011424 -0.011074312 0.6839999 2.4018522e-39
0.029314283 -0.011074305 0.68399996 2.4933416e-39
0.030706663 -0.011106666 0.68599999 2.6773755e-39
0.032013327 -0.011106659 0.68599999 4.0588568e-39
0.033368569 -0.011122862 0.68700004 5.5203452e-39
0.034677144 -0.011122853 0.68700004 5.164854e-39
0.035985708 -0.011122854 0.68700004 4.8940559e-39
0.037402861 -0.011155227 0.68900001 8.5793574e-39
0.038771428 -0.011171438 0.69000006 1.2269294e-38
0.040085711 -0.01117144 0.69000006 1.4292919e-38
0.041639991 -0.011236198 0.69399995 1.6325524e-38
0.04314762 -0.011284765 0.69699997 1.9831083e-38
0.044539046 -0.011300949 0.69800001 2.341769e-38
0.045999996 -0.011333343 0.69999999 2.341769e-38
0.047400944 -0.011349527 0.70099998 2.341769e-38
0.048736185 -0.011349525 0.70099998 2.341769e-38
-0.030428573 -0.010142876 0.70999992 2.30133e-39
-0.029076191 -0.010142857 0.70999998 1.475514e-39
-0.027645716 -0.010114291 0.70799994 6.4792257e-40
-0.026260002 -0.010100001 0.70699996 1.1071043e-39
-0.02477238 -0.010042857 0.70299995 1.5677251e-39
-0.023366665 -0.010014283 0.70100003 1.7524807e-39
-0.021937143 -0.0099714333 0.69799995 1.9350909e-39
-0.020607622 -0.0099714324 0.69800001 1.5659707e-39
-0.019250475 -0.0099571394 0.69700003 1.1060757e-39
-0.017922858 -0.009957144 0.69699997 1.1042834e-39
-0.01654762 -0.0099285804 0.69499999 1.1057156e-39
-0.015180001 -0.0098999962 0.69299996 1.1064302e-39
-0.01382 -0.0098714354 0.69099998 1.1053428e-39
-0.012485716 -0.0098571507 0.69 1.1053302e-39
-0.011171429 -0.0098571526 0.69 1.1053386e-39
-0.0098571442 -0.0098571507 0.69 1.1057058e-39
-0.0085304771 -0.0098428549 0.68900001 1.0145877e-39
-0.0071971426 -0.0098142866 0.68700004 1.2900942e-39
-0.005880001 -0.0098000057 0.68599999 1.5663196e-39
-0.0045733307 -0.0097999861 0.68600005 1.1071435e-39
-0.0032666652 -0.0097999945 0.68600005 5.5613893e-40
-0.0019542875 -0.0097714374 0.68399996 1.1068016e-39
-0.0006504755 -0.0097571407 0.68300003 1.6581803e-39
0.00064952509 -0.0097428532 0.68200004 2.0266055e-39
0.0019485727 -0.0097428532 0.68199998 2.3968173e-39
0.0032476208 -0.0097428542 0.68199998 2.6755524e-39
0.0045466674 -0.009742856 0.68200004 2.8628191e-39
0.0058457153 -0.0097428551 0.68199998 3.5053159e-39
0.0071447641 -0.0097428458 0.68200004 4.0548939e-39
0.0084438091 -0.0097428598 0.68200004 3.5939214e-39
0.0097428579 -0.0097428598 0.68199998 3.0414665e-39
0.011009524 -0.0097142933 0.67999995 2.5797723e-39
0.012304761 -0.0097142905 0.67999995 2.0298285e-39
0.013599996 -0.0097143017 0.67999995 1.9372699e-39
0.014895236 -0.0097142998 0.67999995 1.8447183e-39
0.016190473 -0.009714298 0.67999995 1.7518095e-39
0.017485712 -0.009714298 0.67999995 1.567428e-39
0.018780952 -0.0097142961 0.67999995 1.5663588e-39
0.020076189 -0.0097142942 0.67999995 1.5663504e-39
0.021371426 -0.0097143017 0.67999995 1.3826724e-39
0.022666665 -0.0097142998 0.67999995 1.1071645e-39
0.024032382 -0.0097428486 0.68200004 1.6585362e-39
0.02533143 -0.0097428486 0.68199998 2.1202276e-39
0.026630476 -0.0097428635 0.68199998 2.306414e-39
0.02797048 -0.0097571351 0.68300003 2.4929646e-39
0.029271435 -0.0097571332 0.68300003 2.9539456e-39
0.03061714 -0.009771442 0.68399996 3.4127657e-39
0.031919993 -0.0097714327 0.68400002 2.9528722e-39
0.033222847 -0.0097714495 0.68399996 2.4915437e-39
0.034626666 -0.009800002 0.68599999 1.4777659e-39
0.035933331 -0.0097999964 0.68600005 4.7332639e-40
0.03729428 -0.0098142922 0.68699998 4.6070125e-39
0.038715232 -0.0098428577 0.68899995 8.7619031e-39
0.040085714 -0.0098571498 0.69 1.217386e-38
0.041639999 -0.0099142808 0.69400001 1.5497197e-38
0.04302381 -0.009928586 0.69499999 1.9468764e-38
0.044475235 -0.0099571403 0.69699997 2.341769e-38
0.045868568 -0.0099714175 0.69800001 2.341769e-38
0.047400944 -0.010014283 0.70099998 2.341769e-38
0.048736185 -0.010014281 0.70099998 2.341769e-38
-0.030428572 -0.0087904874 0.70999992 2.1190898e-39
-0.028994286 -0.0087657198 0.70799994 1.4755056e-39
-0.027606666 -0.0087533277 0.70699996 9.2342206e-40
-0.026148573 -0.0087161977 0.704 1.1996502e-39
-0.024772383 -0.0087038055 0.70299995 1.5680768e-39
-0.023366664 -0.0086790398 0.70099998 1.7524723e-39
-0.022000004 -0.0086666737 0.69999999 1.9357971e-39
-0.02060762 -0.0086419005 0.69800001 1.6588669e-39
-0.019278098 -0.0086419135 0.69799995 1.4737694e-39
-0.017922856 -0.0086295148 0.69700003 1.2890306e-39
-0.01654762 -0.0086047724 0.69499993 1.1975525e-39
-0.015179999 -0.0085799964 0.69299996 1.1057156e-39
-0.013820004 -0.0085552558 0.69099998 1.0124255e-39
-0.012485717 -0.0085428748 0.69 1.0127632e-39
-0.011171432 -0.0085428767 0.69 1.0124157e-39
-0.0098571451 -0.0085428748 0.69 1.0138605e-39
-0.0085304761 -0.0085304696 0.68900001 1.014208e-39
-0.0071971412 -0.0085057104 0.68700004 1.1985838e-39
-0.0058799996 -0.0084933303 0.68599999 1.3815528e-39
-0.004573334 -0.0084933387 0.68599999 1.1071365e-39
-0.0032666638 -0.0084933192 0.68600005 8.3199854e-40
-0.0019542882 -0.0084685832 0.68400002 1.1989916e-39
-0.00064952276 -0.0084438054 0.68200004 1.6585376e-39
0.00064952509 -0.0084438054 0.68199998 2.0255293e-39
0.0019485748 -0.0084437924 0.68200004 2.4864976e-39
0.0032380924 -0.0084190639 0.67999995 4.6137766e-39
0.00453333 -0.008419062 0.67999995 6.8192732e-39
0.0058285696 -0.0084190611 0.67999995 5.624344e-39
0.0071238079 -0.0084190592 0.67999995 4.4243883e-39
0.0084190462 -0.0084190574 0.67999995 3.6871974e-39
0.0097142821 -0.0084190704 0.67999995 2.9528638e-39
0.011009521 -0.0084190667 0.67999995 2.2142239e-39
0.01230476 -0.0084190648 0.67999995 1.4802546e-39
0.013599997 -0.0084190629 0.67999995 1.3844703e-39
0.014895236 -0.0084190611 0.67999995 1.2933508e-39
0.016190475 -0.0084190592 0.67999995 1.2919145e-39
0.017485714 -0.0084190574 0.67999995 1.3837612e-39
0.018780954 -0.0084190555 0.67999995 1.4752492e-39
0.020076187 -0.0084190667 0.67999995 1.6585488e-39
0.021371426 -0.0084190648 0.67999995 1.4737876e-39
0.022666665 -0.0084190629 0.67999995 1.2897551e-39
0.024032382 -0.0084437989 0.68199998 1.5663336e-39
0.025331426 -0.0084438156 0.68199998 1.8443582e-39
0.02663048 -0.0084438045 0.68200004 2.1220227e-39
0.027970478 -0.0084561892 0.68300003 2.4936765e-39
0.029271431 -0.0084561985 0.68300003 2.9532183e-39
0.030617142 -0.008468587 0.6839999 3.4131132e-39
0.031919997 -0.0084685925 0.68399996 3.413472e-39
0.033222854 -0.0084685832 0.68399996 3.3216253e-39
0.034525707 -0.0084685888 0.68399996 2.6737433e-39
0.035933331 -0.0084933341 0.68599999 2.026569e-39
0.037240002 -0.0084933303 0.68600005 3.5038081e-39
0.038602859 -0.0085057057 0.68700004 4.8957795e-39
0.040027615 -0.0085304808 0.68899995 9.9643994e-39
0.041399993 -0.0085428748 0.69 1.4939355e-38
0.04302381 -0.0086047649 0.69499999 1.9186083e-38
0.044347618 -0.0086047649 0.69499999 2.341769e-38
0.045868568 -0.0086419117 0.69799995 2.341769e-38
0.04733333 -0.0086666811 0.69999999 2.341769e-38
0.048666663 -0.008666683 0.69999999 2.341769e-38
-0.030428575 -0.0074381111 0.70999998 1.8435805e-39
-0.029076194 -0.0074381176 0.70999992 1.4758658e-39
-0.027606668 -0.0074066631 0.70699996 1.1078105e-39
-0.026148573 -0.0073752441 0.704 1.3836799e-39
-0.024772385 -0.0073647685 0.70299995 1.5680782e-39
-0.023366665 -0.0073438082 0.70100003 1.7528366e-39
-0.022000004 -0.0073333383 0.70000005 1.8439602e-39
-0.02066667 -0.0073333411 0.70000005 1.8432498e-39
-0.019278096 -0.0073123798 0.69799995 1.7492647e-39
-0.017922858 -0.0073019015 0.69700003 1.5645203e-39
-0.016547622 -0.0072809653 0.69499999 1.289018e-39
-0.015179999 -0.0072599975 0.69300002 1.10571e-39
-0.013820002 -0.0072390623 0.69099998 8.29472e-40
-0.012485715 -0.0072285738 0.69000006 8.2874052e-40
-0.011171429 -0.0072285729 0.69000006 8.2982373e-40
-0.0098428559 -0.0072180927 0.68899995 9.2274383e-40
-0.008530478 -0.0072180992 0.68900001 9.2345429e-40
-0.0071866657 -0.0071866633 0.68600005 1.0163604e-39
-0.0058799973 -0.007186655 0.68599999 1.1078469e-39
-0.0045733326 -0.0071866633 0.68599999 1.1082169e-39
-0.003257147 -0.0071657365 0.6839999 1.1071407e-39
-0.0019485699 -0.0071447566 0.68200004 1.3819297e-39
-0.00064952252 -0.0071447566 0.68199998 1.5652532e-39
0.00064952439 -0.0071447594 0.68200004 2.0226482e-39
0.0019485718 -0.0071447603 0.68200004 2.4969191e-39
0.0032380929 -0.0071238242 0.67999995 6.6575256e-39
0.0045333314 -0.0071238223 0.67999995 1.0781878e-38
0.0058200001 -0.0071133394 0.67899996 7.7484434e-39
0.0071238047 -0.0071238335 0.67999995 4.7027689e-39
0.008443811 -0.0071447529 0.68200004 3.7768455e-39
0.0097142821 -0.0071238298 0.67999995 2.8556207e-39
0.011009521 -0.0071238279 0.67999995 1.9361909e-39
0.012286666 -0.0071133412 0.67900002 9.2348792e-40
0.013580001 -0.0071133319 0.67900002 8.269889e-40
0.014873333 -0.0071133357 0.67900002 7.3873092e-40
0.01616667 -0.0071133245 0.67900002 9.2203337e-40
0.01746 -0.0071133412 0.67899996 1.1085938e-39
0.018753337 -0.0071133301 0.67900002 1.3837612e-39
0.020046668 -0.0071133338 0.67900002 1.6581817e-39
0.021340003 -0.0071133245 0.67900002 1.5645427e-39
0.022633338 -0.0071133301 0.67900002 1.4741296e-39
0.023961905 -0.0071238223 0.67999995 1.4730407e-39
0.025257142 -0.0071238186 0.67999995 1.4759274e-39
0.02663048 -0.0071447566 0.68199998 1.9351231e-39
0.027929528 -0.0071447603 0.68200004 2.4000445e-39
0.029271433 -0.007155234 0.68300003 2.9524966e-39
0.030572383 -0.0071552414 0.68299997 3.4131076e-39
0.031873327 -0.0071552377 0.68300003 3.7818832e-39
0.033174284 -0.0071552489 0.68299997 4.1474119e-39
0.034475237 -0.0071552433 0.68300003 3.869376e-39
0.035828572 -0.0071657263 0.68399996 3.5913486e-39
0.037131429 -0.00716573 0.68399996 2.3024147e-39
0.038546667 -0.0071866643 0.68600005 1.0329405e-39
0.039911427 -0.0071971416 0.68700004 7.7567433e-39
0.041339993 -0.0072180983 0.68899995 1.4389769e-38
0.042776182 -0.0072390549 0.69099998 1.8917751e-38
0.044220001 -0.0072599929 0.69299996 2.341769e-38
0.045605715 -0.0072704814 0.69399995 2.341769e-38
0.046995234 -0.0072809625 0.69499999 2.341769e-38
0.048458092 -0.0073018968 0.69699997 2.341769e-38
-0.03042857 -0.0060857208 0.70999998 1.9361306e-39
-0.029076194 -0.0060857269 0.70999998 1.5673425e-39
-0.024772381 -0.0060257185 0.70299995 1.568081e-39
-0.023266668 -0.0059828637 0.69799995 1.7517646e-39
-0.021937145 -0.0059828637 0.69800001 2.0269138e-39
-0.020607619 -0.0059828516 0.69800001 2.2091512e-39
-0.019250473 -0.0059742797 0.69699997 2.4821438e-39
-0.017922858 -0.0059742983 0.69699997 1.8396512e-39
-0.01654762 -0.0059571443 0.69499999 1.1964539e-39
-0.015179999 -0.0059399959 0.69299996 1.1057044e-39
-0.01382 -0.0059228558 0.69099998 9.2166763e-40
-0.012485714 -0.005914283 0.69000006 9.2201796e-40
-0.011155237 -0.0059057139 0.68899995 1.0142164e-39
-0.0098428577 -0.0059057204 0.68899995 1.0149381e-39
-0.0085057151 -0.0058885766 0.68699998 1.1078498e-39
-0.0071866652 -0.005879988 0.68600005 1.0163716e-39
-0.0058799996 -0.0058799945 0.68599999 9.245431e-40
-0.0045600049 -0.0058628796 0.68399996 1.1075022e-39
-0.0032571454 -0.0058628712 0.68399996 1.2893712e-39
-0.0019485701 -0.0058457088 0.68199998 1.3815556e-39
-0.00064952276 -0.0058457125 0.68200004 1.5648804e-39
0.00064761844 -0.0058285762 0.67999995 1.47521e-39
0.001948572 -0.0058457125 0.68199998 1.4838784e-39
0.0032380922 -0.0058285873 0.67999995 4.8047217e-39
0.0045333309 -0.0058285855 0.67999995 8.126588e-39
0.0058200024 -0.0058199894 0.67900002 7.3707416e-39
0.0071238084 -0.0058285799 0.67999995 6.626655e-39
0.0084438082 -0.0058457199 0.68199998 6.7148275e-39
0.0097142858 -0.0058285762 0.67999995 6.8891826e-39
0.011009524 -0.0058285743 0.67999995 6.8084776e-39
0.012286667 -0.0058200061 0.67899996 6.7048068e-39
0.013579999 -0.0058200099 0.67899996 5.7982914e-39
0.014873335 -0.0058199987 0.67900002 4.8709499e-39
0.01616667 -0.0058200043 0.67900002 3.1314382e-39
0.017460003 -0.0058199912 0.67900002 1.3869506e-39
0.018753333 -0.0058200099 0.67899996 1.6617676e-39
0.02004667 -0.0058199987 0.67899996 2.0255167e-39
0.021340003 -0.0058200024 0.67900002 2.0273033e-39
0.022666665 -0.0058285967 0.67999995 1.9358055e-39
0.023961902 -0.0058285948 0.67999995 2.3956781e-39
0.025257139 -0.0058285929 0.67999995 2.7630481e-39
0.026630478 -0.0058457106 0.68200004 2.8577815e-39
0.027970478 -0.0058542881 0.68300003 2.8610129e-39
0.029271431 -0.0058542807 0.68299997 3.228715e-39
0.030572383 -0.0058542788 0.68300003 3.5964129e-39
0.03187333 -0.0058542863 0.68299997 3.7807985e-39
0.033174284 -0.0058542844 0.68300003 3.8711739e-39
0.034475241 -0.0058542807 0.68300003 3.8711473e-39
0.035828572 -0.005862873 0.68399996 3.8707913e-39
0.037131429 -0.0058628637 0.68399996 2.2148839e-39
0.03854667 -0.0058799889 0.68600005 6.5554704e-40
0.039853331 -0.0058799945 0.68600005 7.37934e-39
0.041339993 -0.0059057157 0.68899995 1.4199632e-38
0.042714287 -0.0059142839 0.69000006 1.8817306e-38
0.04409238 -0.0059228614 0.69099998 2.341769e-38
0.045605712 -0.0059485789 0.69400001 2.341769e-38
0.04692762 -0.0059485715 0.69400001 2.341769e-38
0.048319038 -0.0059571564 0.69499999 2.341769e-38
0.049785711 -0.0059742872 0.69699997 2.341769e-38
-0.024772381 -0.0046866685 0.70299995 1.4747994e-39
-0.023366665 -0.0046733338 0.70099998 1.8428812e-39
-0.021937145 -0.0046533309 0.69800001 2.1183891e-39
-0.020607622 -0.0046533439 0.69799995 2.6683259e-39
-0.019250475 -0.0046466645 0.69700003 3.2182613e-39
-0.017922858 -0.004646671 0.69699997 2.207352e-39
-0.016547622 -0.0046333503 0.69499999 1.1060589e-39
-0.015180001 -0.0046199951 0.69300002 1.1064316e-39
-0.013820001 -0.0046066763 0.69099998 1.0142108e-39
-0.012485715 -0.0046000089 0.69000006 1.1063798e-39
-0.011155238 -0.0045933416 0.68899995 1.1067525e-39
-0.0098428559 -0.0045933351 0.68899995 1.1982433e-39
-0.0085057141 -0.0045799986 0.68700004 1.2911564e-39
-0.0071866657 -0.0045733266 0.68600005 1.0160101e-39
-0.0058799973 -0.0045733228 0.68600005 6.4867507e-40
-0.0045600026 -0.0045600142 0.68399996 1.0156667e-39
-0.0032571431 -0.0045600031 0.68399996 1.3822899e-39
-0.0019485708 -0.0045466647 0.68200004 1.4737652e-39
-0.00064762286 -0.0045333523 0.67999995 1.5652476e-39
0.00064761564 -0.0045333505 0.67999995 1.0131654e-39
0.0019428544 -0.0045333505 0.67999995 3.7500989e-40
0.0032380929 -0.0045333467 0.67999995 2.9503793e-39
0.0045266673 -0.0045266654 0.67900002 5.4407319e-39
0.0058200001 -0.004526671 0.67900002 6.9811596e-39
0.0071133352 -0.0045266598 0.67900002 8.5671002e-39
0.0084190443 -0.0045333542 0.67999995 9.7509017e-39
0.009714283 -0.0045333523 0.67999995 1.0870864e-38
0.010993334 -0.0045266673 0.67900002 1.1703123e-38
0.01228667 -0.004526658 0.67900002 1.2437447e-38
0.01358 -0.0045266747 0.67899996 1.069903e-38
0.014873335 -0.0045266654 0.67899996 8.9343847e-39
0.016166667 -0.0045266673 0.67900002 5.2533923e-39
0.017434286 -0.0045200009 0.67799997 1.5753173e-39
0.018725716 -0.0045200083 0.67799997 2.0345032e-39
0.020046664 -0.0045266766 0.67899996 2.4000431e-39
0.021340001 -0.0045266673 0.67900002 2.4000347e-39
0.022666665 -0.0045333449 0.67999995 2.3989613e-39
0.02392667 -0.004526658 0.67900002 3.227636e-39
0.02525714 -0.0045333412 0.67999995 4.0530848e-39
0.026552381 -0.0045333412 0.67999995 3.6879009e-39
0.027970476 -0.0045533348 0.68299997 3.3205603e-39
0.029271433 -0.0045533348 0.68300003 3.5967856e-39
0.030572381 -0.0045533404 0.68299997 3.7804552e-39
0.03187333 -0.0045533385 0.68300003 3.6893358e-39
0.033174288 -0.0045533217 0.68300003 3.5964031e-39
0.034475241 -0.0045533292 0.68300003 3.8733221e-39
0.035828572 -0.0045600161 0.6839999 4.1477468e-39
0.037131425 -0.0045600217 0.68399996 2.2148896e-39
0.038546667 -0.0045733247 0.68599999 1.9422277e-40
0.039911427 -0.0045799986 0.68700004 7.0891311e-39
0.04133999 -0.0045933425 0.68899995 1.3924128e-38
0.042714287 -0.0046000089 0.69000006 1.873408e-38
0.044092376 -0.0046066679 0.69099998 2.341769e-38
0.045408569 -0.0046066772 0.69099998 2.341769e-38
0.046927616 -0.0046266671 0.69399995 2.341769e-38
0.048319045 -0.0046333373 0.69499999 2.341769e-38
0.049785707 -0.004646657 0.69699997 2.341769e-38
-0.02477238 -0.0033476169 0.70299995 1.3818765e-39
-0.023366664 -0.0033380913 0.70099998 1.6584914e-39
-0.022000002 -0.0033333322 0.70000005 2.0265508e-39
-0.02060762 -0.0033238113 0.69799995 2.3020573e-39
-0.019250473 -0.0033190364 0.69700003 2.5768463e-39
-0.01787143 -0.0033095276 0.69499999 1.9336391e-39
-0.01652381 -0.003304763 0.69400001 1.2908103e-39
-0.015136193 -0.0032904895 0.69099998 1.1986357e-39
-0.013820001 -0.003290483 0.69099998 1.1982321e-39
-0.012485715 -0.0032857193 0.69000006 1.1981873e-39
-0.011155236 -0.0032809435 0.68900001 1.1074518e-39
-0.0098428577 -0.0032809621 0.68899995 1.1993111e-39
-0.0085057169 -0.0032714328 0.68700004 1.383345e-39
-0.0071866671 -0.0032666645 0.68599999 1.1996768e-39
-0.0058799991 -0.0032666607 0.68600005 1.0160157e-39
-0.0045600012 -0.0032571463 0.68399996 1.1993377e-39
-0.003257147 -0.0032571631 0.68399996 1.3830157e-39
-0.0019428609 -0.0032381157 0.67999995 1.5659749e-39
-0.00064762239 -0.0032381138 0.67999995 1.7492871e-39
0.00064761611 -0.0032381101 0.67999995 1.1046436e-39
0.0019428548 -0.0032381082 0.67999995 3.6852608e-40
0.0032333327 -0.0032333399 0.67899996 5.1611924e-39
0.0045266682 -0.0032333306 0.67899996 1.0041807e-38
0.005820001 -0.0032333324 0.67900002 1.1341553e-38
0.0071133329 -0.003233338 0.67900002 1.2653841e-38
0.0084066689 -0.0032333268 0.67900002 1.3102661e-38
0.0096999975 -0.0032333436 0.67899996 1.3486852e-38
0.010993335 -0.0032333324 0.67900002 1.2827849e-38
0.012268574 -0.003228564 0.67800003 1.2193607e-38
0.013580003 -0.0032333268 0.67900002 1.0150265e-38
0.014873333 -0.0032333417 0.67899996 8.117984e-39
0.016166668 -0.0032333324 0.67899996 4.6131054e-39
0.017434286 -0.0032285696 0.67799997 1.2083663e-39
0.018725716 -0.003228564 0.67800003 1.5749796e-39
0.020046668 -0.0032333306 0.67900002 2.0377346e-39
0.02134 -0.0032333455 0.67899996 2.0327011e-39
0.022633335 -0.0032333361 0.67900002 2.0320117e-39
0.02392667 -0.003233338 0.67900002 2.4912158e-39
0.025220001 -0.0032333268 0.67900002 3.0440056e-39
0.026552379 -0.0032381138 0.67999995 2.8592416e-39
0.027929526 -0.0032476189 0.68199998 2.7684823e-39
0.029228572 -0.0032476077 0.68200004 2.9514358e-39
0.030572383 -0.003252378 0.68300003 3.1365432e-39
0.031873334 -0.0032523761 0.68300003 3.2273025e-39
0.033174288 -0.0032523836 0.68300003 3.3187624e-39
0.034475237 -0.0032523817 0.68300003 3.5960443e-39
0.035828568 -0.003257165 0.68399996 3.7847236e-39
0.037131425 -0.0032571557 0.68399996 2.0312242e-39
0.038546667 -0.0032666663 0.68599999 2.763781e-40
0.039911427 -0.0032714198 0.68700004 5.9914155e-39
0.041399997 -0.0032857175 0.69000006 1.1632907e-38
0.042714283 -0.0032857175 0.69000006 1.7529456e-38
0.044092372 -0.0032904877 0.69099998 2.341769e-38
0.045539994 -0.0033000039 0.69300002 2.341769e-38
0.046927616 -0.0033047649 0.69400001 2.341769e-38
0.048319045 -0.0033095258 0.69499999 2.341769e-38
0.049785715 -0.0033190458 0.69700003 2.341769e-38
-0.024772381 -0.0020085687 0.70299995 1.2897005e-39
-0.023433337 -0.0020085818 0.70299995 1.5663154e-39
-0.022000004 -0.0020000071 0.70000005 1.8428911e-39
-0.02066667 -0.002000008 0.70000005 1.9361545e-39
-0.019250475 -0.0019914343 0.69699997 1.9347209e-39
-0.01787143 -0.0019857206 0.69500005 1.6592173e-39
-0.016547618 -0.0019857076 0.69499999 1.3822828e-39
-0.015136192 -0.0019742942 0.69099998 1.3819311e-39
-0.01382 -0.0019742923 0.69099998 1.3811912e-39
-0.012485716 -0.0019714425 0.69 1.2882571e-39
-0.011155237 -0.0019685721 0.68900001 1.1063938e-39
-0.0098142838 -0.0019628538 0.68700004 1.2911564e-39
-0.0084933341 -0.0019599984 0.68599999 1.3826346e-39
-0.0071866643 -0.0019599891 0.68599999 1.382636e-39
-0.0058799991 -0.0019599984 0.68599999 1.382636e-39
-0.004560004 -0.0019543061 0.68399996 1.3819171e-39
-0.0032571445 -0.0019542968 0.68399996 1.2908145e-39
-0.0019428581 -0.0019428639 0.67999995 1.6581705e-39
-0.00064761983 -0.0019428621 0.67999995 1.9333182e-39
0.00064761587 -0.0019428751 0.67999995 1.1957644e-39
0.0019399996 -0.0019400029 0.67900002 3.760959e-40
0.0032333354 -0.0019399899 0.67900002 7.4675545e-39
0.0045266659 -0.0019400085 0.67899996 1.4559379e-38
0.0058114296 -0.0019371437 0.67799997 1.5689071e-38
0.0071133343 -0.001940001 0.67900002 1.6692475e-38
0.0084066652 -0.0019400066 0.67900002 1.6427042e-38
0.0097000003 -0.0019399954 0.67900002 1.6035631e-38
0.010993332 -0.0019400103 0.67899996 1.4019879e-38
0.012268572 -0.0019371456 0.67799997 1.1889705e-38
0.013579999 -0.0019400048 0.67900002 9.5894904e-39
0.014851429 -0.0019371456 0.67799997 7.1859398e-39
0.016142862 -0.0019371288 0.67800003 3.9637619e-39
0.017434288 -0.0019371363 0.67799997 7.4520632e-40
0.018725717 -0.0019371307 0.67800003 1.202223e-39
0.020017145 -0.00193714 0.67799997 1.5709887e-39
0.021340003 -0.0019399992 0.67900002 1.569544e-39
0.022633333 -0.0019400122 0.67899996 1.5688307e-39
0.023926668 -0.001940001 0.67900002 1.7525059e-39
0.025219997 -0.0019400066 0.67900002 1.9365258e-39
0.026513334 -0.0019399954 0.67900002 2.1198297e-39
0.027929528 -0.0019485599 0.68200004 2.2120253e-39
0.029228574 -0.0019485599 0.68200004 2.3035035e-39
0.030572386 -0.0019514153 0.68300003 2.396432e-39
0.034906667 -0.0021371471 0.74799997 2.7641495e-39
0.033174284 -0.0019514209 0.68300003 3.0400063e-39
0.034475237 -0.0019514302 0.68299997 3.2236689e-39
0.035828572 -0.0019542987 0.68399996 3.4112747e-39
0.037131429 -0.0019542894 0.68399996 1.9411795e-39
0.03854667 -0.0019599909 0.68599999 3.7393509e-40
0.039853331 -0.0019599965 0.68599999 4.8757255e-39
0.041220002 -0.0019628576 0.68700004 9.3201412e-39
0.042714283 -0.0019714425 0.69 1.6424559e-38
0.044092372 -0.0019742923 0.69099998 2.341446e-38
0.045539998 -0.0019800013 0.69299996 2.341769e-38
0.046927616 -0.0019828568 0.69399995 2.341769e-38
0.048249524 -0.0019828661 0.69400001 2.341769e-38
0.049857147 -0.0019942785 0.69800001 2.341769e-38
-0.026260002 -0.00067334459 0.70699996 1.3808059e-39
-0.024807619 -0.00067048264 0.70400006 1.3808381e-39
-0.023433333 -0.00066951779 0.70299995 1.6581691e-39
-0.022031428 -0.00066761882 0.70100003 1.9347378e-39
-0.020666668 -0.00066667073 0.70000005 1.9347237e-39
-0.019278096 -0.00066476152 0.69800001 1.9343692e-39
-0.017922856 -0.0006637976 0.69700003 1.5659538e-39
-0.016547622 -0.0006619154 0.69499999 1.196814e-39
-0.015136193 -0.00065810257 0.69099998 1.1975258e-39
-0.013820002 -0.00065809698 0.69099998 1.2893613e-39
-0.012485716 -0.00065715262 0.69 1.1971671e-39
-0.011155237 -0.00065618777 0.68900001 1.0138605e-39
-0.0098428586 -0.00065620453 0.68899995 1.1064176e-39
-0.0084933313 -0.00065332302 0.68600005 1.2897299e-39
-0.0071866671 -0.00065332861 0.68599999 1.3819241e-39
-0.0058799982 -0.00065332302 0.68599999 1.4744659e-39
-0.0045600017 -0.00065143616 0.68399996 1.3826192e-39
-0.0032571456 -0.00065144361 0.68399996 1.1986133e-39
-0.0019428609 -0.00064763823 0.67999995 1.4748596e-39
-0.00064762216 -0.00064763636 0.67999995 1.751801e-39
0.00064761611 -0.0006476345 0.67999995 1.1060827e-39
0.0019399999 -0.00064666593 0.67900002 4.6222951e-40
0.0032333327 -0.00064667151 0.67900002 3.9739311e-39
0.0045266678 -0.00064666034 0.67900002 7.4981463e-39
0.00581143 -0.00064571225 0.67799997 7.9447948e-39
0.0071028592 -0.00064570666 0.67800003 8.4079323e-39
0.0084066661 -0.00064666779 0.67900002 8.2074149e-39
0.0097000021 -0.00064665847 0.67900002 8.0857472e-39
0.010993335 -0.0006466622 0.67900002 6.9962194e-39
0.012268573 -0.00064571225 0.67799997 5.9698453e-39
0.013560003 -0.00064570853 0.67800003 4.785629e-39
0.014851429 -0.00064571411 0.67799997 3.6738921e-39
0.01614286 -0.00064571039 0.67800003 2.1173269e-39
0.017434284 -0.00064571784 0.67799997 6.4651847e-40
0.018725717 -0.00064571411 0.67799997 9.2309415e-40
0.020046666 -0.00064666965 0.67900002 1.2900676e-39
0.021340003 -0.00064666034 0.67900002 1.2900564e-39
0.022633335 -0.00064666779 0.67900002 1.3807975e-39
0.02392667 -0.00064666779 0.67899996 1.4736895e-39
0.025220001 -0.00064666965 0.67900002 1.5648062e-39
0.026552383 -0.00064762519 0.67999995 1.5655222e-39
0.027847618 -0.0006476345 0.67999995 1.6562843e-39
0.032057136 -0.00071239402 0.74799997 1.5651691e-39
0.0334819 -0.00071239122 0.74799997 1.4726498e-39
0.034859996 -0.00071142265 0.74700004 1.8421778e-39
0.036185708 -0.00070952275 0.745 2.3017154e-39
0.034475237 -0.00065046758 0.68300003 2.5793743e-39
0.035828572 -0.00065144361 0.68399996 2.7669843e-39
0.037131425 -0.00065144734 0.68399996 1.7546345e-39
0.038602851 -0.00065428787 0.68700004 7.3910647e-40
0.039911427 -0.00065427856 0.68700004 2.8581822e-39
0.041339993 -0.0006561859 0.68900001 4.8987475e-39
0.0429 -0.00066000619 0.69299996 1.3747336e-38
0.044220001 -0.00066000433 0.69299996 2.2591169e-38
0.045605715 -0.00066094869 0.69400001 2.3050348e-38
0.046927616 -0.00066095614 0.69400001 2.341769e-38
0.048319042 -0.00066191168 0.69499993 2.341769e-38
0.049642853 -0.00066191354 0.69499999 2.341769e-38
-0.02626 0.00067333388 0.70699996 1.4715624e-39
-0.024842853 0.00067143957 0.70500004 1.3811688e-39
-0.023466667 0.00067047658 0.704 1.7499541e-39
-0.022031428 0.00066762674 0.70099998 2.0261879e-39
-0.02066667 0.00066665537 0.70000005 2.0254802e-39
-0.019250475 0.00066380831 0.69700003 1.9336574e-39
-0.01792286 0.00066380366 0.69699997 1.4734149e-39
-0.01654762 0.00066190562 0.69499999 9.2201936e-40
-0.015136191 0.00065808906 0.69099998 1.1049505e-39
-0.013820002 0.00065807975 0.69099998 1.1971573e-39
-0.012485715 0.00065713353 0.69000006 1.1053344e-39
-0.01117143 0.00065713353 0.69000006 9.223865e-40
-0.0098428559 0.00065619289 0.68900001 1.0138689e-39
-0.0085057132 0.00065428554 0.68700004 1.1060659e-39
-0.0071866643 0.00065334304 0.68600005 1.3808591e-39
-0.0058799987 0.00065333745 0.68599999 1.5670454e-39
-0.0045600026 0.00065141334 0.68400002 1.3837374e-39
-0.0032571461 0.00065141334 0.68399996 1.1071533e-39
-0.0019428609 0.00064760237 0.67999995 1.2911816e-39
-0.00064666476 0.00064667477 0.67900002 1.4744897e-39
0.00064666523 0.00064665987 0.67899996 1.0145919e-39
0.001939998 0.00064665615 0.67900002 5.557914e-40
0.0032333338 0.00064666732 0.67900002 4.6756145e-40
0.0045266659 0.00064666173 0.67900002 2.9287138e-40
0.005811431 0.0006457211 0.67799997 1.8418947e-40
0.0071028601 0.00064572669 0.67799997 1.0491381e-40
0.008394287 0.00064571737 0.67799997 9.2363786e-41
0.0096857157 0.00064572296 0.67799997 9.3410556e-41
0.010993335 0.00064667291 0.67900002 9.2304931e-41
0.012232382 0.00064380444 0.676 9.2644045e-41
0.013560002 0.00064572296 0.67800003 9.2264293e-41
0.014873333 0.00064666546 0.67900002 9.2611816e-41
0.01609524 0.00064380257 0.676 2.7663033e-40
0.017434284 0.00064571551 0.67799997 4.6137332e-40
0.018725716 0.00064571737 0.67799997 7.3723573e-40
0.020017143 0.00064572296 0.67800003 9.2089972e-40
0.021308571 0.00064571737 0.67799997 1.1038476e-39
0.022600001 0.0006457211 0.67800003 1.1960363e-39
0.023891428 0.00064571179 0.67799997 1.1963894e-39
0.025220001 0.00064666546 0.67899996 1.1052686e-39
0.026552379 0.00064760423 0.67999995 1.104907e-39
0.030632379 0.00071236282 0.74799997 1.1052672e-39
0.032014284 0.00071143708 0.74700004 8.2832714e-40
0.033437137 0.00071142218 0.74699998 4.6208237e-40
0.034859993 0.00071142963 0.74700004 1.0134751e-39
0.036088571 0.0007076317 0.74300003 1.5655643e-39
0.037503805 0.00070762052 0.74299997 1.8414281e-39
0.038919047 0.00070762238 0.74300003 2.1201688e-39
0.037131429 0.00065141893 0.68399996 1.662792e-39
0.038434286 0.00065142079 0.68400002 1.1082001e-39
0.039911427 0.0006542874 0.68699998 8.2767974e-40
0.041220002 0.00065429299 0.68700004 4.8341994e-40
0.042961903 0.00066095381 0.69400001 1.1166954e-38
0.044347618 0.00066190003 0.69499999 2.17528e-38
0.045671429 0.00066189817 0.69499999 2.2591171e-38
0.046995234 0.00066189817 0.69499999 2.341769e-38
0.048319045 0.00066189631 0.69499999 2.341769e-38
0.049642857 0.00066190003 0.69499999 2.341769e-38
-0.026260002 0.0020199975 0.70699996 1.5655461e-39
-0.024807619 0.0020114135 0.704 1.288948e-39
-0.023433333 0.0020085701 0.70299995 1.6580682e-39
-0.022094287 0.0020085664 0.70299995 2.0275962e-39
-0.020666666 0.0019999964 0.69999999 2.3017014e-39
-0.019278096 0.0019942753 0.69799995 2.6683469e-39
-0.017922858 0.0019914338 0.69699997 2.0251593e-39
-0.016547622 0.0019857024 0.69499999 1.3826276e-39
-0.015136195 0.0019742695 0.69099998 1.2896738e-39
-0.013820002 0.0019742751 0.69099998 1.2893417e-39
-0.012485715 0.0019714253 0.69000006 1.3819199e-39
-0.011155237 0.0019685698 0.68900001 1.5659566e-39
-0.0098142866 0.0019628571 0.68699998 1.4748442e-39
-0.0084933331 0.0019600017 0.68599999 1.382657e-39
-0.0071866647 0.0019600035 0.68600005 1.4752156e-39
-0.0058799963 0.0019600128 0.68600005 1.5695832e-39
-0.0045600021 0.0019542703 0.68399996 1.2915852e-39
-0.003252381 0.0019514279 0.68300003 1.1064541e-39
-0.0019428604 0.0019428411 0.67999995 1.10571e-39
-0.00064666709 0.0019399968 0.67900002 1.1975385e-39
0.00064666849 0.001940008 0.67900002 1.0138591e-39
0.0019399985 0.0019399913 0.67899996 8.297957e-40
0.003233334 0.0019400006 0.67900002 7.3828391e-40
0.0045266668 0.0019399987 0.67900002 6.4321982e-40
0.0058114287 0.0019371395 0.67799997 5.5210179e-40
0.0071028583 0.0019371433 0.67799997 4.5954462e-40
0.008394286 0.0019371358 0.67799997 3.6877972e-40
0.0096857147 0.0019371414 0.67799997 2.7586802e-40
0.010977143 0.001937147 0.67800003 3.6913705e-40
0.012232378 0.0019314175 0.676 4.6025508e-40
0.0151 0.0021571384 0.755 4.6025508e-40
0.016538097 0.0021571347 0.755 5.5209338e-40
0.017928574 0.0021514331 0.75299996 6.4429041e-40
0.019414287 0.0021571394 0.755 8.2831873e-40
0.020797145 0.0021514304 0.75300002 8.290348e-40
0.020017145 0.0019371563 0.67800003 9.2015143e-40
0.021308571 0.0019371489 0.67799997 1.103821e-39
0.022600001 0.0019371507 0.67800003 1.2871417e-39
0.026428571 0.0021428482 0.75 1.1045539e-39
0.027857142 0.0021428454 0.75 1.0134317e-39
0.029285712 0.0021428426 0.75 1.0137848e-39
0.030632379 0.0021371299 0.74800003 1.0145023e-39
0.03205714 0.0021371336 0.74799997 8.301138e-40
0.033481903 0.0021371327 0.74799997 7.3828811e-40
0.034906667 0.0021371318 0.74800003 1.013803e-39
0.036088567 0.0021228564 0.74299997 1.2893081e-39
0.037503805 0.0021228602 0.74300003 1.4736937e-39
0.038919043 0.0021228602 0.74300003 1.7499373e-39
0.040280003 0.0021200047 0.74199998 1.6609899e-39
0.041580949 0.0021142659 0.73999995 1.5705641e-39
0.04293238 0.0021114366 0.73900002 9.2374295e-40
0.044160001 0.0021028498 0.736 2.8427581e-40
0.04302381 0.001985708 0.69499999 9.2269086e-39
0.044475235 0.0019914208 0.69699997 1.8079729e-38
0.045802854 0.0019914282 0.69700003 2.0751591e-38
0.046995234 0.0019857117 0.69499999 2.341769e-38
0.048458092 0.0019914319 0.69700003 2.341769e-38
0.049785707 0.0019914282 0.69700003 2.341769e-38
-0.027606666 0.0033666722 0.70699996 1.9357607e-39
-0.026259998 0.0033666657 0.70699996 1.5673425e-39
-0.024842856 0.003357142 0.70500004 1.1985572e-39
-0.023466665 0.0033523829 0.70400006 1.6577277e-39
-0.022094287 0.0033476201 0.70299995 2.0268871e-39
-0.020696193 0.0033380871 0.70099998 2.669042e-39
-0.019278098 0.003323809 0.69799995 3.3115471e-39
-0.017922858 0.0033190462 0.69700003 2.5765198e-39
-0.01652381 0.0033047569 0.69400001 1.7496206e-39
-0.015136193 0.003290463 0.69099998 1.5648524e-39
-0.013800003 0.0032857002 0.69000006 1.2907977e-39
-0.012485716 0.0032857002 0.69000006 1.7510682e-39
-0.011155237 0.0032809579 0.68900001 2.1187787e-39
-0.0098142829 0.0032714342 0.68699998 1.8443596e-39
-0.0084933322 0.003266677 0.68599999 1.5677629e-39
-0.0071866661 0.0032666659 0.68599999 1.5673902e-39
-0.0058628609 0.0032571291 0.68399996 1.5666811e-39
-0.0045600017 0.0032571366 0.68399996 1.2893894e-39
-0.003252381 0.0032523812 0.68299997 1.0131374e-39
-0.0019428604 0.0032380798 0.67999995 1.0116744e-39
-0.00064666662 0.003233332 0.67900002 9.2091654e-40
0.00064666616 0.0032333282 0.67900002 1.0138282e-39
0.001940001 0.0032333375 0.67900002 1.0130939e-39
0.0032333315 0.0032333245 0.67899996 1.0130771e-39
0.0045266668 0.0032333338 0.67899996 1.0127142e-39
0.0058114296 0.0032285729 0.67799997 9.2159336e-40
0.0071028597 0.0032285748 0.67799997 8.29039e-40
0.0083942888 0.0032285803 0.67800003 6.4680154e-40
0.0096857157 0.0032285748 0.67799997 3.7093351e-40
0.010977144 0.0032285785 0.67800003 5.5603803e-40
0.013661905 0.0035952383 0.755 7.3755523e-40
0.015099999 0.0035952346 0.755 8.2867326e-40
0.016538097 0.0035952299 0.755 9.2051016e-40
0.017928576 0.0035857202 0.75300002 1.1038252e-39
0.019362859 0.0035857072 0.75299996 1.1963768e-39
0.020797145 0.0035857062 0.75299996 1.0134233e-39
0.022231432 0.0035857183 0.75300002 8.2867466e-40
0.023634283 0.0035809509 0.75200003 1.103821e-39
0.025 0.0035714244 0.75000006 1.2878563e-39
0.026428573 0.0035714225 0.75000006 1.1045483e-39
0.027857143 0.0035714197 0.75000006 9.2159196e-40
0.029285712 0.0035714188 0.75000006 9.2266536e-40
0.030632382 0.0035619007 0.74799997 9.2230522e-40
0.03205714 0.0035618895 0.74799997 9.2266395e-40
0.0334819 0.0035618895 0.74799997 9.2231223e-40
0.034859996 0.0035571491 0.74700004 9.2231783e-40
0.036088567 0.0035380961 0.74300003 9.2231503e-40
0.037503805 0.0035380961 0.74300003 1.1981774e-39
0.038919043 0.0035380961 0.74300003 1.3832946e-39
0.040280003 0.003533337 0.74200004 1.7524414e-39
0.041580949 0.003523791 0.73999995 2.0272164e-39
0.042990468 0.0035237928 0.73999995 1.1049014e-39
0.044219997 0.0035095119 0.73699999 1.0235785e-40
0.045623809 0.0035095138 0.73699999 7.2850102e-39
0.047027618 0.003509525 0.73699999 1.4389769e-38
0.048431423 0.0035095101 0.73699999 1.8917751e-38
0.048458088 0.003319049 0.69699997 2.341769e-38
0.049785711 0.003319049 0.69700003 2.341769e-38
-0.027606668 0.004713336 0.70700002 1.9364796e-39
-0.02626 0.0047133304 0.70699996 1.3840317e-39
-0.024842856 0.0047000032 0.70499998 8.3086629e-40
-0.023466669 0.0046933247 0.704 1.3829555e-39
-0.022094289 0.0046866555 0.70299995 1.8443008e-39
-0.020755239 0.0046866685 0.70299995 2.3027748e-39
-0.019360954 0.004673332 0.70100003 2.6694091e-39
-0.017922856 0.0046466757 0.69700003 2.2102414e-39
-0.016547618 0.0046333279 0.69499999 1.7503479e-39
-0.015136191 0.0046066679 0.69099998 1.6592299e-39
-0.013800003 0.0045999903 0.69000006 1.6603131e-39
-0.012485715 0.0045999903 0.69000006 1.6606788e-39
-0.011155238 0.0045933295 0.68899995 1.661053e-39
-0.0098142847 0.0045799986 0.68700004 1.5685154e-39
-0.0084933322 0.0045733359 0.68599999 1.4770036e-39
-0.0071866685 0.0045733284 0.68599999 1.3822632e-39
-0.0058628586 0.0045599937 0.68399996 1.2886313e-39
-0.0045600017 0.00455999 0.68400002 1.1045987e-39
-0.0032523824 0.0045533292 0.68300003 1.0116576e-39
-0.00194286 0.0045333188 0.67999995 8.279558e-40
-0.00064666569 0.0045266692 0.67899996 7.3648884e-40
0.00064666662 0.0045266654 0.67900002 8.2905021e-40
0.0019399987 0.0045266617 0.67900002 9.2016824e-40
0.0032285706 0.0045199934 0.67799997 1.0127212e-39
0.00452 0.004519999 0.67799997 1.1049084e-39
0.0058114296 0.0045200028 0.67800003 1.0130659e-39
0.0071133324 0.0045266636 0.67900002 9.2015703e-40
0.008406667 0.0045266729 0.67900002 7.3792237e-40
0.010785712 0.0050333254 0.755 6.4716027e-40
0.012223811 0.0050333366 0.755 6.4679733e-40
0.013661906 0.0050333319 0.755 7.3755663e-40
0.015099999 0.0050333301 0.755 8.2903199e-40
0.016538097 0.0050333263 0.755 8.2939213e-40
0.017928572 0.0050199972 0.75299996 9.2122762e-40
0.019362856 0.0050199963 0.75299996 1.0130645e-39
0.020797146 0.0050200075 0.75300002 9.2087029e-40
0.022201909 0.0050133262 0.75200003 8.2831593e-40
0.023634285 0.0050133225 0.75199997 8.2867326e-40
0.024999999 0.0049999906 0.75000006 9.2087029e-40
0.026428569 0.0049999878 0.75000006 9.2123043e-40
0.02785714 0.0049999859 0.75000006 9.2158776e-40
0.029207619 0.0049866568 0.74799997 9.2194509e-40
0.03063238 0.0049866587 0.74799997 1.0134219e-39
0.03205714 0.0049866587 0.74799997 1.1056147e-39
0.0334819 0.0049866475 0.74799997 1.1052602e-39
0.034859996 0.0049800016 0.74699998 1.0141449e-39
0.036185704 0.0049666576 0.745 1.0137834e-39
0.037503809 0.0049533322 0.74300003 1.1981676e-39
0.038919047 0.0049533378 0.74299997 1.382919e-39
0.040280003 0.0049466603 0.74199998 1.7516988e-39
0.04169333 0.0049466696 0.74199998 2.2115923e-39
0.042990472 0.00493332 0.73999995 1.1970942e-39
0.044220001 0.0049133319 0.73699999 2.7630243e-40
0.045623805 0.0049133282 0.73699999 6.3608356e-39
0.04683619 0.0048933234 0.73399997 1.2541897e-38
0.04823428 0.0048933346 0.73399997 1.798971e-38
0.049632378 0.0048933309 0.73399997 2.341769e-38
-0.02626 0.0060600098 0.70699996 1.2007208e-39
-0.024842856 0.0060428577 0.70500004 4.6495363e-40
-0.023466669 0.0060342792 0.704 1.1070776e-39
-0.022094285 0.0060257185 0.70299995 1.6599081e-39
-0.020696187 0.0060085738 0.70100003 1.8443204e-39
-0.019360952 0.0060085747 0.70099998 2.0280082e-39
-0.01792286 0.0059742779 0.69699997 1.936907e-39
-0.016452378 0.0059228577 0.69099998 1.7528674e-39
-0.015114285 0.0059142821 0.69 1.8454106e-39
-0.013800001 0.0059142802 0.69 1.9365244e-39
-0.012467619 0.0059057083 0.68899995 1.5698943e-39
-0.011122856 0.0058885776 0.68700004 1.20076e-39
-0.0098000001 0.0058800057 0.68600005 1.2911634e-39
-0.0084933322 0.0058800094 0.68599999 1.2904207e-39
-0.0071866652 0.0058800038 0.68599999 1.1045721e-39
-0.0058628614 0.0058628358 0.68399996 9.2090252e-40
-0.0045600031 0.0058628432 0.68399996 9.2090392e-40
-0.0032523796 0.0058542937 0.68300003 9.2052838e-40
-0.0019428595 0.0058285575 0.67999995 7.361231e-40
-0.00064666616 0.0058200043 0.67900002 4.6133968e-40
0.00064666709 0.0058200005 0.67899996 6.4609248e-40
0.001937144 0.0058114324 0.67799997 8.2905021e-40
0.0032285734 0.005811438 0.67800003 1.0127254e-39
0.00452 0.0058114287 0.67799997 1.1045525e-39
0.0064285691 0.0064285584 0.75 1.1049028e-39
0.0078571402 0.0064285565 0.75 1.0127086e-39
0.0093104746 0.0064457096 0.75199997 9.2087309e-40
0.010742856 0.006445704 0.75199997 8.2975366e-40
0.012175239 0.0064457115 0.75199997 8.2975086e-40
0.013607618 0.0064457078 0.75199997 7.3791536e-40
0.015040001 0.0064457143 0.75199997 7.371965e-40
0.016494287 0.0064542843 0.75299996 7.3791536e-40
0.017928571 0.0064542834 0.75299996 8.3010959e-40
0.019362858 0.0064542815 0.75300002 8.2975226e-40
0.020797146 0.0064542955 0.75300002 8.290362e-40
0.02223143 0.0064542824 0.75299996 8.2867747e-40
0.023634283 0.0064457059 0.75199997 6.4500787e-40
0.025066664 0.0064457012 0.75199997 4.6170122e-40
0.026428571 0.0064285668 0.75 6.4609668e-40
0.027857142 0.0064285649 0.75 8.2976207e-40
0.029207619 0.0064114258 0.74800003 1.0137862e-39
0.030632379 0.0064114146 0.74799997 1.1056217e-39
0.032057136 0.0064114146 0.74799997 1.1967383e-39
0.03343714 0.0064028576 0.74700004 1.2892969e-39
0.034859993 0.0064028539 0.74699998 1.1989033e-39
0.036185708 0.0063857157 0.745 1.0145065e-39
0.037503809 0.0063685738 0.74299997 1.198169e-39
0.038919047 0.0063685756 0.74300003 1.2910863e-39
0.040280003 0.0063600074 0.74199998 1.8439e-39
0.04169333 0.0063600037 0.74200004 2.3923948e-39
0.042990468 0.0063428488 0.73999995 1.3796876e-39
0.044220004 0.0063171349 0.73699999 3.7602863e-40
0.045561898 0.0063085556 0.73599994 5.5235542e-39
0.04683619 0.0062914304 0.73399997 1.0611558e-38
0.048102856 0.0062742904 0.73200005 1.7081041e-38
0.049497142 0.0062742904 0.73200005 2.341769e-38
-0.024842856 0.0073857177 0.70499998 9.2448424e-40
-0.023466667 0.0073752319 0.704 1.2914521e-39
-0.022094287 0.0073647574 0.70299995 1.6599039e-39
-0.020755237 0.0073647685 0.70299995 1.7524891e-39
-0.019360954 0.0073438045 0.70099998 1.8447071e-39
-0.017922858 0.0073019061 0.69699997 1.6617774e-39
-0.016499998 0.0072600059 0.69300002 1.479163e-39
-0.01513619 0.0072390418 0.69099998 1.4773497e-39
-0.013800003 0.007228557 0.69 1.4769742e-39
-0.01246762 0.0072180945 0.68899995 1.1081805e-39
-0.011122856 0.0071971416 0.68700004 7.3975106e-40
-0.0097999983 0.0071866792 0.68600005 9.2269198e-40
-0.0084933322 0.0071866699 0.68600005 1.1045539e-39
-0.0071657198 0.0071656946 0.68399996 9.2122622e-40
-0.00586286 0.0071657021 0.68399996 8.2867887e-40
-0.0045533334 0.0071552396 0.68300003 9.2123743e-40
-0.0032476177 0.0071447678 0.68200004 1.0130701e-39
-0.0019400013 0.0071133282 0.67900002 8.2867887e-40
-0.00064666569 0.0071133375 0.67900002 7.3648744e-40
0.00064571341 0.0071028527 0.67799997 8.2868307e-40
0.0021428545 0.0078571299 0.75 9.2016824e-40
0.0035714258 0.0078571271 0.75 9.2053398e-40
0.004999999 0.0078571364 0.75000006 8.2868868e-40
0.0064285705 0.0078571336 0.75000006 8.290376e-40
0.007878094 0.0078780856 0.75199997 8.290362e-40
0.0093104737 0.0078780809 0.75199997 9.2122902e-40
0.010742857 0.0078780875 0.75199997 1.0134233e-39
0.012175236 0.0078780819 0.75199997 8.3010959e-40
0.01360762 0.0078780912 0.75199997 7.3899156e-40
0.015060002 0.0078885742 0.75299996 6.464372e-40
0.016494287 0.0078885723 0.75299996 6.4607987e-40
0.017928572 0.0078885704 0.75300002 7.382741e-40
0.019362858 0.0078885732 0.75299996 8.3011099e-40
0.020797145 0.0078885723 0.75299996 8.2975366e-40
0.02223143 0.0078885704 0.75300002 8.29039e-40
0.02357143 0.0078571467 0.75000006 7.3720631e-40
0.025000002 0.0078571439 0.75000006 6.4538202e-40
0.026428571 0.007857142 0.75000006 9.2125705e-40
0.027857143 0.0078571402 0.75000006 1.1052784e-39
0.029207621 0.0078361826 0.74799997 1.105986e-39
0.030632379 0.0078361724 0.74799997 1.1063448e-39
0.03205714 0.0078361705 0.74799997 1.1056259e-39
0.03343714 0.0078257099 0.74700004 1.1056343e-39
0.034859996 0.0078257192 0.74700004 1.0145247e-39
0.036185708 0.0078047607 0.745 9.2267657e-40
0.037503809 0.0077838115 0.74299997 1.014498e-39
0.038919047 0.0077838115 0.74300003 1.1063434e-39
0.040280003 0.0077733416 0.74200004 1.1981873e-39
0.041693337 0.0077733397 0.74199998 1.2875018e-39
