# .PCD v0.7 - Point Cloud Data file format
VERSION 0.7
FIELDS x y z rgb
SIZE 4 4 4 4
TYPE F F F F
COUNT 1 1 1 1
WIDTH 958
HEIGHT 1
VIEWPOINT 0 0 0 1 0 0 0
POINTS 958
DATA ascii
0.040279996 -0.046359975 0.79799998 5.5280944e-40
0.041747622 -0.046301894 0.79699999 5.5281084e-40
0.04326573 -0.046301927 0.79699999 4.6133408e-40
0.044783823 -0.046301924 0.79699999 3.6879093e-40
0.046301916 -0.046301916 0.79699999 4.613523e-40
0.047820009 -0.046301909 0.79699999 6.461177e-40
0.049338084 -0.046301864 0.79699999 1.1063882e-39
0.050856195 -0.046301894 0.79700005 1.6591962e-39
0.052374285 -0.04630189 0.79699999 9.2415353e-40
0.053892381 -0.046301883 0.79699999 2.7921012e-40
-0.010142853 -0.039895251 0.70999992 1.8474999e-40
-0.0087657049 -0.039782882 0.70799994 2.7695123e-40
-0.0074171373 -0.039782878 0.70799994 1.847626e-40
-0.0064457073 -0.042255264 0.75199991 9.3278834e-41
-0.0050133192 -0.042255282 0.75199991 1.8474859e-40
-0.0035714256 -0.042142872 0.74999994 2.7658409e-40
-0.0021428515 -0.042142875 0.75 3.6842098e-40
-0.00071713637 -0.042311445 0.75299996 3.6877972e-40
0.00071904395 -0.042423807 0.755 3.6913845e-40
0.0022342964 -0.043940976 0.78199995 3.6913845e-40
0.0037142774 -0.043828547 0.77999997 4.6061381e-40
0.0052133366 -0.043940954 0.78199995 4.6061521e-40
0.0067200242 -0.044053391 0.78399998 3.6913845e-40
0.0082342969 -0.044165734 0.78599995 2.7694422e-40
0.0097561972 -0.044278108 0.78799999 2.7658549e-40
0.011271437 -0.044334304 0.78899997 2.7694282e-40
0.012806668 -0.044446662 0.79099995 3.6913705e-40
0.014349543 -0.044559091 0.79299992 3.6877832e-40
0.015939998 -0.044783805 0.79700005 3.6841958e-40
0.017458092 -0.044783797 0.79699999 3.6950419e-40
0.018976184 -0.04478379 0.79699999 4.6206556e-40
0.020494279 -0.044783786 0.79699999 4.6134109e-40
0.022039989 -0.044839971 0.79799998 4.6097675e-40
0.023559997 -0.044839989 0.79799998 4.6061661e-40
0.025079988 -0.044839974 0.79799998 4.6097395e-40
0.026599998 -0.044839993 0.79799998 3.6878252e-40
0.028120006 -0.044840015 0.79799998 4.6026209e-40
0.029639998 -0.044839993 0.79799998 5.5245211e-40
0.031159991 -0.044839974 0.79799992 4.6097254e-40
0.032680001 -0.044839997 0.79799992 3.6877832e-40
0.034199994 -0.044839978 0.79799998 3.6877832e-40
0.035720006 -0.044839997 0.79799998 3.6842098e-40
0.037239995 -0.044839978 0.79799998 4.5989915e-40
0.038760003 -0.044839997 0.79799998 4.6061521e-40
0.040280014 -0.044840015 0.79799998 4.6133268e-40
0.04174763 -0.044783816 0.79699999 3.6985591e-40
0.043265723 -0.044783808 0.79699999 3.6985591e-40
0.044783812 -0.044783801 0.79699999 2.7802602e-40
0.046301905 -0.044783793 0.79699999 3.6950839e-40
0.047820009 -0.044783831 0.79699999 3.6988114e-40
0.049338106 -0.044783823 0.79699999 8.2943136e-40
0.050856199 -0.044783816 0.79699999 1.2903997e-39
0.052374292 -0.044783808 0.79699999 7.4009999e-40
0.053892404 -0.044783838 0.79699999 9.9472573e-41
0.055410482 -0.044783793 0.79700005 5.5307485e-39
-0.011802853 -0.039574295 0.72899997 3.6950139e-40
-0.010414292 -0.039574273 0.72899997 3.6949718e-40
-0.0091123702 -0.039954312 0.736 3.7022726e-40
-0.0079200119 -0.041039973 0.75599992 2.7768691e-40
-0.0064800088 -0.041039981 0.75599998 1.8619753e-40
-0.0050400053 -0.041039992 0.75599992 2.7730155e-40
-0.003600019 -0.041039962 0.75599992 3.6877972e-40
-0.0021571447 -0.040985715 0.75499994 2.7694422e-40
-0.00071905711 -0.0409857 0.755 2.7730295e-40
0.00072189228 -0.04114854 0.75799996 2.7766028e-40
0.0021657115 -0.041148558 0.75799996 3.6985451e-40
0.0037142879 -0.042342864 0.77999991 2.7730155e-40
0.005213323 -0.0424514 0.78199995 2.7694422e-40
0.0067200027 -0.042560007 0.78399998 2.7730295e-40
0.0082342988 -0.042668603 0.78599995 3.6913845e-40
0.0097314483 -0.042668615 0.78599995 2.7694422e-40
0.011257139 -0.042777136 0.78799999 2.7694422e-40
0.012774277 -0.042831402 0.78899997 3.6877832e-40
0.014313329 -0.042939987 0.79099995 3.6841958e-40
0.015859997 -0.043048561 0.79299998 3.6877832e-40
0.017458098 -0.043265715 0.79699999 2.7802042e-40
0.018976189 -0.043265708 0.79699993 3.6949858e-40
0.020494299 -0.043265741 0.79699999 4.6061942e-40
0.022040008 -0.043320015 0.79799998 3.6878672e-40
0.023559999 -0.043319996 0.79799998 3.6842519e-40
0.02507999 -0.043319978 0.79799992 3.6878112e-40
0.026599983 -0.043319955 0.79799998 3.6878672e-40
0.028119991 -0.043319978 0.79799998 3.6879093e-40
0.02964 -0.043319996 0.79799998 4.6097955e-40
0.031159995 -0.043319978 0.79799998 3.6913705e-40
0.032680005 -0.04332 0.79799998 3.6913705e-40
0.034285717 -0.04342857 0.79999995 4.6061381e-40
0.035809524 -0.043428563 0.79999995 5.5173324e-40
0.037239999 -0.043319978 0.79799998 4.6025788e-40
0.038759992 -0.043319963 0.79799998 4.6097395e-40
0.040279999 -0.043319982 0.79799998 4.6169001e-40
0.04174763 -0.04326573 0.79699999 3.7021325e-40
0.043265726 -0.043265723 0.79699993 3.7021325e-40
0.044783801 -0.043265682 0.79699999 2.7945535e-40
0.046301909 -0.043265712 0.79699999 3.6985732e-40
0.047820002 -0.043265708 0.79699999 4.6062782e-40
0.049214303 -0.043157168 0.79499996 8.2941595e-40
0.050728582 -0.043157149 0.79499996 1.2903801e-39
0.052242875 -0.043157168 0.79499996 6.4608828e-40
0.053892393 -0.043265719 0.79699999 9.2285313e-41
0.055410486 -0.043265715 0.79699999 4.9797341e-39
-0.011883811 -0.038447618 0.73399997 6.4500647e-40
-0.010485728 -0.038447592 0.73399997 5.5352691e-40
-0.0091123683 -0.038552411 0.736 3.6950279e-40
-0.0077419016 -0.038709536 0.73899996 2.7695683e-40
-0.0064542671 -0.039442908 0.75299996 1.8547306e-40
-0.005019994 -0.039442878 0.75299996 2.7694282e-40
-0.0035857058 -0.039442886 0.75299996 3.6913845e-40
-0.0021571415 -0.039547633 0.755 2.7730576e-40
-0.00071905117 -0.039547611 0.75499994 1.8582759e-40
0.00071903557 -0.039547592 0.755 2.7837915e-40
0.0021714251 -0.039809514 0.75999993 2.7801902e-40
0.0037142858 -0.040857136 0.77999991 1.8582479e-40
0.0052000051 -0.040857151 0.77999997 9.3631961e-41
0.0067028627 -0.040961914 0.78199989 2.7694562e-40
0.0081923818 -0.040961906 0.78199995 3.6878392e-40
0.0097066863 -0.041066706 0.78399998 3.6878672e-40
0.011228585 -0.041171458 0.78599995 2.7694702e-40
0.012758099 -0.041276198 0.78799999 3.6877832e-40
0.01425905 -0.041276187 0.78800005 3.6913705e-40
0.015819989 -0.041433308 0.79099995 2.7694422e-40
0.017414307 -0.041642904 0.79499996 1.8583039e-40
0.018976195 -0.041747626 0.79699999 2.7731276e-40
0.020494288 -0.041747618 0.79699999 3.6878812e-40
0.022012381 -0.041747615 0.79699999 3.6842939e-40
0.023530489 -0.041747645 0.79699999 2.7658969e-40
0.025079992 -0.041799977 0.79799998 3.6842239e-40
0.026600001 -0.0418 0.79799998 3.6878392e-40
0.028119994 -0.041799981 0.79799998 3.6878672e-40
0.029640002 -0.0418 0.79799998 2.7766449e-40
0.031159993 -0.041799981 0.79799992 2.7694282e-40
0.03267999 -0.041799963 0.79799998 2.7730435e-40
0.034199998 -0.041799981 0.79799998 4.6062082e-40
0.035720006 -0.041800003 0.79799998 6.4393168e-40
0.037239999 -0.041799985 0.79799998 5.5245351e-40
0.038760006 -0.041800007 0.79799998 4.6133408e-40
0.040280014 -0.041800022 0.79799998 4.6169141e-40
0.041747622 -0.041747607 0.79699999 3.6985591e-40
0.043265734 -0.041747645 0.79699999 3.6985451e-40
0.044783823 -0.041747637 0.79699999 2.7873928e-40
0.046301916 -0.04174763 0.79699999 3.6986012e-40
0.047700007 -0.04164286 0.79499996 4.6134529e-40
0.0492143 -0.041642878 0.79499996 8.2833555e-40
0.050600965 -0.041538104 0.79299992 1.1967481e-39
0.052111447 -0.041538112 0.79299992 6.4501208e-40
0.053757168 -0.041642897 0.79499996 9.5858624e-41
0.055410478 -0.041747592 0.79699999 4.4204451e-39
0.056928582 -0.041747626 0.79699999 8.7593836e-39
-0.014460008 -0.036494277 0.72299999 2.7730856e-40
-0.013191434 -0.036797132 0.72899991 3.6949718e-40
-0.011835227 -0.036898125 0.73099995 5.5280944e-40
-0.010528577 -0.037200943 0.73699999 4.6097395e-40
-0.0091495262 -0.037301902 0.73899996 3.6877972e-40
-0.007741896 -0.037301932 0.73899996 3.6877832e-40
-0.0064457054 -0.037958115 0.75199997 3.6877832e-40
-0.0050133173 -0.037958138 0.75199997 3.6949578e-40
-0.0036000046 -0.038159996 0.75599998 3.6985732e-40
-0.0021600169 -0.038159959 0.75599998 3.6914265e-40
-0.00072189647 -0.038260974 0.75799996 3.6878252e-40
0.00072665635 -0.03851331 0.76299995 3.6949718e-40
0.0021800033 -0.038513344 0.76299989 3.6985591e-40
0.0036761919 -0.038967621 0.77199996 3.6913705e-40
0.0051666931 -0.03911911 0.77499998 3.6878112e-40
0.0066599953 -0.03921999 0.77699989 5.5245351e-40
0.0081609618 -0.039320976 0.77899998 7.3613011e-40
0.0096819056 -0.039472379 0.78199995 5.5282345e-40
0.011171441 -0.039472405 0.78199995 3.6914546e-40
0.012725738 -0.039674338 0.78599995 5.5280804e-40
0.014222872 -0.039674316 0.78599995 8.2903339e-40
0.015780004 -0.039825715 0.78899997 5.5316817e-40
0.017326668 -0.039926667 0.79099995 1.858346e-40
0.018880948 -0.040027607 0.79299998 3.6915526e-40
0.020391444 -0.040027652 0.79299992 5.5210459e-40
0.021957153 -0.040128596 0.79500002 4.6026489e-40
0.023471447 -0.040128611 0.79499996 3.6878532e-40
0.024985725 -0.040128592 0.79500002 3.6878112e-40
0.026500018 -0.040128615 0.79499996 3.6878112e-40
0.028084775 -0.040229544 0.79699999 3.6949858e-40
0.029602868 -0.040229537 0.79699999 2.7873788e-40
0.031120962 -0.040229533 0.79699999 3.6949578e-40
0.032639053 -0.040229529 0.79699999 4.6097955e-40
0.034157149 -0.040229522 0.79700005 5.5246192e-40
0.035719991 -0.040279966 0.79799998 6.4393448e-40
0.037239999 -0.040279984 0.79799992 5.5245351e-40
0.038759992 -0.04027997 0.79799998 4.6133548e-40
0.040279999 -0.040279984 0.79799998 4.6169281e-40
0.041747626 -0.040229529 0.79699999 4.6169141e-40
0.043265723 -0.040229522 0.79699999 3.7057198e-40
0.044671446 -0.040128611 0.7949999 3.7165238e-40
0.046185724 -0.040128589 0.79499996 5.5389265e-40
0.047700018 -0.040128611 0.79499996 7.3756784e-40
0.049090475 -0.0400276 0.79299998 9.2088431e-40
0.050600968 -0.040027641 0.79299992 1.1971041e-39
0.052111451 -0.040027648 0.79299992 7.3684617e-40
0.053621933 -0.040027656 0.79299998 1.8409418e-40
0.055410497 -0.040229551 0.79699999 2.3067685e-39
0.056928575 -0.040229503 0.79699999 4.5288397e-39
-0.014500014 -0.035214249 0.7249999 9.3996298e-41
-0.013137151 -0.035262845 0.72599995 2.7837915e-40
-0.011786664 -0.035360005 0.72799999 3.6949718e-40
-0.010528569 -0.035797153 0.73699993 3.6913845e-40
-0.0091247549 -0.035797171 0.73699999 3.6913845e-40
-0.0076685776 -0.035554275 0.73199999 4.6097395e-40
-0.0064457064 -0.036525741 0.75199997 4.6133128e-40
-0.0050133169 -0.036525752 0.75199997 3.6985451e-40
-0.0035952523 -0.0366714 0.755 2.7766309e-40
-0.0021657217 -0.036817122 0.75799996 3.6878392e-40
-0.00072190509 -0.036817141 0.75799996 4.6061661e-40
0.00072667527 -0.037060019 0.76299989 4.6025648e-40
0.0021914365 -0.037254304 0.76699996 3.6877832e-40
0.0036666812 -0.037400033 0.76999998 5.5244931e-40
0.0051466636 -0.037497137 0.7719999 6.4428761e-40
0.0066428678 -0.037642881 0.77499992 9.197955e-40
0.0081399949 -0.037739985 0.77699989 1.1034679e-39
0.0096571408 -0.037885711 0.77999991 7.3648744e-40
0.011142862 -0.037885725 0.77999997 3.6914125e-40
0.012660948 -0.03798284 0.78199995 8.279558e-40
0.014186678 -0.038080025 0.78399998 1.287492e-39
0.015720008 -0.038177159 0.78599995 7.3648043e-40
0.017282857 -0.038322855 0.78899992 1.8547166e-40
0.01883333 -0.038419988 0.79099995 4.6098235e-40
0.020340009 -0.038420022 0.79099995 7.3612871e-40
0.021901913 -0.038517155 0.79299992 5.5209618e-40
0.023412392 -0.038517162 0.79299992 3.6878252e-40
0.024922872 -0.038517166 0.79299998 3.6842098e-40
0.026500015 -0.038614322 0.79499996 3.6913985e-40
0.028014312 -0.03861434 0.79499996 3.7021745e-40
0.02952859 -0.038614318 0.79499996 2.7838055e-40
0.031042865 -0.038614303 0.7949999 4.6133268e-40
0.032557163 -0.038614322 0.79500002 6.4464774e-40
0.034157153 -0.038711436 0.79699999 6.4393448e-40
0.035675246 -0.038711429 0.79699999 6.4393308e-40
0.03710001 -0.038614299 0.79499996 5.5209478e-40
0.038711447 -0.038711458 0.79699999 4.6133408e-40
0.040229537 -0.038711451 0.79699999 4.6241028e-40
0.04164286 -0.038614277 0.79499996 4.6169141e-40
0.043048587 -0.038517155 0.79299992 4.6204874e-40
0.044559065 -0.038517158 0.79299992 4.6205154e-40
0.04606954 -0.03851717 0.79299998 7.3684337e-40
0.047460016 -0.038420029 0.79099995 9.208759e-40
0.048966661 -0.038419981 0.79099995 1.1045497e-39
0.050345734 -0.038322881 0.78899997 1.1971083e-39
0.051980007 -0.038419999 0.79099995 7.3686019e-40
0.053486686 -0.038420033 0.79099995 2.7662753e-40
0.055410482 -0.038711429 0.79699999 2.7664855e-40
0.056928579 -0.038711421 0.79699999 2.0250584e-40
-0.015880967 -0.033833306 0.72499996 3.6914826e-40
-0.014500006 -0.033833321 0.72499996 2.7766589e-40
-0.013227607 -0.03411337 0.73099995 4.6133128e-40
-0.011835235 -0.03411334 0.73099995 5.5316817e-40
-0.010457154 -0.034159981 0.73199999 5.5280944e-40
-0.0090628518 -0.034160018 0.73199999 5.5280944e-40
-0.0076685664 -0.034160018 0.73199999 4.6133268e-40
-0.0062742895 -0.034159996 0.73199999 4.6169141e-40
-0.0049999901 -0.03500003 0.74999994 3.6985451e-40
-0.0035714163 -0.035000037 0.75 3.6985732e-40
-0.0021600025 -0.03528 0.75599998 3.6914265e-40
-0.00072189682 -0.035373352 0.75799996 4.6097535e-40
0.00072477985 -0.035513375 0.76099998 3.6877832e-40
0.0021799942 -0.035606649 0.76299989 3.6841958e-40
0.0036571415 -0.035839994 0.76799995 5.5244931e-40
0.0051333318 -0.035933331 0.76999998 7.3648184e-40
0.0066171526 -0.03602669 0.77199996 8.2796e-40
0.0081190607 -0.036166694 0.77499998 9.1943536e-40
0.0096200081 -0.036260016 0.77699989 6.442848e-40
0.011128572 -0.036353331 0.77899998 3.6913705e-40
0.012660951 -0.036493324 0.78199995 5.5244931e-40
0.014150486 -0.036493354 0.78199995 8.2759706e-40
0.015640005 -0.036493342 0.78199995 5.5244931e-40
0.017217144 -0.036680002 0.78599995 2.7694422e-40
0.01876191 -0.036773346 0.78799999 3.6877972e-40
0.020288577 -0.036820006 0.78899997 5.5209198e-40
0.021791423 -0.036819983 0.78899997 4.6061521e-40
0.023294272 -0.036819961 0.78899997 3.6877972e-40
0.024860015 -0.036913365 0.79099995 3.6877832e-40
0.026366677 -0.036913354 0.79099995 3.6878112e-40
0.027873324 -0.036913306 0.79099995 3.6986012e-40
0.029380003 -0.036913339 0.79099995 3.6985872e-40
0.030886669 -0.036913328 0.79099995 6.4464494e-40
0.032393347 -0.036913361 0.79099995 1.0116296e-39
0.033899996 -0.036913313 0.79099995 8.2760127e-40
0.035406675 -0.036913343 0.79100001 7.3576577e-40
0.036913335 -0.036913335 0.79099995 5.5209478e-40
0.038420022 -0.036913365 0.79099995 4.6061661e-40
0.039825704 -0.036819957 0.78899997 5.5316817e-40
0.041433346 -0.036913354 0.79100001 6.4464494e-40
0.042831432 -0.036819987 0.78899997 6.4500227e-40
0.044334292 -0.036820009 0.78899997 6.4464494e-40
0.045837145 -0.036819987 0.78899997 8.2903339e-40
0.047339991 -0.036819965 0.78899997 1.0130659e-39
0.048780967 -0.036773358 0.78799999 1.1056203e-39
0.05028192 -0.036773346 0.78800005 1.2903829e-39
0.051782869 -0.036773339 0.78799999 7.3794899e-40
0.053283833 -0.036773369 0.78799999 1.8477241e-40
-0.015902864 -0.032497138 0.72599995 4.6062642e-40
-0.014519995 -0.032497153 0.72599995 4.6097955e-40
-0.01324572 -0.032765701 0.73199999 6.442848e-40
-0.011851435 -0.032765701 0.73199999 7.361231e-40
-0.010457141 -0.032765716 0.73199999 7.3576857e-40
-0.0090876399 -0.03285519 0.73399997 7.361245e-40
-0.0076895398 -0.032855205 0.73399997 5.5281084e-40
-0.0062914467 -0.032855198 0.73399991 3.6913985e-40
-0.0049666599 -0.033347636 0.745 3.6913985e-40
-0.0036095267 -0.033929519 0.7579999 3.6914265e-40
-0.0021657269 -0.033929501 0.75799996 3.6878532e-40
-0.00072379789 -0.034019075 0.75999999 3.6878252e-40
0.00072477333 -0.034063835 0.76099998 3.6913705e-40
0.0021799966 -0.034153324 0.76299995 3.6877832e-40
0.0036571233 -0.034377098 0.76799995 5.5244931e-40
0.005119985 -0.034377106 0.76799995 7.3648884e-40
0.0065999981 -0.034466662 0.76999998 7.3649865e-40
0.0080876099 -0.034556165 0.77199996 6.4465335e-40
0.0095952516 -0.034690503 0.77499998 4.6061381e-40
0.011100006 -0.034780011 0.77699989 2.7694282e-40
0.012612393 -0.034869548 0.77899998 3.6841958e-40
0.014114294 -0.034914304 0.77999997 3.6841958e-40
0.015600014 -0.034914318 0.77999997 3.6806085e-40
0.017173337 -0.035093341 0.78399998 2.7694282e-40
0.018666672 -0.035093345 0.78399998 3.6877972e-40
0.020211447 -0.035182897 0.78599995 3.6913845e-40
0.02170858 -0.035182875 0.78599995 3.6913845e-40
0.023264751 -0.035272352 0.78799999 3.6913705e-40
0.024765715 -0.035272382 0.78799999 3.6913705e-40
0.026266681 -0.035272412 0.78799999 3.6949718e-40
0.027802857 -0.035317134 0.78899997 4.6169281e-40
0.029305706 -0.035317112 0.78899997 4.6133268e-40
0.030808568 -0.03531713 0.78899992 9.1979269e-40
0.032311436 -0.035317145 0.78899997 1.2871361e-39
0.033814281 -0.035317127 0.78899997 1.0112723e-39
0.035317149 -0.035317142 0.78899997 7.3576717e-40
0.036819991 -0.035317123 0.78899997 6.4393168e-40
0.038322859 -0.035317138 0.78899992 4.6098235e-40
0.039775256 -0.035272405 0.78799999 6.4430022e-40
0.041171446 -0.035182893 0.78599995 8.2868167e-40
0.042668581 -0.035182871 0.78599995 8.2831593e-40
0.044165742 -0.035182923 0.78599995 7.3755663e-40
0.04566288 -0.035182901 0.78599995 9.2194649e-40
0.047160015 -0.035182878 0.78599995 1.1056175e-39
0.048657149 -0.035182856 0.78599995 1.1978131e-39
0.050026689 -0.035093356 0.78399992 1.2907318e-39
0.051520023 -0.03509336 0.78399992 7.3972584e-40
0.053013355 -0.035093363 0.78399992 9.364177e-41
-0.015902858 -0.031114291 0.72599995 3.6915106e-40
-0.014619984 -0.031328611 0.73099995 3.6950279e-40
-0.013245717 -0.031371422 0.73200005 5.5244931e-40
-0.011851431 -0.031371422 0.73199999 7.3576717e-40
-0.010485738 -0.031457089 0.73399997 8.2760827e-40
-0.0090876361 -0.031457104 0.73399997 9.1944097e-40
-0.0076895361 -0.031457115 0.73399997 7.361245e-40
-0.0063685775 -0.031842843 0.74299991 5.5245491e-40
-0.0049666632 -0.03192858 0.745 4.6061942e-40
-0.0035571498 -0.032014266 0.74699998 2.7694983e-40
-0.0021600013 -0.032399993 0.75599992 3.6842799e-40
-0.00072189904 -0.032485727 0.75799996 3.6806505e-40
0.00072476763 -0.032614302 0.76099992 3.6877832e-40
0.0021743011 -0.032614321 0.76099998 4.6097254e-40
0.0036523719 -0.032871407 0.7669999 5.5280804e-40
0.0051199817 -0.03291424 0.76799989 7.3721331e-40
0.0065828441 -0.032914255 0.76799989 6.4539463e-40
0.0080666803 -0.03300003 0.76999998 5.5354232e-40
0.0095580835 -0.033085681 0.77199996 4.6097254e-40
0.011071442 -0.033214316 0.77499992 3.6913705e-40
0.012580005 -0.033300005 0.77699989 5.5244931e-40
0.014096198 -0.033385724 0.77900004 7.3540284e-40
0.015580002 -0.033385716 0.77899998 5.5209058e-40
0.017129533 -0.033514302 0.78199995 3.6913705e-40
0.018619053 -0.033514291 0.78199995 4.6133128e-40
0.020160018 -0.03360004 0.78399998 5.5316677e-40
0.021653352 -0.033600044 0.78399992 4.6133128e-40
0.023205733 -0.033685755 0.78599995 3.6949578e-40
0.024702882 -0.03368577 0.78599995 3.6949578e-40
0.026200017 -0.033685748 0.78599995 3.6949578e-40
0.027697148 -0.033685725 0.78599995 4.6133128e-40
0.029268576 -0.033771429 0.78799999 6.4464354e-40
0.030769525 -0.033771418 0.78799999 8.279558e-40
0.032311425 -0.033814266 0.78899997 1.0116296e-39
0.033814289 -0.033814285 0.78899997 9.197955e-40
0.035272386 -0.033771433 0.78799999 8.279614e-40
0.03677335 -0.033771463 0.78799999 6.4465054e-40
0.038177148 -0.033685721 0.78599995 4.6170823e-40
0.039573338 -0.033599995 0.78399998 5.5355353e-40
0.041066669 -0.033599999 0.78399992 6.4573515e-40
0.042560007 -0.033600003 0.78399992 7.3755803e-40
0.044053335 -0.033600006 0.78399992 8.3011099e-40
0.045430481 -0.033514291 0.78199995 9.2230522e-40
0.046920016 -0.033514317 0.78199995 1.0144995e-39
0.048409536 -0.033514306 0.78199995 1.1988865e-39
0.049771421 -0.033428535 0.77999997 1.4758279e-39
0.051257156 -0.033428587 0.77999997 9.2266115e-40
0.052540004 -0.033299979 0.77699989 4.6025508e-40
0.053880967 -0.033214308 0.77499998 2.7622535e-40
0.055357162 -0.033214308 0.77499992 9.2370792e-41
-0.015902853 -0.029731441 0.72600001 2.7697225e-40
-0.014619984 -0.029936228 0.73099995 1.8548567e-40
-0.013227617 -0.029936204 0.73099989 4.6026489e-40
-0.011835231 -0.029936215 0.73099995 7.3613151e-40
-0.010485728 -0.030059025 0.73399997 9.198039e-40
-0.0091123609 -0.030141007 0.736 1.103112e-39
-0.0077523836 -0.030304767 0.73999995 9.1943817e-40
-0.0063600042 -0.030386658 0.74199998 7.3613291e-40
-0.0049533444 -0.030427596 0.74299991 4.602761e-40
-0.0035476075 -0.030509558 0.745 1.8512274e-40
-0.0021600036 -0.030959999 0.75599998 2.765953e-40
-0.00072001567 -0.030959966 0.75599998 3.6842799e-40
0.00072381721 -0.031123826 0.75999993 4.5990195e-40
0.0021714342 -0.031123823 0.75999993 4.6062082e-40
0.0036523745 -0.031410456 0.76699996 6.4465054e-40
0.0051199961 -0.031451415 0.76799995 7.3685038e-40
0.0065828417 -0.031451389 0.76799995 5.5354512e-40
0.0080666859 -0.031533379 0.76999998 3.6950559e-40
0.0095333476 -0.03153336 0.76999998 3.6913845e-40
0.011028572 -0.031615239 0.77199996 3.6913845e-40
0.012547632 -0.031738129 0.77499998 7.361217e-40
0.014060002 -0.031820003 0.77699989 1.0116268e-39
0.015580001 -0.031901903 0.77899998 7.361203e-40
0.017085711 -0.031942844 0.77999997 3.6949998e-40
0.018571429 -0.031942859 0.77999997 5.5353531e-40
0.020108575 -0.032024764 0.78199995 7.3684337e-40
0.021598112 -0.032024793 0.78199995 5.5352691e-40
0.02308763 -0.032024782 0.78199995 3.6949718e-40
0.024640001 -0.032106664 0.78399992 3.6913845e-40
0.026133336 -0.032106668 0.78399992 3.6914125e-40
0.027626671 -0.032106671 0.78399992 5.5281505e-40
0.029194303 -0.032188606 0.78599995 7.361245e-40
0.030691436 -0.032188583 0.78599995 7.3576437e-40
0.032270487 -0.032270484 0.78799999 6.4393588e-40
0.03368574 -0.032188617 0.78599989 7.3577978e-40
0.035093345 -0.032106683 0.78399998 8.2796841e-40
0.036680024 -0.032188609 0.78599995 6.4429181e-40
0.038080014 -0.032106686 0.78399998 4.6134109e-40
0.039573349 -0.03210669 0.78399998 4.6170402e-40
0.04106668 -0.032106694 0.78399998 3.7022165e-40
0.04245143 -0.032024756 0.78200001 6.453638e-40
0.043940965 -0.032024782 0.78199995 8.2975366e-40
0.045430485 -0.032024771 0.78199995 8.301152e-40
0.046800006 -0.031942859 0.77999991 8.3119139e-40
0.048223816 -0.031901911 0.77899998 1.1988921e-39
0.04970764 -0.031901944 0.77899998 1.5665984e-39
0.051060002 -0.031819984 0.77699989 1.1985446e-39
0.052540008 -0.031819999 0.77699995 7.3650005e-40
0.053880971 -0.031738117 0.77499992 4.5956144e-40
0.055142865 -0.031615239 0.7719999 1.1247242e-40
0.056613348 -0.031615235 0.77199996 1.1835653e-38
-0.015968563 -0.028465744 0.72899997 3.6954062e-40
-0.014580007 -0.028465703 0.72899997 3.6988674e-40
-0.013245727 -0.02858283 0.73199999 4.6134949e-40
-0.011851425 -0.028582867 0.73199999 6.4537642e-40
-0.010485732 -0.028660916 0.73399997 6.4465615e-40
-0.0091247614 -0.028778099 0.73699999 7.3577138e-40
-0.0077523789 -0.028895246 0.73999989 6.4464914e-40
-0.0063600112 -0.028973315 0.74199998 5.5318779e-40
-0.0049533392 -0.029012373 0.74299991 4.6100898e-40
-0.0035380954 -0.029012386 0.74299997 2.7732678e-40
-0.0021228506 -0.029012401 0.74299991 2.776729e-40
-0.00072000007 -0.029519999 0.75599992 3.6914966e-40
0.00072190195 -0.029598089 0.75799996 3.6878953e-40
0.0021657203 -0.029598111 0.75799996 4.6098516e-40
0.0036190513 -0.029676197 0.75999993 5.5318079e-40
0.0050733397 -0.029715251 0.76099998 7.3648884e-40
0.0065742838 -0.029949518 0.76699996 6.4464774e-40
0.0080457022 -0.02998854 0.76799995 5.5245211e-40
0.0095085632 -0.02998855 0.76799995 4.6097395e-40
0.011000013 -0.030066697 0.76999998 4.6097395e-40
0.012499046 -0.030144753 0.77199996 5.5280944e-40
0.01406001 -0.030340025 0.77699989 7.371979e-40
0.015540016 -0.030340036 0.77699989 5.5316677e-40
0.017085725 -0.03045716 0.77999991 3.6986432e-40
0.018571442 -0.030457176 0.77999997 4.6170823e-40
0.020108579 -0.030535253 0.78199995 6.4465335e-40
0.021598099 -0.030535242 0.78199995 5.5280944e-40
0.023087615 -0.03053523 0.78200001 5.5280944e-40
0.024640013 -0.030613361 0.78399998 4.6097395e-40
0.026133347 -0.030613365 0.78399992 3.6914546e-40
0.027626682 -0.030613365 0.78399992 5.5246332e-40
0.029120015 -0.030613368 0.78399992 8.2796561e-40
0.030613335 -0.030613331 0.78399998 9.1943676e-40
0.032106671 -0.030613335 0.78399998 1.0112863e-39
0.033600006 -0.030613335 0.78399998 9.1946339e-40
0.035093341 -0.030613339 0.78399992 9.1980951e-40
0.036586676 -0.030613342 0.78399992 8.279614e-40
0.038080007 -0.030613344 0.78399992 7.3648184e-40
0.039472397 -0.030535264 0.78199995 5.5352551e-40
0.040961899 -0.030535216 0.78199995 4.6240888e-40
0.042342864 -0.03045713 0.77999997 6.4607987e-40
0.043828562 -0.030457109 0.77999997 9.2194929e-40
0.045256194 -0.030418092 0.77899998 9.2267096e-40
0.046620011 -0.030340005 0.77699989 1.0152253e-39
0.048099995 -0.03033998 0.77699989 1.199255e-39
0.049579997 -0.030339995 0.77699989 1.4751329e-39
0.05106001 -0.03034001 0.77699995 9.2269618e-40
0.051931426 -0.029988542 0.76799995 4.6029572e-40
0.053533349 -0.030066697 0.76999998 2.762716e-40
0.055000015 -0.030066678 0.76999998 1.8423011e-40
0.056466691 -0.030066704 0.76999998 1.1820945e-38
-0.015968563 -0.027077168 0.72899997 4.6209779e-40
-0.01458001 -0.027077127 0.72899997 4.6172925e-40
-0.013227619 -0.027151436 0.73099995 4.6171944e-40
-0.011851437 -0.027188553 0.73199999 4.613565e-40
-0.010485721 -0.027262848 0.73399997 3.6879934e-40
-0.0091619091 -0.027485713 0.73999989 2.7731416e-40
-0.0077523799 -0.027485728 0.73999995 3.6985732e-40
-0.0063600163 -0.027559964 0.74199998 3.6950979e-40
-0.0049533341 -0.027597146 0.74299991 3.6987974e-40
-0.0035380879 -0.027597161 0.74299997 3.6987133e-40
-0.0021228436 -0.02759718 0.74299991 3.7058179e-40
-0.00071905431 -0.028042845 0.755 2.7766869e-40
0.00072189333 -0.02815426 0.75799996 3.6842519e-40
0.0021599901 -0.028079974 0.75599992 3.6914686e-40
0.0036095285 -0.028154299 0.75799996 5.5389685e-40
0.0050666663 -0.028228568 0.75999993 7.3685038e-40
0.0065228674 -0.028265739 0.76099998 7.3577418e-40
0.0080352332 -0.028488556 0.76699996 6.4429181e-40
0.0095085623 -0.028525688 0.76799989 5.5245211e-40
0.010971406 -0.028525658 0.76799995 4.6097535e-40
0.012466679 -0.028600028 0.76999998 4.6097535e-40
0.01393334 -0.028600015 0.76999998 4.6133268e-40
0.015500016 -0.028785748 0.77499992 3.6949578e-40
0.017063823 -0.028934315 0.77899998 2.7802322e-40
0.018547626 -0.028934302 0.77899998 3.6986432e-40
0.020057142 -0.028971426 0.77999997 4.6133688e-40
0.021542862 -0.028971439 0.77999997 6.4428621e-40
0.022999056 -0.028934307 0.77900004 7.3648043e-40
0.024514288 -0.02897143 0.77999997 5.5245071e-40
0.025999993 -0.028971406 0.77999997 3.6878252e-40
0.027485726 -0.02897146 0.77999997 6.4393448e-40
0.029045714 -0.02904571 0.78199995 8.279614e-40
0.030535249 -0.02904574 0.78199995 1.1031064e-39
0.032024771 -0.029045727 0.78199995 1.2867844e-39
0.033514291 -0.029045714 0.78200001 1.1027616e-39
0.035003826 -0.029045744 0.78200001 9.198039e-40
0.036493346 -0.029045733 0.78199995 9.197997e-40
0.037982866 -0.029045722 0.78199995 9.2051296e-40
0.039371427 -0.028971419 0.77999997 7.3683777e-40
0.040804766 -0.028934278 0.77899998 5.5388564e-40
0.04228859 -0.028934306 0.77899998 7.382755e-40
0.043660007 -0.028860001 0.77699989 9.2266536e-40
0.045140009 -0.028860016 0.77699989 1.1074153e-39
0.046500023 -0.028785743 0.77499992 1.1992494e-39
0.047976211 -0.028785743 0.77499992 1.2918024e-39
0.049452402 -0.028785741 0.77499998 1.291808e-39
0.050928593 -0.028785743 0.77499992 7.4044331e-40
0.051931426 -0.028525677 0.76799995 1.855151e-40
0.05339428 -0.028525691 0.76799995 1.84111e-40
0.054857146 -0.028525699 0.76799989 2.1402312e-40
0.056319993 -0.028525673 0.76799995 1.1846416e-38
-0.015968563 -0.025688596 0.72899997 5.5286129e-40
-0.014619995 -0.025759064 0.73099995 4.6102019e-40
-0.013245721 -0.025794273 0.73199999 4.6101318e-40
-0.011851419 -0.025794309 0.73199999 3.6881335e-40
-0.010485725 -0.025864741 0.73399991 3.6916648e-40
-0.0091619082 -0.026076194 0.73999995 2.7731697e-40
-0.0077523929 -0.026076166 0.73999995 3.6913705e-40
-0.0063600074 -0.026146654 0.74199998 4.6062082e-40
-0.004953329 -0.026181921 0.74299991 4.6134389e-40
-0.0035380991 -0.026181895 0.74299991 4.6169982e-40
-0.0021228548 -0.026181912 0.74299997 5.5389124e-40
-0.00071616651 -0.026499109 0.75199997 6.4536521e-40
0.00072000298 -0.026640007 0.75599998 5.5280804e-40
0.0021599899 -0.026639977 0.75599998 4.6097815e-40
0.0036095353 -0.02671051 0.75799996 7.3684898e-40
0.0050533204 -0.026710453 0.75799996 1.0127184e-39
0.0065228618 -0.0268162 0.76099998 7.3649865e-40
0.007972395 -0.026816221 0.76099998 5.5246192e-40
0.0094961971 -0.027027633 0.76699996 4.6097675e-40
0.01097142 -0.027062835 0.76799995 4.6097675e-40
0.012434282 -0.027062846 0.76799995 4.6133408e-40
0.013897143 -0.027062856 0.76799995 4.6169141e-40
0.015459985 -0.027239004 0.773 5.5352551e-40
0.017019991 -0.027379977 0.77699989 5.5352551e-40
0.018499997 -0.027379988 0.77699989 6.45361e-40
0.019980002 -0.027380001 0.77699995 8.2867326e-40
0.021515237 -0.02745047 0.77899998 8.2867326e-40
0.022939997 -0.027379988 0.77699995 8.2831453e-40
0.024482861 -0.027450485 0.77899998 7.3647903e-40
0.025899991 -0.027379977 0.77699989 5.5280944e-40
0.027380014 -0.027380029 0.77699989 6.4464494e-40
0.028934292 -0.027450487 0.77899998 8.279572e-40
0.030418115 -0.027450515 0.77899998 9.1979129e-40
0.031901922 -0.027450504 0.77899998 1.1038224e-39
0.033385728 -0.027450491 0.77900004 1.0116282e-39
0.034869529 -0.02745048 0.77899992 9.2015563e-40
0.036353335 -0.027450467 0.77899998 8.290418e-40
0.037837151 -0.027450496 0.77899992 7.3791957e-40
0.039220013 -0.027380021 0.77699989 6.4571973e-40
0.040700018 -0.027380032 0.77699989 5.5352831e-40
0.042071443 -0.027309557 0.77499992 7.382769e-40
0.043547638 -0.027309556 0.77499998 9.2338282e-40
0.045023825 -0.027309556 0.77499998 1.0152169e-39
0.046379998 -0.027239025 0.773 1.1074097e-39
0.047852393 -0.027239049 0.773 1.1996026e-39
0.048686676 -0.026886676 0.76299989 1.2925143e-39
0.050140012 -0.02688667 0.76299989 7.3934889e-40
0.051593345 -0.026886666 0.76299995 1.8408858e-40
0.05339428 -0.027062828 0.76799989 3.0382197e-39
0.054857127 -0.027062796 0.76799995 5.9982413e-39
0.056319989 -0.027062807 0.76799995 1.4769728e-38
-0.016012376 -0.024366688 0.73099989 6.4433525e-40
-0.01461999 -0.024366697 0.73099995 4.6137191e-40
-0.013245718 -0.024399994 0.73200005 3.6916788e-40
-0.011851432 -0.024399992 0.73199999 2.7769392e-40
-0.010485732 -0.02446663 0.73399997 2.7769812e-40
-0.0091495197 -0.024633352 0.73899996 2.7732958e-40
-0.0077523771 -0.024666689 0.73999995 3.684378e-40
-0.0063599986 -0.024733344 0.74199998 4.6099356e-40
-0.0049533383 -0.024766658 0.74299991 4.613565e-40
-0.0035380949 -0.024766676 0.74299991 4.6171103e-40
-0.0021228497 -0.024766689 0.74299991 7.3721331e-40
-0.00070953084 -0.02483332 0.745 1.0123611e-39
0.00071998691 -0.025199967 0.75599992 7.3649585e-40
0.0021599883 -0.025199974 0.75599998 4.6099356e-40
0.0035999925 -0.025199978 0.75599992 9.2017385e-40
0.0050533288 -0.025266659 0.75799996 1.2878732e-39
0.006497147 -0.025266677 0.75799996 8.2833555e-40
0.0079409499 -0.02526666 0.7579999 3.6914966e-40
0.0094219232 -0.025366707 0.76099998 4.6133548e-40
0.010957128 -0.02556663 0.76699996 4.6169281e-40
0.012385712 -0.025499992 0.76499999 4.6169281e-40
0.013842859 -0.0255 0.76499999 4.6169281e-40
0.015400012 -0.025666693 0.76999992 6.4500367e-40
0.016976206 -0.025833372 0.77499992 8.290348e-40
0.018452397 -0.025833372 0.77499998 1.0123485e-39
0.019979993 -0.025899984 0.77699989 1.104184e-39
0.02146 -0.025899997 0.77699995 1.0127072e-39
0.022940006 -0.025900012 0.77699995 9.2051156e-40
0.024357159 -0.025833372 0.77499992 8.279586e-40
0.025833333 -0.025833331 0.77499992 7.3649164e-40
0.027309543 -0.02583337 0.77499998 7.3721752e-40
0.02878573 -0.02583337 0.77499992 7.3685178e-40
0.030261921 -0.02583337 0.77499998 8.279628e-40
0.031819992 -0.025899973 0.77699989 8.2832154e-40
0.033299997 -0.025899986 0.77699995 9.197969e-40
0.034780022 -0.025900038 0.77699989 9.2051857e-40
0.036260009 -0.025900014 0.77699989 7.3756924e-40
0.037740014 -0.025900027 0.77699989 5.5425138e-40
0.039220002 -0.025900001 0.77699989 5.546045e-40
0.04059526 -0.025833368 0.77499992 4.6241028e-40
0.042071447 -0.025833368 0.77499998 7.382769e-40
0.043435238 -0.025766658 0.773 9.2302549e-40
0.044907629 -0.025766678 0.773 1.0145037e-39
0.046200018 -0.025666688 0.76999998 1.0152211e-39
0.04766668 -0.025666676 0.76999998 1.1988907e-39
0.048686676 -0.025433348 0.76299989 1.2914409e-39
0.050140012 -0.025433341 0.76299995 7.4006636e-40
0.051593345 -0.025433337 0.76299995 9.3720243e-41
-0.016012369 -0.022974323 0.73099995 7.3688401e-40
-0.014619998 -0.022974294 0.73099995 5.542766e-40
-0.013227614 -0.022974309 0.73099995 4.6170963e-40
-0.011851429 -0.023005717 0.73199999 2.7805125e-40
-0.010485721 -0.023068562 0.73399997 3.6989935e-40
-0.0091123786 -0.023131432 0.73599994 3.6989515e-40
-0.007741882 -0.023225771 0.73899996 4.6136631e-40
-0.0063428567 -0.023257146 0.74000001 4.6136771e-40
-0.0049466742 -0.023319982 0.74199998 4.6208518e-40
-0.0035333298 -0.02332001 0.74199998 4.624383e-40
-0.0021228609 -0.023351423 0.74299991 5.53192e-40
-0.00070951687 -0.023414303 0.745 6.4431423e-40
0.00071714778 -0.023665726 0.7529999 5.5284167e-40
0.0021514357 -0.023665732 0.75299996 5.5284307e-40
0.0035952348 -0.023728563 0.755 7.368742e-40
0.0050333384 -0.023728585 0.755 9.2089692e-40
0.0064714262 -0.023728566 0.755 6.4502329e-40
0.0079199998 -0.02376 0.75599992 3.6914966e-40
0.0093599875 -0.023759969 0.75599992 4.6169281e-40
0.010857148 -0.023885723 0.75999999 6.4608127e-40
0.012304765 -0.023885718 0.75999999 6.4572254e-40
0.013806669 -0.023980001 0.76299989 6.453638e-40
0.0153 -0.024042854 0.76499999 6.453638e-40
0.016822847 -0.024137115 0.76799995 6.4536661e-40
0.018333338 -0.024200007 0.76999998 8.2868167e-40
0.019851428 -0.024262853 0.7719999 1.1034707e-39
0.021321904 -0.024262853 0.77199996 1.0123513e-39
0.02279238 -0.024262851 0.77199996 9.208745e-40
0.024262872 -0.02426289 0.77199996 8.2832013e-40
0.025733333 -0.024262849 0.77199996 8.2797962e-40
0.027203823 -0.024262888 0.77199996 6.4504291e-40
0.028600007 -0.024200022 0.76999998 5.5355353e-40
0.030066673 -0.024200005 0.76999998 6.4537501e-40
0.031615235 -0.024262844 0.77199996 8.2940334e-40
0.033000026 -0.024200056 0.76999998 9.2051857e-40
0.034466691 -0.024200039 0.76999998 1.0119995e-39
0.035933349 -0.024200026 0.76999998 9.2088571e-40
0.037400011 -0.024200011 0.76999998 9.2159616e-40
0.038866665 -0.024199998 0.76999998 7.382769e-40
0.040333346 -0.02420002 0.76999998 6.464414e-40
0.041800026 -0.024200043 0.76999998 8.3082846e-40
0.043266688 -0.024200032 0.76999998 1.1070566e-39
0.044617128 -0.024137076 0.76799995 1.1070608e-39
0.046020001 -0.024105692 0.76699996 1.1074196e-39
0.047233351 -0.023980023 0.76299989 1.382926e-39
0.048495255 -0.023885751 0.75999993 1.5673089e-39
0.049942866 -0.023885705 0.75999993 8.2974946e-40
0.051119994 -0.023759967 0.75599998 9.2317543e-41
0.05255999 -0.023759972 0.75599992 7.9163932e-39
-0.014620008 -0.021581894 0.73099995 6.4541005e-40
-0.013245728 -0.021611398 0.73199999 4.6138172e-40
-0.011851425 -0.021611441 0.73199999 2.7807086e-40
-0.010485725 -0.021670455 0.73399991 3.6990916e-40
-0.0091123767 -0.021729534 0.73599994 4.6174046e-40
-0.0077209552 -0.021759046 0.73699999 4.6173625e-40
-0.0063342773 -0.021818114 0.73900002 4.6172925e-40
-0.0049466654 -0.021906672 0.74199998 4.624397e-40
-0.0035380982 -0.021936186 0.74299991 4.6171383e-40
-0.0021228702 -0.02193616 0.74299991 3.6879373e-40
-0.00070760766 -0.021936214 0.74299991 2.7697225e-40
0.00071430212 -0.022142898 0.75 4.6065865e-40
0.0021514315 -0.022231435 0.75299996 5.5285148e-40
0.0035857372 -0.02223148 0.75299996 5.5356754e-40
0.0050333268 -0.022290457 0.755 5.5356054e-40
0.0064714295 -0.022290478 0.75499994 4.613593e-40
0.0079199998 -0.022319997 0.75599998 2.7803863e-40
0.0093599856 -0.022319967 0.75599998 5.5425418e-40
0.010828569 -0.022379039 0.75799996 8.2975787e-40
0.012320978 -0.022467675 0.76099998 8.2975646e-40
0.013770494 -0.02246766 0.76099992 7.3756224e-40
0.015260001 -0.02252667 0.76299995 6.4572674e-40
0.016800947 -0.022644749 0.76699996 4.6169982e-40
0.018285705 -0.022674261 0.76800001 7.3721051e-40
0.01974855 -0.022674233 0.76799995 1.0119981e-39
0.021266663 -0.022733325 0.76999998 9.198039e-40
0.022733342 -0.022733349 0.76999998 8.2868587e-40
0.024200017 -0.022733375 0.76999998 8.2832714e-40
0.02566668 -0.022733359 0.76999998 8.2833695e-40
0.027133338 -0.022733344 0.76999998 6.4539463e-40
0.028600015 -0.022733368 0.76999998 3.6987974e-40
0.029988566 -0.022674268 0.76799989 5.5354092e-40
0.031451412 -0.022674238 0.76799995 7.3757064e-40
0.032914273 -0.022674248 0.76799995 9.208829e-40
0.034377135 -0.022674259 0.76799995 1.1045651e-39
0.035793327 -0.022644738 0.76699996 1.1964132e-39
0.037254289 -0.022644762 0.76699996 1.1971125e-39
0.038715236 -0.022644747 0.76699996 1.013782e-39
0.040071432 -0.022585703 0.76499999 8.3047253e-40
0.041420005 -0.022526672 0.76299989 1.0152225e-39
0.042873342 -0.022526668 0.76299989 1.198539e-39
0.044442855 -0.022585692 0.76499999 1.1985446e-39
0.045660023 -0.02246766 0.76099992 1.1985474e-39
0.04704763 -0.022438094 0.75999999 1.5658922e-39
0.048176195 -0.022290455 0.755 1.8410287e-39
0.049614295 -0.022290476 0.755 1.0109093e-39
0.050917152 -0.022231437 0.7529999 9.2328753e-41
0.052351441 -0.022231445 0.75299996 9.9188586e-39
0.053785734 -0.022231448 0.7529999 1.9808797e-38
-0.01462 -0.020189529 0.73099995 5.5359137e-40
-0.013245709 -0.020217158 0.73199999 4.6212862e-40
-0.011883832 -0.020272331 0.73399997 2.7844922e-40
-0.010485731 -0.020272346 0.73399997 3.6991757e-40
-0.0091123749 -0.020327635 0.73599994 5.5322703e-40
-0.0077104759 -0.020327624 0.736 4.6174606e-40
-0.0063342727 -0.020410514 0.73899996 4.6137332e-40
-0.0049466719 -0.020493325 0.74199998 5.5355353e-40
-0.0035380931 -0.020520961 0.74299991 6.4537782e-40
-0.0021199966 -0.020493342 0.74199998 6.4500647e-40
-0.0007076193 -0.020520953 0.74299991 5.5283747e-40
0.00071141735 -0.020631406 0.74699998 6.4505692e-40
0.0021428675 -0.020714311 0.74999994 7.3652948e-40
0.0035809674 -0.020769563 0.75199997 6.4504851e-40
0.005020021 -0.020797191 0.75299996 6.4504291e-40
0.0064542927 -0.020797158 0.75299996 5.5320181e-40
0.0079095205 -0.020852374 0.75499994 5.5391086e-40
0.0093476092 -0.020852353 0.755 7.3757345e-40
0.010799989 -0.020879971 0.75599992 8.2904741e-40
0.012272377 -0.020935228 0.75799996 9.208787e-40
0.013716197 -0.020935247 0.75799996 9.208787e-40
0.015259988 -0.021073302 0.76299995 7.3684898e-40
0.016713336 -0.021073338 0.76299989 5.5246472e-40
0.018214282 -0.021128558 0.76499999 8.2869148e-40
0.019722857 -0.021183807 0.76699996 1.104198e-39
0.021211429 -0.021211417 0.76799995 9.2052557e-40
0.022733331 -0.021266658 0.76999998 6.4537922e-40
0.024200022 -0.021266721 0.76999998 8.2869148e-40
0.025666684 -0.021266704 0.76999998 9.1981371e-40
0.027062856 -0.021211421 0.76799995 7.3722312e-40
0.028525714 -0.021211432 0.76799995 6.4574215e-40
0.02987141 -0.021128519 0.76499999 7.3757205e-40
0.031328559 -0.021128528 0.76499993 8.2976768e-40
0.032785706 -0.021128539 0.76499993 1.0130813e-39
0.034242854 -0.021128548 0.76499993 1.1964146e-39
0.035606686 -0.021073362 0.76299995 1.1964342e-39
0.037060004 -0.021073321 0.76299989 1.288599e-39
0.038513333 -0.021073313 0.76299995 9.2194369e-40
0.039966676 -0.021073347 0.76299989 6.4680294e-40
0.041420009 -0.021073345 0.76299995 9.2231503e-40
0.042873345 -0.021073341 0.76299995 1.1971097e-39
0.044210497 -0.021018138 0.76099992 1.2896682e-39
0.045479998 -0.020935228 0.7579999 1.4729875e-39
0.046800002 -0.020879978 0.75599992 2.0250823e-39
0.048176199 -0.020852366 0.755 2.577512e-39
0.049614299 -0.020852389 0.755 1.3793275e-39
0.050917167 -0.020797182 0.75299996 9.2338562e-41
0.052490477 -0.020852348 0.755 1.0879924e-38
0.053928576 -0.020852368 0.755 2.1672782e-38
-0.013245722 -0.018822843 0.73199999 3.7062943e-40
-0.011851421 -0.01882288 0.73199999 2.78438e-40
-0.010485721 -0.018874278 0.73399997 4.621118e-40
-0.0090876371 -0.018874252 0.73399997 5.5358856e-40
-0.0076895352 -0.018874263 0.73399997 5.5358856e-40
-0.0063171429 -0.018951433 0.73699999 4.6174046e-40
-0.0049333381 -0.019028561 0.73999989 6.450401e-40
-0.0035333489 -0.019079963 0.74199998 8.2906282e-40
-0.0021200036 -0.019079993 0.74199998 8.2905722e-40
-0.00070763001 -0.01910569 0.74299991 8.2943837e-40
0.00070953468 -0.019157169 0.745 8.2981812e-40
0.0021371576 -0.01923432 0.74799997 8.2909225e-40
0.0035618991 -0.019234272 0.74799997 7.3653088e-40
0.0050000073 -0.019285735 0.74999994 6.4505272e-40
0.0064542885 -0.019362861 0.75299996 7.3652808e-40
0.0078885769 -0.019362869 0.75299996 8.287167e-40
0.0093476288 -0.019414308 0.755 8.287111e-40
0.010785716 -0.019414285 0.755 8.2870409e-40
0.012239993 -0.019439975 0.75599992 1.011652e-39
0.013679995 -0.019439982 0.75599998 1.104205e-39
0.015260006 -0.019620014 0.76299989 9.2017525e-40
0.016713338 -0.019620011 0.76299995 6.4502889e-40
0.018166671 -0.019620007 0.76299995 9.2089552e-40
0.019671423 -0.019671412 0.76499999 1.1960419e-39
0.021183807 -0.019722845 0.76699996 8.2833975e-40
0.02267427 -0.019748529 0.76799995 4.6171663e-40
0.024137134 -0.019748537 0.76799995 7.3722452e-40
0.02559999 -0.01974855 0.76799995 1.0123723e-39
0.027027622 -0.019722858 0.76699996 9.2089552e-40
0.028525701 -0.019748531 0.76799995 8.2941595e-40
0.029871417 -0.019671401 0.76499993 8.2905582e-40
0.031246675 -0.019620007 0.76299995 8.2977048e-40
0.032700006 -0.019620005 0.76299995 1.1052756e-39
0.034153324 -0.01961996 0.76299995 1.2886004e-39
0.035606667 -0.019619998 0.76299989 1.2878956e-39
0.036962882 -0.019568613 0.76099998 1.2885962e-39
0.0384124 -0.019568594 0.76099998 9.219563e-40
0.039861929 -0.01956862 0.76099998 4.6314316e-40
0.041311443 -0.0195686 0.76099992 8.3049075e-40
0.042760983 -0.019568618 0.76099998 1.1059986e-39
0.044210479 -0.019568564 0.76099998 1.4729833e-39
0.045300007 -0.019414283 0.755 1.7492185e-39
0.0466143 -0.019362867 0.7529999 2.5757491e-39
0.047984783 -0.01933717 0.75199997 3.3089743e-39
0.049285725 -0.019285725 0.74999994 1.7452374e-39
0.050714299 -0.019285733 0.75 1.1244579e-40
0.052142892 -0.019285774 0.74999994 1.1835622e-38
0.053571444 -0.01928574 0.74999994 2.3415162e-38
-0.013245719 -0.017428562 0.73200005 5.5356054e-40
-0.011851433 -0.01742856 0.73199999 3.6954483e-40
-0.010457149 -0.017428564 0.73199999 4.6139293e-40
-0.009087624 -0.017476181 0.73399997 5.528739e-40
-0.0076895407 -0.017476154 0.73399991 5.5323684e-40
-0.0063085561 -0.017523855 0.736 5.5358436e-40
-0.0049266615 -0.017595252 0.73899996 5.5357175e-40
-0.0035238066 -0.017619058 0.73999989 6.4612471e-40
-0.002120011 -0.017666645 0.74199998 7.3760147e-40
-0.00070668146 -0.017666634 0.74199998 8.2981392e-40
0.00070763618 -0.017690517 0.74299991 9.2166763e-40
0.0021342854 -0.017785719 0.74699998 1.0138492e-39
0.0035571298 -0.017785681 0.74699992 7.3761268e-40
0.0049866745 -0.017809542 0.74799997 5.5430323e-40
0.00642859 -0.017857188 0.75 6.4506393e-40
0.0078571476 -0.017857153 0.74999994 8.2801465e-40
0.0093476167 -0.017976182 0.75499994 8.2872931e-40
0.010785704 -0.017976161 0.755 9.205564e-40
0.012223806 -0.017976182 0.755 9.2054659e-40
0.013661911 -0.0179762 0.755 1.0127408e-39
0.015119997 -0.01799999 0.75599998 7.368756e-40
0.016603796 -0.018047588 0.75799996 5.5320461e-40
0.018047612 -0.018047608 0.75799996 7.368742e-40
0.019620005 -0.018166674 0.76299989 1.0123793e-39
0.021073336 -0.018166671 0.76299995 8.2870689e-40
0.02252667 -0.018166667 0.76299995 6.461135e-40
0.024105702 -0.018261865 0.76699996 8.2906843e-40
0.025433332 -0.018166658 0.76299989 1.1038532e-39
0.026957136 -0.018214265 0.76499999 9.2053678e-40
0.028414281 -0.018214272 0.76499993 8.2977889e-40
0.029793346 -0.018166685 0.76299995 7.3794339e-40
0.031164773 -0.018119073 0.76099998 6.4681975e-40
0.032614291 -0.018119052 0.76099998 9.2160317e-40
0.034063827 -0.018119071 0.76099998 1.2889508e-39
0.035513341 -0.018119056 0.76099992 1.2882389e-39
0.036914285 -0.018095223 0.75999993 1.2878774e-39
0.0383619 -0.01809522 0.75999999 1.013803e-39
0.03980954 -0.018095253 0.75999993 7.3866085e-40
0.041257154 -0.018095249 0.75999993 1.0145317e-39
0.042592376 -0.018047603 0.75799996 1.1989173e-39
0.044036202 -0.018047621 0.75799996 1.5658964e-39
0.045180008 -0.017928565 0.75299996 2.0254494e-39
0.046304774 -0.01780952 0.74799997 1.8400016e-39
0.047729541 -0.017809549 0.74799997 1.7452682e-39
0.049088586 -0.017785726 0.74699998 3.6737842e-39
0.050511427 -0.017785693 0.74699992 5.6025048e-39
0.051934283 -0.017785696 0.74699998 1.4576012e-38
0.053357147 -0.017785698 0.74699998 2.341769e-38
-0.013245717 -0.016034286 0.73199999 7.3724274e-40
-0.01185143 -0.016034286 0.73199999 4.6138312e-40
-0.010457145 -0.016034286 0.73199999 4.6103e-40
-0.0090876296 -0.016078072 0.73399997 4.610328e-40
-0.0076895463 -0.016078046 0.73399997 5.528711e-40
-0.0063085691 -0.016121916 0.736 5.5357595e-40
-0.0049133296 -0.016143817 0.73699993 4.6172925e-40
-0.003519041 -0.016187636 0.7389999 3.6989935e-40
-0.0021114256 -0.016187625 0.73899996 6.4469538e-40
-0.00070475967 -0.01620953 0.73999989 8.2945519e-40
0.00070665643 -0.016253309 0.74199998 1.0134989e-39
0.0021285722 -0.016319051 0.745 1.1971615e-39
0.0035476326 -0.016319077 0.745 8.2981252e-40
0.0049866745 -0.016384786 0.74799997 3.7027911e-40
0.0064114337 -0.016384775 0.74799997 5.528767e-40
0.0078361919 -0.016384764 0.74799997 7.3690222e-40
0.0093228733 -0.016494321 0.75299996 8.2945098e-40
0.010757145 -0.016494287 0.7529999 9.2091794e-40
0.012191433 -0.016494295 0.75299996 9.2090953e-40
0.013661898 -0.016538074 0.755 8.2907824e-40
0.015119995 -0.016559988 0.75599998 6.4541145e-40
0.016560001 -0.016559992 0.75599992 3.6954623e-40
0.017999984 -0.016559962 0.75599992 5.5321722e-40
0.019542843 -0.016647585 0.75999993 7.3652668e-40
0.020990476 -0.01664762 0.75999993 8.2800064e-40
0.022467636 -0.01666956 0.76099998 8.2907684e-40
0.023917168 -0.016669583 0.76099998 1.0123905e-39
0.025366684 -0.016669566 0.76099998 1.1042218e-39
0.026886668 -0.016713329 0.76299995 1.0116646e-39
0.028265718 -0.01666953 0.76099998 8.2906983e-40
0.029715251 -0.016669553 0.76099998 6.461163e-40
0.031164767 -0.016669534 0.76099998 4.6208377e-40
0.032571435 -0.016647616 0.75999999 8.2834676e-40
0.034019068 -0.016647652 0.75999993 1.1960461e-39
0.035466678 -0.016647648 0.75999999 1.1956859e-39
0.036914289 -0.016647602 0.75999993 1.1971195e-39
0.038361903 -0.016647596 0.75999993 1.106e-39
0.039704766 -0.016603807 0.75799996 1.0145275e-39
0.041148573 -0.01660379 0.75799996 1.1982027e-39
0.042479988 -0.016559957 0.75599998 1.290757e-39
0.043861907 -0.016538091 0.75499994 1.7495772e-39
0.0447 -0.016319029 0.745 2.2083917e-39
0.046119053 -0.016319063 0.745 1.197481e-39
0.047538102 -0.01631905 0.745 9.292991e-41
0.048825726 -0.016275236 0.74299991 5.6023282e-39
0.050240964 -0.016275251 0.74299991 1.1156398e-38
0.051656194 -0.016275229 0.74299991 1.7356547e-38
0.053071439 -0.016275244 0.74299991 2.341769e-38
0.053240016 -0.015902862 0.72599995 2.341769e-38
0.054622877 -0.015902884 0.72599995 2.341769e-38
0.055928573 -0.015880935 0.72499996 2.341769e-38
0.057309531 -0.01588095 0.72499996 2.341769e-38
-0.013245713 -0.014640009 0.73200005 1.1045945e-39
-0.011851427 -0.014640009 0.73199999 7.3653368e-40
-0.010457142 -0.014640007 0.73199999 6.4505412e-40
-0.0090628723 -0.01463997 0.73199999 6.4505692e-40
-0.0076685711 -0.014640003 0.73199999 9.2056481e-40
-0.0062914495 -0.01467995 0.73399997 1.1045819e-39
-0.0049066502 -0.014720043 0.736 8.2870409e-40
-0.0035095173 -0.014740016 0.73699999 6.4468698e-40
-0.002105718 -0.014739994 0.73699999 7.3689382e-40
-0.00070475921 -0.014800007 0.73999995 9.2093195e-40
0.00070664991 -0.014839958 0.74199998 1.0127759e-39
0.002122859 -0.014860006 0.74299997 1.1042512e-39
0.0035476293 -0.014900027 0.745 8.2910066e-40
0.0049799979 -0.014939997 0.74699992 5.5359837e-40
0.0064028571 -0.014939995 0.74699998 6.4507794e-40
0.0078257164 -0.014940001 0.74699998 7.365491e-40
0.0092609534 -0.014959997 0.74799997 8.2909505e-40
0.010757158 -0.015060033 0.75299996 9.2092214e-40
0.01219143 -0.01506 0.75299996 9.2127246e-40
