# .PCD v0.7 - Point Cloud Data file format
VERSION 0.7
FIELDS x y z rgb
SIZE 4 4 4 4
TYPE F F F F
COUNT 1 1 1 1
WIDTH 944
HEIGHT 1
VIEWPOINT 0 0 0 1 0 0 0
POINTS 944
DATA ascii
-0.039520003 -0.071413338 0.72800004 1.1060435e-39
-0.038133346 -0.071413361 0.72800004 1.3815654e-39
-0.036645718 -0.071217149 0.72600007 1.6577795e-39
-0.035262842 -0.07121712 0.72600001 1.198951e-39
-0.033833329 -0.07111904 0.72500002 6.4829812e-40
-0.032452367 -0.071119033 0.72500002 1.0170778e-39
-0.030857144 -0.070628576 0.72000003 1.383701e-39
-0.029362865 -0.070334293 0.71700007 1.3829821e-39
-0.027997149 -0.070334293 0.71700007 1.2907893e-39
-0.026594304 -0.070236228 0.71600002 1.3826276e-39
-0.025159996 -0.070039995 0.71400005 1.3826332e-39
-0.023800002 -0.070040002 0.71400011 1.4755491e-39
-0.022439985 -0.070039973 0.71400005 1.5666629e-39
-0.021079995 -0.070039995 0.71400005 1.7492549e-39
-0.019692386 -0.069941923 0.71300006 1.9329371e-39
-0.018334294 -0.069941923 0.71300006 1.6578005e-39
-0.016928567 -0.069745712 0.71100003 1.3819199e-39
-0.015574296 -0.069745742 0.71100003 1.1993111e-39
-0.014220008 -0.069745727 0.71100003 9.237934e-40
-0.012847613 -0.06964761 0.71000004 1.5655545e-39
-0.011495233 -0.069647618 0.71000004 2.1183807e-39
-0.010157144 -0.069745719 0.71100003 2.0279998e-39
-0.008790466 -0.069647603 0.71000004 1.843247e-39
-0.0074380888 -0.06964761 0.7100001 2.1162353e-39
-0.0060857106 -0.06964761 0.7100001 2.3082048e-39
-0.0047333287 -0.069647618 0.7100001 3.3266938e-39
-0.0033809533 -0.069647618 0.7100001 4.3426338e-39
-0.0020285752 -0.069647618 0.71000004 5.8181113e-39
-0.00067426823 -0.069451407 0.70799994 7.2028381e-39
0.00067333784 -0.06935332 0.70700002 9.5066386e-39
0.0020399988 -0.070040002 0.71400011 1.1713946e-38
0.0034000129 -0.070039988 0.71400005 1.5029377e-38
0.0046866899 -0.068960927 0.70300001 1.8255819e-38
0.0060428604 -0.069157138 0.70499998 2.0284814e-38
0.0073857196 -0.069157138 0.70500004 2.2212992e-38
-0.068200007 -0.074066676 0.77000004 1.6685331e-39
-0.066733345 -0.074066684 0.77000004 2.307797e-39
-0.064419039 -0.073104754 0.76000005 3.04033e-39
-0.062805735 -0.072912417 0.75800002 2.7637487e-39
-0.061200012 -0.072720021 0.7560001 2.5818686e-39
-0.059760008 -0.072720021 0.7560001 2.3045642e-39
-0.058242869 -0.072623827 0.75500005 2.1198185e-39
-0.056804765 -0.072623812 0.75500005 1.7510429e-39
-0.054633338 -0.071661912 0.74500006 1.4737428e-39
-0.053214271 -0.07166189 0.74500012 1.1982363e-39
-0.051795244 -0.071661919 0.74500012 1.0145331e-39
-0.050173316 -0.071373321 0.74199998 1.1066951e-39
-0.048562877 -0.07108479 0.73900002 1.2907472e-39
-0.047027599 -0.070892364 0.73700005 1.3833226e-39
-0.045438111 -0.070603833 0.73400003 1.5673593e-39
-0.04392001 -0.070411459 0.73200005 1.1985894e-39
-0.04246762 -0.070315242 0.73100001 9.2200955e-40
-0.040962875 -0.070122875 0.72900009 1.0142052e-39
-0.039411422 -0.069834277 0.72599995 1.1060547e-39
-0.038028557 -0.069834277 0.72600001 1.290097e-39
-0.036645707 -0.069834277 0.72600001 1.4744701e-39
-0.035214275 -0.06973809 0.72500002 1.1985894e-39
-0.033600006 -0.069257163 0.72000003 9.2236688e-40
-0.032228578 -0.069257155 0.72000003 1.2911452e-39
-0.030814297 -0.069160968 0.71900004 1.7510373e-39
-0.029239988 -0.068679981 0.71400005 1.3833338e-39
-0.027958093 -0.068872385 0.71600002 1.0167079e-39
-0.026519995 -0.068679988 0.71400011 1.1993013e-39
-0.025124773 -0.068583831 0.71300006 1.4740987e-39
-0.023766667 -0.068583816 0.71300006 1.2907949e-39
-0.022408558 -0.068583801 0.71300006 1.1074756e-39
-0.02105049 -0.068583839 0.71300006 1.197509e-39
-0.019637141 -0.068391442 0.71100003 1.1975329e-39
-0.018257143 -0.06829524 0.71000004 1.1964791e-39
-0.016904764 -0.068295248 0.71000004 1.103545e-39
-0.015508581 -0.068102874 0.708 1.8417924e-39
-0.014160002 -0.068102859 0.708 2.5764652e-39
-0.012757145 -0.067814305 0.70500004 2.6704419e-39
-0.011446651 -0.068006642 0.70700002 2.8530591e-39
-0.01011428 -0.068102852 0.708 2.4871745e-39
-0.0087161958 -0.067718104 0.70400006 2.1191136e-39
-0.0073752403 -0.067718096 0.70400006 2.1176773e-39
-0.0060342923 -0.067718096 0.70400012 2.2077387e-39
-0.0047199866 -0.068102844 0.708 2.5801226e-39
-0.0033714147 -0.068102837 0.708 3.0339317e-39
-0.0020228513 -0.068102852 0.70799994 3.5964367e-39
-0.00067144074 -0.067814313 0.70500004 4.1510734e-39
0.0006704824 -0.067718089 0.70400006 5.078073e-39
0.0020028669 -0.067429513 0.70100003 6.000758e-39
0.0033476278 -0.067621902 0.70300001 9.6892698e-39
0.0046866667 -0.067621902 0.70300001 1.3473909e-38
0.00604284 -0.06781432 0.70500004 1.6694263e-38
0.0073857224 -0.067814276 0.70500004 2.0007148e-38
0.0087533593 -0.06800662 0.70700002 2.1479376e-38
-0.069847614 -0.072788574 0.77200001 1.2014565e-39
-0.06837713 -0.072788551 0.77200001 6.5295744e-40
-0.066906668 -0.072788574 0.77200001 1.9408096e-39
-0.064419046 -0.071657136 0.76000005 3.1321627e-39
-0.062805735 -0.071468607 0.75800002 2.667607e-39
-0.061199997 -0.071280003 0.75600004 2.1194611e-39
-0.05968098 -0.071185753 0.75500005 2.2130889e-39
-0.058242861 -0.071185723 0.75500005 2.2123742e-39
-0.056579027 -0.070902832 0.75200003 2.0279872e-39
-0.054486681 -0.070054315 0.74300003 1.7506842e-39
-0.053071439 -0.0700543 0.74300003 1.5655755e-39
-0.051586665 -0.069960013 0.74200004 1.2911242e-39
-0.050038099 -0.069771431 0.74000007 1.3825799e-39
-0.048431411 -0.069488555 0.73700005 1.4747952e-39
-0.046963815 -0.069394305 0.73600006 1.7513989e-39
-0.045314282 -0.06901715 0.73200005 2.0258208e-39
-0.04386 -0.06892287 0.73100001 1.6570354e-39
-0.042351436 -0.068734303 0.72900009 1.2893431e-39
-0.040906683 -0.068640031 0.72800004 1.1971559e-39
-0.039411422 -0.068451427 0.72600001 1.1056875e-39
-0.037871428 -0.068168566 0.72300005 1.198609e-39
-0.036443818 -0.068074301 0.72200012 1.2904277e-39
-0.035068575 -0.068074301 0.72200012 1.1989342e-39
-0.033600014 -0.067885742 0.72000003 1.1067539e-39
-0.03222857 -0.067885719 0.72000003 1.5655867e-39
-0.030728569 -0.06760285 0.71700001 2.0258334e-39
-0.029199043 -0.06722571 0.713 1.3829765e-39
-0.027840959 -0.067225732 0.71300006 7.4048955e-40
-0.026482867 -0.067225724 0.71300006 1.107477e-39
-0.02501905 -0.066942863 0.7100001 1.4730197e-39
-0.023599999 -0.066754282 0.70799994 1.1060323e-39
-0.022251425 -0.066754282 0.70799994 6.4614012e-40
-0.020902846 -0.066754274 0.70799994 5.517963e-40
-0.019471424 -0.066471428 0.70499998 4.6142656e-40
-0.018102864 -0.066377155 0.70400012 6.4333472e-40
-0.01676191 -0.066377155 0.70400006 8.3596141e-40
-0.015420949 -0.066377141 0.70400006 2.4879129e-39
-0.014099991 -0.06647142 0.70500004 4.1481377e-39
-0.012739046 -0.066377148 0.70400012 3.8697712e-39
-0.011398089 -0.066377148 0.70400006 3.5942521e-39
-0.010057157 -0.06637717 0.70400012 2.9481624e-39
-0.008703813 -0.066282853 0.70300001 2.30317e-39
-0.0073647667 -0.066282868 0.70300001 2.2109841e-39
-0.0060342988 -0.066377163 0.70400012 2.1180738e-39
-0.0046866406 -0.066282824 0.70300001 1.9351231e-39
-0.0033571348 -0.06647142 0.70500004 1.65783e-39
-0.0020142877 -0.066471428 0.70500004 1.3826906e-39
-0.00067047961 -0.066377148 0.70400012 1.1132868e-39
0.00066953152 -0.066282853 0.70300001 7.4559168e-40
0.0020085806 -0.066282853 0.70300001 2.961266e-40
0.0033476157 -0.066282853 0.70300001 4.4370028e-39
0.004686662 -0.066282868 0.70300001 8.587206e-39
0.0060428428 -0.066471457 0.70500004 1.3195152e-38
0.0073857252 -0.066471413 0.70499998 1.7703004e-38
0.00875335 -0.066659972 0.70700002 2.0563916e-38
0.010100014 -0.066659987 0.70700002 2.3410438e-38
0.011495239 -0.066942863 0.71000004 2.2949806e-38
0.012811427 -0.066754282 0.70799994 2.2399173e-38
-0.069847614 -0.07131809 0.77200001 2.6686692e-39
-0.068200015 -0.07113336 0.77000004 1.9339881e-39
-0.066300005 -0.070671432 0.76499999 3.319414e-39
-0.064419053 -0.070209518 0.76000011 4.7884274e-39
-0.062805742 -0.070024796 0.75800002 5.1582833e-39
-0.061119072 -0.069747664 0.75500005 5.5152221e-39
-0.059522841 -0.069562837 0.75300002 3.497711e-39
-0.058011401 -0.069470443 0.75200003 1.5706033e-39
-0.056052368 -0.068823814 0.74500006 1.6613654e-39
-0.054486673 -0.06863907 0.74300003 1.8439546e-39
-0.053071428 -0.068639055 0.74300003 1.6595592e-39
-0.051447615 -0.068361901 0.74000001 1.3847603e-39
-0.049970478 -0.068269528 0.73900002 1.3833156e-39
-0.048365727 -0.067992404 0.73600006 1.3826192e-39
-0.04683619 -0.067807622 0.73400003 1.4744743e-39
-0.045252379 -0.067530483 0.73100001 1.5662859e-39
-0.043680016 -0.067253359 0.72800004 1.3815149e-39
-0.04229334 -0.067253351 0.72800004 1.105305e-39
-0.040794287 -0.067068577 0.72600001 1.1049589e-39
-0.039357129 -0.066976182 0.72500002 1.1049631e-39
-0.037871428 -0.066791423 0.72300005 1.2893557e-39
-0.036443796 -0.066699028 0.72200012 1.4733672e-39
-0.034971438 -0.066514306 0.72000003 1.2900368e-39
-0.033553317 -0.066421889 0.71899998 1.1067525e-39
-0.032094292 -0.066237152 0.71700007 1.2908089e-39
-0.0306 -0.065960005 0.71400005 1.5666615e-39
-0.029117141 -0.065682851 0.71100003 1.2904249e-39
-0.027762845 -0.065682851 0.71100003 1.1071211e-39
-0.026297137 -0.065405712 0.70799994 9.2130469e-40
-0.024913317 -0.065313309 0.70700002 8.2729859e-40
-0.023500001 -0.065128572 0.70500004 2.4813955e-39
-0.022157142 -0.065128572 0.70500004 4.2266427e-39
-0.020784765 -0.0650362 0.70400012 4.7877128e-39
-0.019443808 -0.065036185 0.70400006 5.3308729e-39
-0.018077135 -0.064943805 0.70299995 5.8062311e-39
-0.016738079 -0.06494379 0.70300001 6.3644188e-39
-0.015399038 -0.06494379 0.70300001 6.2747357e-39
-0.014059992 -0.064943798 0.70300001 6.1890308e-39
-0.012720948 -0.064943805 0.70300001 4.2476033e-39
-0.011381906 -0.064943805 0.70300001 2.4094108e-39
-0.010014286 -0.064759053 0.70100003 2.1216598e-39
-0.0086790482 -0.064759046 0.70100003 1.8418667e-39
-0.0073647508 -0.06494379 0.70300001 1.6585727e-39
-0.0060257064 -0.064943805 0.70300001 1.3837682e-39
-0.0046866508 -0.064943783 0.70300001 1.2901222e-39
-0.0033476055 -0.06494379 0.70300001 1.1053779e-39
-0.0020085648 -0.064943798 0.70300001 1.0153388e-39
-0.00066951755 -0.064943798 0.70300001 1.0199771e-39
0.00066759437 -0.064759091 0.70100003 8.3520471e-40
0.0020028595 -0.064759053 0.70099998 7.462685e-40
0.0033380752 -0.064759083 0.70100003 2.5912573e-39
0.0046733171 -0.064759076 0.70100003 4.3440687e-39
0.0060257241 -0.06494379 0.70300001 7.9393283e-39
0.0073752329 -0.065036207 0.70400012 1.1534954e-38
0.0087161865 -0.065036193 0.70400006 1.6142204e-38
0.010071434 -0.065128565 0.70500004 2.0749011e-38
0.011414282 -0.065128587 0.70500004 2.1847773e-38
0.012757125 -0.065128587 0.70500004 2.2857639e-38
0.014140022 -0.065313302 0.70700002 2.2767989e-38
0.015486686 -0.065313309 0.70700002 2.2768323e-38
-0.071318097 -0.069847628 0.77200001 5.3401565e-39
-0.069666684 -0.069666699 0.77000004 4.2266174e-39
-0.06793429 -0.069395244 0.76700008 3.13252e-39
-0.066126674 -0.069033325 0.76300001 4.7985098e-39
-0.064419039 -0.068761885 0.76000005 6.4565934e-39
-0.062805749 -0.068581 0.75800002 7.662314e-39
-0.061119054 -0.068309546 0.75500005 8.8414282e-39
-0.059522849 -0.068128563 0.75300002 4.8759623e-39
-0.057857137 -0.067857139 0.75000006 8.3376698e-40
-0.055901907 -0.067223832 0.74300003 1.386575e-39
-0.05478001 -0.067585751 0.74700004 1.9372223e-39
-0.0532143 -0.067404792 0.74500012 1.7524681e-39
-0.051447604 -0.066952355 0.74000001 1.4755126e-39
-0.049835227 -0.066680945 0.73700011 1.3825869e-39
-0.048365705 -0.066590466 0.73600006 1.290055e-39
-0.04683619 -0.066409528 0.73400009 1.197523e-39
-0.045128558 -0.065957122 0.72900009 1.106391e-39
-0.043680012 -0.065866686 0.72800004 1.0141828e-39
-0.042177141 -0.065685719 0.72600007 9.2128087e-40
-0.040794291 -0.065685734 0.72600001 1.01205e-39
-0.039248593 -0.065414317 0.72300011 1.0127702e-39
-0.037819043 -0.065323815 0.72200012 1.2882809e-39
-0.036342848 -0.065142855 0.72000003 1.5644951e-39
-0.034922842 -0.065052353 0.71900004 1.381173e-39
-0.033553325 -0.065052368 0.71900004 1.1071155e-39
-0.031959992 -0.064599991 0.71400011 1.1071309e-39
-0.030557157 -0.064509541 0.71300006 1.0149212e-39
-0.029117147 -0.064328581 0.71100008 1.1971433e-39
-0.027723813 -0.064238101 0.71000004 1.380108e-39
-0.026297141 -0.064057142 0.708 7.3511837e-40
-0.024842868 -0.063785732 0.70500004 9.3381128e-41
-0.023466675 -0.063695252 0.70400006 3.9494322e-39
-0.022125728 -0.063695267 0.70400012 7.8302036e-39
-0.020755233 -0.06360475 0.70300001 9.0416485e-39
-0.019416189 -0.063604757 0.70300001 1.013723e-38
-0.018077141 -0.063604757 0.70300001 1.0978471e-38
-0.0167381 -0.063604765 0.70300001 1.179314e-38
-0.015399046 -0.063604757 0.70300007 9.9661033e-39
-0.014020001 -0.063423805 0.70099998 8.1078583e-39
-0.012684758 -0.063423805 0.70099998 4.6130773e-39
-0.011349541 -0.063423842 0.70100003 1.113263e-39
-0.010014279 -0.063423797 0.70100003 1.2875873e-39
-0.0086790752 -0.063423842 0.70100003 1.3804906e-39
-0.0073438073 -0.063423812 0.70099998 1.0131402e-39
-0.0060257129 -0.063604757 0.70300001 6.4580101e-40
-0.0046866694 -0.063604765 0.70300001 6.4436748e-40
-0.0033476269 -0.063604772 0.70300001 5.5289632e-40
-0.0020085806 -0.063604772 0.70300001 7.3657432e-40
-0.00066951942 -0.06360475 0.70300001 8.305524e-40
0.00066760182 -0.063423842 0.70100003 1.0127787e-39
0.0020028455 -0.063423835 0.70100003 1.2014873e-39
0.0033380827 -0.063423835 0.70100003 6.5443721e-40
0.0046733133 -0.063423842 0.70100003 1.0703958e-40
0.0060342895 -0.063695237 0.70400006 2.7749619e-39
0.0073752459 -0.06369523 0.70400006 5.3629051e-39
0.0087285666 -0.063785717 0.70500004 1.1720769e-38
0.010057136 -0.063695252 0.70400006 1.8069269e-38
0.011414285 -0.063785717 0.70500004 2.0743274e-38
0.012757132 -0.063785732 0.70500004 2.3318262e-38
0.014100014 -0.063785695 0.70499998 2.3136392e-38
0.015442858 -0.063785717 0.70500004 2.2951982e-38
-0.072882876 -0.068465739 0.77300006 4.1521034e-39
-0.07131809 -0.068377145 0.77200001 5.4391708e-39
-0.069666661 -0.0682 0.76999998 5.3375837e-39
-0.068022877 -0.068022884 0.76800001 5.244026e-39
-0.066299997 -0.067757137 0.76499999 6.2715071e-39
-0.064673342 -0.067580022 0.76300001 7.382542e-39
-0.062805742 -0.067137174 0.75800008 8.6733004e-39
-0.061119054 -0.066871442 0.755 1.0056854e-38
-0.059285719 -0.066428587 0.75000006 5.2494028e-39
-0.057625722 -0.066162877 0.74700004 5.5251937e-40
-0.05605239 -0.065985732 0.74500012 1.385496e-39
-0.054633338 -0.065985717 0.74500006 2.3063551e-39
-0.053071443 -0.065808602 0.74300003 2.2120015e-39
-0.051378097 -0.065454297 0.73900002 2.1172779e-39
-0.049835216 -0.065277107 0.73700005 1.7492002e-39
-0.048234303 -0.065011457 0.73400009 1.4726386e-39
-0.046708588 -0.064834319 0.73200005 1.2893473e-39
-0.045066688 -0.064480044 0.72800004 1.106391e-39
-0.043559983 -0.064302832 0.72600001 1.0141926e-39
-0.042177137 -0.064302847 0.72600001 1.013122e-39
-0.040738069 -0.064214252 0.72500002 1.0131276e-39
-0.039248589 -0.064037174 0.72300011 1.0134905e-39
-0.037819054 -0.063948594 0.72200012 1.1971643e-39
-0.036292359 -0.063682832 0.71900004 1.3801164e-39
-0.034825698 -0.063505702 0.71700001 1.1978776e-39
-0.033459984 -0.063505702 0.71700001 1.1081973e-39
-0.031959992 -0.063239992 0.71400005 8.3197612e-40
-0.030471429 -0.062974289 0.71100003 6.4757085e-40
-0.029076176 -0.062885694 0.71000004 1.2882487e-39
-0.027645715 -0.062708572 0.708 1.9293189e-39
-0.026185712 -0.062442861 0.70500004 3.6846106e-39
-0.024772365 -0.062265694 0.70300001 5.5138768e-39
-0.023433326 -0.062265702 0.70300001 6.7293519e-39
-0.022094278 -0.062265709 0.70300001 7.949398e-39
-0.020755233 -0.062265709 0.70300001 6.9288001e-39
-0.019360956 -0.062088583 0.70099998 5.9225445e-39
-0.018025739 -0.062088609 0.70100003 5.908184e-39
-0.016690472 -0.062088571 0.70099998 5.996407e-39
-0.015355255 -0.062088601 0.70100003 5.0701333e-39
-0.013999993 -0.061999984 0.70000005 4.1330724e-39
-0.012666667 -0.062000003 0.70000005 2.3935257e-39
-0.011333338 -0.062000003 0.70000005 6.4327727e-40
-0.0099999998 -0.061999999 0.70000005 8.283888e-40
-0.0086666709 -0.062000006 0.70000005 1.0116674e-39
-0.007364762 -0.062265716 0.70300001 7.3648464e-40
-0.0060256943 -0.062265687 0.70300001 4.602817e-40
-0.0046866452 -0.062265694 0.70300001 4.6030132e-40
-0.0033476083 -0.062265702 0.70300001 4.599524e-40
-0.002008561 -0.062265702 0.70300001 5.5215504e-40
-0.0006704675 -0.062354282 0.70400006 6.4435487e-40
0.00066761114 -0.062088594 0.70100009 7.3727217e-40
0.0020085732 -0.062265724 0.70300001 9.2345849e-40
0.0033380808 -0.062088598 0.70100003 5.5647804e-40
0.0046866918 -0.062265679 0.70300001 2.7739824e-40
0.006034283 -0.062354296 0.70400006 1.4780882e-39
0.0073752403 -0.062354289 0.70400006 2.7674187e-39
0.0087161846 -0.062354304 0.70400012 6.0010789e-39
0.010057145 -0.062354296 0.70400006 9.3294598e-39
0.011414284 -0.062442861 0.70500004 1.4945477e-38
0.012757131 -0.062442873 0.70500004 2.056572e-38
0.01409999 -0.062442869 0.70500004 2.1852473e-38
0.015442861 -0.062442847 0.70499998 2.3137077e-38
-0.072788574 -0.066906676 0.77200001 3.6907539e-39
-0.07113333 -0.06673333 0.76999998 5.5259799e-39
-0.069666676 -0.066733353 0.77000004 6.4410572e-39
-0.068022877 -0.06656003 0.76800007 7.3695253e-39
-0.066299982 -0.066299975 0.76500005 7.8449144e-39
-0.06484288 -0.066300027 0.76500005 8.2108663e-39
-0.062640004 -0.065520003 0.75600004 9.6827916e-39
-0.060957134 -0.065259993 0.75300002 1.114633e-38
-0.059127606 -0.064826652 0.74800003 5.6963792e-39
-0.057625718 -0.06474001 0.74699998 1.8768711e-40
-0.056052394 -0.064566687 0.74500012 1.4802028e-39
-0.054486685 -0.064393356 0.74300003 2.6733426e-39
-0.053071436 -0.064393349 0.74300003 2.7640977e-39
-0.051378094 -0.064046673 0.73900002 2.7612166e-39
-0.049767632 -0.063786685 0.73600006 2.2076827e-39
-0.04823428 -0.063613333 0.73400003 1.564844e-39
-0.04664477 -0.063353345 0.73100001 1.3808241e-39
-0.044942848 -0.062919997 0.72600001 1.1056735e-39
-0.043499984 -0.062833309 0.72500002 1.1060295e-39
-0.042119022 -0.062833294 0.72500002 1.0138408e-39
-0.040625725 -0.062660016 0.72300011 1.0142052e-39
-0.039194293 -0.062573336 0.72200012 1.0142052e-39
-0.037819043 -0.062573329 0.72200006 1.1063994e-39
-0.036191422 -0.062140003 0.71700007 1.1060421e-39
-0.03477715 -0.062053356 0.71600002 1.1056861e-39
-0.033319987 -0.061879989 0.71400005 1.015294e-39
-0.031915244 -0.061793346 0.71300006 6.4903661e-40
-0.030428573 -0.061533332 0.7100001 2.7989395e-40
-0.028994294 -0.061360016 0.708 1.3786843e-39
-0.027606664 -0.061273333 0.70700002 2.4972498e-39
-0.026148569 -0.06101333 0.70400006 6.7432444e-39
-0.024772385 -0.060926676 0.70300001 1.0868334e-38
-0.023366667 -0.060753338 0.70099998 9.4126227e-39
-0.022031449 -0.060753368 0.70100003 7.9288746e-39
-0.020696187 -0.060753327 0.70099998 4.8014161e-39
-0.019360973 -0.060753364 0.70100003 1.5792676e-39
-0.018025732 -0.060753357 0.70100003 8.269917e-40
-0.01666666 -0.060666658 0.70000005 9.9109636e-41
-0.015333329 -0.060666665 0.70000005 9.2281109e-41
-0.013999995 -0.060666662 0.70000005 9.226009e-41
-0.012630476 -0.060493339 0.69800001 1.8407457e-40
-0.011333317 -0.060666636 0.70000005 1.855109e-40
-0.0099999979 -0.060666669 0.70000005 3.7061822e-40
-0.0098676216 -0.069073342 0.79699999 5.5355073e-40
-0.0083495267 -0.069073334 0.79699999 4.6097815e-40
-0.0060257008 -0.060926653 0.70300001 2.765981e-40
-0.0046866555 -0.060926653 0.70300001 2.7624918e-40
-0.0033476129 -0.060926668 0.70300001 2.7625478e-40
-0.0022714259 -0.068900004 0.79500002 3.6809728e-40
-0.00075334962 -0.068553358 0.79100007 3.6846302e-40
0.00075331423 -0.068553366 0.79100001 4.6066426e-40
0.0022542803 -0.068380021 0.78900003 5.5393749e-40
0.0037571425 -0.068380013 0.78899997 4.6210479e-40
0.0046933163 -0.061013363 0.70400012 3.6883997e-40
0.0060342764 -0.061013356 0.70400006 2.7593388e-40
0.007375245 -0.061013333 0.70400006 9.5874038e-41
0.0087285722 -0.061100002 0.70500004 2.7885139e-40
0.01007142 -0.061100014 0.70500004 4.8626598e-40
0.01141429 -0.061099999 0.70499998 9.1425476e-39
0.012757146 -0.061099991 0.70500004 1.7794485e-38
0.014140021 -0.061273307 0.70700002 2.0570745e-38
0.015486682 -0.06127331 0.70700002 2.3220667e-38
-0.072788566 -0.065436199 0.77200001 2.2134742e-39
-0.071133338 -0.065266669 0.77000004 3.5027249e-39
-0.069666669 -0.065266684 0.77000004 5.8071882e-39
-0.068022862 -0.065097146 0.76800001 8.1113923e-39
-0.066300012 -0.06484288 0.76500005 8.2090334e-39
-0.064842865 -0.064842865 0.76500005 8.3009208e-39
-0.062640011 -0.064080022 0.75600004 9.2239897e-39
-0.060876168 -0.063740917 0.75200003 1.014942e-38
-0.059127606 -0.063401893 0.74800003 5.15684e-39
-0.057625704 -0.063317135 0.74699998 1.8445712e-40
-0.0559019 -0.062978089 0.74299997 1.2007516e-39
-0.054486673 -0.062978111 0.74300003 2.305646e-39
-0.052999988 -0.062893316 0.74200004 2.304567e-39
-0.051378112 -0.062639087 0.73900002 2.3031307e-39
-0.049767621 -0.062384769 0.73600006 2.1176633e-39
-0.048234284 -0.062215239 0.73400003 1.9321972e-39
-0.046644766 -0.061960965 0.73100001 1.6566879e-39
-0.044942848 -0.061537139 0.72600001 1.3808213e-39
-0.043499969 -0.061452337 0.72500002 1.105312e-39
-0.042002868 -0.061282877 0.72300005 8.2945238e-40
-0.040569529 -0.061198112 0.72200012 1.0138464e-39
-0.039085712 -0.061028577 0.72000003 1.1982321e-39
-0.037661884 -0.060943782 0.71900004 1.3822576e-39
-0.036140956 -0.060689528 0.71600002 1.5670118e-39
-0.034679994 -0.06051999 0.71400005 1.3826304e-39
-0.033273332 -0.060435243 0.71300006 1.2900914e-39
-0.031646661 -0.059926666 0.70700002 1.1071505e-39
-0.030299984 -0.059926648 0.70699996 9.2348371e-40
-0.028830489 -0.0596724 0.70400012 1.6646291e-39
-0.027450481 -0.059587628 0.70300001 2.4165925e-39
-0.026111411 -0.05958759 0.70300001 3.9800085e-39
-0.024701921 -0.059418127 0.70100003 5.5483488e-39
-0.023366684 -0.059418119 0.70100003 4.7967652e-39
-0.022031441 -0.059418119 0.70100003 4.0422935e-39
-0.020666657 -0.059333313 0.70000005 2.4867723e-39
-0.019333342 -0.059333347 0.70000005 1.0105716e-39
-0.017999988 -0.059333317 0.70000005 6.4321281e-40
-0.016666664 -0.059333324 0.70000005 2.7587083e-40
-0.015333346 -0.059333358 0.70000005 2.7622956e-40
-0.013959986 -0.059163794 0.69800001 2.7623937e-40
-0.012612387 -0.059079058 0.69700003 2.7696664e-40
-0.011284763 -0.059079051 0.69699997 2.7804004e-40
-0.0099571524 -0.059079058 0.69700003 3.7023006e-40
-0.0098676309 -0.067555249 0.79699999 4.6277742e-40
-0.0083495323 -0.067555249 0.79700005 3.6950139e-40
-0.0068142917 -0.067385726 0.79500002 2.7658689e-40
-0.0053133387 -0.067555241 0.79700005 2.7658409e-40
-0.0037952391 -0.067555234 0.79699999 2.7658829e-40
-0.0022714287 -0.067385718 0.79499996 3.6842799e-40
-0.00075334497 -0.067046694 0.79100007 3.6807767e-40
0.00075142272 -0.066877164 0.78900003 4.6063904e-40
0.0022542812 -0.066877156 0.78899997 5.5247733e-40
0.0037428522 -0.066622868 0.78600001 4.6100197e-40
0.005213324 -0.06628383 0.78200001 4.602817e-40
0.0060600163 -0.059926651 0.70699996 3.6808467e-40
0.007385713 -0.059757143 0.70500004 3.6772874e-40
0.0087285712 -0.059757136 0.70500004 2.7661211e-40
0.010071419 -0.059757158 0.70500004 2.7596892e-40
0.011398097 -0.059672385 0.70400006 4.6177801e-39
0.012757149 -0.059757132 0.70500004 8.9595969e-39
0.014099996 -0.059757143 0.70500004 1.2180734e-38
0.015486671 -0.059926663 0.70700002 1.5396003e-38
-0.069666661 -0.063800007 0.76999998 5.1740662e-39
-0.068022862 -0.063634284 0.76800001 8.8500476e-39
-0.066300005 -0.06338571 0.76500005 8.670013e-39
-0.064503819 -0.063054308 0.76100004 8.3941674e-39
-0.062639996 -0.062639996 0.75600004 8.7629639e-39
-0.060957145 -0.06239143 0.75300002 9.0308529e-39
-0.059127618 -0.061977144 0.74800003 4.5968349e-39
-0.057317134 -0.061562855 0.74299997 9.6186528e-41
-0.055901911 -0.061562873 0.74300003 1.016345e-39
-0.054486666 -0.061562862 0.74300003 1.8446665e-39
-0.052999992 -0.061479982 0.74200004 1.8453924e-39
-0.051378112 -0.061231464 0.73900002 1.8450336e-39
-0.049632397 -0.060817175 0.73400009 2.1191052e-39
-0.048102859 -0.060651436 0.73200005 2.3031335e-39
-0.046644766 -0.060568579 0.73100001 1.9325615e-39
-0.044880919 -0.060071386 0.72500002 1.5652182e-39
-0.043380022 -0.059905753 0.72300011 1.1046043e-39
-0.042002868 -0.059905738 0.72300005 6.457954e-40
-0.040400952 -0.059574306 0.71900004 1.0131458e-39
-0.039031416 -0.059574272 0.71900004 1.2897215e-39
-0.037504774 -0.05932574 0.71600002 1.6574138e-39
-0.036040001 -0.059160005 0.71400011 2.0254816e-39
-0.034388561 -0.058662847 0.70799994 1.7510612e-39
-0.032993332 -0.058580004 0.70700002 1.4744813e-39
-0.031557139 -0.058414277 0.70499998 1.5659622e-39
-0.030214282 -0.05841428 0.70500004 1.5677489e-39
-0.028789511 -0.058248542 0.70300001 1.9393873e-39
-0.027372399 -0.058082886 0.70100003 2.3128557e-39
-0.026037157 -0.058082879 0.70100003 1.3026933e-39
-0.024701914 -0.058082879 0.70100003 1.9776805e-40
-0.023366677 -0.058082871 0.70100003 1.841082e-40
-0.022000009 -0.05800001 0.70000005 9.2603408e-41
-0.020607622 -0.057834283 0.69800001 2.7588764e-40
-0.019278096 -0.057834297 0.69800001 4.5990756e-40
-0.017948585 -0.057834305 0.69800001 4.5989915e-40
-0.016619036 -0.057834268 0.69800001 4.5989915e-40
-0.015289521 -0.057834283 0.69800001 4.6025928e-40
-0.015940003 -0.066037148 0.79700005 3.6842799e-40
-0.014421903 -0.066037148 0.79700005 3.6915106e-40
-0.012903806 -0.066037148 0.79700005 2.7767149e-40
-0.01138573 -0.066037178 0.79700005 2.7802742e-40
-0.0098676104 -0.066037133 0.79699999 2.7802462e-40
-0.0083599743 -0.066119969 0.79800004 2.7766449e-40
-0.0068314159 -0.066037133 0.79699999 2.7730295e-40
-0.0053133415 -0.066037156 0.79699999 2.7658409e-40
-0.0037952419 -0.066037156 0.79699999 2.7694562e-40
-0.0022714334 -0.06587144 0.79499996 3.6878392e-40
-0.00075332355 -0.065539986 0.79100001 3.6878953e-40
0.00075142551 -0.0653743 0.78899997 4.6063203e-40
0.0022514164 -0.065291457 0.78800005 4.6063343e-40
0.0037523732 -0.065291449 0.78800005 4.6063483e-40
0.005226654 -0.064960025 0.78400004 4.6063483e-40
0.0067028487 -0.064794295 0.78200006 5.5211159e-40
0.0081609413 -0.064545736 0.77900004 5.5175847e-40
0.0087533491 -0.058579981 0.70700002 3.6773435e-40
0.010100009 -0.058579985 0.70700002 9.2614618e-41
0.011446685 -0.058579974 0.70699996 9.2642644e-41
0.012757151 -0.058414273 0.70500004 1.1281293e-40
0.014099999 -0.058414288 0.70500004 3.7959998e-39
-0.067757145 -0.06192857 0.76500005 8.8529413e-39
-0.066300012 -0.061928585 0.76500005 8.7629331e-39
-0.064673334 -0.061766677 0.76300001 8.7614869e-39
-0.063054293 -0.061604775 0.76100004 7.0105014e-39
-0.061604768 -0.061604775 0.76100004 5.1751578e-39
-0.059127599 -0.060552359 0.74800003 3.2286057e-39
-0.057471436 -0.06030954 0.74500012 1.2911032e-39
-0.055826645 -0.06006664 0.74200004 1.5676971e-39
-0.054413315 -0.060066637 0.74200004 1.8442994e-39
-0.052857149 -0.059904777 0.74000007 1.845035e-39
-0.051378109 -0.059823841 0.73900002 1.847549e-39
-0.049632374 -0.059419047 0.73400003 2.8595359e-39
-0.048234303 -0.059419073 0.73400003 3.8711599e-39
-0.046325721 -0.058771439 0.72600001 3.1328872e-39
-0.044757158 -0.058528598 0.72300005 2.393181e-39
-0.043200016 -0.058285739 0.72000003 1.3815556e-39
-0.041770454 -0.058204737 0.71900004 4.6285449e-40
-0.040400937 -0.058204748 0.71900004 7.3837359e-40
-0.038759988 -0.057799991 0.71400011 1.0142276e-39
-0.037347626 -0.057719063 0.71300006 1.381557e-39
-0.03598953 -0.057719063 0.71300006 1.6570747e-39
-0.034339994 -0.057233334 0.70700002 1.4744897e-39
-0.032993313 -0.0572333 0.70700002 1.1982601e-39
-0.031557161 -0.057071459 0.70500004 1.1986133e-39
-0.030171428 -0.056990474 0.70400006 1.1071169e-39
-0.028789522 -0.056909531 0.70300001 1.2007264e-39
-0.027372392 -0.056747638 0.70100003 1.296145e-39
-0.026000006 -0.056666672 0.70000005 7.4189785e-40
-0.024666665 -0.056666669 0.70000005 1.8405074e-40
-0.023333339 -0.05666668 0.70000005 1.8438986e-40
-0.021999989 -0.056666642 0.70000005 1.8439126e-40
-0.020607607 -0.056504749 0.69800001 2.7622816e-40
-0.019250486 -0.056423821 0.69700003 3.6806225e-40
-0.017922862 -0.056423809 0.69700003 3.6841958e-40
-0.016595239 -0.056423813 0.69700003 3.6842098e-40
-0.017414292 -0.064357154 0.79500002 3.6842239e-40
-0.015899997 -0.064357147 0.79500002 3.6842379e-40
-0.014385726 -0.064357162 0.79500002 2.7730576e-40
-0.012903813 -0.064519063 0.79699999 2.7694562e-40
-0.011385715 -0.064519055 0.79699999 2.7730155e-40
-0.009867616 -0.064519055 0.79699999 3.6913845e-40
-0.0083599696 -0.064599961 0.79800004 2.7766169e-40
-0.0068399943 -0.064599998 0.79800004 2.7766169e-40
-0.005313348 -0.06451907 0.79699999 2.7730155e-40
-0.0037952494 -0.06451907 0.79700005 2.7694422e-40
-0.0022771526 -0.064519063 0.79700005 2.7694422e-40
-0.00075334497 -0.064033359 0.79100007 3.6878532e-40
0.00075140689 -0.063871473 0.78900003 4.6062502e-40
0.0022514276 -0.06379047 0.78800005 6.4429742e-40
0.0037523871 -0.06379047 0.78800005 5.5282065e-40
0.0052266521 -0.063466698 0.78400004 4.6062923e-40
0.0067200037 -0.063466661 0.78400004 4.6063063e-40
0.0081714224 -0.063142866 0.78000009 4.602817e-40
0.0096447589 -0.063061915 0.7790001 2.7697925e-40
0.01112856 -0.06306193 0.77900004 9.3291445e-41
0.011446686 -0.057233311 0.70700002 1.8510872e-40
-0.067757145 -0.060471438 0.76500005 8.758952e-39
-0.066300005 -0.060471445 0.76500005 8.9512732e-39
-0.064842865 -0.060471445 0.76500005 9.1252108e-39
-0.063054301 -0.060155258 0.76100004 5.2504944e-39
-0.061604768 -0.060155258 0.76100004 1.3026134e-39
-0.059127606 -0.059127618 0.74800003 1.8514432e-39
-0.057317156 -0.058732405 0.74300003 2.3985185e-39
-0.055826675 -0.058653347 0.74200004 2.1194317e-39
-0.054193344 -0.058416214 0.73900002 1.8435847e-39
-0.052857134 -0.058495231 0.74000001 1.8421694e-39
-0.051378109 -0.058416218 0.73900002 1.7539184e-39
-0.049497146 -0.057862863 0.73200005 3.60067e-39
-0.048102871 -0.057862882 0.73200005 5.344834e-39
-0.046261895 -0.057309516 0.72500002 4.2431738e-39
-0.04469524 -0.057072394 0.72200012 3.133606e-39
-0.043200012 -0.056914303 0.72000003 1.6570551e-39
-0.041654289 -0.056677148 0.71700001 1.8732698e-40
-0.040119998 -0.056439992 0.71400011 4.6247193e-40
-0.038705714 -0.056360964 0.71300006 7.3834696e-40
-0.03724286 -0.056202866 0.71100003 1.0138633e-39
-0.035686661 -0.05588666 0.70700002 1.2901054e-39
-0.034242854 -0.05572857 0.70500004 1.1071701e-39
-0.032900006 -0.055728573 0.70500004 9.234739e-40
-0.031512395 -0.055649538 0.70400012 8.3125445e-40
-0.030128574 -0.055570479 0.70300001 6.4612891e-40
-0.028707633 -0.055412404 0.70100003 4.6028591e-40
-0.027372396 -0.055412397 0.70100003 2.787617e-40
-0.025999984 -0.055333316 0.70000005 1.8440948e-40
-0.024666667 -0.055333339 0.70000005 9.2922904e-41
-0.02336668 -0.055412404 0.70100003 1.8474859e-40
-0.021999991 -0.05533332 0.70000005 2.7658549e-40
-0.023412373 -0.062684752 0.79299998 2.7658549e-40
-0.01925048 -0.055096194 0.69700003 2.7658549e-40
-0.017922856 -0.055096198 0.69700003 2.7658409e-40
-0.018880969 -0.062684789 0.79299998 1.8474999e-40
-0.017414296 -0.062842876 0.79500002 2.7658549e-40
-0.015899999 -0.062842861 0.79500002 2.7730435e-40
-0.014385707 -0.062842846 0.79500002 2.7873928e-40
-0.012903821 -0.063000977 0.79699999 2.7766169e-40
-0.01138572 -0.06300097 0.79700005 3.6877832e-40
-0.0098676244 -0.063000962 0.79700005 3.6877972e-40
-0.0083599901 -0.063079998 0.79800004 3.6913845e-40
-0.0068399655 -0.063079953 0.79800004 2.7730295e-40
-0.0053199893 -0.063079998 0.79800004 2.7766169e-40
-0.0037999898 -0.063079998 0.79800004 2.7730295e-40
-0.0022771349 -0.063000947 0.79699999 2.7730295e-40
-0.0007533161 -0.062526651 0.79100001 2.7695123e-40
0.00075143296 -0.062368572 0.78900003 5.5246472e-40
0.002251423 -0.062289536 0.78800005 7.3650005e-40
0.0037428662 -0.06213142 0.78600007 6.4538763e-40
0.0052266531 -0.061973359 0.78400004 4.6135089e-40
0.0067200055 -0.06197333 0.78400004 4.6098516e-40
0.0081923595 -0.061815269 0.78200006 3.6951119e-40
0.0096819103 -0.061815232 0.78200006 2.776799e-40
0.011171414 -0.061815266 0.78200006 9.4359235e-41
-0.066300005 -0.059014298 0.76500005 8.8540609e-39
-0.064842865 -0.059014298 0.76500005 9.4042737e-39
-0.057317145 -0.057317153 0.74300003 2.3113535e-39
-0.055676177 -0.057085697 0.74000001 2.307053e-39
-0.054266676 -0.057085734 0.74000007 2.3034838e-39
-0.052642852 -0.056854293 0.73700005 1.657425e-39
-0.051169522 -0.056777142 0.73600006 1.0113409e-39
-0.04922669 -0.056160036 0.72800004 2.4928974e-39
-0.047511436 -0.055774298 0.72300005 3.9708903e-39
-0.046070471 -0.055697143 0.72200006 3.7836474e-39
-0.044509508 -0.055465698 0.71900004 3.5978072e-39
-0.04313999 -0.055465706 0.71900004 2.7662486e-39
-0.041596185 -0.055234287 0.71600002 2.023297e-39
-0.040119983 -0.055079974 0.71400005 1.472626e-39
-0.038597133 -0.054848559 0.71100003 1.0134807e-39
-0.037190478 -0.054771442 0.7100001 1.014229e-39
-0.035585716 -0.054385722 0.70500004 1.0153318e-39
-0.034194291 -0.054308582 0.70400012 9.2423901e-40
-0.032853331 -0.054308582 0.70400006 8.3271741e-40
-0.031467602 -0.054231402 0.70300001 6.4684918e-40
-0.030128559 -0.054231409 0.70300001 5.5355914e-40
-0.028707629 -0.054077148 0.70100003 3.6879093e-40
-0.027333336 -0.054000009 0.70000005 2.7587363e-40
-0.025925715 -0.053845719 0.69800001 1.8474999e-40
-0.024596186 -0.053845719 0.69800001 1.8582619e-40
-0.023266675 -0.05384573 0.69800001 1.8546606e-40
-0.024922868 -0.061174303 0.79300004 2.7694282e-40
-0.023412401 -0.061174314 0.79299998 2.7658409e-40
-0.021957137 -0.061328564 0.79500002 2.7622535e-40
-0.020442864 -0.06132859 0.79500002 1.8474859e-40
-0.018928571 -0.061328575 0.79500002 1.8438986e-40
-0.017414277 -0.06132856 0.79500002 1.8474859e-40
-0.015940001 -0.061482862 0.79699999 2.7694422e-40
-0.014421902 -0.061482858 0.79699999 2.7766169e-40
-0.012903803 -0.061482854 0.79699999 2.7766169e-40
-0.011385705 -0.061482847 0.79699999 2.7694282e-40
-0.0098799644 -0.061559953 0.79800004 3.6842098e-40
-0.0083599873 -0.061559983 0.79800004 2.7694422e-40
-0.0068399897 -0.06155999 0.79800004 2.7694422e-40
-0.0053199874 -0.06155999 0.7980001 2.7730295e-40
-0.0037999908 -0.061559986 0.79800004 2.7766169e-40
-0.0022771433 -0.061482858 0.79700005 1.8510732e-40
-0.00075334124 -0.061020017 0.79100001 1.847584e-40
0.00075141434 -0.060865745 0.78900003 2.7696104e-40
0.0022514425 -0.060788557 0.78800005 4.613607e-40
0.0037428364 -0.060634319 0.78600007 3.6989515e-40
0.0052266736 -0.060479991 0.78400004 3.705958e-40
0.0067200027 -0.060479999 0.78400004 3.7022025e-40
0.0081923846 -0.060325712 0.78200006 4.6241168e-40
0.0096818879 -0.060325742 0.78200006 2.7873788e-40
0.011171418 -0.060325734 0.78200006 1.8762265e-40
-0.057317134 -0.0559019 0.74300003 2.2177104e-39
-0.055600971 -0.055600978 0.73900002 2.4935784e-39
-0.054046664 -0.055450477 0.73700005 2.765513e-39
-0.052428577 -0.05522478 0.73400003 1.5648496e-39
-0.0508219 -0.054999046 0.73100001 2.8130086e-40
-0.049091429 -0.054622862 0.72600001 1.3879875e-39
-0.047642838 -0.054547589 0.72500002 2.4950568e-39
-0.046134301 -0.054397166 0.72300005 3.2311967e-39
-0.044509511 -0.054096177 0.71899998 3.9665939e-39
-0.043139983 -0.05409617 0.71900004 3.8783415e-39
-0.041596189 -0.053870477 0.71600002 3.7768104e-39
-0.040119991 -0.05371999 0.71400011 2.5746883e-39
-0.038597148 -0.053494297 0.71100003 1.2900788e-39
-0.037085705 -0.053268563 0.708 1.0145821e-39
-0.035535231 -0.052967612 0.70400006 6.4832615e-40
-0.034145709 -0.052892368 0.70300001 6.4905342e-40
-0.032806661 -0.052892383 0.70300001 6.46866e-40
-0.031378113 -0.05274193 0.70100003 5.5284307e-40
-0.030042868 -0.052741926 0.70100003 3.6915807e-40
-0.028666666 -0.052666672 0.70000005 3.6878532e-40
-0.027255237 -0.0525162 0.69800001 2.7658829e-40
-0.025888558 -0.052440926 0.69700003 2.7658549e-40
-0.024560956 -0.05244096 0.69700003 1.8546746e-40
-0.023233334 -0.052440949 0.69700003 2.7730295e-40
-0.024985729 -0.059814315 0.79500002 2.7694282e-40
-0.023471434 -0.0598143 0.79500002 2.7694282e-40
-0.021957142 -0.059814289 0.79500002 1.8474859e-40
-0.020442868 -0.059814308 0.79500002 1.8474859e-40
-0.018928574 -0.059814297 0.79500002 9.2913095e-41
-0.017414281 -0.059814282 0.79500002 1.8474859e-40
-0.015940009 -0.059964776 0.79699999 2.7730155e-40
-0.014421909 -0.059964769 0.79699999 2.7766169e-40
-0.012903809 -0.059964769 0.79700005 2.7766028e-40
-0.011399982 -0.060039982 0.79800004 2.7694282e-40
-0.009879983 -0.060039982 0.79800004 2.7694282e-40
-0.0083599836 -0.060039978 0.79800004 2.7730295e-40
-0.0068399841 -0.060039982 0.79800004 1.8546746e-40
-0.0053199837 -0.060039982 0.79799998 1.8546746e-40
-0.0037999842 -0.060039982 0.79800004 1.8546606e-40
-0.0022771265 -0.059964739 0.79700005 1.8474859e-40
-0.00075333565 -0.059513353 0.79100001 9.2920101e-41
0.00075141899 -0.059362877 0.78899997 9.328584e-41
0.0022514118 -0.059287652 0.78800005 9.3648776e-41
0.0037428606 -0.059137147 0.78600001 1.8584721e-40
0.0052266745 -0.05898666 0.78400004 2.7839176e-40
0.0067199813 -0.058986701 0.78400004 3.7057758e-40
0.0081923632 -0.058836218 0.78200006 4.6205154e-40
0.0096571166 -0.058685753 0.78000009 3.7021465e-40
0.01109999 -0.058460023 0.77700001 2.7909662e-40
0.012499047 -0.058083814 0.77200001 5.5532197e-40
0.013969509 -0.058083836 0.77200001 7.3863983e-40
-0.055600971 -0.054193355 0.73900002 2.4020862e-39
-0.053826682 -0.05382669 0.73400009 2.3127731e-39
-0.052214295 -0.053606682 0.73100001 1.4801663e-39
-0.05061334 -0.053386685 0.72800004 7.4261252e-40
-0.049023788 -0.053166635 0.72500002 1.4783727e-39
-0.047642853 -0.053166658 0.72500002 2.2163119e-39
-0.046070475 -0.052946679 0.72200012 3.0450104e-39
-0.044385705 -0.052579995 0.71700007 3.7814964e-39
-0.042960014 -0.052506693 0.71600002 4.6134053e-39
-0.041480001 -0.052359998 0.71400011 5.4370535e-39
-0.040063802 -0.052286658 0.71300006 3.5920899e-39
-0.038597155 -0.052140024 0.71100003 1.8429009e-39
-0.037085716 -0.051920008 0.70799994 1.1993237e-39
-0.035484757 -0.051553331 0.70300001 6.4866386e-40
-0.034048583 -0.051406689 0.70100003 5.550277e-40
-0.032713339 -0.051406682 0.70100003 4.6101458e-40
-0.031378102 -0.051406685 0.70100003 3.6915246e-40
-0.030042859 -0.051406682 0.70100003 3.6914546e-40
-0.02858475 -0.051186647 0.69800001 3.6913845e-40
-0.027216187 -0.051113334 0.69700003 3.6877972e-40
-0.02581428 -0.050966658 0.69500005 2.7658409e-40
-0.024490481 -0.05096668 0.69500005 1.8510872e-40
-0.02316666 -0.050966665 0.69500005 2.7694422e-40
-0.024985714 -0.058299996 0.79500002 2.7658549e-40
-0.023471441 -0.058300018 0.79500002 2.7694282e-40
-0.02195715 -0.058300003 0.79500002 2.7658409e-40
-0.020442853 -0.058299989 0.79500002 2.7694282e-40
-0.018928582 -0.058300015 0.79500002 2.7730155e-40
-0.017414287 -0.058299996 0.79500002 2.7730155e-40
-0.015899992 -0.058299989 0.79500002 3.6949578e-40
-0.014421893 -0.058446653 0.79699999 2.7801902e-40
-0.012903794 -0.058446646 0.79699999 2.7801902e-40
-0.011399979 -0.058519974 0.79800004 2.7766028e-40
-0.0098799784 -0.058519978 0.79800004 2.7730155e-40
-0.008359978 -0.058519978 0.79799998 2.7766028e-40
-0.0068399776 -0.058519974 0.79800004 1.8618352e-40
-0.00531998 -0.058519974 0.79800004 1.8582479e-40
-0.0038000029 -0.058520012 0.79800004 1.8510732e-40
-0.0022799792 -0.058519982 0.79800004 1.8510732e-40
-0.00075333565 -0.058006682 0.79100001 1.8475279e-40
0.00075142179 -0.057860017 0.78900003 1.8511573e-40
0.0022514313 -0.05778667 0.78800005 1.8547166e-40
0.0037333192 -0.057493359 0.78400004 1.8582759e-40
0.0052266745 -0.057493329 0.78400004 2.7873928e-40
0.0067028427 -0.057346698 0.78200001 4.6205154e-40
0.0081923679 -0.05734669 0.78200006 6.4464494e-40
0.0096571231 -0.057200033 0.78000009 4.6169001e-40
0.011099985 -0.056980021 0.77699995 3.7057198e-40
0.012499037 -0.056613348 0.77200001 4.6276621e-40
0.013969528 -0.056613334 0.77200001 6.4716167e-40
-0.053606674 -0.052214302 0.73100001 1.8518047e-39
-0.052071426 -0.052071434 0.72900003 1.4833935e-39
-0.050474275 -0.051857129 0.72600001 1.1106636e-39
-0.049023803 -0.0517857 0.72500002 1.5662481e-39
-0.047445711 -0.051571421 0.72200006 1.9372082e-39
-0.045942869 -0.051428594 0.72000003 2.7666284e-39
-0.044385694 -0.051214263 0.71700001 3.5985499e-39
-0.042839978 -0.050999977 0.71400005 5.356001e-39
-0.041421905 -0.050928574 0.713 7.001138e-39
-0.039895229 -0.050714273 0.71000004 4.6966326e-39
-0.038434286 -0.050571427 0.708 2.3035091e-39
-0.037033319 -0.050499983 0.70700002 1.474819e-39
-0.035535235 -0.050285719 0.70400006 6.4649465e-40
-0.034048572 -0.050071444 0.70100003 4.6066146e-40
-0.032713331 -0.050071429 0.70100003 2.7733238e-40
-0.031378094 -0.050071426 0.70100003 2.776729e-40
-0.029999996 -0.050000001 0.70000005 2.7730856e-40
-0.028584775 -0.049857162 0.69800001 3.6913845e-40
-0.027216183 -0.049785707 0.69700003 3.6877972e-40
-0.025888583 -0.049785741 0.69700003 2.7622535e-40
-0.024560964 -0.049785729 0.69700003 1.847542e-40
-0.023233328 -0.049785703 0.69700003 2.765953e-40
-0.024985718 -0.056785718 0.79500002 2.7658969e-40
-0.023471421 -0.056785703 0.79500002 2.7694282e-40
-0.022012366 -0.056928549 0.79699999 2.7658409e-40
-0.020442856 -0.056785714 0.79500002 3.6841958e-40
-0.018928586 -0.056785733 0.79499996 3.6877832e-40
-0.017414289 -0.056785721 0.79500002 3.6913845e-40
-0.015939998 -0.056928568 0.79699999 3.6949578e-40
-0.0144219 -0.056928568 0.79699999 2.7801902e-40
-0.012919975 -0.056999967 0.79800004 1.8582479e-40
-0.0114 -0.057000004 0.79800004 2.7802042e-40
-0.0098799774 -0.056999967 0.79800004 2.7766169e-40
-0.008359977 -0.05699997 0.79800004 2.7802182e-40
-0.0068400009 -0.057000004 0.79800004 1.8618492e-40
-0.0053199772 -0.05699997 0.79800004 1.8618352e-40
-0.0037999786 -0.056999974 0.79800004 1.8546606e-40
-0.0022799792 -0.056999974 0.7980001 2.7694282e-40
-0.00075334031 -0.056500006 0.79100001 2.7695263e-40
0.00075142644 -0.056357153 0.78900003 2.7696104e-40
0.0022457158 -0.056142852 0.78600001 1.8547586e-40
0.0037333444 -0.055999994 0.78400004 2.7730295e-40
0.0052266507 -0.056000032 0.78400004 2.7802042e-40
0.0067028422 -0.055857167 0.78200006 5.5352831e-40
0.0081714261 -0.055714291 0.78000003 7.3648043e-40
0.0096571296 -0.055714313 0.78000009 6.442848e-40
0.011071436 -0.055357136 0.77500004 4.6133128e-40
0.012466655 -0.055000018 0.76999998 4.6169001e-40
0.013897141 -0.05485715 0.76800001 4.6277041e-40
0.015359998 -0.05485715 0.76800001 2.8089588e-40
0.016822858 -0.054857146 0.76800001 9.5078101e-41
-0.053460013 -0.05068288 0.72900009 1.4844669e-39
-0.05200002 -0.050613362 0.72800004 1.4819572e-39
-0.050404754 -0.05040475 0.72500002 1.3843694e-39
-0.049023796 -0.050404735 0.72500002 1.4754734e-39
-0.047511429 -0.050265718 0.72300005 1.6588207e-39
-0.045942869 -0.050057158 0.72000003 2.1205443e-39
-0.044385709 -0.049848571 0.71700007 2.5822666e-39
-0.042839993 -0.049639985 0.71400005 3.5085473e-39
-0.041305725 -0.049431454 0.71100008 4.5255382e-39
-0.039782859 -0.04922286 0.708 3.0428818e-39
-0.038379982 -0.049153313 0.70700002 1.5663112e-39
-0.036928568 -0.049014281 0.70499998 1.0138352e-39
-0.035535242 -0.048944782 0.70400006 4.6065585e-40
-0.034048565 -0.048736185 0.70100003 3.6880634e-40
-0.032713335 -0.0487362 0.70100003 2.7696244e-40
-0.031333327 -0.048666663 0.70000005 2.7695263e-40
-0.030000001 -0.048666663 0.70000005 3.6842519e-40
-0.028584765 -0.048527621 0.69800001 3.6877972e-40
-0.027255252 -0.048527628 0.69800001 3.6877972e-40
-0.025925701 -0.048527598 0.69800001 3.6841958e-40
-0.024596188 -0.048527617 0.69800001 2.765939e-40
-0.023233337 -0.048458107 0.69700003 2.7660371e-40
-0.024985721 -0.055271439 0.79500002 2.765939e-40
-0.023471426 -0.055271424 0.79500002 2.7658409e-40
-0.021957155 -0.055271447 0.79500002 3.6841958e-40
-0.02044286 -0.055271432 0.79500002 5.5209058e-40
-0.018928563 -0.055271421 0.79500002 8.2759847e-40
-0.017458102 -0.055410489 0.79700005 6.4428621e-40
-0.015959971 -0.055479959 0.79800004 4.6061521e-40
-0.014439995 -0.055479996 0.79800004 3.6913705e-40
-0.012919995 -0.055479996 0.79799998 2.7694422e-40
-0.011399996 -0.05548 0.79800004 2.7730295e-40
-0.0098799951 -0.05548 0.79800004 2.7730576e-40
-0.0083599724 -0.055479962 0.79800004 2.7766589e-40
-0.0068571381 -0.055619042 0.80000001 1.8582759e-40
-0.0053199958 -0.05548 0.79800004 1.8546606e-40
-0.003799974 -0.055479966 0.79800004 1.8510732e-40
-0.0022799978 -0.055480003 0.79800004 1.8510732e-40
-0.00075526442 -0.055132419 0.79300004 2.765981e-40
0.0007514311 -0.054854285 0.78899997 3.6880634e-40
0.0022457121 -0.054645717 0.78600001 4.6062782e-40
0.0037333402 -0.054506656 0.78400004 3.6913705e-40
0.0052133175 -0.054367647 0.78200006 3.6913845e-40
0.00668571 -0.054228581 0.78000009 5.5280944e-40
0.0081399884 -0.054020017 0.77699995 7.3576297e-40
0.0095952423 -0.053880952 0.77500004 6.442848e-40
0.011042845 -0.053741928 0.77300006 5.5280804e-40
0.012499049 -0.053672388 0.77200007 4.6133128e-40
0.013933314 -0.053533368 0.76999998 4.6169141e-40
0.015359993 -0.053394292 0.76800001 3.7021465e-40
0.016822854 -0.053394295 0.76800001 2.7803303e-40
-0.05360667 -0.049429536 0.73100001 1.1142635e-39
-0.052000012 -0.04922669 0.72800004 1.3915763e-39
-0.050613347 -0.04922669 0.72800004 1.6620465e-39
-0.049023803 -0.0490238 0.72500002 1.475493e-39
-0.047511443 -0.04888859 0.72300005 1.2911312e-39
-0.046070483 -0.048820965 0.72200012 1.3819171e-39
-0.044385713 -0.048482861 0.71700001 1.4766491e-39
-0.042780008 -0.048212387 0.71300006 1.7532584e-39
-0.041247614 -0.048009519 0.71000004 1.9401426e-39
-0.039782856 -0.047874298 0.708 1.3833745e-39
-0.038379993 -0.047806665 0.70700002 8.3017966e-40
-0.036876209 -0.047603838 0.70400012 5.5321021e-40
-0.03548475 -0.047536179 0.70300001 2.7732958e-40
-0.034048568 -0.047400951 0.70100003 2.7695683e-40
-0.032713328 -0.047400951 0.70100003 2.7695263e-40
-0.031333327 -0.04733333 0.70000005 3.6842519e-40
-0.030000014 -0.047333352 0.70000005 3.6878252e-40
-0.028584762 -0.047198094 0.69800001 3.6878112e-40
-0.027255233 -0.047198087 0.69800001 3.6913845e-40
-0.025925724 -0.047198117 0.69800001 3.6877972e-40
-0.028084772 -0.053892396 0.79699999 3.6878532e-40
-0.026566671 -0.053892396 0.79699999 3.6879093e-40
-0.025048574 -0.053892389 0.79700005 2.7658969e-40
-0.023530478 -0.053892381 0.79700005 3.6841958e-40
-0.022012377 -0.053892381 0.79700005 3.6842239e-40
-0.02049428 -0.053892374 0.79699999 8.2724254e-40
-0.018976184 -0.053892374 0.79699999 1.1953132e-39
-0.017479992 -0.053959988 0.79800004 8.2834255e-40
-0.015959991 -0.053959988 0.79799998 4.6062782e-40
-0.014439992 -0.053959988 0.79800004 3.6841958e-40
-0.012919993 -0.053959996 0.79800004 2.7694282e-40
-0.011399969 -0.053959958 0.79800004 2.7694422e-40
-0.0098799923 -0.053959992 0.79800004 2.7694422e-40
-0.0083599947 -0.053959996 0.79800004 2.7694562e-40
-0.0068399701 -0.053959958 0.79800004 1.8510872e-40
-0.005319993 -0.053959996 0.79800004 1.8474859e-40
-0.0037999954 -0.053959996 0.79800004 9.3271827e-41
-0.0022799717 -0.053959958 0.79800004 1.8546606e-40
-0.00075524393 -0.053621911 0.79300004 2.7695263e-40
0.00075141061 -0.053351462 0.78900003 4.602733e-40
0.0022514388 -0.053283803 0.78800005 6.4429461e-40
0.0037333402 -0.053013325 0.78400004 5.5245071e-40
0.0052133189 -0.052878119 0.78200006 3.6877972e-40
0.0066856882 -0.052742898 0.78000003 5.5209198e-40
0.0081400089 -0.052539989 0.77700001 6.4392747e-40
0.0095952414 -0.052404754 0.77500004 6.4392747e-40
0.011042846 -0.052269541 0.77300006 6.4464354e-40
0.012466668 -0.052066665 0.77000004 5.5316677e-40
0.013933332 -0.052066673 0.77000004 3.6913705e-40
0.015359997 -0.051931441 0.76800001 3.6877972e-40
0.016822854 -0.051931433 0.76800001 3.6879233e-40
-0.053240009 -0.047708586 0.72600001 1.9393564e-39
-0.052000027 -0.047840048 0.72800004 1.8479035e-39
-0.050474271 -0.047708552 0.72599995 1.8453784e-39
-0.049023796 -0.047642834 0.72500002 1.47587e-39
-0.047445714 -0.047445714 0.72200012 1.198588e-39
-0.045942854 -0.047314286 0.72000003 1.382636e-39
-0.044385701 -0.047117136 0.71700001 1.5670454e-39
-0.042479988 -0.046525694 0.70799994 1.5685e-39
-0.041131441 -0.046525728 0.708 1.5674084e-39
-0.03972666 -0.046459988 0.70700002 1.1064218e-39
-0.038271431 -0.046328574 0.70500004 7.3653929e-40
-0.036823813 -0.046197154 0.70300001 5.5283747e-40
-0.035383817 -0.046065718 0.70100003 2.7731697e-40
-0.034048572 -0.046065718 0.70099998 2.7694282e-40
-0.032713331 -0.046065714 0.70099998 3.6841958e-40
