# .PCD v0.7 - Point Cloud Data file format
VERSION 0.7
FIELDS x y z rgb
SIZE 4 4 4 4
TYPE F F F F
COUNT 1 1 1 1
WIDTH 965
HEIGHT 1
VIEWPOINT 0 0 0 1 0 0 0
POINTS 965
DATA ascii
0.021434285 0.0019485712 0.68200004 1.1975497e-39
0.022733342 0.0019485581 0.68200004 1.1053554e-39
0.024032388 0.0019485581 0.68200004 1.197907e-39
0.025368571 0.0019514313 0.68300003 1.1989846e-39
0.026669523 0.0019514322 0.68300003 1.2901026e-39
0.028093334 0.0019599954 0.68600005 1.3819339e-39
0.029442856 0.0019628596 0.68700004 1.3812109e-39
0.030840958 0.0019685631 0.68899995 1.4708954e-39
0.032153342 0.0019685612 0.68899995 3.2265332e-39
0.033465724 0.0019685607 0.68899995 4.9840109e-39
0.034828577 0.0019714199 0.69000006 5.6333642e-39
0.036142867 0.0019714199 0.69000006 6.3694242e-39
0.037511423 0.0019742956 0.6910001 4.6033243e-39
0.038939998 0.0019799985 0.69300008 2.9391885e-39
0.040376194 0.0019857129 0.69500005 9.9463324e-39
0.041820005 0.0019914287 0.69700003 1.6966845e-38
0.04333334 0.0019999866 0.70000005 2.0198067e-38
0.044730484 0.0020028492 0.70100003 2.341769e-38
0.046065722 0.0020028537 0.70100003 2.341769e-38
0.047536194 0.0020085694 0.70300001 2.341769e-38
0.049014285 0.0020142901 0.7050001 2.341769e-38
0.050357148 0.0020142817 0.70500004 2.341769e-38
0.052140001 0.0020314297 0.71100003 2.341769e-38
0.053644773 0.0020371298 0.713 2.341769e-38
-0.03132857 0.0034809415 0.73100001 3.7021605e-40
-0.029936194 0.003480949 0.73100007 5.5424437e-40
-0.028543808 0.0034809415 0.73100001 6.4608407e-40
-0.027188558 0.0034856931 0.73199999 4.6277602e-40
-0.025794275 0.0034856894 0.73199999 2.7838335e-40
-0.024466667 0.0034952336 0.73400009 3.6985732e-40
-0.023068573 0.0034952355 0.73400009 4.6134389e-40
-0.02181809 0.0035190401 0.73900002 7.3686019e-40
-0.020493329 0.0035333228 0.74200004 9.2052137e-40
-0.019079991 0.0035333154 0.74200004 7.3791817e-40
-0.017690474 0.0035380912 0.74300003 5.5388704e-40
-0.016275238 0.0035380959 0.74300009 5.5388704e-40
-0.014899995 0.0035476121 0.74500006 5.5388564e-40
-0.013480945 0.0035476093 0.74500006 5.5352691e-40
-0.012094282 0.003557133 0.74700004 4.6169281e-40
-0.010685712 0.0035619005 0.74800003 5.5352971e-40
-0.0092609506 0.0035619023 0.74800009 5.5353111e-40
-0.0078571364 0.0035714195 0.75000006 6.4536801e-40
-0.0064285682 0.0035714232 0.75000006 6.4536521e-40
-0.004999999 0.0035714279 0.75000006 5.5352691e-40
-0.0035809432 0.0035809386 0.75199997 4.6062082e-40
-0.0021428564 0.003571427 0.75000006 2.7623656e-40
-0.00071428821 0.0035714316 0.75000012 9.2618822e-41
0.00071429496 0.0035714149 0.75000006 9.231474e-41
0.0021428638 0.0035714195 0.75000006 9.7727956e-41
0.0035809581 0.0035809441 0.75200003 1.8457343e-40
0.0050200019 0.003585713 0.75300008 1.8953683e-40
0.0064285751 0.0035714232 0.75000006 1.1960797e-39
0.0078571495 0.0035714176 0.75000006 2.1166179e-39
0.0092857191 0.0035714223 0.75000006 2.0273243e-39
0.0097000003 0.0032333345 0.67900002 1.9358434e-39
0.010993337 0.0032333252 0.67900002 2.120585e-39
0.012286668 0.0032333308 0.67900008 2.2124219e-39
0.013600006 0.003238088 0.68000001 2.671242e-39
0.014895246 0.0032380852 0.67999995 3.1307824e-39
0.01619048 0.0032380889 0.68000001 2.3957453e-39
0.017485721 0.0032380852 0.68000001 1.6610474e-39
0.018780962 0.0032380805 0.68000001 1.3833759e-39
0.020076195 0.0032380889 0.67999995 1.1064288e-39
0.02143429 0.0032476117 0.68199998 1.1971825e-39
0.022733338 0.003247608 0.68200004 1.2897341e-39
0.024067618 0.003252381 0.68300003 1.2900914e-39
0.025368571 0.0032523819 0.68300003 1.2900956e-39
0.026708581 0.0032571261 0.68399996 1.4737708e-39
0.028093331 0.0032666693 0.68600011 1.5652448e-39
0.029442865 0.0032714233 0.68700004 1.471973e-39
0.030840958 0.0032809475 0.68899995 1.2936829e-39
0.032153338 0.0032809461 0.68899995 4.6144688e-39
0.033465721 0.0032809451 0.68899995 7.9245306e-39
0.034828573 0.0032857144 0.69000006 5.9974579e-39
0.036142863 0.0032857032 0.69000006 4.0566666e-39
0.037620004 0.0032999956 0.69300002 4.8677129e-39
0.038939994 0.0033000088 0.69300008 5.7147628e-39
0.040376194 0.0033095209 0.69500005 1.4552217e-38
0.04188 0.0033238088 0.69800007 2.3307859e-38
0.043395236 0.0033380955 0.70100003 2.341769e-38
0.044730477 0.0033380887 0.70099998 2.341769e-38
0.046065718 0.0033380988 0.70100003 2.341769e-38
0.047536187 0.0033476234 0.70300001 2.341769e-38
0.049153339 0.0033666622 0.70700002 2.341769e-38
0.050357141 0.0033571469 0.70500004 2.341769e-38
0.052140009 0.0033857101 0.71100003 2.341769e-38
0.053644765 0.0033952296 0.71300006 2.341769e-38
-0.03132857 0.0048733247 0.73100001 9.2051156e-40
-0.029936187 0.0048733228 0.73100001 8.2939073e-40
-0.028543811 0.0048733321 0.73100001 8.2974946e-40
-0.027188564 0.0048799873 0.73199999 6.4607847e-40
-0.025864767 0.0048933406 0.73400009 4.6240747e-40
-0.024566658 0.0049133156 0.73699999 5.5316677e-40
-0.023162853 0.0049133194 0.73700005 7.361231e-40
-0.021847615 0.0049333242 0.74000001 8.2832013e-40
-0.020493329 0.004946657 0.74199998 9.2015283e-40
-0.019105721 0.0049533364 0.74300003 7.371965e-40
-0.017690469 0.0049533215 0.74300003 5.5352691e-40
-0.016275235 0.0049533271 0.74300003 5.5424437e-40
-0.014899991 0.0049666534 0.74500006 4.6276761e-40
-0.013480942 0.0049666497 0.74500006 4.6240747e-40
-0.012094285 0.0049799993 0.74700004 5.5352551e-40
-0.010671428 0.0049799983 0.74700004 5.5388424e-40
-0.009260946 0.0049866573 0.74800003 6.4571973e-40
-0.0078361919 0.0049866703 0.74800003 5.5388424e-40
-0.0064285644 0.0049999882 0.75000006 4.6240747e-40
-0.0049999952 0.0049999929 0.75000006 4.6204874e-40
-0.0035809469 0.0050133257 0.75200003 5.5316958e-40
-0.0021428517 0.0049999924 0.75000006 3.6914125e-40
-0.00071428355 0.0049999966 0.75000006 2.7658829e-40
0.00071429124 0.0049999915 0.75000006 3.6878112e-40
0.0021428596 0.0049999966 0.75000006 4.5954882e-40
0.0035809539 0.0050133322 0.75200003 4.6099076e-40
0.0050133434 0.0050133183 0.75199997 5.5358996e-40
0.006445718 0.0050133253 0.75200003 1.1979196e-39
0.007878094 0.0050133346 0.75200003 1.8436435e-39
0.0093104774 0.0050133294 0.75200003 1.752171e-39
0.010742859 0.0050133285 0.75200003 1.7518123e-39
0.012286674 0.0045266603 0.67900002 2.1209493e-39
0.013600005 0.0045333286 0.67999995 2.3964558e-39
0.014895239 0.0045333332 0.68000001 2.6708833e-39
0.016238103 0.0045466549 0.68200004 2.2113443e-39
0.017485719 0.0045333249 0.68000001 1.843275e-39
0.018780956 0.0045333314 0.68000001 1.6581579e-39
0.020076195 0.0045333258 0.68000001 1.3808521e-39
0.021434288 0.0045466614 0.68200004 1.5652336e-39
0.022766668 0.0045533315 0.68300003 1.8414547e-39
0.024067622 0.0045533306 0.68300003 1.5655867e-39
0.025368573 0.0045533325 0.68300009 1.2893712e-39
0.026708573 0.0045599979 0.68400002 1.4734079e-39
0.028011434 0.0045599896 0.68400002 1.6570803e-39
0.029399997 0.0045733363 0.68600011 1.9315106e-39
0.030751437 0.0045799916 0.68700004 2.208452e-39
0.032060001 0.0045799976 0.68700004 5.1661993e-39
0.033465728 0.0045933193 0.68899995 8.1128553e-39
0.034778107 0.0045933169 0.68899995 7.4625001e-39
0.036142867 0.0045999903 0.69000006 6.889568e-39
0.037511431 0.0046066693 0.69100004 8.8331437e-39
0.038940001 0.0046199942 0.69300002 1.0785864e-38
0.040492389 0.0046466566 0.69700003 1.7056288e-38
0.04188 0.0046533397 0.69800007 2.341769e-38
0.043395244 0.0046733269 0.70100003 2.341769e-38
0.044730484 0.0046733217 0.70099998 2.341769e-38
0.046065714 0.0046733283 0.70100003 2.341769e-38
0.047536191 0.0046866653 0.70300007 2.341769e-38
0.048875239 0.0046866662 0.70300001 2.341769e-38
0.050285716 0.0046933317 0.70400006 2.341769e-38
0.052066661 0.0047333371 0.71000004 2.341769e-38
0.053644769 0.0047533205 0.713 2.341769e-38
-0.029936187 0.0062657059 0.73100001 1.1963796e-39
-0.028543813 0.0062657134 0.73100007 1.0130659e-39
-0.027151424 0.0062657078 0.73100001 8.290348e-40
-0.025794277 0.0062742704 0.73200005 5.5352691e-40
-0.024733325 0.0063599856 0.74200004 7.3648043e-40
-0.023351435 0.0063685742 0.74300003 9.2015283e-40
-0.021936189 0.0063685686 0.74300003 9.197969e-40
-0.02052095 0.006368563 0.74300003 9.2015423e-40
-0.019105706 0.0063685565 0.74300003 7.371993e-40
-0.017738095 0.0063857115 0.74500006 5.5388844e-40
-0.016319044 0.0063857078 0.74500006 4.6312914e-40
-0.014899994 0.006385705 0.74500006 3.7093351e-40
-0.013480951 0.0063857134 0.74500006 4.6276621e-40
-0.012094275 0.0064028422 0.74700004 5.5424437e-40
-0.010671419 0.0064028413 0.74700004 6.4607987e-40
-0.0092609487 0.0064114206 0.74800003 6.4607987e-40
-0.0078361863 0.0064114225 0.74800003 4.6240747e-40
-0.0064285677 0.0064285663 0.75000006 2.7873648e-40
-0.004999999 0.006428571 0.75000006 4.6276621e-40
-0.0035714251 0.0064285654 0.75 5.5388564e-40
-0.0021428559 0.00642857 0.75000006 5.5352831e-40
-0.0007142789 0.0064285626 0.75000006 4.6133408e-40
0.00071429636 0.0064285574 0.75000006 6.4608127e-40
0.0021428638 0.0064285616 0.75000006 8.290376e-40
0.0035714325 0.0064285654 0.75000006 8.30118e-40
0.0050133397 0.0064457054 0.75200003 8.297985e-40
0.0064457147 0.0064457133 0.75200003 1.1986147e-39
0.0078781042 0.0064457003 0.75200003 1.5670426e-39
0.0093104793 0.0064457073 0.75200003 1.5688461e-39
0.010742855 0.0064457161 0.75200003 1.4770148e-39
0.012175247 0.0064457026 0.75199997 1.7536031e-39
0.014895246 0.0058285599 0.68000001 2.1202304e-39
0.016190484 0.0058285552 0.68000001 2.1195046e-39
0.017485712 0.005828572 0.68000001 2.0262201e-39
0.018780954 0.005828571 0.68000001 1.8414575e-39
0.020076195 0.0058285655 0.68000001 1.6574278e-39
0.021371434 0.0058285617 0.67999995 2.0247698e-39
0.022733333 0.0058457092 0.68200004 2.3002749e-39
0.024032388 0.0058456981 0.68199998 1.8407373e-39
0.025368582 0.0058542727 0.68300003 1.2897341e-39
0.026669536 0.0058542709 0.68300003 1.4726974e-39
0.02801143 0.0058628512 0.68400002 1.6552796e-39
0.029314294 0.0058628418 0.68399996 2.3881587e-39
0.030706663 0.0058800033 0.68600011 3.0496977e-39
0.032060008 0.0058885613 0.68699998 5.6376311e-39
0.033368584 0.0058885561 0.68699998 8.206881e-39
0.0347781 0.0059056995 0.68899995 8.9419335e-39
0.03614286 0.0059142848 0.69000006 9.669426e-39
0.037457149 0.0059142737 0.69000006 1.2789665e-38
0.038827624 0.0059228535 0.6910001 1.5856936e-38
0.040143814 0.0059228591 0.6910001 1.9652435e-38
0.042000007 0.0059999921 0.70000005 2.341769e-38
0.043333337 0.0059999959 0.70000005 2.341769e-38
0.044730481 0.006008564 0.70100003 2.341769e-38
0.046065722 0.0060085612 0.70099998 2.341769e-38
0.047536198 0.0060257134 0.70300001 2.341769e-38
0.048875235 0.0060257241 0.70300007 2.341769e-38
0.050214287 0.0060257218 0.70300001 2.341769e-38
0.051553331 0.0060257162 0.70300007 2.341769e-38
-0.028543809 0.0076580872 0.73100001 1.1049056e-39
-0.027151428 0.007658089 0.73100007 9.2051436e-40
-0.025794279 0.0076685571 0.73200005 7.3648324e-40
-0.024766671 0.007783812 0.74300003 9.2051016e-40
-0.023351429 0.0077838046 0.74300009 1.0130645e-39
-0.021936186 0.0077838008 0.74300003 1.0123485e-39
-0.02057619 0.0078047602 0.74500006 1.0119911e-39
-0.01915714 0.0078047574 0.74500006 7.3648464e-40
-0.017738091 0.0078047528 0.74500006 4.6097955e-40
-0.01631905 0.007804763 0.74500006 4.6205575e-40
-0.014899998 0.0078047602 0.74500006 4.6241168e-40
-0.013480947 0.0078047547 0.74500006 4.6240747e-40
-0.012094281 0.0078257043 0.74700004 5.5424437e-40
-0.01068571 0.0078361835 0.74800003 5.5388704e-40
-0.0092609497 0.0078361845 0.74800003 6.4572113e-40
-0.0078571383 0.0078571355 0.75000006 7.3755523e-40
-0.006428564 0.0078571299 0.75000006 9.2122622e-40
-0.0049999948 0.0078571355 0.75000006 7.3755523e-40
-0.0035809493 0.0078780903 0.75200003 5.5352551e-40
-0.0021428512 0.0078571346 0.75000006 4.6169001e-40
-0.00071428355 0.0078571392 0.75000006 3.6913845e-40
0.00071428518 0.0078571439 0.75000006 5.5352831e-40
0.0021428606 0.0078571392 0.75000006 8.2903339e-40
0.0035809511 0.0078780968 0.75200003 8.2939073e-40
0.0050133411 0.0078780819 0.75199997 8.2870689e-40
0.0064285807 0.0078571308 0.75000006 1.0134863e-39
0.0078781005 0.0078780856 0.75200003 1.2890082e-39
0.0093104756 0.0078780949 0.75200003 1.2908159e-39
0.010742865 0.0078780809 0.75200003 1.2922606e-39
0.012175242 0.0078780893 0.75200003 1.477375e-39
0.016190477 0.0071238051 0.68000001 1.6592467e-39
0.017485719 0.0071238005 0.68000001 1.4744813e-39
0.018753335 0.0071133296 0.67900002 1.4741029e-39
0.020076195 0.0071238033 0.68000001 1.4744673e-39
0.021371426 0.0071238098 0.68000001 1.6577851e-39
0.022733334 0.0071447608 0.68200004 1.9329329e-39
0.024067622 0.0071552354 0.68300003 1.6574264e-39
0.025368577 0.0071552335 0.68300003 1.3819325e-39
0.026669526 0.0071552354 0.68300003 1.4716268e-39
0.028011432 0.0071657007 0.68400002 1.5616448e-39
0.029314291 0.0071657053 0.68399996 3.8740101e-39
0.030706665 0.0071866666 0.68600005 6.2808201e-39
0.032060005 0.0071971328 0.68700004 6.9219492e-39
0.03336858 0.0071971272 0.68700004 7.6548311e-39
0.034778096 0.0072180857 0.68899995 8.0210871e-39
0.03614286 0.0072285701 0.69000006 8.4953355e-39
0.037511427 0.0072390498 0.69100004 1.4109861e-38
0.03882762 0.0072390516 0.69100004 1.9648051e-38
0.040550474 0.0073123774 0.69800001 2.1579904e-38
0.042000007 0.0073333248 0.70000005 2.341769e-38
0.04333334 0.0073333285 0.70000005 2.341769e-38
0.044730477 0.0073438096 0.70100003 2.341769e-38
0.046065718 0.0073438063 0.70099998 2.341769e-38
0.047400951 0.007343811 0.70100003 2.341769e-38
0.048875239 0.0073647667 0.70300001 2.341769e-38
0.050214291 0.0073647653 0.70300007 2.341769e-38
-0.024766663 0.0091990363 0.74300003 1.0127044e-39
-0.023351425 0.0091990363 0.74300003 1.1045427e-39
-0.021936189 0.0091990419 0.74300003 1.1045469e-39
-0.020576186 0.0092238002 0.74500006 1.1041868e-39
-0.019157138 0.0092237983 0.74500006 7.3612731e-40
-0.017738096 0.0092238076 0.74500006 2.7767149e-40
-0.016319044 0.0092238039 0.74500006 4.6206416e-40
-0.014939993 0.0092485584 0.74700004 5.5389265e-40
-0.013517137 0.0092485594 0.74699998 5.5352691e-40
-0.012094279 0.0092485603 0.74699998 4.6169141e-40
-0.010685712 0.0092609487 0.74800003 5.5352691e-40
-0.0092609506 0.0092609497 0.74800003 5.5352691e-40
-0.0078571411 0.0092857117 0.75000006 1.0123443e-39
-0.0064285672 0.009285707 0.75000006 1.4715217e-39
-0.004999999 0.0092857108 0.75000006 1.0119855e-39
-0.0035809465 0.0093104681 0.75199997 5.5317518e-40
-0.0021428475 0.0092856996 0.75000006 4.6170682e-40
-0.0007142789 0.0092857042 0.75000006 2.7803023e-40
0.00071619719 0.0093104672 0.75200003 5.5353251e-40
0.0021485789 0.0093104672 0.75199997 7.3755943e-40
0.0035857148 0.0093228556 0.75300002 7.3755663e-40
0.005020001 0.0093228556 0.75300002 7.3721471e-40
0.0064457129 0.0093104783 0.75200003 8.2870969e-40
0.0078781024 0.0093104634 0.75200003 9.2127947e-40
0.0093228621 0.0093228491 0.75300002 1.0131332e-39
0.010785717 0.0093476158 0.75500005 1.107491e-39
0.012191429 0.0093228566 0.75300008 1.2007727e-39
0.013625716 0.0093228556 0.75300002 1.2940557e-39
0.018753333 0.008406668 0.67900002 1.1060561e-39
0.020076193 0.0084190415 0.68000001 1.2900886e-39
0.021434288 0.0084438007 0.68200004 1.3822856e-39
0.022733338 0.0084437989 0.68199998 1.4741169e-39
0.024067625 0.0084561845 0.68300003 1.4744729e-39
0.025368575 0.0084561827 0.68300003 1.3812052e-39
0.026669528 0.0084561845 0.68300003 1.3783382e-39
0.028011434 0.0084685646 0.68399996 1.3862471e-39
0.029314291 0.0084685637 0.68400002 5.4492672e-39
0.030706668 0.0084933294 0.68600005 9.4007397e-39
0.032013334 0.008493335 0.68600005 8.2058385e-39
0.033368573 0.0085057123 0.68700004 7.0033492e-39
0.034778103 0.0085304594 0.68899995 7.1758813e-39
0.036142856 0.0085428543 0.69000006 7.2982693e-39
0.037620008 0.0085799936 0.69300002 1.5414292e-38
0.038827613 0.0085552484 0.6910001 2.3413346e-38
0.040666673 0.0086666634 0.70000005 2.341769e-38
0.042000007 0.0086666588 0.70000005 2.341769e-38
0.043395247 0.0086790361 0.70099998 2.341769e-38
0.044858094 0.0087038139 0.70300001 2.341769e-38
0.046197142 0.008703812 0.70300007 2.341769e-38
0.047536194 0.0087038111 0.70300001 2.341769e-38
0.0487362 0.0086790388 0.70099998 2.341769e-38
0.050071437 0.0086790454 0.70100003 2.341769e-38
-0.024833329 0.010642847 0.74500006 1.0134205e-39
-0.023414284 0.010642847 0.74500006 1.0127086e-39
-0.021995232 0.010642847 0.74500006 1.0130729e-39
-0.020576183 0.010642842 0.74500006 9.208773e-40
-0.019157141 0.010642853 0.74500006 7.3648604e-40
-0.017785713 0.010671424 0.74700004 5.5282345e-40
-0.016362857 0.010671423 0.74700004 5.5318919e-40
-0.014939997 0.010671422 0.74700004 5.5317938e-40
-0.01351714 0.010671424 0.74700004 4.6169281e-40
-0.012110476 0.010685711 0.74800003 4.6097395e-40
-0.010685714 0.010685714 0.74800003 5.5316677e-40
-0.0092857061 0.010714274 0.75000006 7.371965e-40
-0.0078571374 0.010714278 0.75000006 9.2050876e-40
-0.0064285696 0.010714281 0.75000012 1.103821e-39
-0.0050133271 0.010742847 0.75200003 8.2831453e-40
-0.0035809511 0.010742856 0.75200003 5.5318359e-40
-0.0021428578 0.010714286 0.75000012 4.6172364e-40
-0.00071428355 0.01071428 0.75000006 3.705944e-40
0.00071619812 0.010742846 0.75200003 5.5389405e-40
0.0021485742 0.010742854 0.75200003 7.3791957e-40
0.003585713 0.010757145 0.75300002 6.4572113e-40
0.0050133392 0.010742847 0.75199997 6.4536521e-40
0.0064457236 0.010742843 0.75200003 7.372035e-40
0.0078780986 0.010742852 0.75200003 7.3722312e-40
0.0093104746 0.01074286 0.75200003 9.216312e-40
0.010742865 0.010742847 0.75200003 1.0149156e-39
0.012175239 0.010742854 0.75200003 1.1085574e-39
0.013571427 0.010714285 0.75000006 1.2025621e-39
0.014999996 0.010714288 0.75000006 1.293697e-39
0.020076193 0.0097142803 0.68000001 1.2897397e-39
0.021434288 0.0097428504 0.68200004 1.2900984e-39
0.022733336 0.0097428495 0.68200004 1.2904502e-39
0.024067625 0.0097571332 0.68300003 1.473754e-39
0.025368579 0.0097571341 0.68300003 1.6574194e-39
0.02666953 0.0097571341 0.68300003 1.6552614e-39
0.028011438 0.0097714141 0.68399996 1.6549601e-39
0.029314285 0.0097714253 0.68400002 5.6283363e-39
0.030706666 0.009800002 0.68600011 9.5851533e-39
0.032060001 0.009814281 0.68700004 7.7419834e-39
0.033368576 0.0098142754 0.68700004 5.8955597e-39
0.0347781 0.0098428447 0.68899995 9.0172211e-39
0.036142856 0.0098571414 0.69000006 1.2249875e-38
0.037511427 0.0098714307 0.6910001 1.7798506e-38
0.038827613 0.0098714344 0.6910001 2.341769e-38
0.040550474 0.0099714324 0.69800001 2.1948322e-38
0.041999999 0.010000002 0.70000005 2.0387119e-38
0.043395236 0.010014288 0.70100003 1.9365807e-38
0.044730488 0.010014275 0.70099998 1.8366738e-38
0.046065722 0.01001428 0.70100003 1.8818741e-38
0.047603812 0.010057142 0.70400006 1.9285093e-38
0.0487362 0.010014281 0.70100003 1.9923636e-38
0.050000008 0.0099999933 0.70000005 2.0662625e-38
-0.024833331 0.012061898 0.74500006 1.0141379e-39
-0.023351429 0.012029517 0.74300003 9.2158776e-40
-0.021995235 0.012061898 0.74500006 8.301138e-40
-0.02057619 0.012061901 0.74500006 7.372021e-40
-0.019157143 0.012061904 0.74500006 8.2832154e-40
-0.017785709 0.012094277 0.74699998 8.2796981e-40
-0.016362855 0.012094278 0.74699998 6.4430722e-40
-0.014939996 0.012094279 0.74699998 4.6134529e-40
-0.013517131 0.012094267 0.74699998 4.6241308e-40
-0.012110477 0.012110476 0.74800003 4.6169421e-40
-0.010685716 0.012110478 0.74800009 6.4464634e-40
-0.0092857098 0.01214285 0.75000006 8.2832574e-40
-0.0078571411 0.012142855 0.75000006 8.2797401e-40
-0.0064285654 0.012142848 0.75000006 7.3613011e-40
-0.0050133308 0.012175234 0.75200003 6.442848e-40
-0.0035809483 0.012175232 0.75199997 5.5317658e-40
-0.0021428531 0.012142852 0.75000006 4.613523e-40
-0.0007142789 0.012142846 0.75000006 3.6987273e-40
0.00071428984 0.012142852 0.75000006 5.5390105e-40
0.0021485761 0.01217523 0.75199997 6.4572814e-40
0.0035809595 0.012175227 0.75200003 6.4607987e-40
0.0050133346 0.012175234 0.75200003 5.5352831e-40
0.006445718 0.012175231 0.75200003 5.5352971e-40
0.0078780996 0.012175229 0.75199997 5.5353952e-40
0.0093104849 0.012175225 0.75200003 7.3793919e-40
0.010742861 0.012175234 0.75200003 9.2305492e-40
0.012175235 0.012175241 0.75200003 1.0163366e-39
0.013571431 0.012142849 0.75000006 1.0177911e-39
0.015000002 0.012142855 0.75000006 1.2021992e-39
0.016428575 0.012142848 0.75000006 1.3858772e-39
0.021434287 0.0110419 0.68200004 1.1982573e-39
0.022733334 0.011041897 0.68200004 1.1060533e-39
0.024067627 0.011058083 0.68300003 1.5641462e-39
0.025368571 0.011058097 0.68300003 1.9322e-39
0.026669525 0.011058095 0.68300003 1.9300434e-39
0.028011434 0.011074276 0.68399996 1.849749e-39
0.029399995 0.011106671 0.68600011 5.8234895e-39
0.030751437 0.011122849 0.68700004 9.7691691e-39
0.032060001 0.011122853 0.68700004 7.2813416e-39
0.033465728 0.011155223 0.68899995 4.6984977e-39
0.0347781 0.011155233 0.68899995 1.0931144e-38
0.036142867 0.011171415 0.69000006 1.713657e-38
0.037620004 0.011219999 0.69300008 2.0295283e-38
0.038939998 0.011220003 0.69300002 2.341769e-38
0.040666673 0.011333326 0.70000005 2.0387119e-38
0.041999999 0.011333331 0.70000005 1.7330318e-38
0.043395236 0.01134952 0.70100003 1.5290882e-38
0.044730481 0.011349517 0.70099998 1.3281993e-38
0.046197139 0.01138191 0.70300007 1.4204665e-38
0.047536198 0.011381898 0.70300001 1.5034792e-38
0.048666667 0.011333331 0.70000005 1.6512789e-38
0.050000004 0.011333337 0.70000005 1.7886018e-38
-0.023351431 0.013444761 0.74300003 1.0134205e-39
-0.021995235 0.013480947 0.74500006 9.2086749e-40
-0.020631431 0.013517139 0.74700004 8.279586e-40
-0.01915714 0.013480946 0.74500006 7.3612591e-40
-0.017785706 0.013517129 0.74700004 6.4394008e-40
-0.016362859 0.013517142 0.74700004 5.5247033e-40
-0.014939993 0.01351713 0.74700004 4.6062923e-40
-0.013517136 0.013517131 0.74700004 4.6169842e-40
-0.01211048 0.013535241 0.74800003 3.6986152e-40
-0.010685711 0.013535233 0.74800003 4.6133688e-40
-0.0092857117 0.013571426 0.75000012 6.4430582e-40
-0.0078571374 0.013571421 0.75000006 5.5320321e-40
-0.0064285691 0.013571424 0.75000006 5.5246752e-40
-0.005013328 0.013607612 0.75200003 4.6133128e-40
-0.0035809446 0.013607608 0.75200003 4.6169421e-40
-0.0021428578 0.013571429 0.75000006 4.6169702e-40
-0.00071428076 0.013571421 0.75000012 5.5282345e-40
0.00071619533 0.01360761 0.75200003 8.2833695e-40
0.0021485714 0.013607619 0.75200003 1.1034749e-39
0.0035809549 0.013607615 0.75200003 7.3683917e-40
0.0050133374 0.013607612 0.75199997 4.6133268e-40
0.0064285751 0.013571424 0.75000006 4.6204874e-40
0.0078780977 0.013607617 0.75200003 4.6133268e-40
0.0093104802 0.013607612 0.75200003 6.4644e-40
0.010742862 0.013607612 0.75199997 8.3155433e-40
0.012175246 0.013607608 0.75200003 8.322788e-40
0.013571429 0.013571426 0.75000006 9.2485418e-40
0.015000003 0.013571419 0.75000006 1.0177883e-39
0.016428579 0.013571413 0.75000006 1.203267e-39
0.017857147 0.013571418 0.75000006 1.7535765e-39
0.022733334 0.012340951 0.68200004 9.2273402e-40
0.024067618 0.012359046 0.68300003 1.2900648e-39
0.025331441 0.012340938 0.68200004 1.7499555e-39
0.026669526 0.012359046 0.68300009 1.3840443e-39
0.028011439 0.012377127 0.68399996 1.0214331e-39
0.0294 0.012413334 0.68600005 4.8018224e-39
0.030751435 0.012431419 0.68700004 8.4884818e-39
0.032153338 0.012467609 0.68899995 7.5561012e-39
0.033465721 0.012467608 0.68899995 6.62456e-39
0.034828573 0.012485709 0.69000006 1.3448453e-38
0.036142867 0.0124857 0.69000006 2.0294894e-38
0.037620004 0.012539998 0.69300002 2.1856487e-38
0.038940001 0.012539999 0.69300008 2.341769e-38
0.040376194 0.012576193 0.69500005 1.9545891e-38
0.042000007 0.012666665 0.70000005 1.5736069e-38
0.04339524 0.012684753 0.70100003 1.3717756e-38
0.044858094 0.012720956 0.70300007 1.1693455e-38
0.046197142 0.012720956 0.70300001 1.2256331e-38
0.047536191 0.012720954 0.70300007 1.2707297e-38
0.048666671 0.012666666 0.70000005 1.3452064e-38
-0.020631425 0.014939988 0.74699998 8.2831873e-40
-0.019157136 0.014899988 0.74500006 6.4429181e-40
-0.017785706 0.014939985 0.74699998 4.6098375e-40
-0.016362855 0.014939995 0.74700004 4.6062923e-40
-0.014939996 0.014939994 0.74700004 4.6098656e-40
-0.01351714 0.014939995 0.74700004 3.6950979e-40
-0.012142854 0.014999993 0.75000006 2.7802742e-40
-0.010714284 0.014999999 0.75000006 3.6985872e-40
-0.009285708 0.014999989 0.75000006 3.7022586e-40
-0.0078571336 0.014999985 0.75000006 3.7095033e-40
-0.0064285654 0.014999989 0.75000006 3.7022305e-40
-0.0050133327 0.015039999 0.75200003 3.6985451e-40
-0.0035809427 0.015039986 0.75199997 2.7802182e-40
-0.0021428531 0.014999993 0.75000006 4.6205575e-40
-0.00071618345 0.01503999 0.75200003 6.4502609e-40
0.0007161916 0.015039997 0.75200003 1.1035029e-39
0.0021485817 0.015039984 0.75199997 1.4708267e-39
0.0035809577 0.015039992 0.75200003 9.197969e-40
0.0050133327 0.01504 0.75200003 3.7021605e-40
0.0064285789 0.014999988 0.75000006 3.7129084e-40
0.0078571476 0.014999992 0.75000012 3.7093211e-40
0.0093104811 0.01503999 0.75200003 5.546045e-40
0.010742858 0.015039997 0.75200003 6.4716027e-40
0.012175241 0.015039995 0.75200003 7.393587e-40
0.013571433 0.01499999 0.75000006 8.3192848e-40
0.015000002 0.014999995 0.75000006 9.2449685e-40
0.016428569 0.015000001 0.75000006 9.2558987e-40
0.017857146 0.014999995 0.75000006 2.0287088e-39
0.01928572 0.014999988 0.75000006 3.1303929e-39
0.025331438 0.013639985 0.68200004 1.5680964e-39
0.026669528 0.013659997 0.68300003 9.2704722e-40
0.028011434 0.01367999 0.68399996 1.9311154e-40
0.029399997 0.013720007 0.68600011 3.6897057e-39
0.030751433 0.013739996 0.68700004 7.1891334e-39
0.032153338 0.013779993 0.68900001 7.8301826e-39
0.033465717 0.013779992 0.68899995 8.4838869e-39
0.034828573 0.013799998 0.69000006 1.5942745e-38
0.036300004 0.01386 0.69300008 2.3316867e-38
0.037674289 0.013879995 0.69400001 2.341769e-38
0.038996194 0.01387999 0.69399995 2.3417683e-38
0.040666673 0.013999989 0.70000005 1.8825544e-38
0.042000003 0.013999995 0.70000005 1.4092354e-38
0.04351905 0.014060001 0.70300007 1.2151179e-38
0.044858094 0.01406 0.70300001 1.0139061e-38
0.046065729 0.014019987 0.70099998 1.0327769e-38
0.047536194 0.014059996 0.70300001 1.0417113e-38
0.048736196 0.014019988 0.70099998 1.0415337e-38
-0.020631425 0.016362848 0.74700004 1.1045427e-39
-0.019157134 0.016319035 0.74500006 9.2051576e-40
-0.017809523 0.016384758 0.74800003 7.3720491e-40
-0.016384766 0.016384766 0.74800009 6.4501208e-40
-0.014959996 0.016384756 0.74800003 6.4501628e-40
-0.013535236 0.016384756 0.74800003 5.5354372e-40
-0.012110475 0.016384762 0.74800003 5.5389545e-40
-0.010685713 0.016384762 0.74800003 4.6205154e-40
-0.0092857117 0.016428567 0.75000006 4.6241028e-40
-0.0078571355 0.016428562 0.75000006 4.6276901e-40
-0.0064285677 0.016428566 0.75000006 4.6240888e-40
-0.0050133299 0.016472379 0.75200003 4.6169001e-40
-0.0035809474 0.016472375 0.75200003 5.5352831e-40
-0.0021428475 0.016428558 0.75000006 5.5353111e-40
-0.0007142789 0.016428564 0.75000006 5.53199e-40
0.00071429543 0.016428558 0.75000006 8.2837198e-40
0.002148577 0.016472371 0.75200003 1.1034959e-39
0.003580953 0.016472379 0.75200003 8.2868167e-40
0.0050133429 0.016472366 0.75199997 5.5424858e-40
0.006428577 0.016428567 0.75000006 5.5424437e-40
0.0078780949 0.016472382 0.75200003 5.5532057e-40
0.0093104793 0.016472379 0.75200003 5.546031e-40
0.010742861 0.016472377 0.75200003 6.4715606e-40
0.012142863 0.016428562 0.75000006 6.4679733e-40
0.013571437 0.016428558 0.75000006 6.4644841e-40
0.015000006 0.016428562 0.75000006 7.3865245e-40
0.016428575 0.016428566 0.75000006 8.3086629e-40
0.017857149 0.01642856 0.75000006 1.4751693e-39
0.019234292 0.016384752 0.74800003 2.1184102e-39
0.02065905 0.016384756 0.74800003 2.0266069e-39
0.026708571 0.014982847 0.68399996 1.0160409e-39
0.028093336 0.015026662 0.68600011 3.6888061e-40
0.029442865 0.015048563 0.68700004 2.6744468e-39
0.030840958 0.015092368 0.68900001 4.9832696e-39
0.032153342 0.015092367 0.68900001 8.5706147e-39
0.033514295 0.015114271 0.69000006 1.2169879e-38
0.03482857 0.015114283 0.69000006 1.7795622e-38
0.036299992 0.015180007 0.69300008 2.3417683e-38
0.037674282 0.015201902 0.69400001 2.341769e-38
0.038996194 0.015201899 0.69399995 2.3417677e-38
0.040666677 0.015333324 0.70000005 1.8528858e-38
0.042060003 0.015355232 0.70100003 1.3604833e-38
0.04351905 0.015399049 0.70300001 1.224589e-38
0.044858091 0.015399056 0.70300007 1.0975262e-38
0.046065725 0.015355233 0.70099998 1.0422098e-38
0.047536194 0.015399052 0.70300001 9.9622021e-39
-0.019157136 0.017738085 0.745 1.1956705e-39
-0.017809525 0.017809523 0.74800003 1.0134317e-39
-0.016384762 0.01780952 0.74800003 9.208745e-40
-0.014959999 0.01780952 0.74800003 7.3756364e-40
-0.013535238 0.017809521 0.74800009 7.3792377e-40
-0.012110475 0.01780952 0.74800003 7.3720491e-40
-0.010714284 0.017857142 0.75000006 6.4501068e-40
-0.009285708 0.017857132 0.75000006 4.6241868e-40
-0.0078571392 0.017857136 0.75000006 5.5461712e-40
-0.0064285649 0.017857132 0.75000006 5.5389265e-40
-0.0049999962 0.017857136 0.75000006 6.4500367e-40
-0.0035809455 0.017904749 0.75199997 7.3684057e-40
-0.0021428522 0.017857136 0.75000006 6.4464914e-40
-0.00071428355 0.01785714 0.75000006 4.6099216e-40
0.00071428425 0.017857144 0.75000006 6.4431984e-40
0.0021428596 0.01785714 0.75000006 7.3686019e-40
0.0035714349 0.017857131 0.75000006 7.3756504e-40
0.0050000045 0.017857136 0.75000012 7.3720491e-40
0.0064285789 0.017857131 0.75000006 7.3648604e-40
0.0078781052 0.017904747 0.75199997 6.4536801e-40
0.0093104793 0.017904755 0.75200003 6.4536801e-40
0.010742865 0.017904751 0.75200003 6.4572394e-40
0.012142859 0.01785714 0.75000006 5.5352691e-40
0.013571425 0.017857144 0.75000012 3.6986152e-40
0.015000003 0.017857138 0.75000006 5.5246332e-40
0.016428571 0.017857144 0.75000006 7.3830072e-40
0.017857146 0.017857134 0.75000012 9.2198573e-40
0.019234288 0.01780952 0.74800003 1.0152842e-39
0.020659046 0.01780952 0.74800003 1.474847e-39
0.022083819 0.017809512 0.74800003 1.9340217e-39
0.026708582 0.016285699 0.68399996 1.1982741e-39
0.02809334 0.016333327 0.68600005 4.6176708e-40
0.029528573 0.016404755 0.68900001 1.5644811e-39
0.030840956 0.016404754 0.68900001 2.6787698e-39
0.032200001 0.016428567 0.69000006 9.2992408e-39
0.033514287 0.016428567 0.69000006 1.5857672e-38
0.034879055 0.01645238 0.69100004 1.9652428e-38
0.036300007 0.016499994 0.69300002 2.3417687e-38
0.037674282 0.01652381 0.69400001 2.341769e-38
0.039052378 0.016547618 0.69500005 2.3415881e-38
0.040666681 0.016666656 0.70000005 1.8358815e-38
0.042060003 0.016690465 0.70100003 1.3166457e-38
0.04351905 0.016738104 0.70300007 1.2435296e-38
0.044858094 0.0167381 0.70300001 1.170743e-38
0.046197142 0.016738096 0.70300007 1.06072e-38
-0.017809527 0.019234287 0.74800009 1.7506282e-39
-0.016384764 0.019234287 0.74800003 1.3818428e-39
-0.01496 0.019234285 0.74800003 1.013782e-39
-0.013571423 0.019285707 0.75000006 9.2122622e-40
-0.012142855 0.019285711 0.75000006 8.2832154e-40
-0.010714279 0.019285705 0.75000006 8.2868587e-40
-0.0092857108 0.019285711 0.75000006 8.2977048e-40
-0.007857142 0.019285714 0.75000006 8.2977748e-40
-0.0064285668 0.019285709 0.75000006 7.3685318e-40
-0.0049999906 0.019285703 0.75000006 6.453624e-40
-0.0035809493 0.019337138 0.75200003 5.5352831e-40
-0.0021428475 0.019285703 0.75000006 4.6133548e-40
-0.0007142789 0.019285707 0.75000006 3.6950419e-40
0.00071428891 0.019285711 0.75000006 4.6134249e-40
0.0021428643 0.019285707 0.75000006 5.5389545e-40
0.0035714321 0.019285709 0.75000006 6.4537081e-40
0.0050000008 0.019285712 0.75000006 8.2868447e-40
0.0064285751 0.019285707 0.75000006 7.3649164e-40
0.0078571439 0.019285711 0.75000006 7.3613291e-40
0.0093104765 0.019337142 0.75200003 7.3649024e-40
0.010742868 0.019337131 0.75200003 7.3612731e-40
0.012142863 0.019285705 0.75000006 5.5316817e-40
0.013571432 0.019285709 0.75000006 4.6133548e-40
0.015000008 0.019285705 0.75000006 5.5388984e-40
0.016428575 0.019285709 0.75000006 6.4717008e-40
0.017857144 0.019285712 0.75000006 8.3084948e-40
0.019234288 0.019234283 0.74800003 1.0149016e-39
0.020631436 0.01920856 0.74700004 1.2911466e-39
0.021995246 0.019157128 0.745 1.5677377e-39
0.023351431 0.019105716 0.74300003 1.5677447e-39
0.024766671 0.019105708 0.74300003 1.6595704e-39
0.028093338 0.017639998 0.68600011 3.6775397e-40
0.029528581 0.017717129 0.68900001 3.2181898e-39
0.030885715 0.017742854 0.69000006 6.1642096e-39
0.032199997 0.017742852 0.69000006 1.2905618e-38
0.033562861 0.017768564 0.69100004 1.9645551e-38
0.034980003 0.017819995 0.69300008 2.1579186e-38
0.036352385 0.017845714 0.69400001 2.341769e-38
0.037891429 0.017948573 0.69800001 2.341769e-38
0.039333329 0.018000003 0.70000011 2.3417673e-38
0.04066667 0.017999999 0.70000005 1.7879903e-38
0.042059999 0.018025709 0.70099998 1.2215812e-38
0.043519054 0.018077148 0.70300001 1.1782399e-38
0.044858098 0.018077143 0.70300007 1.1434789e-38
0.046197146 0.018077144 0.70300001 1.1152827e-38
-0.017809521 0.020659041 0.74800003 2.4871142e-39
-0.016384766 0.020659048 0.74800003 1.8424623e-39
-0.014959997 0.020659039 0.74800003 1.1988921e-39
-0.013535234 0.020659043 0.74800003 1.0134247e-39
-0.012110479 0.020659048 0.74800003 8.2940054e-40
-0.010714282 0.020714281 0.75000012 1.0116422e-39
-0.0092609525 0.020659046 0.74800003 1.1974768e-39
-0.0078361845 0.020659039 0.74800003 1.1052938e-39
-0.0064285705 0.020714285 0.75000012 9.2160457e-40
-0.0049999952 0.020714279 0.75000006 6.4607987e-40
-0.0035714256 0.020714285 0.75000006 3.7021605e-40
-0.0021428596 0.020714289 0.75000012 3.6949858e-40
-0.00071237341 0.020659035 0.74800003 2.7766729e-40
0.0007123797 0.020659048 0.74800003 3.6950699e-40
0.0021371413 0.02065905 0.74800009 3.6986572e-40
0.0035714358 0.020714274 0.75000006 6.4537221e-40
0.0050000027 0.020714277 0.75000006 8.2833415e-40
0.0064285714 0.020714283 0.75000012 8.2762649e-40
0.0078571476 0.020714277 0.75000006 8.2833415e-40
0.0092857145 0.020714281 0.75000006 8.2796561e-40
0.010714285 0.020714287 0.75000012 8.2832013e-40
0.012142858 0.020714281 0.75000006 6.4500367e-40
0.013535242 0.020659041 0.74800003 4.6169281e-40
0.014960001 0.020659043 0.74800003 4.6277041e-40
0.016384762 0.020659043 0.74800009 4.6313335e-40
0.017809523 0.020659046 0.74800003 7.393615e-40
0.019234283 0.020659046 0.74800003 9.2269618e-40
0.02063144 0.020631416 0.74699998 1.0152716e-39
0.021995243 0.020576181 0.74500006 1.1089203e-39
0.023351431 0.020520944 0.74300003 1.4777169e-39
0.024766671 0.02052095 0.74300009 1.8436127e-39
0.026181899 0.020520953 0.74300003 1.9340035e-39
0.029528575 0.019029513 0.68900001 4.9595568e-39
0.030885715 0.019057136 0.69000006 9.6784266e-39
0.032200009 0.019057125 0.69000006 1.6604577e-38
0.033659995 0.01914 0.69300002 2.3411558e-38
0.034979995 0.019140003 0.69300008 2.341769e-38
0.036352389 0.019167611 0.69400001 2.341769e-38
0.037891429 0.019278092 0.69800007 2.341769e-38
0.039333332 0.019333335 0.70000011 2.341444e-38
0.040724766 0.019360948 0.70100003 1.7434709e-38
0.042180002 0.019416193 0.70300001 1.1321857e-38
0.043580964 0.019443797 0.704 1.1227458e-38
-0.016384767 0.022083813 0.74800003 3.2225114e-39
-0.014959997 0.022083806 0.74800003 2.1197638e-39
-0.013535235 0.022083808 0.74800003 1.7502638e-39
-0.012142854 0.022142854 0.75000006 1.4744042e-39
-0.010714285 0.022142859 0.75000006 2.3002104e-39
-0.0092609534 0.022083811 0.74800003 3.128539e-39
-0.0078361845 0.022083802 0.74800003 2.3960214e-39
-0.0064285696 0.022142854 0.75000006 1.6566515e-39
-0.0049999906 0.022142844 0.75000006 9.2158636e-40
-0.0035714218 0.022142848 0.75000006 2.7873788e-40
-0.0021371404 0.02208381 0.74800009 2.7766169e-40
-0.00071237434 0.0220838 0.74800003 3.6878532e-40
0.00071237877 0.022083813 0.74800003 4.6098375e-40
0.0021428578 0.022142857 0.75000006 5.5282065e-40
0.0035714339 0.022142852 0.75000006 6.4465615e-40
0.0050000008 0.022142855 0.75000006 8.2762649e-40
0.0064285696 0.022142859 0.75000006 8.2800064e-40
0.0078571532 0.022142844 0.75000006 8.2905862e-40
0.0092857201 0.022142848 0.75000006 8.2868027e-40
0.010714289 0.022142852 0.75000006 8.290362e-40
0.012142863 0.022142848 0.75000006 6.4500227e-40
0.013535242 0.022083806 0.74800003 4.6169141e-40
0.014960001 0.022083808 0.74800003 3.7021605e-40
0.016384769 0.0220838 0.74800003 3.7021465e-40
0.017809521 0.022083811 0.74800003 5.546017e-40
0.019208575 0.022054279 0.74700004 8.2977328e-40
0.020520955 0.021936188 0.74300003 1.0145443e-39
0.021936186 0.021936193 0.74300003 1.2007572e-39
0.023320014 0.02190665 0.74199998 1.5684888e-39
0.024733335 0.021906661 0.74200004 2.0276565e-39
0.026076194 0.021847615 0.74000001 1.4744799e-39
0.027485715 0.021847615 0.74000001 1.0124199e-39
0.029528573 0.020341901 0.68900001 8.3823012e-39
0.031020001 0.020459998 0.69300008 1.3097937e-38
0.032339998 0.020460002 0.69300002 1.8261988e-38
0.033660002 0.020459998 0.69300002 2.341769e-38
0.035030469 0.020489523 0.69400001 2.341769e-38
0.036404759 0.020519054 0.69500005 2.341769e-38
0.037891429 0.020607615 0.69800001 2.341769e-38
0.039333329 0.020666664 0.70000011 2.3417666e-38
0.040724769 0.02069618 0.70099998 1.6864676e-38
0.042060003 0.020696184 0.70100003 1.0194366e-38
0.043519054 0.020755233 0.70300001 1.0679692e-38
-0.01496 0.023508569 0.74800003 2.9477224e-39
-0.013571425 0.023571422 0.75000012 2.5767889e-39
-0.012142851 0.023571417 0.75000006 2.1179786e-39
-0.010714281 0.023571422 0.75000006 3.5866374e-39
-0.0092857135 0.023571426 0.75000012 5.0610514e-39
-0.0078571383 0.02357142 0.75000006 3.6932286e-39
-0.0064285705 0.023571426 0.75000006 2.3063341e-39
-0.0049999943 0.02357142 0.75 1.1970999e-39
-0.0035714256 0.023571424 0.75000006 9.3993496e-41
-0.0021371366 0.023508564 0.74800003 2.7694422e-40
-0.00071237714 0.023508566 0.74800003 3.6913985e-40
0.0007123769 0.023508579 0.74800009 5.5209618e-40
0.0021428624 0.023571422 0.75000006 6.4429181e-40
0.0035714358 0.023571415 0.75000006 7.3576857e-40
0.0050000045 0.023571422 0.75000006 8.2797261e-40
0.0064114342 0.02350856 0.74800003 8.2798102e-40
0.0078571476 0.02357142 0.75000006 8.2832854e-40
0.0092609562 0.023508566 0.74800003 8.2831873e-40
0.010714282 0.023571428 0.75000006 8.2831593e-40
0.01214286 0.023571424 0.75000006 6.442848e-40
0.013535239 0.023508569 0.74800003 3.6985591e-40
0.014959999 0.023508573 0.74800009 3.7021465e-40
0.016384766 0.023508562 0.74800003 2.7873788e-40
0.017785713 0.023477143 0.74700004 4.6240747e-40
0.019208573 0.023477143 0.74700004 6.4537501e-40
0.020520952 0.023351429 0.74300003 9.2017665e-40
0.021936186 0.023351436 0.74300009 1.1989299e-39
0.023320008 0.023319991 0.74200004 1.659562e-39
0.024733342 0.02331998 0.74199998 2.1198072e-39
0.026076194 0.023257134 0.74000001 1.107456e-39
0.027485717 0.023257133 0.74000001 9.4390063e-41
0.031109527 0.021842856 0.69500005 1.6410859e-38
0.032433335 0.021842862 0.69500005 1.9927941e-38
0.033757143 0.02184286 0.69500005 2.341769e-38
0.035080954 0.021842854 0.69500005 2.341769e-38
0.036666665 0.022000002 0.70000005 2.341769e-38
0.037999999 0.022000005 0.70000011 2.341769e-38
0.039389521 0.022031428 0.70100003 2.3411205e-38
0.040724766 0.022031425 0.70099998 1.6320112e-38
-0.013571428 0.025 0.75000006 2.9484399e-39
-0.012142854 0.024999995 0.75000006 2.5789581e-39
-0.01071428 0.024999993 0.75000006 3.2218178e-39
-0.0092857117 0.024999999 0.75000006 3.7746581e-39
-0.0078571374 0.024999993 0.75000006 2.8595639e-39
-0.0064285686 0.024999997 0.75000006 1.9436752e-39
-0.0049999962 0.024999997 0.75000006 1.1999767e-39
-0.0035809502 0.025066663 0.75200003 5.5209898e-40
-0.0021371385 0.024933329 0.74800003 4.6133128e-40
-0.00071142532 0.024899995 0.74699998 4.6169001e-40
0.00071238994 0.02493332 0.74800003 6.4500227e-40
0.0021371441 0.024933333 0.74800003 8.279572e-40
0.0035619047 0.024933334 0.74800009 9.1979269e-40
0.0049866717 0.024933325 0.74800003 1.011631e-39
0.0064114248 0.024933338 0.74800003 9.197969e-40
0.0078361928 0.024933329 0.74800003 8.279586e-40
0.0092609525 0.024933331 0.74800003 7.3647903e-40
0.010685716 0.024933333 0.74800009 7.3647903e-40
0.012110484 0.024933325 0.74800003 5.5280804e-40
0.013535235 0.024933336 0.74800003 4.6169001e-40
0.014940006 0.024899999 0.74700004 4.6204874e-40
0.016362861 0.024899999 0.74700004 4.6276621e-40
0.017785717 0.024899999 0.74700004 6.4607847e-40
0.019105714 0.024766663 0.74300009 7.3684057e-40
0.020520955 0.024766661 0.74300003 9.2123183e-40
0.021906678 0.024733314 0.74199998 1.1063448e-39
0.023320001 0.024733329 0.74200004 1.6602332e-39
0.024733342 0.024733325 0.74199998 2.2148279e-39
0.026076199 0.02466665 0.74000001 1.5665928e-39
0.027485713 0.024666661 0.74000001 1.0116352e-39
0.028895244 0.02466665 0.74000001 5.901518e-39
0.031109519 0.023166671 0.69500005 1.3290991e-38
0.032433335 0.023166668 0.69500005 1.5683778e-38
0.033757146 0.023166668 0.69500005 1.8091231e-38
0.035181906 0.023233332 0.69700003 2.0754461e-38
0.036666669 0.023333333 0.70000011 2.341769e-38
0.038054291 0.023366652 0.70099998 2.341769e-38
0.039389528 0.023366658 0.70100003 2.3417658e-38
0.040724769 0.023366656 0.70099998 1.6033835e-38
-0.0092857135 0.026428569 0.75000006 2.4875094e-39
-0.007836191 0.026358096 0.74800009 2.0265564e-39
-0.0064285696 0.026428567 0.75000006 1.4773091e-39
-0.0049999971 0.026428567 0.75000006 1.2907402e-39
-0.0035714218 0.026428562 0.75000006 1.0137904e-39
-0.0021371404 0.026358092 0.74800003 7.3755663e-40
-0.000712379 0.026358094 0.74800009 4.6205014e-40
0.0007114344 0.026322847 0.74700004 7.3791536e-40
0.0021371404 0.026358098 0.74800003 9.2051016e-40
0.0035619093 0.026358088 0.74800003 1.0116296e-39
0.0049866708 0.026358088 0.74800003 1.104184e-39
0.0064114314 0.02635809 0.74800009 9.2015563e-40
0.0078257201 0.026322849 0.74699998 7.3648184e-40
0.0092609525 0.026358094 0.74800003 7.361203e-40
0.010685721 0.026358087 0.74800003 6.4464634e-40
0.012110475 0.0263581 0.74800003 5.5281505e-40
0.013517151 0.026322849 0.74700004 4.6169281e-40
0.014900003 0.026252374 0.74500006 5.5316677e-40
0.016275235 0.026181908 0.74300009 6.4572254e-40
0.017690485 0.026181893 0.74300003 7.382783e-40
0.019105719 0.026181897 0.74300003 8.2975506e-40
0.020493336 0.026146667 0.74200004 9.2159196e-40
0.021906674 0.026146656 0.74200004 1.0148722e-39
0.023320012 0.026146652 0.74199998 1.6595255e-39
0.024733346 0.026146656 0.74200004 2.3027313e-39
0.026076194 0.026076179 0.74000001 2.1165492e-39
0.027485721 0.026076181 0.74000001 1.8525642e-39
0.028778106 0.025970465 0.73700005 8.219389e-39
0.030181907 0.025970472 0.73700005 1.456292e-38
0.032526668 0.024560949 0.69700003 1.1425163e-38
0.033757146 0.024490476 0.69500005 1.2733152e-38
0.035080954 0.024490472 0.69500005 1.8091231e-38
0.036719058 0.024701891 0.70099998 2.341769e-38
0.038054291 0.024701895 0.70100003 2.341769e-38
0.039389532 0.024701891 0.70099998 2.3409391e-38
0.040724766 0.024701895 0.70100003 1.5853362e-38
-0.0078361873 0.027782852 0.74800003 2.5786134e-39
-0.0064285649 0.027857134 0.75000006 1.8414085e-39
-0.0049999962 0.027857138 0.75000006 1.4751329e-39
-0.0035714265 0.027857143 0.75000012 1.1992579e-39
-0.0021371441 0.027782857 0.74800003 9.2230522e-40
-0.00071142719 0.027745711 0.74700004 6.4608127e-40
0.00071143068 0.027745711 0.74700004 6.453638e-40
0.0021342868 0.027745713 0.74700004 7.371993e-40
0.0035619056 0.027782854 0.74800003 8.290348e-40
0.0049866671 0.027782854 0.74800003 9.2158916e-40
0.0064028585 0.027745714 0.74700004 7.3684337e-40
0.0078361882 0.027782857 0.74800003 5.5281084e-40
0.0092485826 0.027745703 0.74700004 5.5280804e-40
0.010685716 0.02778285 0.74800003 5.5281505e-40
0.012110481 0.027782852 0.74800009 5.5353812e-40
0.013517152 0.027745703 0.74700004 5.5460871e-40
0.0149 0.027671428 0.74500006 5.5388424e-40
0.016275248 0.027597127 0.74300003 6.4536661e-40
0.017690483 0.027597135 0.74300003 7.3756504e-40
0.019080006 0.027559992 0.74200004 8.2975927e-40
0.020493343 0.027559983 0.74199998 9.2159336e-40
0.021906668 0.027559999 0.74200004 1.1059958e-39
0.023257151 0.027485697 0.74000001 1.4740693e-39
0.024666669 0.02748571 0.74000001 1.9339684e-39
0.026040956 0.027448567 0.73900002 3.038151e-39
0.027374294 0.027374275 0.73700005 4.2353251e-39
0.02873905 0.027337147 0.73600012 9.1360512e-39
0.030140955 0.027337141 0.73600006 1.4022347e-38
0.032526676 0.025888558 0.69700003 5.8923297e-39
0.033854287 0.025888572 0.69700003 6.4477512e-39
0.035181906 0.025888572 0.69700003 1.4480948e-38
0.036719054 0.026037136 0.70099998 2.2499335e-38
0.038054284 0.02603714 0.70100003 2.2958513e-38
0.039501905 0.026111437 0.70300001 2.3417627e-38
0.04084095 0.026111433 0.70300007 1.5760778e-38
-0.0078780865 0.029363798 0.75200003 3.1321305e-39
-0.0064457124 0.029363804 0.75200003 2.1208554e-39
-0.0050133327 0.029363807 0.75200003 1.7524302e-39
-0.0035809511 0.029363809 0.75200003 1.3840078e-39
-0.0021371385 0.029207611 0.74800003 1.1063448e-39
-0.00071142346 0.029168567 0.74700004 8.2976067e-40
0.00071143068 0.029168567 0.74700004 6.4429601e-40
0.0021342942 0.029168561 0.74700004 4.6169982e-40
0.0035619037 0.029207617 0.74800003 6.4572814e-40
0.0049866727 0.029207608 0.74800003 7.3756364e-40
0.0064028697 0.029168556 0.74699998 5.5317518e-40
0.0078257238 0.029168556 0.74699998 3.6950139e-40
0.009248578 0.029168567 0.74700004 4.6097535e-40
0.010671433 0.029168567 0.74700004 4.6169561e-40
0.01209429 0.029168567 0.74700004 5.5389265e-40
0.013480954 0.029090473 0.74500006 6.4572394e-40
0.014860004 0.029012376 0.74300003 6.45361e-40
0.016275244 0.029012369 0.74300003 5.5353531e-40
0.017666677 0.028973317 0.74199998 6.4538202e-40
0.019105716 0.02901238 0.74300003 7.3756784e-40
0.020493342 0.028973324 0.74200004 9.2123043e-40
0.021906679 0.02897332 0.74199998 1.1049098e-39
0.02332001 0.02897332 0.74200004 1.2878718e-39
0.024666671 0.028895229 0.74000001 1.4740847e-39
0.025970483 0.028778085 0.73700005 4.0498142e-39
0.027262852 0.028660959 0.73400009 6.5480968e-39
0.028582867 0.028582847 0.73199999 1.0066257e-38
0.029977152 0.028582843 0.73199999 1.3453005e-38
0.032526668 0.027216189 0.69700003 3.68868e-40
0.033854283 0.02721619 0.69700003 1.0925924e-40
0.035181914 0.027216179 0.69700003 1.0885336e-38
0.036719047 0.027372377 0.70100003 2.1566252e-38
0.03821715 0.027489519 0.704 2.2499335e-38
0.039558094 0.02748953 0.70400006 2.3407947e-38
0.040899049 0.02748953 0.70400006 1.5664292e-38
-0.0078780921 0.030796185 0.75200003 2.7672912e-39
-0.0064457124 0.030796183 0.75200003 2.3999436e-39
-0.0050133262 0.030796176 0.75200003 2.2144734e-39
-0.0035619037 0.030632379 0.74800003 2.0286528e-39
-0.0021371404 0.030632377 0.74800003 1.8431895e-39
-0.00071142532 0.030591425 0.74700004 1.6573661e-39
0.00071143068 0.030591425 0.74700004 1.3811408e-39
0.002137146 0.030632375 0.74800003 1.1967495e-39
0.0035619037 0.030632382 0.74800009 1.1056273e-39
0.0049866708 0.030632373 0.74800003 1.1052672e-39
0.0064114286 0.03063238 0.74800003 9.2123603e-40
0.0078361901 0.030632379 0.74800003 7.3756224e-40
0.009248578 0.030591421 0.74700004 7.3755943e-40
0.010671432 0.030591421 0.74700004 8.2975366e-40
0.012061906 0.030509518 0.74500006 7.3755803e-40
0.013444766 0.030427614 0.74300003 7.3683917e-40
0.014860011 0.030427607 0.74300003 7.371965e-40
0.016275244 0.030427611 0.74300003 7.3721191e-40
0.017666671 0.030386658 0.74200004 7.3722733e-40
0.019080011 0.030386655 0.74199998 8.2904741e-40
0.020493345 0.030386657 0.74200004 1.1041797e-39
0.021906674 0.030386662 0.74200004 1.3793303e-39
0.02325714 0.030304762 0.74000001 2.2080036e-39
0.024666671 0.030304747 0.74000001 3.0324281e-39
0.026040956 0.030263804 0.73900002 4.70095e-39
0.027188579 0.029977126 0.73199999 6.3719844e-39
0.028543815 0.029936181 0.73100001 7.6638372e-39
0.02985429 0.029854283 0.72900003 8.946576e-39
0.031242862 0.029854288 0.72900003 5.6203195e-39
0.037033342 0.028953327 0.70700002 1.2565279e-38
0.038380001 0.028953329 0.70700002 1.7352242e-38
0.039726667 0.028953334 0.70700002 2.2223777e-38
0.040957145 0.028871421 0.70500004 1.539059e-38
-0.0035618981 0.032057136 0.74800003 2.6740082e-39
-0.0021371404 0.032057144 0.74800003 2.579663e-39
-0.00071238086 0.032057144 0.74800009 2.4867541e-39
0.00071238622 0.032057136 0.74800003 2.2098154e-39
0.0021371441 0.032057144 0.74800003 1.8428266e-39
0.0035619074 0.03205714 0.74800003 1.6577165e-39
0.0049866671 0.03205714 0.74800003 1.3818512e-39
0.0064114304 0.03205714 0.74800009 1.196388e-39
0.0078361956 0.032057136 0.74800003 1.0134331e-39
