# .PCD v0.7 - Point Cloud Data file format
VERSION 0.7
FIELDS x y z rgb
SIZE 4 4 4 4
TYPE F F F F
COUNT 1 1 1 1
WIDTH 948
HEIGHT 1
VIEWPOINT 0 0 0 1 0 0 0
POINTS 948
DATA ascii
-0.014476185 -0.07390476 0.79999995 9.2122762e-40
-0.012952382 -0.073904768 0.79999995 7.371979e-40
-0.011428578 -0.073904783 0.79999995 5.5280944e-40
-0.0099047692 -0.07390479 0.79999995 3.6878112e-40
-0.0083809542 -0.073904775 0.79999995 3.6914125e-40
-0.0068571381 -0.07390476 0.79999995 3.6914826e-40
-0.0053333333 -0.073904775 0.79999995 2.7731977e-40
-0.0038095305 -0.073904783 0.80000001 1.8547727e-40
-0.0022857126 -0.073904768 0.79999995 2.7730435e-40
-0.0007619058 -0.073904775 0.79999995 3.6914966e-40
0.00076189626 -0.073904783 0.79999995 4.6242989e-40
0.0022857122 -0.073904775 0.80000001 6.4644841e-40
0.0038190584 -0.074089505 0.80199999 4.6240747e-40
0.005346681 -0.074089497 0.80199999 3.6949858e-40
0.0068742922 -0.074089512 0.80199999 5.5317238e-40
0.0084019015 -0.074089535 0.80200005 7.3684197e-40
0.0099295257 -0.07408952 0.80200005 5.5316817e-40
0.01145715 -0.07408952 0.80200005 3.6985732e-40
0.012952381 -0.073904768 0.79999995 3.6985732e-40
0.014476186 -0.073904775 0.79999995 4.6241868e-40
0.015940003 -0.073627606 0.79700005 4.6134949e-40
0.0174581 -0.073627606 0.79699999 3.6878953e-40
0.018976197 -0.073627606 0.79699999 2.7658829e-40
0.024066666 -0.06669905 0.72200006 1.604343e-38
0.025441905 -0.06669905 0.72200006 1.1880182e-38
-0.033460006 -0.06487143 0.71700001 3.0421111e-39
-0.032049518 -0.064780943 0.71600002 2.9517231e-39
-0.030471435 -0.064328589 0.71100003 2.7673262e-39
-0.032639045 -0.07210952 0.79699999 2.9509902e-39
-0.031159993 -0.072199985 0.79799998 3.0421027e-39
-0.029640006 -0.072200015 0.79800004 3.5012745e-39
-0.028120007 -0.072200023 0.79799998 3.8693396e-39
-0.026599996 -0.072199993 0.79799998 3.3201259e-39
-0.025079999 -0.0722 0.79800004 2.7658647e-39
-0.023559999 -0.072200008 0.79799998 2.3970682e-39
-0.022040004 -0.072200008 0.79800004 1.9346551e-39
-0.020520005 -0.072200015 0.79799998 1.6580654e-39
-0.019047622 -0.072380967 0.79999995 1.2900059e-39
-0.017480005 -0.072200015 0.79799998 1.1059762e-39
-0.016000003 -0.072380967 0.80000001 8.3010959e-40
-0.014476185 -0.072380953 0.79999995 6.4607987e-40
-0.012952381 -0.07238096 0.79999995 4.6205014e-40
-0.011428576 -0.072380975 0.79999995 4.6097535e-40
-0.009904759 -0.072380953 0.79999995 4.6133408e-40
-0.0083809542 -0.07238096 0.79999995 4.6097535e-40
-0.00685714 -0.072380953 0.79999995 3.6914265e-40
-0.0053333333 -0.072380967 0.79999995 3.6878812e-40
-0.003819044 -0.072561905 0.80200005 2.7694842e-40
-0.0022857117 -0.072380953 0.79999995 3.6878112e-40
-0.00076190487 -0.072380967 0.79999995 3.6986292e-40
0.00076189812 -0.072380982 0.79999995 3.7094472e-40
0.0022914361 -0.072561897 0.80199999 3.7093772e-40
0.0038190584 -0.07256189 0.80199999 3.7057198e-40
0.005346668 -0.072561912 0.80200005 2.7837915e-40
0.0068914378 -0.072742842 0.80399996 7.3684057e-40
0.0084228553 -0.072742864 0.80399996 1.1038224e-39
0.0099542877 -0.072742857 0.80399996 8.279572e-40
0.011485713 -0.072742864 0.80399996 4.6133268e-40
0.013017156 -0.072742827 0.80399996 5.5352691e-40
0.014512387 -0.072561905 0.80199999 6.4572534e-40
0.015939999 -0.072109528 0.79699999 6.4537081e-40
0.017458092 -0.072109528 0.79699999 5.5317938e-40
0.018976189 -0.07210952 0.79699999 3.695126e-40
0.024066668 -0.065323807 0.72200006 8.5691993e-39
0.025477132 -0.065414302 0.72300005 6.5214469e-39
0.026854288 -0.06541428 0.72300005 4.5241047e-39
-0.034922861 -0.063682869 0.71900004 3.0410237e-39
-0.033413336 -0.063417144 0.71600002 3.0417453e-39
-0.031960014 -0.063240029 0.71400005 3.0421083e-39
-0.030471427 -0.062974274 0.71100003 3.1332249e-39
-0.032680001 -0.070680015 0.79800004 2.8580743e-39
-0.031160003 -0.070680015 0.79799998 2.582928e-39
-0.029639993 -0.070679992 0.79799998 2.766599e-39
-0.028120007 -0.070680022 0.79800004 3.0417635e-39
-0.026599996 -0.07068 0.79799998 2.4914848e-39
-0.025079999 -0.070680007 0.79800004 1.9390047e-39
-0.023559999 -0.070680007 0.79799998 1.7524316e-39
-0.022039998 -0.070680007 0.79799998 1.5648062e-39
-0.020571429 -0.070857152 0.79999995 1.1970956e-39
-0.019047625 -0.070857167 0.79999995 9.2158916e-40
-0.017523821 -0.070857175 0.79999995 7.3755803e-40
-0.015999995 -0.07085713 0.79999995 6.4607987e-40
-0.014476189 -0.070857145 0.79999995 4.6240747e-40
-0.012952384 -0.07085716 0.79999995 3.7057338e-40
-0.01142858 -0.07085716 0.79999995 4.6205154e-40
-0.0099047609 -0.070857145 0.79999995 5.5424437e-40
-0.0083809467 -0.070857137 0.79999995 4.6169001e-40
-0.0068742922 -0.071034305 0.80200005 3.6985451e-40
-0.0053466698 -0.071034297 0.80200005 3.6913705e-40
-0.0038190458 -0.07103429 0.80200005 3.6877972e-40
-0.0022857154 -0.070857145 0.79999995 3.6913845e-40
-0.00076380104 -0.071034268 0.80199999 4.6169281e-40
0.00076381385 -0.07103429 0.80199999 5.5424717e-40
0.0022971497 -0.07121142 0.80399996 7.382755e-40
0.0038285672 -0.071211442 0.80399996 5.5424297e-40
0.0053600091 -0.071211413 0.80399996 2.7909521e-40
0.0068914229 -0.071211435 0.80399996 4.6133128e-40
0.0084228655 -0.071211413 0.80399996 7.3576157e-40
0.009954283 -0.071211435 0.80399996 5.5280804e-40
0.011485725 -0.071211405 0.80399996 4.6169001e-40
0.013017142 -0.071211435 0.80399996 5.5316677e-40
0.014548576 -0.071211427 0.80399996 7.371979e-40
0.01596 -0.070679992 0.79799998 6.4500367e-40
0.017479992 -0.070680022 0.79800004 6.4537642e-40
0.025477134 -0.064037174 0.72300005 9.4860213e-39
0.026854284 -0.064037144 0.72300005 1.0701876e-38
-0.036292393 -0.062313363 0.71900004 3.3165175e-39
-0.034922868 -0.062313348 0.71900004 3.1317774e-39
-0.033459999 -0.062139999 0.71700001 2.9488308e-39
-0.032094296 -0.06214001 0.71700001 3.2250618e-39
-0.034200002 -0.069160007 0.79800004 3.4076524e-39
-0.032680001 -0.069160014 0.79799998 2.7644424e-39
-0.031160004 -0.069160014 0.79800004 2.0301101e-39
-0.029639995 -0.069159999 0.79800004 2.1233736e-39
-0.028119994 -0.069159992 0.79799998 2.2145e-39
-0.026599998 -0.069160007 0.79800004 1.6642129e-39
-0.025079999 -0.069160007 0.79799998 1.0184749e-39
-0.023619041 -0.069333322 0.79999995 1.1081398e-39
-0.022095235 -0.06933333 0.79999995 1.1052644e-39
-0.020571429 -0.069333345 0.79999995 8.279586e-40
-0.019047625 -0.069333352 0.79999995 4.6133408e-40
-0.017523808 -0.069333337 0.79999995 4.6061661e-40
-0.015999993 -0.06933333 0.79999995 3.6985591e-40
-0.014476188 -0.069333337 0.79999995 2.7837775e-40
-0.012952385 -0.069333345 0.79999995 1.8654365e-40
-0.011428566 -0.06933333 0.79999995 4.6240888e-40
-0.0099047627 -0.069333337 0.79999995 6.4572113e-40
-0.0083809579 -0.069333352 0.79999995 4.6169001e-40
-0.0068742838 -0.06950666 0.80200005 2.7801902e-40
-0.0053466614 -0.069506653 0.80200005 3.6949578e-40
-0.0038285686 -0.069679998 0.80400002 3.6913845e-40
-0.0022914244 -0.06950666 0.80199999 4.6097395e-40
-0.00076380197 -0.069506653 0.80199999 4.6133408e-40
0.0007657212 -0.06967999 0.80399996 8.290362e-40
0.0022971395 -0.06968002 0.80399996 1.1045413e-39
0.0038285793 -0.06967999 0.80399996 7.3755523e-40
0.0053599933 -0.069680013 0.80399996 2.7801902e-40
0.0068914369 -0.069679983 0.80399996 2.7730155e-40
0.0084228553 -0.069680013 0.80399996 2.7730155e-40
0.0099542933 -0.069679983 0.80399996 3.6913705e-40
0.011485711 -0.069680005 0.80400002 3.6913985e-40
0.013017143 -0.069680005 0.80399996 6.4428901e-40
0.014512379 -0.069506675 0.80200005 8.2831873e-40
0.015940007 -0.069073312 0.79700005 7.361231e-40
0.017458107 -0.069073312 0.79699999 6.4501628e-40
-0.036292389 -0.060943831 0.71900004 3.0427991e-39
-0.034922875 -0.060943842 0.71900004 2.8580575e-39
-0.033460002 -0.060774297 0.71700001 2.7644396e-39
-0.032094292 -0.060774304 0.71700001 2.6729726e-39
-0.034200002 -0.067640014 0.79800004 2.6711733e-39
-0.032680005 -0.067640014 0.79799998 2.0279605e-39
-0.031159995 -0.067639992 0.79799998 1.4762161e-39
-0.029640006 -0.067640021 0.79800004 1.4765594e-39
-0.028119996 -0.067639999 0.79799998 1.4769181e-39
-0.026599996 -0.067639999 0.79799998 1.0173819e-39
-0.025142871 -0.067809559 0.79999995 6.4788334e-40
-0.023619043 -0.067809515 0.79999995 7.3863703e-40
-0.022095237 -0.067809522 0.79999995 8.2831733e-40
-0.020571433 -0.067809537 0.79999995 6.4464354e-40
-0.019047627 -0.067809545 0.79999995 4.6097395e-40
-0.01752381 -0.06780953 0.79999995 5.5245071e-40
-0.015999995 -0.067809515 0.79999995 6.4464494e-40
-0.01447619 -0.06780953 0.79999995 4.6097254e-40
-0.012952386 -0.067809537 0.80000001 2.7730155e-40
-0.011428568 -0.067809515 0.79999995 3.6949578e-40
-0.0099295266 -0.06797906 0.80200005 5.5316677e-40
-0.0084019043 -0.067979045 0.80200005 3.7021325e-40
-0.0068742801 -0.067979045 0.80200005 2.7873648e-40
-0.0053466577 -0.067979038 0.80200005 2.7801902e-40
-0.0038285686 -0.068148568 0.80399996 3.6877972e-40
-0.0022914226 -0.067979038 0.80199999 3.6913845e-40
-0.00076571025 -0.068148568 0.80399996 4.6097535e-40
0.00076570723 -0.068148591 0.80400002 6.4464774e-40
0.0022971469 -0.068148561 0.80399996 8.279586e-40
0.0038285672 -0.068148591 0.80400002 5.5280804e-40
0.0053600054 -0.068148561 0.80399996 2.7730155e-40
0.006891422 -0.068148591 0.80400002 2.7730155e-40
0.0084228627 -0.068148561 0.80399996 2.7730155e-40
0.009954283 -0.068148583 0.80400002 2.7730155e-40
0.011485713 -0.068148576 0.80399996 3.6914125e-40
0.01298476 -0.067979068 0.80200005 5.5281645e-40
0.014512381 -0.067979053 0.80200005 6.4465054e-40
0.015940001 -0.067555226 0.79699999 5.5281224e-40
0.0174581 -0.067555226 0.79699999 4.6098516e-40
0.028309517 -0.061452404 0.72500002 1.6869994e-38
-0.03614096 -0.059325729 0.71600002 2.6747411e-39
-0.034777138 -0.059325702 0.71600002 2.5850622e-39
-0.033320017 -0.059160054 0.71400005 2.4900023e-39
-0.031960003 -0.059160009 0.71399999 2.2144986e-39
-0.034199994 -0.066119984 0.79799998 1.8439238e-39
-0.032680005 -0.066120021 0.79800004 1.3836645e-39
-0.031160008 -0.066120021 0.79799998 9.230395e-40
-0.029714286 -0.066285715 0.79999995 8.301166e-40
-0.028190479 -0.066285729 0.79999995 6.4716587e-40
-0.026666675 -0.066285737 0.79999995 4.6349768e-40
-0.02514286 -0.066285722 0.79999995 1.8726953e-40
-0.023678102 -0.066451438 0.80200005 3.6986012e-40
-0.022150477 -0.06645143 0.80200005 4.6133408e-40
-0.020622857 -0.066451423 0.80200005 4.6097254e-40
-0.019095235 -0.066451415 0.80200005 3.6878812e-40
-0.01752381 -0.066285722 0.79999995 6.4394429e-40
-0.016039997 -0.066451423 0.80199999 8.2760687e-40
-0.014512374 -0.066451415 0.80199999 6.4356734e-40
-0.012984764 -0.066451438 0.80200005 3.6877832e-40
-0.011457141 -0.06645143 0.80200005 3.6913845e-40
-0.0099295303 -0.066451438 0.80199999 3.6985872e-40
-0.008401908 -0.06645143 0.80199999 3.7057898e-40
-0.0068914304 -0.066617154 0.80400002 2.7874069e-40
-0.0053599998 -0.066617146 0.80399996 2.7801902e-40
-0.0038285677 -0.066617139 0.80399996 2.7730155e-40
-0.0022971409 -0.066617139 0.80399996 3.6913845e-40
-0.00076572422 -0.066617168 0.80400002 4.6133688e-40
0.00076571747 -0.066617139 0.80399996 4.6098375e-40
0.0022971479 -0.066617139 0.80399996 4.6097815e-40
0.0038285756 -0.066617139 0.80399996 3.6877972e-40
0.0053599929 -0.066617161 0.80400002 2.7694562e-40
0.0068914318 -0.066617131 0.80399996 2.7694842e-40
0.0084228637 -0.066617131 0.80399996 1.8511013e-40
0.0099542812 -0.066617154 0.80399996 2.7694282e-40
0.011485707 -0.066617154 0.80400002 3.6913985e-40
0.012984766 -0.066451423 0.80200005 4.6133688e-40
0.014512388 -0.066451408 0.80200005 4.6133548e-40
0.01596 -0.066119999 0.79799998 3.6949858e-40
0.017479999 -0.066120006 0.79800004 1.8619473e-40
-0.03614096 -0.057961918 0.71600002 1.9379061e-39
-0.034680001 -0.057800025 0.71399999 1.8464321e-39
-0.03332001 -0.057800017 0.71400005 1.7531589e-39
-0.035809528 -0.064761914 0.79999995 1.5680488e-39
-0.034200005 -0.064600013 0.79799998 1.3822212e-39
-0.032679994 -0.064599991 0.79799998 1.0137988e-39
-0.031160008 -0.064600021 0.79800004 7.3613011e-40
-0.029714286 -0.064761907 0.79999995 6.4464354e-40
-0.028190482 -0.064761914 0.79999995 6.4429041e-40
-0.026666678 -0.064761929 0.79999995 4.6134249e-40
-0.02514286 -0.064761914 0.79999995 2.7730996e-40
-0.023678098 -0.064923823 0.80200005 3.6986012e-40
-0.022150476 -0.064923815 0.80200005 4.6169281e-40
-0.020622853 -0.064923801 0.80199999 3.6913705e-40
-0.019142862 -0.065085731 0.80399996 2.7696104e-40
-0.017567609 -0.064923786 0.80199999 4.6064884e-40
-0.016040009 -0.064923838 0.80200005 6.4394429e-40
-0.014548563 -0.065085702 0.80399996 4.6061381e-40
-0.012984762 -0.064923815 0.80200005 2.7730295e-40
-0.011485704 -0.065085694 0.80399996 2.7766169e-40
-0.0099542867 -0.065085717 0.80399996 2.7766869e-40
-0.0084228478 -0.065085694 0.80399996 2.7839176e-40
-0.0069085686 -0.065247618 0.80600005 2.7874349e-40
-0.0053733187 -0.065247595 0.80599999 3.6985451e-40
-0.0038380849 -0.065247595 0.80599999 3.6913705e-40
-0.0022971381 -0.065085717 0.80399996 4.6133128e-40
-0.00076571305 -0.065085717 0.80399996 5.5353531e-40
0.00076571887 -0.065085709 0.80399996 5.5318499e-40
0.0022971451 -0.065085709 0.80399996 5.5317658e-40
0.0038285784 -0.065085702 0.80399996 4.6097395e-40
0.0053733308 -0.065247633 0.80600005 4.6026068e-40
0.0068914355 -0.065085702 0.80399996 3.6878812e-40
0.0084228497 -0.065085731 0.80399996 2.7694842e-40
0.0099542933 -0.065085702 0.80399996 3.6877832e-40
0.011485709 -0.065085724 0.80399996 5.5280944e-40
0.012984766 -0.064923801 0.80200005 4.6133268e-40
0.01451239 -0.064923793 0.80199999 4.6169141e-40
0.015959997 -0.064600006 0.79800004 3.6985591e-40
0.017480001 -0.064599998 0.79799998 2.7802883e-40
-0.037557147 -0.056677163 0.71700001 1.2914577e-39
-0.036140956 -0.056598105 0.71600002 1.1088671e-39
-0.034777146 -0.056598105 0.71600002 1.018112e-39
-0.037333336 -0.063238099 0.79999995 9.2447864e-40
-0.035809528 -0.063238107 0.79999995 9.2268077e-40
-0.034285717 -0.063238099 0.80000001 8.2976627e-40
-0.032761909 -0.063238107 0.80000001 6.4465615e-40
-0.031238094 -0.063238092 0.79999995 4.6062082e-40
-0.029714286 -0.063238099 0.79999995 5.5209338e-40
-0.028260957 -0.063396208 0.80200005 6.4429041e-40
-0.026733335 -0.063396193 0.80200005 4.6062222e-40
-0.025205715 -0.063396193 0.80200005 2.7730856e-40
-0.023678092 -0.063396178 0.80200005 3.6986012e-40
-0.022150479 -0.063396193 0.80199999 4.6097675e-40
-0.020622857 -0.063396186 0.80199999 2.7658549e-40
-0.019142855 -0.06355428 0.80399996 9.3283037e-41
-0.017611435 -0.063554302 0.80399996 2.7696244e-40
-0.016039999 -0.063396193 0.80200005 3.6878812e-40
-0.014512378 -0.063396178 0.80200005 2.7694282e-40
-0.013017137 -0.063554272 0.80399996 1.8618352e-40
-0.011485718 -0.063554294 0.80399996 1.8654365e-40
-0.0099542765 -0.063554272 0.80399996 1.8618772e-40
-0.0084228609 -0.063554294 0.80399996 2.7802602e-40
-0.0069085648 -0.063712381 0.80599999 2.7802322e-40
-0.0053733205 -0.063712358 0.80600005 3.6949578e-40
-0.003838097 -0.063712388 0.80599999 4.6133128e-40
-0.0022971418 -0.063554294 0.80400002 5.5352551e-40
-0.00076571212 -0.06355428 0.80399996 5.5317238e-40
0.00076762203 -0.063712381 0.80600005 5.5317798e-40
0.0023028709 -0.063712358 0.80599999 5.5281505e-40
0.0038381068 -0.063712366 0.80599999 5.5281084e-40
0.0053733406 -0.063712366 0.80599999 5.5209478e-40
0.006908576 -0.063712381 0.80599999 4.6026209e-40
0.008422859 -0.063554272 0.80399996 3.6878112e-40
0.0099542774 -0.063554302 0.80399996 5.5244931e-40
0.011485721 -0.063554272 0.80399996 6.4464774e-40
0.012984767 -0.063396178 0.80199999 5.5281645e-40
0.014512386 -0.063396178 0.80199999 4.6205295e-40
0.015940003 -0.063000932 0.79699999 3.7021465e-40
0.017458092 -0.06300097 0.79700005 2.7838335e-40
0.029813323 -0.057546698 0.72800004 1.6872876e-38
-0.03876001 -0.055080023 0.71400005 1.012717e-39
-0.037400011 -0.055080026 0.71400005 1.0134317e-39
-0.036040016 -0.055080045 0.71400005 1.0137946e-39
-0.038760003 -0.061560005 0.79799998 8.3120401e-40
-0.037333336 -0.061714288 0.79999995 7.3828811e-40
-0.035809528 -0.061714306 0.79999995 6.4608968e-40
-0.034285724 -0.061714314 0.79999995 5.5317518e-40
-0.032761905 -0.061714292 0.79999995 4.6133688e-40
-0.031238092 -0.061714284 0.79999995 3.6878392e-40
-0.029788559 -0.061868541 0.80199999 4.6061802e-40
-0.028260957 -0.061868586 0.80200005 5.5245351e-40
-0.026733335 -0.061868578 0.80200005 4.6061802e-40
-0.025205713 -0.061868567 0.80200005 3.6914265e-40
-0.02373714 -0.062022857 0.80399996 5.5281365e-40
-0.022205723 -0.06202288 0.80399996 7.361245e-40
-0.020674281 -0.06202285 0.80399996 5.5209338e-40
-0.019190477 -0.062177151 0.80600005 3.6842379e-40
-0.017655233 -0.062177133 0.80600005 3.6878252e-40
-0.016080005 -0.062022876 0.80400002 3.6878112e-40
-0.014548566 -0.06202285 0.80399996 2.7766028e-40
-0.013017147 -0.062022872 0.80400002 2.7873648e-40
-0.011485708 -0.062022842 0.80399996 1.8654225e-40
-0.0099790394 -0.062177129 0.80599999 1.8618352e-40
-0.0084438035 -0.062177137 0.80600005 2.7801902e-40
-0.0069085695 -0.062177144 0.80600005 3.6913705e-40
-0.0053733317 -0.062177151 0.80600005 3.6949578e-40
-0.003838097 -0.062177159 0.80600005 4.6097254e-40
-0.0023028499 -0.062177129 0.80599999 7.3647903e-40
-0.00076760363 -0.062177114 0.80599999 9.1943536e-40
0.00076762156 -0.06217714 0.80599999 6.4428901e-40
0.0023028681 -0.062177125 0.80600005 4.6061802e-40
0.0038381016 -0.062177129 0.80600005 4.6061661e-40
0.0053733392 -0.062177137 0.80600005 5.5173465e-40
0.0069085746 -0.062177144 0.80600005 4.6025788e-40
0.0084228609 -0.06202285 0.80400002 3.6842098e-40
0.0099542905 -0.06202285 0.80399996 4.6097254e-40
0.011485711 -0.062022876 0.80399996 5.5317378e-40
0.012984765 -0.061868563 0.80199999 5.5353952e-40
0.014476195 -0.061714284 0.79999995 6.464442e-40
0.015939998 -0.061482854 0.79699999 4.6240747e-40
0.017458094 -0.061482858 0.79700005 2.7873788e-40
-0.038760018 -0.05372005 0.71400005 5.5281645e-40
-0.041799996 -0.060039997 0.79800004 7.3576998e-40
-0.040280003 -0.060039997 0.79799998 8.290418e-40
-0.03885714 -0.060190473 0.79999995 7.3792517e-40
-0.037333336 -0.06019048 0.79999995 5.5389265e-40
-0.035809528 -0.060190491 0.79999995 4.6241308e-40
-0.034285724 -0.060190506 0.79999995 2.7838335e-40
-0.032761909 -0.060190484 0.79999995 2.7874069e-40
-0.031316191 -0.060340963 0.80200005 2.7766449e-40
-0.029862862 -0.060491435 0.80400002 3.6878112e-40
-0.028331431 -0.060491432 0.80399996 3.6878392e-40
-0.026799988 -0.060491405 0.80399996 3.6878672e-40
-0.025331423 -0.060641892 0.80600005 3.6879513e-40
-0.023796186 -0.0606419 0.80600005 6.4359256e-40
-0.022260953 -0.060641907 0.80600005 9.1944517e-40
-0.020725716 -0.060641915 0.80600005 7.3576297e-40
-0.019190466 -0.060641885 0.80599999 5.5209338e-40
-0.017655231 -0.060641892 0.80599999 4.6061802e-40
-0.016119996 -0.0606419 0.80599999 3.6913845e-40
-0.01458476 -0.060641903 0.80599999 3.6985451e-40
-0.013049514 -0.060641889 0.80600005 2.7801902e-40
-0.011514279 -0.060641892 0.80600005 2.7766169e-40
-0.0099790422 -0.0606419 0.80600005 1.8618352e-40
-0.0084438073 -0.0606419 0.80600005 2.7873648e-40
-0.0069085583 -0.060641877 0.80599999 3.6985451e-40
-0.0053733224 -0.060641885 0.80599999 4.6133128e-40
-0.0038476095 -0.060792364 0.80799997 4.6133408e-40
-0.0023028508 -0.0606419 0.80599999 9.2015563e-40
-0.00076761714 -0.0606419 0.80599999 1.2871375e-39
0.00076762016 -0.060641907 0.80600005 8.279586e-40
0.0023028555 -0.060641915 0.80600005 2.7694422e-40
0.0038381021 -0.060641896 0.80600005 4.6061521e-40
0.0053733382 -0.060641896 0.80599999 5.5209338e-40
0.0069085849 -0.060641877 0.80599999 4.6025788e-40
0.0084438222 -0.060641885 0.80599999 2.7658689e-40
0.0099542793 -0.06049145 0.80400002 3.6913845e-40
0.011485718 -0.06049142 0.80399996 3.6914125e-40
0.012984767 -0.060340948 0.80199999 6.4500928e-40
0.014476193 -0.060190476 0.79999995 8.2939493e-40
0.015940007 -0.059964746 0.79699999 5.5352551e-40
0.017458089 -0.059964776 0.79700005 2.7873788e-40
-0.041799996 -0.058520004 0.79800004 6.4464914e-40
-0.040279999 -0.058520004 0.79799998 7.3648324e-40
-0.038759999 -0.058520004 0.79799998 6.4500367e-40
-0.037240002 -0.058520012 0.79800004 5.5280944e-40
-0.035809528 -0.058666687 0.79999995 4.6169001e-40
-0.034285724 -0.058666695 0.80000001 3.6985591e-40
-0.032761909 -0.058666676 0.79999995 3.6985732e-40
-0.031316191 -0.058813345 0.80200005 3.6949858e-40
-0.029788572 -0.058813334 0.80200005 3.6913845e-40
-0.02826095 -0.058813326 0.80200005 3.6914405e-40
-0.026800001 -0.058960006 0.80399996 3.6879093e-40
-0.02526857 -0.058959998 0.80399996 4.6064184e-40
-0.02379619 -0.059106663 0.80600005 5.5213402e-40
-0.022260943 -0.059106641 0.80599999 6.4394849e-40
-0.020725705 -0.059106644 0.80599999 6.4392607e-40
-0.01919047 -0.059106652 0.80599999 5.5209198e-40
-0.017655235 -0.059106659 0.80600005 5.5245211e-40
-0.016119998 -0.059106663 0.80600005 5.5280944e-40
-0.014584763 -0.05910667 0.80600005 3.6949578e-40
-0.013049527 -0.059106674 0.80600005 2.7802042e-40
-0.011514279 -0.059106648 0.80599999 2.7766169e-40
-0.0099790413 -0.059106655 0.80599999 2.7802042e-40
-0.008443797 -0.059106641 0.80599999 3.7021325e-40
-0.0069257161 -0.059253346 0.80799997 4.6240747e-40
-0.0053866608 -0.059253331 0.80799997 4.6169001e-40
-0.0038476095 -0.05925332 0.80799997 4.6169561e-40
-0.002302856 -0.059106663 0.80600005 6.4501348e-40
-0.00076761667 -0.05910667 0.80600005 8.2832013e-40
0.00076762855 -0.059106644 0.80599999 5.5280804e-40
0.0023028657 -0.059106648 0.80599999 3.6913705e-40
0.0038380993 -0.059106655 0.80599999 3.6913705e-40
0.0053733368 -0.059106663 0.80599999 4.6061521e-40
0.0069085723 -0.059106667 0.80599999 3.6842239e-40
0.0084438175 -0.059106648 0.80600005 1.8439266e-40
0.0099542886 -0.058959998 0.80399996 2.7694562e-40
0.011485709 -0.058960021 0.80400002 4.6061521e-40
0.012984766 -0.058813334 0.80200005 5.5316677e-40
0.014476188 -0.058666673 0.79999995 6.45361e-40
0.015939998 -0.058446672 0.79700005 5.5352551e-40
0.017370472 -0.058153346 0.79300004 3.7021465e-40
0.018880954 -0.058153335 0.79299998 5.5424437e-40
-0.041904766 -0.057142861 0.80000001 5.5389405e-40
-0.040380947 -0.057142846 0.79999995 5.5317238e-40
-0.03885714 -0.057142861 0.79999995 5.5245211e-40
-0.037333339 -0.057142869 0.79999995 4.6133268e-40
-0.035809532 -0.05714288 0.79999995 4.6169001e-40
-0.034285713 -0.057142861 0.79999995 4.6169141e-40
-0.032843817 -0.057285734 0.80200005 4.6169281e-40
-0.031316191 -0.057285722 0.80199999 3.6949718e-40
-0.029862847 -0.057428554 0.80399996 3.6913845e-40
-0.028331432 -0.057428584 0.80399996 3.6914125e-40
-0.026799999 -0.057428576 0.80399996 4.6062082e-40
-0.025331423 -0.057571419 0.80599999 4.6063203e-40
-0.023796188 -0.057571426 0.80599999 4.6064184e-40
-0.022260953 -0.057571433 0.80599999 3.6879513e-40
-0.020777132 -0.057714261 0.80799997 4.6026068e-40
-0.019238101 -0.057714302 0.80800003 5.5209478e-40
-0.017655235 -0.057571422 0.80600005 6.4357154e-40
-0.01612 -0.05757143 0.80600005 6.4428761e-40
-0.014584751 -0.057571404 0.80599999 4.6097535e-40
-0.013049515 -0.057571411 0.80599999 2.7730435e-40
-0.011514279 -0.057571419 0.80599999 2.7658689e-40
-0.010003803 -0.057714272 0.80799997 2.7766169e-40
-0.0084647583 -0.057714283 0.80799997 3.6913705e-40
-0.0069257179 -0.057714298 0.80800003 4.6169001e-40
-0.0053866645 -0.057714283 0.80800003 4.6169001e-40
-0.0038476123 -0.057714272 0.80799997 4.6169421e-40
-0.0023028532 -0.057571419 0.80599999 4.6097955e-40
-0.00076760643 -0.057571404 0.80599999 3.6914125e-40
0.00076762715 -0.057571411 0.80600005 3.6913705e-40
0.0023028662 -0.057571419 0.80600005 3.6913845e-40
0.0038380998 -0.057571422 0.80600005 3.6913845e-40
0.0053733345 -0.057571426 0.80600005 3.6914826e-40
0.00690857 -0.057571433 0.80600005 2.7660371e-40
0.0084438194 -0.057571407 0.80599999 9.2927108e-41
0.0099542886 -0.057428565 0.80399996 2.7659249e-40
0.01145714 -0.057285726 0.80200005 4.6097675e-40
0.012952382 -0.057142854 0.79999995 4.6169141e-40
0.014439996 -0.057000004 0.79800004 4.6169141e-40
0.015939992 -0.05692859 0.79700005 4.6169141e-40
0.017458089 -0.056928586 0.79700005 4.6205014e-40
0.018880948 -0.056642871 0.79300004 5.5352831e-40
-0.041904751 -0.055619027 0.79999995 4.6134529e-40
-0.040380947 -0.055619035 0.79999995 5.5281645e-40
-0.038857143 -0.055619046 0.79999995 4.6133408e-40
-0.037333339 -0.055619061 0.79999995 4.6169141e-40
-0.035809532 -0.055619076 0.80000001 6.45361e-40
-0.034285717 -0.055619054 0.79999995 7.371979e-40
-0.03284381 -0.055758089 0.80200005 5.5388704e-40
-0.031316184 -0.055758081 0.80200005 4.6169141e-40
-0.029862858 -0.055897154 0.80400002 3.6949578e-40
-0.028331421 -0.055897128 0.80399996 3.6913845e-40
-0.026866661 -0.056036174 0.80600005 5.5280944e-40
-0.025331426 -0.056036182 0.80600005 7.3648604e-40
-0.02379619 -0.056036189 0.80600005 5.5246192e-40
-0.022260956 -0.056036197 0.80600005 4.6062642e-40
-0.020777132 -0.056175217 0.80799997 4.6062502e-40
-0.019238103 -0.056175262 0.80800003 4.6062222e-40
-0.017655235 -0.056036182 0.80599999 4.6061802e-40
-0.01611999 -0.056036163 0.80600005 4.6061802e-40
-0.014584763 -0.056036193 0.80599999 3.6949998e-40
-0.013049519 -0.056036178 0.80600005 2.7730576e-40
-0.011542856 -0.056175239 0.80800003 2.7730576e-40
-0.010003802 -0.056175232 0.80799997 3.7021605e-40
-0.0084647592 -0.056175239 0.80799997 3.7021325e-40
-0.0069257068 -0.056175224 0.80799997 4.6204874e-40
-0.0053999964 -0.056314286 0.81 4.6169001e-40
-0.003857149 -0.056314304 0.81000006 4.6169141e-40
-0.0023085678 -0.056175239 0.80799997 4.6169281e-40
-0.00076951378 -0.056175224 0.80799997 3.6949718e-40
0.00076761784 -0.056036204 0.80600005 3.6913705e-40
0.0023028504 -0.056036204 0.80600005 3.6913845e-40
0.00383811 -0.056036156 0.80599999 3.6985732e-40
0.0053733457 -0.056036163 0.80599999 4.6242709e-40
0.0069085811 -0.056036167 0.80599999 3.6917348e-40
0.0084228609 -0.055897143 0.80399996 2.7732678e-40
0.0099542905 -0.055897146 0.80400002 3.6914966e-40
0.011428569 -0.055619054 0.79999995 4.6169842e-40
0.012920002 -0.055480003 0.79799998 4.6169281e-40
0.01444 -0.055480011 0.79800004 3.6985732e-40
0.015939996 -0.055410482 0.79700005 4.6205154e-40
0.017458094 -0.055410482 0.79700005 4.6241028e-40
0.031671435 -0.051378079 0.73900002 2.0374856e-38
-0.040120013 -0.04828003 0.71400005 6.4607987e-40
-0.038760014 -0.048280027 0.71400005 4.6133688e-40
-0.037347637 -0.048212409 0.71300006 4.6062502e-40
-0.040380958 -0.054095253 0.79999995 4.6133828e-40
-0.038857143 -0.054095242 0.79999995 4.6169281e-40
-0.037333339 -0.054095253 0.79999995 4.6133268e-40
-0.035809532 -0.054095261 0.80000001 7.3648043e-40
-0.034285717 -0.054095246 0.79999995 1.0127044e-39
-0.032761913 -0.054095253 0.79999995 7.3791676e-40
-0.0312381 -0.054095242 0.79999995 4.6169141e-40
-0.029788563 -0.054230455 0.80199999 4.6169001e-40
-0.028331432 -0.054365732 0.80400002 3.6949858e-40
-0.026866661 -0.054500945 0.80600005 7.361245e-40
-0.025331426 -0.054500952 0.80600005 1.0119925e-39
-0.023796178 -0.054500923 0.80599999 7.3613151e-40
-0.022260945 -0.05450093 0.80599999 4.6062502e-40
-0.020777134 -0.054636173 0.80799997 4.6062502e-40
-0.019238092 -0.054636184 0.80799997 3.6878812e-40
-0.017655235 -0.054500945 0.80600005 3.6878672e-40
-0.016159996 -0.054636188 0.80800003 2.7730716e-40
-0.014584765 -0.05450096 0.80600005 2.7838055e-40
-0.013049515 -0.054500934 0.80599999 2.7766449e-40
-0.011542859 -0.054636199 0.80800003 3.6878392e-40
-0.010003805 -0.054636184 0.80800003 3.6985732e-40
-0.0084647611 -0.054636192 0.80799997 3.7093071e-40
-0.0069257086 -0.05463618 0.80799997 3.7093071e-40
-0.0053999983 -0.054771423 0.81 4.6169001e-40
-0.0038571509 -0.054771446 0.81 4.6169141e-40
-0.002308571 -0.054636192 0.80799997 4.6240888e-40
-0.00076951657 -0.05463618 0.80799997 3.6949718e-40
0.00076952239 -0.054636195 0.80800003 3.6913705e-40
0.0023085692 -0.054636203 0.80799997 3.6913845e-40
0.0038476211 -0.054636188 0.80799997 4.6169141e-40
0.005373335 -0.054500952 0.80599999 4.6134109e-40
0.0069085695 -0.054500956 0.80599999 4.6063203e-40
0.0084228581 -0.054365717 0.80400002 3.6915106e-40
0.0099295285 -0.054230474 0.80200005 4.6134109e-40
0.011428568 -0.05409525 0.79999995 4.6133828e-40
0.012952382 -0.054095235 0.79999995 3.6914265e-40
0.014439998 -0.053960003 0.79799998 2.7838055e-40
0.030263806 -0.049970493 0.73900002 2.037415e-38
0.031671435 -0.049970463 0.73899996 2.083154e-38
0.032989521 -0.049835242 0.73699999 2.1298993e-38
-0.040232386 -0.047051452 0.71600002 6.45361e-40
-0.03876001 -0.046920024 0.71399999 6.4464774e-40
-0.037347633 -0.046854302 0.71300006 5.5317378e-40
-0.035888575 -0.046722874 0.71100003 5.5317098e-40
-0.038857147 -0.052571435 0.79999995 4.6133268e-40
-0.037333343 -0.052571446 0.80000001 4.6133268e-40
-0.035809521 -0.052571423 0.79999995 6.4500367e-40
-0.034285717 -0.052571438 0.79999995 8.2867466e-40
-0.032843813 -0.052702852 0.80199999 5.5352691e-40
-0.0312381 -0.052571431 0.80000001 3.6913845e-40
-0.029937144 -0.052965719 0.80600005 3.6985451e-40
-0.028401898 -0.052965693 0.80599999 3.6949998e-40
-0.02686666 -0.052965708 0.80599999 5.5353251e-40
-0.025331426 -0.052965708 0.80599999 7.3756364e-40
-0.023855241 -0.053097155 0.80800003 5.5353391e-40
-0.022316188 -0.053097144 0.80800003 4.6098235e-40
-0.020777134 -0.053097129 0.80799997 4.6062502e-40
-0.019238092 -0.053097136 0.80799997 3.6843079e-40
-0.017699037 -0.053097121 0.80799997 4.6062502e-40
-0.016159998 -0.053097144 0.80800003 5.5281505e-40
-0.014620952 -0.053097151 0.80799997 7.3683917e-40
-0.0130819 -0.053097136 0.80799997 9.2087169e-40
-0.011542846 -0.053097121 0.80799997 6.4500787e-40
-0.010003805 -0.053097136 0.80800003 4.6169281e-40
-0.0084647611 -0.053097144 0.80799997 3.7093071e-40
-0.0069257086 -0.053097136 0.80799997 3.7200691e-40
-0.0053999983 -0.053228572 0.81 3.7021325e-40
-0.0038571509 -0.053228591 0.81 4.6097254e-40
-0.0023142921 -0.053228587 0.81000006 3.6949578e-40
-0.00077143044 -0.053228579 0.81 3.6877832e-40
0.00076953683 -0.053097121 0.80799997 3.6877832e-40
0.0023085761 -0.053097136 0.80800003 3.6877832e-40
0.0038476198 -0.053097144 0.80799997 4.6097254e-40
0.005373334 -0.052965719 0.80600005 4.6097254e-40
0.0068914294 -0.052834295 0.80400002 4.6097254e-40
0.0084228599 -0.052834287 0.80399996 3.6913985e-40
0.0099295266 -0.052702855 0.80200005 5.5281365e-40
0.011428567 -0.052571442 0.79999995 6.4465054e-40
0.01295238 -0.052571427 0.79999995 4.6133828e-40
0.030263815 -0.048562866 0.73900002 2.0377754e-38
0.03167142 -0.048562892 0.73900002 2.1389745e-38
0.032989528 -0.048431423 0.73700005 2.2407484e-38
-0.041828584 -0.045942895 0.72000003 4.6205014e-40
-0.040288582 -0.045751452 0.71700001 6.4464494e-40
-0.038868569 -0.045687608 0.71600002 8.2867747e-40
-0.037400004 -0.04556001 0.71400005 7.3791957e-40
-0.03598953 -0.04549621 0.71300006 5.5353251e-40
-0.038954288 -0.051175244 0.80200005 4.6097955e-40
-0.037426665 -0.051175237 0.80199999 3.6914125e-40
-0.035988569 -0.051302858 0.80399996 4.6169281e-40
-0.03445714 -0.05130285 0.80399996 5.5353111e-40
-0.032925714 -0.05130285 0.80399996 4.6241728e-40
-0.031472366 -0.051430453 0.80599999 2.7838335e-40
-0.029937137 -0.05143046 0.80599999 2.7873788e-40
-0.0284019 -0.051430464 0.80600005 2.7838756e-40
-0.026866663 -0.051430471 0.80600005 3.7058879e-40
-0.025331426 -0.051430479 0.80600005 3.7058319e-40
-0.023855232 -0.051558077 0.80799997 4.6277181e-40
-0.022316188 -0.0515581 0.80800003 4.6133688e-40
-0.020777147 -0.051558107 0.80799997 4.6061942e-40
-0.019238094 -0.051558092 0.80799997 3.6914686e-40
-0.017699039 -0.051558077 0.80799997 5.5246472e-40
-0.01616 -0.051558096 0.80800003 7.3648744e-40
-0.014620954 -0.051558107 0.80799997 1.1956593e-39
-0.013114278 -0.051685698 0.81 1.5640845e-39
-0.01157143 -0.051685721 0.81 1.0127198e-39
-0.010028579 -0.051685739 0.81000006 4.6205715e-40
-0.0084857102 -0.051685706 0.81 4.6276621e-40
-0.0069428599 -0.051685724 0.81 3.7057198e-40
-0.0054133302 -0.051813331 0.81200004 3.6949578e-40
-0.0038666634 -0.051813331 0.81200004 3.6913705e-40
-0.0023142926 -0.051685736 0.81000006 3.6913845e-40
-0.00077143044 -0.051685721 0.81 2.7694842e-40
0.00076953403 -0.051558074 0.80799997 3.6878953e-40
0.002308564 -0.051558115 0.80800003 3.6878532e-40
0.0038381077 -0.051430449 0.80599999 4.6097535e-40
0.0053733434 -0.051430456 0.80599999 4.6133408e-40
0.0068914271 -0.051302865 0.80399996 4.6169281e-40
0.0084228702 -0.051302835 0.80399996 3.6914405e-40
0.0099295275 -0.051175233 0.80199999 6.4429461e-40
0.01145715 -0.051175229 0.80199999 8.2832434e-40
0.012952381 -0.051047623 0.79999995 4.6062502e-40
0.019799992 -0.049133349 0.77000004 8.2975927e-40
0.021211432 -0.049005717 0.76799995 9.2160177e-40
0.022674285 -0.049005721 0.76799995 1.0130729e-39
0.030181905 -0.047027625 0.73700005 2.0376323e-38
0.031585712 -0.047027621 0.73700005 2.1942208e-38
0.032989524 -0.047027618 0.73700005 2.3416248e-38
0.034346666 -0.046963818 0.736 2.341769e-38
-0.043200009 -0.044571444 0.72000003 3.7057478e-40
-0.041770488 -0.044509534 0.71900004 4.6241028e-40
-0.040288575 -0.044385724 0.71700001 6.453638e-40
-0.038868576 -0.044323821 0.71600002 9.2015423e-40
-0.037400018 -0.04420004 0.71400005 7.372007e-40
-0.035989538 -0.044138126 0.71300006 6.4572814e-40
-0.034631439 -0.044138111 0.71300006 5.5282065e-40
-0.037613325 -0.04989522 0.80599999 4.6026349e-40
-0.036078088 -0.04989522 0.80599999 4.6133408e-40
-0.034542855 -0.049895231 0.80599999 5.5353531e-40
-0.033007618 -0.049895238 0.80599999 4.6206556e-40
-0.03147237 -0.04989522 0.80600005 2.7910502e-40
-0.030011423 -0.050019037 0.80799997 2.7838055e-40
-0.028472383 -0.050019056 0.80800003 3.7058739e-40
-0.026933329 -0.050019041 0.80800003 4.6171663e-40
-0.025394283 -0.050019048 0.80799997 5.5389965e-40
-0.023855232 -0.050019033 0.80799997 4.6169281e-40
-0.022316176 -0.050019022 0.80799997 4.6097395e-40
-0.020828579 -0.050142881 0.81000006 5.5316677e-40
-0.019285718 -0.050142869 0.81 6.4644701e-40
-0.017699039 -0.050019033 0.80799997 7.3721471e-40
-0.01616 -0.050019048 0.80800003 8.2868447e-40
-0.014620955 -0.050019059 0.80799997 1.0130659e-39
-0.01311429 -0.050142873 0.81000006 1.2896598e-39
-0.01157143 -0.050142862 0.81 9.2161158e-40
-0.010028578 -0.050142884 0.81 6.4609248e-40
-0.0084857084 -0.050142851 0.81 5.5388424e-40
-0.006959998 -0.050266661 0.81199998 4.6169001e-40
-0.005413332 -0.050266661 0.81199998 3.6949578e-40
-0.0038666648 -0.050266664 0.81199998 3.6913845e-40
-0.0023199997 -0.050266664 0.81199998 3.6913845e-40
-0.00077333266 -0.050266668 0.81199998 3.6879093e-40
0.00076953403 -0.050019026 0.80799997 3.6880074e-40
0.0023085785 -0.050019041 0.80799997 3.6879233e-40
0.003838096 -0.049895238 0.80599999 4.6097815e-40
0.005373341 -0.04989522 0.80600005 5.5353111e-40
0.0068914369 -0.049771409 0.80399996 5.5317238e-40
0.0084019136 -0.049647599 0.80199999 5.5281785e-40
0.0099047609 -0.049523816 0.79999995 6.4465755e-40
0.011428565 -0.049523823 0.79999995 7.3685178e-40
0.019800004 -0.047666654 0.77000004 8.3012361e-40
0.021183804 -0.047480963 0.76700002 1.1056357e-39
0.022644769 -0.047480941 0.76699996 1.2900171e-39
0.024042863 -0.047357131 0.76500005 7.3612731e-40
0.02543333 -0.047233343 0.76299995 9.2307734e-41
0.02688667 -0.047233332 0.76299995 6.8236677e-39
0.030263817 -0.045747608 0.73899996 2.0835146e-38
0.031585708 -0.045623824 0.73700005 2.2127688e-38
0.032989517 -0.045623817 0.73700005 2.341769e-38
-0.044571441 -0.043200027 0.72000003 4.6171523e-40
-0.04320002 -0.043200038 0.72000003 4.6097955e-40
-0.041770488 -0.043140024 0.71900004 3.6950559e-40
-0.040288579 -0.043020014 0.71700001 6.4537221e-40
-0.038868576 -0.04296001 0.71600002 9.2015983e-40
-0.03750477 -0.04296001 0.71600002 8.279642e-40
-0.036040008 -0.042840034 0.71400005 6.4465475e-40
-0.034631431 -0.042779997 0.71300006 5.5282205e-40
-0.037613325 -0.048359983 0.80599999 4.6133828e-40
-0.036078095 -0.04835999 0.80600005 5.5388564e-40
-0.034542855 -0.048359998 0.80600005 5.5388984e-40
-0.033007618 -0.048360001 0.80600005 4.6169982e-40
-0.031550478 -0.048480004 0.80799997 2.7802883e-40
-0.030011425 -0.048479989 0.80799997 3.6914546e-40
-0.028472371 -0.048479982 0.80799997 3.6914826e-40
-0.026933331 -0.048479997 0.80800003 5.5210459e-40
-0.025394287 -0.048480004 0.80799997 7.3649305e-40
-0.023855232 -0.048479989 0.80799997 5.5210459e-40
-0.022316178 -0.048479978 0.80799997 3.6914405e-40
-0.020828582 -0.048600022 0.81000006 6.4392607e-40
-0.01928572 -0.048600011 0.81 8.290376e-40
-0.017742861 -0.048600011 0.81 8.2940194e-40
-0.016199999 -0.048599999 0.81 8.2939913e-40
-0.01465714 -0.048599996 0.81 9.2194929e-40
-0.013114291 -0.048600018 0.81000006 9.2159616e-40
-0.011571432 -0.048600003 0.81 8.2976627e-40
-0.010028571 -0.048600003 0.81000006 7.3720491e-40
-0.0084857102 -0.048599996 0.81 6.453624e-40
-0.0069428617 -0.048600011 0.81 4.6133128e-40
-0.0054133218 -0.048719972 0.81199998 4.6097254e-40
-0.0038666551 -0.048719972 0.81199998 3.6913705e-40
-0.002319989 -0.048719972 0.81199998 3.6877972e-40
-0.00077143509 -0.048600018 0.81000006 3.6878392e-40
0.0007695317 -0.048479985 0.80799997 3.6878953e-40
0.0023028573 -0.048359998 0.80600005 3.6878532e-40
0.0038380965 -0.048360005 0.80600005 5.5209478e-40
0.0053600078 -0.048239984 0.80399996 6.4429041e-40
0.0068742908 -0.048119992 0.80199999 6.4393448e-40
0.008380956 -0.047999997 0.79999995 6.4430162e-40
0.0098800007 -0.047880001 0.79800004 6.4466876e-40
0.011399999 -0.047880005 0.79799998 6.4501908e-40
0.018333331 -0.046200003 0.76999998 6.4465054e-40
0.019748563 -0.046080031 0.76800001 8.2940474e-40
0.021183813 -0.046020001 0.76699996 1.1967537e-39
0.022644753 -0.04602002 0.76699996 1.5640887e-39
0.023917146 -0.045659989 0.76099998 8.268852e-40
0.02536666 -0.045660015 0.76100004 9.9119446e-41
0.02681618 -0.045660026 0.76100004 7.006973e-39
0.030181896 -0.044220023 0.73700005 2.1298274e-38
0.031585705 -0.044220023 0.73700005 2.24075e-38
0.032989517 -0.044220023 0.73700005 2.341769e-38
0.034393337 -0.044219997 0.73700005 2.341769e-38
-0.044571437 -0.041828588 0.72000003 6.4538622e-40
-0.043140009 -0.041770499 0.71900004 4.6098375e-40
-0.041654296 -0.041654307 0.71700001 3.6879373e-40
-0.040232379 -0.041596189 0.71600002 5.5246893e-40
-0.038868576 -0.041596204 0.71600008 7.3577838e-40
-0.037504766 -0.041596204 0.71600002 6.4429742e-40
-0.036040016 -0.041480031 0.71400005 5.5246332e-40
-0.034680013 -0.04148002 0.71400005 4.6134529e-40
-0.037706666 -0.046940967 0.80799997 4.6241448e-40
-0.036167614 -0.046940949 0.80799997 4.6204874e-40
-0.034628563 -0.046940938 0.80799997 5.5388564e-40
-0.033089522 -0.046940953 0.80800003 6.4572254e-40
-0.031550482 -0.04694096 0.80799997 8.2868167e-40
-0.030011427 -0.046940945 0.80799997 1.1988991e-39
-0.028472371 -0.046940938 0.80799997 1.5626468e-39
-0.026933331 -0.046940949 0.80800003 2.2101518e-39
-0.025394287 -0.04694096 0.80799997 2.8483493e-39
-0.023855234 -0.046940945 0.80799997 2.1179814e-39
-0.02231618 -0.04694093 0.80799997 1.3800576e-39
-0.020828582 -0.047057167 0.81 1.1981676e-39
-0.019285711 -0.047057133 0.81 1.0127044e-39
-0.017742861 -0.047057152 0.81 8.2975226e-40
-0.016200013 -0.047057174 0.81000006 7.3791817e-40
-0.014657142 -0.047057137 0.81 6.4536661e-40
-0.013114294 -0.047057159 0.81 5.5317238e-40
-0.011571422 -0.047057126 0.81 5.5317238e-40
-0.010028573 -0.047057144 0.81 5.5245351e-40
-0.0084857242 -0.047057167 0.81000006 3.6877972e-40
-0.0069428529 -0.047057133 0.81 2.7658549e-40
-0.0054000034 -0.047057152 0.81 2.7694282e-40
-0.0038571425 -0.047057144 0.81 3.6877832e-40
-0.0023142847 -0.047057141 0.81 3.6877832e-40
-0.00076952123 -0.046940953 0.80800003 3.6877832e-40
0.00076762063 -0.046824761 0.80600005 3.6913705e-40
0.0023028704 -0.046824731 0.80599999 3.6913845e-40
0.003838104 -0.046824738 0.80599999 5.5316817e-40
0.0053599947 -0.046708584 0.80400002 6.4429181e-40
0.0068914355 -0.046708558 0.80399996 6.4429601e-40
0.0083600022 -0.046360001 0.79799998 7.3614412e-40
0.0098800128 -0.046359979 0.79799998 6.4467857e-40
0.0114 -0.046360008 0.79799998 6.4430442e-40
0.014059993 -0.045140017 0.77699995 1.0134219e-39
0.015500005 -0.045023799 0.77499998 8.2903199e-40
0.016976193 -0.045023803 0.77499998 6.4500507e-40
0.018333327 -0.044733338 0.77000004 6.4500647e-40
0.019748561 -0.044617169 0.76800001 5.5389685e-40
0.021128573 -0.044442855 0.76500005 1.105277e-39
0.022526646 -0.044326704 0.76300001 1.6566403e-39
0.023917142 -0.044210479 0.76100004 9.1943676e-40
0.02536666 -0.044210482 0.76100004 9.2299326e-41
0.026146661 -0.043106671 0.74200004 7.6562716e-39
0.027559994 -0.043106683 0.74200004 1.5314187e-38
0.028973326 -0.043106675 0.74200004 1.8814394e-38
0.030263804 -0.042932399 0.73900002 2.2406402e-38
0.031671431 -0.04293238 0.73900002 2.2866318e-38
0.032989517 -0.042816196 0.73700005 2.341769e-38
-0.044571437 -0.040457152 0.72000003 8.2833134e-40
-0.043139998 -0.040400952 0.71900004 5.5174165e-40
-0.041944757 -0.040569514 0.72200006 2.765981e-40
-0.040569529 -0.040569544 0.72200006 3.684392e-40
-0.039031442 -0.040400974 0.71900004 4.6062923e-40
-0.03755714 -0.040288564 0.71700001 4.6062642e-40
-0.036191426 -0.040288582 0.71700001 4.6062642e-40
-0.039245717 -0.045401908 0.80800003 4.6062642e-40
-0.037706669 -0.04540192 0.80799997 3.6950559e-40
-0.036167618 -0.045401901 0.80799997 4.6133828e-40
-0.034628566 -0.045401894 0.80799997 4.6205855e-40
-0.033089522 -0.045401901 0.80799997 9.2267376e-40
-0.031550482 -0.045401916 0.80800003 1.2921709e-39
-0.030011429 -0.045401901 0.80799997 2.0354673e-39
-0.028472371 -0.045401886 0.80799997 2.6768991e-39
-0.02693332 -0.045401871 0.80799997 3.7850403e-39
-0.025394291 -0.045401916 0.80800003 4.8820356e-39
-0.023855237 -0.045401901 0.80799997 3.5995574e-39
-0.022316182 -0.045401886 0.80799997 2.3077718e-39
-0.020828582 -0.045514308 0.81 1.7556925e-39
-0.019238098 -0.045401912 0.80800003 1.1077979e-39
-0.017699044 -0.045401901 0.80799997 9.2266956e-40
-0.016159993 -0.045401886 0.80799997 6.4536661e-40
-0.014620947 -0.045401894 0.80799997 3.6878112e-40
-0.013081906 -0.045401908 0.80800003 9.3277432e-41
-0.011542853 -0.045401897 0.80800003 1.847556e-40
-0.010003809 -0.045401908 0.80799997 2.7658829e-40
-0.0084647555 -0.045401894 0.80799997 1.8475139e-40
-0.0069257161 -0.045401908 0.80800003 9.2914496e-41
-0.0054000043 -0.0455143 0.81 1.8438986e-40
-0.0038571556 -0.045514315 0.81000006 2.7658689e-40
-0.0023085636 -0.045401894 0.80799997 3.6842379e-40
-0.00076952355 -0.045401908 0.80800003 3.6878252e-40
0.00076762249 -0.045289516 0.80599999 3.6949858e-40
0.002302869 -0.045289502 0.80600005 3.6949858e-40
0.0038381035 -0.045289509 0.80600005 5.546045e-40
0.0053600064 -0.045177136 0.80399996 6.4500787e-40
0.0068914243 -0.045177162 0.80400002 7.3613011e-40
0.0083600003 -0.044840004 0.79800004 7.3649445e-40
0.0098800026 -0.044840004 0.79799998 6.4502469e-40
0.01261238 -0.043772388 0.77900004 9.197941e-40
0.014060009 -0.043659981 0.77699995 1.2878521e-39
0.015460006 -0.043435235 0.773 1.103821e-39
0.016910471 -0.043379053 0.77199996 8.2867747e-40
0.018285705 -0.043154303 0.76800001 5.5281645e-40
0.019748559 -0.04315431 0.76800001 2.7839597e-40
0.021128578 -0.0429857 0.76499999 1.0134485e-39
0.022526655 -0.042873364 0.76300001 1.7467017e-39
0.023979999 -0.042873342 0.76299995 9.1875153e-40
0.026146663 -0.041693337 0.74200004 8.3945457e-39
0.027559996 -0.041693352 0.74200004 1.6690656e-38
0.028973326 -0.041693341 0.74200004 2.0105493e-38
0.030263798 -0.041524787 0.73900002 2.3415887e-38
0.031671431 -0.041524768 0.73900002 2.341769e-38
0.032989509 -0.041412398 0.73700005 2.341769e-38
-0.044571448 -0.039085746 0.72000003 1.0112779e-39
-0.043140005 -0.039031439 0.71900004 6.4393308e-40
-0.042002872 -0.039248601 0.72300005 3.6843219e-40
-0.040400971 -0.039031465 0.71900004 3.6879653e-40
-0.039031431 -0.039031431 0.71899998 4.6062923e-40
-0.03755714 -0.038922869 0.71700001 4.6098375e-40
-0.03619143 -0.038922869 0.71700001 4.6062502e-40
-0.03482572 -0.038922876 0.71700001 3.6878953e-40
-0.033459999 -0.038922854 0.71700001 3.6843219e-40
-0.036257148 -0.043971442 0.81 4.6098516e-40
-0.034628566 -0.043862846 0.80799997 4.6134809e-40
-0.033089511 -0.043862831 0.80799997 6.4609949e-40
-0.031550482 -0.043862872 0.80800003 8.3084808e-40
-0.030011429 -0.043862857 0.80799997 1.3868833e-39
-0.028472373 -0.043862842 0.80799997 1.9461892e-39
-0.026933331 -0.043862853 0.80799997 2.5869273e-39
-0.025394287 -0.043862872 0.80800003 3.2344099e-39
-0.023855235 -0.043862857 0.80800003 2.4943141e-39
-0.022316182 -0.043862842 0.80799997 1.761456e-39
-0.020828573 -0.043971431 0.81 1.2940585e-39
-0.019238086 -0.043862838 0.80799997 8.3124605e-40
-0.017699044 -0.043862853 0.80800003 7.3756784e-40
-0.016200002 -0.043971438 0.81000006 5.5245631e-40
-0.014620948 -0.043862849 0.80799997 3.6877832e-40
-0.013081894 -0.043862835 0.80799997 2.7622956e-40
-0.011542853 -0.043862853 0.80800003 2.7659249e-40
-0.01000381 -0.043862864 0.80799997 3.6842519e-40
-0.0084647564 -0.043862849 0.80799997 2.7694562e-40
-0.0069257035 -0.043862835 0.80799997 2.7694422e-40
-0.0054000029 -0.043971442 0.81 2.7658409e-40
-0.002308565 -0.043862849 0.80799997 4.6062222e-40
0.00076762016 -0.043754283 0.80600005 7.3648464e-40
0.011171421 -0.042451449 0.78200006 5.5424858e-40
0.012612387 -0.04228856 0.77899998 6.453624e-40
0.014060002 -0.042179991 0.77699995 8.2867466e-40
0.015459988 -0.041962892 0.77300006 7.371965e-40
0.016910469 -0.041908581 0.77200001 7.3756084e-40
0.018285705 -0.041691452 0.76799995 6.4573094e-40
0.019748563 -0.041691452 0.76800001 4.6279003e-40
0.021128563 -0.041528594 0.76500005 7.368728e-40
0.022585709 -0.041528586 0.76500005 1.0106024e-39
0.023508571 -0.040605716 0.74800003 5.5144177e-40
0.027559996 -0.040280014 0.74200004 1.8999469e-38
0.028973328 -0.040280007 0.74200004 2.1209692e-38
0.030263802 -0.040117159 0.73900002 2.341769e-38
0.031671435 -0.040117137 0.73900002 2.341769e-38
0.032989524 -0.040008567 0.73699999 2.341769e-38
-0.044571444 -0.037714317 0.72000003 1.1034791e-39
-0.043140009 -0.037661925 0.71900004 7.3649725e-40
-0.042002864 -0.037871443 0.72300005 3.6915526e-40
-0.040457152 -0.037714321 0.72000003 4.6063343e-40
-0.039031435 -0.037661914 0.71900004 4.6098516e-40
-0.03766191 -0.037661929 0.71900004 4.6133688e-40
-0.036292382 -0.037661925 0.71900004 3.6878812e-40
-0.034922868 -0.037661932 0.71900004 3.6879373e-40
-0.037986666 -0.042638093 0.81399995 3.6879373e-40
-0.036346659 -0.042533308 0.81199998 4.6063063e-40
-0.034714289 -0.042428583 0.81000006 4.6098656e-40
-0.033089526 -0.042323805 0.80799997 4.6062502e-40
-0.031550471 -0.042323794 0.80799997 3.6915526e-40
-0.030011429 -0.042323813 0.80800003 7.3542806e-40
-0.028472375 -0.042323798 0.80799997 1.1081763e-39
-0.026866669 -0.04221905 0.80600005 1.2900788e-39
-0.025331423 -0.042219035 0.80600005 1.4769602e-39
-0.023855239 -0.042323813 0.80800003 1.2900438e-39
-0.022316184 -0.042323798 0.80800003 1.1078231e-39
-0.02077714 -0.042323805 0.80799997 8.2802866e-40
-0.019238088 -0.04232379 0.80799997 5.5320881e-40
-0.017699046 -0.042323809 0.80800003 5.5246192e-40
-0.016159995 -0.042323798 0.80800003 4.6062222e-40
-0.01462095 -0.042323805 0.80799997 4.6061942e-40
-0.013081897 -0.04232379 0.80799997 3.6842939e-40
-0.011542857 -0.042323805 0.80800003 3.684336e-40
-0.0099790394 -0.042219032 0.80599999 3.6915246e-40
-0.0084438035 -0.042219039 0.80599999 3.6987133e-40
-0.0069085676 -0.042219043 0.80599999 3.6914686e-40
-0.0053733219 -0.042219028 0.80600005 3.6878112e-40
-0.0038380877 -0.042219032 0.80600005 3.6878392e-40
0.011128577 -0.040804747 0.77899998 4.6241448e-40
0.012612392 -0.04080474 0.77899998 3.7093772e-40
0.01406 -0.040700007 0.77700001 2.7874349e-40
0.015439994 -0.040438116 0.77199996 4.6241588e-40
0.016866671 -0.040333327 0.76999998 6.4609248e-40
0.018285709 -0.040228594 0.76799995 6.4609808e-40
0.019722862 -0.040176183 0.76699996 6.4646382e-40
0.021073325 -0.039966684 0.76300001 4.6100758e-40
0.022526667 -0.039966665 0.76299995 2.762758e-40
0.023508577 -0.039180949 0.74799997 1.8409699e-40
0.024933327 -0.039180964 0.74800003 1.059788e-40
0.02632286 -0.039128572 0.74699998 1.0706607e-38
0.027597144 -0.038919054 0.74300003 2.1201741e-38
0.02897333 -0.038866673 0.74200004 2.2315664e-38
0.030263808 -0.038709544 0.73900002 2.341769e-38
0.031671427 -0.038709529 0.73899996 2.341769e-38
0.032989528 -0.038604748 0.73700005 2.341769e-38
