# .PCD v0.7 - Point Cloud Data file format
VERSION 0.7
FIELDS x y z rgb
SIZE 4 4 4 4
TYPE F F F F
COUNT 1 1 1 1
WIDTH 957
HEIGHT 1
VIEWPOINT 0 0 0 1 0 0 0
POINTS 957
DATA ascii
0.02062287 -0.063396215 0.80200005 6.4464914e-40
0.022205722 -0.063554302 0.80400002 5.5281224e-40
0.023737147 -0.063554294 0.80400002 3.6914125e-40
0.025268581 -0.063554302 0.80400002 3.6878392e-40
0.026800007 -0.063554294 0.80400002 3.6878953e-40
0.028331425 -0.063554272 0.80400002 4.6063203e-40
0.02986286 -0.063554287 0.80400002 5.5317798e-40
0.031394284 -0.06355428 0.80400002 5.5353111e-40
0.032925721 -0.063554294 0.80400002 5.5317518e-40
0.034457143 -0.063554287 0.80400002 7.3613151e-40
0.035899058 -0.063396201 0.80200005 9.2016684e-40
0.037426673 -0.063396201 0.80200005 7.3721892e-40
0.039051436 -0.063554302 0.80400002 4.6098375e-40
0.040582858 -0.063554287 0.80399996 4.6025648e-40
0.04211428 -0.063554272 0.80400002 3.6913845e-40
0.043645721 -0.063554287 0.80400002 5.5352691e-40
0.045064766 -0.063396201 0.80200005 6.4572113e-40
0.046592388 -0.063396193 0.80200005 6.4608127e-40
0.048240006 -0.06355428 0.80400002 6.4572674e-40
0.049647633 -0.063396215 0.80200005 9.208787e-40
0.051302865 -0.063554309 0.80400002 1.1052742e-39
0.052702874 -0.063396223 0.80200005 1.2889536e-39
0.054230496 -0.063396215 0.80200005 1.3811352e-39
0.055758096 -0.063396186 0.80200005 8.290348e-40
0.057428576 -0.063554287 0.80400002 1.8481025e-40
0.058959998 -0.063554272 0.80400002 1.8415304e-40
-0.00076000451 -0.06155999 0.79800004 3.6986712e-40
0.0007599917 -0.061559983 0.79799998 5.5354372e-40
0.0022800029 -0.061560009 0.79800004 7.3720771e-40
0.0037999991 -0.061559997 0.79800004 6.4500647e-40
0.0053333421 -0.06171431 0.80000001 4.6062082e-40
0.0068742908 -0.061868586 0.80200005 3.6914546e-40
0.0084228581 -0.062022854 0.80400002 2.7802462e-40
0.0099542895 -0.062022865 0.80400002 2.7802042e-40
0.011514271 -0.062177114 0.80599999 2.7730435e-40
0.013017148 -0.062022869 0.80400002 3.6949998e-40
0.014548573 -0.062022857 0.80400002 4.6241168e-40
0.016080009 -0.062022872 0.80400002 4.6169281e-40
0.017611442 -0.062022883 0.80400002 3.6950139e-40
0.019142866 -0.062022872 0.80400002 4.6133968e-40
0.020622868 -0.061868601 0.80200005 6.4429181e-40
0.02220571 -0.06202285 0.80400002 5.5281365e-40
0.023737147 -0.062022865 0.80400002 4.6097815e-40
0.025268571 -0.062022857 0.80400002 5.5281365e-40
0.026800003 -0.062022869 0.80400002 6.4465335e-40
0.028331438 -0.06202288 0.80400002 5.5282065e-40
0.029862866 -0.062022872 0.80400002 5.5245772e-40
0.031394299 -0.062022883 0.80400002 5.5352831e-40
0.032925721 -0.062022872 0.80400002 5.5424577e-40
0.034457155 -0.062022887 0.80400002 6.4500507e-40
0.035988566 -0.062022842 0.80400002 7.3612591e-40
0.037520003 -0.062022861 0.80400002 5.5317518e-40
0.039051436 -0.062022872 0.80400002 4.6133688e-40
0.040582862 -0.062022865 0.80400002 4.6097395e-40
0.04211428 -0.062022857 0.80400002 4.6097395e-40
0.043645721 -0.062022865 0.80400002 5.5388424e-40
0.045177154 -0.06202288 0.80400002 7.382741e-40
0.046708576 -0.062022872 0.80400002 7.382755e-40
0.048239999 -0.062022854 0.80400002 7.382783e-40
0.049771439 -0.062022865 0.80400002 9.2195069e-40
0.051302858 -0.062022857 0.80400002 1.1059888e-39
0.052834287 -0.062022846 0.80400002 1.1978313e-39
0.054230481 -0.061868578 0.80200005 1.2892997e-39
0.05589715 -0.062022872 0.80400002 8.2939493e-40
0.05742858 -0.062022865 0.80400002 2.7662332e-40
0.058813337 -0.061868578 0.80200005 1.8769272e-40
0.060340952 -0.061868571 0.80200005 1.9715709e-40
-0.011640958 -0.054096192 0.71900004 3.6914125e-40
-0.010271428 -0.054096192 0.71899998 3.6913845e-40
-0.0089018987 -0.054096211 0.71900004 2.7730155e-40
-0.00076000218 -0.060039997 0.79800004 2.7804144e-40
0.00075999403 -0.060039993 0.79800004 4.6208658e-40
0.0022799927 -0.06003999 0.79800004 6.4538482e-40
0.0038095205 -0.060190476 0.80000001 5.5317798e-40
0.005346674 -0.060340971 0.80200005 4.6098095e-40
0.006891435 -0.060491443 0.80400002 2.7730716e-40
0.008422859 -0.060491435 0.80400002 9.3993496e-41
0.0099542923 -0.060491443 0.80400002 1.8582899e-40
0.011514274 -0.060641877 0.80599999 1.8582759e-40
0.013049525 -0.060641907 0.80600005 3.6985732e-40
0.014584754 -0.060641881 0.80599999 4.6169141e-40
0.016079998 -0.06049142 0.80400002 3.6949718e-40
0.017611431 -0.060491435 0.80400002 2.7767149e-40
0.019142857 -0.060491428 0.80400002 4.613537e-40
0.02067429 -0.060491443 0.80400002 5.5353812e-40
0.022205714 -0.060491432 0.80400002 5.5352831e-40
0.023737149 -0.060491443 0.80400002 4.6133548e-40
0.025268573 -0.060491435 0.80400002 6.4464774e-40
0.026799995 -0.060491413 0.80400002 8.2867887e-40
0.028331429 -0.060491432 0.80400002 6.4536801e-40
0.029862855 -0.06049142 0.80400002 4.6133548e-40
0.031394288 -0.060491435 0.80400002 4.6133408e-40
0.032925714 -0.060491424 0.80400002 4.6133408e-40
0.034457143 -0.060491435 0.80400002 4.6097675e-40
0.035988569 -0.060491428 0.80400002 4.6062082e-40
0.037520003 -0.060491439 0.80400002 4.6098235e-40
0.039051436 -0.06049145 0.80400002 4.6097815e-40
0.040582865 -0.060491443 0.80400002 4.6097395e-40
0.04211428 -0.060491428 0.80400002 4.6133128e-40
0.04364571 -0.060491417 0.80400002 6.4571973e-40
0.045177147 -0.060491428 0.80400002 7.3791536e-40
0.046708565 -0.06049142 0.80400002 7.3791536e-40
0.048240006 -0.060491435 0.80400002 7.382755e-40
0.049771439 -0.06049145 0.80400002 9.2266536e-40
0.051302865 -0.060491435 0.80400002 1.1063406e-39
0.052834298 -0.06049145 0.80400002 1.1988991e-39
0.054365728 -0.060491465 0.80400002 1.1978271e-39
0.055897143 -0.06049142 0.80400002 8.3013061e-40
0.057428572 -0.060491413 0.80400002 3.6952941e-40
0.058959998 -0.060491428 0.80400002 2.7591287e-40
0.060491435 -0.060491443 0.80400002 1.1320109e-40
-0.013028567 -0.052800022 0.72000003 5.5244931e-40
-0.011657136 -0.052800022 0.72000003 3.6913705e-40
-0.010271423 -0.052726682 0.71900004 3.6877832e-40
-0.008901909 -0.052726664 0.71900004 2.7694282e-40
-0.007542857 -0.052800007 0.72000003 2.7766028e-40
-0.0061628511 -0.052726686 0.71900004 1.8654225e-40
-0.0047933357 -0.052726664 0.71900004 1.8582479e-40
-0.00075999706 -0.058520004 0.79800004 2.7769392e-40
0.00076000008 -0.05852 0.79800004 3.6991197e-40
0.0022799987 -0.058519993 0.79800004 5.5392207e-40
0.0038095252 -0.058666673 0.80000001 8.2940754e-40
0.0053466675 -0.058813334 0.80200005 1.0119953e-39
0.0068742977 -0.058813356 0.80200005 6.4464494e-40
0.008422859 -0.058960006 0.80400002 2.7802322e-40
0.0099790357 -0.059106637 0.80599999 2.7766589e-40
0.011514277 -0.059106644 0.80600005 2.7694562e-40
0.013049514 -0.059106644 0.80599999 4.6133128e-40
0.014584756 -0.059106652 0.80600005 6.4500227e-40
0.016080011 -0.058960028 0.80400002 5.5316677e-40
0.017611435 -0.058960017 0.80400002 4.6170823e-40
0.01914287 -0.058960028 0.80400002 5.54278e-40
0.020674292 -0.058960021 0.80400002 7.3793218e-40
0.022205714 -0.058960006 0.80400002 5.5352551e-40
0.02373714 -0.058959994 0.80400002 3.6913845e-40
0.025268573 -0.058960006 0.80400002 4.6133408e-40
0.026800007 -0.058960021 0.80400002 6.4464494e-40
0.0284019 -0.059106648 0.80599999 6.4500227e-40
0.029862868 -0.058960021 0.80400002 5.5352691e-40
0.031472377 -0.059106659 0.80599999 4.6133408e-40
0.032925725 -0.058960028 0.80400002 3.6878252e-40
0.034457136 -0.058959987 0.80400002 3.6878252e-40
0.035988569 -0.058959998 0.80400002 4.6026209e-40
0.037520006 -0.058960013 0.80400002 4.6062362e-40
0.039051428 -0.058960002 0.80400002 4.6097815e-40
0.040582862 -0.058960013 0.80400002 4.6133128e-40
0.042114288 -0.058960006 0.80400002 4.6169001e-40
0.043645721 -0.058960017 0.80400002 5.5352551e-40
0.045177151 -0.058960006 0.80400002 6.45361e-40
0.046708576 -0.058960021 0.80400002 7.371965e-40
0.048240013 -0.058960039 0.80400002 8.2903339e-40
0.049771428 -0.058959994 0.80400002 9.2194509e-40
0.051302865 -0.058960013 0.80400002 1.013782e-39
0.052834291 -0.058960002 0.80400002 1.0141421e-39
0.054365721 -0.058960013 0.80400002 1.1052784e-39
0.055897146 -0.058960006 0.80400002 9.2198292e-40
0.057428584 -0.058960017 0.80400002 8.3049635e-40
0.058960013 -0.058960028 0.80400002 4.6063203e-40
0.060491432 -0.058960021 0.80400002 9.2382003e-41
0.062022869 -0.058960006 0.80400008 1.0888961e-38
-0.013028558 -0.051428616 0.72000003 4.6061661e-40
-0.011689525 -0.051571429 0.72200006 3.6877972e-40
-0.010285706 -0.051428586 0.72000003 3.6842098e-40
-0.0090133371 -0.051999994 0.72800004 2.7694422e-40
-0.0076266676 -0.052000001 0.72799999 2.7730295e-40
-0.0061714305 -0.051428579 0.72000003 1.8582479e-40
-0.0047999974 -0.051428575 0.72000003 1.8582479e-40
-0.00342857 -0.051428583 0.72000003 9.3633362e-41
-0.00076189276 -0.057142891 0.80000001 1.8548567e-40
0.00076190184 -0.057142846 0.79999995 3.6988955e-40
0.0022800001 -0.057000007 0.79800004 4.6207116e-40
0.0038190503 -0.057285719 0.80200005 1.0141477e-39
0.0053466675 -0.057285719 0.80200005 1.5637216e-39
0.006891428 -0.057428572 0.80400002 1.0116296e-39
0.0084228637 -0.057428587 0.80400002 3.6949998e-40
0.0099790357 -0.057571404 0.80599999 3.6950139e-40
0.011514277 -0.057571411 0.80600005 3.6914686e-40
0.013049515 -0.057571411 0.80599999 6.4465755e-40
0.014584744 -0.057571389 0.80599999 8.2868027e-40
0.016119994 -0.057571419 0.80599999 7.3683917e-40
0.017655224 -0.057571393 0.80599999 6.4573094e-40
0.019142861 -0.057428576 0.80400002 7.3900978e-40
0.020674294 -0.057428591 0.80400002 8.2976067e-40
0.022205718 -0.057428584 0.80400002 5.5316958e-40
0.023737153 -0.057428595 0.80400002 1.8582759e-40
0.025331423 -0.057571415 0.80600005 3.6985732e-40
0.026800012 -0.057428602 0.80400002 4.6133268e-40
0.028401902 -0.057571419 0.80600005 5.5244931e-40
0.029862858 -0.057428576 0.80400002 6.4500507e-40
0.031472363 -0.057571396 0.80599999 4.6097675e-40
0.032925718 -0.057428576 0.80400002 2.7730576e-40
0.034457147 -0.057428587 0.80400002 3.6878252e-40
0.035988577 -0.057428576 0.80400002 3.6878392e-40
0.037613325 -0.057571411 0.80599999 3.6878532e-40
0.039148565 -0.057571415 0.80599999 3.6949998e-40
0.040683806 -0.057571415 0.80599999 3.6985591e-40
0.042114288 -0.057428576 0.80399996 3.6985591e-40
0.043645713 -0.057428569 0.80400002 4.6133128e-40
0.045177151 -0.057428584 0.80400002 4.6169141e-40
0.046708569 -0.057428569 0.80400002 6.4464634e-40
0.048240006 -0.057428584 0.80400002 8.2939213e-40
0.049771436 -0.057428572 0.80400002 9.2194509e-40
0.051302869 -0.057428584 0.80400002 9.2230522e-40
0.052965712 -0.057571415 0.80599999 9.2194929e-40
0.054365724 -0.057428595 0.80400002 9.2196471e-40
0.055897161 -0.057428606 0.80400002 1.1052924e-39
0.057428572 -0.057428569 0.80400002 1.1971167e-39
0.058960006 -0.05742858 0.80400002 6.4322402e-40
0.060491424 -0.057428569 0.80400002 1.0384322e-40
0.062022865 -0.057428584 0.80400002 1.0148146e-38
0.063554294 -0.057428595 0.80400002 2.0098682e-38
-0.013028563 -0.050057173 0.72000003 3.6878252e-40
-0.011689528 -0.050196182 0.722 3.6878252e-40
-0.010285712 -0.050057158 0.72000003 2.7694562e-40
-0.0089885658 -0.050474301 0.72599995 2.7694562e-40
-0.0076057212 -0.050474267 0.72599995 2.7694422e-40
-0.0061714211 -0.050057169 0.72000003 2.7694422e-40
-0.004800004 -0.050057143 0.72000003 1.8546606e-40
-0.0034285709 -0.050057143 0.72000003 9.3990693e-41
-0.00076380384 -0.055758111 0.80199999 2.7659109e-40
0.00076571421 -0.055897146 0.80400002 3.6950699e-40
0.002297149 -0.055897158 0.80400002 4.6169702e-40
0.0038285824 -0.055897169 0.80400002 8.2939213e-40
0.0053600087 -0.055897161 0.80400002 1.1967355e-39
0.006908562 -0.056036167 0.80599999 9.2051296e-40
0.0084437998 -0.056036167 0.80599999 6.4464774e-40
0.0099790394 -0.056036174 0.80599999 5.5317098e-40
0.011542855 -0.056175236 0.80800003 4.6134669e-40
0.013081909 -0.056175254 0.80799997 5.5283466e-40
0.014584747 -0.056036152 0.80599999 6.4501768e-40
0.016119998 -0.056036182 0.80599999 5.5281084e-40
0.017655227 -0.056036163 0.80599999 5.5281224e-40
0.019190475 -0.056036193 0.80600005 1.0127072e-39
0.020725705 -0.056036167 0.80599999 1.4718847e-39
0.022260947 -0.056036174 0.80600005 9.2051296e-40
0.023796186 -0.056036174 0.80599999 3.6914125e-40
0.025394287 -0.056175239 0.80799997 4.6133408e-40
0.026933331 -0.056175236 0.80799997 5.5316817e-40
0.028472386 -0.056175247 0.80799997 6.4500227e-40
0.030011432 -0.056175239 0.80799997 6.4500507e-40
0.031550478 -0.056175239 0.80799997 5.5281365e-40
0.033007611 -0.056036167 0.80600005 3.6914125e-40
0.034542847 -0.056036167 0.80599999 3.6913985e-40
0.036078092 -0.056036174 0.80600005 4.6097675e-40
0.037613329 -0.056036174 0.80599999 4.6097675e-40
0.039148569 -0.056036182 0.80600005 4.6133548e-40
0.04068381 -0.056036182 0.80599999 3.6985732e-40
0.042219035 -0.056036159 0.80599999 3.6985591e-40
0.043754276 -0.056036159 0.80599999 4.6240747e-40
0.045289516 -0.056036159 0.80599999 6.4644e-40
0.046824753 -0.056036171 0.80599999 6.4572394e-40
0.048359994 -0.056036167 0.80599999 7.3791676e-40
0.049895234 -0.056036174 0.80600005 8.2975086e-40
0.051430471 -0.056036174 0.80599999 9.2266536e-40
0.052965712 -0.056036182 0.80600005 9.2230802e-40
0.054500941 -0.056036159 0.80599999 9.2232204e-40
0.055897146 -0.055897154 0.80400002 1.106007e-39
0.057428584 -0.055897169 0.80400002 1.2903843e-39
0.058960009 -0.055897161 0.80400002 7.3649024e-40
0.060491439 -0.055897176 0.80400002 9.234697e-41
0.062022865 -0.055897161 0.80400002 8.2984895e-39
0.06355428 -0.055897146 0.80400002 1.6615374e-38
0.06524761 -0.056036152 0.80599999 2.0018342e-38
0.066782854 -0.056036185 0.80599999 2.341769e-38
-0.013064777 -0.048820913 0.722 3.6878112e-40
-0.011754289 -0.049091421 0.72599995 2.7694983e-40
-0.010371425 -0.04909144 0.72599995 2.765953e-40
-0.009013338 -0.049226664 0.72800004 2.7694842e-40
-0.0076057231 -0.049091406 0.72599995 2.7694422e-40
-0.0061885696 -0.048820958 0.722 2.7730295e-40
-0.0048133451 -0.048820928 0.722 1.8474859e-40
-0.0034381002 -0.048820943 0.722 9.3630559e-41
-0.00076571677 -0.054365702 0.80400002 2.7730856e-40
0.00076571468 -0.054365717 0.80400002 3.6914966e-40
0.0022971393 -0.054365709 0.80400002 4.6134109e-40
0.0038285754 -0.054365721 0.80400002 6.4500928e-40
0.0053599989 -0.054365709 0.80400002 8.2905161e-40
0.0068914327 -0.054365724 0.80400002 8.2942436e-40
0.0084438007 -0.054500934 0.80599999 8.2869148e-40
0.0099790432 -0.054500941 0.80600005 6.4500507e-40
0.011542857 -0.054636188 0.80800003 4.6098095e-40
0.01308191 -0.05463621 0.80799997 4.6062923e-40
0.014620956 -0.054636203 0.80799997 3.6914546e-40
0.016120002 -0.054500952 0.80600005 4.6025648e-40
0.017655227 -0.05450093 0.80599999 4.6097535e-40
0.019190464 -0.05450093 0.80599999 1.2871361e-39
0.020725708 -0.054500937 0.80599999 2.0225389e-39
0.022260936 -0.054500908 0.80599999 1.2871375e-39
0.023796186 -0.054500937 0.80599999 4.6134109e-40
0.025394287 -0.054636195 0.80799997 5.5318219e-40
0.026933333 -0.054636188 0.80799997 6.4501208e-40
0.028472386 -0.054636206 0.80799997 6.4500647e-40
0.030011432 -0.054636195 0.80799997 6.4500647e-40
0.031550478 -0.054636192 0.80799997 5.5281365e-40
0.033007614 -0.054500937 0.80600005 4.6097535e-40
0.034542847 -0.054500937 0.80599999 4.6169141e-40
0.036078081 -0.054500915 0.80599999 4.6133408e-40
0.037613329 -0.054500945 0.80599999 5.5317238e-40
0.039148562 -0.054500919 0.80599999 5.5352971e-40
0.04068381 -0.054500945 0.80599999 4.6241028e-40
0.042219039 -0.054500923 0.80599999 2.7873928e-40
0.04375428 -0.05450093 0.80600005 5.5532057e-40
0.045289516 -0.054500934 0.80599999 8.301152e-40
0.046824757 -0.054500941 0.80600005 7.3756644e-40
0.048359998 -0.054500937 0.80599999 5.5389265e-40
0.049895234 -0.054500945 0.80600005 7.3648464e-40
0.051430475 -0.054500937 0.80599999 9.2159056e-40
0.052965704 -0.054500915 0.80599999 9.2159056e-40
0.054500945 -0.054500923 0.80599999 9.2231503e-40
0.055897139 -0.054365702 0.80400002 1.1974712e-39
0.057428576 -0.054365717 0.80400002 1.3822156e-39
0.058960002 -0.054365706 0.80400002 7.3613712e-40
0.060491428 -0.054365721 0.80400002 9.2674874e-41
0.062022869 -0.054365739 0.80400002 6.520906e-39
0.063554287 -0.054365728 0.80400002 1.3008646e-38
0.065085717 -0.054365717 0.80400002 1.8274902e-38
0.066617154 -0.054365732 0.80400002 2.341769e-38
-0.013119053 -0.047642849 0.72500002 3.6913845e-40
-0.011754284 -0.047708578 0.72599995 3.6842939e-40
-0.010400001 -0.047839999 0.72800004 4.6063203e-40
-0.0090133399 -0.047839984 0.72800004 5.5245912e-40
-0.0076266695 -0.047839992 0.72799999 3.6949718e-40
-0.0062399972 -0.047840007 0.72800004 2.7802042e-40
-0.0048600086 -0.047905698 0.72900003 2.7801902e-40
-0.0034714332 -0.047905698 0.72899997 1.8618352e-40
-0.0020828689 -0.047905684 0.72900003 2.7801902e-40
-0.00076571584 -0.052834284 0.80400002 2.7838476e-40
0.00076381059 -0.052702863 0.80200005 3.6986712e-40
0.0022971532 -0.052834313 0.80400002 3.6986712e-40
0.0038285777 -0.052834302 0.80400002 5.5317938e-40
0.0053600101 -0.052834317 0.80400002 7.368756e-40
0.0069085667 -0.052965701 0.80600005 1.1042414e-39
0.0084438026 -0.052965701 0.80599999 1.4711938e-39
0.009979032 -0.052965678 0.80599999 1.0119855e-39
0.011542859 -0.053097144 0.80799997 6.4428621e-40
0.013081903 -0.053097136 0.80800003 6.4464634e-40
0.014620958 -0.053097151 0.80799997 6.453624e-40
0.01611999 -0.052965693 0.80599999 4.6169001e-40
0.017655231 -0.052965701 0.80600005 3.7021465e-40
0.019190468 -0.052965693 0.80599999 9.2086889e-40
0.020725708 -0.052965701 0.80600005 1.4718833e-39
0.022260949 -0.052965701 0.80599999 9.2123043e-40
0.02379619 -0.052965708 0.80600005 4.6242289e-40
0.025394291 -0.053097151 0.80799997 5.5391086e-40
0.026933335 -0.053097144 0.80799997 6.4501908e-40
0.028472379 -0.053097136 0.80799997 7.3684477e-40
0.030011434 -0.053097151 0.80799997 8.2832013e-40
0.031550478 -0.053097144 0.80799997 5.5245351e-40
0.033007614 -0.052965693 0.80599999 2.7658689e-40
0.034542851 -0.052965708 0.80600005 3.6913705e-40
0.036078092 -0.052965701 0.80599999 4.6133408e-40
0.037613332 -0.052965708 0.80600005 4.6133688e-40
0.039148562 -0.052965686 0.80599999 5.5352971e-40
0.040683813 -0.052965716 0.80600005 4.6241028e-40
0.042219039 -0.052965693 0.80599999 3.7057478e-40
0.043754283 -0.052965697 0.80600005 6.4608127e-40
0.04528952 -0.052965701 0.80599999 1.0130729e-39
0.046824746 -0.052965678 0.80599999 8.2940894e-40
0.048360001 -0.052965701 0.80599999 7.3756924e-40
0.049895227 -0.052965678 0.80599999 8.2939913e-40
0.051430479 -0.052965708 0.80599999 1.0134275e-39
0.052965708 -0.052965686 0.80599999 8.3047113e-40
0.054500945 -0.052965693 0.80600005 6.4787773e-40
0.056036185 -0.052965693 0.80599999 1.0162973e-39
0.057428576 -0.052834295 0.80400002 1.3861588e-39
0.058960013 -0.05283431 0.80400002 7.3793638e-40
0.060491435 -0.052834302 0.80400002 9.2286714e-41
0.062022857 -0.052834287 0.80400002 6.8117721e-39
0.06355428 -0.052834272 0.80400002 1.3469944e-38
0.065085709 -0.052834287 0.80400002 1.8451399e-38
0.066617154 -0.052834298 0.80400002 2.341769e-38
-0.013137145 -0.04632571 0.72600001 3.6985591e-40
-0.011754289 -0.046325706 0.72599995 3.6914265e-40
-0.010399995 -0.046453342 0.72800004 5.5245912e-40
-0.0089885741 -0.046325702 0.72599995 7.3648464e-40
-0.0076057101 -0.046325725 0.72599995 5.5352691e-40
-0.0062228525 -0.046325721 0.72599995 2.7801902e-40
-0.0048400098 -0.046325691 0.72599995 2.7873648e-40
-0.0034571411 -0.04632571 0.72599995 2.7837775e-40
-0.0020742863 -0.046325717 0.72599995 2.7873648e-40
-0.00076570001 -0.051302884 0.80400002 2.7802182e-40
0.00076571002 -0.05130285 0.80400002 2.7802602e-40
0.0023028483 -0.051430456 0.80599999 2.7731136e-40
0.003838087 -0.051430456 0.80599999 4.6062642e-40
0.0053600026 -0.051302865 0.80400002 6.4466736e-40
0.0068914369 -0.05130288 0.80400002 1.3793639e-39
0.0084438045 -0.051430464 0.80599999 2.0218355e-39
0.0099790338 -0.051430441 0.80599999 1.4708057e-39
0.011542858 -0.0515581 0.80799997 8.2867466e-40
0.013081903 -0.051558092 0.80799997 8.2867606e-40
0.014584763 -0.051430479 0.80600005 8.2903339e-40
0.016119992 -0.051430456 0.80599999 5.5388424e-40
0.01765522 -0.051430434 0.80599999 2.7837915e-40
0.01919047 -0.051430464 0.80599999 5.546045e-40
0.020725699 -0.051430434 0.80599999 8.2975366e-40
0.022316189 -0.0515581 0.80799997 6.464428e-40
0.023855235 -0.051558089 0.80799997 3.7022586e-40
0.025457144 -0.051685721 0.81 4.6242849e-40
0.027000008 -0.051685728 0.81000006 5.5353812e-40
0.028472379 -0.051558092 0.80799997 7.3684337e-40
0.030011423 -0.051558085 0.80799997 9.2015563e-40
0.031550478 -0.0515581 0.80799997 5.5245351e-40
0.033007614 -0.051430464 0.80599999 9.327463e-41
0.03462857 -0.051558085 0.80799997 2.7730295e-40
0.036078095 -0.051430471 0.80599999 4.6133408e-40
0.037613321 -0.051430449 0.80599999 4.6133548e-40
0.039148565 -0.051430449 0.80599999 4.6169281e-40
0.040683802 -0.051430449 0.80599999 4.6240888e-40
0.042219039 -0.051430456 0.80600005 3.7021465e-40
0.043754268 -0.051430434 0.80599999 7.3648043e-40
0.045289524 -0.051430464 0.80600005 1.1045441e-39
0.04682475 -0.051430441 0.80599999 1.0127128e-39
0.048360001 -0.051430471 0.80600005 8.2939773e-40
0.049895227 -0.051430449 0.80599999 1.0130673e-39
0.051430479 -0.051430475 0.80600005 1.1052602e-39
0.052965708 -0.051430453 0.80599999 7.382755e-40
0.054500945 -0.051430464 0.80600005 2.8125321e-40
0.056036182 -0.051430464 0.80599999 8.3406406e-40
0.057571415 -0.051430438 0.80599999 1.2918094e-39
0.058960006 -0.051302861 0.80400002 7.3757064e-40
0.060491443 -0.051302873 0.80400002 9.3011186e-41
0.062022861 -0.051302865 0.80400002 6.9800372e-39
0.063554294 -0.051302876 0.80400002 1.3925185e-38
0.065085717 -0.051302869 0.80400002 1.873408e-38
-0.01313715 -0.044942837 0.72599995 3.6949578e-40
-0.011754293 -0.044942841 0.72599995 3.6913705e-40
-0.010371435 -0.044942841 0.72599995 4.6097254e-40
-0.0089885704 -0.044942863 0.72599995 5.5280804e-40
-0.0075952476 -0.044880934 0.72499996 4.6133128e-40
-0.0061971424 -0.04475715 0.72300005 2.7730155e-40
-0.0048400024 -0.044942848 0.72599995 2.7766028e-40
-0.0034571448 -0.044942856 0.72599995 2.7801902e-40
-0.0020742901 -0.044942856 0.72600001 2.7766028e-40
-0.00076571165 -0.049771436 0.80400002 2.7694282e-40
0.0007657212 -0.04977145 0.80400002 2.7694282e-40
0.0022971476 -0.049771439 0.80400002 2.7658969e-40
0.0038380898 -0.04989522 0.80599999 3.6878953e-40
0.0053600054 -0.049771443 0.80400002 5.5210179e-40
0.0068914271 -0.049771428 0.80400002 9.198025e-40
0.0084438082 -0.049895234 0.80600005 1.378617e-39
0.0099790357 -0.049895212 0.80599999 1.1041812e-39
0.011542859 -0.050019056 0.80799997 8.2939353e-40
0.013081905 -0.050019048 0.80799997 7.371993e-40
0.014584753 -0.04989522 0.80599999 7.371979e-40
0.016119994 -0.04989522 0.80599999 5.5388424e-40
0.017699048 -0.050019048 0.80799997 4.6169281e-40
0.019190472 -0.049895227 0.80600005 5.5388844e-40
0.020777147 -0.050019059 0.80799997 7.372021e-40
0.022316191 -0.050019048 0.80799997 5.5317238e-40
0.023855235 -0.050019048 0.80799997 3.6878812e-40
0.025457136 -0.050142843 0.81 5.5318079e-40
0.027066668 -0.050266661 0.81199998 7.3720631e-40
0.028613329 -0.050266657 0.81199998 7.372007e-40
0.030011427 -0.050019041 0.80799997 8.2796e-40
0.031550471 -0.050019033 0.80799997 5.5245351e-40
0.033089526 -0.050019048 0.80799997 2.7730576e-40
0.03462857 -0.050019041 0.80799997 4.6097535e-40
0.036078099 -0.049895234 0.80599999 6.4464634e-40
0.037613325 -0.049895212 0.80599999 6.4500507e-40
0.039148569 -0.04989522 0.80600005 6.453624e-40
0.040784761 -0.050019033 0.80799997 4.6204874e-40
0.042219043 -0.049895227 0.80600005 2.7801902e-40
0.043754272 -0.049895205 0.80599999 5.5352551e-40
0.045289513 -0.049895205 0.80599999 8.2974946e-40
0.04682475 -0.049895212 0.80599999 7.3755523e-40
0.048359994 -0.049895205 0.80599999 6.4572113e-40
0.049895234 -0.049895212 0.80600005 8.2939213e-40
0.051430471 -0.049895212 0.80599999 1.0134219e-39
0.052965712 -0.04989522 0.80600005 7.3899016e-40
0.054500937 -0.049895197 0.80599999 5.5747717e-40
0.056036189 -0.049895227 0.80600005 9.2446602e-40
0.057571415 -0.049895205 0.80599999 1.1985362e-39
0.058960009 -0.049771439 0.80400002 6.4536941e-40
0.060491439 -0.04977145 0.80400002 9.2299326e-41
0.062022865 -0.049771443 0.80400002 7.7341123e-39
0.06355428 -0.049771428 0.80400002 1.541501e-38
0.065085717 -0.049771443 0.80400002 1.93737e-38
-0.013137153 -0.043559983 0.72599995 3.6914405e-40
-0.011786678 -0.043679975 0.72799999 2.7730576e-40
-0.010371432 -0.043560002 0.72599995 3.6878112e-40
-0.0089885835 -0.043559968 0.72599995 3.6913845e-40
-0.0075742919 -0.043379992 0.72299999 3.6985591e-40
-0.0062142918 -0.043499984 0.72499996 2.7730155e-40
-0.0048333388 -0.043499984 0.72499996 2.7694282e-40
-0.0034571392 -0.043560006 0.72599995 2.7730155e-40
0.0022971388 -0.048239987 0.80400002 2.7658829e-40
0.0038380898 -0.04835999 0.80599999 3.6878532e-40
0.0053600068 -0.048240013 0.80400002 3.6842659e-40
0.0068914322 -0.048240006 0.80400002 5.5209758e-40
0.0084228655 -0.048240017 0.80400002 6.4464774e-40
0.0099790376 -0.048359983 0.80600005 7.3791676e-40
0.011542862 -0.048480012 0.80799997 7.3755803e-40
0.013081906 -0.048480004 0.80799997 7.371993e-40
0.014584756 -0.048359983 0.80599999 6.453638e-40
0.016119996 -0.04835999 0.80600005 6.4607987e-40
0.01769905 -0.048480004 0.80799997 5.5353952e-40
0.019238094 -0.048479997 0.80799997 6.4538622e-40
0.020828569 -0.048599992 0.81000006 6.4502049e-40
0.022371417 -0.048599973 0.81 5.5210038e-40
0.023914289 -0.048600003 0.81 3.6914686e-40
0.025519993 -0.048719972 0.81199998 6.4429461e-40
0.027066667 -0.048720002 0.81200004 8.29039e-40
0.028613333 -0.048719995 0.81200004 7.3791817e-40
0.030159999 -0.048719991 0.81200004 6.4500928e-40
0.031550471 -0.048479989 0.80799997 5.5246052e-40
0.033089526 -0.048480004 0.80799997 4.6097955e-40
0.03462857 -0.048479997 0.80799997 6.4428761e-40
0.036167614 -0.048479989 0.80799997 8.2867606e-40
0.037613325 -0.048359983 0.80599999 8.2831733e-40
0.039148554 -0.048359957 0.80599999 8.290348e-40
0.040784761 -0.048479993 0.80799997 5.5352691e-40
0.042219032 -0.048359964 0.80599999 1.8618492e-40
0.043754283 -0.04835999 0.80599999 3.6985451e-40
0.045289513 -0.048359968 0.80599999 4.6204874e-40
0.046824761 -0.048359998 0.80599999 4.6169141e-40
0.048359994 -0.048359975 0.80599999 3.6985732e-40
0.049895231 -0.048359983 0.80600005 6.4536521e-40
0.051430475 -0.048359983 0.80599999 8.2975226e-40
0.052965716 -0.04835999 0.80600005 8.3011099e-40
0.054500945 -0.04835999 0.80599999 8.311956e-40
0.056036178 -0.048359968 0.80599999 1.0152337e-39
0.057428576 -0.048239999 0.80400002 1.105986e-39
0.058960009 -0.048240013 0.80400002 6.4429041e-40
0.060491428 -0.048240002 0.80400002 9.268188e-41
0.062022865 -0.048240013 0.80400002 8.4494752e-39
0.063554287 -0.048240006 0.80400002 1.6778219e-38
0.064761914 -0.04800003 0.80000001 2.0111612e-38
0.066285729 -0.048000015 0.80000001 2.341769e-38
0.06780953 -0.047999997 0.79999995 2.341769e-38
-0.013137144 -0.042177133 0.72599995 4.6098516e-40
-0.011754287 -0.042177133 0.72599995 3.6914546e-40
-0.010371434 -0.04217713 0.72599995 3.6949998e-40
-0.0089761978 -0.042119026 0.72499996 3.6913985e-40
-0.00757429 -0.042002849 0.72299999 3.6913845e-40
-0.0061971517 -0.042002842 0.72299999 3.6913845e-40
-0.0048333472 -0.042119015 0.72499996 2.7694282e-40
0.0084228562 -0.046708569 0.80400002 3.6842239e-40
0.0099542886 -0.04670858 0.80400002 4.6133408e-40
0.01151428 -0.046824746 0.80599999 6.453638e-40
0.013049508 -0.046824723 0.80599999 6.4500507e-40
0.014584759 -0.046824753 0.80599999 6.4464634e-40
0.016119989 -0.046824727 0.80599999 6.4500507e-40
0.017699052 -0.04694096 0.80799997 7.3614552e-40
0.019238096 -0.046940953 0.80799997 8.287195e-40
0.020828569 -0.047057137 0.81 1.0120163e-39
0.02237143 -0.047057144 0.81000006 7.3685178e-40
0.023914279 -0.047057122 0.81 4.6169982e-40
0.025520004 -0.047173336 0.81199998 8.2939493e-40
0.027066667 -0.047173329 0.81199998 1.1052602e-39
0.028613333 -0.047173325 0.81199998 9.2158916e-40
0.030159999 -0.047173321 0.81199998 7.3756644e-40
0.031628571 -0.047057129 0.81 6.4537782e-40
0.03317143 -0.047057144 0.81 6.4537081e-40
0.034714293 -0.047057152 0.81000006 6.4572254e-40
0.036167618 -0.046940945 0.80799997 6.4608127e-40
0.037706666 -0.046940938 0.80799997 6.4572254e-40
0.039148562 -0.046824723 0.80599999 6.453638e-40
0.040784761 -0.046940945 0.80799997 4.6169281e-40
0.042219035 -0.046824731 0.80599999 3.7021465e-40
0.043754287 -0.046824761 0.80600005 4.6169001e-40
0.045289516 -0.046824735 0.80599999 5.5352691e-40
0.046824768 -0.046824764 0.80600005 4.6169141e-40
0.048359998 -0.046824738 0.80599999 4.6169421e-40
0.049895223 -0.046824716 0.80599999 6.4572534e-40
0.051430475 -0.04682475 0.80599999 9.2159056e-40
0.052965704 -0.046824723 0.80599999 9.2194789e-40
0.054500956 -0.046824753 0.80599999 9.2231923e-40
0.05589715 -0.046708584 0.80400002 1.1985544e-39
0.057428576 -0.046708576 0.80400002 1.4736895e-39
0.058960006 -0.046708591 0.80400002 7.3648043e-40
0.060491432 -0.046708584 0.80400002 9.234697e-41
0.062022857 -0.046708565 0.80400002 9.2975691e-39
0.063554287 -0.046708584 0.80400002 1.8453524e-38
0.064600006 -0.046359994 0.79800004 2.0937055e-38
0.066119999 -0.04635999 0.79799998 2.341769e-38
0.067640007 -0.046360016 0.79800004 2.341769e-38
-0.013137137 -0.040794294 0.72599995 5.5282205e-40
-0.011802864 -0.040962853 0.72900003 3.6950699e-40
-0.010414292 -0.040962856 0.72900003 3.7022305e-40
-0.0090257265 -0.040962838 0.72900003 2.7766589e-40
-0.0076371534 -0.040962841 0.72900003 3.6877972e-40
-0.0061971508 -0.040625706 0.72299999 3.6913845e-40
0.0067971377 -0.044559032 0.79299998 1.8511013e-40
0.0083285663 -0.044671416 0.79500002 9.327463e-41
0.0099295247 -0.045064762 0.80200005 2.7730295e-40
0.01151428 -0.045289516 0.80600005 4.6097395e-40
0.013081908 -0.045401912 0.80799997 5.5316817e-40
0.014584759 -0.04528952 0.80600005 6.4464634e-40
0.016119987 -0.045289494 0.80599999 7.361245e-40
0.017699042 -0.045401894 0.80799997 8.2832994e-40
0.019238096 -0.045401908 0.80799997 1.1045665e-39
0.020828571 -0.045514286 0.81000006 1.2878746e-39
0.02237143 -0.045514286 0.81 9.2088711e-40
0.023914292 -0.045514297 0.81000006 5.5389965e-40
0.02545714 -0.045514274 0.81 1.0141505e-39
0.027066668 -0.045626666 0.81200004 1.3811296e-39
0.028613331 -0.045626663 0.81200004 1.1052587e-39
0.030085713 -0.045514274 0.81 8.2975506e-40
0.031628571 -0.045514286 0.81000006 8.2975787e-40
0.03317143 -0.045514286 0.81 7.3791957e-40
0.034714293 -0.045514293 0.81 5.546031e-40
0.03625714 -0.045514271 0.81 3.7057338e-40
0.037706666 -0.04540189 0.80799997 4.6240888e-40
0.03924571 -0.045401882 0.80799997 4.6169281e-40
0.040784754 -0.045401879 0.80799997 4.6169281e-40
0.042323805 -0.045401894 0.80799997 4.6169281e-40
0.043754276 -0.045289498 0.80599999 5.5352971e-40
0.045289516 -0.045289505 0.80600005 5.5388844e-40
0.046824753 -0.045289502 0.80599999 5.5388984e-40
0.048359998 -0.045289509 0.80600005 5.5389124e-40
0.049895223 -0.045289487 0.80599999 7.382797e-40
0.051430475 -0.045289516 0.80600005 9.2230943e-40
0.052965704 -0.045289494 0.80599999 1.0141435e-39
0.054500952 -0.045289524 0.80600005 1.0145093e-39
0.055758104 -0.045064785 0.80200005 1.3829358e-39
0.05742858 -0.045177151 0.80400002 1.7488331e-39
0.058959998 -0.045177139 0.80400002 9.1907523e-40
0.06034096 -0.045064785 0.80200005 9.2355378e-41
0.062022865 -0.045177143 0.80400002 1.0102584e-38
0.063554294 -0.045177162 0.80400002 2.008756e-38
0.064600006 -0.044840008 0.79800004 2.1764651e-38
0.066120006 -0.044840001 0.79800004 2.341769e-38
0.067639999 -0.044839997 0.79800004 2.341769e-38
-0.011835236 -0.039682869 0.73100001 3.6950979e-40
-0.010442868 -0.039682839 0.73099995 2.7803303e-40
-0.0090504764 -0.039682858 0.73099995 2.7802742e-40
-0.007658097 -0.039682854 0.73100001 4.6097395e-40
0.0068142852 -0.043157138 0.79500002 2.7694562e-40
0.0083076116 -0.043048553 0.79299998 1.8474999e-40
0.0097933365 -0.042940009 0.79100001 3.6877832e-40
0.011457156 -0.043537173 0.80200005 5.5209058e-40
0.013049513 -0.043754257 0.80599999 5.5244931e-40
0.01458475 -0.043754254 0.80599999 4.6025788e-40
0.016119992 -0.043754265 0.80599999 5.5245351e-40
0.017699042 -0.043862849 0.80799997 5.5245631e-40
0.019238086 -0.043862842 0.80799997 7.3648884e-40
0.020828571 -0.043971427 0.81000006 9.1980811e-40
0.022371421 -0.043971404 0.81 6.4502609e-40
0.023914281 -0.043971416 0.81 4.6207116e-40
0.025457151 -0.043971449 0.81000006 6.4609949e-40
0.027066655 -0.044079974 0.81199998 9.2231363e-40
0.028613335 -0.044080004 0.81200004 7.382741e-40
0.030085711 -0.043971416 0.81 5.546031e-40
0.031628571 -0.043971427 0.81 6.464372e-40
0.03317143 -0.043971434 0.81000006 7.3827269e-40
0.034714282 -0.043971412 0.81 6.45361e-40
0.036257144 -0.043971427 0.81000006 6.4500227e-40
0.037706666 -0.043862849 0.80799997 6.4500227e-40
0.03924571 -0.043862842 0.80799997 6.4428621e-40
0.040784754 -0.043862835 0.80799997 5.5316958e-40
0.042219043 -0.043754265 0.80600005 4.6133688e-40
0.04375428 -0.043754265 0.80599999 5.5353251e-40
0.045289524 -0.043754272 0.80600005 6.4608687e-40
0.046824761 -0.043754272 0.80599999 6.4572954e-40
0.04835999 -0.04375425 0.80599999 6.4537081e-40
0.049771432 -0.04364571 0.80400002 8.2975787e-40
0.051302865 -0.043645721 0.80400002 1.0145051e-39
0.052834287 -0.043645717 0.80400002 1.0141449e-39
0.054365717 -0.043645732 0.80400002 1.106342e-39
0.055758107 -0.04353717 0.80200005 1.4740455e-39
0.057285715 -0.04353714 0.80200005 1.8420993e-39
0.058813345 -0.04353717 0.80200005 9.2015002e-40
0.06034096 -0.043537162 0.80200005 9.2365187e-41
0.062022876 -0.043645747 0.80400002 1.0866345e-38
0.06355428 -0.04364571 0.80400002 2.1672809e-38
-0.011851434 -0.038342852 0.73200005 2.7768831e-40
-0.010457152 -0.038342841 0.73199999 2.7805265e-40
-0.0090504764 -0.038290478 0.73099995 2.776813e-40
-0.0076580932 -0.038290475 0.73100001 5.5245772e-40
0.0068142717 -0.041642822 0.79499996 3.6842379e-40
0.0083076227 -0.041538097 0.79300004 2.7658549e-40
0.0097933263 -0.041433316 0.79100001 4.6025508e-40
0.011300005 -0.041433349 0.79100001 6.442848e-40
0.012839047 -0.04153809 0.79300004 4.6061381e-40
0.014349522 -0.041538086 0.79300004 2.7730295e-40
0.016080003 -0.042114291 0.80400002 2.7694562e-40
0.017655231 -0.042219028 0.80599999 2.7766449e-40
0.019190472 -0.042219035 0.80600005 3.6950279e-40
0.020777144 -0.042323809 0.80799997 4.6098516e-40
0.022316188 -0.042323802 0.80799997 3.6879653e-40
0.023855234 -0.042323798 0.80799997 2.776743e-40
0.02545714 -0.042428568 0.81 3.6950699e-40
0.027000003 -0.042428579 0.81000006 4.6205575e-40
0.028613335 -0.042533331 0.81199998 3.7057478e-40
0.030085713 -0.042428568 0.81000006 2.7873788e-40
0.031628571 -0.042428568 0.81 4.6240888e-40
0.03317143 -0.042428579 0.81 6.453624e-40
0.034714296 -0.042428587 0.81000006 7.3576157e-40
0.03625714 -0.042428568 0.81 8.2867326e-40
0.037706666 -0.042323802 0.80799997 8.279558e-40
0.03924571 -0.042323798 0.80799997 8.2831593e-40
0.040784758 -0.04232379 0.80799997 6.4464634e-40
0.042219043 -0.042219028 0.80599999 4.6133548e-40
0.043645717 -0.042114284 0.80400002 6.4500928e-40
0.045177154 -0.042114295 0.80400002 7.3756364e-40
0.046708573 -0.042114288 0.80400002 7.3792517e-40
0.04824001 -0.042114303 0.80400002 7.372035e-40
0.049771436 -0.042114288 0.80400002 9.2015423e-40
0.051175244 -0.042009532 0.80200005 1.0137848e-39
0.052834295 -0.042114295 0.80400002 1.1052616e-39
0.054230485 -0.042009532 0.80200005 1.1063476e-39
0.055619046 -0.041904762 0.80000001 1.473342e-39
0.057142861 -0.04190477 0.80000001 1.84067e-39
0.058813345 -0.042009555 0.80200005 1.0105506e-39
0.060340952 -0.042009525 0.80200005 9.8826574e-41
-0.011851423 -0.036948577 0.73200005 2.7698486e-40
-0.010485723 -0.037049502 0.73399997 2.773534e-40
-0.0090628648 -0.036948554 0.73199999 2.7697645e-40
-0.0076685715 -0.036948577 0.73200005 4.6098656e-40
-0.0062743006 -0.036948539 0.73199999 6.4573094e-40
-0.0048800064 -0.036948554 0.73200005 5.5317518e-40
0.008265716 -0.039825715 0.78900003 3.6878112e-40
0.0097685698 -0.039825708 0.78900003 4.6061381e-40
0.011271432 -0.039825723 0.78899997 5.5244931e-40
0.012806652 -0.039926633 0.79099995 4.6133128e-40
0.014349518 -0.040027604 0.79299998 2.7802042e-40
0.015959999 -0.040279996 0.79800004 2.7766169e-40
0.01761144 -0.04058288 0.80400002 1.8654506e-40
0.019142866 -0.040582873 0.80400002 2.7766309e-40
0.020725712 -0.040683806 0.80599999 4.6062082e-40
0.022260942 -0.04068378 0.80599999 3.6878953e-40
0.02379618 -0.040683787 0.80600005 3.6878392e-40
0.02539428 -0.040784743 0.80799997 3.6913705e-40
0.026933331 -0.040784761 0.80799997 4.6097395e-40
0.028472377 -0.040784754 0.80799997 3.6985732e-40
0.030011423 -0.040784746 0.80799997 3.7057478e-40
0.031550467 -0.040784739 0.80799997 4.6169281e-40
0.033089522 -0.040784754 0.80799997 5.5280944e-40
0.03462857 -0.040784746 0.80799997 5.5280804e-40
0.036167614 -0.040784739 0.80799997 6.4607847e-40
0.037706666 -0.040784754 0.80799997 7.3683777e-40
0.039148562 -0.040683787 0.80599999 9.2015143e-40
0.040683806 -0.040683791 0.80600005 7.3684057e-40
0.042219043 -0.040683791 0.80599999 5.5281224e-40
0.043645717 -0.040582862 0.80400002 6.4500787e-40
0.045177158 -0.040582873 0.80400002 8.2939913e-40
0.046708576 -0.040582865 0.80400002 8.2976067e-40
0.048000004 -0.040380962 0.79999995 9.2123183e-40
0.049523808 -0.040380951 0.80000001 1.0130617e-39
0.050919998 -0.040279999 0.79800004 1.0144995e-39
0.052439991 -0.040279996 0.79799998 1.1063363e-39
0.054230489 -0.040481914 0.80200005 1.2914605e-39
0.05561905 -0.040380962 0.80000001 1.6588193e-39
0.057142865 -0.04038097 0.80000001 2.1183359e-39
-0.010485729 -0.035651393 0.73400003 2.7698906e-40
-0.0090876305 -0.035651401 0.73399997 2.7697645e-40
-0.0076895356 -0.035651401 0.73399997 3.6879934e-40
-0.0062914388 -0.035651408 0.73399997 4.6099076e-40
-0.0049066618 -0.035748586 0.73600006 4.6062782e-40
-0.0035095369 -0.035797112 0.73700005 4.6134949e-40
-0.0021057194 -0.035797134 0.73700005 5.5318919e-40
0.008265703 -0.038322829 0.78899997 3.6878532e-40
0.0097685689 -0.038322851 0.78900003 4.6097955e-40
0.011271432 -0.038322866 0.78899997 4.6133548e-40
0.012774287 -0.038322859 0.78899997 3.6985591e-40
0.014277139 -0.038322847 0.78899997 2.7766169e-40
0.015859993 -0.038517125 0.79300004 1.8546746e-40
0.017567627 -0.03895431 0.80200005 9.3992094e-41
0.019142866 -0.039051447 0.80400002 2.7730576e-40
0.020674288 -0.039051436 0.80400002 3.6914265e-40
0.022205723 -0.039051447 0.80400002 3.6878532e-40
0.023796171 -0.039148524 0.80599999 3.6914265e-40
0.025331421 -0.039148554 0.80599999 3.6878252e-40
0.026866652 -0.039148528 0.80599999 3.6878953e-40
0.028401904 -0.039148558 0.80599999 3.6879653e-40
0.030011425 -0.039245702 0.80799997 3.6914966e-40
0.031550467 -0.039245695 0.80799997 3.6878672e-40
0.033007607 -0.039148539 0.80599999 3.6878672e-40
0.03462857 -0.039245702 0.80799997 4.6062362e-40
0.036167614 -0.039245695 0.80799997 4.6098095e-40
0.037613332 -0.039148554 0.80600005 7.3612731e-40
0.039148565 -0.039148554 0.80599999 9.2015563e-40
0.040683798 -0.039148528 0.80599999 7.372007e-40
0.042114284 -0.039051421 0.80400002 5.5352971e-40
0.043537147 -0.038954288 0.80200005 7.3648464e-40
0.045064766 -0.038954284 0.80200005 8.2975646e-40
0.046708573 -0.03905144 0.80400002 1.0141463e-39
0.047879998 -0.038759992 0.79799998 1.1049042e-39
0.049338099 -0.038711436 0.79700005 1.103828e-39
0.050856192 -0.038711429 0.79699999 1.013789e-39
0.052439999 -0.038760006 0.79800004 1.1981803e-39
0.054230478 -0.03895428 0.80200005 1.3833016e-39
-0.011851426 -0.034160007 0.73200005 3.6881335e-40
-0.010485725 -0.03425331 0.73400003 3.6881895e-40
-0.0090876268 -0.034253318 0.73399997 3.6881335e-40
-0.0076895384 -0.034253299 0.73400003 4.6064184e-40
-0.0062914416 -0.034253303 0.73400003 4.6063763e-40
-0.0048933448 -0.034253307 0.73399997 4.6063343e-40
-0.0035047662 -0.034346659 0.73600006 5.5283326e-40
-0.0021028533 -0.034346677 0.73600006 6.4467296e-40
0.003652364 -0.035793293 0.76699996 1.0120093e-39
0.00511332 -0.035793304 0.76699996 7.3613852e-40
0.008265703 -0.036819972 0.78899997 4.6098516e-40
0.0097685792 -0.036820017 0.78900003 5.5282065e-40
0.011257136 -0.036773317 0.78800005 6.4536941e-40
0.012758086 -0.036773313 0.78799999 5.5316958e-40
0.014259049 -0.036773335 0.78800005 4.6133408e-40
0.015819991 -0.036913309 0.79099995 3.6949718e-40
0.017414279 -0.037099987 0.79500002 2.7802322e-40
0.0189762 -0.037193358 0.79700005 5.5281365e-40
0.02052 -0.037239995 0.79800004 8.2831873e-40
0.022095231 -0.037333321 0.80000001 6.4500507e-40
0.023619048 -0.037333332 0.80000001 5.5388984e-40
0.025142863 -0.037333339 0.80000001 5.5317518e-40
0.026666675 -0.037333351 0.80000001 5.5247033e-40
0.028260959 -0.037426684 0.80200005 4.6064744e-40
0.029862866 -0.037520017 0.80400002 4.6063763e-40
0.031472377 -0.037613332 0.80600005 4.6062642e-40
0.032925725 -0.037520021 0.80400002 4.6063063e-40
0.034542836 -0.037613288 0.80599999 4.6063343e-40
0.036078092 -0.037613317 0.80599999 4.6027189e-40
0.037706673 -0.037706673 0.80800003 6.4429882e-40
0.039148569 -0.037613317 0.80599999 9.2015983e-40
0.040683798 -0.037613295 0.80599999 8.290362e-40
0.042114288 -0.037520003 0.80400002 7.382769e-40
0.043645725 -0.037520014 0.80400002 7.3791817e-40
0.045064777 -0.037426699 0.80200005 8.3047253e-40
0.047879998 -0.037239999 0.79800004 1.1045483e-39
0.049338099 -0.037193336 0.79700005 1.1049098e-39
0.050856195 -0.037193336 0.79699999 1.197467e-39
-0.011851441 -0.032765687 0.73200005 4.6065585e-40
-0.010457149 -0.032765701 0.73200005 4.6030553e-40
-0.0090628667 -0.03276569 0.73200005 4.6065305e-40
-0.0076685753 -0.032765709 0.73200005 4.6064184e-40
-0.006274295 -0.032765694 0.73199999 4.6099777e-40
-0.0048933486 -0.032855198 0.73400003 5.5247313e-40
-0.0035047624 -0.032944761 0.736 5.5284027e-40
-0.0021028584 -0.032944761 0.73600006 7.3652107e-40
-0.00070094515 -0.032944784 0.73600006 8.287139e-40
0.0036428438 -0.034242827 0.76499999 1.471198e-39
0.005086673 -0.03415335 0.76300001 1.0120135e-39
0.0065400088 -0.034153353 0.76300001 7.3613992e-40
0.0097685652 -0.035317127 0.78899997 6.4431844e-40
0.011228556 -0.035182819 0.78599995 8.2833835e-40
0.012725702 -0.035182826 0.78599995 7.3613431e-40
0.014259044 -0.035272371 0.78799999 6.4501208e-40
0.015779993 -0.035317127 0.78899997 5.5317238e-40
0.017282857 -0.035317142 0.78899997 4.6097955e-40
0.018928569 -0.035585701 0.79499996 8.2796561e-40
0.020494286 -0.035675231 0.79700005 1.1956649e-39
0.022039989 -0.035719968 0.79799998 1.0127114e-39
0.023559999 -0.035719991 0.79800004 7.3684757e-40
0.025048569 -0.035675228 0.79699999 7.3684898e-40
0.026566677 -0.035675257 0.79700005 6.4466035e-40
0.028014276 -0.035585694 0.79499996 6.4466736e-40
0.029528568 -0.035585701 0.79500002 5.5282906e-40
0.030964758 -0.035496183 0.79300004 5.5282626e-40
0.032475233 -0.035496175 0.79300004 4.6099076e-40
0.033985708 -0.035496168 0.79299998 4.6063343e-40
0.035496198 -0.035496194 0.79300004 4.6063623e-40
0.037706673 -0.036167629 0.80799997 6.4431003e-40
0.039148573 -0.036078088 0.80600005 8.2833134e-40
0.040683798 -0.036078066 0.80599999 8.290404e-40
0.042114288 -0.035988573 0.80400002 8.2939773e-40
0.043645713 -0.035988562 0.80400002 8.2975646e-40
-0.011851437 -0.031371415 0.73200005 6.4433525e-40
-0.010457153 -0.031371403 0.73199999 5.5250956e-40
-0.009062862 -0.031371418 0.73200005 4.6101598e-40
-0.0076685799 -0.031371407 0.73199999 4.613579e-40
-0.0062742867 -0.031371426 0.73200005 4.6171663e-40
-0.0048800083 -0.031371411 0.73199999 6.4502889e-40
-0.0034952471 -0.031457126 0.73400003 7.3651967e-40
-0.0020971503 -0.031457126 0.73399997 7.3653228e-40
-0.00069906202 -0.031457111 0.73400003 8.2908244e-40
0.0036238111 -0.032614294 0.76100004 1.1957028e-39
0.0050666761 -0.03257145 0.76000005 9.2054519e-40
0.0065142899 -0.032571442 0.75999999 7.3650566e-40
0.0079619084 -0.032571442 0.76000005 5.5248995e-40
0.0094095254 -0.032571435 0.76000005 6.4433805e-40
0.01119999 -0.033599973 0.78399998 7.3615954e-40
0.012693333 -0.033599999 0.78399998 6.4466736e-40
0.014186663 -0.033599988 0.78399998 6.4537782e-40
0.01572 -0.033685714 0.78599995 5.5281645e-40
0.017217137 -0.033685699 0.78600001 4.6062502e-40
0.018928567 -0.034071416 0.79500002 6.4429882e-40
0.020391423 -0.0339857 0.79299998 8.2761108e-40
0.021957139 -0.034071416 0.79500002 8.2796841e-40
0.023471415 -0.034071397 0.79499996 8.2796841e-40
0.024985706 -0.034071408 0.79499996 7.3649164e-40
0.026433324 -0.033985686 0.79299998 7.3613291e-40
0.027943809 -0.033985708 0.79300004 8.2796841e-40
0.029379994 -0.033899982 0.79099995 9.2016824e-40
0.030886663 -0.033899993 0.79100001 8.2833695e-40
0.032393336 -0.0339 0.79100001 6.4538202e-40
0.033985719 -0.033985719 0.79300004 5.5318499e-40
0.035496194 -0.033985712 0.79299998 5.5247593e-40
-0.010457149 -0.029977133 0.73200005 6.4432544e-40
-0.0090628667 -0.02997712 0.73199999 4.613593e-40
-0.0076685771 -0.029977137 0.73200005 4.6242289e-40
-0.0062742932 -0.029977126 0.73199999 4.6171383e-40
-0.0048800018 -0.029977143 0.73200005 7.3686859e-40
-0.0034952434 -0.030059041 0.73400003 9.2020047e-40
-0.002097155 -0.030059021 0.73400003 8.2802586e-40
-0.00069905829 -0.030059025 0.73400003 7.3653789e-40
0.00072381424 -0.031123826 0.76000005 8.2836217e-40
0.0021714414 -0.031123849 0.76000005 9.205564e-40
0.0036238164 -0.031164782 0.76100004 9.205564e-40
0.0050666649 -0.031123804 0.76000005 8.287181e-40
0.0065142931 -0.031123826 0.76000005 7.368798e-40
0.0079619084 -0.031123819 0.76000005 5.5249415e-40
0.0093476251 -0.030919062 0.755 5.5213962e-40
0.011199997 -0.032106657 0.78399998 5.5284307e-40
0.012693327 -0.032106649 0.78399998 6.4466456e-40
0.014186669 -0.032106671 0.78399998 6.4465615e-40
0.015679998 -0.032106664 0.78399998 5.5173605e-40
0.017173331 -0.032106657 0.78399998 3.6914966e-40
0.020339996 -0.032393325 0.79099995 4.6063343e-40
0.021791417 -0.032311402 0.78899997 6.4394429e-40
0.023471415 -0.032557108 0.79500002 8.2797121e-40
0.024985706 -0.032557119 0.79500002 8.2796981e-40
0.026433334 -0.032475233 0.79300004 7.3613011e-40
0.027873335 -0.032393336 0.79100001 1.0112751e-39
0.029379992 -0.032393314 0.79099995 1.2871459e-39
0.030808574 -0.032311428 0.78899997 1.1034791e-39
0.032393336 -0.032393329 0.79100001 8.2904881e-40
0.033899993 -0.032393306 0.79099995 7.3721331e-40
0.035406664 -0.032393318 0.79099995 5.5318919e-40
0.059419036 -0.030059023 0.73400003 2.341769e-38
0.060817137 -0.030059027 0.73399997 2.341769e-38
-0.009087625 -0.028660942 0.73400003 4.6134389e-40
-0.0076685697 -0.028582867 0.73200005 4.6205295e-40
-0.0062742895 -0.028582852 0.73199999 4.6170963e-40
-0.004893343 -0.028660929 0.73400003 5.5320181e-40
-0.0035047578 -0.028739059 0.73600006 7.3582182e-40
-0.0021028453 -0.028739084 0.73600006 6.4472902e-40
-0.00070095353 -0.028739052 0.73600006 6.447108e-40
0.00071999652 -0.029519996 0.75600004 7.3724554e-40
0.0021657124 -0.029598093 0.75800002 8.297985e-40
0.0036190483 -0.029676193 0.76000005 7.3724554e-40
0.0050533232 -0.029598074 0.75800002 7.3724975e-40
0.0064971349 -0.02959808 0.75800002 6.4505832e-40
0.0079095261 -0.029480966 0.75500005 6.4433525e-40
0.0093476186 -0.029480955 0.755 5.5285288e-40
0.010785724 -0.029480979 0.75500005 5.5355773e-40
0.012693323 -0.030613309 0.78399998 5.5354372e-40
0.014186653 -0.030613301 0.78399998 5.5281785e-40
0.015680006 -0.030613348 0.78399998 5.5280804e-40
0.017173339 -0.030613339 0.78399998 6.4573375e-40
0.020339996 -0.030886658 0.79099995 6.4467016e-40
0.021791417 -0.030808546 0.78899997 1.0120093e-39
0.023471424 -0.031042846 0.79500002 1.2871529e-39
0.024985714 -0.031042859 0.79500002 9.1980531e-40
0.026366664 -0.030886661 0.79099995 6.4429321e-40
0.027802855 -0.030808566 0.78899997 8.279572e-40
0.029268563 -0.030769499 0.78799999 1.0116338e-39
0.030769523 -0.030769525 0.78800005 1.0123555e-39
0.032311425 -0.030808562 0.78899997 1.0134345e-39
0.033814296 -0.030808585 0.78900003 9.2124164e-40
0.035317149 -0.030808574 0.78900003 8.2904881e-40
0.05925715 -0.028582869 0.73200005 2.341769e-38
0.060651433 -0.028582856 0.73199999 2.341769e-38
0.062045727 -0.028582873 0.73200005 2.341769e-38
-0.0090876212 -0.027262857 0.73400003 4.6171663e-40
-0.0076685743 -0.027188567 0.73199999 4.6242429e-40
-0.0062742829 -0.027188584 0.73200005 4.6207396e-40
-0.0049066683 -0.027337145 0.736 4.6172504e-40
-0.0035047634 -0.027337143 0.73600006 4.6138312e-40
