# .PCD v0.7 - Point Cloud Data file format
VERSION 0.7
FIELDS x y z rgb
SIZE 4 4 4 4
TYPE F F F F
COUNT 1 1 1 1
WIDTH 957
HEIGHT 1
VIEWPOINT 0 0 0 1 0 0 0
POINTS 957
DATA ascii
0.04670858 -0.054365724 0.80399996 5.5245631e-40
0.048240021 -0.054365736 0.80400002 6.4428901e-40
0.049771439 -0.054365721 0.80400002 7.361217e-40
0.051302873 -0.054365736 0.80400002 7.3684197e-40
0.05283431 -0.054365739 0.80399996 6.4465054e-40
0.054230504 -0.054230515 0.80200011 5.5318499e-40
0.055758115 -0.054230493 0.80200005 5.5283887e-40
0.057285726 -0.054230481 0.80200005 5.5354232e-40
0.058813348 -0.054230496 0.80200011 7.371993e-40
0.060340974 -0.054230504 0.80200011 9.2267236e-40
0.061868578 -0.054230489 0.80200005 1.0163113e-39
0.063396208 -0.054230496 0.80200005 1.0173847e-39
0.06492383 -0.054230504 0.80200011 5.5748838e-40
0.066451453 -0.054230511 0.80200011 9.7304764e-41
0.067979068 -0.054230489 0.80200005 4.1453127e-39
0.06950669 -0.054230504 0.80200005 8.2087167e-39
0.071034312 -0.054230511 0.80200011 1.3644631e-38
-0.0020628325 -0.047445752 0.72200006 3.6882456e-40
-0.00068571087 -0.047314286 0.72000003 4.6063904e-40
0.00068573054 -0.047314312 0.72000003 4.6025928e-40
0.0020485786 -0.047117155 0.71700001 5.5173465e-40
0.0034142998 -0.047117159 0.71700001 4.6025508e-40
0.0085276458 -0.053491466 0.81400001 1.8474859e-40
0.010053348 -0.053360015 0.81200004 2.7730155e-40
0.01151429 -0.052965719 0.80600005 3.6949858e-40
0.013017152 -0.052834295 0.80399996 3.7021745e-40
0.014548589 -0.05283431 0.80400002 4.6313195e-40
0.016080007 -0.052834295 0.80399996 4.6169982e-40
0.017611444 -0.05283431 0.80400002 5.5245772e-40
0.019142862 -0.052834295 0.80399996 4.6133688e-40
0.02072572 -0.052965723 0.80600005 4.6133408e-40
0.022260966 -0.05296573 0.80599999 4.6097254e-40
0.023796195 -0.052965723 0.80599999 4.6097254e-40
0.025331445 -0.052965742 0.80600005 5.5244931e-40
0.026800008 -0.052834298 0.80399996 7.3649445e-40
0.028331446 -0.05283431 0.80400002 6.4539043e-40
0.029862862 -0.052834295 0.80399996 6.4537922e-40
0.031472396 -0.052965738 0.80599999 5.5317238e-40
0.033007629 -0.052965727 0.80599999 4.6134529e-40
0.034457158 -0.052834306 0.80400002 6.4430582e-40
0.035988577 -0.052834295 0.80400002 9.1944377e-40
0.037613355 -0.052965738 0.80600005 7.361217e-40
0.039148584 -0.05296573 0.80600005 6.4428621e-40
0.040683817 -0.052965716 0.80600005 6.442848e-40
0.042219061 -0.05296573 0.80599999 6.442848e-40
0.043754287 -0.052965723 0.80599999 4.6097254e-40
0.045177162 -0.05283431 0.80400002 3.6985451e-40
0.046708576 -0.052834295 0.80399996 5.5316677e-40
0.048240017 -0.05283431 0.80400002 8.2831453e-40
0.049771436 -0.052834295 0.80400002 7.3683777e-40
0.051302891 -0.052834328 0.80400002 6.4571973e-40
0.052834306 -0.052834313 0.80399996 5.5352551e-40
0.054365724 -0.052834302 0.80399996 5.5425138e-40
0.055897161 -0.05283431 0.80400002 4.6206416e-40
0.057428584 -0.052834295 0.80399996 3.7058179e-40
0.058960021 -0.052834306 0.80400002 6.4608267e-40
0.060340978 -0.052702881 0.80200005 1.0152239e-39
0.061868601 -0.052702896 0.80200005 1.0163057e-39
0.063396223 -0.052702904 0.80200011 1.1099335e-39
0.06492383 -0.052702881 0.80200005 6.4788334e-40
0.066451445 -0.052702874 0.80200011 1.8480745e-40
0.067979068 -0.052702881 0.80200011 2.3978739e-39
0.069506675 -0.052702863 0.80200005 4.6184976e-39
0.071034305 -0.052702874 0.80200005 1.1991236e-38
-0.00069141336 -0.046325736 0.72600001 3.6879373e-40
0.000691447 -0.046325739 0.72600007 3.6878112e-40
0.0020485851 -0.045751445 0.71700001 3.6842098e-40
0.0034143035 -0.045751449 0.71700001 3.6806085e-40
0.011514306 -0.051430501 0.80600005 2.7730435e-40
0.013017152 -0.051302869 0.80399996 3.6914265e-40
0.014548589 -0.05130288 0.80400002 4.6205715e-40
0.016080007 -0.051302865 0.80399996 4.6134389e-40
0.017611444 -0.05130288 0.80400002 4.6134109e-40
0.019142866 -0.051302865 0.80399996 4.6097955e-40
0.020725736 -0.051430501 0.80600005 3.6949998e-40
0.022260981 -0.051430516 0.80600005 3.6949718e-40
0.023796212 -0.051430501 0.80600005 3.6913705e-40
0.025331441 -0.051430494 0.80600005 2.7694282e-40
0.026866674 -0.051430482 0.80600005 1.8547446e-40
0.028401919 -0.051430494 0.80599999 2.776757e-40
0.02993715 -0.051430482 0.80599999 3.6914686e-40
0.0314724 -0.051430494 0.80600005 3.6878392e-40
0.033007644 -0.051430505 0.80600005 2.7730996e-40
0.034542874 -0.051430501 0.80600005 7.3613291e-40
0.036078107 -0.051430486 0.80600005 1.1034693e-39
0.037613351 -0.051430494 0.80599999 9.2015143e-40
0.039148584 -0.051430486 0.80599999 6.4429041e-40
0.040683813 -0.051430471 0.80599999 6.4393728e-40
0.042219076 -0.051430508 0.80600005 6.4429041e-40
0.043754306 -0.051430501 0.80600005 4.6061521e-40
0.045177162 -0.051302876 0.80400002 2.7766169e-40
0.046824768 -0.051430479 0.80600005 6.453624e-40
0.048240002 -0.05130285 0.80399996 9.2050876e-40
0.04977145 -0.05130288 0.80399996 7.3683777e-40
0.051302854 -0.051302847 0.80399996 5.5352551e-40
0.05283431 -0.05130288 0.80400002 5.5352551e-40
0.054365724 -0.051302865 0.80399996 4.6169421e-40
0.055897161 -0.05130288 0.80400002 3.6986432e-40
0.05742858 -0.051302865 0.80399996 1.8690659e-40
0.058960021 -0.051302876 0.80400002 6.453638e-40
0.060491443 -0.051302865 0.80400002 1.0141435e-39
0.062022857 -0.05130285 0.80399996 1.1070594e-39
0.063554309 -0.05130288 0.80399996 1.107428e-39
0.065085717 -0.05130285 0.80399996 7.3866085e-40
0.06645143 -0.051175229 0.80200005 2.773534e-40
0.06797906 -0.051175244 0.80200005 6.4328428e-40
0.069506682 -0.051175252 0.80200011 1.0297274e-39
0.071034305 -0.051175263 0.80200011 1.042681e-38
-0.00068855792 -0.044757172 0.72300005 4.6061942e-40
0.00068857759 -0.044757158 0.72300005 4.6061381e-40
0.013017152 -0.049771439 0.80399996 3.6914265e-40
0.014512395 -0.049647637 0.80200005 4.6205995e-40
0.016080007 -0.049771439 0.80399996 7.3721191e-40
0.017611444 -0.049771454 0.80400002 9.208787e-40
0.019142864 -0.049771436 0.80399996 7.372035e-40
0.020725731 -0.04989526 0.80600005 5.5281224e-40
0.022260962 -0.049895249 0.80600005 6.4464494e-40
0.023796204 -0.049895257 0.80599999 7.3576297e-40
0.025331438 -0.049895249 0.80599999 5.5244931e-40
0.026866687 -0.049895264 0.80600005 2.7694422e-40
0.028472396 -0.050019071 0.80800003 3.6913845e-40
0.029937163 -0.049895264 0.80600005 4.6061661e-40
0.031550497 -0.050019078 0.80800003 3.6914125e-40
0.03300764 -0.049895257 0.80599999 3.6878252e-40
0.034542866 -0.049895253 0.80599999 6.4428761e-40
0.036167637 -0.050019071 0.80800003 9.1943536e-40
0.037706677 -0.050019063 0.80800003 7.361217e-40
0.039148595 -0.049895268 0.80600005 6.4429601e-40
0.040683828 -0.049895253 0.80600005 6.4430582e-40
0.042219058 -0.049895246 0.80600005 6.4429601e-40
0.043754298 -0.049895257 0.80599999 5.5245071e-40
0.045289531 -0.049895242 0.80599999 4.6061521e-40
0.046824791 -0.049895279 0.80600005 6.4464494e-40
0.048360031 -0.049895272 0.80600005 8.2831593e-40
0.049895257 -0.049895257 0.80600005 6.4500227e-40
0.051430486 -0.049895249 0.80600005 5.5316677e-40
0.052965738 -0.049895257 0.80599999 4.6169001e-40
0.054500964 -0.049895249 0.80599999 4.6133268e-40
0.056036193 -0.049895242 0.80599999 4.6241028e-40
0.057571456 -0.049895272 0.80600005 4.6348647e-40
0.059106693 -0.049895264 0.80600005 8.2975086e-40
0.060491439 -0.049771436 0.80400002 1.1970942e-39
0.062022869 -0.049771443 0.80399996 1.1063349e-39
0.063554294 -0.049771436 0.80400002 1.0145219e-39
0.065085724 -0.049771439 0.80399996 1.0138254e-39
0.066451445 -0.04964764 0.80200011 1.0120318e-39
0.067979075 -0.049647652 0.80200011 7.3580781e-40
0.069506675 -0.049647633 0.80200005 5.5260065e-40
0.071034305 -0.049647644 0.80200005 1.0704474e-38
-0.0020885761 -0.043859992 0.73100001 3.6878532e-40
-0.00069141801 -0.043560021 0.72600001 4.6097535e-40
0.00069144514 -0.043560021 0.72600001 5.5280804e-40
0.012984775 -0.048120018 0.80200011 3.6878392e-40
0.014476215 -0.048000034 0.80000007 4.6133968e-40
0.016040005 -0.048120007 0.80200005 9.2016124e-40
0.017611444 -0.048240021 0.80400002 1.3804219e-39
0.019142864 -0.048240006 0.80400002 1.0141645e-39
0.020725723 -0.048360012 0.80599999 6.4537782e-40
0.022260975 -0.048360035 0.80600005 9.197969e-40
0.023796218 -0.048360042 0.80600005 1.1038252e-39
0.025331449 -0.048360031 0.80600005 7.361217e-40
0.026933346 -0.048480019 0.80800003 3.6913845e-40
0.028472405 -0.048480034 0.80800003 4.6133268e-40
0.03001143 -0.048479997 0.80799997 4.6133268e-40
0.031628594 -0.048600025 0.81000006 4.6169281e-40
0.03308953 -0.048480004 0.80800003 4.6097535e-40
0.034628589 -0.048480019 0.80800003 5.5209478e-40
0.036257166 -0.048600029 0.81000006 6.4392887e-40
0.037800021 -0.048600025 0.81000006 6.4428621e-40
0.039245732 -0.048480019 0.80800003 6.4429041e-40
0.040784787 -0.048480034 0.80800003 6.4429601e-40
0.042219069 -0.048360027 0.80600005 6.4429041e-40
0.043754313 -0.048360039 0.80600005 6.4428621e-40
0.045289546 -0.048360027 0.80600005 6.4464494e-40
0.046824776 -0.048360016 0.80600005 6.4428621e-40
0.048360005 -0.048360005 0.80600005 6.4464914e-40
0.049895249 -0.04836002 0.80599999 5.5281645e-40
0.051430479 -0.048360005 0.80599999 4.6169561e-40
0.052965749 -0.048360042 0.80600005 4.6169141e-40
0.054500975 -0.048360035 0.80600005 3.7021745e-40
0.056036204 -0.04836002 0.80600005 5.5460871e-40
0.057571441 -0.048360012 0.80600005 7.382769e-40
0.059106685 -0.04836002 0.80599999 1.1045399e-39
0.060641911 -0.048360009 0.80599999 1.3811226e-39
0.062177174 -0.048360046 0.80600005 1.1063349e-39
0.063554309 -0.048240028 0.80400002 8.3048934e-40
0.065085731 -0.04824001 0.80399996 1.2893263e-39
0.066451445 -0.048120022 0.80200005 1.654869e-39
0.067979075 -0.048120029 0.80200005 9.1874452e-40
0.069506682 -0.048120022 0.80200011 1.0957313e-40
0.071034305 -0.048120029 0.80200011 1.1089066e-38
-0.003480935 -0.042467639 0.73100001 2.7802042e-40
-0.0020885593 -0.042467639 0.73100001 3.6985591e-40
-0.00069428183 -0.042351432 0.72900003 3.6949718e-40
0.00069333013 -0.042293325 0.72800004 4.6097254e-40
0.0020800033 -0.04229334 0.72800004 6.4392607e-40
0.012984775 -0.046592399 0.80200005 3.6914265e-40
0.014476208 -0.046476211 0.80000007 4.6205435e-40
0.016040023 -0.046592414 0.80200011 6.4536661e-40
0.017611444 -0.046708591 0.80400002 9.2161158e-40
0.019142866 -0.046708576 0.80400002 7.3796021e-40
0.020674296 -0.046708588 0.80399996 5.5355353e-40
0.022260971 -0.046824787 0.80600005 6.4537081e-40
0.023796201 -0.046824776 0.80600005 8.29039e-40
0.02533143 -0.046824764 0.80600005 6.4500507e-40
0.026933357 -0.04694099 0.80800003 4.6133408e-40
0.028472397 -0.046940979 0.80800003 3.6949718e-40
0.030011438 -0.046940967 0.80799997 3.6985591e-40
0.031628601 -0.047057182 0.81000006 3.6985451e-40
0.033171438 -0.047057152 0.81000006 3.6985732e-40
0.034714304 -0.047057167 0.81000006 4.6061802e-40
0.036257155 -0.047057159 0.81000006 5.5209338e-40
0.037800025 -0.047057174 0.81000006 5.5245071e-40
0.03924574 -0.046940982 0.80800003 5.5245071e-40
0.040784761 -0.046940949 0.80799997 6.442848e-40
0.042323817 -0.04694096 0.80799997 7.361203e-40
0.043754295 -0.046824768 0.80600005 6.4464354e-40
0.045289539 -0.046824783 0.80599999 5.5316817e-40
0.046824772 -0.046824768 0.80599999 6.4464494e-40
0.04836002 -0.046824791 0.80600005 7.3613011e-40
0.049895264 -0.046824798 0.80600005 5.5318359e-40
0.051558122 -0.046940982 0.80800003 4.6241728e-40
0.053097144 -0.046940949 0.80800003 4.6241028e-40
0.054636203 -0.04694096 0.80800003 5.5424998e-40
0.056175262 -0.046940975 0.80800003 6.4608968e-40
0.057714298 -0.046940967 0.80800003 7.3791957e-40
0.059106696 -0.046824798 0.80600005 9.2194369e-40
0.06064193 -0.046824791 0.80600005 1.1059748e-39
0.062177159 -0.046824783 0.80600005 1.013782e-39
0.063554309 -0.046708595 0.80400002 1.0134401e-39
0.065085731 -0.046708584 0.80399996 1.4719155e-39
0.066617168 -0.046708595 0.80400002 1.9296468e-39
0.068148583 -0.046708584 0.80399996 1.0109205e-39
0.069506668 -0.046592385 0.80200005 9.2360983e-41
0.071034297 -0.046592392 0.80200011 1.0896458e-38
-0.0034809397 -0.041075259 0.73100001 3.6985732e-40
-0.0020914129 -0.041131455 0.73200005 3.7057478e-40
-0.00069427904 -0.040962867 0.72900003 2.7766309e-40
0.0006942866 -0.04096286 0.72899997 4.6061661e-40
0.0020828522 -0.040962853 0.72899997 5.5245631e-40
0.014440004 -0.044840004 0.79800004 3.6913985e-40
0.015960021 -0.04484003 0.79800004 4.6061661e-40
0.017567635 -0.045064785 0.80200005 4.6134529e-40
0.019142862 -0.045177151 0.80400002 4.624341e-40
0.020674283 -0.045177139 0.80399996 3.7023146e-40
0.022260964 -0.045289543 0.80599999 4.6277602e-40
0.023796212 -0.045289557 0.80600005 5.5389405e-40
0.025331441 -0.045289546 0.80600005 5.5353672e-40
0.02693335 -0.045401931 0.80800003 4.6133688e-40
0.02847239 -0.045401916 0.80799997 3.6949718e-40
0.030011432 -0.045401908 0.80800003 2.7766169e-40
0.03162859 -0.045514308 0.81000006 2.7766169e-40
0.033171456 -0.045514327 0.81000006 2.7766449e-40
0.034800023 -0.045626704 0.81200004 3.6878672e-40
0.036346689 -0.045626696 0.81200004 3.6878532e-40
0.037893347 -0.045626692 0.81200004 3.6878532e-40
0.039342884 -0.045514319 0.81000006 3.6878112e-40
0.040885739 -0.045514315 0.81000006 5.5244931e-40
0.042323813 -0.045401908 0.80800003 7.3647903e-40
0.043862872 -0.045401923 0.80800003 6.4500227e-40
0.045401931 -0.045401931 0.80800003 4.6169001e-40
0.046940971 -0.045401927 0.80800003 6.453624e-40
0.048480015 -0.04540192 0.80800003 8.2832154e-40
0.049895246 -0.045289531 0.80600005 6.4501488e-40
0.051558111 -0.045401923 0.80799997 3.7022025e-40
0.053097151 -0.045401912 0.80800003 5.5496184e-40
0.054636214 -0.045401923 0.80799997 6.4608267e-40
0.056175254 -0.04540192 0.80800003 6.4536801e-40
0.05771431 -0.045401935 0.80800003 6.4608267e-40
0.059253357 -0.045401923 0.80800003 7.3863143e-40
0.060641911 -0.045289528 0.80600005 7.382741e-40
0.062177155 -0.045289535 0.80599999 1.0134233e-39
0.063712403 -0.04528955 0.80600005 1.1967537e-39
0.065085724 -0.045177154 0.80399996 1.6548746e-39
0.066617168 -0.045177169 0.80400002 2.1136808e-39
0.068148583 -0.045177154 0.80399996 1.1024015e-39
0.069679998 -0.045177143 0.80399996 1.1209267e-40
0.07121145 -0.045177177 0.80399996 1.0823635e-38
-0.0034857211 -0.039737135 0.73200005 4.6097675e-40
-0.0020914297 -0.039737143 0.73200005 3.6949858e-40
-0.00069618266 -0.039682865 0.73099995 3.6914125e-40
0.00069429126 -0.039574295 0.72900003 4.6061802e-40
0.0020828587 -0.039574288 0.72899997 4.6062782e-40
0.014440011 -0.043320019 0.79800004 7.3540284e-40
0.016000014 -0.043428592 0.80000007 5.5209058e-40
0.01756762 -0.043537147 0.80200005 3.6842239e-40
0.019142866 -0.043645721 0.80400002 3.6950139e-40
0.020674296 -0.043645725 0.80399996 3.6950279e-40
0.022260968 -0.043754302 0.80600005 5.5353391e-40
0.02379621 -0.043754309 0.80600005 6.4573375e-40
0.025331441 -0.043754302 0.80600005 7.3685598e-40
0.026866674 -0.043754287 0.80600005 9.198011e-40
0.028472386 -0.043862861 0.80800003 7.3648043e-40
0.030011442 -0.043862872 0.80799997 5.5316817e-40
0.031628598 -0.043971464 0.81000006 5.5316817e-40
0.033171449 -0.043971457 0.81000006 5.5317378e-40
0.034800008 -0.044080015 0.81200004 5.5281925e-40
0.0364362 -0.044188581 0.81400001 5.5210179e-40
0.037893355 -0.044080026 0.81200004 4.6026629e-40
0.039440017 -0.044080019 0.81200004 3.6842519e-40
0.040885724 -0.043971442 0.81000006 5.5244931e-40
0.042428594 -0.043971457 0.81000006 6.4500227e-40
0.043862864 -0.043862864 0.80800003 4.6133128e-40
0.045401923 -0.043862879 0.80800003 3.6985451e-40
0.046940979 -0.043862894 0.80800003 7.3683777e-40
0.048480023 -0.043862887 0.80800003 1.195302e-39
0.050019067 -0.043862879 0.80800003 9.2015703e-40
0.051558103 -0.043862864 0.80799997 6.4464774e-40
0.053097162 -0.043862879 0.80799997 6.464372e-40
0.054636206 -0.043862868 0.80800003 6.464386e-40
0.056175262 -0.043862883 0.80800003 7.3755803e-40
0.057714306 -0.043862876 0.80800003 9.2194509e-40
0.059253365 -0.043862887 0.80800003 9.2158495e-40
0.060641926 -0.043754309 0.80600005 9.2086889e-40
0.06217717 -0.043754317 0.80600005 1.0130631e-39
0.063712403 -0.043754302 0.80600005 1.1963978e-39
0.065085724 -0.043645725 0.80399996 1.5637608e-39
0.066617161 -0.04364574 0.80400002 1.9310902e-39
0.068148583 -0.043645725 0.80400002 1.0112863e-39
0.069679998 -0.04364571 0.80399996 9.2363786e-41
0.071211435 -0.043645725 0.80400002 1.0713861e-38
-0.0034857062 -0.038342867 0.73200005 4.6098095e-40
-0.0020914148 -0.038342878 0.73200005 4.6062082e-40
-0.00069616776 -0.038290508 0.73100001 4.6061942e-40
0.00069621165 -0.038290504 0.73100001 4.6025928e-40
0.002088591 -0.038290501 0.73100001 3.6878672e-40
0.0035047815 -0.038552411 0.73600006 3.6915106e-40
0.0049066781 -0.038552403 0.73600006 2.7731276e-40
0.016040016 -0.042009547 0.80200005 6.4392607e-40
0.017567642 -0.042009555 0.80200005 2.7694422e-40
0.019095268 -0.042009562 0.80200011 3.6913985e-40
0.020674296 -0.042114299 0.80399996 3.6914125e-40
0.022205733 -0.04211431 0.80400002 5.5245491e-40
0.02379619 -0.042219047 0.80599999 7.3648604e-40
0.025331454 -0.04221908 0.80600005 1.0119953e-39
0.026866686 -0.042219073 0.80600005 1.2871403e-39
0.028472394 -0.042323828 0.80799997 1.1034665e-39
0.030085731 -0.042428598 0.81000006 8.2867606e-40
0.031628586 -0.04242859 0.81000006 8.2831593e-40
0.033171438 -0.042428583 0.81000006 8.290362e-40
0.034800015 -0.042533353 0.81200004 7.372035e-40
0.036436215 -0.04263813 0.81400007 6.4500787e-40
0.037986688 -0.042638123 0.81400007 5.5209618e-40
0.03944001 -0.042533338 0.81200004 3.6878112e-40
0.040986668 -0.042533334 0.81200004 4.6025508e-40
0.042533353 -0.042533353 0.81200004 5.5280804e-40
0.043971457 -0.042428605 0.81000006 3.6913705e-40
0.045514304 -0.042428598 0.81000006 1.8582619e-40
0.046940975 -0.042323835 0.80800003 9.1979269e-40
0.04848003 -0.04232385 0.80800003 1.562651e-39
0.050019056 -0.04232382 0.80799997 1.1953188e-39
0.0515581 -0.042323805 0.80800003 8.2940194e-40
0.053097155 -0.042323824 0.80800003 7.3899156e-40
0.054771453 -0.042428605 0.81000006 6.464428e-40
0.056314308 -0.042428594 0.81000006 9.2051997e-40
0.057857174 -0.042428609 0.81000006 1.1045455e-39
0.059253357 -0.042323835 0.80800003 1.1045413e-39
0.060792413 -0.04232385 0.80800003 1.0127044e-39
0.062177151 -0.04221905 0.80600005 1.1045399e-39
0.063712418 -0.042219087 0.80600005 1.1967537e-39
0.065085724 -0.042114303 0.80399996 1.4722798e-39
0.066617161 -0.04211431 0.80400002 1.6548592e-39
0.068148583 -0.042114299 0.80400002 9.1872631e-40
0.069679998 -0.04211428 0.80399996 1.124486e-40
0.07121145 -0.042114317 0.80399996 1.0642472e-38
-0.0048799845 -0.036948591 0.73200005 4.6098375e-40
-0.0034857062 -0.03694858 0.73200011 4.6098375e-40
-0.0020914325 -0.036948562 0.73200005 4.6062502e-40
-0.00069618359 -0.036898106 0.73100001 4.6026209e-40
0.00069619581 -0.036898103 0.73100001 4.6061661e-40
0.0020971657 -0.037049554 0.73400009 4.6061802e-40
0.0035333368 -0.037453335 0.74200004 3.6914125e-40
0.0049466672 -0.037453327 0.74199998 3.6914546e-40
0.0096200192 -0.039220028 0.77700001 3.6878112e-40
0.011100033 -0.039220046 0.77700001 4.6025648e-40
0.012580031 -0.039220039 0.77700001 5.5244931e-40
0.01604002 -0.040481932 0.80200011 5.5244931e-40
0.017458118 -0.040229555 0.79700005 3.6913705e-40
0.018976225 -0.040229574 0.79700005 3.6913705e-40
0.020571452 -0.040380985 0.80000007 3.6877972e-40
0.022095263 -0.040380988 0.80000007 5.5245071e-40
0.023678109 -0.040481925 0.80200005 7.361217e-40
0.025268592 -0.04058288 0.80400002 8.279572e-40
0.02680001 -0.040582865 0.80400002 1.011631e-39
0.028401909 -0.040683813 0.80599999 9.2015563e-40
0.030011443 -0.040784784 0.80800003 8.290348e-40
0.031550489 -0.040784776 0.80800003 1.1967327e-39
0.033171445 -0.040885739 0.81000006 1.5644348e-39
0.034800015 -0.040986691 0.81200004 1.1970928e-39
0.036346681 -0.040986679 0.81200004 8.3010959e-40
0.037893347 -0.040986687 0.81200004 6.45361e-40
0.039537165 -0.041087642 0.81400001 5.5316677e-40
0.040986672 -0.040986672 0.81200004 6.4500227e-40
0.042638112 -0.041087642 0.81400001 6.442848e-40
0.044080019 -0.040986687 0.81200004 5.5352551e-40
0.045514297 -0.040885724 0.81000006 4.6240888e-40
0.047057167 -0.040885739 0.81000006 8.290348e-40
0.048480026 -0.040784795 0.80800003 1.2875102e-39
0.050019063 -0.04078478 0.80799997 1.0127366e-39
0.051558107 -0.040784776 0.80800003 8.3012641e-40
0.053097151 -0.040784769 0.80800003 7.3791536e-40
0.054636206 -0.040784776 0.80800003 6.4644841e-40
0.056175265 -0.040784791 0.80800003 7.3721612e-40
0.057714306 -0.040784787 0.80800003 8.2868587e-40
0.059253365 -0.040784799 0.80800003 7.3684197e-40
0.06079239 -0.040784769 0.80799997 7.3648184e-40
0.062177163 -0.040683832 0.80600005 1.0123457e-39
0.063712411 -0.040683839 0.80600005 1.2889452e-39
0.065085724 -0.040582865 0.80400002 1.1967677e-39
0.066617161 -0.04058288 0.80400002 1.1034819e-39
0.068148583 -0.040582865 0.80400002 8.2724254e-40
0.069680013 -0.040582873 0.80399996 4.5969736e-40
0.07121145 -0.040582884 0.80400002 1.1269176e-38
-0.0048800041 -0.035554282 0.73200005 4.6062782e-40
-0.0034857127 -0.03555429 0.73200005 4.6063063e-40
-0.0020914213 -0.035554297 0.73200005 4.6063483e-40
-0.00069618545 -0.035505719 0.73099995 4.6063904e-40
0.00069716346 -0.035554312 0.73200011 4.6100337e-40
0.0021200213 -0.036040027 0.74200004 4.6099216e-40
0.003538108 -0.03608859 0.74300003 4.6062222e-40
0.0049666842 -0.036185738 0.74500006 4.6062782e-40
0.0064028739 -0.036282882 0.74700004 4.6063343e-40
0.0078361919 -0.03633143 0.74800003 3.6914966e-40
0.0092609711 -0.036331452 0.74800003 5.5245491e-40
0.011042868 -0.037545729 0.77300006 6.4464634e-40
0.012466683 -0.037400026 0.77000004 5.5280804e-40
0.013933348 -0.037400022 0.77000004 3.6913705e-40
0.015460011 -0.037545729 0.77300006 3.6913845e-40
0.017414307 -0.038614318 0.79500002 3.6913845e-40
0.018928587 -0.03861431 0.79500002 3.6913845e-40
0.020494306 -0.038711455 0.79700005 3.6877972e-40
0.022040008 -0.038760006 0.79800004 5.5173324e-40
0.023619067 -0.038857173 0.80000007 6.4428621e-40
0.025205743 -0.038954321 0.80200011 6.4428621e-40
0.026733346 -0.038954303 0.80200005 6.4429601e-40
0.028331429 -0.039051425 0.80399996 7.3614132e-40
0.029937156 -0.039148584 0.80600005 8.2868447e-40
0.0314724 -0.039148595 0.80600005 1.5644348e-39
0.033089541 -0.039245732 0.80800003 2.2072833e-39
0.034714308 -0.03934288 0.81000006 1.5651537e-39
0.036346685 -0.039440021 0.81200004 9.2194649e-40
0.037893351 -0.039440021 0.8120001 8.2975226e-40
0.039440017 -0.039440013 0.81200004 7.3791536e-40
0.040986676 -0.03944001 0.81200004 7.3899156e-40
0.042638112 -0.039537162 0.81400001 7.3755663e-40
0.044080019 -0.039440021 0.81200004 7.3755803e-40
0.045626685 -0.039440017 0.81200004 6.4608127e-40
0.047173347 -0.03944001 0.81200004 8.2975366e-40
0.048600022 -0.039342888 0.81000006 9.208773e-40
0.050142892 -0.039342903 0.81000006 8.2976627e-40
0.051558122 -0.03924574 0.80800003 7.3792377e-40
0.053097159 -0.039245732 0.80800003 6.4464494e-40
0.05463621 -0.039245725 0.80800003 5.5389265e-40
0.056175262 -0.03924574 0.80800003 5.5354092e-40
0.057714317 -0.039245754 0.80800003 5.5353531e-40
0.059253361 -0.03924574 0.80800003 4.6133548e-40
0.060641926 -0.039148599 0.80600005 3.6949858e-40
0.062177159 -0.039148584 0.80600005 8.279572e-40
0.063712388 -0.039148577 0.80600005 1.2885864e-39
0.065085724 -0.039051443 0.80400002 9.2161999e-40
0.066617146 -0.039051428 0.80399996 5.5248014e-40
0.068148591 -0.039051462 0.80399996 7.3506933e-40
0.069680013 -0.039051443 0.80399996 8.518115e-40
0.07121145 -0.039051462 0.80400002 1.2030069e-38
-0.0048799911 -0.034160011 0.73200005 3.6915246e-40
-0.0034856978 -0.034160025 0.73200005 3.6880214e-40
-0.0020914064 -0.034160033 0.73200005 4.6064464e-40
-0.00069616776 -0.034113366 0.73100001 4.6101739e-40
0.00070667226 -0.034626674 0.74199998 4.6138873e-40
0.0021200185 -0.034626696 0.74200004 4.6100758e-40
0.0035381042 -0.034673348 0.74300003 5.5246192e-40
0.0049666935 -0.034766711 0.74500006 6.4430442e-40
0.0064028655 -0.034860015 0.74700004 6.4467016e-40
0.0078257322 -0.034860026 0.74700004 6.4537782e-40
0.0092485975 -0.034860037 0.74700004 6.4500928e-40
0.011028587 -0.03602669 0.77200001 6.4536521e-40
0.01246667 -0.035933338 0.77000004 5.5316677e-40
0.013987619 -0.036073331 0.77300006 4.6097395e-40
0.015460011 -0.036073342 0.77300006 3.6913845e-40
0.017020024 -0.036260031 0.77700001 2.7694422e-40
0.018928586 -0.037100025 0.79500002 3.6877972e-40
0.020442862 -0.03710001 0.79500002 5.5209198e-40
0.022012407 -0.037193369 0.79700005 5.5209058e-40
0.023560019 -0.037240025 0.79800004 6.442848e-40
0.025142875 -0.037333354 0.80000007 5.5244931e-40
0.026666686 -0.037333362 0.80000007 5.5246752e-40
0.028331442 -0.037520014 0.80399996 5.5248434e-40
0.029862864 -0.037520006 0.80400002 6.4430442e-40
0.0314724 -0.037613355 0.80600005 1.0123471e-39
0.033007644 -0.037613366 0.80600005 1.3800478e-39
0.034628592 -0.037706692 0.80800003 1.0130645e-39
0.036167629 -0.037706681 0.80799997 7.3791817e-40
0.037800014 -0.037800014 0.81000006 6.4572394e-40
0.039342865 -0.037800014 0.81000006 6.4608127e-40
0.040986676 -0.037893347 0.81200004 6.4607987e-40
0.042533342 -0.03789334 0.81200004 6.4608127e-40
0.044080023 -0.037893362 0.81200004 6.4608267e-40
0.045626685 -0.037893355 0.81200004 6.4572394e-40
0.047057167 -0.037800025 0.81000006 6.4572394e-40
0.048480012 -0.037706681 0.80799997 6.4464634e-40
0.050019056 -0.037706673 0.80800003 6.4571973e-40
0.051558115 -0.037706684 0.80800003 7.382741e-40
0.052965745 -0.037613362 0.80600005 6.4572113e-40
0.054500971 -0.037613355 0.80600005 5.5460871e-40
0.056036212 -0.037613362 0.80600005 6.4608968e-40
0.057571448 -0.037613351 0.80600005 7.3792237e-40
0.059106678 -0.03761334 0.80599999 7.3791817e-40
0.060641907 -0.037613332 0.80599999 6.4608127e-40
0.06217717 -0.037613366 0.80600005 9.2122622e-40
0.063712403 -0.037613355 0.80600005 1.2893039e-39
0.065085717 -0.037520014 0.80400002 8.2942576e-40
0.066617139 -0.037519999 0.80399996 3.6774276e-40
0.068148583 -0.037520006 0.80400002 2.2066107e-39
0.069680013 -0.037520017 0.80399996 4.0495732e-39
-0.0048799911 -0.032765727 0.73200011 2.7766869e-40
-0.0034857155 -0.032765713 0.73200005 2.7731977e-40
-0.0020914241 -0.032765716 0.73200005 3.6880774e-40
-0.00069618266 -0.032720961 0.73100001 4.6100898e-40
0.00070667226 -0.033213336 0.74199998 4.6209358e-40
0.0021200185 -0.033213362 0.74200004 4.6099917e-40
0.0035381005 -0.033258103 0.74299997 6.4429321e-40
0.004966686 -0.033347644 0.745 8.2797261e-40
0.0064028758 -0.03343717 0.7470001 8.2762369e-40
0.0078257238 -0.033437155 0.74700004 8.2833134e-40
0.0092238337 -0.033347655 0.74500006 7.3612731e-40
0.010642873 -0.03334764 0.74500006 5.5317238e-40
0.012466676 -0.034466676 0.77000004 5.5352831e-40
0.013987635 -0.034600973 0.77300006 4.6133688e-40
0.015500006 -0.034690481 0.77500004 3.6878532e-40
0.017020015 -0.034780018 0.77700001 1.8511993e-40
0.018500028 -0.03478004 0.77700001 4.6063203e-40
0.020340014 -0.035406683 0.79100001 6.4393588e-40
0.021957157 -0.035585735 0.79500002 6.4392887e-40
0.023530507 -0.03567528 0.79700005 6.4428761e-40
0.025080016 -0.035720021 0.79800004 5.5245211e-40
0.026600016 -0.035720021 0.79800004 3.6878812e-40
0.028260961 -0.035899062 0.80200011 3.6879653e-40
0.029788589 -0.035899069 0.80200011 3.6914686e-40
0.031394299 -0.035988584 0.80399996 4.6097395e-40
0.03300764 -0.036078118 0.80599999 4.6169281e-40
0.03454287 -0.03607811 0.80599999 4.6133688e-40
0.036078103 -0.036078099 0.80599999 4.6134529e-40
0.037706681 -0.036167637 0.80800003 4.613551e-40
0.039245725 -0.036167629 0.80800003 4.6170402e-40
0.040885739 -0.036257178 0.81000006 4.6133548e-40
0.042428598 -0.036257178 0.81000006 4.6169421e-40
0.043971449 -0.036257163 0.81000006 5.5424717e-40
0.045626685 -0.036346696 0.81200004 6.4608267e-40
0.047057152 -0.036257152 0.81000006 5.5424717e-40
0.048480004 -0.036167622 0.80800003 3.7021465e-40
0.050019067 -0.036167637 0.80800003 5.5352551e-40
0.051430505 -0.036078129 0.80600005 6.4572113e-40
0.052965734 -0.036078118 0.80599999 6.453638e-40
0.054500964 -0.03607811 0.80599999 5.5424858e-40
0.056036197 -0.036078095 0.80599999 7.3863983e-40
0.05757146 -0.036078133 0.80600005 9.2230943e-40
0.059106693 -0.036078125 0.80600005 9.2266676e-40
0.060641918 -0.03607811 0.80600005 9.2230802e-40
0.062177166 -0.036078125 0.80600005 1.1056203e-39
0.063712396 -0.036078114 0.80600005 1.1981803e-39
0.065085724 -0.035988584 0.80400002 6.4717568e-40
0.066617139 -0.035988569 0.80399996 9.3341892e-41
0.068148598 -0.035988599 0.80400002 3.6739005e-39
-0.0048799939 -0.031371441 0.73200005 2.7730155e-40
-0.0034857024 -0.031371444 0.73200005 1.8512134e-40
-0.002091411 -0.031371456 0.73200005 4.6064184e-40
-0.00069618732 -0.031328578 0.73099995 6.4431423e-40
0.00070666947 -0.031800002 0.74200004 6.4467437e-40
0.0021228543 -0.031842854 0.74299997 6.4430302e-40
0.0035381154 -0.031842887 0.74300003 7.361245e-40
0.0049666804 -0.031928591 0.74500006 9.1980671e-40
0.0064028814 -0.032014318 0.74700004 1.0120107e-39
0.0078257294 -0.03201431 0.74700004 1.1960321e-39
0.009223829 -0.031928599 0.74500006 9.2051576e-40
0.010642882 -0.03192861 0.74500006 6.4500928e-40
0.012515241 -0.033128574 0.77300006 5.5353111e-40
0.013987632 -0.033128586 0.77300006 4.6134109e-40
0.015460007 -0.033128582 0.77300006 3.6914966e-40
0.017020026 -0.033300035 0.77700001 3.6916087e-40
0.018500023 -0.033300027 0.77700001 6.4431984e-40
0.019980017 -0.033300024 0.77700001 9.1909345e-40
0.021846674 -0.033900011 0.79100001 7.3576577e-40
0.023353331 -0.033899996 0.79100001 5.5209478e-40
0.025080007 -0.034200009 0.79800004 4.6061802e-40
0.026566695 -0.034157183 0.79700005 3.6878112e-40
0.028260965 -0.034371443 0.80200005 3.6913845e-40
0.029788591 -0.034371451 0.80200005 4.6097395e-40
0.031394299 -0.034457158 0.80399996 3.6985451e-40
0.032925736 -0.034457169 0.80400002 3.7093491e-40
0.034457151 -0.034457158 0.80400002 3.6950279e-40
0.035988569 -0.03445714 0.80399996 4.602803e-40
0.037613347 -0.034542874 0.80600005 4.6065585e-40
0.039148591 -0.034542881 0.80599999 5.5283186e-40
0.040784776 -0.034628585 0.80800003 4.6097815e-40
0.042428587 -0.034714304 0.81000006 4.6061802e-40
0.043862876 -0.034628592 0.80800003 5.5352831e-40
0.045514304 -0.034714311 0.81000006 6.4608127e-40
0.04694096 -0.034628574 0.80800003 5.5424577e-40
0.048480012 -0.034628589 0.80800003 5.5424437e-40
0.049895257 -0.034542874 0.80599999 6.4607847e-40
0.051430486 -0.034542862 0.80599999 8.2975226e-40
0.052834302 -0.034457155 0.80399996 7.3791817e-40
0.054365724 -0.034457155 0.80400002 7.3791957e-40
0.056036212 -0.034542881 0.80600005 8.3047253e-40
0.057571441 -0.034542866 0.80600005 9.2230943e-40
0.059106685 -0.034542877 0.80599999 9.2266816e-40
0.060641915 -0.034542866 0.80599999 1.0145065e-39
0.062177166 -0.034542885 0.80600005 1.1067021e-39
0.063712411 -0.034542896 0.80600005 1.2910877e-39
0.065247647 -0.034542881 0.80600005 6.4572534e-40
0.066782869 -0.034542874 0.80600005 9.2296523e-41
-0.0048799939 -0.029977156 0.73200011 3.6986712e-40
-0.0034809415 -0.029936207 0.73100001 9.4011713e-41
-0.0020885621 -0.029936204 0.73100001 4.6028731e-40
-0.00069616962 -0.02993622 0.73100001 8.2762649e-40
0.00070478447 -0.030304799 0.74000007 8.2726636e-40
0.0021200138 -0.030386692 0.74200004 8.2833555e-40
0.0035333424 -0.030386683 0.74200004 9.2016404e-40
0.0049666907 -0.030509561 0.74500006 9.2052697e-40
0.0063857441 -0.030509571 0.74500006 1.2882333e-39
0.0078047835 -0.030509559 0.74500006 1.5637328e-39
0.0091990698 -0.030427651 0.74300003 1.1963838e-39
0.010614295 -0.030427637 0.74300003 7.3720491e-40
0.012515259 -0.031656217 0.77300006 6.4536941e-40
0.013987634 -0.031656209 0.77300006 4.6134389e-40
0.015500015 -0.031738114 0.77500004 4.6063203e-40
0.0169762 -0.03173811 0.77500004 4.6099496e-40
0.0184524 -0.031738129 0.7750001 8.2798382e-40
0.019980026 -0.031820036 0.77700001 1.1031232e-39
0.021460021 -0.031820029 0.77700001 7.3541545e-40
0.022940036 -0.031820051 0.77700007 3.6842939e-40
0.02526857 -0.03292571 0.80399996 3.6878672e-40
0.026800022 -0.032925744 0.80400002 2.7766729e-40
0.02833144 -0.032925729 0.80399996 3.6986152e-40
0.029862875 -0.032925744 0.80400002 4.6169421e-40
0.031394295 -0.032925725 0.80399996 3.7057478e-40
0.032925732 -0.03292574 0.80400002 2.7838195e-40
0.034457151 -0.032925729 0.80400002 3.6914405e-40
0.035988573 -0.032925714 0.80399996 3.6879513e-40
0.03752001 -0.032925725 0.80400002 4.6028311e-40
0.039051428 -0.03292571 0.80399996 5.5246472e-40
0.040683836 -0.033007652 0.80600005 4.6097675e-40
0.042323824 -0.033089548 0.80800003 3.6949858e-40
0.043862864 -0.033089533 0.80799997 4.6169281e-40
0.045514315 -0.033171464 0.81000006 5.5388704e-40
0.046824768 -0.033007629 0.80599999 6.4607987e-40
0.048360027 -0.033007648 0.80600005 6.4607987e-40
0.049771432 -0.03292571 0.80399996 8.3010819e-40
0.051302884 -0.032925744 0.80399996 1.0134219e-39
0.052571446 -0.032761924 0.80000001 9.2158776e-40
0.054230493 -0.032843828 0.80200005 8.3011239e-40
0.055897158 -0.032925729 0.80399996 9.2230802e-40
0.057571452 -0.033007652 0.80600005 9.2230943e-40
0.059106685 -0.033007637 0.80600005 1.0141463e-39
0.060641926 -0.033007652 0.80600005 1.0148666e-39
0.062177159 -0.033007637 0.80600005 1.1992579e-39
0.063712403 -0.033007652 0.80599999 1.2903703e-39
0.06524764 -0.033007637 0.80599999 7.3540564e-40
0.066782869 -0.033007629 0.80599999 9.2313339e-41
-0.0048799994 -0.028582862 0.73200005 4.6207256e-40
-0.0034809434 -0.028543824 0.73100001 1.8693041e-40
-0.0020885658 -0.028543819 0.73100001 4.6136631e-40
-0.00069618545 -0.028543817 0.73100001 6.4431423e-40
0.0007038308 -0.028856222 0.73900008 7.3650285e-40
0.0021143048 -0.028895268 0.74000001 8.2905582e-40
0.0035238401 -0.028895285 0.74000007 9.2088991e-40
0.0049533346 -0.029012388 0.74300003 1.0130841e-39
0.0063857227 -0.029090492 0.74500006 1.1049196e-39
0.0078047751 -0.029090501 0.74500006 1.2885864e-39
0.0091990652 -0.02901241 0.74300003 1.0130743e-39
0.010614295 -0.029012395 0.74300003 8.2976067e-40
0.012240016 -0.02952002 0.75600004 6.4572954e-40
0.013987631 -0.030183824 0.77300006 4.6134809e-40
0.015460007 -0.03018382 0.77300006 4.613537e-40
0.016976211 -0.030261938 0.77500004 4.6099496e-40
0.018452398 -0.030261934 0.7750001 6.4466456e-40
0.019928584 -0.030261924 0.77500004 9.1945358e-40
0.021460032 -0.030340049 0.77700001 6.4394569e-40
0.022940028 -0.030340042 0.77700001 4.6062923e-40
0.024294304 -0.030183839 0.77300012 4.6098375e-40
0.026800022 -0.031394318 0.80400002 3.6986712e-40
0.02833144 -0.031394303 0.80399996 4.6134389e-40
0.029862877 -0.031394314 0.80400002 6.4465194e-40
0.031394299 -0.031394299 0.80399996 4.6133548e-40
0.032925736 -0.031394314 0.80400002 3.6950139e-40
0.034457155 -0.031394299 0.80400002 4.6097815e-40
0.035988569 -0.031394284 0.80399996 4.6026489e-40
0.037520006 -0.031394295 0.80400002 5.5246192e-40
0.03905144 -0.031394303 0.80399996 7.3612731e-40
0.040683832 -0.031472404 0.80599999 4.6097395e-40
0.042219061 -0.031472392 0.80599999 2.7766309e-40
0.043754291 -0.031472385 0.80599999 4.6169281e-40
0.045401916 -0.031550489 0.80800003 5.5388564e-40
0.046824787 -0.031472411 0.80600005 5.5388424e-40
0.048240013 -0.031394299 0.80400002 4.6169001e-40
0.049647644 -0.031316217 0.80200011 6.4607847e-40
0.051047638 -0.031238114 0.80000001 8.2939213e-40
0.052440017 -0.031160021 0.7980001 8.2975086e-40
0.053960018 -0.031160021 0.79800004 8.3011239e-40
0.055897154 -0.031394299 0.80399996 9.2194929e-40
0.057428598 -0.03139431 0.80400002 1.0141463e-39
0.059106678 -0.031472392 0.80600005 1.106342e-39
0.060641922 -0.031472404 0.80599999 1.1992564e-39
0.062177151 -0.031472392 0.80599999 1.4754832e-39
-0.0034809583 -0.027151417 0.73099995 2.7805405e-40
-0.0020885658 -0.027151436 0.73099995 3.7060981e-40
-0.00069618825 -0.02715143 0.73099995 4.6100898e-40
0.00070192531 -0.027374323 0.73700011 6.4467997e-40
0.0021057366 -0.027374322 0.73700011 8.287111e-40
0.0035190624 -0.027448596 0.73900008 9.2126686e-40
0.0049533504 -0.027597172 0.74300003 1.0130996e-39
0.0063685938 -0.027597176 0.74300003 1.0130968e-39
0.0077838195 -0.027597157 0.74300003 1.0130911e-39
0.0091990624 -0.027597165 0.74299997 9.2125145e-40
0.010614292 -0.027597148 0.74299997 8.2977048e-40
0.012240007 -0.028080011 0.75600004 6.4645542e-40
0.01368001 -0.028080015 0.75599998 4.6206696e-40
0.015120018 -0.028080026 0.75600004 4.6170823e-40
0.016976207 -0.028785741 0.77500004 3.6987553e-40
0.018404771 -0.028711438 0.77300006 5.5390946e-40
0.019928578 -0.028785728 0.77500004 6.4467717e-40
0.021404782 -0.028785745 0.7750001 6.4432684e-40
0.022821911 -0.028711438 0.77300006 5.5247733e-40
0.024294302 -0.028711451 0.77300006 5.5210599e-40
0.025666686 -0.028600026 0.77000004 4.6099216e-40
0.027027626 -0.028488578 0.76700002 6.4430863e-40
0.029937167 -0.029937176 0.80600005 7.3613712e-40
0.031394299 -0.029862871 0.80400002 6.4393728e-40
0.032843832 -0.0297886 0.80200005 4.6062362e-40
0.034371458 -0.02978861 0.80200011 5.5245912e-40
0.035899062 -0.029788593 0.80200005 5.5247313e-40
0.037426688 -0.029788602 0.80200005 7.368756e-40
0.03876001 -0.029640013 0.79800004 8.2797822e-40
0.040481925 -0.0297886 0.80200011 5.5245631e-40
0.042114303 -0.029862871 0.80399996 1.858346e-40
0.043645721 -0.029862858 0.80399996 3.7022446e-40
0.045177158 -0.029862871 0.80400002 5.5424998e-40
0.04595333 -0.029379984 0.79100001 4.6241028e-40
0.047459997 -0.02937999 0.79099995 2.7873928e-40
0.04940002 -0.029640026 0.7980001 4.6241168e-40
0.050920021 -0.029640028 0.79800004 6.4608267e-40
0.05244001 -0.029640013 0.79800004 7.382769e-40
0.05396001 -0.029640011 0.79800004 8.301166e-40
0.055480018 -0.029640021 0.79800004 9.2159757e-40
0.05742858 -0.029862856 0.80399996 1.0137974e-39
0.058960013 -0.02986287 0.80400002 1.1971139e-39
0.060641922 -0.029937169 0.80600005 1.2911088e-39
-0.002088564 -0.02575906 0.73100001 3.6953502e-40
-0.00069903344 -0.025864784 0.73400003 3.6846442e-40
0.00070096046 -0.025935253 0.73600006 6.4433385e-40
0.0021057245 -0.025970494 0.73700005 1.01168e-39
0.0035190633 -0.026040979 0.73900008 9.2056621e-40
0.00494667 -0.026146671 0.74199998 9.2127807e-40
0.0063685891 -0.026181933 0.74300003 9.2091373e-40
0.0078047826 -0.026252411 0.74500006 9.2090953e-40
0.0091990596 -0.026181923 0.74299997 1.0127394e-39
0.010671458 -0.026322901 0.74700004 1.1045707e-39
0.01224 -0.02664 0.75600004 8.2941735e-40
0.013680019 -0.026640031 0.75600004 6.4574075e-40
0.015160008 -0.02671049 0.75800002 6.4573375e-40
0.016932396 -0.027239067 0.77300006 6.4609949e-40
0.018404771 -0.027239062 0.77300006 6.4538903e-40
0.01987716 -0.027239073 0.77300006 7.3652528e-40
0.021349536 -0.027239067 0.77300012 5.5251237e-40
0.022821927 -0.027239081 0.77300012 4.6029712e-40
0.024262872 -0.027203834 0.77200001 4.6063343e-40
0.02566669 -0.027133368 0.77000004 4.6064044e-40
0.02702762 -0.027027618 0.76700002 6.4431844e-40
0.028488576 -0.027027624 0.76700002 9.1945778e-40
0.029988594 -0.027062889 0.76800001 7.3577838e-40
0.032843817 -0.028260963 0.80200005 6.4430022e-40
0.034371443 -0.02826097 0.80200005 5.5246192e-40
0.035899069 -0.028260978 0.80200005 4.6065165e-40
0.037426695 -0.028260991 0.80200011 6.4434646e-40
0.038760025 -0.02812003 0.79800004 8.2727617e-40
0.04048191 -0.028260963 0.80200005 7.3613291e-40
0.042114299 -0.028331446 0.80399996 5.5318359e-40
0.043645717 -0.028331431 0.80399996 7.3721612e-40
0.045177158 -0.028331442 0.80400002 1.0137918e-39
0.045953341 -0.027873343 0.79100001 7.3791817e-40
0.047459997 -0.027873328 0.79099995 5.5460871e-40
0.049338114 -0.02808479 0.79700005 6.4608687e-40
0.05085621 -0.028084779 0.79700005 8.29039e-40
0.052374311 -0.028084798 0.79700005 7.3863703e-40
0.053892404 -0.028084787 0.79700005 6.4716727e-40
0.055410482 -0.028084775 0.79700005 9.2268077e-40
0.057428576 -0.028331431 0.80399996 1.1978369e-39
0.058960009 -0.028331446 0.80400002 1.2907556e-39
-0.00069902599 -0.024466703 0.73400003 2.7733939e-40
0.00070096977 -0.024533361 0.73600006 7.3581061e-40
0.0021028821 -0.024533371 0.73600006 1.1035197e-39
0.0035095266 -0.024566675 0.73700005 1.0120514e-39
0.0049266736 -0.02463335 0.73900008 8.2872931e-40
0.0063600154 -0.024733359 0.74200004 8.2836077e-40
0.0077838316 -0.024766697 0.74300003 8.287153e-40
0.0091990745 -0.024766708 0.74300003 1.1035001e-39
0.010642869 -0.024833351 0.74500006 1.2882445e-39
0.012142887 -0.025000041 0.75000012 1.1049294e-39
0.013661907 -0.025166668 0.75500005 8.2942155e-40
0.015100016 -0.02516669 0.75500005 8.2906142e-40
0.016932394 -0.025766689 0.77300012 8.2870409e-40
0.018380964 -0.02573335 0.77200001 8.2834676e-40
0.019877158 -0.025766689 0.77300006 7.3651967e-40
0.021349533 -0.025766684 0.77300006 5.5285709e-40
0.022821911 -0.025766674 0.77300006 2.7733098e-40
0.024262872 -0.025733357 0.77200001 3.6878953e-40
0.025666693 -0.025666708 0.77000004 4.6063343e-40
0.027062874 -0.025600025 0.76800001 7.35791e-40
0.028525727 -0.025600022 0.76799995 1.0116506e-39
0.029988587 -0.025600018 0.76800001 9.1945218e-40
0.03145146 -0.025600044 0.76800001 8.2797261e-40
0.034371451 -0.026733357 0.80200011 5.5246192e-40
0.035899058 -0.026733341 0.80200005 2.7697085e-40
0.046185724 -0.026500015 0.79499996 1.1045497e-39
0.047700025 -0.026500029 0.79500002 8.2940334e-40
0.049214303 -0.026500022 0.79500002 9.2159897e-40
0.050728578 -0.026500007 0.79499996 9.2231363e-40
0.052242879 -0.026500022 0.79499996 7.404335e-40
0.053757168 -0.026500033 0.79500002 4.6457668e-40
0.05527145 -0.026500029 0.79500002 9.2376117e-40
-0.00069902971 -0.023068599 0.73400003 4.6279703e-40
0.0006990736 -0.023068612 0.73400003 7.3688681e-40
0.0021028887 -0.023131479 0.73600006 1.0116884e-39
0.0035047871 -0.023131467 0.73600006 9.2022289e-40
0.0049133454 -0.023162873 0.73700005 8.2801465e-40
0.0063342997 -0.023225734 0.73900008 8.2835937e-40
0.0077524059 -0.023257181 0.74000007 8.287153e-40
0.0091866748 -0.02332001 0.74199998 8.287111e-40
0.010600006 -0.023320006 0.74200004 9.2090532e-40
0.012029527 -0.023351433 0.74300003 8.2942856e-40
0.013480972 -0.023414316 0.74500006 7.3723854e-40
0.015000021 -0.02357146 0.75000012 8.2907684e-40
0.016538098 -0.023728577 0.755 8.2799643e-40
0.018285714 -0.024137145 0.76800001 9.2018506e-40
0.019748587 -0.024137164 0.76800001 1.0120206e-39
0.021321917 -0.024262875 0.77200001 7.368728e-40
0.022792397 -0.024262875 0.77200001 5.5390245e-40
0.024262872 -0.024262879 0.77200001 5.5316817e-40
0.02573335 -0.024262879 0.77199996 6.4465615e-40
0.027133349 -0.024200026 0.77000004 7.3614412e-40
0.028600013 -0.02420002 0.77000004 8.2833835e-40
0.03006668 -0.02420002 0.76999998 8.2833695e-40
0.03153336 -0.024200046 0.77000004 8.2797401e-40
0.033000018 -0.02420002 0.77000004 8.2796841e-40
0.046185728 -0.024985727 0.79500002 9.2088431e-40
0.047460008 -0.024860008 0.79100001 8.2833275e-40
0.0492143 -0.024985727 0.79499996 1.0134387e-39
0.050600957 -0.024922853 0.79300004 1.1067063e-39
0.052242875 -0.024985733 0.79500002 1.0155841e-39
0.053757168 -0.024985747 0.79500002 9.2447443e-40
0.055271439 -0.024985734 0.79499996 1.1074364e-39
-0.00070092682 -0.021729561 0.73600006 5.5356754e-40
0.00070096977 -0.021729551 0.73600006 7.3724835e-40
0.0021028793 -0.021729562 0.73600006 8.2837198e-40
0.0035047946 -0.021729577 0.73600006 8.2837899e-40
0.004913352 -0.021759074 0.73700005 7.3653649e-40
0.0063171615 -0.021759078 0.73700005 8.2800484e-40
0.007741923 -0.021818124 0.73900002 8.287195e-40
0.0091619259 -0.02184765 0.74000007 6.4540304e-40
0.010571444 -0.021847639 0.74000001 4.6209078e-40
0.012013334 -0.021906666 0.74200004 5.5392628e-40
0.013444784 -0.021936225 0.74300003 6.4613031e-40
0.014900021 -0.021995269 0.74500006 7.3761549e-40
0.016494276 -0.022231417 0.75300002 8.2872651e-40
0.018404767 -0.022821913 0.77300006 1.011673e-39
0.019877154 -0.022821927 0.77300006 1.1957e-39
0.021349533 -0.022821918 0.77300006 1.0116688e-39
0.022821924 -0.022821929 0.77300006 7.3686999e-40
0.024262877 -0.022792408 0.77200001 7.3650285e-40
0.025666686 -0.022733359 0.77000004 7.3650846e-40
0.027133336 -0.022733338 0.77000004 6.4431984e-40
0.02860002 -0.022733362 0.77000004 5.5284027e-40
0.029988581 -0.022674298 0.76799995 6.450317e-40
0.031451438 -0.0226743 0.76800001 7.3650426e-40
0.032914311 -0.02267432 0.76800001 1.0116478e-39
0.034466688 -0.022733359 0.77000004 1.2878746e-39
0.035933349 -0.022733355 0.76999998 1.1960419e-39
0.046185739 -0.02347146 0.79500002 7.3757765e-40
0.047460016 -0.023353348 0.79100001 8.2941315e-40
0.0492143 -0.023471439 0.79499996 1.1056371e-39
0.050600957 -0.023412379 0.79300004 1.2900242e-39
0.05224289 -0.023471465 0.79500002 1.3825757e-39
0.053757146 -0.023471432 0.79499996 1.3825813e-39
0.055271443 -0.023471447 0.79500002 1.3822296e-39
0.00070097909 -0.020327659 0.73600006 7.3689101e-40
0.0021028765 -0.020327646 0.73600006 7.3653368e-40
0.0035047871 -0.020327657 0.73600006 6.4541705e-40
0.0049133576 -0.020355275 0.73700005 4.6174466e-40
0.006317168 -0.020355279 0.73700005 6.4469679e-40
0.0077209636 -0.020355254 0.73700011 8.2872371e-40
0.0091495328 -0.020410489 0.73900002 7.3724274e-40
0.010571446 -0.020438122 0.74000007 5.5393048e-40
0.012013333 -0.02049333 0.74200004 5.5428921e-40
0.013444781 -0.020520978 0.74300003 5.5538082e-40
0.014860009 -0.020520965 0.74300003 5.550361e-40
0.016275249 -0.020520968 0.74299997 6.4614573e-40
0.017857157 -0.020714303 0.75000006 8.2944818e-40
0.019285727 -0.020714307 0.75000006 1.0127562e-39
0.021349549 -0.02134956 0.77300006 8.2872091e-40
0.022821924 -0.021349553 0.77300012 7.3652668e-40
0.024262873 -0.021321932 0.77200001 7.3652528e-40
0.02566669 -0.021266699 0.77000004 8.2836077e-40
0.02713334 -0.021266675 0.77000004 7.3688261e-40
0.028600026 -0.021266703 0.77000004 7.368784e-40
0.029988591 -0.021211455 0.76800001 7.3723153e-40
0.03145143 -0.021211427 0.76799995 8.2906422e-40
0.0329143 -0.021211449 0.76800001 8.2906002e-40
0.034377173 -0.02121147 0.76800001 9.2089552e-40
0.035933357 -0.021266697 0.77000004 9.2089552e-40
0.037400026 -0.021266701 0.77000004 1.0120178e-39
0.0021028672 -0.01892573 0.73600006 6.4577579e-40
0.0035095369 -0.018951446 0.73700005 4.6318099e-40
0.004913351 -0.018951453 0.73700011 1.8624097e-40
0.0063171606 -0.018951451 0.73700011 5.5250676e-40
0.0077209729 -0.018951459 0.73700011 8.2836638e-40
0.0091495356 -0.019002872 0.73900002 7.3724274e-40
0.010571446 -0.019028598 0.74000001 6.4575897e-40
0.012013346 -0.019080017 0.74200004 5.542752e-40
0.01342666 -0.019079991 0.74200004 4.6317118e-40
0.014860024 -0.019105747 0.74300003 4.6390126e-40
0.016384773 -0.019234302 0.74800009 3.7170563e-40
0.017857157 -0.019285737 0.75000006 6.4720931e-40
0.019285731 -0.019285738 0.75000006 8.2980551e-40
0.020714287 -0.019285722 0.75000006 7.3761268e-40
0.02214288 -0.019285748 0.75000012 6.4505692e-40
0.024200009 -0.019800015 0.77000004 7.3653088e-40
0.025666691 -0.019800041 0.77000004 8.2872231e-40
0.027133359 -0.019800037 0.77000004 8.2907824e-40
0.028600009 -0.019800013 0.77000004 8.2943276e-40
0.029988583 -0.019748585 0.76800001 8.3014603e-40
0.031410489 -0.019722873 0.76700002 8.2978729e-40
0.032914292 -0.019748578 0.76799995 6.461163e-40
0.034377169 -0.019748596 0.76800001 4.6208237e-40
0.035840005 -0.01974857 0.76799995 6.4610789e-40
0.03730287 -0.019748593 0.76799995 8.2906422e-40
0.0021028747 -0.017523838 0.73600006 8.3016705e-40
0.0035047862 -0.017523848 0.73600006 7.3761128e-40
0.0049133399 -0.017547626 0.73700005 7.3617915e-40
0.0063171485 -0.01754763 0.73700005 7.3654069e-40
0.0077209775 -0.017547656 0.73700011 8.2801045e-40
0.0091495402 -0.017595265 0.73900008 8.2907824e-40
0.010571451 -0.017619079 0.74000001 7.3794619e-40
0.011980985 -0.017619096 0.74000007 7.3829091e-40
0.013426674 -0.017666677 0.74199998 6.4682676e-40
0.014840007 -0.017666673 0.74200004 5.5536121e-40
0.016275257 -0.01769051 0.74300003 3.7169582e-40
0.017690487 -0.017690493 0.74300003 6.4684778e-40
0.019285733 -0.01785717 0.75000006 9.2164381e-40
0.02071429 -0.017857151 0.75000006 8.2945659e-40
0.022142882 -0.017857183 0.75000012 7.3725815e-40
0.023571454 -0.017857183 0.75000012 8.2908805e-40
0.02556666 -0.018261895 0.76699996 9.2056061e-40
0.02702762 -0.018261904 0.76699996 9.2091373e-40
0.028525732 -0.018285742 0.76800001 9.2091093e-40
0.029949538 -0.018261921 0.76700002 9.2162559e-40
0.031410493 -0.018261932 0.76700002 8.3015163e-40
0.032871436 -0.018261911 0.76699996 7.3796021e-40
