# .PCD v0.7 - Point Cloud Data file format
VERSION 0.7
FIELDS x y z rgb
SIZE 4 4 4 4
TYPE F F F F
COUNT 1 1 1 1
WIDTH 961
HEIGHT 1
VIEWPOINT 0 0 0 1 0 0 0
POINTS 961
DATA ascii
0.051642861 -0.059905738 0.72299999 2.341769e-38
0.053020008 -0.059905741 0.72300005 2.341769e-38
0.054547619 -0.060071427 0.72500002 2.341769e-38
-0.018745717 -0.059014287 0.72899997 6.8286675e-39
-0.017285718 -0.05877142 0.72600001 6.9187318e-39
-0.01590286 -0.058771428 0.72600001 5.8102697e-39
-0.014400003 -0.058285717 0.72000003 4.6841232e-39
-0.012974289 -0.058042858 0.71700001 4.1401994e-39
-0.011592382 -0.057961907 0.71600002 3.7004831e-39
-0.010200007 -0.057799976 0.71400005 3.9703382e-39
-0.008840004 -0.057799987 0.71399999 4.316798e-39
-0.0074695256 -0.057719048 0.71300006 2.3885357e-39
-0.0060942867 -0.057557151 0.71100003 5.5253479e-40
-0.0047333394 -0.057476174 0.71000004 6.4436047e-40
-0.0033714289 -0.057314284 0.708 8.283916e-40
-0.0020228585 -0.05731428 0.708 7.3691624e-40
-0.00067142968 -0.057071421 0.70500004 6.4545209e-40
0.00067047577 -0.056990478 0.70400006 8.3056922e-40
0.002011427 -0.056990471 0.70400006 1.1068002e-39
0.0033476171 -0.056909513 0.70300001 1.3805186e-39
0.0046866662 -0.056909524 0.70300001 1.7464355e-39
0.0060085761 -0.056747641 0.70099998 2.7641691e-39
0.0073438114 -0.056747627 0.70100003 3.8802081e-39
0.0086790444 -0.056747612 0.70099998 6.3712683e-39
0.010014285 -0.056747619 0.70099998 8.942665e-39
0.011349524 -0.056747627 0.70099998 7.0984245e-39
0.01268476 -0.056747615 0.70100003 5.3481607e-39
0.013999993 -0.056666642 0.70000005 4.7024339e-39
0.015333334 -0.056666672 0.70000005 4.0552695e-39
0.016666666 -0.056666657 0.70000005 2.8556557e-39
0.018000001 -0.056666669 0.70000011 1.7482403e-39
0.019333335 -0.056666672 0.70000005 1.2890545e-39
0.02066667 -0.056666683 0.70000005 9.2170406e-40
0.022 -0.056666661 0.70000005 7.3766593e-40
0.023333333 -0.056666669 0.70000005 6.4655351e-40
0.024701906 -0.056747623 0.70099998 8.302287e-40
0.026037144 -0.056747612 0.70100003 1.1060897e-39
0.027372384 -0.056747619 0.70099998 1.1986385e-39
0.02870762 -0.056747627 0.70099998 1.2919131e-39
0.030171426 -0.056990474 0.70400006 1.659618e-39
0.03151238 -0.05699046 0.70400006 2.0287635e-39
0.032900002 -0.057071421 0.70500004 2.5815799e-39
0.034242857 -0.057071414 0.70500004 3.1343768e-39
0.035585713 -0.057071429 0.70500004 3.5953381e-39
0.037033334 -0.057233337 0.70700002 4.0566512e-39
0.038434293 -0.057314303 0.70799994 2.3935495e-39
0.039782852 -0.057314273 0.708 7.3593953e-40
0.041247614 -0.057476159 0.71000004 8.495414e-39
0.042660002 -0.05755714 0.71100008 1.6335501e-38
0.0441381 -0.057719056 0.71300006 1.5123334e-38
0.04568762 -0.057961889 0.71600002 1.3926649e-38
0.047117148 -0.058042865 0.71700001 1.8720437e-38
0.048618097 -0.058204785 0.71899998 2.3417684e-38
0.050057147 -0.058285724 0.72000003 2.341769e-38
0.051642865 -0.058528598 0.72300005 2.341769e-38
0.053166665 -0.058690462 0.72500002 2.341769e-38
0.054773342 -0.058933359 0.72799999 2.341769e-38
-0.018745719 -0.057625707 0.72900003 2.0219378e-39
-0.017285721 -0.057388555 0.72599995 1.4806288e-39
-0.015880952 -0.057309534 0.72500002 1.3888129e-39
-0.014379997 -0.05683526 0.71900004 1.2893978e-39
-0.012974286 -0.056677159 0.71699995 1.0116926e-39
-0.011592383 -0.056598093 0.71600002 6.5013803e-40
-0.010200002 -0.056439996 0.71399999 3.6786467e-40
-0.0088276239 -0.056360945 0.71300006 9.2680479e-41
-0.0074485722 -0.056202862 0.71100003 5.514642e-40
-0.0060857241 -0.056123774 0.71000004 9.2023691e-40
-0.0047200001 -0.055965725 0.708 8.2911467e-40
-0.0033666608 -0.055886697 0.70700002 6.4472341e-40
-0.0020199958 -0.055886693 0.70700002 6.4436328e-40
-0.00066951977 -0.055570494 0.70299995 6.4509335e-40
0.00066952535 -0.055570483 0.70300001 9.2240612e-40
0.0020028553 -0.055412378 0.70100003 1.1053596e-39
0.0033380957 -0.055412389 0.70099998 1.3794312e-39
0.0046733357 -0.055412397 0.70099998 1.6567538e-39
0.0060085719 -0.055412386 0.70100003 3.0400484e-39
0.007343811 -0.055412389 0.70100003 4.4323098e-39
0.00867905 -0.055412401 0.70099998 6.9269574e-39
0.010000002 -0.055333342 0.70000005 9.310014e-39
0.011333331 -0.055333328 0.70000011 6.9129627e-39
0.012666666 -0.055333331 0.70000005 4.5216398e-39
0.014 -0.055333342 0.70000005 4.1521342e-39
0.015289518 -0.055175204 0.69800001 3.7801175e-39
0.016666666 -0.055333324 0.70000005 2.6694722e-39
0.018000001 -0.055333335 0.70000005 1.5649267e-39
0.019333333 -0.05533332 0.70000005 1.1964987e-39
0.020666672 -0.05533335 0.70000005 8.291455e-40
0.022000002 -0.055333335 0.70000005 8.2841682e-40
0.02333333 -0.055333316 0.70000005 8.2950003e-40
0.024666673 -0.05533335 0.70000005 9.209852e-40
0.026000001 -0.055333331 0.70000005 1.0142514e-39
0.027372383 -0.055412382 0.70099998 1.1986357e-39
0.028707616 -0.055412371 0.70100003 1.2911914e-39
0.03012858 -0.055570509 0.70299995 1.8429261e-39
0.031512383 -0.05564953 0.70400006 2.3039056e-39
0.032853339 -0.055649549 0.70400006 2.6730483e-39
0.034242861 -0.055728573 0.70500004 2.9507016e-39
0.035585713 -0.055728566 0.70500004 3.5956954e-39
0.037033338 -0.055886682 0.70699996 4.2360188e-39
0.038380001 -0.055886678 0.70699996 2.7565909e-39
0.039726678 -0.055886701 0.70699996 1.2105425e-39
0.041247621 -0.056123808 0.71000004 9.1500964e-39
0.042600002 -0.056123786 0.71000004 1.7057636e-38
0.044014286 -0.05620284 0.71100003 1.6969032e-38
0.04568762 -0.056598105 0.71600008 1.6874007e-38
0.047117155 -0.056677166 0.71699995 2.0202007e-38
0.048618101 -0.056835245 0.71900004 2.3417328e-38
0.050057139 -0.056914277 0.72000003 2.341769e-38
0.051571425 -0.057072345 0.72200012 2.341769e-38
0.052799996 -0.056914274 0.72000003 2.341769e-38
-0.017285721 -0.05600569 0.72600001 1.6541782e-39
-0.015771426 -0.055542879 0.72000003 1.6570635e-39
-0.014340001 -0.055311445 0.71700001 1.6549041e-39
-0.012956195 -0.055234283 0.71600002 1.2871963e-39
-0.011560004 -0.055079985 0.71400005 1.0106221e-39
-0.010185716 -0.055002864 0.71300006 8.2803427e-40
-0.0088276202 -0.055002872 0.713 6.4508635e-40
-0.0074380995 -0.05477142 0.71000004 7.3692605e-40
-0.0060685729 -0.05461714 0.708 9.2095577e-40
-0.0047133309 -0.054540019 0.70699996 7.3656731e-40
-0.0033523783 -0.05430859 0.70400006 5.5217465e-40
-0.0020114272 -0.054308578 0.70400006 6.4400454e-40
-0.0006676187 -0.054077145 0.70099998 6.4401856e-40
0.00066762127 -0.05407716 0.70100003 9.2097259e-40
0.0019999975 -0.053999994 0.70000005 1.1964721e-39
0.0033333334 -0.054000005 0.70000005 1.1039121e-39
0.0046666623 -0.053999986 0.70000011 1.1035898e-39
0.0059999968 -0.053999986 0.70000005 3.5950214e-39
0.0073333313 -0.053999998 0.70000005 6.1771983e-39
0.0086666616 -0.053999983 0.70000011 7.7506182e-39
0.010000003 -0.054000016 0.70000005 9.3146859e-39
0.011333331 -0.053999994 0.70000005 7.0065946e-39
0.012666662 -0.053999979 0.70000011 4.7031584e-39
0.013959995 -0.053845692 0.69800001 4.1524874e-39
0.015289525 -0.053845722 0.69800001 3.6011072e-39
0.016619049 -0.053845715 0.69799995 2.5801464e-39
0.01794857 -0.0538457 0.69800001 1.5638477e-39
0.019333331 -0.053999986 0.70000005 1.2883314e-39
0.020666666 -0.053999998 0.70000011 1.1039289e-39
0.022 -0.054000005 0.70000005 1.104631e-39
0.023333332 -0.053999986 0.70000005 1.1053596e-39
0.024666667 -0.053999994 0.70000005 1.1057282e-39
0.026000001 -0.054000001 0.70000005 1.1064414e-39
0.027333336 -0.054000009 0.70000005 1.2908257e-39
0.02870762 -0.05407716 0.70099998 1.4741422e-39
0.030042863 -0.054077171 0.70099998 1.9351161e-39
0.03146762 -0.054231446 0.70299995 2.3957341e-39
0.032853331 -0.054308563 0.70400006 2.7652341e-39
0.034194287 -0.054308582 0.70400006 3.134367e-39
0.035585713 -0.054385725 0.70500004 3.6871708e-39
0.036928572 -0.054385718 0.70500004 4.2396075e-39
0.038379997 -0.054540005 0.70700002 2.854529e-39
0.039726671 -0.054539997 0.70700002 1.3834515e-39
0.041131433 -0.054617155 0.70799994 8.032282e-39
0.042480003 -0.054617155 0.708 1.4755659e-38
0.044014294 -0.054848585 0.71100003 1.4196766e-38
0.04568762 -0.055234283 0.71600002 1.373547e-38
0.047117151 -0.055311445 0.71699995 1.86322e-38
0.048618097 -0.055465713 0.71900004 2.341769e-38
0.050057143 -0.05554286 0.72000003 2.341769e-38
0.051571429 -0.055697139 0.72200006 2.341769e-38
0.0528 -0.055542853 0.72000003 2.341769e-38
-0.015749522 -0.054096218 0.71900004 1.9296959e-39
-0.014340003 -0.053945716 0.71699995 1.9307763e-39
-0.01295619 -0.053870492 0.71600002 1.6556327e-39
-0.01156 -0.053720009 0.71400005 1.2882922e-39
-0.010185716 -0.053644769 0.713 1.1971755e-39
-0.0088028572 -0.053494297 0.71100003 1.1049841e-39
-0.0074171466 -0.053268556 0.708 1.01315e-39
-0.0060599972 -0.053193346 0.70700002 9.2095437e-40
-0.0046933293 -0.052967642 0.70400006 7.3620578e-40
-0.0033476166 -0.052892391 0.70300001 4.6105662e-40
-0.0020085708 -0.052892379 0.70300001 5.5217325e-40
-0.00066666608 -0.052666675 0.70000005 6.4438009e-40
0.00066666538 -0.052666657 0.70000005 9.2025792e-40
0.0019999994 -0.052666668 0.70000011 1.1964763e-39
0.0033333348 -0.052666675 0.70000005 8.2769515e-40
0.0046666637 -0.052666657 0.70000005 4.6469019e-40
0.0059999991 -0.052666664 0.70000011 4.2425348e-39
0.0073333322 -0.052666672 0.70000005 7.9271048e-39
0.0086666625 -0.052666653 0.70000005 8.6754486e-39
0.009971424 -0.052516166 0.69800001 9.3118189e-39
0.011300948 -0.052516166 0.69800001 7.0959078e-39
0.012630477 -0.052516196 0.69799995 4.7974994e-39
0.013959997 -0.052516174 0.69800001 4.1532048e-39
0.015267621 -0.05244096 0.69699997 3.4124126e-39
0.016595241 -0.05244096 0.69700003 2.485797e-39
0.017948572 -0.052516181 0.69800001 1.5652784e-39
0.01927809 -0.052516159 0.69800001 1.4727156e-39
0.02060762 -0.052516192 0.69800001 1.2890362e-39
0.021937141 -0.05251617 0.69800001 1.2883118e-39
0.023266664 -0.052516174 0.69800001 1.2893936e-39
0.024596194 -0.0525162 0.69799995 1.1982797e-39
0.025999997 -0.052666645 0.70000005 1.1068016e-39
0.027333338 -0.052666679 0.70000005 1.383743e-39
0.028666666 -0.052666664 0.70000005 1.5674182e-39
0.030042859 -0.052741908 0.70100003 2.0273173e-39
0.031378098 -0.052741915 0.70099998 2.3964572e-39
0.032806668 -0.052892387 0.70299995 2.8574311e-39
0.034194287 -0.052967627 0.70400006 3.2265668e-39
0.035535239 -0.052967619 0.70400012 3.779372e-39
0.036928575 -0.053042851 0.70500004 4.2378194e-39
0.038380001 -0.053193349 0.70699996 2.947089e-39
0.039726675 -0.053193342 0.70699996 1.5785907e-39
0.041131433 -0.053268574 0.708 7.0238558e-39
0.042599995 -0.053419042 0.71000004 1.2355701e-38
0.04401429 -0.053494278 0.71100008 1.1510893e-38
0.045560002 -0.053719994 0.71400005 1.0617704e-38
0.04705143 -0.053870488 0.71600002 1.7081041e-38
0.048482861 -0.053945709 0.71700001 2.341769e-38
0.049987622 -0.054096196 0.71900004 2.341769e-38
0.051571429 -0.054321878 0.72200006 2.341769e-38
0.052800003 -0.054171436 0.72000003 2.341769e-38
0.054397147 -0.054397184 0.72299999 2.341769e-38
-0.018488569 -0.052726682 0.71900004 7.6475892e-39
-0.017047619 -0.052506678 0.71600002 8.6652822e-39
-0.015683811 -0.052506674 0.71600002 4.8838531e-39
-0.01428 -0.052360009 0.71399999 1.0131458e-39
-0.012920001 -0.052359998 0.71400005 1.2883076e-39
-0.011543813 -0.052286666 0.713 1.4734093e-39
-0.010185716 -0.052286677 0.71300006 1.2890166e-39
-0.00879048 -0.052066665 0.71000004 1.0127927e-39
-0.0074066627 -0.051846698 0.70699996 8.2947901e-40
-0.0060342876 -0.051626671 0.70400006 7.3728198e-40
-0.0046866634 -0.051553357 0.70300001 5.5324945e-40
-0.0033476225 -0.05155332 0.70300001 3.7065746e-40
-0.0020028576 -0.051406663 0.70099998 4.6177689e-40
-0.00066666934 -0.051333319 0.70000011 6.4510176e-40
0.00066475873 -0.051186655 0.69800001 9.2133692e-40
0.0019942822 -0.051186655 0.69799995 1.1982755e-39
0.0033238025 -0.051186636 0.69800001 7.3658273e-40
0.0046533323 -0.051186662 0.69800001 3.6819538e-40
0.0059828563 -0.051186666 0.69799995 4.3336542e-39
0.0073123756 -0.051186644 0.69800001 8.2969677e-39
0.0086419042 -0.051186673 0.69799995 8.7640737e-39
0.009957145 -0.051113352 0.69700003 9.2217812e-39
0.011300948 -0.051186651 0.69799995 6.9140192e-39
0.012612379 -0.051113326 0.69700003 4.614899e-39
0.013939999 -0.051113326 0.69700003 3.9655878e-39
0.015267619 -0.05111333 0.69700003 3.3169884e-39
0.016595244 -0.051113356 0.69699997 2.4865102e-39
0.017922863 -0.051113356 0.69700003 1.7482277e-39
0.01927809 -0.051186647 0.69800001 1.4734275e-39
0.02060762 -0.051186677 0.69799995 1.1989972e-39
0.021937141 -0.051186655 0.69800001 1.1057268e-39
0.023266664 -0.051186658 0.69799995 1.1057268e-39
0.02459619 -0.051186662 0.69800001 1.1064428e-39
0.025925715 -0.051186666 0.69799995 1.1064456e-39
0.027255235 -0.051186644 0.69800001 1.1993587e-39
0.028584756 -0.051186644 0.69799995 1.3837528e-39
0.029999999 -0.051333342 0.70000005 1.7521766e-39
0.031378094 -0.051406678 0.70099998 2.2131491e-39
0.032713335 -0.051406663 0.70100003 2.6737629e-39
0.03414572 -0.05155335 0.70300001 3.2269297e-39
0.035484768 -0.051553342 0.70300001 3.6875435e-39
0.036876194 -0.051626671 0.70400006 4.2396201e-39
0.038271423 -0.051699985 0.70500004 3.4066308e-39
0.03961429 -0.051700003 0.70500004 2.6741469e-39
0.041131433 -0.051920008 0.70799994 8.7686994e-39
0.042480003 -0.051920012 0.708 1.4845985e-38
0.044014294 -0.052140024 0.71100003 1.3641002e-38
0.045496184 -0.052286662 0.71300006 1.2540846e-38
0.047051433 -0.052506667 0.71600002 1.7989351e-38
0.048482861 -0.05258001 0.71699995 2.341769e-38
0.049987618 -0.052726682 0.71900004 2.341769e-38
0.051428571 -0.052799992 0.72000003 2.341769e-38
0.052800003 -0.052800018 0.72000003 2.341769e-38
0.0543219 -0.052946653 0.72200006 2.341769e-38
0.055697139 -0.052946653 0.72200006 2.341769e-38
-0.018411426 -0.051142871 0.71600002 1.4390776e-38
-0.017047619 -0.051142864 0.71600002 1.5477307e-38
-0.015683811 -0.051142853 0.71600008 7.8358788e-39
-0.014280006 -0.05099998 0.71400005 1.0053476e-40
-0.012901904 -0.050928589 0.71300006 9.1952364e-40
-0.011511429 -0.050785724 0.71100003 1.6559985e-39
-0.010114287 -0.050571434 0.70799994 1.2886551e-39
-0.0087533304 -0.050500024 0.70700002 9.2167184e-40
-0.007406665 -0.050500024 0.70700002 7.3836098e-40
-0.0060342895 -0.050285712 0.70400006 4.6177269e-40
-0.0046866643 -0.050214306 0.70299995 3.6921412e-40
-0.003347618 -0.050214294 0.70300001 2.7846043e-40
-0.0020028516 -0.050071456 0.70099998 4.6321322e-40
-0.00066477002 -0.04985711 0.69800001 5.5398093e-40
0.00066380773 -0.049785715 0.69700003 8.2949722e-40
0.0019914273 -0.049785715 0.69700003 1.1060771e-39
0.0033190511 -0.049785737 0.69699997 7.3622119e-40
0.0046466654 -0.049785715 0.69699997 2.8100238e-40
0.0059742858 -0.049785711 0.69700003 4.5183636e-39
0.0072809579 -0.049642887 0.69499999 8.6675187e-39
0.0086047668 -0.049642883 0.69500005 8.9538432e-39
0.0099285757 -0.049642883 0.69499999 9.1267045e-39
0.011252385 -0.049642876 0.69500005 6.8157041e-39
0.012576194 -0.04964288 0.69500005 4.4265505e-39
0.013900007 -0.049642894 0.69499999 3.7776092e-39
0.015223811 -0.049642872 0.69500005 3.1325971e-39
0.016547626 -0.049642891 0.69499999 2.4865102e-39
0.017871438 -0.049642891 0.69500005 1.8414982e-39
0.019250477 -0.049785726 0.69699997 1.4737862e-39
0.020519055 -0.049642883 0.69499999 1.0142472e-39
0.02184286 -0.04964288 0.69500005 1.0128081e-39
0.023166675 -0.049642902 0.69499999 9.2240191e-40
0.024560953 -0.049785703 0.69700003 1.015308e-39
0.02588857 -0.049785707 0.69700003 1.1071519e-39
0.027216196 -0.049785733 0.69699997 1.1064428e-39
0.028543815 -0.049785733 0.69699997 1.107882e-39
0.029914286 -0.049857132 0.69800001 1.5674238e-39
0.031243809 -0.049857136 0.69799995 2.0291124e-39
0.032666668 -0.050000004 0.70000005 2.5808442e-39
0.034000002 -0.049999986 0.70000005 3.1354488e-39
0.035383809 -0.050071426 0.70100003 3.6871834e-39
0.03671905 -0.050071437 0.70100003 4.1416861e-39
0.038271427 -0.050357144 0.70500004 3.9493944e-39
0.039614286 -0.050357137 0.70500004 3.6997895e-39
0.040957138 -0.050357133 0.70500004 1.0531205e-38
0.042480007 -0.050571453 0.70799994 1.7234822e-38
0.044014294 -0.05078572 0.71100008 1.5850101e-38
0.045496192 -0.050928593 0.713 1.4391201e-38
0.046920002 -0.050999995 0.71399999 1.8917751e-38
0.04841524 -0.051142868 0.71600002 2.341769e-38
0.049779046 -0.05114283 0.71600008 2.341769e-38
0.051357146 -0.051357169 0.71900004 2.341769e-38
0.0528 -0.051428575 0.72000003 2.341769e-38
0.054171432 -0.051428571 0.72000003 2.341769e-38
0.055542856 -0.051428575 0.72000003 2.341769e-38
-0.018411428 -0.049779058 0.71600002 1.5318909e-38
-0.017000007 -0.049639981 0.71400005 1.5680405e-38
-0.015640004 -0.049639992 0.71400005 7.9241438e-39
-0.014280002 -0.049640004 0.71399999 9.2288116e-41
-0.01290191 -0.049570464 0.71300006 7.3656171e-40
-0.011495243 -0.049361892 0.71000004 1.3815626e-39
-0.010114289 -0.049222857 0.708 1.0135031e-39
-0.0087533267 -0.049153373 0.70699996 7.3799944e-40
-0.0073752408 -0.048944768 0.704 5.5432985e-40
-0.0060257097 -0.048875265 0.70300001 4.6176848e-40
-0.004673332 -0.048736203 0.70099998 3.6956585e-40
-0.0033380929 -0.048736215 0.70099998 2.7809889e-40
-0.0020000027 -0.04866666 0.70000011 4.6249576e-40
-0.00066380977 -0.048458103 0.69700003 6.4545629e-40
0.00066191191 -0.048319083 0.69499999 1.0145975e-39
0.0019857206 -0.048319083 0.69500005 1.3844493e-39
0.0033095244 -0.048319053 0.69500005 7.3729459e-40
0.0046333382 -0.048319075 0.69499999 1.8412501e-40
0.0059571485 -0.048319072 0.69500005 5.8079674e-39
0.0072809616 -0.048319094 0.69499999 1.1339697e-38
0.0086047649 -0.048319064 0.69499999 1.1434836e-38
0.0099285739 -0.048319068 0.69500005 1.1515851e-38
0.011252388 -0.048319083 0.69499999 8.2918642e-39
0.012576193 -0.04831906 0.69500005 5.0690276e-39
0.013879997 -0.048249509 0.69400001 3.6868457e-39
0.015201901 -0.048249502 0.69400001 2.3986292e-39
0.016547626 -0.048319075 0.69500005 2.0276915e-39
0.017871434 -0.048319068 0.69499999 1.6578272e-39
0.019195246 -0.048319068 0.69500005 1.3819507e-39
0.020519054 -0.048319068 0.69500005 1.1057198e-39
0.02184286 -0.04831906 0.69499999 1.0138773e-39
0.023166668 -0.048319057 0.69500005 1.0145849e-39
0.024490483 -0.048319079 0.69499999 1.0152912e-39
0.025814291 -0.048319075 0.69500005 1.1082169e-39
0.027138101 -0.048319079 0.69500005 1.1078722e-39
0.028461909 -0.048319068 0.69499999 1.2004293e-39
0.02987143 -0.048458099 0.69699997 1.6599698e-39
0.031243805 -0.048527595 0.69800001 2.1220171e-39
0.032573335 -0.048527624 0.69800001 2.6748237e-39
0.034000002 -0.048666656 0.70000005 3.1379557e-39
0.035333335 -0.048666663 0.70000011 3.2262109e-39
0.03671905 -0.048736196 0.70099998 3.4041323e-39
0.038162857 -0.048875242 0.70300001 4.236023e-39
0.039614286 -0.04901427 0.70500004 5.0823722e-39
0.041073341 -0.049153354 0.70699996 9.8801575e-39
0.042480003 -0.049222868 0.708 1.4671718e-38
0.043952383 -0.049361896 0.71000004 1.5122257e-38
0.045496188 -0.049570475 0.71300006 1.5582922e-38
0.046919998 -0.049640004 0.71400005 1.9553424e-38
0.048415232 -0.049779024 0.71600008 2.341769e-38
0.049848575 -0.04984856 0.71700001 2.341769e-38
0.05135715 -0.049987633 0.71900004 2.341769e-38
0.052800003 -0.050057154 0.72000003 2.341769e-38
0.054171428 -0.050057124 0.72000003 2.341769e-38
0.055697143 -0.050196189 0.72200006 2.341769e-38
0.057072382 -0.050196167 0.72200012 2.341769e-38
-0.019720001 -0.048280004 0.71400005 1.6426295e-38
-0.018360004 -0.04827999 0.71400005 1.6155819e-38
-0.016976191 -0.04821239 0.71300006 1.58454e-38
-0.0156181 -0.048212375 0.71300006 7.9965755e-39
-0.014260001 -0.048212383 0.713 9.4069166e-41
-0.012865719 -0.048077133 0.71100008 6.4401435e-40
-0.011462859 -0.047874294 0.708 1.1049841e-39
-0.010100001 -0.047806669 0.70700002 8.2983634e-40
-0.0087285768 -0.047671419 0.70500004 4.6249435e-40
-0.0073647625 -0.047536202 0.70299995 4.6213702e-40
-0.0060257153 -0.047536191 0.70300001 3.7029592e-40
-0.0046733352 -0.047400944 0.70100003 3.6957425e-40
-0.0033333318 -0.047333345 0.70000005 2.781059e-40
-0.0019942904 -0.047198076 0.69800001 4.6250276e-40
-0.00066189887 -0.046995271 0.69500005 6.4653809e-40
0.00066191063 -0.046995267 0.69500005 1.10644e-39
0.0019857192 -0.046995264 0.69499999 1.565249e-39
0.0033095281 -0.04699526 0.69500005 8.2732801e-40
0.0046333373 -0.046995256 0.69500005 9.8753707e-41
0.0059571457 -0.046995252 0.69499999 7.0972754e-39
0.0072704763 -0.04692762 0.69400001 1.4009411e-38
0.0085923793 -0.04692762 0.69400001 1.4020972e-38
0.0099142836 -0.046927612 0.69400001 1.3916159e-38
0.011236186 -0.046927609 0.69400001 9.8588339e-39
0.012558091 -0.046927601 0.69400001 5.7154676e-39
0.01388 -0.04692762 0.69400001 3.6857527e-39
0.015201905 -0.04692762 0.69400001 1.5706664e-39
0.016547624 -0.046995256 0.69500005 1.5681567e-39
0.017871434 -0.046995252 0.69500005 1.4748736e-39
0.019167619 -0.046927601 0.69400001 1.2908327e-39
0.020489525 -0.046927623 0.69400001 1.10644e-39
0.021811428 -0.046927616 0.69400001 1.1064372e-39
0.023166673 -0.046995264 0.69499999 1.0145975e-39
0.024455234 -0.046927605 0.69400001 1.0153122e-39
0.025814289 -0.046995256 0.69499999 1.0153206e-39
0.027138099 -0.046995256 0.69500005 1.1993601e-39
0.028461911 -0.046995275 0.69499999 1.2911956e-39
0.029785721 -0.046995275 0.69499999 1.7503745e-39
0.031199045 -0.047130473 0.69700003 2.2127806e-39
0.032526668 -0.047130477 0.69700003 2.6748279e-39
0.033902857 -0.047198091 0.69800001 3.1354474e-39
0.035333335 -0.047333337 0.70000005 2.8588731e-39
0.036666662 -0.047333315 0.70000005 2.5797709e-39
0.038054291 -0.04740097 0.70100003 4.5079491e-39
0.039558098 -0.047603812 0.70400012 6.4606193e-39
0.041073341 -0.04780668 0.70700002 9.2344294e-39
0.042480003 -0.047874309 0.70799994 1.1997728e-38
0.043828569 -0.047874283 0.708 1.438436e-38
0.045368578 -0.048077159 0.71100003 1.6783965e-38
0.046854287 -0.048212383 0.71300006 2.0111612e-38
0.048280004 -0.048279982 0.71400005 2.341769e-38
0.049987622 -0.048618097 0.71900004 2.341769e-38
0.051428575 -0.048685733 0.72000003 2.341769e-38
0.0528 -0.048685733 0.72000003 2.341769e-38
0.054321896 -0.048820931 0.72200006 2.341769e-38
0.055697139 -0.048820931 0.72200006 2.341769e-38
-0.019719999 -0.046920002 0.71399999 1.4679983e-38
-0.018360004 -0.04691999 0.71400005 1.1446727e-38
-0.016976196 -0.046854272 0.71300006 8.3037458e-39
-0.015618094 -0.046854306 0.71300006 4.2359515e-39
-0.014260001 -0.046854287 0.71300006 1.8409699e-40
-0.012865714 -0.046722878 0.71100003 6.4509616e-40
-0.011462854 -0.046525732 0.708 1.1057072e-39
-0.010099999 -0.046460014 0.70699996 9.2167464e-40
-0.0087161912 -0.046262864 0.70400006 8.3055661e-40
-0.0073647615 -0.046197157 0.70300001 6.4652548e-40
-0.0060257097 -0.046197169 0.70300001 4.6321182e-40
-0.0046733301 -0.046065733 0.70100003 3.7029872e-40
-0.003333335 -0.045999993 0.70000005 3.699484e-40
-0.0019942892 -0.045868561 0.69800001 6.4582203e-40
-0.00066190178 -0.045671448 0.69499999 9.2205159e-40
0.00066190772 -0.045671448 0.69500005 9.2205719e-40
0.0019857159 -0.045671444 0.69500005 1.0138773e-39
0.0033095302 -0.04567147 0.69499999 5.5253058e-40
0.0046266629 -0.045605697 0.69400001 1.8414043e-40
0.0059485664 -0.045605693 0.69400001 8.5806578e-39
0.0072704698 -0.045605689 0.69400001 1.7059384e-38
0.0085923718 -0.045605682 0.69400001 1.6691408e-38
0.0099142771 -0.045605674 0.69400001 1.6320054e-38
0.011236185 -0.0456057 0.69400001 1.1981838e-38
0.012539998 -0.04553999 0.69300002 7.5536167e-39
0.013859997 -0.045539979 0.69300002 4.3296605e-39
0.015179995 -0.045539975 0.69300002 1.1093295e-39
0.016523808 -0.0456057 0.69400001 1.1997385e-39
0.017845713 -0.045605697 0.69400001 1.3819633e-39
0.019167617 -0.045605689 0.69400001 1.1982797e-39
0.020489518 -0.045605686 0.69400001 1.0149675e-39
0.02181142 -0.045605682 0.69400001 8.3093636e-40
0.023166675 -0.045671474 0.69499999 7.383876e-40
0.024455234 -0.045605697 0.69400001 8.3058463e-40
0.025777139 -0.045605689 0.69400001 1.0139011e-39
0.027099039 -0.045605686 0.69400001 1.1986525e-39
0.028420947 -0.045605678 0.69400001 1.4734387e-39
0.029785719 -0.045671456 0.69499999 1.9344071e-39
0.031109532 -0.045671452 0.69499999 2.3953796e-39
0.032433335 -0.045671452 0.69500005 2.8570682e-39
0.03385428 -0.045802843 0.69700003 3.3187638e-39
0.035232376 -0.045868557 0.69800001 2.7663229e-39
0.036561899 -0.045868557 0.69799995 2.2113569e-39
0.038054291 -0.046065733 0.70099998 4.8813952e-39
0.039389525 -0.046065722 0.70100003 7.6609365e-39
0.040957142 -0.046328563 0.70500004 1.1074358e-38
0.042420004 -0.046460021 0.70699996 1.4475496e-38
0.043828569 -0.046525721 0.70799994 1.5764058e-38
0.045368571 -0.046722852 0.71100008 1.7056609e-38
0.046854287 -0.046854265 0.71300006 2.0289185e-38
0.048280001 -0.046919979 0.71399999 2.341769e-38
0.049779046 -0.047051433 0.71600002 2.341769e-38
0.051214289 -0.047117159 0.71700001 2.341769e-38
0.052799996 -0.04731429 0.72000003 2.341769e-38
0.054321904 -0.047445696 0.72200012 2.341769e-38
0.055697139 -0.047445696 0.72200012 2.341769e-38
-0.019719999 -0.045560002 0.71400005 1.2809503e-38
-0.01836 -0.045560014 0.71400005 6.8301235e-39
-0.016976191 -0.045496203 0.713 7.5311945e-40
-0.015618098 -0.045496184 0.71300006 5.517921e-40
-0.01422 -0.045368589 0.71100003 2.7773876e-40
-0.012847625 -0.045304742 0.71000004 7.3836938e-40
-0.011446669 -0.04511334 0.70700002 1.1053484e-39
-0.01004286 -0.044858102 0.70300001 1.1046282e-39
-0.0087038139 -0.044858087 0.70300001 1.1057072e-39
-0.0073438114 -0.044730477 0.70100003 8.3056081e-40
-0.0060085705 -0.044730488 0.70099998 4.6249716e-40
-0.0046533397 -0.044539016 0.69800001 4.6177409e-40
-0.0033238097 -0.044539046 0.69800001 4.617853e-40
-0.0019914273 -0.04447525 0.69699997 8.2913709e-40
-0.00066190114 -0.044347633 0.69500005 1.1053681e-39
0.00066094974 -0.0442838 0.69400001 7.3803167e-40
0.0019828535 -0.044283792 0.69400001 3.6924495e-40
0.0033047579 -0.044283792 0.69400001 3.6780021e-40
0.0046266615 -0.044283785 0.69400001 2.9432172e-40
0.0059399982 -0.044220001 0.69300002 1.0165624e-38
0.0072600017 -0.044220012 0.69299996 2.0004266e-38
0.0085799936 -0.044219982 0.69300002 1.9365409e-38
0.0098999981 -0.044219997 0.69300002 1.8709243e-38
0.011219998 -0.044219997 0.69300002 1.4102717e-38
0.012503813 -0.044092394 0.69099998 9.3978852e-39
0.013820005 -0.044092413 0.69099998 5.0618306e-39
0.015136195 -0.044092402 0.69100004 6.4907584e-40
0.016499998 -0.044219989 0.69300002 9.2351735e-40
0.017819997 -0.044219982 0.69300002 1.1979364e-39
0.01914 -0.044219997 0.69300002 1.0138955e-39
0.020400958 -0.044092406 0.69100004 8.3058323e-40
0.021779997 -0.044219986 0.69300002 6.4727097e-40
0.023133332 -0.044283785 0.69400001 3.7104982e-40
0.024455234 -0.044283785 0.69400001 6.4656051e-40
0.025777135 -0.044283781 0.69400001 9.2242713e-40
0.027099045 -0.044283796 0.69400001 1.2908467e-39
0.028420951 -0.044283796 0.69400001 1.658546e-39
0.029785719 -0.04434764 0.69500005 2.1177221e-39
0.031109534 -0.044347662 0.69499999 2.4875752e-39
0.032433335 -0.044347629 0.69500005 3.0393043e-39
0.033854283 -0.044475235 0.69700003 3.5017131e-39
0.035181906 -0.044475231 0.69700003 2.6759125e-39
0.036509521 -0.044475239 0.69700003 1.7514689e-39
0.038054287 -0.044730473 0.70100003 5.3283982e-39
0.039389525 -0.044730484 0.70099998 8.8544533e-39
0.040957142 -0.044985726 0.70500004 1.2926142e-38
0.042420004 -0.045113347 0.70700002 1.6960446e-38
0.04364286 -0.044985708 0.70500004 1.7139814e-38
0.045368575 -0.045368571 0.71100003 1.7337505e-38
0.046722859 -0.045368582 0.71100008 2.0387119e-38
0.048212379 -0.045496177 0.71300006 2.341769e-38
0.04964 -0.045559991 0.71400005 2.341769e-38
0.051214293 -0.04575146 0.71699995 2.341769e-38
0.052799996 -0.045942847 0.72000003 2.341769e-38
0.054171424 -0.045942843 0.72000003 2.341769e-38
0.055697143 -0.046070464 0.72200006 2.341769e-38
0.057151429 -0.046134304 0.72299999 2.341769e-38
-0.019720005 -0.044199973 0.71400005 6.4290382e-39
-0.018360006 -0.044199985 0.71400005 3.6825297e-39
-0.016976191 -0.044138111 0.71300006 9.188272e-40
-0.015574287 -0.044014301 0.71100003 8.2803847e-40
-0.014200007 -0.043952357 0.71000004 7.3836378e-40
-0.012811431 -0.043828562 0.708 9.2204178e-40
-0.011414292 -0.043642841 0.7050001 1.1053498e-39
-0.010042855 -0.043519076 0.70299995 1.1971811e-39
-0.008679051 -0.043395232 0.70100003 1.289381e-39
-0.0073333341 -0.043333333 0.70000005 1.0138787e-39
-0.0060085696 -0.043395251 0.70099998 7.3728758e-40
-0.0046533393 -0.043209504 0.69800001 6.4508495e-40
-0.0033238097 -0.04320953 0.69799995 5.5326206e-40
-0.0019914291 -0.043147624 0.69700003 8.2913989e-40
-0.00066095527 -0.042961892 0.69400001 1.0135354e-39
0.00066094898 -0.042961888 0.69400001 6.4584165e-40
0.0019828524 -0.042961881 0.69400001 2.7598433e-40
0.0032999965 -0.042899985 0.69300002 2.1152012e-39
0.0046199998 -0.0429 0.69300002 4.0513781e-39
0.0059400033 -0.042900015 0.69300002 1.2921134e-38
0.0072599966 -0.042899985 0.69300002 2.1763178e-38
0.0085552419 -0.042776216 0.69100004 1.9825313e-38
0.009899999 -0.0429 0.69300008 1.7976744e-38
0.011187623 -0.04277622 0.69099998 1.4563382e-38
0.012485711 -0.042714272 0.69000006 1.1240001e-38
0.013800003 -0.042714305 0.69 5.8026102e-39
0.015114286 -0.042714294 0.69000006 4.603826e-40
0.016452383 -0.042776197 0.69100004 1.013562e-39
0.017768577 -0.042776212 0.69100004 1.4727297e-39
0.01908477 -0.042776223 0.69099998 1.2890475e-39
0.020400958 -0.042776212 0.69099998 1.1053765e-39
0.021717148 -0.042776205 0.69100004 8.2986997e-40
0.023033334 -0.042776193 0.69100004 6.4620318e-40
0.024349529 -0.042776205 0.69100004 8.2987838e-40
0.025777141 -0.042961892 0.69400001 1.1053835e-39
0.027099043 -0.042961884 0.69400001 1.3823235e-39
0.028420951 -0.042961881 0.69400001 1.6596236e-39
0.029742852 -0.042961877 0.69400001 2.1198773e-39
0.031109532 -0.043023847 0.69500005 2.6726825e-39
0.032433338 -0.043023836 0.69499999 3.1332922e-39
0.033854283 -0.043147624 0.69699997 3.6864547e-39
0.035181906 -0.043147627 0.69700003 2.5811974e-39
0.036509525 -0.043147631 0.69700003 1.5649337e-39
0.038054287 -0.04339524 0.70099998 5.8019474e-39
0.039389528 -0.043395244 0.70099998 1.0052994e-38
0.040840957 -0.043519072 0.70300001 1.2548761e-38
0.042239998 -0.043580942 0.70400006 1.512626e-38
0.043580953 -0.04358096 0.70400006 1.6502363e-38
0.045177147 -0.043828577 0.708 1.7981079e-38
0.046657141 -0.043952383 0.71000004 2.0749797e-38
0.048077147 -0.044014279 0.71100008 2.341769e-38
0.049570478 -0.044138093 0.71300006 2.341769e-38
0.051214289 -0.044385709 0.71699995 2.341769e-38
0.052799996 -0.044571418 0.72000003 2.341769e-38
0.054171432 -0.044571422 0.72000003 2.341769e-38
0.055542856 -0.044571418 0.72000003 2.341769e-38
0.057072382 -0.044695232 0.72200006 2.341769e-38
-0.019720003 -0.042839997 0.71400005 9.2334358e-41
-0.018334286 -0.042780001 0.71300006 6.4331511e-40
-0.016928572 -0.042660013 0.71100003 1.1028429e-39
-0.015508573 -0.042480011 0.708 1.1028345e-39
-0.014160002 -0.042480003 0.70799994 1.1046338e-39
-0.012757145 -0.042300008 0.70500004 1.1053568e-39
-0.011398097 -0.042240009 0.70400006 1.1053484e-39
-0.010014286 -0.042060014 0.70100003 1.2893712e-39
-0.0086790463 -0.042060021 0.70099998 1.4730449e-39
-0.0073123816 -0.041880004 0.69799995 1.1986175e-39
-0.0059828609 -0.041879985 0.69800001 9.2094176e-40
-0.0046466668 -0.041820012 0.69699997 8.2801465e-40
-0.0033190467 -0.041820012 0.69700003 6.4508074e-40
-0.0019857094 -0.041700024 0.69500005 8.2913008e-40
-0.00066000613 -0.041579973 0.69300002 9.2240612e-40
0.00065999723 -0.041579992 0.69300002 5.5506833e-40
0.0019799965 -0.041579984 0.69300008 9.3409154e-41
0.0032999946 -0.041579973 0.69300002 3.9494532e-39
0.0046199984 -0.041579995 0.69300002 7.8450111e-39
0.0059399968 -0.041579992 0.69300002 1.5703486e-38
0.0072390493 -0.041460011 0.69099998 2.3415152e-38
0.0085552428 -0.041460026 0.69099998 2.0287003e-38
0.0098714363 -0.041460041 0.69099998 1.7149861e-38
0.011171428 -0.041399997 0.69 1.51169e-38
0.012485717 -0.041400012 0.69000006 1.2989182e-38
0.013800004 -0.041400023 0.69 6.631652e-39
0.015114287 -0.041400012 0.69000006 2.8173386e-40
0.016428575 -0.041400019 0.69 1.0139109e-39
0.017742861 -0.041400004 0.69 1.7485865e-39
0.019057142 -0.041399993 0.69000006 1.5641882e-39
0.020371431 -0.041400004 0.69 1.2886845e-39
0.021717148 -0.041460011 0.69100004 1.1042989e-39
0.02303334 -0.041460026 0.69100004 9.2134814e-40
0.024349527 -0.041460015 0.69099998 1.1050233e-39
0.025665721 -0.04146003 0.69099998 1.1975749e-39
0.026981909 -0.041460019 0.69099998 1.3816032e-39
0.028379999 -0.041579992 0.69300002 1.5681427e-39
0.029742854 -0.041639991 0.69400001 2.2131435e-39
0.031064758 -0.041639984 0.69400001 2.8570696e-39
0.032386668 -0.041640002 0.69400001 3.3187596e-39
0.033757146 -0.041700013 0.69499999 3.7768525e-39
0.03518191 -0.041820019 0.69699997 2.5808302e-39
0.036509525 -0.04181999 0.69699997 1.2933845e-39
0.037999999 -0.041999985 0.70000005 6.2615158e-39
0.039389528 -0.042060014 0.70100003 1.1156469e-38
0.040840954 -0.042179998 0.70300001 1.2180699e-38
0.042300001 -0.042299986 0.70500004 1.3189101e-38
0.043580957 -0.042240005 0.70400006 1.5946325e-38
0.045113333 -0.042420011 0.70700002 1.8626796e-38
0.046525717 -0.042480018 0.708 2.1029967e-38
0.048009519 -0.04259998 0.71000004 2.341769e-38
0.049431432 -0.042660002 0.71100008 2.341769e-38
0.052800003 -0.043200005 0.72000003 2.341769e-38
0.054096196 -0.043140013 0.71900004 2.341769e-38
0.055542856 -0.043200005 0.72000003 2.341769e-38
0.056914289 -0.043200005 0.72000003 2.341769e-38
-0.018334286 -0.041421905 0.71300006 1.1035352e-39
-0.016904768 -0.041247606 0.71000004 1.1957406e-39
-0.015508571 -0.041131448 0.70799994 1.1961105e-39
-0.014139997 -0.041073363 0.70700002 1.104638e-39
-0.01273905 -0.040899061 0.70400006 1.0135227e-39
-0.011381904 -0.040840965 0.70300001 9.2095998e-40
-0.010014285 -0.040724777 0.70099998 1.1049785e-39
-0.0086666672 -0.040666673 0.70000005 1.287932e-39
-0.0073123844 -0.040550467 0.69800001 9.213075e-40
-0.0059742872 -0.040492378 0.69700003 6.4434366e-40
-0.0046466677 -0.040492378 0.69700003 6.450373e-40
-0.0033095155 -0.040376231 0.69499999 7.3654069e-40
-0.0019828617 -0.040318076 0.69400001 9.2203197e-40
-0.00065808964 -0.040143836 0.69099998 1.0160227e-39
0.00065809337 -0.040143803 0.69100004 5.5397812e-40
0.0019742865 -0.040143814 0.69100004 9.2352575e-41
0.0032904798 -0.040143829 0.69100004 5.7076526e-39
0.0046066674 -0.040143814 0.69100004 1.1256953e-38
0.0059228609 -0.040143836 0.69099998 1.7346861e-38
0.0072285691 -0.040085707 0.69000006 2.332584e-38
0.0085428562 -0.040085714 0.69 2.1205359e-38
0.0098571451 -0.040085729 0.69000006 1.9075893e-38
0.011171429 -0.040085718 0.69000006 1.5853728e-38
0.012485717 -0.040085729 0.69 1.263081e-38
0.0138 -0.040085714 0.69000006 6.4505019e-39
0.015114288 -0.040085722 0.69 1.8415864e-40
0.016428571 -0.040085714 0.69000006 8.2879517e-40
0.017742861 -0.040085722 0.69 1.473789e-39
0.019057142 -0.040085711 0.69000006 1.1971979e-39
0.020371431 -0.040085718 0.69 1.0128151e-39
0.021685714 -0.040085707 0.69000006 1.0128193e-39
0.023000002 -0.040085718 0.69 1.1046576e-39
0.024314292 -0.040085733 0.69000006 1.2890489e-39
0.025628576 -0.04008574 0.69 1.3816004e-39
0.026981909 -0.040143829 0.69100004 1.2911984e-39
0.028298099 -0.040143814 0.69100004 1.2015139e-39
0.029699994 -0.04025998 0.69300002 2.0291082e-39
0.03106476 -0.040318076 0.69400001 2.8563507e-39
0.032386661 -0.040318072 0.69400001 3.1332964e-39
0.03375715 -0.04037622 0.69499999 3.5006243e-39
0.035080954 -0.040376224 0.69500005 2.5775918e-39
0.036509518 -0.040492363 0.69700003 1.5620877e-39
0.038000006 -0.040666681 0.70000005 6.7339986e-39
0.039389528 -0.040724777 0.70099998 1.1814757e-38
0.040724769 -0.040724784 0.70099998 1.0980376e-38
0.042180005 -0.040840965 0.70300001 1.0237807e-38
0.043580953 -0.040899046 0.70400006 1.4568789e-38
0.045113336 -0.041073356 0.70699996 1.8906965e-38
0.046525717 -0.041131452 0.70799994 2.1119291e-38
0.048009526 -0.041247614 0.71000004 2.341769e-38
0.049361899 -0.041247588 0.71000004 2.341769e-38
0.052726667 -0.041770481 0.71900004 2.341769e-38
0.054096196 -0.041770499 0.71900004 2.341769e-38
0.055465717 -0.041770495 0.71899998 2.341769e-38
0.056835242 -0.041770492 0.71900004 2.341769e-38
-0.018257147 -0.039895229 0.71000004 1.5641588e-39
-0.016857143 -0.039782863 0.70799994 1.2890138e-39
-0.015486664 -0.039726693 0.70700002 1.1971825e-39
-0.014100003 -0.03961429 0.70500004 1.1053526e-39
-0.012720957 -0.039501902 0.70300001 9.2276485e-40
-0.011349526 -0.039389525 0.70099998 6.4653249e-40
-0.010000002 -0.039333336 0.70000005 8.2911887e-40
-0.0086419117 -0.039220922 0.69800001 1.0127899e-39
-0.0073019038 -0.039164767 0.69699997 6.4544788e-40
-0.0059571359 -0.039052416 0.69499999 2.7809188e-40
-0.0046333256 -0.039052416 0.69500005 5.5430323e-40
-0.0033047674 -0.038996171 0.69400001 8.2982793e-40
-0.0019800013 -0.038939998 0.69300002 1.0138759e-39
-0.00065714389 -0.038771428 0.69000006 1.10571e-39
0.00065714389 -0.038771439 0.69 6.4437869e-40
0.001971428 -0.038771424 0.69 9.2719715e-41
0.0032857107 -0.03877141 0.69000006 7.3474366e-39
0.0045999978 -0.038771424 0.69 1.4658821e-38
0.0059142816 -0.03877141 0.69000006 1.9009586e-38
0.0072285691 -0.038771421 0.69 2.3234012e-38
0.0085428581 -0.038771436 0.69000006 2.2131979e-38
0.0098571461 -0.038771447 0.69 2.0922663e-38
0.011155238 -0.038715243 0.68900001 1.6590581e-38
0.012467616 -0.038715225 0.68900001 1.2259527e-38
0.013779999 -0.038715232 0.68900001 6.1717626e-39
0.015092378 -0.038715221 0.68900001 9.6981064e-41
0.016404761 -0.038715228 0.68900001 6.4332351e-40
0.017717136 -0.038715217 0.68900001 1.1053681e-39
0.019029519 -0.038715225 0.68900001 9.2097679e-40
0.020341909 -0.038715232 0.68900001 6.4583464e-40
0.021685712 -0.038771424 0.69 1.0135396e-39
0.022966666 -0.038715225 0.68900001 1.2890503e-39
0.024314292 -0.038771447 0.69 1.4727254e-39
0.025628572 -0.038771439 0.69000006 1.5659903e-39
0.026942862 -0.038771443 0.69 1.2004363e-39
0.028257145 -0.038771436 0.69000006 7.4233506e-40
0.02961429 -0.038827635 0.69099998 1.753959e-39
0.031020004 -0.038940016 0.69299996 2.765953e-39
0.032386664 -0.038996182 0.69400001 3.0414693e-39
0.033708565 -0.038996179 0.69400001 3.2236913e-39
0.035080958 -0.039052401 0.69499999 2.5754464e-39
0.036509525 -0.039164755 0.69700003 1.8497882e-39
0.037891433 -0.039220966 0.69800001 7.2053618e-39
0.039333336 -0.039333332 0.70000005 1.2447179e-38
0.040724766 -0.039389528 0.70100003 9.8715003e-39
0.042240001 -0.039558101 0.70400006 7.1985949e-39
0.043642852 -0.039614283 0.70500004 1.3183698e-38
0.045113333 -0.039726682 0.70700002 1.9087036e-38
0.046525717 -0.039782867 0.708 2.1305474e-38
0.04787429 -0.039782863 0.70799994 2.341769e-38
0.049361907 -0.03989524 0.71000004 2.341769e-38
0.050928578 -0.040063817 0.713 2.341769e-38
0.052580006 -0.040288582 0.71699995 2.341769e-38
0.053945716 -0.040288575 0.71699995 2.341769e-38
0.055311434 -0.04028859 0.71699995 2.341769e-38
-0.019554283 -0.038434304 0.70799994 1.8403911e-39
-0.018205712 -0.038434304 0.708 1.6567215e-39
-0.016833331 -0.038380012 0.70699996 1.4737638e-39
-0.015442858 -0.038271431 0.70500004 1.2893712e-39
-0.01408 -0.038217157 0.70400006 1.196828e-39
-0.012720952 -0.03816288 0.70300001 1.1057198e-39
-0.011349523 -0.038054295 0.70100003 1.0145947e-39
-0.0099714305 -0.037891429 0.69799995 1.0135115e-39
-0.008629526 -0.037837137 0.69700003 1.1049883e-39
-0.0072809458 -0.037728604 0.69500005 7.3728758e-40
-0.0059571373 -0.037728604 0.69500005 4.6213702e-40
-0.0046266671 -0.037674285 0.69400001 7.3799944e-40
-0.0033047642 -0.037674285 0.69400001 1.0138745e-39
-0.0019800027 -0.037619989 0.69300002 1.1057198e-39
-0.00065714389 -0.037457142 0.69 1.2893852e-39
0.00065714028 -0.037457127 0.69000006 6.4437729e-40
0.001971428 -0.037457142 0.69 9.2369391e-41
0.0032857119 -0.037457127 0.69000006 7.3732822e-39
0.0045933295 -0.037402842 0.68900001 1.4685017e-38
0.0059057125 -0.037402853 0.68900001 1.9007434e-38
0.0072180908 -0.037402835 0.68900001 2.3234019e-38
0.0085304743 -0.03740285 0.68900001 2.268193e-38
0.0098428512 -0.037402831 0.68900001 2.2218778e-38
0.011155234 -0.037402842 0.68900001 1.8805769e-38
0.012467613 -0.037402827 0.68900001 1.5480951e-38
0.013779994 -0.037402831 0.68900007 7.7397778e-39
0.015092382 -0.037402868 0.68900001 9.2311938e-41
0.016404759 -0.03740285 0.68900001 9.1989919e-40
0.017717145 -0.037402865 0.68900001 1.7500088e-39
0.019029522 -0.037402846 0.68900001 1.2897565e-39
0.020341907 -0.037402857 0.68900001 9.2170266e-40
0.021654284 -0.037402842 0.68900001 1.1053779e-39
0.022966666 -0.03740285 0.68900001 1.38089e-39
0.024279041 -0.037402835 0.68900001 1.3816116e-39
0.025628572 -0.037457153 0.69000006 1.4737974e-39
0.026942862 -0.037457161 0.69 1.2915516e-39
0.028257145 -0.037457153 0.69 1.2015097e-39
0.029614286 -0.037511423 0.69100004 1.9390636e-39
0.031019997 -0.037619986 0.69300002 2.768827e-39
0.032386664 -0.037674271 0.69400001 3.1351068e-39
0.033708572 -0.037674289 0.69400001 3.5935514e-39
0.035030477 -0.037674285 0.69400001 3.1293363e-39
0.036509525 -0.037837144 0.69699997 2.6684142e-39
0.037891429 -0.037891425 0.69800001 7.1074166e-39
0.039333332 -0.037999984 0.70000005 1.1621714e-38
0.040724766 -0.038054287 0.70099998 7.6466069e-39
0.042180005 -0.038162883 0.70300001 3.6740196e-39
0.043580953 -0.038217131 0.70400006 1.1706771e-38
0.044985712 -0.038271409 0.70500004 1.9737405e-38
0.046460003 -0.038380023 0.70700002 2.1579186e-38
0.04787429 -0.038434308 0.708 2.341769e-38
0.049361903 -0.038542841 0.71000004 2.341769e-38
0.050928578 -0.038705725 0.71300006 2.341769e-38
0.052580003 -0.038922857 0.71700001 2.341769e-38
0.053870481 -0.038868584 0.71600002 2.341769e-38
0.055234287 -0.038868573 0.71600002 2.341769e-38
-0.020991428 -0.037242875 0.71100003 2.8530885e-39
-0.019554285 -0.037085719 0.708 1.9329483e-39
-0.018205713 -0.037085723 0.708 1.7482109e-39
-0.016833333 -0.037033338 0.70700002 1.5648874e-39
-0.015442862 -0.036928564 0.70500004 1.4730407e-39
-0.014060004 -0.036823813 0.70300001 1.289381e-39
-0.01266667 -0.036666662 0.70000005 1.2890348e-39
-0.011333335 -0.036666673 0.70000005 1.289025e-39
-0.0099714343 -0.036561891 0.69800001 1.1971811e-39
-0.0086295241 -0.036509529 0.69700003 1.1046254e-39
-0.0072809486 -0.036404785 0.69499999 9.1987537e-40
-0.0059571401 -0.036404785 0.69499999 6.4508775e-40
-0.0046266732 -0.036352351 0.69400001 9.2095437e-40
-0.0033000021 -0.036299996 0.69300002 1.1053498e-39
-0.0019742828 -0.036195256 0.69100004 1.2893866e-39
-0.0006571433 -0.036142863 0.69 1.380499e-39
0.00065714074 -0.036142848 0.69 7.3513379e-40
0.0019685701 -0.036090475 0.68900001 9.7390243e-41
0.0032809535 -0.036090482 0.68900001 7.3675425e-39
0.0045799999 -0.035985716 0.68700004 1.4668515e-38
0.0058885766 -0.035985745 0.68700004 1.9009586e-38
0.0071971454 -0.035985719 0.68700004 2.3232941e-38
0.0085057113 -0.035985705 0.68700004 2.3325852e-38
0.0098142885 -0.035985734 0.68700004 2.3413729e-38
0.011122862 -0.035985742 0.68700004 2.1024558e-38
0.012431429 -0.035985719 0.68700004 1.8610191e-38
0.013779995 -0.03609046 0.68900001 9.397846e-39
0.015092381 -0.036090471 0.68900001 9.9846719e-41
0.016404759 -0.036090452 0.68900001 1.2861608e-39
0.01771714 -0.036090463 0.68900007 2.3910608e-39
0.01902952 -0.036090471 0.68900001 1.7492913e-39
0.020341909 -0.036090482 0.68900001 1.1057296e-39
0.021654284 -0.036090463 0.68900001 1.2894062e-39
0.022966668 -0.036090475 0.68900001 1.3812333e-39
0.024279045 -0.03609046 0.68900001 1.3823025e-39
0.025591426 -0.036090471 0.68900001 1.3826668e-39
0.026903806 -0.036090452 0.68900001 1.4745079e-39
0.028257145 -0.036142867 0.69 1.5692119e-39
0.029571429 -0.036142852 0.69000006 2.2149288e-39
0.030930478 -0.036195248 0.69100004 2.768104e-39
0.032246672 -0.036195263 0.69100004 3.3198456e-39
0.033659998 -0.036299996 0.69300002 3.8686936e-39
0.035080958 -0.036404792 0.69500005 3.6799877e-39
0.036404766 -0.036404788 0.69500005 3.4142161e-39
0.037891429 -0.03656191 0.69800001 7.117101e-39
0.039333332 -0.03666665 0.70000005 1.0687545e-38
0.04066667 -0.036666662 0.70000011 5.4188226e-39
0.042180005 -0.036823813 0.70300001 1.0174128e-40
0.043580953 -0.036876202 0.70400006 1.0231677e-38
0.044985719 -0.036928568 0.70500004 2.0278739e-38
0.046460003 -0.037033346 0.70700002 2.1856487e-38
0.047874287 -0.037085719 0.70799994 2.341769e-38
0.04922286 -0.037085723 0.708 2.341769e-38
0.050928574 -0.037347626 0.713 2.341769e-38
0.052506674 -0.037504774 0.71600002 2.341769e-38
0.053719997 -0.037399981 0.71400005 2.341769e-38
0.05508 -0.037399996 0.71399999 2.341769e-38
0.056439996 -0.037399985 0.71400005 2.341769e-38
-0.023700003 -0.035888556 0.71100003 3.7829271e-39
-0.022345712 -0.035888586 0.71100003 4.3360897e-39
-0.02096191 -0.035838071 0.71000004 3.2250912e-39
-0.019526664 -0.035686687 0.70700002 2.2077429e-39
-0.018179998 -0.035686687 0.70699996 1.7482235e-39
-0.016785717 -0.035585713 0.70500004 1.3808633e-39
-0.015399048 -0.035484776 0.70300001 1.1975315e-39
-0.014020002 -0.035383802 0.70099998 1.0145919e-39
-0.01263048 -0.035232369 0.69799995 1.1053652e-39
-0.011300955 -0.035232373 0.69800001 1.2883076e-39
-0.0099571459 -0.035181891 0.69700003 1.1968196e-39
-0.0086047584 -0.035080966 0.69499999 1.1049785e-39
-0.007280949 -0.035080969 0.69500005 9.2094316e-40
-0.0059400047 -0.034979984 0.69300002 8.2875454e-40
-0.0046200017 -0.034979999 0.69300002 9.2095437e-40
-0.0032904707 -0.034879077 0.69100004 1.0135115e-39
-0.0019742835 -0.034879066 0.69099998 1.2897397e-39
-0.0006561944 -0.034778077 0.68900001 1.4734065e-39
0.00065618346 -0.034778066 0.68900001 8.2804268e-40
0.0019685668 -0.03477807 0.68900001 9.2366588e-41
0.0032714291 -0.034677144 0.68700004 7.0120387e-39
0.0045800018 -0.034677148 0.68700004 1.4030689e-38
0.0058799954 -0.034626648 0.68600005 1.716319e-38
0.0071866629 -0.034626648 0.68600005 2.038317e-38
0.0084933294 -0.034626652 0.68600005 2.0563968e-38
0.0097999973 -0.034626659 0.68600005 2.0841271e-38
0.011106664 -0.034626659 0.68599999 1.9365449e-38
0.012413332 -0.034626659 0.68599999 1.7884493e-38
0.01372 -0.034626666 0.68599999 9.0323033e-39
0.015026666 -0.034626666 0.68599999 9.231474e-41
0.016357144 -0.034677144 0.68700004 1.1950385e-39
0.01766572 -0.034677155 0.68700004 2.2077457e-39
0.018974286 -0.034677137 0.68700004 1.7485725e-39
0.020282865 -0.034677163 0.68700004 1.2890404e-39
0.021591431 -0.034677144 0.68700004 1.1975679e-39
0.022900002 -0.034677152 0.68700004 1.105354e-39
0.024208575 -0.034677155 0.68700004 1.1989636e-39
0.025517149 -0.034677163 0.68700004 1.2922536e-39
0.026825715 -0.03467714 0.68700004 1.5684972e-39
0.028216187 -0.034778085 0.68900001 1.8454358e-39
0.029528573 -0.0347781 0.68900001 2.3071216e-39
0.030885713 -0.034828559 0.69000006 2.8610115e-39
0.032199997 -0.034828566 0.69 3.4123888e-39
0.033562865 -0.034879085 0.69099998 4.0552274e-39
0.035030477 -0.035030462 0.69400001 3.6821359e-39
0.036404766 -0.035080966 0.69500005 3.4056037e-39
0.037837144 -0.035181906 0.69700003 7.1074124e-39
0.039220951 -0.035232373 0.69800001 1.0786526e-38
0.040666666 -0.035333332 0.70000005 5.4291698e-39
0.042060003 -0.035383828 0.70099998 9.2393213e-41
0.043580957 -0.035535246 0.70400006 1.0601186e-38
0.044921905 -0.035535235 0.70400006 2.1207863e-38
0.046328574 -0.035585728 0.70500004 2.2314229e-38
0.047806669 -0.035686687 0.70700002 2.341769e-38
0.04922286 -0.035737135 0.708 2.341769e-38
0.050714288 -0.035838097 0.71000004 2.341769e-38
0.052066669 -0.035838101 0.71000004 2.341769e-38
0.053644769 -0.035989527 0.713 2.341769e-38
0.05508 -0.036039997 0.71400005 2.341769e-38
0.056439996 -0.036039982 0.71399999 2.341769e-38
-0.023699999 -0.034534302 0.71100003 4.4351012e-39
-0.022345716 -0.034534287 0.71100008 4.8892551e-39
-0.020902857 -0.034388576 0.70799994 3.6871428e-39
-0.019526664 -0.034340013 0.70700002 2.3935579e-39
-0.018128574 -0.034242857 0.70500004 1.7478452e-39
-0.016785717 -0.03424285 0.70500004 1.1049729e-39
-0.01535524 -0.034048583 0.70100003 9.2199694e-40
-0.014000007 -0.033999976 0.70000011 6.4651147e-40
-0.012630482 -0.033902831 0.69800001 1.0135171e-39
-0.011284764 -0.03385428 0.69700003 1.2886593e-39
-0.0099571431 -0.033854283 0.69700003 1.1968196e-39
-0.0086047556 -0.033757176 0.69499999 1.0131458e-39
-0.0072704791 -0.033708565 0.69400001 1.013143e-39
-0.0059400001 -0.033659998 0.69300002 9.213131e-40
-0.0046066637 -0.033562873 0.69099998 9.2095857e-40
