# .PCD v0.7 - Point Cloud Data file format
VERSION 0.7
FIELDS x y z rgb
SIZE 4 4 4 4
TYPE F F F F
COUNT 1 1 1 1
WIDTH 961
HEIGHT 1
VIEWPOINT 0 0 0 1 0 0 0
POINTS 961
DATA ascii
0.0085066659 -0.068826668 0.81200004 3.5960247e-39
0.010053332 -0.068826668 0.81200004 3.9648297e-39
0.011600005 -0.068826675 0.81200004 4.3342946e-39
0.013146671 -0.068826683 0.81200004 3.8736528e-39
0.014693338 -0.068826675 0.81200004 3.4137606e-39
0.01624001 -0.06882669 0.8120001 2.9524336e-39
0.017830472 -0.068996191 0.81400001 2.4932505e-39
0.019333333 -0.068826668 0.81200004 2.4914512e-39
0.020880003 -0.068826675 0.81200004 2.3999759e-39
0.02242667 -0.068826675 0.81200004 2.8598708e-39
0.023973336 -0.068826675 0.81200004 3.3219462e-39
0.02552001 -0.068826683 0.81200004 2.7691676e-39
0.027066672 -0.068826675 0.8120001 2.311397e-39
0.028613331 -0.068826661 0.81200004 2.3102928e-39
0.030159999 -0.068826668 0.81200004 2.3135284e-39
0.031706668 -0.068826661 0.81200004 2.7723527e-39
0.033253338 -0.068826675 0.81200004 3.2315498e-39
0.034800004 -0.068826675 0.81200004 3.7840173e-39
0.036346674 -0.068826668 0.81200004 4.3404253e-39
0.037893344 -0.06882669 0.81200004 4.6166619e-39
0.039440002 -0.068826661 0.81200004 4.8925131e-39
0.040986668 -0.068826661 0.81200004 5.1680042e-39
0.042533338 -0.068826675 0.81200004 5.4445896e-39
0.044080008 -0.068826668 0.81200004 6.1799925e-39
0.045626674 -0.068826668 0.81200004 6.9154065e-39
0.047289528 -0.068996191 0.81400001 5.9941943e-39
0.048840016 -0.068996213 0.81400007 5.0729303e-39
0.050390486 -0.068996206 0.81400007 4.3349785e-39
0.051940963 -0.068996206 0.81400007 3.6881741e-39
0.053491432 -0.068996206 0.81400001 2.4896393e-39
0.055041909 -0.068996191 0.81400001 1.3832974e-39
0.056592382 -0.068996191 0.81400001 1.0141491e-39
0.058142856 -0.068996191 0.81400001 7.3685458e-40
0.05969334 -0.068996198 0.81400007 9.2160597e-40
0.061093342 -0.068826675 0.81200004 1.1981887e-39
0.062639996 -0.068826661 0.81200004 8.3048794e-40
0.064186677 -0.068826668 0.81200004 3.6884418e-40
0.06557145 -0.068657145 0.81000006 1.656737e-39
0.066782869 -0.068318099 0.80600011 2.9515255e-39
0.068318106 -0.068318099 0.80600011 1.320422e-38
-0.00077523675 -0.067445725 0.81400001 4.056951e-39
0.00077333616 -0.067280009 0.81200004 3.8729535e-39
0.0023199986 -0.067279994 0.81200004 3.5952806e-39
0.0038666679 -0.067280009 0.81200004 3.3201189e-39
0.0054133395 -0.067280024 0.81200004 2.9516979e-39
0.0069600074 -0.067280017 0.81200004 3.1364423e-39
0.0085066641 -0.067280002 0.81200004 3.3201329e-39
0.010053335 -0.067280009 0.81200004 3.4134229e-39
0.011600003 -0.067280009 0.81200004 3.5034493e-39
0.013146669 -0.067280009 0.81200004 3.3201217e-39
0.01469334 -0.067280017 0.81200004 3.1346612e-39
0.016240003 -0.067280002 0.81200004 2.8591575e-39
0.017786674 -0.067280017 0.81200004 2.4903778e-39
0.019333331 -0.067279994 0.81200004 2.5822105e-39
0.020879995 -0.067279994 0.81200004 2.6736873e-39
0.022426669 -0.067280002 0.81200004 3.3190483e-39
0.023973335 -0.067280002 0.81200004 3.9611919e-39
0.025520002 -0.067280002 0.81200004 3.0450005e-39
0.027066676 -0.067280017 0.81200004 2.1244778e-39
0.02861334 -0.067280017 0.81200004 1.9407914e-39
0.030160006 -0.067280009 0.8120001 1.7574847e-39
0.031706668 -0.067280002 0.81200004 2.310297e-39
0.033253334 -0.067280009 0.81200004 2.7687724e-39
0.0348 -0.067280002 0.81200004 3.5981785e-39
0.036346678 -0.067280009 0.81200004 4.3360939e-39
0.03789334 -0.067280009 0.81200004 4.8024502e-39
0.03944001 -0.067280009 0.81200004 5.1690719e-39
0.04108762 -0.06744571 0.81400001 5.5367699e-39
0.042533331 -0.067279987 0.81200004 5.8122862e-39
0.044188581 -0.067445725 0.81400007 6.8235626e-39
0.045739058 -0.067445718 0.81400007 7.8337489e-39
0.047289528 -0.067445718 0.81400001 6.4558535e-39
0.048840009 -0.067445725 0.81400001 5.0747071e-39
0.050390478 -0.067445718 0.81400001 4.5211564e-39
0.051940955 -0.06744571 0.81400001 3.8707647e-39
0.053491436 -0.067445733 0.81400007 2.761913e-39
0.055041913 -0.067445725 0.81400001 1.5666054e-39
0.056592386 -0.067445725 0.81400001 1.19746e-39
0.058142863 -0.067445718 0.81400001 7.3792657e-40
0.059693333 -0.067445718 0.81400001 9.2160177e-40
0.061093338 -0.067280009 0.81200004 1.1063574e-39
0.062640011 -0.067280017 0.81200004 9.2341225e-40
0.064186685 -0.067280017 0.8120001 6.4684918e-40
0.065571442 -0.067114301 0.81000006 3.6777639e-40
0.066948593 -0.066948608 0.80800009 1.1823876e-40
0.068487637 -0.066948608 0.80800009 1.1846417e-38
-0.00077523023 -0.065895259 0.81400001 3.4130166e-39
0.00077524444 -0.065895259 0.81400001 3.2282876e-39
0.00232 -0.065733336 0.81200004 3.133578e-39
0.0038666734 -0.065733351 0.81200004 2.6736789e-39
0.005413332 -0.065733336 0.81200004 2.2134154e-39
0.006960005 -0.065733351 0.81200004 2.3063159e-39
0.008506665 -0.065733336 0.8120001 2.3999576e-39
0.010053336 -0.065733343 0.8120001 2.4896519e-39
0.011628574 -0.065895252 0.81400001 2.5778987e-39
0.013146667 -0.065733336 0.81200004 2.303467e-39
0.014693334 -0.065733336 0.81200004 2.1190828e-39
0.016240006 -0.065733343 0.81200004 1.844298e-39
0.017830482 -0.065895252 0.81400007 1.659192e-39
0.019333337 -0.065733343 0.81200004 1.6595494e-39
0.020880008 -0.065733358 0.81200004 1.7510275e-39
0.022426667 -0.065733336 0.81200004 2.1187296e-39
0.023973333 -0.065733328 0.81200004 2.48535e-39
0.025520006 -0.065733351 0.81200004 1.9361264e-39
0.027066668 -0.065733328 0.81200004 1.4765874e-39
0.028613338 -0.065733343 0.81200004 1.3847491e-39
0.030160004 -0.065733343 0.81200004 1.2922004e-39
0.031706672 -0.065733343 0.81200004 1.4773105e-39
0.033253334 -0.065733328 0.81200004 1.7517548e-39
0.0348 -0.065733328 0.81200004 2.1212618e-39
0.03634667 -0.065733328 0.81200004 2.5825847e-39
0.037986673 -0.065895252 0.81400007 3.1393304e-39
0.039537154 -0.065895252 0.81400001 3.607486e-39
0.04108762 -0.065895244 0.81400001 3.8794149e-39
0.042533342 -0.065733351 0.81200004 4.0670488e-39
0.044188578 -0.065895244 0.81400001 4.889639e-39
0.045739058 -0.065895267 0.81400007 5.8129966e-39
0.047289535 -0.065895267 0.81400007 4.9814339e-39
0.048840012 -0.065895252 0.81400001 4.2485296e-39
0.050390482 -0.065895252 0.81400001 3.9679868e-39
0.051940959 -0.065895252 0.81400001 3.6856546e-39
0.053491432 -0.065895244 0.81400001 2.5796728e-39
0.055041917 -0.065895259 0.81400007 1.4747671e-39
0.05659239 -0.065895259 0.81400007 1.0148624e-39
0.058142867 -0.065895252 0.81400001 6.4644701e-40
0.059693336 -0.065895244 0.81400001 9.2231503e-40
0.061243813 -0.065895244 0.81400001 1.1985558e-39
0.062640011 -0.065733336 0.81200004 1.3836785e-39
0.064186677 -0.065733343 0.81200004 1.5694977e-39
0.065571442 -0.065571442 0.81000006 8.2906983e-40
0.066948593 -0.065409549 0.80800009 9.2391812e-41
0.068487629 -0.065409549 0.80800003 1.1821306e-38
-0.00077523815 -0.064344764 0.81400001 2.7662192e-39
0.00077334081 -0.064186685 0.81200004 2.677269e-39
0.0023200037 -0.064186685 0.81200004 2.5811245e-39
0.003866666 -0.064186662 0.81200004 2.0279563e-39
0.0054133353 -0.064186677 0.81200004 1.4762175e-39
0.0069599976 -0.064186662 0.81200004 1.4758503e-39
0.0085066687 -0.064186677 0.81200004 1.3840219e-39
0.01005334 -0.064186685 0.81200004 1.4747882e-39
0.011628576 -0.064344771 0.81400007 1.565902e-39
0.013179051 -0.064344771 0.81400001 1.3807919e-39
0.014729523 -0.064344764 0.81400001 1.1067203e-39
0.016279997 -0.064344756 0.81400001 9.2268918e-40
0.017830478 -0.064344764 0.81400001 7.3865945e-40
0.019333337 -0.06418667 0.81200004 7.3758466e-40
0.020880001 -0.06418667 0.81200004 7.3794619e-40
0.022426674 -0.064186685 0.81200004 8.2799083e-40
0.02397334 -0.064186685 0.8120001 9.2125565e-40
0.025519999 -0.064186662 0.81200004 9.2125004e-40
0.027066672 -0.06418667 0.81200004 8.3013341e-40
0.028613336 -0.06418667 0.81200004 8.2905862e-40
0.030160001 -0.06418667 0.81200004 8.3013622e-40
0.031706676 -0.064186685 0.81200004 7.3794479e-40
0.033253342 -0.064186685 0.81200004 6.461177e-40
0.034800008 -0.064186685 0.8120001 7.3616935e-40
0.036346681 -0.064186692 0.8120001 8.3123624e-40
0.03798667 -0.064344764 0.81400001 1.47337e-39
0.039537154 -0.064344779 0.81400007 2.0315647e-39
0.041087627 -0.064344779 0.81400007 2.2148853e-39
0.042638104 -0.064344771 0.81400001 2.3081642e-39
0.044188578 -0.064344771 0.81400001 3.038193e-39
0.045739055 -0.064344764 0.81400001 3.6864127e-39
0.047289528 -0.064344764 0.81400001 3.4998634e-39
0.048840012 -0.064344779 0.81400007 3.3208419e-39
0.050390486 -0.064344779 0.81400007 3.415892e-39
0.051940963 -0.064344764 0.81400001 3.4115788e-39
0.053491432 -0.064344764 0.81400001 2.3967178e-39
0.055041909 -0.064344756 0.81400001 1.383289e-39
0.056592382 -0.064344756 0.81400001 9.2446042e-40
0.058142856 -0.064344756 0.81400001 4.6349348e-40
0.05969334 -0.064344764 0.81400007 8.3083827e-40
0.061243825 -0.064344771 0.81400001 1.1985572e-39
0.062640011 -0.064186677 0.81200004 1.843219e-39
0.064186677 -0.064186677 0.81200004 2.3927816e-39
0.065733343 -0.064186677 0.81200004 1.2860767e-39
0.067114301 -0.064028583 0.81000006 1.1247242e-40
0.06865716 -0.064028583 0.81000006 1.1836373e-38
-0.00077524094 -0.062794283 0.81400001 2.1215743e-39
0.0007733329 -0.062640004 0.81200004 2.2141399e-39
0.0023200046 -0.062640019 0.81200004 2.3942207e-39
0.0038666781 -0.062640026 0.81200004 1.8424861e-39
0.0054133278 -0.062639996 0.81200004 1.2900326e-39
0.0069599994 -0.062640004 0.81200004 1.2893095e-39
0.0085066725 -0.062640011 0.81200004 1.287876e-39
0.010053333 -0.062640004 0.81200004 1.2889536e-39
0.011628574 -0.062794298 0.81400001 1.2885892e-39
0.013179058 -0.062794313 0.81400007 1.1974642e-39
0.014729531 -0.062794305 0.81400001 1.0137876e-39
0.016280007 -0.062794305 0.81400001 8.2975226e-40
0.017830482 -0.062794305 0.81400001 6.4464774e-40
0.019380955 -0.062794298 0.81400001 6.4500787e-40
0.020880004 -0.062640011 0.81200004 6.4465475e-40
0.02242667 -0.062640011 0.81200004 6.4465895e-40
0.023973336 -0.062640011 0.81200004 7.3648744e-40
0.02552001 -0.062640019 0.81200004 6.4500227e-40
0.027066672 -0.062640011 0.8120001 6.4429041e-40
0.028613335 -0.062639996 0.81200004 6.4465475e-40
0.030160001 -0.062639996 0.81200004 6.4429601e-40
0.031706668 -0.062639996 0.81200004 5.5281925e-40
0.033253338 -0.062640011 0.81200004 4.6063063e-40
0.034885719 -0.062794298 0.81400001 7.3650145e-40
0.036436193 -0.06279429 0.81400001 9.1982632e-40
0.03798667 -0.062794283 0.81400001 1.1964202e-39
0.03953715 -0.06279429 0.81400001 1.5648454e-39
0.04108762 -0.06279429 0.81400001 1.5670034e-39
0.042638108 -0.062794305 0.81400007 1.657404e-39
0.044188581 -0.062794298 0.81400001 2.0258222e-39
0.045739058 -0.062794298 0.81400001 2.4857185e-39
0.047289528 -0.062794298 0.81400001 2.5779141e-39
0.048840005 -0.062794283 0.81400001 2.6693783e-39
0.050390478 -0.062794283 0.81400001 2.5832685e-39
0.051940963 -0.062794298 0.81400007 2.5864915e-39
0.053491443 -0.062794305 0.81400001 1.8439084e-39
0.055109523 -0.062871426 0.81500006 1.1049112e-39
0.05659239 -0.062794298 0.81400001 9.2194789e-40
0.058142863 -0.06279429 0.81400001 7.382811e-40
0.059693336 -0.062794298 0.81400001 1.0141505e-39
0.061243825 -0.062794305 0.81400007 1.2893193e-39
0.062794298 -0.062794305 0.81400007 1.7495926e-39
0.064344771 -0.062794298 0.81400001 2.3012978e-39
0.065895252 -0.06279429 0.81400001 1.1956579e-39
0.067280002 -0.062640004 0.81200004 9.2373595e-41
0.068826675 -0.062640011 0.81200004 1.1815925e-38
-0.00077523256 -0.061243825 0.81400001 1.3854666e-39
0.00077524071 -0.061243825 0.81400001 1.8475378e-39
0.0023257174 -0.061243821 0.81400001 2.2112728e-39
0.003876192 -0.06124381 0.81400001 1.6577305e-39
0.0054266667 -0.061243806 0.81400001 1.0134401e-39
0.0069771484 -0.061243828 0.81400007 1.1038336e-39
0.0085276235 -0.061243821 0.81400001 1.1045539e-39
0.010078099 -0.061243817 0.81400001 1.1041994e-39
0.011628572 -0.061243813 0.81400001 1.0130757e-39
0.013179048 -0.06124381 0.81400001 1.0145051e-39
0.014729522 -0.061243802 0.81400001 9.2194929e-40
0.016280005 -0.061243821 0.81400007 7.3791676e-40
0.01783048 -0.061243817 0.81400007 5.5317098e-40
0.019380953 -0.061243813 0.81400001 5.5281505e-40
0.020931428 -0.061243806 0.81400001 4.6134109e-40
0.022481905 -0.061243802 0.81400001 4.6134389e-40
0.024032382 -0.061243813 0.81400001 4.6133968e-40
0.025520002 -0.061093334 0.81200004 4.6097675e-40
0.02713334 -0.061243828 0.81400007 4.6098656e-40
0.02861334 -0.061093345 0.81200004 4.6099637e-40
0.03023429 -0.061243817 0.81400001 4.6098656e-40
0.031784765 -0.061243813 0.81400001 3.6878392e-40
0.033335239 -0.061243806 0.81400001 2.7767009e-40
0.034885712 -0.061243802 0.81400001 6.4501628e-40
0.036436204 -0.061243832 0.81400007 1.0123639e-39
0.038033336 -0.061319049 0.81500006 1.011652e-39
0.039585721 -0.061319057 0.81500006 1.0130897e-39
0.041087624 -0.061243817 0.81400001 1.0145275e-39
0.042638104 -0.061243813 0.81400001 9.2233325e-40
0.044188574 -0.06124381 0.81400001 1.1056441e-39
0.045739058 -0.061243828 0.81400007 1.2896794e-39
0.047289532 -0.061243821 0.81400001 1.6566683e-39
0.048840009 -0.061243817 0.81400001 2.026513e-39
0.050390482 -0.061243817 0.81400001 1.8453461e-39
0.052004769 -0.061319049 0.81500006 1.6613136e-39
0.053557154 -0.061319064 0.81500006 1.1956747e-39
0.055109531 -0.061319064 0.81500006 7.3756504e-40
0.056661911 -0.061319057 0.81500006 8.2831733e-40
0.058142863 -0.061243813 0.81400001 9.2159196e-40
0.059693336 -0.061243806 0.81400001 1.1056273e-39
0.061243813 -0.061243806 0.81400001 1.2896766e-39
0.06279429 -0.061243802 0.81400001 1.7474374e-39
0.064344771 -0.061243813 0.81400007 2.2076673e-39
0.065895252 -0.061243821 0.81400007 1.194223e-39
0.067445725 -0.061243821 0.81400001 1.0995148e-40
0.068996206 -0.061243813 0.81400001 1.1825611e-38
-0.00077524188 -0.059693325 0.81400001 1.3826079e-39
0.00077523978 -0.059693344 0.81400007 1.8436127e-39
0.0023257164 -0.05969334 0.81400001 2.3945921e-39
0.0038761911 -0.059693333 0.81400001 1.6573633e-39
0.0054266658 -0.059693329 0.81400001 1.0119953e-39
0.00697714 -0.059693325 0.81400001 9.2050876e-40
0.0085276142 -0.059693318 0.81400001 9.2159056e-40
0.010078098 -0.059693336 0.81400007 9.208787e-40
0.011628572 -0.059693336 0.81400007 8.2868027e-40
0.013179055 -0.059693355 0.81400001 8.290348e-40
0.014729531 -0.059693351 0.81400001 9.2087029e-40
0.016280005 -0.059693348 0.81400001 6.4500507e-40
0.01783048 -0.059693344 0.81400001 4.6097815e-40
0.019380962 -0.059693355 0.81400007 4.6133828e-40
0.020931436 -0.059693355 0.81400001 5.5317518e-40
0.022481911 -0.059693351 0.81400001 5.5353531e-40
0.024032386 -0.059693344 0.81400001 5.5389265e-40
0.025582861 -0.05969334 0.81400001 5.5317378e-40
0.027133336 -0.059693336 0.81400001 5.5247033e-40
0.028683819 -0.059693355 0.81400007 6.450373e-40
0.030234296 -0.059693348 0.81400001 6.4502049e-40
0.031784773 -0.05969334 0.81400001 6.4571973e-40
0.033335242 -0.05969334 0.81400001 5.5496324e-40
0.034928583 -0.059766684 0.81500006 7.3791817e-40
0.036480956 -0.059766665 0.81500006 9.2194789e-40
0.038033336 -0.059766661 0.81500006 8.2939493e-40
0.039585724 -0.059766673 0.81500006 6.4536521e-40
0.041138101 -0.059766669 0.81500006 8.3011099e-40
0.042638101 -0.059693333 0.81400001 1.0141393e-39
0.044188574 -0.059693333 0.81400001 1.1052559e-39
0.04579524 -0.059766673 0.81500006 1.2882193e-39
0.047347624 -0.059766665 0.81500006 1.6573633e-39
0.048900008 -0.059766665 0.81500006 2.0264976e-39
0.050452393 -0.059766676 0.81500006 1.6605891e-39
0.052004777 -0.059766687 0.81500006 1.2925297e-39
0.053557146 -0.059766661 0.81500006 9.2375136e-40
0.055109523 -0.059766661 0.81500006 5.5532617e-40
0.056661911 -0.059766673 0.81500006 9.2158495e-40
0.058142871 -0.059693348 0.81400007 1.3807694e-39
0.059693344 -0.05969334 0.81400007 1.3818512e-39
0.061243817 -0.059693333 0.81400001 1.2911102e-39
0.06279429 -0.059693344 0.81400001 1.7499457e-39
0.064344771 -0.05969334 0.81400001 2.210177e-39
0.065895252 -0.059693333 0.81400001 1.1956579e-39
0.067528576 -0.059766676 0.81500006 9.2373595e-41
0.069080956 -0.059766669 0.81500006 1.1815565e-38
-0.00077523256 -0.058142874 0.81400001 1.2893277e-39
0.00077524118 -0.058142871 0.81400001 1.9336335e-39
0.0023257267 -0.058142882 0.81400007 2.4846241e-39
0.0038762013 -0.058142882 0.81400001 1.7481254e-39
0.0054266765 -0.058142874 0.81400001 9.208815e-40
0.0069771484 -0.058142874 0.81400001 8.279628e-40
0.0085276226 -0.058142867 0.81400001 7.3721331e-40
0.010078097 -0.058142863 0.81400001 7.3722312e-40
0.011642865 -0.058214299 0.81500006 6.4465895e-40
0.013179054 -0.058142874 0.81400007 7.3576577e-40
0.01472953 -0.058142867 0.81400001 8.2867606e-40
0.016280005 -0.058142867 0.81400001 5.5245071e-40
0.017830478 -0.058142859 0.81400001 2.776729e-40
0.019380951 -0.058142859 0.81400001 4.613551e-40
0.020931426 -0.058142856 0.81400001 6.4537922e-40
0.022481909 -0.058142871 0.81400007 6.4501488e-40
0.024032386 -0.058142867 0.81400007 5.5353391e-40
0.025582859 -0.058142859 0.81400001 6.4500787e-40
0.027133334 -0.058142859 0.81400001 6.4537501e-40
0.02868381 -0.058142852 0.81400001 7.3722032e-40
0.030234287 -0.058142845 0.81400001 8.2940334e-40
0.031784773 -0.058142863 0.81400007 8.3046832e-40
0.033335242 -0.058142859 0.81400007 8.3011099e-40
0.034928579 -0.058214284 0.81500006 8.3011239e-40
0.03648096 -0.058214281 0.81500006 8.2975226e-40
0.038033344 -0.058214296 0.81500006 5.5532197e-40
0.039585728 -0.058214307 0.81500006 2.7838055e-40
0.041138098 -0.058214281 0.81500006 6.4608127e-40
0.042638104 -0.058142863 0.81400007 1.0134219e-39
0.044188581 -0.058142863 0.81400001 1.1052559e-39
0.04579524 -0.058214292 0.81500006 1.198176e-39
0.047347631 -0.058214303 0.81500006 1.5658838e-39
0.048900004 -0.058214277 0.81500006 1.9346593e-39
0.050452389 -0.058214288 0.81500006 1.4772755e-39
0.052004766 -0.058214288 0.81500006 9.2554222e-40
0.053557146 -0.058214284 0.81500006 6.5111053e-40
0.055109531 -0.058214296 0.81500006 2.8053855e-40
0.056661911 -0.058214288 0.81500006 1.1056203e-39
0.058142863 -0.058142856 0.81400001 1.8403071e-39
0.059693336 -0.058142852 0.81400001 1.5655222e-39
0.061243825 -0.058142871 0.81400007 1.2911046e-39
0.06279429 -0.058142863 0.81400007 1.7506548e-39
0.064344771 -0.058142863 0.81400001 2.2087364e-39
0.065976195 -0.058214281 0.81500006 1.194223e-39
0.067528583 -0.058214288 0.81500006 1.1210388e-40
0.069080956 -0.058214288 0.81500006 1.1833862e-38
-0.00077523536 -0.056592394 0.81400001 1.1964076e-39
0.00077523931 -0.056592394 0.81400001 1.6573872e-39
0.0023257141 -0.056592379 0.81400001 2.0254368e-39
0.0038809525 -0.056661911 0.81500006 1.6577263e-39
0.0054333271 -0.056661896 0.81500006 1.2889452e-39
0.0070028519 -0.056800935 0.81700003 1.1041924e-39
0.0085590472 -0.056800954 0.81700009 9.2053538e-40
0.010115246 -0.056800973 0.81700003 7.368784e-40
0.011671435 -0.056800969 0.81700003 5.5283186e-40
0.013227626 -0.056800961 0.81700003 6.4464914e-40
0.014747621 -0.056661911 0.81500006 7.3755803e-40
0.016300008 -0.056661922 0.81500006 5.5352551e-40
0.017852385 -0.056661908 0.81500006 3.6987413e-40
0.019380949 -0.056592375 0.81400001 5.5356474e-40
0.020931425 -0.056592371 0.81400001 7.3758185e-40
0.022481902 -0.056592368 0.81400001 5.5353952e-40
0.024032373 -0.056592364 0.81400001 4.6133968e-40
0.025582857 -0.056592382 0.81400007 6.4572254e-40
0.027133333 -0.056592379 0.81400007 7.382797e-40
0.028683815 -0.056592397 0.81400001 7.3792517e-40
0.030234292 -0.056592394 0.81400001 6.4608547e-40
0.031823814 -0.056661911 0.81500006 6.464386e-40
0.033376202 -0.056661922 0.81500006 6.453638e-40
0.03501429 -0.056800961 0.81700003 8.290348e-40
0.036570482 -0.056800958 0.81700003 9.2015143e-40
0.038126677 -0.056800973 0.81700009 7.371965e-40
0.039682865 -0.056800965 0.81700003 6.4464494e-40
0.041138098 -0.056661904 0.81500006 8.2939353e-40
0.042690482 -0.056661919 0.81500006 1.0127044e-39
0.044242863 -0.056661908 0.81500006 1.1981676e-39
0.04579524 -0.056661904 0.81500006 1.2918038e-39
0.047463816 -0.056800965 0.81700003 1.8424637e-39
0.049020007 -0.056800961 0.81700003 2.3931179e-39
0.050576195 -0.056800954 0.81700003 1.6587913e-39
0.052132379 -0.05680095 0.81700003 9.2446322e-40
0.053557143 -0.056661904 0.81500006 7.3971323e-40
0.055109527 -0.056661911 0.81500006 5.5461011e-40
0.056661915 -0.056661908 0.81500006 9.2159616e-40
0.058214296 -0.056661915 0.81500006 1.3807736e-39
0.059766673 -0.056661896 0.81500006 1.3818498e-39
0.061243821 -0.056592382 0.81400001 1.2911004e-39
0.062794298 -0.056592401 0.81400007 1.9346761e-39
0.064344771 -0.056592394 0.81400007 2.4860324e-39
0.065895252 -0.05659239 0.81400001 1.287492e-39
0.067528583 -0.05666193 0.81500006 9.2373595e-41
0.069080956 -0.056661904 0.81500006 1.1820589e-38
-0.00077523629 -0.055041913 0.81400007 1.104212e-39
0.00077523652 -0.055041909 0.81400007 1.3815247e-39
0.0023257136 -0.055041902 0.81400001 1.5659076e-39
0.0038809609 -0.055109542 0.81500006 1.5676971e-39
0.0054333359 -0.055109527 0.81500006 1.5651803e-39
0.0070028557 -0.055244755 0.81700003 1.3793527e-39
0.0085590426 -0.055244751 0.81700003 1.1042064e-39
0.010115251 -0.055244792 0.81700003 8.2906142e-40
0.011671439 -0.055244789 0.81700003 4.6171103e-40
0.013227629 -0.055244781 0.81700003 5.5246192e-40
0.014783816 -0.055244777 0.81700003 6.4536801e-40
0.016299995 -0.055109516 0.81500006 5.5352691e-40
0.017852383 -0.05510952 0.81500006 4.6134809e-40
0.019404769 -0.055109534 0.81500006 6.450331e-40
0.020957153 -0.055109546 0.81500006 7.3722032e-40
0.022509517 -0.055109508 0.81500006 5.5425979e-40
0.024032382 -0.055041909 0.81400001 3.7022446e-40
0.025582856 -0.055041905 0.81400001 6.464442e-40
0.027166666 -0.055109516 0.81500006 8.30118e-40
0.028719051 -0.055109527 0.81500006 6.4680714e-40
0.030271439 -0.055109534 0.81500006 4.6241728e-40
0.031823814 -0.055109523 0.81500006 4.6313335e-40
0.033376187 -0.055109512 0.81500006 4.6169842e-40
0.035014283 -0.055244755 0.81700003 7.3612871e-40
0.036570482 -0.055244774 0.81700003 1.0119911e-39
0.038126674 -0.05524477 0.81700003 1.0119897e-39
0.039682869 -0.055244785 0.81700009 9.2051436e-40
0.041239057 -0.055244777 0.81700003 1.0134261e-39
0.042795241 -0.055244777 0.81700003 1.0141435e-39
0.044351436 -0.05524477 0.81700003 1.1988921e-39
0.04590762 -0.055244766 0.81700003 1.3829373e-39
0.047463816 -0.05524477 0.81700003 2.1183541e-39
0.049020004 -0.055244766 0.81700003 2.759755e-39
0.050576203 -0.055244774 0.81700003 1.8403127e-39
0.052132387 -0.05524477 0.81700003 9.219535e-40
0.053688571 -0.055244762 0.81700003 8.290376e-40
0.055109527 -0.055109527 0.81500006 7.3757485e-40
0.056661911 -0.055109523 0.81500006 8.2942436e-40
0.058214288 -0.05510952 0.81500006 9.2197031e-40
0.059766676 -0.055109531 0.81500006 1.1063518e-39
0.061243821 -0.055041913 0.81400001 1.2907444e-39
0.06279429 -0.055041913 0.81400001 2.0265102e-39
0.064344771 -0.055041909 0.81400001 2.758676e-39
0.065895252 -0.055041917 0.81400007 1.4697421e-39
0.067445725 -0.055041917 0.81400007 1.1498074e-40
0.068996206 -0.055041913 0.81400001 1.1846417e-38
0.0023257229 -0.053491451 0.81400007 1.3811674e-39
0.0038809478 -0.053557131 0.81500006 1.3822436e-39
0.0054466692 -0.053688582 0.81700003 1.3811632e-39
0.007020006 -0.05382001 0.81900012 1.1967691e-39
0.0085799955 -0.053819988 0.81900007 1.1045665e-39
0.010139998 -0.053819995 0.81900007 1.0134387e-39
0.011699998 -0.053819992 0.81900012 9.2196331e-40
0.01322762 -0.053688575 0.81700009 8.2941034e-40
0.014783809 -0.053688567 0.81700003 8.2976067e-40
0.016300002 -0.053557146 0.81500006 7.3755803e-40
0.017852381 -0.053557139 0.81500006 6.4465615e-40
0.019404767 -0.053557146 0.81500006 7.3686019e-40
0.020957142 -0.053557131 0.81500006 8.2869428e-40
0.022509525 -0.053557146 0.81500006 7.3757345e-40
0.024061913 -0.053557154 0.81500006 6.4537642e-40
0.025614297 -0.053557169 0.81500006 7.3756644e-40
0.027166663 -0.053557128 0.81500006 9.2159616e-40
0.028719047 -0.053557139 0.81500006 7.3756644e-40
0.030271435 -0.053557154 0.81500006 5.5317938e-40
0.03182381 -0.053557139 0.81500006 5.5318079e-40
0.033376195 -0.05355715 0.81500006 6.4429882e-40
0.035014287 -0.053688575 0.81700003 7.3613291e-40
0.036570475 -0.053688567 0.81700003 8.2868447e-40
0.038126666 -0.05368856 0.81700003 8.2868167e-40
0.03968285 -0.053688556 0.81700003 9.2015843e-40
0.041239038 -0.053688552 0.81700003 1.0134289e-39
0.042795248 -0.053688589 0.81700003 1.0145079e-39
0.044351432 -0.053688589 0.81700003 1.2900157e-39
0.045907628 -0.053688582 0.81700003 1.4729945e-39
0.047463812 -0.053688575 0.81700003 1.8410792e-39
0.049020004 -0.053688567 0.81700003 2.2073211e-39
0.050576191 -0.053688567 0.81700003 1.5637314e-39
0.052132387 -0.053688575 0.81700003 1.011638e-39
0.053688571 -0.053688567 0.81700003 9.2051436e-40
0.055244766 -0.053688575 0.81700003 8.2870409e-40
0.056800969 -0.053688589 0.81700003 8.2980551e-40
0.058214296 -0.053557158 0.81500006 8.3086769e-40
0.059766676 -0.053557146 0.81500006 1.1067175e-39
0.061319053 -0.053557146 0.81500006 1.4740609e-39
0.062794283 -0.053491432 0.81400001 1.4737022e-39
0.064344771 -0.053491428 0.81400001 1.4701148e-39
0.065895237 -0.053491417 0.81400001 1.4697561e-39
0.06744571 -0.053491417 0.81400001 1.4699201e-39
0.068996198 -0.053491447 0.81400007 1.2466666e-38
0.0054466631 -0.052132372 0.81700003 1.1067511e-39
0.0070200046 -0.052260011 0.81900007 1.105305e-39
0.00855905 -0.052132387 0.81700003 1.1063714e-39
0.01011524 -0.052132383 0.81700003 1.1981985e-39
0.011671427 -0.052132376 0.81700003 1.2900298e-39
0.013227625 -0.05213239 0.81700009 1.197474e-39
0.014783813 -0.052132387 0.81700003 1.013796e-39
0.016299998 -0.052004758 0.81500006 9.2159476e-40
0.017852386 -0.052004773 0.81500006 8.2976347e-40
0.019404761 -0.052004758 0.81500006 8.2905021e-40
0.020957148 -0.052004769 0.81500006 8.2976908e-40
0.022509521 -0.052004758 0.81500006 8.3048794e-40
0.024061909 -0.052004769 0.81500006 8.2904881e-40
0.025614293 -0.052004781 0.81500006 9.1980531e-40
0.027233331 -0.052132372 0.81700003 1.0123583e-39
0.028719055 -0.052004777 0.81500006 8.2832994e-40
0.030271433 -0.052004766 0.81500006 5.5282205e-40
0.031823806 -0.052004751 0.81500006 7.3577558e-40
0.033376195 -0.052004762 0.81500006 8.2797261e-40
0.035014294 -0.052132387 0.81700003 7.3578259e-40
0.036570482 -0.052132387 0.81700003 5.5282906e-40
0.03812667 -0.052132379 0.81700003 7.3721612e-40
0.039682858 -0.052132372 0.81700003 9.2124304e-40
0.041239046 -0.052132372 0.81700003 1.0134359e-39
0.04279523 -0.052132364 0.81700003 1.0141547e-39
0.04435144 -0.052132405 0.81700003 1.2893053e-39
0.045907632 -0.052132398 0.81700003 1.5655405e-39
0.047463819 -0.052132394 0.81700003 1.5648356e-39
0.049020004 -0.052132387 0.81700003 1.5641055e-39
0.050576199 -0.052132379 0.81700003 1.3793443e-39
0.052132383 -0.052132379 0.81700003 1.1041938e-39
0.053688571 -0.052132372 0.81700003 1.0130743e-39
0.055244766 -0.052132379 0.81700003 8.2941735e-40
0.056800954 -0.052132372 0.81700003 7.379546e-40
0.058357153 -0.052132387 0.81700009 6.4754422e-40
0.059913345 -0.052132398 0.81700003 1.1989047e-39
0.061319061 -0.052004781 0.81500006 1.6588011e-39
0.062794298 -0.051940963 0.81400007 9.2447723e-40
0.064344771 -0.051940959 0.81400007 1.855193e-40
0.065733343 -0.051813342 0.81200004 1.4698122e-39
0.067280009 -0.051813345 0.81200004 2.7872135e-39
0.0070199957 -0.050699987 0.81900007 1.2000216e-39
0.0085590528 -0.050576206 0.81700003 1.2003719e-39
0.010115242 -0.050576199 0.81700003 1.474435e-39
0.01167143 -0.050576191 0.81700003 1.7499331e-39
0.013227619 -0.050576191 0.81700003 1.3818653e-39
0.014783815 -0.050576203 0.81700009 1.1056371e-39
0.016300006 -0.050452396 0.81500006 1.0141547e-39
0.017852385 -0.050452385 0.81500006 9.230353e-40
0.01940476 -0.05045237 0.81500006 1.0141519e-39
0.020957146 -0.050452381 0.81500006 1.1059916e-39
0.022509528 -0.050452393 0.81500006 1.0141603e-39
0.024061916 -0.050452404 0.81500006 9.2088711e-40
0.025582856 -0.050390471 0.81400001 9.208829e-40
0.027166666 -0.050452378 0.81500006 1.0127198e-39
0.028719051 -0.050452393 0.81500006 8.2940894e-40
0.030271439 -0.050452404 0.81500006 6.4537642e-40
0.031823814 -0.050452385 0.81500006 6.4501488e-40
0.033376191 -0.050452378 0.81500006 7.3614132e-40
0.035014294 -0.050576206 0.81700003 5.5247874e-40
0.036570486 -0.050576203 0.81700003 4.6028591e-40
0.03812667 -0.050576195 0.81700003 7.3686859e-40
0.039682861 -0.050576191 0.81700003 1.0134471e-39
0.041239046 -0.050576191 0.81700003 1.2893067e-39
0.042795237 -0.050576184 0.81700003 1.4733392e-39
0.044351421 -0.050576176 0.81700003 1.3822226e-39
0.045907624 -0.050576191 0.81700009 1.2914633e-39
0.047463827 -0.05057621 0.81700003 1.290027e-39
0.049140003 -0.050699994 0.81900007 1.1971125e-39
0.050576195 -0.050576199 0.81700003 1.1045567e-39
0.052132383 -0.050576195 0.81700003 1.0120037e-39
0.053820007 -0.050700001 0.81900007 9.2088571e-40
0.055244766 -0.050576184 0.81700003 9.2160738e-40
0.056800958 -0.050576188 0.81700003 8.3120961e-40
0.058357146 -0.050576184 0.81700003 8.322802e-40
0.059913352 -0.050576214 0.81700009 1.2914507e-39
0.061319053 -0.050452378 0.81500006 1.751347e-39
0.06279429 -0.050390478 0.81400001 9.2231783e-40
0.064344771 -0.050390471 0.81400001 1.841096e-40
0.065571442 -0.050142881 0.81000006 4.2339014e-39
0.067114294 -0.050142858 0.81000006 8.3935116e-39
0.0070028594 -0.049020004 0.81700003 1.2021669e-39
0.0085590463 -0.04902 0.81700003 1.2925633e-39
0.010115234 -0.049019992 0.81700003 1.7495856e-39
0.011671424 -0.049019989 0.81700003 2.2084015e-39
0.013227612 -0.049019981 0.81700003 1.6573858e-39
0.014783811 -0.04902 0.81700003 1.1063658e-39
0.016300002 -0.048900012 0.81500006 1.0145233e-39
0.01785239 -0.048900019 0.81500006 9.2304651e-40
0.019404765 -0.048900004 0.81500006 1.1070762e-39
0.02095714 -0.048899997 0.81500006 1.2911046e-39
0.022509526 -0.048900008 0.81500006 1.1077909e-39
0.024061901 -0.04889999 0.81500006 9.2268497e-40
0.025614288 -0.048900004 0.81500006 1.0134457e-39
0.027166672 -0.048900012 0.81500006 1.0141603e-39
0.028719049 -0.048900004 0.81500006 8.312026e-40
0.030271437 -0.048900016 0.81500006 6.4717008e-40
0.031823814 -0.048900001 0.81500006 6.4644981e-40
0.033376195 -0.048900012 0.81500006 6.4574075e-40
0.03501429 -0.04902 0.81700003 4.613593e-40
0.036570475 -0.049019996 0.81700003 2.7804985e-40
0.038126666 -0.049019989 0.81700003 7.3615393e-40
0.039682861 -0.049020011 0.81700003 1.1049266e-39
0.041239049 -0.049020004 0.81700003 1.5644587e-39
0.042795241 -0.04902 0.81700003 1.933237e-39
0.044351429 -0.049019992 0.81700003 1.4740623e-39
0.045907613 -0.049019989 0.81700003 1.0148834e-39
0.047463816 -0.049020004 0.81700009 9.2304651e-40
0.04914001 -0.049140021 0.81900012 8.2977468e-40
0.050576203 -0.049020018 0.81700003 8.2977328e-40
0.052260008 -0.049140003 0.81900007 8.2941315e-40
0.053820003 -0.049139999 0.81900012 9.2088851e-40
0.05524477 -0.049020004 0.81700003 9.2232344e-40
0.056800961 -0.049019996 0.81700003 9.241185e-40
0.058357142 -0.049019992 0.81700003 9.2376117e-40
0.059913341 -0.049019985 0.81700003 1.3836589e-39
0.061319049 -0.04889999 0.81500006 1.8424679e-39
0.06279429 -0.048840005 0.81400001 1.0123527e-39
0.06418667 -0.048719991 0.81200004 9.2645447e-41
0.065733343 -0.048720002 0.81200004 7.0718685e-39
0.067114301 -0.048599999 0.81000006 1.401343e-38
0.007020006 -0.047580011 0.81900007 2.7676668e-39
0.008559051 -0.047463819 0.81700003 4.6915515e-39
0.010140007 -0.047580015 0.81900012 3.9604562e-39
0.011671428 -0.047463808 0.81700003 3.2178829e-39
0.013227617 -0.047463801 0.81700003 2.0243816e-39
0.014783816 -0.047463819 0.81700003 9.2342346e-40
0.0163 -0.047347628 0.81500006 7.3866646e-40
0.017852386 -0.047347635 0.81500006 6.4790996e-40
0.019404763 -0.047347624 0.81500006 1.1992831e-39
0.020957148 -0.047347631 0.81500006 1.6602472e-39
0.022509532 -0.047347642 0.81500006 1.3836561e-39
0.024061901 -0.047347609 0.81500006 1.1081552e-39
0.025614286 -0.04734762 0.81500006 1.1067259e-39
0.027166672 -0.047347631 0.81500006 1.1989117e-39
0.028719043 -0.047347616 0.81500006 1.0159498e-39
0.030345717 -0.047463812 0.81700003 8.3299346e-40
0.031901907 -0.047463804 0.81700003 8.31197e-40
0.033458106 -0.047463823 0.81700009 9.2268077e-40
0.035014294 -0.047463819 0.81700003 8.3085228e-40
0.036660004 -0.04758 0.81900012 7.3973985e-40
0.038220003 -0.047580004 0.81900007 9.2269759e-40
0.039779995 -0.047579985 0.81900007 1.1060056e-39
0.041239053 -0.047463823 0.81700003 1.2903899e-39
0.042900011 -0.047580015 0.81900007 1.4754986e-39
0.044351436 -0.047463812 0.81700003 1.1067245e-39
0.046019997 -0.047579993 0.81900007 7.3866226e-40
0.047580004 -0.047579993 0.81900007 8.3013622e-40
0.049140014 -0.047580019 0.81900012 8.2870129e-40
0.050700005 -0.04758 0.81900007 8.2941875e-40
0.052260008 -0.047579996 0.81900012 9.2161018e-40
0.053820003 -0.047580004 0.81900007 9.2196611e-40
0.055244774 -0.047463819 0.81700003 9.2268217e-40
0.056800965 -0.047463812 0.81700003 1.0152323e-39
0.058357146 -0.047463812 0.81700003 1.1063616e-39
0.059766673 -0.04734762 0.81500006 1.6588193e-39
0.061243821 -0.047289524 0.81400001 2.1197708e-39
0.062794298 -0.047289543 0.81400007 1.1045385e-39
0.064186677 -0.047173344 0.8120001 9.2300727e-41
0.065733336 -0.047173318 0.81200004 9.3986419e-39
0.0070199962 -0.046019986 0.81900007 4.4369089e-39
0.0085590556 -0.045907635 0.81700003 8.01455e-39
0.010115243 -0.045907628 0.81700003 6.1825064e-39
0.011671432 -0.045907624 0.81700003 4.2420822e-39
0.013227621 -0.04590762 0.81700003 2.4828178e-39
0.014783809 -0.045907613 0.81700003 6.4825889e-40
0.016299998 -0.045795236 0.81500006 5.5283466e-40
0.017852386 -0.045795243 0.81500006 3.7095593e-40
0.019404761 -0.045795236 0.81500006 1.1981929e-39
0.020957137 -0.045795221 0.81500006 2.0250711e-39
0.022509521 -0.045795232 0.81500006 1.6584465e-39
0.024061909 -0.04579524 0.81500006 1.2903969e-39
0.025614293 -0.045795251 0.81500006 1.2900494e-39
0.027166672 -0.045795243 0.815 1.2907556e-39
0.028719043 -0.045795228 0.81500006 1.1081496e-39
0.030345712 -0.045907609 0.81700003 9.241199e-40
0.031901911 -0.045907624 0.81700003 1.0141617e-39
0.033458099 -0.04590762 0.81700003 1.1074476e-39
0.035100002 -0.046020001 0.81900012 1.1081791e-39
0.036660001 -0.046020005 0.81900007 1.1078175e-39
0.03822 -0.046019983 0.81900007 1.1085308e-39
0.039780006 -0.046020009 0.81900012 1.107086e-39
0.041339997 -0.046019986 0.81900007 1.0159596e-39
0.042900011 -0.046020009 0.81900012 9.2340664e-40
0.044351425 -0.045907605 0.81700003 7.3794339e-40
0.046020001 -0.046019994 0.81900007 4.6315717e-40
0.047580011 -0.046020016 0.81900012 6.461135e-40
0.049140003 -0.046019997 0.81900007 8.2978869e-40
0.050700005 -0.046019997 0.81900012 9.216298e-40
0.052132387 -0.045907624 0.81700003 9.2233745e-40
0.053688578 -0.04590762 0.81700003 9.2232764e-40
0.055244777 -0.045907639 0.81700003 9.2339823e-40
0.056800965 -0.045907635 0.81700003 1.1081384e-39
0.058357153 -0.045907628 0.81700003 1.2911102e-39
0.059913345 -0.04590762 0.81700003 1.841784e-39
0.061319057 -0.045795243 0.81500006 2.3913411e-39
0.062871434 -0.04579524 0.81500006 1.2860669e-39
0.064423814 -0.045795236 0.81500006 1.0130968e-40
0.0085590463 -0.044351429 0.81700003 5.084484e-39
0.010115234 -0.044351425 0.81700003 6.1857953e-39
0.011671433 -0.044351444 0.81700003 7.3813677e-39
0.013227623 -0.044351436 0.81700003 6.7276732e-39
0.014783811 -0.044351432 0.81700003 6.0719173e-39
0.016299997 -0.044242848 0.81500006 5.3393914e-39
0.017852385 -0.044242859 0.81500006 4.6864956e-39
0.019404769 -0.04424287 0.81500006 3.0330951e-39
0.020957144 -0.044242851 0.81500006 1.4708225e-39
0.022509521 -0.044242848 0.81500006 1.1045637e-39
0.024061907 -0.044242855 0.81500006 8.297901e-40
0.025614293 -0.044242863 0.81500006 8.2980551e-40
0.027166668 -0.044242848 0.81500006 8.3122643e-40
0.028719051 -0.044242863 0.81500006 1.1074364e-39
0.030345714 -0.044351429 0.81700003 1.3836645e-39
0.031901903 -0.044351421 0.81700003 1.4751441e-39
0.033458091 -0.044351418 0.81700003 1.5687957e-39
0.035100002 -0.044460002 0.81900012 1.2918767e-39
0.036660001 -0.044460006 0.81900007 1.1067595e-39
0.038220007 -0.044460002 0.81900012 1.1985824e-39
0.039780006 -0.044460006 0.81900007 1.3818807e-39
0.041339997 -0.044459987 0.81900007 1.1981943e-39
0.042900015 -0.04446001 0.81900007 1.0145233e-39
0.044459999 -0.044459991 0.81900007 7.3865665e-40
0.046020009 -0.044460017 0.81900012 4.6387603e-40
0.04758 -0.044459991 0.81900007 6.4683657e-40
0.049140003 -0.044459995 0.81900007 8.308761e-40
0.050576195 -0.044351425 0.81700003 9.2272141e-40
0.05213239 -0.04435144 0.81700003 9.2342346e-40
0.053688578 -0.04435144 0.81700003 1.0148834e-39
0.055244766 -0.044351432 0.81700003 1.1070678e-39
0.056800958 -0.044351425 0.81700003 1.2910863e-39
0.058357142 -0.044351421 0.81700003 1.3829485e-39
0.059913337 -0.044351414 0.81700003 1.2904221e-39
0.06146954 -0.044351436 0.81700003 1.2871725e-39
0.062871441 -0.044242863 0.81500006 1.470105e-39
0.064423814 -0.044242855 0.81500006 1.7454209e-39
0.0085380971 -0.042690475 0.81500006 2.1299176e-39
0.01011524 -0.042795237 0.81700003 6.2786677e-39
0.011642858 -0.042690475 0.81500006 1.0411966e-38
0.013195245 -0.042690482 0.81500006 1.0974443e-38
0.014747618 -0.042690471 0.81500006 1.142286e-38
0.016300002 -0.042690482 0.81500006 1.0230436e-38
0.017852381 -0.042690475 0.815 8.9296694e-39
0.019404767 -0.042690482 0.81500006 4.9599337e-39
0.020957142 -0.042690467 0.81500006 9.2989465e-40
0.022564767 -0.042795245 0.81700009 6.4322822e-40
0.024061915 -0.042690489 0.81500006 2.8414409e-40
0.02561429 -0.042690475 0.81500006 3.6773575e-40
0.027233342 -0.042795256 0.81700003 3.7635794e-40
0.02878953 -0.042795252 0.81700003 1.106391e-39
0.030345717 -0.042795245 0.81700003 1.756054e-39
0.031901907 -0.042795237 0.81700003 1.8421484e-39
0.033458099 -0.042795233 0.81700003 1.9339895e-39
0.035100002 -0.042900003 0.81900007 1.5666545e-39
0.036660001 -0.042900003 0.81900012 1.1063924e-39
0.038220003 -0.042900007 0.81900007 1.3811744e-39
0.039779998 -0.042899985 0.81900007 1.5644769e-39
0.041340005 -0.042900007 0.81900007 1.3807961e-39
0.0429 -0.042899989 0.81900007 1.1056427e-39
0.044460006 -0.042900015 0.81900012 8.3049075e-40
0.046019994 -0.042899992 0.81900007 4.6315437e-40
0.04758 -0.042899992 0.81900007 6.4575477e-40
0.049140003 -0.042899992 0.81900012 8.3014743e-40
0.050576188 -0.042795222 0.81700003 9.2270599e-40
0.052132387 -0.042795241 0.81700003 9.2341785e-40
0.053688586 -0.042795252 0.81700009 1.1063658e-39
0.055244774 -0.042795252 0.81700003 1.2903941e-39
0.056800965 -0.042795245 0.81700003 1.3818681e-39
0.058357149 -0.042795237 0.81700003 1.4751441e-39
0.059913341 -0.04279523 0.81700003 8.3265855e-40
0.061469544 -0.042795252 0.81700003 9.402012e-41
0.062871441 -0.042690478 0.81500006 1.745257e-39
0.0085380934 -0.041138086 0.81500006 1.1024618e-39
0.010115243 -0.041239057 0.81700009 3.2286841e-39
0.011671431 -0.041239053 0.81700003 5.2577265e-39
0.01322762 -0.041239049 0.81700003 6.184024e-39
0.014783809 -0.041239042 0.81700003 7.1188793e-39
0.0163 -0.041138098 0.81500006 7.8478207e-39
0.017852388 -0.041138109 0.81500006 8.5868067e-39
0.019404763 -0.041138094 0.81500006 7.2881925e-39
0.020957148 -0.041138105 0.81500006 6.0128134e-39
0.022509525 -0.041138094 0.81500006 6.1852782e-39
0.024061911 -0.041138101 0.81500006 6.4593497e-39
0.025614286 -0.04113809 0.81500006 6.4571959e-39
0.027166672 -0.041138101 0.81500006 6.5469183e-39
0.028719055 -0.041138116 0.81500006 6.0888562e-39
0.030345723 -0.041239064 0.81700003 5.7222247e-39
0.031901911 -0.041239057 0.81700003 3.4998704e-39
0.033540007 -0.041340001 0.81900007 1.2893529e-39
0.035099998 -0.041339997 0.81900012 1.1063896e-39
0.036660004 -0.041340005 0.81900007 1.0141912e-39
0.038219996 -0.041339982 0.81900007 1.1045875e-39
0.039780006 -0.041340005 0.81900012 1.1957014e-39
0.041340001 -0.041339982 0.81900007 1.1049379e-39
0.042900007 -0.041340012 0.81900012 1.0130925e-39
0.04446001 -0.041340016 0.81900007 8.3012921e-40
0.046020001 -0.041339993 0.81900007 7.3829792e-40
0.047463816 -0.041239049 0.81700003 8.2977748e-40
0.04902 -0.041239046 0.81700003 9.2161298e-40
0.050576195 -0.041239042 0.81700003 1.0148834e-39
0.052132383 -0.041239034 0.81700003 1.1078007e-39
0.053688582 -0.041239049 0.81700003 1.1989243e-39
0.055244781 -0.041239064 0.81700003 1.2907668e-39
0.056800969 -0.04123906 0.81700003 1.7503087e-39
0.011671434 -0.039682873 0.81700009 9.9829904e-41
0.013227623 -0.039682865 0.81700003 1.3844703e-39
0.014747621 -0.039585721 0.81500006 2.6859669e-39
0.016279994 -0.039537124 0.81400001 5.454679e-39
0.017852375 -0.039585698 0.81500006 8.2054545e-39
0.01940476 -0.039585706 0.81500006 9.5930469e-39
0.020957146 -0.039585717 0.81500006 1.0969462e-38
0.02250953 -0.039585728 0.81500006 1.1809575e-38
0.024061918 -0.039585739 0.81500006 1.2618886e-38
0.025677148 -0.039682869 0.81700009 1.2638269e-38
0.027233338 -0.039682865 0.81700009 1.2619973e-38
0.028789528 -0.039682861 0.81700003 1.1163161e-38
0.030345714 -0.039682854 0.81700003 9.5717906e-39
0.03198 -0.039779995 0.81900007 5.1460752e-39
0.033458102 -0.039682869 0.81700003 6.4684778e-40
0.035100002 -0.039780002 0.81900007 7.3867767e-40
0.036660004 -0.03978001 0.81900007 8.2943557e-40
0.038220007 -0.039780002 0.81900012 8.276405e-40
0.039779998 -0.039779983 0.81900007 8.2870969e-40
0.041340008 -0.039780006 0.81900012 9.2161438e-40
0.042900011 -0.03978001 0.81900007 9.2124724e-40
0.044459999 -0.039779991 0.81900007 9.2159757e-40
0.046020001 -0.039779991 0.81900012 9.2160317e-40
0.047463819 -0.039682869 0.81700003 9.2125004e-40
0.049020007 -0.039682861 0.81700003 9.2268638e-40
0.050700009 -0.039779995 0.81900012 1.1074364e-39
0.052132383 -0.03968285 0.81700003 1.2911088e-39
0.053688575 -0.039682847 0.81700003 1.2911116e-39
0.055244762 -0.039682839 0.81700003 1.2911256e-39
0.056800961 -0.039682858 0.81700009 2.0254648e-39
0.014747621 -0.038033336 0.81500006 1.5616434e-39
0.016280003 -0.037986673 0.81400001 2.8570598e-39
0.017852383 -0.038033329 0.81500006 4.1363332e-39
0.019404767 -0.03803334 0.81500006 4.88504e-39
0.020957146 -0.038033333 0.81500006 5.5336351e-39
0.022509528 -0.038033344 0.81500006 5.9906658e-39
0.024061907 -0.038033329 0.81500006 6.3436824e-39
0.025614291 -0.03803334 0.81500006 6.3576953e-39
0.027233342 -0.038126681 0.81700009 6.3555037e-39
0.028719051 -0.03803334 0.815 5.6197043e-39
0.030271428 -0.038033325 0.81500006 4.8677409e-39
0.031901907 -0.038126666 0.81700003 2.9409289e-39
0.03345811 -0.038126688 0.81700003 1.0145345e-39
0.035100002 -0.03822 0.81900007 8.3014322e-40
0.036660001 -0.038220003 0.81900012 7.368742e-40
0.038220007 -0.038220007 0.81900007 9.2054519e-40
0.039780006 -0.038220003 0.81900012 1.1042078e-39
0.041340005 -0.038220007 0.81900007 1.0127212e-39
0.042900003 -0.038219985 0.81900007 1.0127142e-39
0.044460006 -0.038220014 0.81900012 1.0130645e-39
0.046019997 -0.038219992 0.81900007 9.208787e-40
0.047580011 -0.038220018 0.81900012 1.0141575e-39
0.049140003 -0.038219992 0.81900012 1.1996264e-39
0.050700005 -0.038219996 0.81900007 1.2907472e-39
0.052132387 -0.03812667 0.81700003 1.3822226e-39
0.053688575 -0.038126666 0.81700003 1.4751329e-39
0.055244766 -0.038126659 0.81700003 1.659185e-39
0.016280001 -0.036436193 0.81400007 2.7596471e-40
0.017830476 -0.036436189 0.81400001 9.3735657e-41
0.019380949 -0.036436185 0.81400001 9.2667867e-41
0.020931425 -0.036436178 0.81400001 9.8407586e-41
0.022481909 -0.0364362 0.81400001 9.2309135e-41
0.024032392 -0.036436219 0.81400007 9.41056e-41
0.025582869 -0.036436211 0.81400001 9.231474e-41
0.027166674 -0.036480963 0.81500006 9.6964249e-41
0.028719047 -0.036480948 0.81500006 9.2286714e-41
0.030271433 -0.03648096 0.81500006 9.2980357e-41
0.031823814 -0.036480952 0.81500006 7.3580501e-40
0.033376195 -0.036480963 0.81500006 1.2889662e-39
0.035014287 -0.036570475 0.81700003 1.0134569e-39
0.036570475 -0.036570471 0.81700003 6.4575196e-40
0.038220007 -0.036660004 0.81900012 1.0130897e-39
0.03978001 -0.036660004 0.81900012 1.288592e-39
0.041339997 -0.036659982 0.81900007 1.1956761e-39
0.042900011 -0.036660008 0.81900012 1.104914e-39
0.044459999 -0.03665999 0.81900007 1.0134345e-39
0.046020001 -0.036659993 0.81900007 9.2232204e-40
0.047696196 -0.036749534 0.82100004 1.1981929e-39
0.049260013 -0.036749545 0.8210001 1.3829415e-39
0.050700013 -0.036659993 0.81900012 1.4740595e-39
0.017830485 -0.034885734 0.81400007 1.01205e-39
0.019380959 -0.034885727 0.81400001 8.2836077e-40
0.020931434 -0.034885723 0.81400001 7.3580221e-40
0.022426669 -0.034799997 0.81200004 4.6029011e-40
0.023973338 -0.034800012 0.81200004 1.8476681e-40
0.025582859 -0.034885712 0.81400001 1.8438986e-40
0.027166659 -0.034928553 0.81500006 1.8440107e-40
0.028719043 -0.034928564 0.81500006 3.6915947e-40
0.030234292 -0.034885719 0.81400001 6.4539603e-40
0.031784769 -0.034885716 0.81400001 9.2091373e-40
0.033335239 -0.034885712 0.81400001 1.1978509e-39
0.03501429 -0.035014294 0.81700003 1.0138156e-39
0.036570478 -0.035014287 0.81700003 8.2977748e-40
0.038126666 -0.035014283 0.81700003 1.0134387e-39
0.039780006 -0.035100009 0.81900007 1.2900228e-39
0.041340008 -0.035100009 0.81900012 1.2893067e-39
0.0429 -0.035099983 0.81900012 1.1974726e-39
0.044459999 -0.035099987 0.81900007 1.1067147e-39
0.046020005 -0.035100017 0.81900012 1.0159596e-39
0.047696192 -0.035185717 0.8210001 1.5666167e-39
0.049260005 -0.035185721 0.8210001 2.1183457e-39
0.020931434 -0.033335246 0.81400007 1.2875537e-39
0.022426672 -0.033253338 0.81200004 8.2800344e-40
0.023973331 -0.033253323 0.81200004 2.7733518e-40
0.025520004 -0.033253338 0.81200004 2.7660371e-40
0.027233332 -0.033458091 0.81700003 2.7697225e-40
0.028719053 -0.033376198 0.81500006 7.3759587e-40
0.03023429 -0.033335239 0.81400007 1.1049421e-39
0.031823803 -0.033376176 0.81500006 1.1042302e-39
0.033376191 -0.033376183 0.81500006 1.0138254e-39
0.035014294 -0.03345811 0.81700003 1.0138212e-39
0.036480963 -0.033376206 0.81500006 9.2162279e-40
0.03803334 -0.033376191 0.81500006 1.1049322e-39
0.020777157 -0.031550512 0.80800009 3.1239259e-39
0.022371439 -0.031628594 0.81000006 3.4058671e-39
0.023914287 -0.031628575 0.81000006 3.7685344e-39
0.025519997 -0.031706654 0.81200004 3.0385027e-39
0.027233338 -0.031901911 0.81700003 2.2970126e-39
0.028719051 -0.031823814 0.81500006 2.3938802e-39
0.03023429 -0.031784762 0.81400001 2.4835619e-39
0.031784765 -0.031784762 0.81400001 2.1176534e-39
0.033335246 -0.031784777 0.81400007 1.7488723e-39
0.035014287 -0.031901903 0.81700009 1.4737204e-39
0.036480952 -0.031823795 0.81500006 1.2893347e-39
0.038033336 -0.031823806 0.81500006 1.2896963e-39
0.023914285 -0.030085709 0.81000006 7.2759102e-39
0.028719056 -0.03027145 0.81500006 4.0569791e-39
0.030234288 -0.030234287 0.81400001 3.7771622e-39
0.031784769 -0.030234281 0.81400001 3.1332319e-39
0.033335239 -0.030234279 0.81400001 2.3938816e-39
-0.00073617871 -0.024294317 0.77300006 2.7688214e-39
0.00073524623 -0.024262879 0.77200001 3.234522e-39
0.0022057137 -0.024262859 0.77200001 3.7026201e-39
0.0036761919 -0.024262862 0.77200001 4.7077407e-39
0.00073524204 -0.022792391 0.77200001 3.0435838e-39
0.0022057197 -0.022792399 0.77200001 3.6053812e-39
0.0036761989 -0.022792403 0.77200001 7.0191026e-39
0.0051466743 -0.021321921 0.77200001 6.4699548e-39
0.0051200013 -0.019748576 0.76800007 2.4068801e-39
0.0065828552 -0.019748567 0.76800001 4.8940055e-39
0.012272377 -0.018047612 0.75800002 6.9259527e-39
0.013679995 -0.01799999 0.75600004 7.5802582e-39
0.015120002 -0.018000003 0.7560001 7.9386094e-39
0.018000009 -0.018000014 0.75600004 8.394187e-39
0.019440005 -0.018000009 0.7560001 8.408874e-39
0.0065400009 -0.016713334 0.76300007 1.6545509e-39
0.0079723801 -0.016669521 0.7610001 1.567386e-39
0.009421913 -0.016669545 0.7610001 1.2875803e-39
0.010857143 -0.016647616 0.76000005 9.3461983e-40
0.012272378 -0.016603805 0.75800008 2.6845487e-39
0.013680002 -0.016560005 0.75600004 4.3433288e-39
0.015119998 -0.016559994 0.75600004 6.2779755e-39
0.018047627 -0.016603829 0.75800008 8.9527081e-39
0.019491436 -0.016603829 0.75800008 9.683439e-39
0.0079723848 -0.015220013 0.7610001 2.0218355e-39
0.0094219083 -0.015220013 0.7610001 1.8392225e-39
0.01085714 -0.015199993 0.76000005 1.6541375e-39
0.01227238 -0.01516 0.75800008 2.304539e-39
0.013716188 -0.015159998 0.75800008 3.03387e-39
0.015160009 -0.015160024 0.75800008 3.6871484e-39
