# .PCD v0.7 - Point Cloud Data file format
VERSION 0.7
FIELDS x y z rgb
SIZE 4 4 4 4
TYPE F F F F
COUNT 1 1 1 1
WIDTH 963
HEIGHT 1
VIEWPOINT 0 0 0 1 0 0 0
POINTS 963
DATA ascii
0.0097066378 -0.099306665 0.78400004 3.9658554e-39
0.011199964 -0.099306665 0.78400004 3.8714892e-39
0.012693294 -0.099306665 0.78400004 3.4130095e-39
0.014186623 -0.09930668 0.78399998 3.0402726e-39
0.01567995 -0.099306665 0.78399998 2.8576638e-39
0.017129524 -0.099053331 0.78200006 2.6711257e-39
0.018619042 -0.099053331 0.78200006 3.3218691e-39
0.020108562 -0.099053331 0.78200006 3.965435e-39
0.021598082 -0.099053331 0.78200006 3.2296735e-39
0.0230876 -0.099053346 0.78200006 2.4950147e-39
0.024514249 -0.098800011 0.78000003 3.5995756e-39
0.025966644 -0.098673321 0.77900004 4.7902421e-39
0.027379965 -0.098420016 0.77700001 5.1633574e-39
0.028859945 -0.098419987 0.77699995 5.5289058e-39
0.03041807 -0.098673306 0.77899998 5.7168815e-39
-0.030144798 -0.096316166 0.77199996 5.165472e-39
-0.028674344 -0.096316181 0.77200001 5.2544334e-39
-0.02720388 -0.096316181 0.77199996 5.3484115e-39
-0.025833379 -0.096690483 0.77500004 5.3476856e-39
-0.024294285 -0.096440963 0.77300006 5.2565816e-39
-0.02282192 -0.096440963 0.77300006 4.9792941e-39
-0.02140478 -0.096690483 0.77499998 4.615552e-39
-0.019980067 -0.096939974 0.77699995 4.7960057e-39
-0.018547665 -0.097189523 0.77899998 4.8946669e-39
-0.017085761 -0.097314291 0.78000003 5.4507119e-39
-0.015640022 -0.097563796 0.78200001 6.0049843e-39
-0.014150528 -0.097563811 0.78200001 6.2794454e-39
-0.012660984 -0.097563826 0.78200001 6.5542401e-39
-0.011200061 -0.097813345 0.78399998 5.4382291e-39
-0.0097067114 -0.097813345 0.78399998 4.3473085e-39
-0.0081924098 -0.097563826 0.78200006 4.7996546e-39
-0.0067200176 -0.097813331 0.78400004 5.2645606e-39
-0.0052267127 -0.097813345 0.78400004 4.6077118e-39
-0.0037333611 -0.097813345 0.78399998 3.9727694e-39
-0.0022342857 -0.097563811 0.78200001 3.7826567e-39
-0.00074478891 -0.097563826 0.78200006 3.6036282e-39
0.00074475352 -0.097563811 0.78200001 4.9818585e-39
0.0022342503 -0.097563811 0.78200006 6.3601e-39
0.0037332559 -0.097813331 0.78399998 5.9027077e-39
0.0052266447 -0.097813331 0.78400004 5.3466515e-39
0.0067199501 -0.097813345 0.78400004 4.5122203e-39
0.0082133003 -0.09781336 0.78400004 3.6849595e-39
0.0097066276 -0.097813345 0.78400004 3.4090691e-39
0.011199955 -0.097813331 0.78399998 3.1342703e-39
0.01266091 -0.097563796 0.78200001 2.8566016e-39
0.01418661 -0.097813331 0.78399998 2.5803846e-39
0.015679939 -0.097813331 0.78399998 1.6598843e-39
0.017129492 -0.097563826 0.78200001 6.5184901e-40
0.018619012 -0.097563826 0.78200001 1.8460734e-39
0.020057105 -0.097314306 0.78000003 2.9498972e-39
0.021598091 -0.097563811 0.78200006 1.6652821e-39
0.023028525 -0.097314291 0.78000003 3.792334e-40
0.024482815 -0.097189523 0.77899998 1.2046837e-39
0.025966642 -0.097189523 0.77900004 1.94152e-39
0.027379958 -0.096939988 0.77700001 1.939369e-39
0.028785685 -0.096690468 0.77500004 1.9411823e-39
0.03033994 -0.096940003 0.77699995 2.4889863e-39
-0.029854288 -0.089562856 0.72900003 4.9800284e-39
-0.030183833 -0.09496858 0.77300006 4.8870999e-39
-0.02871147 -0.09496858 0.77300006 4.9810709e-39
-0.027239107 -0.09496858 0.77300006 5.0753909e-39
-0.025833407 -0.095214285 0.77500004 4.9824512e-39
-0.024357151 -0.095214285 0.77500004 4.9824905e-39
-0.022880979 -0.095214285 0.77500004 4.7977825e-39
-0.021460056 -0.09546002 0.77700001 4.7045023e-39
-0.019980075 -0.09545999 0.77700001 4.7044911e-39
-0.018547645 -0.095705695 0.77899998 4.795277e-39
-0.017063817 -0.095705695 0.77900004 5.3513388e-39
-0.015600061 -0.09582857 0.78000003 5.9934768e-39
-0.014114327 -0.09582857 0.77999997 6.4566074e-39
-0.012660999 -0.096074276 0.78200001 6.9093277e-39
-0.011200048 -0.096319981 0.78399998 6.5466478e-39
-0.0096819606 -0.096074276 0.78200001 6.1803554e-39
-0.0082133552 -0.096320011 0.78400004 6.5491043e-39
-0.0067200493 -0.096320011 0.78400004 7.0046889e-39
-0.0052266987 -0.096319981 0.78399998 6.6376986e-39
-0.0037333937 -0.096319996 0.78400004 6.2682533e-39
-0.0022342997 -0.096074276 0.78200006 6.088576e-39
-0.00074475724 -0.096074276 0.78200006 5.9059686e-39
0.00074473862 -0.096074276 0.78200006 5.9981488e-39
0.0022399565 -0.096319996 0.78400004 6.0957114e-39
0.0037333062 -0.096319996 0.78400004 5.1680168e-39
0.0052266112 -0.096320011 0.78400004 4.3367973e-39
0.0067199622 -0.096319996 0.78399998 3.6849427e-39
0.0082132667 -0.096320011 0.78400004 3.0392034e-39
0.0097066183 -0.096320011 0.78399998 3.315765e-39
0.011199946 -0.096320011 0.78399998 3.6856181e-39
0.012660919 -0.096074291 0.78200006 3.5948589e-39
0.01415044 -0.096074291 0.78200006 3.5912996e-39
0.015639959 -0.096074276 0.78200006 2.9491966e-39
0.017129479 -0.096074291 0.78200006 2.3999815e-39
0.018571395 -0.095828585 0.78000003 2.8584443e-39
0.020057106 -0.095828585 0.78000003 3.4040875e-39
0.021542842 -0.095828585 0.78000003 2.7659137e-39
0.020902853 -0.086982884 0.708 2.1212604e-39
0.024482848 -0.09570571 0.77900004 2.6765669e-39
0.025899956 -0.09545999 0.77700001 3.2300602e-39
0.027379936 -0.09545999 0.77699995 3.2282343e-39
0.028785678 -0.09521427 0.77499998 3.3172392e-39
0.030261891 -0.0952143 0.77500004 3.6874903e-39
0.031738065 -0.0952143 0.77500004 4.0580651e-39
0.03321426 -0.0952143 0.77499998 4.6115934e-39
0.035117082 -0.088825725 0.72300005 7.1969568e-39
-0.029854283 -0.088174276 0.72900003 4.6126612e-39
-0.028465731 -0.088174276 0.72900003 4.6122982e-39
-0.028674336 -0.093375243 0.77200001 4.7069994e-39
-0.027239069 -0.093496196 0.77300006 4.7066308e-39
-0.025766706 -0.093496211 0.77300006 4.7073385e-39
-0.024294341 -0.093496196 0.77300006 4.6148164e-39
-0.022821933 -0.093496181 0.773 4.7084763e-39
-0.021404795 -0.093738101 0.77500004 4.7059498e-39
-0.019980038 -0.093979992 0.77700001 4.7052169e-39
-0.018547669 -0.094221883 0.77899998 4.6134024e-39
-0.017085744 -0.09434285 0.78000003 5.3499011e-39
-0.015600057 -0.09434288 0.78000003 5.9963495e-39
-0.01415051 -0.094584771 0.78200006 6.643514e-39
-0.012660967 -0.094584785 0.78200001 7.2863653e-39
-0.011200042 -0.094826661 0.78400004 7.6583736e-39
-0.0097067375 -0.094826676 0.78400004 8.0242694e-39
-0.0082133859 -0.094826691 0.78400004 8.3955462e-39
-0.0067200353 -0.094826676 0.78399998 8.6696234e-39
-0.0052267304 -0.094826661 0.78399998 8.5781522e-39
-0.0037333798 -0.094826676 0.78399998 8.4845357e-39
-0.0022343518 -0.094584771 0.78200006 8.3977351e-39
-0.00074477214 -0.094584785 0.78200006 8.2083174e-39
0.00074661896 -0.094826691 0.78400004 7.0083518e-39
0.0022399696 -0.094826676 0.78399998 5.815191e-39
0.0037332745 -0.094826676 0.78400004 4.5208691e-39
0.0052266251 -0.094826676 0.78399998 3.2337204e-39
0.0067199306 -0.094826676 0.78399998 2.8520137e-39
0.0082132583 -0.094826676 0.78399998 2.4017905e-39
0.0097066471 -0.094826691 0.78400004 3.3129568e-39
0.011199975 -0.094826691 0.78400004 4.1527494e-39
0.012660928 -0.094584756 0.78200006 4.3371379e-39
0.01418663 -0.094826676 0.78400004 4.5179432e-39
0.015639966 -0.094584785 0.78200006 4.3285353e-39
0.017129486 -0.094584785 0.78200006 4.0569763e-39
0.018571384 -0.094342865 0.78000003 3.9665771e-39
0.018282805 -0.085997142 0.71099997 3.7811307e-39
0.019692324 -0.086239032 0.713 3.7815062e-39
0.020961883 -0.085876204 0.71000004 3.7807747e-39
0.022314262 -0.085876174 0.71000004 4.1495376e-39
0.023699956 -0.085997142 0.71099997 4.4257378e-39
0.027309479 -0.093738101 0.77499998 4.5182655e-39
0.028785689 -0.093738116 0.77500004 4.6090458e-39
0.027840903 -0.086239047 0.713 4.8856495e-39
0.029198991 -0.086239047 0.71300006 5.0707596e-39
0.030985655 -0.087448575 0.72299999 5.3494989e-39
0.032362826 -0.087448575 0.72300005 5.6239292e-39
0.033739977 -0.08744856 0.72300005 4.8860167e-39
0.035117108 -0.08744856 0.72300005 4.1595667e-39
0.036494233 -0.08744856 0.72300005 7.4767499e-39
0.037871361 -0.087448575 0.72300005 1.0692434e-38
0.039248515 -0.087448575 0.72299999 1.0692084e-38
0.04073808 -0.087690465 0.72500002 1.069318e-38
0.042119019 -0.087690465 0.72500002 1.0698582e-38
-0.029977171 -0.087142862 0.73200005 3.5080989e-39
-0.02854386 -0.087023832 0.73100001 3.5073898e-39
-0.027151497 -0.087023817 0.73099995 3.6921454e-39
-0.027203875 -0.091904752 0.77199996 3.9687365e-39
-0.025766715 -0.092023827 0.77300006 3.9687435e-39
-0.024294306 -0.092023812 0.77300006 3.9694834e-39
-0.022821942 -0.092023812 0.77300006 3.9698631e-39
-0.021404779 -0.092261903 0.77500004 4.0623965e-39
-0.019980045 -0.092499994 0.77700001 4.0620167e-39
-0.018547695 -0.09273807 0.77899998 4.1542278e-39
-0.017085779 -0.09285716 0.78000003 4.7074086e-39
-0.015600045 -0.092857145 0.78000003 5.3560136e-39
-0.014186731 -0.093333341 0.78400004 6.0932255e-39
-0.012693379 -0.093333356 0.78400004 6.9236966e-39
-0.011200074 -0.093333341 0.78400004 7.2914029e-39
-0.0097067244 -0.093333326 0.78399998 7.7509447e-39
-0.0082134195 -0.093333341 0.78400004 8.9505515e-39
-0.0067200679 -0.093333341 0.78399998 1.0149093e-38
-0.005239998 -0.093571417 0.78600001 1.0053687e-38
-0.0037333742 -0.093333341 0.78400004 9.9586008e-39
-0.0022400245 -0.093333326 0.78399998 1.0238388e-38
-0.00074671954 -0.093333341 0.78400004 1.0511026e-38
0.00074663199 -0.093333341 0.78399998 9.9592958e-39
0.002239937 -0.093333341 0.78399998 9.4925654e-39
0.0037332876 -0.093333326 0.78399998 8.8522084e-39
0.0052265925 -0.093333341 0.78399998 8.2043433e-39
0.0067199431 -0.093333326 0.78399998 7.930636e-39
0.0082132872 -0.093333341 0.78400004 7.6576337e-39
0.0097066155 -0.093333356 0.78400004 7.6569092e-39
0.011199944 -0.093333341 0.78400004 7.7541257e-39
0.012693294 -0.093333326 0.78399998 6.1835952e-39
0.012901871 -0.084880956 0.71300006 4.6209358e-39
0.014219951 -0.084642865 0.71099997 4.4311454e-39
0.015552355 -0.084523819 0.71000004 4.2474744e-39
0.01690473 -0.084523819 0.71000004 4.1538438e-39
0.018282799 -0.084642865 0.71099997 4.0634671e-39
0.0196371 -0.084642865 0.71099997 4.0613385e-39
0.020991402 -0.084642865 0.71099997 4.1527984e-39
0.022345681 -0.08464285 0.71100003 4.7027184e-39
0.023699949 -0.084642865 0.71099997 5.2540733e-39
0.025054252 -0.08464285 0.71099997 5.0711016e-39
0.026482806 -0.084880941 0.71300006 4.8885096e-39
0.027840918 -0.084880956 0.71300006 5.0718232e-39
0.029198991 -0.084880941 0.713 5.2554998e-39
0.030557079 -0.084880956 0.71300006 5.4416861e-39
0.032362808 -0.086071439 0.72300005 5.7175416e-39
0.033739939 -0.086071409 0.72299999 4.8867075e-39
0.035117127 -0.086071424 0.72300005 4.1495194e-39
0.036494259 -0.086071409 0.72300005 7.2873588e-39
0.03797619 -0.08630953 0.72500002 1.0510214e-38
0.039357126 -0.086309545 0.72500002 1.0507704e-38
0.040738087 -0.08630953 0.72500002 1.0597414e-38
0.042177137 -0.08642856 0.72600001 1.0601385e-38
0.043679949 -0.086666651 0.72799999 1.0602467e-38
-0.029977154 -0.085748576 0.73200005 2.4917875e-39
-0.028543869 -0.085631438 0.73099995 2.3088438e-39
-0.027151469 -0.085631438 0.73100001 2.7691059e-39
-0.025688596 -0.085397162 0.72900003 3.2286519e-39
-0.02430002 -0.085397147 0.72899997 3.2293806e-39
-0.022628589 -0.08434286 0.72000003 3.2297533e-39
-0.022940051 -0.09102001 0.77700001 3.3223217e-39
-0.019858122 -0.084225707 0.71899998 3.3233825e-39
-0.020031463 -0.091254286 0.77899998 3.5091905e-39
-0.018547637 -0.091254272 0.77899998 3.6013987e-39
-0.017063849 -0.091254272 0.77899998 4.1531432e-39
-0.014280029 -0.083640002 0.71399999 4.6155506e-39
-0.014150493 -0.09160573 0.78200006 5.5410816e-39
-0.012693412 -0.091840021 0.78400004 6.4601611e-39
-0.011228593 -0.092074297 0.78600001 7.0154845e-39
-0.0097067561 -0.091840006 0.78399998 7.4729075e-39
-0.0082133673 -0.091840006 0.78400004 9.5066008e-39
-0.0067200623 -0.091840006 0.78400004 1.1524124e-38
-0.0052400092 -0.092074282 0.78600007 1.1528084e-38
-0.0037428504 -0.092074297 0.78600001 1.1430141e-38
-0.0022400562 -0.091840021 0.78400004 1.2177369e-38
-0.00074670557 -0.091839992 0.78399998 1.281197e-38
0.00074660033 -0.091839992 0.78399998 1.3008199e-38
0.0022457317 -0.092074282 0.78600001 1.3084242e-38
0.0037428448 -0.092074297 0.78600001 1.309966e-38
0.0052400036 -0.092074282 0.78600001 1.3086384e-38
0.0067199497 -0.091840006 0.78400004 1.3008538e-38
0.008213277 -0.091840021 0.78400004 1.2809795e-38
0.0097066052 -0.091840021 0.78400004 1.2085867e-38
0.011199933 -0.091840006 0.78399998 1.1239948e-38
0.011543756 -0.083522849 0.713 8.0217317e-39
0.012865664 -0.083288558 0.71099997 4.7120384e-39
0.0142 -0.08317145 0.71000004 4.5272632e-39
0.015552353 -0.083171465 0.71000004 4.3389357e-39
0.016904734 -0.083171435 0.71000004 4.3375078e-39
0.018282814 -0.083288573 0.71099997 4.2460479e-39
0.019609531 -0.08317145 0.71000004 4.4308119e-39
0.020991396 -0.083288573 0.71100003 4.5204894e-39
0.022345698 -0.083288573 0.71100003 5.3462843e-39
0.023699939 -0.083288573 0.71099997 6.0816816e-39
0.025054244 -0.083288588 0.71099997 5.6232188e-39
0.026482804 -0.083522849 0.713 5.1651119e-39
0.027840892 -0.083522864 0.71300006 5.3487787e-39
0.029199002 -0.083522864 0.71300006 5.4420575e-39
0.030557113 -0.083522849 0.71300006 5.6275306e-39
0.032362834 -0.084694274 0.72300005 5.7175444e-39
0.033739962 -0.084694274 0.72300005 4.8848984e-39
0.03511709 -0.084694274 0.72300005 4.0609069e-39
0.036595255 -0.08492858 0.72500002 7.1958876e-39
0.037976194 -0.08492858 0.72500002 1.0321866e-38
0.039357129 -0.08492858 0.72500002 1.0415121e-38
0.040738065 -0.084928565 0.72500002 1.0415511e-38
0.04217713 -0.085045703 0.72599995 1.0506661e-38
0.043679964 -0.085279994 0.72799999 1.050952e-38
-0.0313286 -0.084239058 0.73100001 2.1229868e-39
-0.029936243 -0.084239043 0.73099995 1.938241e-39
-0.028426711 -0.083893321 0.72800004 1.8449804e-39
-0.027040044 -0.083893307 0.72800004 2.1219316e-39
-0.025582872 -0.08366283 0.72599995 2.48821e-39
-0.024200013 -0.08366286 0.72600001 2.3981808e-39
-0.022597171 -0.082856171 0.71900004 2.3981892e-39
-0.021227637 -0.082856186 0.71900004 2.4907506e-39
-0.01980288 -0.082625695 0.71700001 2.6747691e-39
-0.018514311 -0.082971446 0.72000003 2.769822e-39
-0.017119076 -0.082856186 0.71899998 2.8638225e-39
-0.015749564 -0.082856186 0.71900004 3.2286645e-39
-0.014280023 -0.082279988 0.71400005 3.5949177e-39
-0.014186748 -0.090346672 0.78399998 4.1516564e-39
-0.012725756 -0.090577133 0.78600001 4.6158631e-39
-0.011228596 -0.090577148 0.78600001 4.2456583e-39
-0.0097067039 -0.090346672 0.78400004 3.9655611e-39
-0.008213399 -0.090346657 0.78400004 5.1706148e-39
-0.0067200488 -0.090346672 0.78400004 6.3716621e-39
-0.0052267434 -0.090346672 0.78400004 6.1819024e-39
-0.0037333928 -0.090346657 0.78399998 5.9946469e-39
-0.0022343034 -0.090116195 0.78200001 6.3655776e-39
-0.00074480753 -0.090116195 0.78200006 6.735435e-39
0.00067709759 -0.081934296 0.71100003 6.7340042e-39
0.0022513978 -0.090807609 0.78800005 6.8175931e-39
0.0037523648 -0.090807609 0.78800005 6.9187598e-39
0.0052399915 -0.090577133 0.78600001 7.0123806e-39
0.0067371503 -0.090577133 0.78600001 7.0109358e-39
0.0082342634 -0.090577148 0.78600001 7.0069856e-39
0.0097065959 -0.090346672 0.78399998 6.8225915e-39
0.010157093 -0.081934281 0.71100003 6.6281039e-39
0.011511395 -0.081934281 0.71100003 5.3480906e-39
0.012865659 -0.081934296 0.71099997 4.1581402e-39
0.014199965 -0.08181905 0.71000004 3.9708454e-39
0.015552379 -0.08181905 0.71000004 3.8761555e-39
0.016904736 -0.081819065 0.71000004 3.8765282e-39
0.018282808 -0.081934281 0.71099997 3.968375e-39
0.01963711 -0.081934281 0.71099997 4.3364442e-39
0.020991389 -0.081934296 0.71100003 4.6108787e-39
0.02234569 -0.081934296 0.71100003 5.0711366e-39
0.023699958 -0.081934281 0.71099997 5.5317588e-39
0.025124731 -0.082164757 0.71300006 5.3488151e-39
0.026482817 -0.082164757 0.71300006 5.1665678e-39
0.027840888 -0.082164772 0.713 5.2591082e-39
0.029199 -0.082164757 0.713 5.3520325e-39
0.03055709 -0.082164757 0.71300006 5.4449554e-39
0.032318108 -0.083201908 0.72200006 5.6300151e-39
0.033739962 -0.083317138 0.72300005 4.8873927e-39
0.035117112 -0.083317138 0.72300005 4.1459209e-39
0.03649424 -0.083317138 0.72300005 6.9135694e-39
0.037871368 -0.083317138 0.72300005 9.6761355e-39
0.039357133 -0.083547629 0.72500002 1.0323615e-38
0.040738072 -0.083547629 0.72500002 1.1060488e-38
0.042119045 -0.083547629 0.72500002 1.0785018e-38
0.043559965 -0.08366286 0.72599995 1.0601679e-38
-0.032765727 -0.082959987 0.73200005 2.1262154e-39
-0.031328615 -0.082846664 0.73099995 1.6634492e-39
-0.029813362 -0.082506649 0.72800004 1.4769069e-39
-0.028426696 -0.082506649 0.72800004 1.2932457e-39
-0.026965763 -0.082280003 0.72599995 1.4772853e-39
-0.025547639 -0.082166649 0.72500002 1.6613206e-39
-0.024000049 -0.081600018 0.72000003 1.5687747e-39
-0.022597151 -0.08148665 0.71900004 1.4776692e-39
-0.021227639 -0.081486665 0.71900004 1.7517534e-39
-0.019802904 -0.081260003 0.71700001 2.0301199e-39
-0.018437175 -0.081260003 0.71700001 2.1226631e-39
-0.017119056 -0.081486665 0.71899998 2.1226687e-39
-0.015749546 -0.08148665 0.71900004 2.3949536e-39
-0.014280057 -0.080919988 0.71400005 2.5807686e-39
-0.012920024 -0.080920003 0.71400005 2.6711607e-39
-0.011543883 -0.08080665 0.713 2.7669521e-39
-0.010185771 -0.080806665 0.713 1.5691544e-39
-0.0088276602 -0.080806665 0.713 3.7926423e-40
-0.0074695721 -0.08080668 0.71300006 7.4627411e-40
-0.0060943365 -0.080579989 0.71099997 1.117209e-39
-0.0047400333 -0.080580004 0.71099997 8.3274123e-40
-0.003385732 -0.080580004 0.71100003 4.7005856e-40
-0.0020314902 -0.080579989 0.71099997 5.5399914e-40
-0.00067431666 -0.080240004 0.708 5.6404926e-40
0.00067425333 -0.080240019 0.708 5.5831514e-40
0.0020199902 -0.08012668 0.70700002 4.7221796e-40
0.0033714324 -0.080240019 0.708 7.4449446e-40
0.0047333185 -0.08046668 0.71000004 9.3283037e-40
0.0060856976 -0.08046668 0.71000004 1.0153402e-39
0.0074380543 -0.08046668 0.71000004 1.1150692e-39
0.0087656938 -0.080240019 0.708 1.5688685e-39
0.010114264 -0.080240004 0.708 1.9401342e-39
0.011462837 -0.080239989 0.708 2.7677088e-39
0.012811406 -0.080240004 0.708 3.5066625e-39
0.014199963 -0.08046668 0.71000004 3.4137172e-39
0.015508566 -0.080240019 0.708 3.3229789e-39
0.01690476 -0.08046668 0.71000004 3.5077471e-39
0.018257139 -0.08046668 0.71000004 3.6917783e-39
0.019637102 -0.080579989 0.71099997 4.2431514e-39
0.020991404 -0.080579989 0.71100003 4.7030575e-39
0.022345645 -0.080579989 0.71099997 4.7949042e-39
0.023766596 -0.080806665 0.713 4.8889005e-39
0.025124706 -0.08080665 0.713 4.9821794e-39
0.026482819 -0.08080665 0.713 5.0750826e-39
0.027840903 -0.080806665 0.71300006 5.1683461e-39
0.029199013 -0.08080668 0.71300006 5.259834e-39
0.03059998 -0.080920003 0.71400005 5.3538317e-39
0.032318078 -0.081826665 0.72200006 5.4442099e-39
0.033693343 -0.081826665 0.72200006 4.7973929e-39
0.035117071 -0.081940003 0.72299999 4.1520431e-39
0.036494263 -0.081940003 0.72300005 6.5444394e-39
0.037976176 -0.082166679 0.72500002 8.9400264e-39
0.039357141 -0.082166679 0.72500002 1.0326859e-38
0.040738113 -0.082166679 0.72500002 1.1704428e-38
0.042119052 -0.082166679 0.72500002 1.1154528e-38
0.043559957 -0.082279973 0.72599995 1.0601339e-38
-0.032765705 -0.08156573 0.73200005 2.0322289e-39
-0.031328589 -0.081454299 0.73100001 1.6627303e-39
-0.029813372 -0.081120007 0.72800004 1.3857847e-39
-0.028348612 -0.080897145 0.72600001 1.1999711e-39
-0.02696573 -0.08089713 0.72600001 1.2943275e-39
-0.025547633 -0.080785699 0.72500002 1.3868805e-39
-0.024000039 -0.080228575 0.72000003 1.5701914e-39
-0.022597155 -0.080117159 0.71900004 1.7535218e-39
-0.021227619 -0.080117144 0.71900004 1.8460916e-39
-0.019802902 -0.079894267 0.71700001 2.0304717e-39
-0.018411482 -0.079782866 0.71599996 2.0297458e-39
-0.017047638 -0.079782866 0.71599996 2.1187114e-39
-0.015683835 -0.079782851 0.71599996 2.3956528e-39
-0.014280031 -0.079560004 0.71400005 2.6725915e-39
-0.012901958 -0.079448558 0.71300006 2.7629878e-39
-0.011543846 -0.079448558 0.71300006 2.8541199e-39
-0.010185758 -0.079448558 0.71300006 2.0297654e-39
-0.0088276453 -0.079448573 0.71300006 1.2975715e-39
-0.0074695759 -0.079448573 0.713 1.5723396e-39
-0.006094344 -0.079225712 0.71099997 1.8442615e-39
-0.0047333632 -0.079114296 0.71000004 1.8456993e-39
-0.0033809468 -0.079114296 0.71000004 1.7531365e-39
-0.0020228457 -0.078891434 0.708 1.7538441e-39
-0.00067427382 -0.078891449 0.708 1.7545686e-39
0.00067427196 -0.078891449 0.708 1.7560105e-39
0.0020199791 -0.078780018 0.70700002 1.8499914e-39
0.0033714138 -0.078891449 0.708 1.756714e-39
0.0047199856 -0.078891434 0.708 1.66238e-39
0.0060685556 -0.078891434 0.708 2.0308108e-39
0.0074171275 -0.078891449 0.708 2.3999548e-39
0.0087532718 -0.078780003 0.70700002 2.5821993e-39
0.010114245 -0.078891434 0.708 2.7651654e-39
0.011462858 -0.078891449 0.708 2.9520762e-39
0.012811426 -0.078891449 0.708 3.2275505e-39
0.014159996 -0.078891434 0.708 3.3200712e-39
0.015508566 -0.078891434 0.708 3.5037702e-39
0.016904725 -0.079114296 0.71000004 3.6892615e-39
0.018282818 -0.079225697 0.71099997 3.873643e-39
0.019637097 -0.079225712 0.71100003 4.2427702e-39
0.020991398 -0.079225712 0.71100003 4.7034008e-39
0.022408521 -0.079448573 0.71300006 4.7959706e-39
0.023766631 -0.079448573 0.71300006 4.9807248e-39
0.025124719 -0.079448588 0.71300006 4.981808e-39
0.026482793 -0.079448558 0.713 5.0743582e-39
0.027840899 -0.079448573 0.713 5.4416974e-39
0.029198987 -0.079448558 0.71300006 5.8083317e-39
0.030685697 -0.079782851 0.71600002 5.5353447e-39
0.032228529 -0.080228589 0.72000003 5.3523926e-39
0.033599988 -0.080228575 0.72000003 4.7055995e-39
0.035068579 -0.080451436 0.72200006 4.0587965e-39
0.036494222 -0.080562852 0.72299999 5.9019538e-39
0.037871391 -0.080562852 0.72300005 7.7425874e-39
0.039357118 -0.080785714 0.72500002 9.4967664e-39
0.040738095 -0.080785729 0.72500002 1.13371e-38
0.042119052 -0.080785714 0.72500002 1.0785406e-38
0.043679949 -0.081119992 0.72799999 1.0325133e-38
0.045066617 -0.081119992 0.72799999 9.9570538e-39
-0.034160033 -0.080171429 0.73200005 2.3088284e-39
-0.032765727 -0.080171429 0.73199999 1.9407591e-39
-0.031328622 -0.080061905 0.73100001 1.5716235e-39
-0.0296905 -0.079404764 0.72500002 1.386519e-39
-0.028309526 -0.079404764 0.72500002 1.1106692e-39
-0.026854334 -0.079185717 0.72300005 1.112837e-39
-0.025477182 -0.079185702 0.72300005 1.0206315e-39
-0.024000051 -0.078857146 0.72000003 1.4794391e-39
-0.022597171 -0.078747623 0.71899998 1.9389935e-39
-0.021227662 -0.078747608 0.71899998 1.9400879e-39
-0.019802889 -0.078528576 0.71700001 1.9389977e-39
-0.01843716 -0.078528576 0.71700001 2.0308206e-39
-0.017047631 -0.078419037 0.71599996 2.0290213e-39
-0.01568385 -0.078419037 0.71599996 2.3956402e-39
-0.014280027 -0.07819999 0.71400005 2.764057e-39
-0.012901943 -0.078090481 0.71300006 2.8544576e-39
-0.01154387 -0.078090467 0.713 2.8562611e-39
-0.010185761 -0.078090467 0.713 2.5821993e-39
-0.0088276733 -0.078090481 0.71300006 2.216288e-39
-0.0074695628 -0.078090467 0.71300006 2.401031e-39
-0.0060943272 -0.077871419 0.71099997 2.5836202e-39
-0.0047333632 -0.077761926 0.71000004 2.860556e-39
-0.003385745 -0.077871434 0.71100003 3.0431508e-39
-0.0020286031 -0.077761911 0.71000004 3.0456634e-39
-0.00067429431 -0.077542864 0.708 2.9516839e-39
0.00067427754 -0.077542864 0.708 3.0453214e-39
0.0020199716 -0.077433325 0.70700002 3.136794e-39
0.003371397 -0.077542879 0.708 2.7701653e-39
0.004719967 -0.077542879 0.708 2.3099158e-39
0.0060685389 -0.077542879 0.708 3.0460389e-39
0.007417148 -0.077542879 0.708 3.6874524e-39
0.0087532848 -0.077433325 0.70699996 3.5952596e-39
0.010114288 -0.077542879 0.708 3.5037969e-39
0.011462836 -0.077542879 0.708 3.2308155e-39
0.012811409 -0.077542879 0.708 2.8616617e-39
0.014159979 -0.077542864 0.708 3.2275505e-39
0.015508549 -0.077542849 0.708 3.5949079e-39
0.016904727 -0.077761926 0.71000004 3.7793104e-39
0.01828281 -0.077871434 0.71099997 3.9647694e-39
0.019637112 -0.077871434 0.71099997 4.3342582e-39
0.020991391 -0.077871434 0.71100003 4.7034078e-39
0.022408495 -0.078090467 0.713 4.8888865e-39
0.023766605 -0.078090481 0.713 4.9810849e-39
0.025124718 -0.078090467 0.713 4.9821653e-39
0.026482806 -0.078090481 0.71300006 4.9818108e-39
0.027879965 -0.07819999 0.71399999 5.623946e-39
0.029239977 -0.07819999 0.71400005 6.2682406e-39
0.030728556 -0.078528561 0.71700001 5.7179577e-39
0.032183781 -0.078747608 0.71900004 5.1672979e-39
0.033599976 -0.078857131 0.72000003 4.5219327e-39
0.035068549 -0.079076193 0.72200006 3.8794303e-39
0.036494248 -0.079185702 0.72300005 5.261255e-39
0.037976187 -0.079404764 0.72500002 6.550891e-39
0.039357126 -0.079404779 0.72500002 8.7635454e-39
0.040738098 -0.079404764 0.72500002 1.0876853e-38
0.042177103 -0.079514287 0.72599995 1.0508091e-38
0.043679964 -0.07973332 0.72799999 1.004817e-38
0.045066632 -0.07973332 0.72799999 1.0138906e-38
0.046261907 -0.079404764 0.72500002 1.0231476e-38
-0.034160018 -0.078777142 0.73200005 2.1273224e-39
-0.032720998 -0.078669541 0.73100001 1.9411235e-39
-0.031328633 -0.078669526 0.73099995 1.7549484e-39
-0.029690497 -0.078023814 0.72500002 1.4776538e-39
-0.028309524 -0.078023814 0.72500002 1.1099741e-39
-0.026928587 -0.078023799 0.72500002 9.2811781e-40
-0.025477221 -0.077808566 0.72299999 7.4550059e-40
-0.024066679 -0.07770095 0.722 1.2964911e-39
-0.022628604 -0.077485718 0.72000003 1.9393592e-39
-0.021227641 -0.077378087 0.71900004 1.847542e-39
-0.019858127 -0.077378102 0.71899998 1.6631367e-39
-0.018437183 -0.077162869 0.71700001 1.8467895e-39
-0.017071458 -0.077162854 0.71700001 2.0300905e-39
-0.015683863 -0.077055238 0.71599996 2.3974199e-39
-0.014280036 -0.076839991 0.71399999 2.7661996e-39
-0.012901947 -0.07673239 0.71300006 2.8576792e-39
-0.011543857 -0.07673239 0.71300006 2.9509552e-39
-0.010185748 -0.07673239 0.71300006 2.7669311e-39
-0.0088276751 -0.076732375 0.713 2.5843503e-39
-0.0074695889 -0.07673239 0.71300006 2.6761984e-39
-0.0060943346 -0.076517157 0.71099997 2.7690961e-39
-0.0047400314 -0.076517142 0.71100003 2.8594812e-39
-0.003395278 -0.076732405 0.71300006 3.0438809e-39
-0.0020286012 -0.076409526 0.71000004 3.1350101e-39
-0.00067431293 -0.076194294 0.708 3.2264967e-39
0.00067425705 -0.076194294 0.708 3.2275827e-39
0.0020199846 -0.076086678 0.70700002 3.2282988e-39
0.0033714399 -0.076194294 0.708 3.0442677e-39
0.0047199875 -0.076194294 0.708 2.9545804e-39
0.0060685594 -0.076194309 0.708 3.41196e-39
0.0074171312 -0.076194309 0.708 3.7796537e-39
0.0087656993 -0.076194309 0.708 3.7785705e-39
0.010114269 -0.076194309 0.708 3.780381e-39
0.011462839 -0.076194309 0.708 3.5048899e-39
0.012811413 -0.076194294 0.708 3.2293806e-39
0.014159961 -0.076194279 0.708 3.4112537e-39
0.01550857 -0.076194309 0.708 3.5938513e-39
0.016904751 -0.076409526 0.71000004 3.7789586e-39
0.018282805 -0.076517157 0.71099997 4.0548197e-39
0.019637106 -0.076517142 0.71100003 4.3335505e-39
0.020991407 -0.076517142 0.71100003 4.6115794e-39
0.02240853 -0.07673239 0.71300006 4.8878131e-39
0.023766642 -0.07673239 0.71300006 5.255874e-39
0.025124731 -0.07673239 0.71300006 5.1643986e-39
0.026482804 -0.076732375 0.713 5.1644098e-39
0.027879968 -0.076840006 0.71400005 5.5328392e-39
0.029239964 -0.076839991 0.71399999 5.9016315e-39
0.030685691 -0.077055238 0.71599996 5.535021e-39
0.032183804 -0.077378102 0.71900004 5.2602194e-39
0.033553317 -0.077378102 0.71900004 4.7995944e-39
0.035068579 -0.07770095 0.72200006 4.4311608e-39
0.036494266 -0.077808566 0.72300005 5.3502164e-39
0.037976168 -0.078023814 0.72500002 6.2732447e-39
0.039357144 -0.078023829 0.72500002 8.5784675e-39
0.040738106 -0.078023814 0.72500002 1.07861e-38
0.0421771 -0.078131415 0.72599995 1.0232927e-38
0.043679956 -0.078346662 0.72800004 9.7719268e-39
0.045066647 -0.078346647 0.72799999 9.9544908e-39
0.046453316 -0.078346662 0.72800004 1.0227881e-38
-0.03411337 -0.077277146 0.73100001 1.8496705e-39
-0.032721009 -0.077277146 0.73099995 1.941485e-39
-0.031242868 -0.077065729 0.72900003 1.9379005e-39
-0.029731471 -0.076748572 0.72600001 1.5676914e-39
-0.028348587 -0.076748572 0.72599995 1.1092426e-39
-0.026965728 -0.076748557 0.72600001 7.4370693e-40
-0.025477199 -0.076431416 0.72300005 3.770712e-40
-0.024066674 -0.076325722 0.72200006 1.2050144e-39
-0.022628592 -0.076114275 0.72000003 1.9389893e-39
-0.021257157 -0.076114289 0.72000003 1.6638513e-39
-0.019858109 -0.076008581 0.71900004 1.3879749e-39
-0.018488595 -0.076008566 0.71900004 1.6634702e-39
-0.01707148 -0.075797148 0.71700001 1.9386067e-39
-0.015683854 -0.075691439 0.71599996 2.3974157e-39
-0.014280032 -0.075479992 0.71400005 2.7662024e-39
-0.012901971 -0.075374298 0.713 2.9509594e-39
-0.011543859 -0.075374268 0.713 3.0424446e-39
-0.010185773 -0.075374283 0.71300006 3.0417369e-39
-0.0088276621 -0.075374283 0.71300006 2.95027e-39
-0.0074695498 -0.075374283 0.71300006 2.9506399e-39
-0.0060943402 -0.075162865 0.71100003 2.857703e-39
-0.0047400389 -0.07516285 0.71100003 2.9480797e-39
-0.0033857357 -0.07516285 0.71100003 3.0431648e-39
-0.0020285994 -0.075057156 0.71000004 3.2243471e-39
-0.00067432784 -0.074845709 0.708 3.4091055e-39
0.00067427941 -0.074845724 0.708 3.31764e-39
0.0020199772 -0.074740015 0.70700002 3.2272408e-39
0.0033666249 -0.07474 0.70700002 3.4080433e-39
0.0047133099 -0.074739985 0.70700002 3.5931479e-39
0.0060599949 -0.074739985 0.70700002 3.7750238e-39
0.0074066203 -0.07474 0.70700002 3.8682886e-39
0.0087533072 -0.07474 0.70700002 3.9583262e-39
0.010114254 -0.074845724 0.708 3.9626366e-39
0.011462824 -0.074845724 0.708 3.7782552e-39
0.012811435 -0.074845724 0.708 3.5038165e-39
0.014160005 -0.074845724 0.708 3.59421e-39
0.015508575 -0.074845709 0.708 3.5952848e-39
0.016904755 -0.075057171 0.71000004 3.8707913e-39
0.018257134 -0.075057141 0.71000004 4.0566147e-39
0.019637099 -0.075162865 0.71100003 4.2420808e-39
0.0209914 -0.075162865 0.71100003 4.427558e-39
0.022345664 -0.075162865 0.71099997 4.9789438e-39
0.023766616 -0.075374298 0.71300006 5.4399107e-39
0.025124727 -0.075374268 0.71300006 5.3473535e-39
0.026519964 -0.075479992 0.71399999 5.2569586e-39
0.027879974 -0.075479992 0.71400005 5.3488011e-39
0.029239969 -0.075479992 0.71400005 5.4417268e-39
0.030728536 -0.075797148 0.71700001 5.4438946e-39
0.0321838 -0.076008566 0.71900004 5.351329e-39
0.033553336 -0.076008551 0.71900004 5.1680042e-39
0.035068572 -0.076325707 0.722 4.8881789e-39
0.036494225 -0.076431416 0.72300005 5.4355919e-39
0.037976172 -0.076642863 0.72500002 5.9973711e-39
0.039357148 -0.076642878 0.72500002 8.3987314e-39
0.040738083 -0.076642863 0.72500002 1.0693187e-38
0.042177133 -0.076748587 0.72599995 1.0048549e-38
0.043679971 -0.076960005 0.72800004 9.4046115e-39
0.04506664 -0.076960005 0.72800004 9.8627001e-39
-0.034160022 -0.075988568 0.73200005 1.9379271e-39
-0.032720979 -0.075884782 0.73100001 2.1219288e-39
-0.031242887 -0.075677134 0.72900003 2.3960004e-39
-0.029731477 -0.0753657 0.72599995 1.7513568e-39
-0.028348615 -0.075365715 0.72599995 1.1989117e-39
-0.026965756 -0.075365715 0.72599995 1.1092314e-39
-0.025547642 -0.075261898 0.72500002 9.2591917e-40
-0.024066679 -0.074950464 0.72200006 1.4787258e-39
-0.022628604 -0.074742876 0.72000003 1.9375446e-39
-0.021257145 -0.074742891 0.72000003 2.2137685e-39
-0.019858113 -0.074639045 0.71900004 2.5818224e-39
-0.018488575 -0.074639045 0.71900004 2.4906987e-39
-0.017071439 -0.074431427 0.71700001 2.3984961e-39
-0.015683869 -0.07432761 0.71599996 2.582516e-39
-0.014280004 -0.074120007 0.71400005 2.7658451e-39
-0.012901956 -0.074016206 0.71300006 3.1342801e-39
-0.011543846 -0.074016206 0.71300006 3.5016361e-39
-0.010185773 -0.074016191 0.713 3.5020074e-39
-0.0088276863 -0.074016191 0.71300006 3.5920563e-39
-0.007469574 -0.074016191 0.71300006 3.7782454e-39
-0.0061114654 -0.074016206 0.71300006 3.9568605e-39
-0.0047400221 -0.073808573 0.71100003 4.1476711e-39
-0.0033857804 -0.073808558 0.71099997 4.3338854e-39
-0.0020285752 -0.073704772 0.71000004 4.5147188e-39
-0.00067428499 -0.073497139 0.708 4.6029796e-39
0.00067428499 -0.073497154 0.708 4.7924029e-39
0.002019966 -0.073393337 0.70700002 5.0671975e-39
0.0033714045 -0.073497139 0.708 5.1597547e-39
0.0047133006 -0.073393337 0.70700002 5.3373286e-39
0.0060599875 -0.073393337 0.70700002 5.4334703e-39
0.0074066352 -0.073393323 0.70700002 5.521357e-39
0.0087657273 -0.073497154 0.708 5.342704e-39
0.010114275 -0.073497169 0.708 5.1597477e-39
0.011462845 -0.073497154 0.708 4.6098067e-39
0.012811415 -0.073497154 0.708 4.1481069e-39
0.014159989 -0.073497139 0.708 4.0569763e-39
0.015508557 -0.073497139 0.708 3.9654967e-39
0.016904719 -0.073704772 0.71000004 4.2410004e-39
0.018257137 -0.073704772 0.71000004 4.6090654e-39
0.019637115 -0.073808558 0.71099997 4.4264748e-39
0.020991417 -0.073808558 0.71100003 4.3360911e-39
0.022408541 -0.074016191 0.71300006 4.7056009e-39
0.023766631 -0.074016206 0.71300006 5.0750869e-39
0.025124703 -0.074016191 0.713 5.0743596e-39
0.026519967 -0.074120007 0.71400005 5.0747197e-39
0.027879961 -0.074120007 0.71399999 5.072926e-39
0.029321868 -0.074327596 0.71599996 5.072224e-39
0.030728536 -0.074431412 0.71700001 4.8900019e-39
0.032183785 -0.07463906 0.71899998 4.7059596e-39
0.033553295 -0.074639045 0.71899998 4.3368114e-39
0.034971386 -0.074742861 0.72000003 4.0587839e-39
0.036494251 -0.07505428 0.72300005 5.1608001e-39
0.037976176 -0.075261913 0.72500002 6.2692832e-39
0.039357152 -0.075261913 0.72500002 8.5770088e-39
0.040738087 -0.075261928 0.72500002 1.0967616e-38
0.042177107 -0.0753657 0.72599995 1.041554e-38
0.043679949 -0.075573318 0.72799999 9.9552923e-39
0.045066617 -0.075573333 0.72799999 1.032264e-38
-0.034160003 -0.074594282 0.73200005 1.9368327e-39
-0.03276572 -0.074594297 0.73200005 2.3952815e-39
-0.031328619 -0.074492402 0.73100001 2.7622606e-39
-0.029813355 -0.07418666 0.72800004 2.0268549e-39
-0.02834858 -0.073982857 0.72600001 1.291815e-39
-0.02696576 -0.073982857 0.72599995 1.3840134e-39
-0.025477218 -0.073677145 0.72299999 1.4772867e-39
-0.024066648 -0.073575236 0.72200006 1.7538722e-39
-0.022628592 -0.073371433 0.72000003 1.9371886e-39
-0.02125716 -0.073371448 0.72000009 2.8551877e-39
-0.019858127 -0.073269509 0.71899998 3.6842154e-39
-0.018488616 -0.073269524 0.71899998 3.318307e-39
-0.017071465 -0.07306572 0.71700001 2.8587666e-39
-0.01568382 -0.072963811 0.71600002 2.85984e-39
-0.01428004 -0.072759993 0.71400005 2.767671e-39
-0.01290196 -0.072658099 0.71300006 3.3190693e-39
-0.01154387 -0.072658084 0.71300006 3.8704424e-39
-0.01018576 -0.072658084 0.71300006 4.0555511e-39
-0.0088276491 -0.072658099 0.71300006 4.2406641e-39
-0.0074695777 -0.072658099 0.713 4.7045121e-39
-0.0061114896 -0.072658114 0.71300006 5.0693289e-39
-0.0047400296 -0.072454266 0.71100003 5.3512786e-39
-0.0033857655 -0.072454281 0.71099997 5.6224887e-39
-0.0020286087 -0.072352402 0.71000004 5.7136151e-39
-0.00067430548 -0.072148584 0.708 5.8051003e-39
0.00067426637 -0.072148584 0.708 6.3647327e-39
0.0020199586 -0.07204669 0.70700002 6.8206815e-39
0.0033714082 -0.072148569 0.70799994 6.9182568e-39
0.0047132913 -0.072046645 0.70700002 7.0032777e-39
0.006068565 -0.072148584 0.708 7.0994208e-39
0.0074171349 -0.072148584 0.708 7.1865928e-39
0.0087657087 -0.072148599 0.708 6.7313614e-39
0.010114279 -0.072148584 0.708 6.2696574e-39
0.011462849 -0.072148569 0.708 5.5371118e-39
0.012811396 -0.072148569 0.708 4.7044911e-39
0.01415997 -0.072148584 0.708 4.5197425e-39
0.01550854 -0.072148584 0.708 4.3342694e-39
0.016904745 -0.072352387 0.71000004 4.701603e-39
0.018257124 -0.072352402 0.71000004 5.0693107e-39
0.019637108 -0.072454281 0.71100003 4.7023345e-39
0.020991409 -0.072454281 0.71100003 4.2438885e-39
0.022408517 -0.072658084 0.71300006 4.5237151e-39
0.023766628 -0.072658099 0.71300006 4.7059428e-39
0.025124716 -0.072658099 0.71300006 4.800281e-39
0.026519993 -0.072760008 0.71400005 4.89032e-39
0.027879966 -0.072759993 0.71400005 4.7952532e-39
0.029321892 -0.072963811 0.71600002 4.7030729e-39
0.030728551 -0.07306572 0.71700001 4.4290168e-39
0.032183781 -0.073269509 0.71900004 4.0595168e-39
0.033599976 -0.073371433 0.72000003 3.5981827e-39
0.034971435 -0.073371448 0.72000003 3.1375549e-39
0.036494248 -0.07367713 0.72300005 4.7877086e-39
0.037976194 -0.073880963 0.72500002 6.4533087e-39
0.039411418 -0.073982872 0.72599995 8.8553865e-39
0.040794279 -0.073982857 0.72600001 1.1150918e-38
0.042293295 -0.07418666 0.72799999 1.0873621e-38
0.043739993 -0.074288569 0.72900003 1.0506284e-38
0.04512855 -0.074288569 0.72899997 1.0871837e-38
-0.034159988 -0.073199995 0.73200005 1.1999795e-39
-0.032765727 -0.07320001 0.73200005 1.4762077e-39
-0.03132863 -0.073100023 0.73099995 1.8435427e-39
-0.029690491 -0.072499998 0.72500002 1.2921625e-39
-0.028309554 -0.072500013 0.72500002 7.4115376e-40
-0.026854346 -0.072299995 0.72300005 9.2590376e-40
-0.025477195 -0.07229998 0.72300005 1.110658e-39
-0.024066677 -0.072200008 0.72200006 1.2021403e-39
-0.022691434 -0.072200008 0.72200006 1.3858183e-39
-0.021257145 -0.072000019 0.72000003 2.1219442e-39
-0.019858131 -0.071899988 0.71900004 2.7673052e-39
-0.018488595 -0.071899988 0.71899998 2.6747523e-39
-0.017071463 -0.071699969 0.71700001 2.6740376e-39
-0.015683835 -0.071599998 0.71600002 2.6751152e-39
-0.014280036 -0.071400009 0.71400005 2.6773026e-39
-0.012901947 -0.071300022 0.71300006 3.1357977e-39
-0.011543874 -0.071299993 0.713 3.6875197e-39
-0.010185763 -0.071299993 0.713 3.6889462e-39
-0.008827677 -0.071299978 0.71300006 3.7843761e-39
-0.0074695647 -0.071299993 0.71300006 4.1513663e-39
-0.0061114561 -0.071300007 0.71300006 4.6112669e-39
-0.004740037 -0.071100004 0.71100003 4.7917149e-39
-0.0033857711 -0.071100004 0.71099997 4.978599e-39
-0.0020286087 -0.071000017 0.71000004 5.4338151e-39
-0.00067432225 -0.070800014 0.708 5.988421e-39
0.00067424774 -0.070800029 0.708 6.3557686e-39
0.0020228568 -0.070800014 0.708 6.7281286e-39
0.0033714287 -0.070799999 0.708 7.0951076e-39
0.0047132839 -0.070699997 0.70700002 7.3724106e-39
0.0060685705 -0.070800014 0.708 7.6511471e-39
0.0074694827 -0.071299993 0.71300006 7.9248641e-39
0.0087656882 -0.070800029 0.708 7.4685607e-39
0.010114262 -0.070800014 0.708 7.0993984e-39
0.01146283 -0.070799999 0.708 6.1795819e-39
0.0128114 -0.070800014 0.70799994 5.2562131e-39
0.014160013 -0.070800029 0.708 4.6108619e-39
0.01550856 -0.070800014 0.708 3.965847e-39
0.016904747 -0.071000002 0.71000004 4.0583846e-39
0.018257126 -0.071000002 0.71000004 4.1516648e-39
0.019637102 -0.071100004 0.71100003 3.7818201e-39
0.020991404 -0.071100004 0.71100003 3.4137747e-39
0.022408528 -0.071300007 0.71300006 3.4148635e-39
0.023766603 -0.071299993 0.713 3.4137803e-39
0.02515999 -0.071399994 0.71400005 3.6003127e-39
0.026519964 -0.071400009 0.71399999 3.8801184e-39
0.027958062 -0.071599983 0.71599996 3.6907021e-39
0.029321877 -0.071599983 0.71600002 3.5048927e-39
0.030728549 -0.071699984 0.71700001 3.3219532e-39
0.0321838 -0.071899988 0.71900004 3.1368501e-39
0.033599988 -0.072000019 0.72000003 3.0453761e-39
0.034971382 -0.072000004 0.72000003 2.9520846e-39
0.036494236 -0.072299965 0.72300005 4.8824027e-39
0.037976198 -0.072500013 0.72500002 6.7266572e-39
0.039411388 -0.072599985 0.72599995 8.9429172e-39
0.040906619 -0.072799988 0.72799999 1.1151984e-38
0.042293288 -0.072799988 0.72799999 1.0875035e-38
0.043740004 -0.07289999 0.72900003 1.0599174e-38
0.045128558 -0.072900005 0.72899997 1.087576e-38
0.04664471 -0.073100023 0.73099995 1.1241299e-38
-0.0313286 -0.071707629 0.73100001 8.3226759e-40
-0.029731477 -0.071217142 0.72599995 4.6528154e-40
-0.028309548 -0.071119063 0.72500002 9.8299686e-41
-0.026854325 -0.070922844 0.72300005 3.7524251e-40
-0.025477195 -0.070922859 0.72300005 6.5003433e-40
-0.024066685 -0.07082475 0.722 7.4115657e-40
-0.022628594 -0.070628576 0.72000003 8.3407387e-40
-0.021257158 -0.070628576 0.72000009 1.3872462e-39
-0.019858113 -0.070530482 0.71900004 1.8464251e-39
-0.018488599 -0.070530467 0.71900004 2.1226519e-39
-0.01707145 -0.070334293 0.71700001 2.3974437e-39
-0.015705759 -0.070334293 0.71699995 2.4889233e-39
-0.014280006 -0.07004001 0.71400005 2.582935e-39
-0.012920033 -0.070039995 0.71400005 3.0428552e-39
-0.011543861 -0.069941916 0.71300006 3.4109146e-39
-0.01018575 -0.069941916 0.71300006 3.3194392e-39
-0.0088276789 -0.069941901 0.713 3.2290429e-39
-0.0074486248 -0.069745712 0.71099997 3.6885833e-39
-0.0060943216 -0.069745712 0.71099997 4.0584658e-39
-0.0047400203 -0.069745712 0.71100003 4.133113e-39
-0.0033857785 -0.069745697 0.71099997 4.2421466e-39
-0.0020285826 -0.069647618 0.71000004 5.14649e-39
-0.00067622587 -0.069647633 0.71000004 6.0809977e-39
0.00067615323 -0.069647633 0.71000004 6.3414473e-39
0.0020228401 -0.069451429 0.708 6.6356065e-39
0.0033714101 -0.069451444 0.708 7.177291e-39
0.0047199819 -0.069451444 0.708 7.7466091e-39
0.0060685538 -0.069451444 0.708 8.2079488e-39
0.0074694809 -0.069941886 0.713 8.5770676e-39
0.0087904446 -0.069647618 0.71000004 8.210785e-39
0.010185681 -0.069941901 0.71300006 7.8391186e-39
0.011543749 -0.069941901 0.713 6.8260387e-39
0.012901839 -0.069941916 0.713 5.716478e-39
0.014259949 -0.069941916 0.71300006 4.6097885e-39
0.015552355 -0.069647618 0.71000004 3.506315e-39
0.016904749 -0.069647633 0.71000004 3.3226314e-39
0.01825713 -0.069647618 0.71000004 3.1371667e-39
0.019637117 -0.069745712 0.71100003 2.8591491e-39
0.020991381 -0.069745712 0.71099997 2.492533e-39
0.02240853 -0.069941916 0.71300006 2.3074369e-39
0.023799958 -0.070039995 0.71400005 2.1244806e-39
0.025159994 -0.070039995 0.71400005 2.490745e-39
0.026594264 -0.070236199 0.71599996 2.7694702e-39
0.027958049 -0.070236199 0.71599996 2.5822021e-39
0.029362803 -0.070334293 0.71700001 2.3077886e-39
0.030728528 -0.070334293 0.71700001 2.3085229e-39
0.032183819 -0.070530467 0.71900004 2.2174133e-39
0.033599976 -0.070628591 0.72000003 2.4943631e-39
0.035068575 -0.070824765 0.72200006 2.7680535e-39
0.036494255 -0.070922844 0.72300005 4.8798888e-39
0.037976205 -0.071119048 0.72500002 7.0053937e-39
0.039411388 -0.071217112 0.72599995 9.0376296e-39
0.040794242 -0.071217127 0.72599995 1.1059076e-38
0.042293303 -0.071413316 0.72800004 1.0875036e-38
0.043679971 -0.071413331 0.72800004 1.0601668e-38
0.045128539 -0.07151144 0.72899997 1.0882901e-38
-0.029731441 -0.069834284 0.72600001 6.4715466e-40
-0.028309546 -0.069738097 0.72500002 2.8053014e-40
-0.026854338 -0.069545694 0.72299999 5.567541e-40
-0.02547721 -0.069545694 0.72299999 8.3226059e-40
-0.024066677 -0.069449537 0.72200006 9.2409608e-40
-0.022691449 -0.069449537 0.722 1.0162973e-39
-0.021257186 -0.069257148 0.72000003 1.2921681e-39
-0.01988575 -0.069257148 0.72000003 1.4758419e-39
-0.018488577 -0.069160946 0.71900004 1.6605919e-39
-0.017119065 -0.069160946 0.71900004 1.8453433e-39
-0.015705744 -0.068968557 0.71700001 2.0293759e-39
-0.014280042 -0.068679996 0.71400005 2.2148545e-39
-0.012920048 -0.068679996 0.71399999 2.6744047e-39
-0.011543863 -0.068583809 0.713 3.1343095e-39
-0.010185774 -0.068583809 0.71300006 3.2265135e-39
-0.0088276658 -0.068583809 0.71300006 3.4094699e-39
-0.0074486081 -0.068391435 0.71099997 4.4307824e-39
-0.0061115045 -0.068583809 0.713 5.4535832e-39
-0.0047400277 -0.06839142 0.71100003 6.0918214e-39
-0.0033857618 -0.06839142 0.71099997 6.7504274e-39
-0.0020285808 -0.068295248 0.71000004 7.1980989e-39
-0.00067620166 -0.068295248 0.71000004 7.7656275e-39
0.00067617744 -0.068295248 0.71000004 7.8413341e-39
0.0020285342 -0.068295263 0.71000004 7.9485965e-39
0.0033713933 -0.068102859 0.708 8.3055366e-39
0.0047199652 -0.068102844 0.708 8.6879636e-39
0.006068537 -0.068102859 0.708 8.7697714e-39
0.0074380673 -0.068295248 0.71000004 8.863004e-39
0.0087904464 -0.068295248 0.71000004 8.4877321e-39
0.010114288 -0.068102874 0.708 8.2093431e-39
0.011462858 -0.068102844 0.708 6.6409524e-39
0.012847597 -0.068295233 0.71000004 5.0714883e-39
0.014199978 -0.068295233 0.71000004 4.3317723e-39
0.015552357 -0.068295248 0.71000004 3.5956436e-39
0.016904736 -0.068295248 0.71000004 3.1360962e-39
0.018257115 -0.068295233 0.71000004 2.6747579e-39
0.01963711 -0.068391435 0.71100003 2.582914e-39
0.020991374 -0.06839142 0.71099997 2.4910827e-39
0.022408506 -0.068583809 0.713 2.3070572e-39
0.023799988 -0.068679996 0.71400005 2.1230316e-39
0.025159961 -0.068679996 0.71400005 2.0319178e-39
0.02659425 -0.068872385 0.71599996 2.0322625e-39
0.027958056 -0.068872385 0.71599996 2.3063201e-39
0.029362841 -0.068968587 0.71700001 2.6715293e-39
0.030814266 -0.069160946 0.71899998 2.7655354e-39
0.032183778 -0.069160976 0.71899998 2.8588212e-39
0.033693343 -0.069449551 0.72200006 3.0421475e-39
0.035068568 -0.069449537 0.722 3.1339592e-39
0.036595248 -0.069738097 0.72500002 4.8859844e-39
0.037976183 -0.069738112 0.72500002 6.6420006e-39
0.039411418 -0.069834284 0.72599995 9.129112e-39
0.040794279 -0.069834314 0.72600001 1.1610093e-38
0.042293318 -0.070026658 0.72800004 1.0966871e-38
0.043679986 -0.070026658 0.72800004 1.0232515e-38
0.045128547 -0.07012286 0.72899997 1.0509426e-38
-0.029813357 -0.068640001 0.72800004 7.3755663e-40
-0.028348586 -0.068451427 0.72599995 4.6348367e-40
-0.026928565 -0.068357162 0.72500002 7.3934889e-40
-0.025477191 -0.068168543 0.72300005 9.2266115e-40
-0.024066687 -0.068074293 0.72200006 1.1070496e-39
-0.022691442 -0.068074308 0.72200006 1.1985306e-39
-0.021257175 -0.067885719 0.72000003 1.1974586e-39
-0.019885739 -0.067885734 0.72000003 1.1063406e-39
-0.018488619 -0.06779144 0.71899998 1.1988949e-39
-0.017119044 -0.067791425 0.71900004 1.2918122e-39
-0.015705746 -0.06760285 0.71700001 1.5687606e-39
-0.014280014 -0.067319997 0.71400005 1.8457133e-39
-0.012920042 -0.067319982 0.71400005 2.3056194e-39
-0.011543849 -0.067225732 0.71300006 2.7662346e-39
-0.010185776 -0.067225687 0.713 3.2264897e-39
-0.00882769 -0.067225702 0.71300006 3.5967296e-39
-0.0074695777 -0.067225717 0.71300006 5.1708754e-39
-0.0061114673 -0.067225717 0.71300006 6.7360753e-39
-0.0047400333 -0.067037158 0.71100003 8.0293575e-39
-0.0033857692 -0.067037158 0.71099997 9.2249972e-39
-0.0020286161 -0.066942878 0.71000004 9.3132314e-39
-0.00067619793 -0.066942878 0.71000004 9.3182508e-39
0.00067618117 -0.066942893 0.71000004 9.2181631e-39
0.0020285584 -0.066942848 0.71000004 9.1327876e-39
0.0033809152 -0.066942863 0.71000004 9.4075794e-39
0.0047332942 -0.066942863 0.71000004 9.5969985e-39
0.0060857125 -0.066942893 0.71000004 9.3193494e-39
0.0074380916 -0.066942878 0.71000004 9.0420269e-39
0.0087904464 -0.066942863 0.71000004 8.8518763e-39
0.010142826 -0.066942878 0.71000004 8.5745425e-39
0.011495205 -0.066942863 0.71000004 6.5480309e-39
0.012847584 -0.066942878 0.71000004 4.4264636e-39
0.014200002 -0.066942863 0.71000004 4.049412e-39
0.015552359 -0.066942878 0.71000004 3.5934688e-39
0.016904738 -0.066942863 0.71000004 2.9513448e-39
0.018257119 -0.066942878 0.71000004 2.2148503e-39
0.019637126 -0.067037158 0.71099997 2.3066704e-39
0.021050431 -0.067225717 0.71300006 2.3981584e-39
0.022408541 -0.067225717 0.71300006 2.3063341e-39
0.023799952 -0.067319982 0.71399999 2.1230232e-39
0.025159987 -0.067319997 0.71400005 1.6656422e-39
0.02651996 -0.067320012 0.71400005 1.2057318e-39
0.027958041 -0.067508556 0.71599996 2.1229938e-39
0.029321885 -0.067508571 0.71599996 2.9481148e-39
0.030728543 -0.06760285 0.71700001 3.2229388e-39
0.0321838 -0.06779144 0.71899998 3.4980992e-39
0.033693332 -0.068074293 0.722 3.4973943e-39
0.03511709 -0.068168573 0.72300005 3.5056172e-39
0.036595251 -0.068357147 0.72500002 4.8874264e-39
0.038028531 -0.068451412 0.72599995 6.1856747e-39
0.039411414 -0.068451427 0.72599995 9.2262864e-39
0.040906645 -0.068640001 0.72800004 1.2162887e-38
0.042351406 -0.068734266 0.72899997 1.105729e-38
0.043740001 -0.068734281 0.72900003 9.8619785e-39
0.045252327 -0.06892287 0.73099995 1.0133166e-38
-0.029813379 -0.067253314 0.72799999 8.3010959e-40
-0.028348612 -0.067068554 0.72599995 3.7129084e-40
-0.026965754 -0.067068584 0.72600001 5.5388424e-40
-0.025547625 -0.066976197 0.72500002 8.2831453e-40
-0.024100037 -0.066791423 0.72300005 9.2158495e-40
-0.022722911 -0.066791423 0.72300005 1.0137806e-39
-0.021316202 -0.06669905 0.72200006 1.0130645e-39
-0.01988575 -0.066514276 0.72000003 1.1045399e-39
-0.018514292 -0.066514291 0.72000003 9.2194369e-40
-0.017142894 -0.066514291 0.72000003 7.3792377e-40
-0.015705766 -0.066237129 0.71700001 1.108144e-39
-0.014260072 -0.06586761 0.713 1.5687662e-39
-0.012901962 -0.065867625 0.713 2.0297458e-39
-0.011543849 -0.06586764 0.713 2.4903526e-39
