# .PCD v0.7 - Point Cloud Data file format
VERSION 0.7
FIELDS x y z rgb
SIZE 4 4 4 4
TYPE F F F F
COUNT 1 1 1 1
WIDTH 959
HEIGHT 1
VIEWPOINT 0 0 0 1 0 0 0
POINTS 959
DATA ascii
0.02456669 -0.035797134 0.73699999 2.336915e-38
0.025970483 -0.035797149 0.73700005 2.2321632e-38
0.027448565 -0.03589429 0.73900002 2.1262706e-38
0.028856182 -0.035894275 0.73900002 2.2394917e-38
0.030304769 -0.035942838 0.73999995 2.3414084e-38
0.031799998 -0.036039978 0.74200004 2.3417682e-38
0.03325811 -0.036088571 0.74300003 2.3317215e-38
0.034766667 -0.036185712 0.745 1.9550503e-38
0.036185723 -0.036185697 0.745 1.5662113e-38
0.037705727 -0.036282837 0.74699998 1.2426973e-38
0.039180953 -0.03633143 0.74800003 9.1255457e-39
0.040605731 -0.036331415 0.74799997 9.680132e-39
0.042142864 -0.036428556 0.75000006 1.023043e-38
0.043745723 -0.036574274 0.75300002 1.0688892e-38
0.045180008 -0.036574289 0.75300002 1.1058382e-38
-0.02664 -0.035279989 0.75600004 8.7553394e-39
-0.025166666 -0.035233334 0.75500005 8.9357972e-39
-0.023728559 -0.035233304 0.755 9.2094961e-39
-0.022231422 -0.035139978 0.75300002 9.6690183e-39
-0.020769518 -0.035093322 0.75199997 1.0218232e-38
-0.019337133 -0.035093307 0.75199997 9.6657771e-39
-0.017857151 -0.034999982 0.75000006 9.1122487e-39
-0.016362844 -0.03486 0.74699998 9.6628988e-39
-0.014899994 -0.034766674 0.74500006 1.0214638e-38
-0.013444753 -0.034673333 0.74300003 1.0765299e-38
-0.012013327 -0.034626663 0.74200004 1.1224844e-38
-0.010571426 -0.034533322 0.73999995 1.1502868e-38
-0.0091619026 -0.034533322 0.74000001 1.187236e-38
-0.0077523775 -0.034533292 0.74000001 1.1690119e-38
-0.006334288 -0.034486651 0.73900002 1.1599667e-38
-0.0049266741 -0.034486681 0.73900002 1.1401593e-38
-0.0035190498 -0.034486651 0.73900002 1.1323209e-38
-0.0021114359 -0.034486681 0.73900002 1.7340763e-38
-0.00070189591 -0.034393325 0.73700005 2.3417689e-38
0.00070192432 -0.034393325 0.73699999 2.3138593e-38
0.0021057189 -0.034393325 0.73700005 2.2858066e-38
0.0035047699 -0.03434667 0.736 2.2307772e-38
0.0049066786 -0.03434667 0.736 2.1741978e-38
0.0063085873 -0.03434664 0.736 2.2088798e-38
0.007710496 -0.034346655 0.736 2.2499262e-38
0.0091123907 -0.03434664 0.736 2.2958513e-38
0.010514298 -0.034346655 0.736 2.341767e-38
0.011916207 -0.03434667 0.736 2.2942689e-38
0.013318116 -0.034346655 0.736 2.2496446e-38
0.014720015 -0.034346655 0.73600006 2.2951338e-38
0.016121909 -0.03434667 0.73600006 2.341769e-38
0.017547632 -0.034393325 0.73700005 2.341769e-38
0.018951451 -0.034393311 0.73699999 2.3417686e-38
0.02035526 -0.034393325 0.73699999 2.3125315e-38
0.021759056 -0.034393325 0.73700005 2.2866673e-38
0.023162875 -0.034393325 0.73699999 2.3137879e-38
0.024633327 -0.034486666 0.73900002 2.3417668e-38
0.02604096 -0.034486651 0.73900002 2.2372298e-38
0.027448567 -0.034486666 0.73900002 2.1371804e-38
0.028895238 -0.034533307 0.73999995 2.2396712e-38
0.030386681 -0.034626648 0.74200004 2.3417677e-38
0.03180002 -0.034626648 0.74199998 2.3325854e-38
0.033258107 -0.034673348 0.74300003 2.3142179e-38
0.034766685 -0.034766659 0.745 1.7420393e-38
0.036185712 -0.034766659 0.74500006 1.1692025e-38
0.037705734 -0.034859985 0.74699998 1.0409068e-38
0.039180979 -0.034906656 0.74799997 9.2191622e-39
0.040714297 -0.034999996 0.75000006 9.7712598e-39
0.042255241 -0.035093337 0.75199997 1.032263e-38
0.04374573 -0.035139978 0.75300002 1.0873999e-38
0.045300007 -0.035233319 0.755 1.15154e-38
-0.026604751 -0.033795238 0.755 8.4834399e-39
-0.025166653 -0.033795223 0.755 8.9368664e-39
-0.023759998 -0.033840001 0.75600004 9.3949537e-39
-0.022231426 -0.033705696 0.75300002 1.0038507e-38
-0.020769512 -0.033660933 0.75199997 1.0588437e-38
-0.019337138 -0.033660948 0.75200003 1.0034906e-38
-0.017857138 -0.033571422 0.75000006 9.387751e-39
-0.016362844 -0.033437133 0.74699998 9.751147e-39
-0.014899996 -0.033347607 0.745 1.0030244e-38
-0.013444764 -0.033258095 0.74300003 1.0674889e-38
-0.012029516 -0.033258095 0.74300003 1.122735e-38
-0.010599991 -0.033213302 0.74199998 1.1504665e-38
-0.0091619072 -0.033123791 0.74000001 1.1781605e-38
-0.0077419141 -0.033079043 0.73900002 1.1968145e-38
-0.0063342894 -0.033079043 0.73900002 1.2051318e-38
-0.0049266755 -0.033079043 0.73900002 1.1663475e-38
-0.0035190512 -0.033079043 0.73900002 1.1239986e-38
-0.0021114373 -0.033079043 0.73900002 1.7356547e-38
-0.0007018894 -0.032989517 0.73699999 2.3416251e-38
0.00070192013 -0.032989517 0.73700005 2.3044241e-38
0.002105725 -0.032989517 0.73699999 2.2586144e-38
0.0035095348 -0.032989502 0.73700005 2.2131993e-38
0.0049133548 -0.032989502 0.73699999 2.1641911e-38
0.0063085798 -0.032944769 0.73600006 2.2253138e-38
0.0077104885 -0.032944754 0.73600006 2.2851198e-38
0.0091247791 -0.032989502 0.73700005 2.3142183e-38
0.010528585 -0.032989502 0.73699999 2.341768e-38
0.011932394 -0.032989502 0.73699999 2.341767e-38
0.01331811 -0.032944739 0.736 2.3416963e-38
0.014720017 -0.032944754 0.736 2.341769e-38
0.016143817 -0.032989517 0.73700005 2.341769e-38
0.017547637 -0.032989502 0.73699999 2.341769e-38
0.018951448 -0.032989517 0.73700005 2.3417689e-38
0.020355253 -0.032989502 0.73699999 2.3417686e-38
0.021759061 -0.032989517 0.73700005 2.3417689e-38
0.023162881 -0.032989502 0.73699999 2.341769e-38
0.024633326 -0.033079043 0.73900002 2.3410497e-38
0.026040958 -0.033079043 0.73900002 2.2378048e-38
0.027448565 -0.033079043 0.73900002 2.1374685e-38
0.02889524 -0.033123791 0.74000001 2.2401747e-38
0.030386684 -0.033213317 0.74200004 2.3416249e-38
0.031842861 -0.033258095 0.74300003 2.3234019e-38
0.033258099 -0.033258095 0.74300003 2.2944857e-38
0.034766674 -0.033347622 0.74500006 1.5297015e-38
0.036282875 -0.033437133 0.74699998 7.6526787e-39
0.037705731 -0.033437133 0.74699998 8.4812412e-39
0.039180972 -0.033481881 0.74799997 9.3109977e-39
0.04071429 -0.033571437 0.75000006 9.8627366e-39
0.042255245 -0.033660948 0.75199997 1.0415543e-38
0.043745726 -0.033705682 0.75300002 1.1152737e-38
0.045300018 -0.033795208 0.755 1.1885962e-38
-0.026604751 -0.032357141 0.755 1.0600338e-38
-0.025099991 -0.032271415 0.75300002 9.6733371e-39
-0.023665704 -0.032271415 0.75300002 8.7517409e-39
-0.022231421 -0.0322714 0.75300002 9.3952928e-39
-0.020769514 -0.032228574 0.75199997 1.0041004e-38
-0.019337133 -0.032228574 0.75199997 9.4853206e-39
-0.017857147 -0.032142863 0.75000006 8.9285707e-39
-0.016362851 -0.032014281 0.74699998 9.4785089e-39
-0.014939988 -0.032014281 0.74699998 1.0030597e-38
-0.013480952 -0.031928569 0.74500006 1.0492283e-38
-0.0120619 -0.031928569 0.74500006 1.104511e-38
-0.010614282 -0.031842858 0.74300003 1.1412472e-38
-0.0091866599 -0.031799987 0.74200004 1.1780534e-38
-0.0077419081 -0.03167142 0.73900002 1.187273e-38
-0.0063428441 -0.031714275 0.73999995 1.2054912e-38
-0.0049266699 -0.031671435 0.73900002 1.12165e-38
-0.0035190526 -0.03167142 0.73900002 1.0402349e-38
-0.0021114387 -0.03167142 0.73900002 1.6880868e-38
-0.00070188241 -0.031585678 0.73699999 2.3417683e-38
0.00070191221 -0.031585678 0.73700005 2.3137505e-38
0.0021057217 -0.031585708 0.73700005 2.286093e-38
0.0035095415 -0.031585693 0.73699999 2.2396738e-38
0.0049133361 -0.031585693 0.73700005 2.2002098e-38
0.0063171559 -0.031585693 0.73699999 2.1992379e-38
0.0077209654 -0.031585693 0.73700005 2.2040124e-38
0.0091247708 -0.031585678 0.73699999 2.2590812e-38
0.01052858 -0.031585708 0.73700005 2.3234019e-38
0.0119324 -0.031585708 0.73699999 2.3039945e-38
0.01333621 -0.031585693 0.73700005 2.2866677e-38
0.014740014 -0.031585708 0.73699999 2.2855198e-38
0.016143825 -0.031585693 0.73700005 2.2866677e-38
0.017547633 -0.031585693 0.73700005 2.2856274e-38
0.018951438 -0.031585708 0.73699999 2.2774842e-38
0.020355249 -0.031585693 0.73700005 2.2671885e-38
0.021818085 -0.031671435 0.73900002 2.2499335e-38
0.023225719 -0.03167142 0.73900002 2.2770178e-38
0.024633326 -0.031671435 0.73900002 2.3142171e-38
0.026040958 -0.03167142 0.73900002 2.2194029e-38
0.027485725 -0.031714275 0.74000001 2.136788e-38
0.028895242 -0.031714275 0.74000001 2.2398531e-38
0.030386679 -0.031799987 0.74200004 2.3417331e-38
0.031842869 -0.031842858 0.74300003 2.1116422e-38
0.033347633 -0.031928554 0.745 1.8810804e-38
0.034766674 -0.031928554 0.74500006 1.2898131e-38
0.036282871 -0.032014281 0.74699998 6.9872105e-39
0.037705734 -0.032014281 0.74699998 8.2929081e-39
0.039180968 -0.032057136 0.74799997 9.6801348e-39
0.040714286 -0.032142848 0.75000006 9.9563657e-39
0.042311437 -0.032271415 0.75300002 1.0231874e-38
0.043861922 -0.032357126 0.755 1.0783245e-38
0.045359999 -0.032399997 0.75599998 1.1336734e-38
-0.025099995 -0.030837134 0.75300002 1.0311878e-38
-0.023634285 -0.03079617 0.75200003 8.0159863e-39
-0.022201899 -0.03079617 0.75199997 8.74995e-39
-0.020769518 -0.030796185 0.75200003 9.3952914e-39
-0.019337133 -0.03079617 0.75199997 8.9360957e-39
-0.017857144 -0.030714273 0.75000006 8.3796863e-39
-0.016384749 -0.030632362 0.74799997 9.2033219e-39
-0.014939986 -0.030591398 0.74699998 9.9401765e-39
-0.013480954 -0.030509517 0.74500006 1.0401525e-38
-0.012061898 -0.030509517 0.74500006 1.0860719e-38
-0.010614276 -0.03042762 0.74300003 1.1319196e-38
-0.0091990344 -0.03042762 0.74300003 1.1686541e-38
-0.0077523747 -0.03030473 0.73999995 1.1870216e-38
-0.0063428488 -0.03030473 0.73999995 1.2048106e-38
-0.0049266713 -0.030263796 0.73900002 1.0745151e-38
-0.0035190471 -0.030263796 0.73900002 9.4962031e-39
-0.0021114331 -0.030263811 0.73900002 1.6530028e-38
-0.00070190104 -0.030181885 0.73700005 2.3415889e-38
0.00070191873 -0.030181885 0.73699999 2.3227188e-38
0.0021057283 -0.0301819 0.73700005 2.3046395e-38
0.0035095336 -0.030181885 0.73699999 2.2774842e-38
0.0049133431 -0.030181885 0.73700005 2.2361524e-38
0.0063171629 -0.030181885 0.73699999 2.1765612e-38
0.0077209724 -0.030181885 0.73700005 2.1187009e-38
0.0091123944 -0.030140936 0.73600006 2.2130148e-38
0.010528587 -0.0301819 0.73699999 2.2937309e-38
0.011932397 -0.0301819 0.73700005 2.2641011e-38
0.013336202 -0.03018187 0.73699999 2.2286223e-38
0.014740012 -0.030181885 0.73700005 2.2269718e-38
0.01614383 -0.03018187 0.73699999 2.2287655e-38
0.017547626 -0.030181885 0.73700005 2.2181469e-38
0.018951446 -0.030181885 0.73699999 2.2105775e-38
0.020355256 -0.030181885 0.73700005 2.1811253e-38
0.021818085 -0.030263811 0.73900002 2.1561932e-38
0.023225717 -0.030263811 0.73900002 2.2204779e-38
0.024633324 -0.030263811 0.73900002 2.2745019e-38
0.026040955 -0.030263796 0.73900002 2.1979833e-38
0.027485712 -0.030304745 0.74000001 2.1277104e-38
0.028973345 -0.030386657 0.74200004 2.24075e-38
0.030427637 -0.03042762 0.74300003 2.3414788e-38
0.031842865 -0.03042762 0.74300003 1.909454e-38
0.033347622 -0.030509517 0.74500006 1.4655549e-38
0.034860015 -0.030591428 0.74700004 1.0497085e-38
0.036331449 -0.030632362 0.74799997 6.2704379e-39
0.037756216 -0.030632362 0.74799997 8.1149783e-39
0.039285716 -0.030714259 0.75000006 9.9552769e-39
0.040822871 -0.03079617 0.75199997 1.005106e-38
0.042311441 -0.030837134 0.75300002 1.004748e-38
0.043861911 -0.030919045 0.755 1.0410884e-38
0.045360003 -0.030959994 0.75600004 1.0689222e-38
-0.025099993 -0.029402837 0.75300002 1.0868987e-38
-0.023634281 -0.029363796 0.75199997 8.1993056e-39
-0.022201896 -0.029363781 0.75199997 8.7506829e-39
-0.020769522 -0.029363811 0.75200003 9.3945796e-39
-0.019285718 -0.029285714 0.75000006 9.2090855e-39
-0.017857146 -0.029285714 0.75000006 9.0225124e-39
-0.016384752 -0.029207602 0.74799997 9.4805814e-39
-0.014939986 -0.029168576 0.74699998 1.0033427e-38
-0.013480952 -0.029090449 0.74500006 1.0492284e-38
-0.012061898 -0.029090464 0.745 1.104367e-38
-0.010614285 -0.029012382 0.74300003 1.1318473e-38
-0.0091990437 -0.029012397 0.74300003 1.1684025e-38
-0.0077523729 -0.028895214 0.73999995 1.1778735e-38
-0.0063428469 -0.028895214 0.73999995 1.1868393e-38
-0.0049266717 -0.028856188 0.73900002 1.1585686e-38
-0.0035190475 -0.028856188 0.73900002 1.123535e-38
-0.0021114335 -0.028856188 0.73900002 1.734148e-38
-0.00070189452 -0.028778091 0.73699999 2.3417683e-38
0.00070191501 -0.028778076 0.73700005 2.3228981e-38
0.0021057348 -0.028778091 0.73699999 2.3138589e-38
0.0035095299 -0.028778091 0.73700005 2.2668298e-38
0.0049133496 -0.028778076 0.73699999 2.2260338e-38
0.0063171592 -0.028778106 0.73700005 2.188574e-38
0.007720964 -0.028778091 0.73699999 2.1567215e-38
0.0091247745 -0.028778076 0.73700005 2.2393405e-38
0.010528594 -0.028778076 0.73699999 2.3193048e-38
0.011932389 -0.028778076 0.73700005 2.3022319e-38
0.01333621 -0.028778061 0.73699999 2.2837209e-38
0.014740018 -0.028778091 0.73699999 2.2841868e-38
0.016143814 -0.028778091 0.73700005 2.2842584e-38
0.017547633 -0.028778076 0.73699999 2.2845812e-38
0.01900286 -0.028856173 0.73900002 2.2757201e-38
0.020410476 -0.028856188 0.73900002 2.2664285e-38
0.021818085 -0.028856203 0.73900002 2.2486709e-38
0.023225715 -0.028856173 0.73900002 2.257316e-38
0.024666665 -0.028895214 0.74000001 2.2642745e-38
0.026076199 -0.028895214 0.74000001 2.1805814e-38
0.027485715 -0.028895229 0.74000001 2.1006246e-38
0.02897335 -0.028973326 0.74200004 2.2217013e-38
0.03042762 -0.029012382 0.74300003 2.3413678e-38
0.031842861 -0.029012367 0.74300003 1.8343288e-38
0.033347622 -0.029090464 0.74500006 1.3158499e-38
0.03486003 -0.029168561 0.74699998 1.0403764e-38
0.036331449 -0.029207617 0.74799997 7.6561973e-39
0.037756197 -0.029207602 0.74800003 8.8514573e-39
0.039285719 -0.029285699 0.75000006 1.0046749e-38
0.040822864 -0.029363781 0.75199997 1.023185e-38
0.042311437 -0.029402837 0.75300002 1.0414817e-38
0.043861911 -0.029480949 0.755 1.0688903e-38
0.045300007 -0.029480949 0.755 1.1051901e-38
-0.022201898 -0.027931407 0.75200003 8.8418052e-39
-0.020769512 -0.027931422 0.75199997 9.3920782e-39
-0.019285722 -0.02785714 0.75000006 9.4835326e-39
-0.01785714 -0.027857125 0.75000006 9.5731961e-39
-0.016384756 -0.027782828 0.74800003 9.8465305e-39
-0.014939994 -0.027745709 0.74699998 1.0123134e-38
-0.013480943 -0.027671427 0.74500006 1.0674528e-38
-0.012061899 -0.027671427 0.745 1.1134796e-38
-0.010642855 -0.027671427 0.74500006 1.1411033e-38
-0.0091990354 -0.027597129 0.74300003 1.1595788e-38
-0.0077733281 -0.027559996 0.74200004 1.1692296e-38
-0.006342853 -0.027485698 0.73999995 1.1682566e-38
-0.004933327 -0.027485684 0.73999995 1.2309587e-38
-0.0035190489 -0.027448565 0.73900002 1.2987031e-38
-0.002111434 -0.027448565 0.73900002 1.8274902e-38
-0.00070188753 -0.027374268 0.73699999 2.341517e-38
0.00070192199 -0.027374268 0.73700005 2.3315434e-38
0.0021057269 -0.027374268 0.73699999 2.3137153e-38
0.0035095366 -0.027374268 0.73700005 2.2683006e-38
0.0049133464 -0.027374268 0.73700005 2.2080607e-38
0.0063171512 -0.027374268 0.73699999 2.1949224e-38
0.0077209608 -0.027374268 0.73700005 2.1922021e-38
0.009124781 -0.027374253 0.73699999 2.2682954e-38
0.010528576 -0.027374268 0.73700005 2.3407608e-38
0.011932395 -0.027374253 0.73699999 2.3417666e-38
0.013336204 -0.027374268 0.73700005 2.341049e-38
0.014740026 -0.027374268 0.73699999 2.3417662e-38
0.016187621 -0.02744858 0.73900002 2.3411564e-38
0.017595237 -0.027448565 0.73900002 2.3417661e-38
0.019002859 -0.027448565 0.73900002 2.3413354e-38
0.020410476 -0.02744858 0.73900002 2.3417656e-38
0.021847634 -0.027485684 0.74000001 2.3414426e-38
0.023257149 -0.027485698 0.74000001 2.3050312e-38
0.024666669 -0.027485713 0.74000001 2.2561316e-38
0.026076196 -0.027485684 0.73999995 2.1593773e-38
0.027560016 -0.027559981 0.74200004 2.0723908e-38
0.028973345 -0.027559981 0.74200004 2.2131634e-38
0.030427629 -0.027597144 0.74300003 2.3411894e-38
0.031928584 -0.027671427 0.74500006 1.7615081e-38
0.033437159 -0.027745709 0.74699998 1.1698111e-38
0.034860022 -0.027745709 0.74699998 1.030368e-38
0.036331445 -0.027782857 0.74799997 8.939023e-39
0.037857141 -0.027857155 0.75000006 9.4960952e-39
0.039285716 -0.02785714 0.75000006 1.0047461e-38
0.040822871 -0.027931422 0.75199997 1.0414799e-38
0.042311434 -0.027968556 0.75299996 1.0783231e-38
0.043745734 -0.027968541 0.75300002 1.1060906e-38
0.045300011 -0.028042868 0.755 1.133278e-38
-0.022201901 -0.026499033 0.75200003 8.8378619e-39
-0.020769509 -0.026499033 0.75199997 9.3895769e-39
-0.019285714 -0.02642855 0.75000006 9.4813956e-39
-0.017857146 -0.02642858 0.75000006 9.4813886e-39
-0.016384752 -0.026358098 0.74800003 9.5710647e-39
-0.014959985 -0.026358083 0.74799997 9.7540238e-39
-0.013517136 -0.026322842 0.74699998 1.0674537e-38
-0.012061901 -0.026252374 0.74500006 1.1593622e-38
-0.010642855 -0.026252374 0.74500006 1.1502875e-38
-0.0091990456 -0.026181906 0.74300003 1.1504323e-38
-0.007783805 -0.026181906 0.74300003 1.1412857e-38
-0.006368564 -0.026181877 0.74300003 1.1410286e-38
-0.0049466644 -0.026146665 0.74200004 1.195191e-38
-0.003523807 -0.026076198 0.74000001 1.2515645e-38
-0.0021142815 -0.026076168 0.74000001 1.7983253e-38
-0.00070189126 -0.025970474 0.73700005 2.3417682e-38
0.00070191408 -0.025970444 0.73699999 2.3227544e-38
0.0021057231 -0.025970474 0.73700005 2.3043524e-38
0.0035095431 -0.025970459 0.73699999 2.2663993e-38
0.004913338 -0.025970459 0.73700005 2.2255663e-38
0.0063171578 -0.025970459 0.73699999 2.2455383e-38
0.0077209673 -0.025970459 0.73700005 2.2682914e-38
0.0091247726 -0.025970444 0.73699999 2.3050348e-38
0.010528583 -0.025970474 0.73700005 2.341769e-38
0.011932392 -0.025970474 0.73700005 2.3048196e-38
0.013336211 -0.025970459 0.73699999 2.2774842e-38
0.014740007 -0.025970474 0.73700005 2.2773048e-38
0.016187619 -0.026040927 0.73900002 2.2866677e-38
0.017595237 -0.026040941 0.73900002 2.2771972e-38
0.019028569 -0.026076153 0.74000001 2.2683006e-38
0.020410474 -0.026040941 0.73900002 2.2677984e-38
0.021847619 -0.026076183 0.74000001 2.2774842e-38
0.023257151 -0.026076168 0.74000001 2.2866677e-38
0.02466668 -0.026076168 0.73999995 2.3050272e-38
0.026076198 -0.026076168 0.73999995 2.2008795e-38
0.02756002 -0.026146635 0.74199998 2.1102714e-38
0.028973348 -0.026146665 0.74199998 2.2218448e-38
0.030427629 -0.026181906 0.74300003 2.341585e-38
0.031928588 -0.026252359 0.74500006 1.7144442e-38
0.033437151 -0.026322857 0.74699998 1.0857253e-38
0.034860019 -0.026322842 0.74699998 1.0125393e-38
0.036331438 -0.026358068 0.74800003 9.4025053e-39
0.037756216 -0.026358083 0.74799997 9.6794033e-39
0.039285708 -0.02642858 0.75000006 1.0048175e-38
0.040822867 -0.026499033 0.75200003 1.023184e-38
0.042255253 -0.026499033 0.75199997 1.0507722e-38
0.04374573 -0.026534244 0.75299996 1.069105e-38
0.045180012 -0.026534274 0.75300002 1.0873954e-38
-0.022201898 -0.025066644 0.75199997 8.9275352e-39
-0.020797132 -0.025099978 0.75300002 9.3888539e-39
-0.019337138 -0.025066659 0.75199997 9.3877678e-39
-0.017857138 -0.024999991 0.75000006 9.387765e-39
-0.016384745 -0.024933308 0.74799997 9.38597e-39
-0.014959987 -0.024933323 0.74799997 9.2959324e-39
-0.013517138 -0.024899997 0.74699998 1.0675979e-38
-0.01209427 -0.024899997 0.74699998 1.1961324e-38
-0.010642854 -0.024833322 0.74500006 1.1685466e-38
-0.009223802 -0.024833336 0.745 1.1411404e-38
-0.007783806 -0.024766669 0.74300003 1.1228103e-38
-0.00636 -0.024733327 0.74200004 1.103827e-38
-0.0049466533 -0.02473332 0.74199998 1.1571644e-38
-0.0035238042 -0.02466666 0.74000001 1.2067942e-38
-0.0021142871 -0.024666637 0.74000001 1.7815725e-38
-0.00070189917 -0.024566643 0.73700005 2.3415528e-38
0.00070190988 -0.024566658 0.73700005 2.3225031e-38
0.0021057297 -0.024566658 0.73699999 2.2950605e-38
0.0035095247 -0.024566658 0.73700005 2.2673668e-38
0.0049133445 -0.024566643 0.73699999 2.2370494e-38
0.006317154 -0.024566658 0.73700005 2.2934018e-38
0.0077209738 -0.024566643 0.73699999 2.3411541e-38
0.0091247689 -0.024566658 0.73700005 2.341769e-38
0.010528589 -0.024566658 0.73699999 2.3415452e-38
0.011932398 -0.024566658 0.73700005 2.2766061e-38
0.01337238 -0.024633326 0.73900002 2.2023919e-38
0.014740013 -0.024566643 0.73700005 2.2216636e-38
0.016187618 -0.024633333 0.73900002 2.229986e-38
0.017619053 -0.02466666 0.74000001 2.2120494e-38
0.019028572 -0.024666637 0.74000001 2.1928564e-38
0.020438103 -0.024666652 0.74000001 2.2020033e-38
0.021847632 -0.024666637 0.73999995 2.2027225e-38
0.023257149 -0.024666637 0.73999995 2.2774842e-38
0.024733339 -0.024733305 0.74199998 2.3410825e-38
0.026146684 -0.024733312 0.74200004 2.2380498e-38
0.027560012 -0.024733335 0.74200004 2.1380041e-38
0.028973343 -0.024733327 0.74200004 2.2407141e-38
0.030427635 -0.024766654 0.74300003 2.3409397e-38
0.031928584 -0.024833322 0.745 1.6780698e-38
0.033437159 -0.024899982 0.74699998 1.0042932e-38
0.034906685 -0.024933316 0.74800003 9.9374118e-39
0.036331434 -0.024933331 0.74800003 9.8606038e-39
0.037857145 -0.024999991 0.75000006 9.953835e-39
0.039390482 -0.025066659 0.75199997 9.9556104e-39
0.040822867 -0.025066644 0.75200003 1.0048502e-38
0.042311449 -0.025099993 0.75299996 1.0139284e-38
0.043745734 -0.025099978 0.75299996 1.0229707e-38
0.045300007 -0.025166661 0.755 1.0322592e-38
-0.020797135 -0.023665681 0.75300002 9.483555e-39
-0.019337131 -0.02363427 0.75199997 9.3895615e-39
-0.017904757 -0.023634285 0.75200003 9.2959366e-39
-0.016472369 -0.023634285 0.75199997 9.4785342e-39
-0.014959991 -0.023508556 0.74800003 9.6636415e-39
-0.013517126 -0.023477115 0.74699998 1.0491239e-38
-0.01209428 -0.02347713 0.74699998 1.1318836e-38
-0.010642854 -0.023414284 0.745 1.1319196e-38
-0.009223802 -0.023414269 0.745 1.1411398e-38
-0.0077838055 -0.023351431 0.74300003 1.1412842e-38
-0.0063685649 -0.023351431 0.74300003 1.1411702e-38
-0.0049466575 -0.023319989 0.74200004 1.1585623e-38
-0.0035238094 -0.023257129 0.74000001 1.1879244e-38
-0.0021142843 -0.023257121 0.74000001 1.7709181e-38
-0.00070189219 -0.023162842 0.73699999 2.3417679e-38
0.00070191687 -0.023162842 0.73700005 2.3134628e-38
0.0021057366 -0.023162849 0.73699999 2.285948e-38
0.0035190461 -0.02322571 0.73900002 2.2291965e-38
0.0049266634 -0.023225702 0.73900002 2.1710104e-38
0.0063342843 -0.02322571 0.73900002 2.256389e-38
0.0077209556 -0.023162857 0.73700005 2.3417682e-38
0.0091247763 -0.023162849 0.73699999 2.341769e-38
0.010528585 -0.023162842 0.73700005 2.3417519e-38
0.01193239 -0.023162834 0.73699999 2.3035655e-38
0.013372378 -0.023225695 0.73900002 2.2634387e-38
0.014779987 -0.023225717 0.73900002 2.2749692e-38
0.016187618 -0.023225702 0.73900002 2.2821798e-38
0.017619057 -0.023257121 0.74000001 2.2748974e-38
0.019028584 -0.023257114 0.73999995 2.2635957e-38
0.020438103 -0.023257136 0.73999995 2.2658182e-38
0.021847634 -0.023257107 0.73999995 2.2743238e-38
0.023320019 -0.023319997 0.74200004 2.3042456e-38
0.024733348 -0.023319989 0.74200004 2.3417669e-38
0.026146678 -0.023319989 0.74200004 2.2198675e-38
0.027560009 -0.023319982 0.74200004 2.0915869e-38
0.029012389 -0.023351423 0.74300003 2.2032624e-38
0.030427633 -0.023351431 0.74300003 2.3227524e-38
0.031928588 -0.023414269 0.745 1.7784439e-38
0.033437166 -0.023477145 0.74699998 1.233057e-38
0.034860015 -0.023477137 0.74699998 1.1331439e-38
0.036331441 -0.023508549 0.74799997 1.0331617e-38
0.037857145 -0.023571417 0.75000006 1.0140736e-38
0.039285708 -0.023571432 0.75000006 1.0047075e-38
0.040877149 -0.023665696 0.75300002 1.004776e-38
0.042311445 -0.023665689 0.75299996 1.0047072e-38
0.043861911 -0.023728564 0.755 1.0138935e-38
0.045300007 -0.023728549 0.755 1.032332e-38
-0.022290466 -0.022290461 0.755 9.2934184e-39
-0.020852376 -0.022290446 0.755 9.5728696e-39
-0.019362843 -0.022231415 0.75299996 9.3902748e-39
-0.017904757 -0.022201896 0.75200003 9.1118928e-39
-0.016472373 -0.022201888 0.75199997 9.5685522e-39
-0.014999995 -0.022142842 0.75000006 9.9380606e-39
-0.013535228 -0.022083804 0.74799997 1.030685e-38
-0.012094279 -0.02205427 0.74700004 1.0583797e-38
-0.010671422 -0.022054285 0.74699998 1.0952581e-38
-0.0092238113 -0.021995246 0.74500006 1.1321359e-38
-0.0078047588 -0.021995224 0.74500006 1.1507903e-38
-0.0063685672 -0.021936193 0.74300003 1.1682191e-38
-0.0049533253 -0.021936186 0.74300003 1.1663482e-38
-0.0035333331 -0.021906674 0.74200004 1.1702395e-38
-0.0021199859 -0.021906652 0.74200004 1.7632054e-38
-0.00070381491 -0.021818072 0.73900002 2.341409e-38
0.00070380652 -0.021818109 0.73900002 2.3035972e-38
0.0021057185 -0.021759048 0.73700005 2.2671145e-38
0.0035190452 -0.021818094 0.73900002 2.1924988e-38
0.004926662 -0.021818087 0.73900002 2.107909e-38
0.0063342834 -0.021818094 0.73900002 2.2284784e-38
0.0077419006 -0.021818079 0.73900002 2.3410141e-38
0.0091495225 -0.021818101 0.73900002 2.341769e-38
0.010557139 -0.021818094 0.73900002 2.3417605e-38
0.011964761 -0.021818087 0.73900002 2.3417519e-38
0.013390476 -0.021847583 0.74000001 2.3313562e-38
0.01478 -0.021818087 0.73900002 2.3417672e-38
0.016209526 -0.021847613 0.74000001 2.340655e-38
0.017619055 -0.021847583 0.73999995 2.341767e-38
0.019028587 -0.021847591 0.73999995 2.3405824e-38
0.020438105 -0.021847591 0.73999995 2.3417655e-38
0.021847622 -0.021847591 0.73999995 2.340978e-38
0.023319999 -0.021906659 0.74200004 2.341769e-38
0.024733344 -0.021906652 0.74200004 2.340475e-38
0.026146684 -0.021906629 0.74199998 2.1896257e-38
0.027597157 -0.021936193 0.74300003 2.0455611e-38
0.029012388 -0.021936186 0.74300003 2.1763934e-38
0.030509537 -0.021995217 0.745 2.2948432e-38
0.031928577 -0.021995232 0.74500006 1.8798937e-38
0.033437159 -0.02205427 0.74699998 1.465482e-38
0.034906685 -0.022083774 0.74799997 1.2725518e-38
0.036428571 -0.02214285 0.75000006 1.0695384e-38
0.03785713 -0.022142842 0.75000006 1.0413354e-38
0.039390482 -0.022201896 0.75200003 1.0047076e-38
0.040877145 -0.022231407 0.75300002 9.9566642e-39
0.04231143 -0.022231415 0.75300002 9.8637693e-39
0.043745741 -0.022231407 0.75299996 1.0138934e-38
0.045300011 -0.022290453 0.755 1.0322954e-38
0.046738096 -0.022290468 0.755 1.0231825e-38
-0.022319999 -0.020879991 0.75599998 9.571422e-39
-0.020852374 -0.02085238 0.755 9.2980721e-39
-0.019362848 -0.020797126 0.75299996 9.2966414e-39
-0.017904753 -0.020769507 0.75199997 9.3866678e-39
-0.016472368 -0.020769499 0.75199997 9.5699633e-39
-0.015000006 -0.020714268 0.75000006 9.7540182e-39
-0.013535224 -0.020659029 0.74800003 1.012282e-38
-0.012094268 -0.020631418 0.74699998 1.0583444e-38
-0.010671422 -0.020631418 0.74699998 1.0860036e-38
-0.0092238113 -0.020576179 0.74500006 1.1229168e-38
-0.0078047593 -0.020576186 0.74500006 1.1413193e-38
-0.0063685579 -0.02052094 0.74300003 1.1594307e-38
-0.0049533276 -0.02052094 0.74300003 1.1860798e-38
-0.003533321 -0.020493306 0.74200004 1.2063287e-38
-0.0021199919 -0.020493314 0.74200004 1.7801017e-38
-0.00070381537 -0.020410471 0.73900002 2.3417675e-38
0.00070380559 -0.020410478 0.73900002 2.3226096e-38
0.0021114228 -0.020410471 0.73900002 2.3047816e-38
0.003519044 -0.020410478 0.73900002 2.2200498e-38
0.004926661 -0.020410471 0.73900002 2.1427056e-38
0.0063342825 -0.020410463 0.73900002 2.2378399e-38
0.0077418992 -0.020410463 0.73900002 2.3325833e-38
0.0091495216 -0.020410486 0.73900002 2.341769e-38
0.010557137 -0.020410463 0.73900002 2.341769e-38
0.011964759 -0.020410486 0.73900002 2.341769e-38
0.013372377 -0.020410463 0.73900002 2.341769e-38
0.014800007 -0.020438068 0.73999995 2.341769e-38
0.016209539 -0.020438068 0.73999995 2.341769e-38
0.017619057 -0.02043806 0.73999995 2.341769e-38
0.019080004 -0.020493321 0.74200004 2.341769e-38
0.020493334 -0.020493314 0.74200004 2.341769e-38
0.021906689 -0.020493321 0.74199998 2.341769e-38
0.023320017 -0.020493314 0.74200004 2.3049631e-38
0.024766684 -0.020520955 0.74300003 2.2682978e-38
0.026181914 -0.020520948 0.74300003 2.155043e-38
0.027597154 -0.020520955 0.74300003 2.0460989e-38
0.029012395 -0.02052094 0.74300003 2.1850029e-38
0.030591451 -0.020631425 0.74699998 2.3227168e-38
0.032014288 -0.020631418 0.74699998 2.028158e-38
0.033437151 -0.020631418 0.74699998 1.7427487e-38
0.034906685 -0.020659037 0.74799997 1.3550647e-38
0.036428582 -0.020714283 0.75 9.7705858e-39
0.037857145 -0.020714276 0.75000006 9.954516e-39
0.039442867 -0.020797119 0.75300002 1.0138556e-38
0.040877152 -0.020797133 0.75300002 9.8637749e-39
0.042311434 -0.020797141 0.75300002 9.6801095e-39
0.043861918 -0.020852372 0.755 1.0231127e-38
0.045299999 -0.02085238 0.755 1.0781405e-38
-0.023822855 -0.019491427 0.75800002 1.0776466e-38
-0.02232 -0.019439995 0.75600004 9.844046e-39
-0.02085238 -0.019414276 0.755 8.9282134e-39
-0.019362846 -0.019362837 0.75299996 9.2952093e-39
-0.017928559 -0.01936283 0.75299996 9.5707004e-39
-0.016472371 -0.01933714 0.75200003 9.5706863e-39
-0.014999999 -0.019285694 0.75000006 9.4785145e-39
-0.013535226 -0.019234262 0.74800003 1.0029909e-38
-0.012094267 -0.019208558 0.74699998 1.0582362e-38
-0.010642855 -0.019157134 0.74500006 1.0858952e-38
-0.009223802 -0.019157134 0.74500006 1.1044768e-38
-0.0078047574 -0.019157141 0.745 1.1321345e-38
-0.0063685677 -0.019105718 0.74300003 1.1497102e-38
-0.0049533271 -0.019105703 0.74300003 1.1939038e-38
-0.0035333275 -0.019079991 0.74200004 1.2441409e-38
-0.0021199971 -0.019079983 0.74200004 1.7999396e-38
-0.00070380233 -0.019002855 0.73900002 2.3413731e-38
0.00070380466 -0.019002862 0.73900002 2.3402241e-38
0.0021114214 -0.019002855 0.73900002 2.341084e-38
0.0035190431 -0.019002862 0.73900002 2.2585747e-38
0.0049266596 -0.01900284 0.73900002 2.1721204e-38
0.0063342815 -0.019002847 0.73900002 2.2475619e-38
0.0077418983 -0.019002862 0.73900002 2.3212827e-38
0.0091495197 -0.019002855 0.73900002 2.3325839e-38
0.010557137 -0.019002847 0.73900002 2.3413731e-38
0.011980958 -0.019028544 0.73999995 2.341768e-38
0.013390491 -0.019028537 0.73999995 2.3414813e-38
0.014800008 -0.019028552 0.73999995 2.3417684e-38
0.016209526 -0.019028552 0.73999995 2.3413377e-38
0.01766667 -0.019079998 0.74200004 2.341768e-38
0.019080009 -0.019079976 0.74199998 2.3411219e-38
0.02049334 -0.019079983 0.74200004 2.3417672e-38
0.021906683 -0.019079983 0.74200004 2.3408348e-38
0.023320014 -0.019079976 0.74200004 2.2679406e-38
0.024766682 -0.019105718 0.74300003 2.1925317e-38
0.026181921 -0.01910571 0.74300003 2.1161185e-38
0.027597161 -0.01910571 0.74300003 2.045775e-38
0.029012391 -0.019105718 0.74300003 2.1947963e-38
0.030509528 -0.019157127 0.74500006 2.3414443e-38
0.032014303 -0.01920855 0.74699998 2.1856093e-38
0.033437163 -0.019208565 0.74699998 2.0178974e-38
0.034906678 -0.019234277 0.74799997 1.4462888e-38
0.036428571 -0.019285694 0.75000006 8.761103e-39
0.037857156 -0.019285686 0.75 9.4953357e-39
0.039442874 -0.01936283 0.75300002 1.0138558e-38
0.040877145 -0.019362837 0.75300002 9.8630687e-39
0.042423815 -0.019414283 0.755 9.4968029e-39
0.043861911 -0.019414283 0.75500005 1.0324041e-38
0.045300022 -0.019414261 0.755 1.1149119e-38
-0.023822846 -0.018047616 0.75800002 1.1419658e-38
-0.022379043 -0.018047608 0.75799996 1.0124921e-38
-0.020880001 -0.017999999 0.75600004 8.9289267e-39
-0.01941428 -0.01797618 0.755 9.2040927e-39
-0.017928559 -0.017928548 0.75299996 9.3873923e-39
-0.016472373 -0.017904751 0.75199997 9.478139e-39
-0.015000004 -0.017857134 0.75000006 9.6611121e-39
-0.01353522 -0.017809503 0.74799997 1.0029549e-38
-0.01209427 -0.017785691 0.74699998 1.0489805e-38
-0.010642854 -0.017738089 0.74500006 1.0675271e-38
-0.009223802 -0.017738074 0.745 1.0860729e-38
-0.00780475 -0.017738089 0.745 1.1227704e-38
-0.0063685668 -0.017690457 0.74300003 1.1592178e-38
-0.0049533295 -0.01769048 0.74300003 1.2323635e-38
-0.0035380875 -0.017690472 0.74300003 1.299818e-38
-0.0021199924 -0.017666638 0.74200004 1.8264499e-38
-0.00070380326 -0.017595224 0.73900002 2.3417682e-38
0.00070380326 -0.017595232 0.73900002 2.3317227e-38
0.0021114354 -0.017595232 0.73900002 2.3230028e-38
0.0035190419 -0.017595232 0.73900002 2.2007083e-38
0.0049266736 -0.017595224 0.73900002 2.0764093e-38
0.0063342801 -0.017595239 0.73900002 2.189663e-38
0.0077418969 -0.017595232 0.73900002 2.3080449e-38
0.0091495188 -0.017595239 0.73900002 2.3214617e-38
0.010571443 -0.017619029 0.73999995 2.3310045e-38
0.01198096 -0.017619021 0.73999995 2.2201568e-38
0.013390493 -0.017619014 0.73999995 2.1110308e-38
0.01480001 -0.017619036 0.73999995 2.0999822e-38
0.01620953 -0.017619021 0.73999995 2.0828344e-38
0.01761906 -0.017619014 0.73999995 2.0996225e-38
0.019080019 -0.017666653 0.74200004 2.1279258e-38
0.020493347 -0.01766666 0.74200004 2.2204062e-38
0.021906678 -0.017666653 0.74200004 2.319955e-38
0.023351433 -0.017690472 0.74300003 2.2847996e-38
0.024766674 -0.017690465 0.74300003 2.246304e-38
0.026181905 -0.01769048 0.74300003 2.1635048e-38
0.027597146 -0.017690472 0.74300003 2.0924091e-38
0.029012388 -0.017690472 0.74300003 2.2218806e-38
0.030591451 -0.017785691 0.74699998 2.3412309e-38
0.032014299 -0.017785691 0.74699998 2.0281293e-38
0.033481926 -0.017809503 0.74799997 1.7050837e-38
0.034906674 -0.017809518 0.74800003 1.2988481e-38
0.036428571 -0.017857127 0.75 8.938307e-39
0.037958097 -0.017904736 0.75199997 9.4928218e-39
0.039442874 -0.017928556 0.75300002 1.0138204e-38
0.04087716 -0.017928548 0.75300002 9.9556314e-39
0.042423829 -0.01797618 0.755 9.7723164e-39
0.043861926 -0.017976172 0.755 1.0139297e-38
0.045300007 -0.01797618 0.755 1.0598118e-38
-0.023822861 -0.016603805 0.75800002 1.1976416e-38
-0.022379046 -0.016603798 0.75800002 1.0490832e-38
-0.020879995 -0.016559996 0.75599998 8.9296483e-39
-0.019414278 -0.016538084 0.755 9.113339e-39
-0.017928557 -0.016494259 0.75299996 9.2037199e-39
-0.016472377 -0.016472355 0.75199997 9.4766971e-39
-0.014999999 -0.01642856 0.75000006 9.7536609e-39
-0.013571428 -0.016428567 0.75000006 1.0121385e-38
-0.012094269 -0.016362846 0.74699998 1.0399047e-38
-0.010671412 -0.016362838 0.74699998 1.0583438e-38
-0.009223802 -0.016319022 0.745 1.0675982e-38
-0.0078047598 -0.016319051 0.74500006 1.122878e-38
-0.0063685682 -0.016275235 0.74300003 1.1679712e-38
-0.0049533276 -0.016275227 0.74300003 1.2581931e-38
-0.003538087 -0.016275227 0.74300003 1.3547044e-38
-0.002119998 -0.016253322 0.74200004 1.8550409e-38
-0.00070381491 -0.016187608 0.73900008 2.3413734e-38
0.00070380187 -0.016187608 0.73900002 2.3218572e-38
0.0021114335 -0.016187608 0.73900002 2.2943411e-38
0.0035238161 -0.016209505 0.74000001 2.1448559e-38
0.004933334 -0.016209498 0.74000001 1.9873738e-38
0.0063428516 -0.01620952 0.74000001 2.1450382e-38
0.0077523943 -0.016209498 0.73999995 2.2933383e-38
0.0091619128 -0.016209498 0.73999995 2.3142168e-38
0.01057143 -0.016209491 0.73999995 2.3214611e-38
0.011980963 -0.016209505 0.73999995 2.0968566e-38
0.013390481 -0.016209498 0.73999995 1.8774918e-38
0.014800013 -0.016209498 0.73999995 1.8459593e-38
0.016209532 -0.016209505 0.73999995 1.8216359e-38
0.017619049 -0.016209498 0.73999995 1.8643236e-38
0.019079998 -0.016253307 0.74200004 1.9066933e-38
0.020493338 -0.016253315 0.74199998 2.1102772e-38
0.021906683 -0.016253322 0.74200004 2.3037059e-38
0.023351442 -0.016275227 0.74300003 2.3050335e-38
0.024766672 -0.016275227 0.74300003 2.2937297e-38
0.026181912 -0.016275227 0.74300003 2.2175313e-38
0.027597154 -0.016275242 0.74300003 2.1377894e-38
0.029012384 -0.016275242 0.74300003 2.24075e-38
0.030591441 -0.016362838 0.74699998 2.340941e-38
0.032014303 -0.016362846 0.74699998 1.8714292e-38
0.033481918 -0.016384736 0.74800003 1.3908641e-38
0.035000011 -0.016428545 0.75000006 1.1501117e-38
0.036525719 -0.016472377 0.75200003 9.1219639e-39
0.038008578 -0.016494267 0.75300002 9.5828973e-39
0.039547626 -0.016538091 0.75500005 1.0046036e-38
0.040985733 -0.016538076 0.755 1.0048923e-38
0.042480003 -0.016559996 0.75600004 1.0047477e-38
0.04392001 -0.016559988 0.75600004 1.0046389e-38
0.045360006 -0.016559988 0.75599998 9.9549154e-39
-0.022379039 -0.015160009 0.75800002 1.0399717e-38
-0.020879997 -0.01512 0.75599998 8.5626693e-39
-0.019414276 -0.015099995 0.755 8.7460026e-39
-0.017928567 -0.015059985 0.75300002 8.9292896e-39
-0.016472369 -0.01503998 0.75199997 9.387723e-39
-0.015000002 -0.014999993 0.75000006 9.8465698e-39
-0.01357143 -0.014999986 0.75000006 1.0215373e-38
-0.012094269 -0.014939986 0.74699998 1.0677066e-38
-0.010642854 -0.014899984 0.745 1.0859664e-38
-0.0092238002 -0.014899977 0.745 1.1041173e-38
-0.0077838008 -0.014860004 0.74300003 1.1135508e-38
-0.0063685603 -0.014859997 0.74300003 1.1132291e-38
-0.0049533299 -0.014859997 0.74300009 1.2322935e-38
-0.0035380893 -0.014860004 0.74300003 1.3547049e-38
-0.0021228483 -0.014859997 0.74300003 1.8447452e-38
-0.00070476439 -0.014799982 0.74000001 2.3417679e-38
0.00070476811 -0.014799982 0.74000001 2.3225027e-38
0.0021142857 -0.01479999 0.74000001 2.2958487e-38
0.0035238035 -0.014799982 0.74000001 2.1361768e-38
0.0049333465 -0.014799967 0.73999995 1.9688651e-38
0.0063428641 -0.014799967 0.73999995 2.1460082e-38
0.0077419099 -0.014779992 0.73900002 2.3234016e-38
0.0091495169 -0.014780007 0.73900002 2.3234019e-38
0.010571432 -0.014799975 0.73999995 2.3325807e-38
0.011980965 -0.014799982 0.73999995 2.2198262e-38
0.013390483 -0.014799982 0.73999995 2.1081168e-38
0.014800001 -0.014799975 0.73999995 2.0988253e-38
0.016209533 -0.01479999 0.73999995 2.0811376e-38
0.017619051 -0.014799982 0.73999995 2.0997893e-38
0.019080019 -0.014839992 0.74200004 2.1303248e-38
0.020493347 -0.014839984 0.74200004 2.2218448e-38
0.021906678 -0.014839984 0.74200004 2.3234019e-38
0.02335144 -0.014859997 0.74300003 2.2958513e-38
0.024766682 -0.014859997 0.74300003 2.2774805e-38
0.026181923 -0.014859989 0.74300003 2.1920267e-38
0.027597154 -0.014860004 0.74300003 2.1197817e-38
0.02909049 -0.014899991 0.74500006 2.2125895e-38
0.030591451 -0.014939994 0.74699998 2.3042398e-38
0.032014299 -0.014939986 0.74699998 1.8237836e-38
0.033481918 -0.014959991 0.74800003 1.3510747e-38
0.034999996 -0.014999993 0.75000006 1.1503925e-38
0.036525726 -0.015039995 0.75199997 9.403915e-39
0.038008589 -0.015059985 0.75300002 9.6787124e-39
0.039547637 -0.015099995 0.755 1.0046782e-38
0.040985733 -0.015099995 0.755 1.0047866e-38
0.042423818 -0.015099987 0.755 1.0047129e-38
0.043919999 -0.015119992 0.75600004 1.0045675e-38
-0.022438096 -0.013752371 0.75999999 1.029604e-38
-0.020935236 -0.013716191 0.75800002 8.0999031e-39
-0.019414281 -0.013661891 0.755 8.3783033e-39
-0.017928572 -0.013625704 0.75300002 8.5633938e-39
-0.016472375 -0.013607606 0.75200003 9.2984197e-39
-0.014999997 -0.013571419 0.75000006 9.9402031e-39
-0.013571436 -0.013571411 0.75000006 1.0400109e-38
-0.012094267 -0.013517126 0.74699998 1.0860013e-38
-0.010642847 -0.013480932 0.745 1.1136245e-38
-0.0092238113 -0.013480939 0.74500006 1.1412463e-38
-0.0077838004 -0.013444752 0.74300003 1.1047987e-38
-0.00636857 -0.013444774 0.74300003 1.0576265e-38
-0.004953329 -0.013444759 0.74300003 1.2030936e-38
-0.0035380875 -0.013444752 0.74300003 1.3457012e-38
-0.0021228571 -0.013444774 0.74300003 1.8458573e-38
-0.00070476206 -0.013390467 0.74000001 2.3412657e-38
0.00070475601 -0.013390452 0.74000001 2.321319e-38
0.0021142885 -0.013390459 0.74000001 2.2941271e-38
0.0035238164 -0.013390452 0.73999995 2.1259532e-38
0.0049333489 -0.013390452 0.73999995 1.9513227e-38
0.0063428665 -0.013390452 0.73999995 2.1466529e-38
0.0077523845 -0.013390452 0.73999995 2.3411943e-38
0.0091619175 -0.013390452 0.73999995 2.341769e-38
0.010571435 -0.013390452 0.73999995 2.3417666e-38
0.011980953 -0.013390452 0.73999995 2.3417642e-38
0.013390485 -0.013390452 0.73999995 2.3407596e-38
0.014800004 -0.013390459 0.73999995 2.341764e-38
0.01620952 -0.013390452 0.74000001 2.3409019e-38
0.017666668 -0.013426661 0.74200004 2.3417617e-38
0.019080013 -0.013426661 0.74200004 2.3417295e-38
0.020493342 -0.013426654 0.74200004 2.341769e-38
0.021906683 -0.013426647 0.74199998 2.3417316e-38
0.023351433 -0.013444752 0.74300003 2.2958483e-38
0.024766678 -0.013444766 0.74300003 2.2475967e-38
0.02618192 -0.013444759 0.74300003 2.1716152e-38
0.027597159 -0.013444752 0.74300003 2.0918366e-38
0.029090492 -0.013480939 0.745 2.1764292e-38
0.030591441 -0.013517126 0.74699998 2.2574966e-38
0.032057147 -0.013535224 0.74800003 1.7867259e-38
0.033481926 -0.013535216 0.74799997 1.3155248e-38
0.035000011 -0.013571419 0.75000006 1.1416412e-38
0.036525719 -0.013607599 0.75199997 9.6776082e-39
0.038008582 -0.013625696 0.75300002 9.8641224e-39
0.039547641 -0.013661891 0.755 9.9559678e-39
0.040985722 -0.013661891 0.755 1.0048531e-38
0.042423822 -0.013661899 0.755 1.0047103e-38
0.043920014 -0.013679981 0.75599998 1.0043522e-38
-0.022467615 -0.012320928 0.76100004 1.0303928e-38
-0.020935228 -0.012272373 0.75800002 8.4690387e-39
-0.019440001 -0.012239985 0.75600004 8.7470816e-39
-0.017976182 -0.012223803 0.755 9.1165704e-39
-0.016472375 -0.01217524 0.75200003 9.4813942e-39
-0.015000002 -0.012142844 0.75000006 9.9398486e-39
-0.013571428 -0.012142837 0.75000006 1.0399738e-38
-0.012094276 -0.012094274 0.74699998 1.0859647e-38
-0.010642855 -0.012061894 0.74500006 1.1319913e-38
-0.0092238104 -0.012061894 0.74500006 1.1781603e-38
-0.0078047584 -0.012061901 0.745 1.1135169e-38
-0.0063685607 -0.012029506 0.74300003 1.0481928e-38
-0.0049533201 -0.012029514 0.74300003 1.2323672e-38
-0.0035380898 -0.012029521 0.74300003 1.4199593e-38
-0.0021228492 -0.012029521 0.74300003 1.8817306e-38
-0.00070664939 -0.012013309 0.74199998 2.341768e-38
0.00070476858 -0.011980928 0.73999995 2.3225388e-38
0.0021143011 -0.011980921 0.73999995 2.2955622e-38
0.0035238187 -0.011980936 0.73999995 2.126097e-38
0.0049333363 -0.011980928 0.73999995 1.9495287e-38
0.0063428688 -0.011980936 0.73999995 2.1462573e-38
0.0077419071 -0.011964761 0.73900002 2.3417677e-38
0.0091495141 -0.011964753 0.73900002 2.341769e-38
0.010571437 -0.011980936 0.73999995 2.341769e-38
0.011980955 -0.011980928 0.73999995 2.341769e-38
0.013390487 -0.011980936 0.74000001 2.341769e-38
0.014800006 -0.011980936 0.74000001 2.341769e-38
0.016253347 -0.012013316 0.74200004 2.341769e-38
0.017666677 -0.012013331 0.74200004 2.341769e-38
0.019080017 -0.012013316 0.74199998 2.341769e-38
0.020493345 -0.012013309 0.74200004 2.3417331e-38
0.021936201 -0.012029521 0.74300003 2.3416226e-38
0.023351433 -0.012029521 0.74300003 2.3130285e-38
0.024766672 -0.012029514 0.74300003 2.291289e-38
0.026181914 -0.012029521 0.74300003 2.2003501e-38
0.027597144 -0.012029521 0.74300003 2.1107421e-38
0.029090492 -0.012061894 0.745 2.1756041e-38
0.030591449 -0.012094274 0.74699998 2.2391651e-38
0.032057159 -0.012110464 0.74800003 1.7583136e-38
0.033481918 -0.012110457 0.74799997 1.2673835e-38
0.035 -0.012142852 0.75000006 1.1041914e-38
0.036525723 -0.012175225 0.75199997 9.3109655e-39
0.038008593 -0.012191407 0.75300002 9.3130534e-39
0.039547626 -0.012223803 0.755 9.4056176e-39
0.040985718 -0.012223803 0.755 9.7736868e-39
0.042423818 -0.012223803 0.755 1.0141421e-38
0.04392001 -0.012239993 0.75600004 1.0044597e-38
-0.022467619 -0.010871418 0.76100004 1.0297481e-38
-0.02099047 -0.010857128 0.75999999 8.744548e-39
-0.019414276 -0.010785699 0.755 9.2084101e-39
-0.017928569 -0.010757118 0.75300002 9.5739542e-39
-0.016472371 -0.010742843 0.75199997 9.7540336e-39
-0.015000002 -0.01071427 0.75000006 9.8437139e-39
-0.013535222 -0.01068569 0.74799997 1.0399388e-38
-0.012094274 -0.010671422 0.74699998 1.0859292e-38
-0.010642856 -0.010642849 0.74500006 1.1501435e-38
-0.009223802 -0.010642849 0.74500006 1.2147153e-38
-0.0078047579 -0.010642849 0.745 1.1321351e-38
-0.0063857147 -0.010642849 0.74500006 1.0392245e-38
-0.0049533299 -0.010614276 0.74300003 1.2582676e-38
-0.0035380893 -0.010614283 0.74300003 1.483706e-38
-0.002122859 -0.010614283 0.74300003 1.9193257e-38
-0.00070665451 -0.010599986 0.74200004 2.3415173e-38
0.000706675 -0.010599978 0.74200004 2.3223247e-38
0.002120005 -0.010599986 0.74200004 2.2939116e-38
0.0035333345 -0.010599993 0.74200004 2.1241579e-38
0.0049333386 -0.010571413 0.73999995 1.9506401e-38
0.0063428567 -0.010571405 0.73999995 2.1470472e-38
0.0077523892 -0.010571405 0.73999995 2.3413017e-38
0.0091619072 -0.010571413 0.73999995 2.341769e-38
0.01057144 -0.010571413 0.74000001 2.341769e-38
0.011980957 -0.010571405 0.74000001 2.341769e-38
0.013390476 -0.01057142 0.74000001 2.341769e-38
0.014840008 -0.010599978 0.74199998 2.341769e-38
0.016253337 -0.010599978 0.74200004 2.341769e-38
0.017666681 -0.010599986 0.74200004 2.341769e-38
0.019080011 -0.010599993 0.74200004 2.341769e-38
0.020493342 -0.010599978 0.74200004 2.341769e-38
0.021936199 -0.010614283 0.74300003 2.3417316e-38
0.02335144 -0.010614276 0.74300003 2.3417661e-38
0.024766671 -0.010614291 0.74300003 2.3304635e-38
0.026181912 -0.010614276 0.74300003 2.2276841e-38
0.02767144 -0.010642841 0.745 2.1195662e-38
0.029090481 -0.010642849 0.74500006 2.1759988e-38
0.030632392 -0.010685697 0.74800003 2.2203664e-38
0.032057151 -0.010685697 0.74799997 1.721649e-38
0.03357143 -0.01071427 0.75000006 1.2236156e-38
0.035093345 -0.010742843 0.75199997 1.0581988e-38
0.036574297 -0.010757118 0.75299996 8.9418256e-39
0.038109526 -0.010785699 0.755 8.8549732e-39
0.039547626 -0.010785706 0.755 8.763495e-39
0.040985722 -0.010785714 0.755 9.4988936e-39
0.042423815 -0.010785706 0.755 1.0140695e-38
0.043861911 -0.010785706 0.755 1.0047456e-38
-0.020990467 -0.009409517 0.75999999 8.6559453e-39
-0.019439993 -0.0093599856 0.75600004 9.1158557e-39
-0.017928565 -0.009322837 0.75300002 9.6650722e-39
-0.016472371 -0.0093104541 0.75199997 9.6596884e-39
-0.015000006 -0.0092857182 0.75000006 9.7400445e-39
-0.013535226 -0.009260945 0.74799997 1.0304331e-38
-0.012094276 -0.0092485622 0.74699998 1.0860015e-38
-0.010671418 -0.0092485622 0.74699998 1.1319201e-38
-0.009223802 -0.0092237964 0.745 1.1779454e-38
-0.0078047495 -0.0092237964 0.745 1.1044051e-38
-0.0063857147 -0.0092238039 0.74500006 1.0397626e-38
-0.0049666623 -0.0092237964 0.74500006 1.2876477e-38
-0.0035380903 -0.009199053 0.74300003 1.5484572e-38
-0.0021228497 -0.0091990456 0.74300003 1.9460154e-38
-0.0007066601 -0.0091866478 0.74200004 2.341769e-38
0.00070666987 -0.0091866553 0.74200004 2.3320474e-38
0.0021200096 -0.0091866478 0.74199998 2.3142153e-38
0.0035333391 -0.0091866478 0.74200004 2.1439219e-38
0.0049466691 -0.0091866478 0.74200004 1.967464e-38
0.0063600135 -0.0091866404 0.74200004 2.1558726e-38
0.0077523915 -0.0091618821 0.74000001 2.3417684e-38
0.00916191 -0.0091618747 0.74000001 2.341769e-38
0.010571428 -0.0091618896 0.74000001 2.341769e-38
0.01198096 -0.0091618896 0.74000001 2.341769e-38
0.013390478 -0.0091618821 0.74000001 2.341769e-38
0.014799995 -0.009161897 0.74000001 2.341769e-38
0.016253347 -0.0091866553 0.74200004 2.341769e-38
0.017666677 -0.0091866553 0.74200004 2.341769e-38
0.019080006 -0.0091866553 0.74200004 2.341769e-38
0.020493345 -0.0091866329 0.74199998 2.341769e-38
0.021906676 -0.0091866553 0.74199998 2.341769e-38
0.023351438 -0.009199053 0.74300003 2.3325854e-38
0.024766678 -0.0091990381 0.74300003 2.3233614e-38
0.02618192 -0.0091990381 0.74300003 2.2294046e-38
0.02759715 -0.009199053 0.74300003 2.1382914e-38
0.029090485 -0.0092238039 0.74500006 2.166313e-38
0.030632397 -0.0092609227 0.74799997 2.2027516e-38
0.032057162 -0.009260945 0.74799997 1.7036744e-38
0.033571426 -0.0092857033 0.75000006 1.2053535e-38
0.035093348 -0.0093104467 0.75199997 1.0682402e-38
0.036574312 -0.009322837 0.75299996 9.223425e-39
0.03810953 -0.0093476176 0.755 9.2230536e-39
0.039600007 -0.0093599856 0.75599998 9.2233983e-39
0.041040018 -0.0093599781 0.75599998 9.7736784e-39
0.042479999 -0.0093600005 0.75600004 1.0415119e-38
0.04392001 -0.009359993 0.75599998 1.0230038e-38
-0.023979997 -0.0079933181 0.76300001 1.1878504e-38
-0.02243809 -0.0079618916 0.75999999 1.0195963e-38
-0.020935232 -0.007940948 0.75800002 8.5598022e-39
-0.019439999 -0.0079199895 0.75600004 9.117292e-39
-0.017976183 -0.007909514 0.755 9.6650694e-39
-0.016472366 -0.00787808 0.75199997 9.6632687e-39
-0.015000001 -0.007857129 0.75000006 9.6611219e-39
-0.01353523 -0.0078361779 0.74800003 1.0309356e-38
-0.012094275 -0.0078257024 0.74699998 1.0860739e-38
-0.010671417 -0.007825695 0.74699998 1.1136258e-38
-0.009223802 -0.0078047439 0.745 1.1320639e-38
-0.0078047602 -0.0078047588 0.74500006 1.0861456e-38
-0.0063857147 -0.0078047514 0.74500006 1.0299699e-38
-0.0049666613 -0.0078047514 0.745 1.322518e-38
-0.0035476089 -0.0078047439 0.745 1.6124917e-38
-0.0021228492 -0.0077838078 0.74300003 1.9836106e-38
-0.00070761191 -0.0077838153 0.74300003 2.3414816e-38
0.0007076296 -0.0077838078 0.74300003 2.3406201e-38
0.002120004 -0.0077733174 0.74200004 2.3305732e-38
0.0035333338 -0.0077733174 0.74200004 2.1606393e-38
0.0049466784 -0.0077733174 0.74200004 1.9872304e-38
0.0063600084 -0.0077733323 0.74200004 2.1671371e-38
