# .PCD v0.7 - Point Cloud Data file format
VERSION 0.7
FIELDS x y z rgb
SIZE 4 4 4 4
TYPE F F F F
COUNT 1 1 1 1
WIDTH 970
HEIGHT 1
VIEWPOINT 0 0 0 1 0 0 0
POINTS 970
DATA ascii
-0.0035857155 0.038008582 0.75299996 1.2893399e-38
-0.0021428748 0.037857153 0.75000006 1.7328087e-38
-0.00071432005 0.037857153 0.75 2.1655177e-38
0.00071425427 0.037857156 0.75 2.2591171e-38
0.0021428445 0.037857145 0.75000006 2.3414452e-38
0.0035618914 0.037756197 0.74800003 2.01037e-38
0.0049866573 0.037756201 0.74800003 1.6784356e-38
0.0064114234 0.037756201 0.74800003 1.5024781e-38
0.0078571169 0.037857149 0.75 1.3277016e-38
0.0092609348 0.037756205 0.74800003 1.1166931e-38
0.010714266 0.037857141 0.75000006 9.0363867e-39
0.012142836 0.037857156 0.75 8.1108262e-39
0.013607602 0.037958104 0.75200003 7.0991812e-39
0.01504 0.037958089 0.75200003 4.7006753e-39
0.016472362 0.037958104 0.75200003 2.3018583e-39
0.017928561 0.038008578 0.75300002 8.0821388e-39
0.019362843 0.038008574 0.75299996 1.3822962e-38
0.020797146 0.038008578 0.75300002 1.8642202e-38
0.022290481 0.038109533 0.75500005 2.3320076e-38
0.023728572 0.038109526 0.75500005 1.8619249e-38
0.0252 0.038160004 0.75600004 1.3916197e-38
0.026639994 0.038160015 0.75600004 1.3897833e-38
0.028154269 0.038260967 0.75800002 1.3923721e-38
0.029676164 0.038361914 0.75999999 1.632334e-38
0.031164743 0.0384124 0.76100004 1.8717181e-38
0.03261428 0.038412407 0.76100004 1.7795259e-38
0.034063797 0.038412396 0.76100004 1.678507e-38
0.035700008 0.038614299 0.76500005 1.6782561e-38
0.037254266 0.03871524 0.76700002 1.6784701e-38
-0.025666693 0.040333342 0.76999998 9.6646364e-39
-0.024137145 0.040228575 0.76800001 1.0865324e-38
-0.02264479 0.040176198 0.76700002 1.1136534e-38
-0.021183802 0.040176179 0.76700002 1.131592e-38
-0.019671429 0.040071432 0.76500005 1.140598e-38
-0.018166669 0.039966673 0.76300001 1.1587868e-38
-0.016713347 0.039966691 0.76299995 1.1681507e-38
-0.015220027 0.039861921 0.76100004 1.1780883e-38
-0.013770496 0.039861917 0.76100004 1.1869497e-38
-0.012304784 0.039809532 0.76000005 1.1962043e-38
-0.010799999 0.039600015 0.75600004 1.2513765e-38
-0.0093475999 0.03954763 0.75500005 1.3157322e-38
-0.0078885825 0.039442863 0.75299996 1.3716218e-38
-0.0064542945 0.039442856 0.75300002 1.4266955e-38
-0.0050199982 0.039442874 0.75299996 1.4371786e-38
-0.0035857095 0.039442871 0.75300002 1.45756e-38
-0.0021428878 0.039285719 0.75000006 1.6231204e-38
-0.00071431819 0.039285742 0.75 1.790756e-38
0.00071425614 0.039285727 0.75000006 1.9094247e-38
0.0021428454 0.039285716 0.75000006 2.0382077e-38
0.0035713993 0.039285731 0.75 1.7704836e-38
0.0049999761 0.039285727 0.75000006 1.5019385e-38
0.0064285505 0.039285716 0.75000006 1.2633475e-38
0.0078571187 0.039285716 0.75 1.0250378e-38
0.0092856949 0.039285719 0.75000006 7.8396567e-39
0.01071425 0.039285734 0.75 5.4228331e-39
0.012175235 0.039390475 0.75200003 7.4593121e-39
0.013607612 0.039390489 0.75199997 9.4900935e-39
0.015059989 0.039442863 0.75299996 9.6708918e-39
0.01647236 0.039390486 0.75200003 9.8313265e-39
0.017928561 0.039442863 0.75300002 1.4280406e-38
0.019362861 0.039442871 0.75300002 1.8642206e-38
0.020797132 0.03944286 0.75300002 2.084623e-38
0.022290474 0.039547633 0.75500005 2.3050295e-38
0.023728563 0.03954763 0.755 1.9631229e-38
0.025200006 0.039600015 0.75600004 1.6217102e-38
0.026640015 0.039600011 0.75600004 1.5566649e-38
0.028154263 0.039704774 0.75800002 1.4937134e-38
0.029676164 0.039809547 0.75999999 1.6877576e-38
0.031164736 0.039861925 0.76099998 1.8910534e-38
0.032699998 0.03996668 0.76300001 1.8075425e-38
0.034153339 0.039966676 0.76300001 1.7245681e-38
0.035700012 0.040071432 0.76500005 1.6783995e-38
0.037254281 0.04017619 0.76700002 1.6418794e-38
-0.025666684 0.041800015 0.77000004 8.8367016e-39
-0.024137141 0.04169143 0.76800001 9.2991203e-39
-0.022644777 0.041637138 0.76700008 1.003525e-38
-0.021183809 0.041637152 0.76700002 1.0673426e-38
-0.01972287 0.041637145 0.76700002 1.0763099e-38
-0.018166682 0.041420016 0.76299995 1.075665e-38
-0.016669534 0.041311439 0.76100004 1.0665182e-38
-0.015200022 0.041257158 0.75999999 1.0579108e-38
-0.013752395 0.041257165 0.75999999 1.085428e-38
-0.012272387 0.041148573 0.75800002 1.1136276e-38
-0.010799997 0.041040011 0.75600004 1.1959956e-38
-0.0093599884 0.041040011 0.75600004 1.2711873e-38
-0.0078885788 0.040877152 0.75300002 1.4006554e-38
-0.0064542824 0.040877163 0.75300002 1.5210141e-38
-0.005019994 0.040877149 0.75300002 1.5778053e-38
-0.0035809625 0.040822878 0.75199997 1.6226846e-38
-0.002142871 0.04071429 0.75000006 1.5113719e-38
-0.00071431726 0.040714305 0.75 1.4025694e-38
0.00071427197 0.040714294 0.75000006 1.5679819e-38
0.0021428268 0.040714301 0.75 1.7247106e-38
0.003571402 0.040714286 0.75 1.531424e-38
0.0049999771 0.040714294 0.75000006 1.3275563e-38
0.0064285449 0.040714297 0.75 1.0238534e-38
0.0078571197 0.040714301 0.75000006 7.1017386e-39
0.0092856949 0.04071429 0.75000006 4.5184687e-39
0.010742845 0.040822867 0.75199997 1.8487793e-39
0.012191425 0.040877149 0.75300002 6.9047524e-39
0.013625707 0.04087716 0.75300002 1.1890788e-38
0.01506001 0.040877145 0.75300002 1.4661653e-38
0.016494276 0.040877156 0.75300002 1.7412085e-38
0.017928559 0.040877152 0.75299996 2.0473181e-38
0.019362846 0.040877152 0.75300002 2.3412273e-38
0.02079713 0.040877149 0.75299996 2.3050309e-38
0.022290485 0.040985726 0.75500005 2.2665734e-38
0.023728576 0.040985718 0.75500005 2.0638523e-38
0.025200022 0.041040014 0.75600004 1.8510843e-38
0.026710456 0.041148573 0.75800002 1.7215064e-38
0.028154273 0.041148581 0.75800002 1.5948422e-38
0.029715231 0.041311439 0.76100004 1.7522583e-38
0.031164749 0.041311439 0.76100004 1.8995549e-38
0.032700002 0.041420009 0.76300001 1.835056e-38
0.034153324 0.041420028 0.76299995 1.7611934e-38
0.035606667 0.041420024 0.76300001 1.6872591e-38
0.037302863 0.041691422 0.76800001 1.6049296e-38
-0.02413716 0.043154292 0.76800001 8.7452599e-39
-0.022644756 0.043098096 0.76700002 9.2033752e-39
-0.021211423 0.043154277 0.76800001 9.6614372e-39
-0.019722855 0.0430981 0.76700002 9.8361007e-39
-0.018166678 0.042873364 0.76300001 1.0102287e-38
-0.016669529 0.042760976 0.76100004 1.0945314e-38
-0.015200035 0.042704787 0.75999999 1.1771157e-38
-0.013752406 0.042704783 0.75999999 1.2430546e-38
-0.012272378 0.042592384 0.75800002 1.3167095e-38
-0.010799996 0.042480007 0.75600004 1.3270839e-38
-0.0093599865 0.042480003 0.75600004 1.3468179e-38
-0.0078885658 0.042311449 0.75300002 1.4018513e-38
-0.0064542978 0.042311445 0.75299996 1.4493113e-38
-0.0050200094 0.04231143 0.75300002 1.5679437e-38
-0.0035857123 0.042311441 0.75299996 1.6777143e-38
-0.0021428757 0.042142872 0.75 1.6132126e-38
-0.00071431446 0.042142868 0.75000006 1.5483559e-38
0.00071427383 0.042142857 0.75000006 1.5402148e-38
0.0021428287 0.042142872 0.75 1.5316758e-38
0.003571403 0.042142861 0.75000006 1.2361868e-38
0.0049999789 0.042142864 0.75000006 9.3151343e-39
0.0064285477 0.042142864 0.75 6.817977e-39
0.0078780781 0.04225526 0.75199997 4.3172142e-39
0.0093104634 0.042255238 0.75200003 2.6709519e-39
0.010757156 0.042311434 0.75300002 1.0179537e-39
0.012191423 0.04231143 0.75300002 8.2102189e-39
0.013625706 0.042311441 0.75299996 1.5404272e-38
0.015059994 0.042311441 0.75300002 1.6777891e-38
0.016494276 0.042311437 0.75299996 1.8161145e-38
0.017976183 0.042423815 0.75500005 1.9168806e-38
0.019414295 0.042423815 0.75500005 2.0187628e-38
0.020852385 0.042423815 0.75500005 1.999537e-38
0.022290478 0.042423826 0.75500005 1.9882329e-38
0.023728576 0.042423807 0.75500005 1.9060432e-38
0.025200002 0.042480007 0.75600004 1.8319286e-38
0.026710462 0.042592384 0.75800002 1.7040758e-38
0.028154267 0.042592391 0.75800002 1.5771589e-38
0.029715223 0.042760968 0.76099998 1.7336764e-38
0.031246679 0.042873353 0.76300001 1.8901916e-38
0.032699987 0.042873353 0.76300001 1.8165082e-38
0.034242872 0.042985719 0.76500005 1.7427534e-38
0.035606671 0.042873349 0.76300001 1.6783255e-38
-0.024137149 0.044617154 0.76800001 8.193528e-39
-0.022644764 0.044559047 0.76700002 8.4629599e-39
-0.02121144 0.044617139 0.76800001 8.6494938e-39
-0.019620012 0.044326682 0.76300001 9.0017634e-39
-0.018166671 0.044326674 0.76300001 9.3917307e-39
-0.016669551 0.044210497 0.76099998 1.1242817e-38
-0.015200025 0.044152401 0.76000005 1.2993826e-38
-0.013716187 0.044036195 0.75800002 1.4113107e-38
-0.012272396 0.044036191 0.75800002 1.5119737e-38
-0.010828577 0.044036202 0.75800002 1.467099e-38
-0.0093600042 0.043920022 0.75600004 1.4203582e-38
-0.0079095056 0.043861903 0.75500005 1.4014551e-38
-0.0064542927 0.043745715 0.75300002 1.374444e-38
-0.0050199968 0.043745726 0.75300002 1.5577216e-38
-0.003585729 0.043745738 0.75299996 1.733392e-38
-0.0021428878 0.043571446 0.75 1.7154187e-38
-0.00071431353 0.043571435 0.75000006 1.6872581e-38
0.00071617187 0.043687627 0.75200003 1.5127706e-38
0.0021485507 0.043687642 0.75199997 1.3369531e-38
0.0035809341 0.043687627 0.75200003 9.4087397e-39
0.0050133322 0.043687616 0.75200003 5.3514537e-39
0.0064457101 0.043687627 0.75200003 3.4921213e-39
0.0078885695 0.043745734 0.75300002 1.566775e-39
0.0093228519 0.04374573 0.75299996 8.2955047e-40
0.010785701 0.043861918 0.75500005 1.1107813e-40
0.012223813 0.043861903 0.75500005 9.5135246e-39
0.013625725 0.043745726 0.75300002 1.8797532e-38
0.015099995 0.043861918 0.75500005 1.8792164e-38
0.016538106 0.043861914 0.75500005 1.8786781e-38
0.017976196 0.043861911 0.75500005 1.7853359e-38
0.019414289 0.043861918 0.75500005 1.6959042e-38
0.020852378 0.043861914 0.755 1.7045142e-38
0.022290478 0.043861911 0.75500005 1.7041161e-38
0.023760006 0.043920003 0.75600004 1.7584606e-38
0.025200019 0.043920018 0.75600004 1.8139191e-38
0.02671046 0.044036191 0.75800002 1.6857064e-38
0.028154267 0.044036202 0.75800002 1.5580369e-38
0.029715233 0.044210497 0.76100004 1.7151292e-38
0.031246666 0.044326678 0.76300001 1.8716093e-38
0.032700006 0.044326685 0.76300001 1.7979985e-38
0.034242854 0.044442866 0.76500005 1.7243147e-38
0.035606656 0.044326693 0.76299995 1.6782893e-38
-0.024137149 0.046080008 0.76800001 1.0315789e-38
-0.022674304 0.046080004 0.76800001 1.0503078e-38
-0.02121144 0.04607999 0.76800001 1.0778252e-38
-0.019671425 0.045900002 0.76499999 1.0966255e-38
-0.018166685 0.045780018 0.76299995 1.1168626e-38
-0.016713344 0.045780018 0.76300001 1.1899768e-38
-0.015220018 0.045660015 0.76100004 1.2551977e-38
-0.013752409 0.045600016 0.76000005 1.3100512e-38
-0.012272387 0.045479998 0.75800002 1.3751593e-38
-0.010828569 0.045480009 0.75800002 1.4022418e-38
-0.0093600024 0.045360014 0.75600004 1.4384385e-38
-0.0079095131 0.045300022 0.75500005 1.4477301e-38
-0.0064714374 0.045300014 0.75500005 1.4658133e-38
-0.0050200112 0.045180008 0.75299996 1.5216708e-38
-0.0035857225 0.045180012 0.75300002 1.569418e-38
-0.002148594 0.045120016 0.75200003 1.5870315e-38
-0.00071619573 0.045120001 0.75200003 1.5958901e-38
0.00071618118 0.045120012 0.75199997 1.3739042e-38
0.0021485656 0.045120016 0.75200003 1.142087e-38
0.0035809434 0.045120016 0.75199997 8.478143e-39
0.0050199828 0.045180015 0.75299996 5.4346334e-39
0.0064542838 0.045180008 0.75300002 3.1329811e-39
0.0079095233 0.045300018 0.75500005 8.4173897e-40
0.0093476344 0.045300014 0.75500005 4.3260872e-39
0.010785713 0.045300014 0.75500005 7.7251749e-39
0.012223803 0.045300007 0.75500005 1.4199675e-38
0.013661915 0.045300007 0.75500005 2.0552102e-38
0.015100007 0.045300018 0.75500005 1.934173e-38
0.016538097 0.045300014 0.75500005 1.8136406e-38
0.017976174 0.045300011 0.75500005 1.8149337e-38
0.019414285 0.045300011 0.75500005 1.8168694e-38
0.020852378 0.045300018 0.75500005 1.7975321e-38
0.022320008 0.045360014 0.75600004 1.7785165e-38
0.02376 0.045360025 0.75600004 1.8053109e-38
0.025266664 0.045480009 0.75800002 1.8325719e-38
0.026780929 0.045600016 0.76000005 1.6577948e-38
0.028228559 0.045600023 0.76000005 1.4929256e-38
0.029715225 0.045660019 0.76100004 1.6872191e-38
0.031246668 0.045780025 0.76300001 1.8902994e-38
0.032785717 0.045900006 0.76499999 1.7611932e-38
0.034242868 0.045899998 0.76500005 1.6322643e-38
0.035700016 0.045900002 0.76500005 1.7975675e-38
0.037157148 0.045900017 0.76500005 1.9722352e-38
-0.024200013 0.047666673 0.77000004 1.2350951e-38
-0.022733359 0.04766668 0.77000004 1.2639384e-38
-0.021266704 0.047666676 0.76999998 1.2908456e-38
-0.01967144 0.047357153 0.76499999 1.2916729e-38
-0.018214289 0.047357157 0.76500005 1.2909583e-38
-0.016713338 0.047233354 0.76300001 1.2544062e-38
-0.015220012 0.047109541 0.76100004 1.208203e-38
-0.013752392 0.047047637 0.75999999 1.2168143e-38
-0.012304792 0.047047649 0.75999999 1.2271819e-38
-0.010828586 0.046923812 0.75800002 1.337385e-38
-0.0093847681 0.046923824 0.75800002 1.4480543e-38
-0.0079199914 0.046800014 0.75600004 1.5035148e-38
-0.0064800088 0.046800006 0.75600004 1.5580072e-38
-0.0050333464 0.046738099 0.75500005 1.4845039e-38
-0.0035952211 0.046738103 0.75500005 1.4023548e-38
-0.0021485996 0.046552397 0.75199997 1.45821e-38
-0.00071620039 0.046552382 0.75200003 1.5030131e-38
0.00071712834 0.046614293 0.75299996 1.2264639e-38
0.0021514313 0.046614293 0.75300002 9.4969794e-39
0.0035856997 0.046614304 0.75300002 7.5569154e-39
0.0050333333 0.04673811 0.75500005 5.5243123e-39
0.0064714425 0.046738099 0.75500005 2.8556781e-39
0.0079095215 0.046738107 0.75500005 1.0459712e-40
0.009347613 0.046738118 0.75500005 7.7237539e-39
0.010785704 0.04673811 0.755 1.5386686e-38
0.012223816 0.046738099 0.75500005 1.8915227e-38
0.013661906 0.046738107 0.75500005 2.2296975e-38
0.015099998 0.046738122 0.75500005 1.9885912e-38
0.016538108 0.046738103 0.75500005 1.7413553e-38
0.017976185 0.046738099 0.75500005 1.8347e-38
0.019414278 0.04673811 0.75500005 1.9268577e-38
0.020852389 0.04673811 0.75500005 1.8901945e-38
0.022320008 0.046800002 0.75600004 1.8526678e-38
0.023760002 0.046800014 0.75600004 1.8517317e-38
0.025266659 0.046923816 0.75800002 1.8418639e-38
0.026780931 0.047047641 0.76000005 1.6291688e-38
0.028228547 0.04704763 0.76000005 1.4195289e-38
0.029793333 0.047233347 0.76300001 1.6689232e-38
0.031246675 0.047233339 0.76300001 1.9081635e-38
0.032785714 0.047357157 0.76499999 1.7242072e-38
0.034242865 0.047357146 0.76500005 1.5404292e-38
0.035700005 0.047357146 0.76500005 1.925816e-38
0.037254278 0.047480952 0.76700002 2.303813e-38
-0.024200022 0.049133349 0.76999998 1.1171513e-38
-0.022733347 0.049133349 0.77000004 1.1440554e-38
-0.021266697 0.049133345 0.77000004 1.1718232e-38
-0.019722866 0.04894191 0.76700002 1.1988735e-38
-0.018214276 0.048814289 0.76500005 1.2345683e-38
-0.016713332 0.048686668 0.76300001 1.2447214e-38
-0.015220034 0.048559062 0.76099998 1.2533667e-38
-0.013752404 0.048495263 0.75999999 1.2724153e-38
-0.012304803 0.048495267 0.75999999 1.2915383e-38
-0.010828578 0.048367623 0.75800002 1.2455872e-38
-0.0093847588 0.048367631 0.75800002 1.2006025e-38
-0.0079199886 0.048240002 0.75600004 1.1811954e-38
-0.0064800074 0.048240013 0.75600004 1.1628991e-38
-0.0050333347 0.048176192 0.75500005 1.0699146e-38
-0.003595229 0.048176199 0.75500005 9.8708459e-39
-0.0021514373 0.048048582 0.75300002 1.1254848e-38
-0.00071714103 0.048048582 0.75300002 1.2631278e-38
0.00071714789 0.048048578 0.75300002 1.1065741e-38
0.0021514304 0.048048574 0.75300002 9.4083641e-39
0.0035856979 0.048048589 0.75299996 7.4632834e-39
0.0050333315 0.048176199 0.75500005 5.423147e-39
0.006471423 0.048176195 0.75500005 6.5373446e-39
0.0079095149 0.048176207 0.755 7.7313027e-39
0.009347626 0.048176207 0.75500005 1.355219e-38
0.010785718 0.048176203 0.75500005 1.9376928e-38
0.012223808 0.048176199 0.75500005 2.0566844e-38
0.01366192 0.048176199 0.75500005 2.1752418e-38
0.015099999 0.048176207 0.75500005 2.0356552e-38
0.016538089 0.048176207 0.75500005 1.8977977e-38
0.01797618 0.048176199 0.755 1.9538351e-38
0.019414291 0.048176199 0.75500005 2.01873e-38
0.020852381 0.04817621 0.75500005 2.0096543e-38
0.02232001 0.048240006 0.75600004 2.000431e-38
0.023760008 0.048240006 0.75600004 1.9165914e-38
0.025266653 0.048367623 0.75800002 1.833578e-38
0.02678092 0.048495267 0.75999999 1.6395729e-38
0.028265702 0.04855907 0.76100004 1.4472232e-38
0.02979332 0.048686691 0.76299995 1.6688866e-38
0.031328589 0.048814286 0.76500005 1.8900468e-38
0.032871429 0.048941899 0.76700002 1.76112e-38
0.034332365 0.048941914 0.76700002 1.6232968e-38
0.035793327 0.048941903 0.76700002 1.8532818e-38
0.037254281 0.048941903 0.76700002 2.084629e-38
-0.024200013 0.050600003 0.76999998 9.9611526e-39
-0.022733359 0.050600022 0.76999998 1.0232724e-38
-0.021266686 0.050600018 0.77000004 1.0516493e-38
-0.019800005 0.050600015 0.77000004 1.1157916e-38
-0.018214291 0.050271433 0.76500005 1.1711806e-38
-0.016713347 0.050140023 0.76300001 1.2365065e-38
-0.015260004 0.050140016 0.76300001 1.3001096e-38
-0.013806663 0.05014002 0.76300001 1.3279471e-38
-0.012304767 0.04994287 0.76000005 1.3459559e-38
-0.010828569 0.04981143 0.75800002 1.1436313e-38
-0.0093847783 0.049811438 0.75800002 9.411262e-39
-0.0079409583 0.04981143 0.75800002 8.4853681e-39
-0.0064799772 0.049680006 0.75600004 7.5680837e-39
-0.0050399946 0.049680013 0.75600004 6.6357326e-39
-0.0035999853 0.049680009 0.75600004 5.6348804e-39
-0.0021571398 0.049614288 0.75500005 7.9354411e-39
-0.00071715593 0.049482882 0.75299996 1.0233475e-38
0.00071714603 0.049482867 0.75300002 9.7742936e-39
0.0021514145 0.049482867 0.75299996 9.3107987e-39
0.0035952327 0.049614288 0.75500005 7.3732738e-39
0.005033324 0.049614299 0.75500005 5.3561285e-39
0.0064714341 0.049614288 0.75500005 1.0322427e-38
0.0079095261 0.049614299 0.75500005 1.530168e-38
0.0093476176 0.049614295 0.75500005 1.9376569e-38
0.010785729 0.049614292 0.75500005 2.3324052e-38
0.012223807 0.049614288 0.75500005 2.2222377e-38
0.013661899 0.049614299 0.75500005 2.1102025e-38
0.015099989 0.049614295 0.755 2.0810344e-38
0.0165381 0.049614295 0.75500005 2.0448776e-38
0.01800002 0.049680013 0.75600004 2.0824404e-38
0.019440016 0.049680006 0.75600004 2.1106371e-38
0.020880012 0.049679998 0.75600004 2.1292917e-38
0.022320008 0.049680013 0.75600004 2.1468634e-38
0.023822844 0.049811434 0.75800002 1.9897326e-38
0.025266664 0.049811434 0.75800002 1.8235671e-38
0.026780924 0.049942873 0.75999999 1.6482541e-38
0.028265694 0.050008595 0.76099998 1.4749176e-38
0.029793322 0.050140023 0.76300001 1.6784655e-38
0.031328589 0.050271433 0.76500005 1.8715008e-38
0.032871421 0.050402854 0.76700002 1.7885991e-38
0.034332361 0.050402865 0.76700002 1.7058764e-38
0.035839994 0.050468571 0.76800007 1.7885295e-38
0.037302855 0.050468571 0.76800001 1.8631826e-38
-0.022733349 0.052066673 0.76999998 9.867557e-39
-0.021266697 0.052066684 0.76999998 1.0242435e-38
-0.01974857 0.051931422 0.76800007 9.780748e-39
-0.018261923 0.051863808 0.76700008 9.417715e-39
-0.016757147 0.05172858 0.76499999 9.2304595e-39
-0.015299995 0.051728584 0.76500005 9.1425686e-39
-0.013806677 0.051593363 0.76299995 9.2279456e-39
-0.012320965 0.051458117 0.76100004 9.4105249e-39
-0.010871431 0.051458124 0.76100004 8.6682922e-39
-0.0093847681 0.051255245 0.75800002 7.9206784e-39
-0.0079409489 0.051255241 0.75800002 7.6534074e-39
-0.0064971591 0.051255245 0.75800002 7.4708112e-39
-0.0050399932 0.051120006 0.75600004 5.9960608e-39
-0.0035999834 0.051119998 0.75600004 4.5252664e-39
-0.0021571482 0.051052403 0.755 6.3609085e-39
-0.00071905024 0.051052388 0.75500005 8.2962867e-39
0.00071904127 0.051052388 0.75500005 1.0138036e-38
0.0021571319 0.051052395 0.75500005 1.2064797e-38
0.0035952448 0.051052395 0.75500005 1.1892974e-38
0.0050333352 0.051052392 0.75500005 1.1805124e-38
0.0064714276 0.051052388 0.75500005 1.3468605e-38
0.0079095401 0.051052392 0.75500005 1.5143168e-38
0.0093476307 0.051052399 0.75500005 1.5500466e-38
0.010785709 0.051052392 0.75500005 1.5881781e-38
0.0122238 0.051052388 0.755 1.7887796e-38
0.013661912 0.051052392 0.75500005 1.9989584e-38
0.015100003 0.051052399 0.75500005 2.0261837e-38
0.016538093 0.051052399 0.75500005 2.0539891e-38
0.017976204 0.05105238 0.75500005 2.0827988e-38
0.019439997 0.051120009 0.75600004 2.1110676e-38
0.020880012 0.051120006 0.75600004 2.0461376e-38
0.022320008 0.051120017 0.75600004 1.9903822e-38
0.023822855 0.051255241 0.75800002 1.906538e-38
0.025333323 0.051390499 0.76000005 1.8318156e-38
0.026816187 0.051458117 0.76100004 1.6298867e-38
0.028340003 0.051593348 0.76300001 1.4287489e-38
0.02979333 0.051593352 0.76300001 1.6599196e-38
0.031328585 0.051728565 0.76500005 1.8993389e-38
0.032785717 0.051728584 0.76500005 1.7978188e-38
0.034332372 0.051863801 0.76700002 1.6965131e-38
0.035793327 0.051863812 0.76700002 1.7150598e-38
0.037302848 0.051931437 0.76800001 1.7336793e-38
0.038765714 0.051931422 0.76800001 1.8539634e-38
-0.021266686 0.053533349 0.77000004 9.957917e-39
-0.019800033 0.053533353 0.76999998 8.4878288e-39
-0.0182619 0.053324759 0.76700002 7.0145148e-39
-0.016757162 0.053185724 0.76499999 6.0879089e-39
-0.01530001 0.053185716 0.76500005 5.1731399e-39
-0.013806671 0.053046677 0.76300001 5.2631817e-39
-0.01235333 0.053046681 0.76300001 5.3571668e-39
-0.010899988 0.053046688 0.76300001 5.9053085e-39
-0.0094219204 0.052907638 0.76099998 6.3637602e-39
-0.0079723885 0.052907635 0.76100004 6.919787e-39
-0.0065143052 0.052838113 0.76000005 7.3753743e-39
-0.0050533302 0.052699052 0.75800002 5.3528396e-39
-0.0036095392 0.052699059 0.75800002 3.3235198e-39
-0.0021571352 0.052490491 0.75500005 4.8707607e-39
-0.00071905862 0.052490491 0.75500005 6.368128e-39
0.00071905338 0.052490477 0.75500005 1.0600831e-38
0.0021571459 0.052490488 0.75500005 1.4752448e-38
0.0035952365 0.052490495 0.75500005 1.6512755e-38
0.0050333277 0.052490491 0.755 1.8252983e-38
0.0064714397 0.05249048 0.75500005 1.6602832e-38
0.0079095308 0.052490491 0.75500005 1.4838536e-38
0.0093476092 0.052490503 0.75500005 1.1599492e-38
0.01078572 0.052490484 0.75500005 8.306355e-39
0.012223812 0.05249048 0.75500005 1.3548897e-38
0.013661903 0.052490488 0.75500005 1.8792469e-38
0.015100014 0.052490491 0.75500005 1.9707218e-38
0.01656002 0.052560009 0.75600004 2.063279e-38
0.018000001 0.052560005 0.75600004 2.0836235e-38
0.019440012 0.052560013 0.75600004 2.1009487e-38
0.020879993 0.052560009 0.75600004 1.9721624e-38
0.022379046 0.052699056 0.75800002 1.8334717e-38
0.023885693 0.052838109 0.76000005 1.8325342e-38
0.025366645 0.052907649 0.76099998 1.8322098e-38
0.026816161 0.052907638 0.76099998 1.6106551e-38
0.028340008 0.053046677 0.76300001 1.3830814e-38
0.029871432 0.053185713 0.76500005 1.6514553e-38
0.031410467 0.053324763 0.76700002 1.9175992e-38
0.0329143 0.053394277 0.76800001 1.8067872e-38
0.034377143 0.053394288 0.76800001 1.6874014e-38
0.035933312 0.053533349 0.76999998 1.6414484e-38
0.037400004 0.053533349 0.77000004 1.59571e-38
0.038866654 0.053533342 0.77000004 1.6048577e-38
-0.021266678 0.055000011 0.77000004 7.4675545e-39
-0.019800024 0.055000003 0.77000004 6.9143794e-39
-0.018261908 0.054785721 0.76700002 6.4516118e-39
-0.016757149 0.054642875 0.76499999 5.3470705e-39
-0.015299998 0.05464286 0.76500005 4.331499e-39
-0.013806666 0.054500021 0.76300001 4.5212685e-39
-0.012353344 0.054500021 0.76299995 4.7071045e-39
-0.010900002 0.054500014 0.76299995 4.6149215e-39
-0.0094219223 0.054357149 0.76100004 4.4341189e-39
-0.007972409 0.054357156 0.76099998 6.083209e-39
-0.0065143174 0.054285739 0.75999999 7.8291582e-39
-0.0050533498 0.05414287 0.75800002 8.0139026e-39
-0.0036095304 0.054142866 0.75800002 8.1882956e-39
-0.0021571231 0.053928588 0.75500005 1.041392e-38
-0.00071904558 0.053928576 0.75500005 1.2725254e-38
0.00071904593 0.05392858 0.75500005 1.4942958e-38
0.0021571375 0.053928588 0.755 1.716818e-38
0.0035952495 0.053928588 0.75500005 1.6608562e-38
0.0050333389 0.05392858 0.75500005 1.6152968e-38
0.0064714155 0.053928576 0.75500005 1.3828017e-38
0.007909528 0.053928576 0.75500005 1.1509072e-38
0.0093476204 0.053928591 0.75500005 9.9334195e-39
0.010785712 0.053928584 0.75500005 8.4494136e-39
0.012223803 0.05392858 0.755 1.4094138e-38
0.013661915 0.05392858 0.75500005 1.9811603e-38
0.015120007 0.054000016 0.75600004 2.0263234e-38
0.016560001 0.054000013 0.75600004 2.0713494e-38
0.01800002 0.054000009 0.75600004 2.0723589e-38
0.019440016 0.05400002 0.75600004 2.0624901e-38
0.020935236 0.05414287 0.75800008 1.9527502e-38
0.022379041 0.054142863 0.75800002 1.8326813e-38
0.023917126 0.054357156 0.76100004 1.7502435e-38
0.025366655 0.05435716 0.76100004 1.6680893e-38
0.026886674 0.054500017 0.76300001 1.6215212e-38
0.028339991 0.054500017 0.76299995 1.5853698e-38
0.029871428 0.054642852 0.76500005 1.7708073e-38
0.031410456 0.05478571 0.76700002 1.9638406e-38
0.032914285 0.054857142 0.76800001 1.8163652e-38
0.034377124 0.054857142 0.76800001 1.6691062e-38
0.035933323 0.055000018 0.77000004 1.6599592e-38
0.037399989 0.055000015 0.76999998 1.6600299e-38
0.038866643 0.055000011 0.76999998 1.6600286e-38
-0.019800035 0.056466684 0.76999998 5.3427545e-39
-0.018261917 0.056246672 0.76700002 5.8030068e-39
-0.016757136 0.056100007 0.76499999 4.6084278e-39
-0.015299984 0.056099996 0.76500005 3.413486e-39
-0.01380668 0.055953361 0.76299995 3.7833349e-39
-0.012353338 0.055953354 0.76300001 4.0602917e-39
-0.010899997 0.055953357 0.76300001 3.3209597e-39
-0.0094219157 0.055806693 0.76100004 2.4998408e-39
-0.0079723829 0.055806685 0.76100004 5.3327716e-39
-0.0065143285 0.055733364 0.75999999 8.2044372e-39
-0.0050533405 0.055586677 0.75800002 1.0593608e-38
-0.0036095202 0.055586677 0.75800002 1.3000738e-38
-0.0021599878 0.055440009 0.75600004 1.6055024e-38
-0.00072000577 0.05544002 0.75600004 1.899018e-38
0.00071905897 0.055366669 0.75500005 1.9276812e-38
0.0021571505 0.05536668 0.75500005 1.9543683e-38
0.0035952271 0.055366687 0.75500005 1.6783212e-38
0.005033338 0.055366673 0.75500005 1.391619e-38
0.0064714295 0.055366665 0.75500005 1.1046657e-38
0.0079095224 0.05536668 0.75500005 8.0992445e-39
0.0093476139 0.055366691 0.755 8.3588995e-39
0.010800001 0.055440016 0.75600004 8.6502883e-39
0.012239997 0.055440009 0.75600004 1.4749915e-38
0.013680013 0.055440016 0.75600004 2.0730336e-38
0.015120008 0.055440009 0.75600004 2.082109e-38
0.016560005 0.055440016 0.75600004 2.0813577e-38
0.018000001 0.055440009 0.75600004 2.0535223e-38
0.019440016 0.055440009 0.75600004 2.0259699e-38
0.020935247 0.055586681 0.75800002 1.9344914e-38
0.022438055 0.055733368 0.75999999 1.8335407e-38
0.023917118 0.055806696 0.76099998 1.6676235e-38
0.025366649 0.055806689 0.76099998 1.4941747e-38
0.026886659 0.055953357 0.76299995 1.6402847e-38
0.028340003 0.055953365 0.76300001 1.7798391e-38
0.029949509 0.056246676 0.76700002 1.8917711e-38
0.031410467 0.056246676 0.76700002 2.0011848e-38
0.032914277 0.056320004 0.76800001 1.8256575e-38
0.034466647 0.056466676 0.76999998 1.6508476e-38
0.035933319 0.056466676 0.77000004 1.6875822e-38
0.037399985 0.056466684 0.77000004 1.7152756e-38
0.038866654 0.056466684 0.76999998 1.7245302e-38
-0.019800024 0.057933353 0.76999998 4.6959403e-39
-0.018285701 0.057782859 0.76800007 5.432062e-39
-0.016757151 0.057557154 0.76500005 5.5260527e-39
-0.015299999 0.057557143 0.76500005 5.6142925e-39
-0.013806674 0.057406694 0.76300001 6.9114591e-39
-0.012353332 0.057406683 0.76300001 8.2868587e-39
-0.010899991 0.057406675 0.76300001 8.9408461e-39
-0.0094219372 0.057256218 0.76099998 9.49262e-39
-0.0079724053 0.057256211 0.76099998 1.1523089e-38
-0.0065142913 0.05718096 0.76000005 1.356215e-38
-0.0050666919 0.057180967 0.76000005 1.4482684e-38
-0.0036095397 0.05703048 0.75800002 1.5420438e-38
-0.0021599859 0.056880016 0.75600004 1.5409701e-38
-0.00072000391 0.056880008 0.75600004 1.5505117e-38
0.00072000612 0.05688002 0.75600004 1.5584029e-38
0.0021600022 0.056880012 0.75600004 1.5762621e-38
0.0036000179 0.056880012 0.75600004 1.4372116e-38
0.0050400137 0.056880012 0.75600004 1.3058738e-38
0.0064714202 0.056804769 0.755 1.0947179e-38
0.0079200035 0.056880012 0.75600004 8.8295466e-39
0.0093600219 0.056880012 0.75600004 9.2868954e-39
0.010800002 0.056880005 0.75600004 9.7469192e-39
0.012240013 0.05688002 0.75600004 1.3547099e-38
0.013679995 0.056880012 0.75600004 1.7345358e-38
0.015120025 0.056880012 0.75600004 1.6962589e-38
0.016560005 0.056880005 0.75600004 1.6683847e-38
0.018000001 0.056880016 0.75600004 1.5292317e-38
0.019491434 0.057030477 0.75800008 1.3920886e-38
0.020935241 0.057030484 0.75800008 1.52134e-38
0.022438079 0.057180963 0.76000005 1.66063e-38
0.023917131 0.057256211 0.76100004 1.6791349e-38
0.025433322 0.057406683 0.76299995 1.6986152e-38
0.026886666 0.05740669 0.76300001 1.7898061e-38
0.028414279 0.057557147 0.76500005 1.8825806e-38
0.029949499 0.057707623 0.76700002 1.8642197e-38
0.031451415 0.05778287 0.76800001 1.8550375e-38
0.032914292 0.057782855 0.76800001 1.7248906e-38
0.034466658 0.057933345 0.76999998 1.6047513e-38
0.036026657 0.058083825 0.77199996 1.6508484e-38
0.037497137 0.058083821 0.77199996 1.7063083e-38
0.038967613 0.058083832 0.77199996 1.7061288e-38
-0.019800015 0.059400007 0.77000004 4.0412327e-39
-0.018261911 0.05916857 0.76700002 4.9800564e-39
-0.016757138 0.059014302 0.76500005 6.3572497e-39
-0.015299986 0.059014291 0.76500005 7.7480763e-39
-0.013806668 0.058860008 0.76300001 1.0145507e-38
-0.012353327 0.058860015 0.76300001 1.2539001e-38
-0.010900005 0.05886003 0.76299995 1.4570533e-38
-0.0094219111 0.058705732 0.76100004 1.6501608e-38
-0.0079723774 0.058705721 0.76100004 1.7705175e-38
-0.0065143034 0.058628585 0.76000005 1.8899029e-38
-0.0050666751 0.058628593 0.76000005 1.8354468e-38
-0.0036095309 0.058474287 0.75800002 1.7698341e-38
-0.0021600036 0.058320016 0.75600004 1.4841392e-38
-0.00071997318 0.058320001 0.75600004 1.1889014e-38
0.00072000799 0.058320008 0.75600004 1.1882549e-38
0.0021600041 0.058320019 0.75600004 1.1890055e-38
0.0035999992 0.058320016 0.75600004 1.2067601e-38
0.0050400156 0.058320001 0.75600004 1.214791e-38
0.006471436 0.058242857 0.75500005 1.0853914e-38
0.0079200091 0.058320019 0.75600004 9.5682004e-39
0.0093476241 0.058242872 0.75500005 1.0212827e-38
0.01080002 0.058320001 0.75600004 1.0859675e-38
0.012240016 0.058320008 0.75600004 1.2437075e-38
0.013680011 0.058320019 0.75600004 1.3915795e-38
0.015120007 0.058320016 0.75600004 1.3183288e-38
0.016560001 0.058320008 0.75600004 1.2432066e-38
0.01800002 0.058320008 0.75600004 1.0028883e-38
0.01949141 0.058474299 0.75800002 7.5619264e-39
0.020935236 0.058474291 0.75800008 1.1165081e-38
0.022438068 0.058628589 0.76000005 1.4771763e-38
0.023917122 0.058705732 0.76100004 1.6897239e-38
0.02543333 0.058860015 0.76300001 1.8916901e-38
0.026886674 0.058860015 0.76300001 1.9376795e-38
0.02841429 0.059014294 0.76500005 1.9744165e-38
0.02994951 0.059168573 0.76700002 1.8366661e-38
0.031451434 0.059245709 0.76800001 1.6978725e-38
0.032914273 0.059245706 0.76800001 1.6232201e-38
0.034466665 0.059400011 0.77000004 1.5495748e-38
0.03602666 0.059554297 0.77200001 1.6231174e-38
0.037497137 0.059554305 0.77199996 1.6966578e-38
0.038967602 0.059554305 0.77199996 1.6874746e-38
-0.018285738 0.060708586 0.76800001 1.0334133e-38
-0.016757153 0.06047143 0.76500005 1.1162484e-38
-0.015300001 0.060471434 0.76500005 1.2089859e-38
-0.01384287 0.060471438 0.76499999 1.3101895e-38
-0.012353341 0.060313355 0.76300001 1.4213651e-38
-0.010899999 0.060313344 0.76300001 1.4672153e-38
-0.0094466582 0.060313351 0.76300001 1.5237868e-38
-0.0079723997 0.060155261 0.76100004 1.5040201e-38
-0.0065143146 0.060076207 0.75999999 1.4862232e-38
-0.0050666863 0.060076214 0.75999999 1.3832989e-38
-0.0036095211 0.059918098 0.75800002 1.2901683e-38
-0.0021600018 0.059760008 0.75600004 1.1874955e-38
-0.00071999273 0.059760015 0.75600004 1.0837132e-38
0.00072000892 0.059760019 0.75600004 1.15058e-38
0.002160006 0.059760012 0.75600004 1.2254837e-38
0.0036000011 0.059760008 0.75600004 1.2435282e-38
0.0050399979 0.059760015 0.75600004 1.2611385e-38
0.0064800135 0.059760012 0.75600004 1.1593985e-38
0.00792001 0.059760012 0.75600004 1.0489092e-38
0.0093600051 0.059760008 0.75600004 1.0948629e-38
0.010800001 0.059760015 0.75600004 1.1317744e-38
0.012239996 0.059760023 0.75600004 1.2150339e-38
0.013680012 0.059760008 0.75600004 1.2972247e-38
0.01512001 0.059760008 0.75600004 1.2425232e-38
0.016560005 0.059760015 0.75600004 1.1851913e-38
0.018047601 0.059918109 0.75800002 1.0019442e-38
0.019491406 0.059918102 0.75800002 8.1738552e-39
0.020990444 0.060076207 0.75999999 1.1621722e-38
0.022438072 0.060076214 0.75999999 1.5152399e-38
0.023917112 0.060155258 0.76099998 1.6713633e-38
0.025433337 0.060313344 0.76300001 1.8274822e-38
0.026886655 0.060313359 0.76299995 1.8550315e-38
0.028414289 0.060471442 0.76500005 1.8825816e-38
0.029949522 0.060629528 0.76700002 1.8361968e-38
0.031451426 0.060708575 0.76800001 1.7980262e-38
0.032914273 0.060708571 0.76800001 1.7240899e-38
0.034466639 0.06086668 0.76999998 1.6594153e-38
0.036026664 0.061024785 0.77200001 1.6316541e-38
0.037497129 0.061024781 0.77200001 1.5952436e-38
0.038967617 0.061024778 0.77199996 1.6042485e-38
-0.018285707 0.062171422 0.76800001 1.5581388e-38
-0.016800966 0.062090471 0.76700002 1.5960949e-38
-0.015299988 0.061928567 0.76500005 1.6317917e-38
-0.013842858 0.061928581 0.76499999 1.6142528e-38
-0.012385707 0.06192857 0.76500005 1.5858065e-38
-0.010899994 0.061766692 0.76300001 1.4849679e-38
-0.0094466722 0.061766692 0.76299995 1.3828329e-38
-0.0079723941 0.06160479 0.76099998 1.2263141e-38
-0.0065143257 0.061523832 0.75999999 1.0696171e-38
-0.0050666984 0.06152384 0.75999999 9.3964573e-39
-0.0036095397 0.06136192 0.75800002 8.1082268e-39
-0.0021599999 0.061200012 0.75600004 9.0118513e-39
-0.00071999087 0.061200008 0.75600004 9.8434169e-39
0.00072000612 0.061200023 0.75600004 1.1232453e-38
0.0021600218 0.061200004 0.75600004 1.2526767e-38
0.0036000179 0.061200012 0.75600004 1.2806945e-38
0.0050400137 0.061200004 0.75600004 1.307488e-38
0.0064800088 0.061200023 0.75600004 1.2237203e-38
0.0079200072 0.061200015 0.75600004 1.1407814e-38
0.0093600079 0.061200012 0.75600004 1.1591485e-38
0.010800004 0.061200004 0.75600004 1.1779088e-38
0.012239999 0.061200015 0.75600004 1.1965973e-38
0.013679997 0.061200015 0.75600004 1.2058199e-38
0.015120013 0.061200012 0.75600004 1.1692681e-38
0.016603805 0.061361924 0.75800002 1.1223051e-38
0.01804761 0.061361916 0.75800002 1.0022684e-38
0.019542838 0.061523829 0.76000005 8.7456915e-39
0.020990467 0.061523832 0.76000005 1.2178857e-38
0.022467608 0.061604779 0.76100004 1.5511141e-38
0.023979999 0.061766684 0.76300001 1.6529961e-38
0.025433321 0.061766684 0.76299995 1.754013e-38
0.026886662 0.061766692 0.76300001 1.772378e-38
0.028488554 0.06209049 0.76700002 1.781561e-38
0.02994951 0.062090475 0.76700002 1.8366617e-38
0.031451423 0.062171441 0.76800001 1.8905077e-38
0.032999985 0.062333353 0.77000004 1.8340435e-38
0.03446665 0.062333349 0.76999998 1.769722e-38
0.036026657 0.062495254 0.77200001 1.6304612e-38
0.037497133 0.062495254 0.77200001 1.4937849e-38
0.038967606 0.062495258 0.77199996 1.5203316e-38
-0.018285723 0.063634284 0.76800001 1.1533887e-38
-0.016800974 0.063551426 0.76700002 1.1436316e-38
-0.015340035 0.063551426 0.76700002 1.1435609e-38
-0.013842872 0.063385718 0.76499999 1.1524583e-38
-0.012385722 0.063385718 0.76500005 1.1522051e-38
-0.010900008 0.063220017 0.76299995 1.1330825e-38
-0.0094466656 0.063220024 0.76300001 1.1033723e-38
-0.007972395 0.063054301 0.76100004 1.0771777e-38
-0.006514289 0.062971443 0.76000005 1.0579124e-38
-0.0050666891 0.06297145 0.76000005 9.9423597e-39
-0.0036095299 0.062805727 0.75800002 9.2955568e-39
-0.0021599701 0.062640011 0.75600004 9.8476362e-39
-0.00071998808 0.062640011 0.75600004 1.040373e-38
0.00072000799 0.062640011 0.75600004 1.1417565e-38
0.0021600032 0.062640019 0.75600004 1.2342749e-38
0.0036000002 0.062640011 0.75600004 1.3081749e-38
0.0050400146 0.062640011 0.75600004 1.3816752e-38
0.0064800126 0.062640011 0.75600004 1.2423395e-38
0.0079200082 0.062640019 0.75600004 1.1037969e-38
0.0093600042 0.062640011 0.75600004 1.1225942e-38
0.01080002 0.062640011 0.75600004 1.1414989e-38
0.012240015 0.062640011 0.75600004 1.1505741e-38
0.013680011 0.062640019 0.75600004 1.1694085e-38
0.015159996 0.06280572 0.75800002 1.1324601e-38
0.0166038 0.062805727 0.75800002 1.1048703e-38
0.018047603 0.062805742 0.75800002 9.7540056e-39
0.019542841 0.06297145 0.76000005 8.3719105e-39
0.021018069 0.063054316 0.76099998 1.227215e-38
0.022467602 0.063054323 0.76099998 1.616261e-38
0.023979984 0.063220024 0.76300001 1.6254453e-38
0.025433326 0.063220017 0.76300001 1.634626e-38
0.026957138 0.063385725 0.76499999 1.7262793e-38
0.028488565 0.063551426 0.76700002 1.8182936e-38
0.029949507 0.063551441 0.76700002 1.9650864e-38
0.031451426 0.063634291 0.76800001 2.1208501e-38
0.03291427 0.063634291 0.76800001 2.0834721e-38
0.034466662 0.063800015 0.77000004 2.0559511e-38
0.036026675 0.063965723 0.77200001 1.9909782e-38
0.037497137 0.063965738 0.77200001 1.9178691e-38
0.038967609 0.06396573 0.77199996 1.9266584e-38
-0.018285742 0.065097153 0.76800001 7.3778434e-39
-0.016800981 0.065012395 0.76700002 6.9975801e-39
-0.015339993 0.065012388 0.76700002 6.5448752e-39
-0.013842859 0.064842865 0.76499999 6.9061355e-39
-0.012385708 0.064842865 0.76500005 7.1884621e-39
-0.010928557 0.064842865 0.76500005 7.7344571e-39
-0.009446661 0.064673334 0.76300001 8.2875902e-39
-0.0079933396 0.064673349 0.76299995 9.3946062e-39
-0.0065228851 0.064503834 0.76100004 1.0403352e-38
-0.0050733523 0.064503841 0.76100004 1.0406211e-38
-0.0036095211 0.064249553 0.75800002 1.0402957e-38
-0.0021657303 0.064249545 0.75800002 1.0679155e-38
-0.00072191126 0.06424953 0.75800002 1.0955078e-38
0.00072189298 0.064249545 0.75800002 1.159906e-38
0.0021656982 0.06424953 0.75800002 1.215763e-38
0.0036095034 0.06424953 0.75800002 1.3360484e-38
0.0050533223 0.064249545 0.75800002 1.4453507e-38
0.0064800135 0.064080015 0.75600004 1.2600976e-38
0.0079409545 0.06424953 0.75800002 1.0674566e-38
0.0093600051 0.06408 0.75600004 1.0859657e-38
0.0108 0.064080015 0.75600004 1.1043315e-38
0.012240016 0.064080015 0.75600004 1.1131911e-38
0.013716186 0.06424953 0.75800002 1.1228792e-38
0.015159993 0.06424953 0.75800002 1.1045863e-38
0.016647587 0.064419061 0.75999999 1.0865063e-38
0.018095216 0.064419068 0.75999999 9.4803586e-39
0.01954283 0.064419076 0.75999999 8.0282771e-39
0.02101808 0.064503834 0.76100004 1.2467301e-38
0.022526663 0.064673349 0.76300001 1.680004e-38
0.023980005 0.064673342 0.76300001 1.597887e-38
0.025500007 0.064842865 0.76500005 1.5053705e-38
0.026957134 0.06484288 0.76499999 1.6797866e-38
0.028488556 0.065012388 0.76700002 1.845631e-38
0.029988561 0.065097138 0.76800001 2.0937686e-38
0.031451423 0.065097138 0.76800001 2.3415455e-38
0.032999981 0.065266669 0.76999998 2.3413665e-38
0.034556199 0.065436199 0.77200001 2.3412557e-38
0.03602666 0.065436214 0.77200001 2.3413244e-38
0.037545711 0.065520957 0.77300006 2.3412162e-38
-0.018333355 0.066733345 0.76999998 6.1748847e-39
-0.016800961 0.06647335 0.76700002 6.5375436e-39
-0.015340001 0.066473335 0.76700002 6.9931576e-39
-0.013842846 0.066300012 0.76499999 7.3641107e-39
-0.012385695 0.06630002 0.76500005 7.8258287e-39
-0.010928565 0.066300012 0.76499999 8.3800997e-39
-0.0094714137 0.066300005 0.76500005 9.0283362e-39
-0.007993333 0.066126697 0.76300001 9.7648208e-39
-0.0065399925 0.066126689 0.76300001 1.0499139e-38
-0.0050866511 0.066126674 0.76300001 1.040622e-38
-0.0036190839 0.065866694 0.75999999 1.0404026e-38
-0.0021714552 0.065866679 0.75999999 1.0679849e-38
-0.00072382699 0.065866694 0.75999999 1.0955054e-38
0.00072188926 0.065693349 0.75800002 1.1509352e-38
0.0021657085 0.065693349 0.75800002 1.2154389e-38
0.0036095127 0.065693334 0.75800002 1.2711178e-38
0.0050533176 0.065693349 0.75800002 1.3352561e-38
0.0064971424 0.065693349 0.75800008 1.2244404e-38
0.0079409489 0.065693334 0.75800008 1.1230237e-38
0.0093847662 0.065693334 0.75800002 1.1321324e-38
0.010800003 0.065520003 0.75600004 1.1408838e-38
0.012239999 0.065520003 0.75600004 1.1506754e-38
0.013716182 0.065693341 0.75800002 1.1593605e-38
0.015159988 0.065693334 0.75800002 1.1695523e-38
0.01664759 0.065866701 0.75999999 1.1793134e-38
0.018095203 0.065866694 0.75999999 1.1430492e-38
0.01954283 0.065866679 0.75999999 1.0976374e-38
0.021018071 0.065953352 0.76099998 1.265133e-38
0.022526668 0.066126682 0.76300001 1.4233989e-38
0.023980008 0.066126689 0.76300001 1.2106278e-38
0.025500005 0.066300005 0.76500005 9.8979596e-39
0.026957136 0.066300005 0.76499999 1.5417454e-38
0.02848855 0.066473335 0.76700002 2.0937323e-38
0.02994951 0.06647332 0.76700002 2.2223431e-38
0.031451438 0.066559993 0.76800001 2.341764e-38
0.032999992 0.066733345 0.77000004 2.3415475e-38
0.034556188 0.066906676 0.77200001 2.3416552e-38
0.036026664 0.066906668 0.77200001 2.3416195e-38
-0.01838096 0.068377152 0.77200001 4.9756549e-39
-0.016866691 0.068200022 0.76999998 6.1677101e-39
-0.015359993 0.06802287 0.76800001 7.3619401e-39
-0.013933363 0.068200022 0.77000004 7.9154754e-39
-0.012434284 0.068022855 0.76800001 8.3768375e-39
-0.010957149 0.06793429 0.76700002 9.1155012e-39
-0.0094962092 0.067934297 0.76700002 9.7640992e-39
-0.00803525 0.067934282 0.76700008 1.0136831e-38
-0.0065571489 0.067757145 0.76500005 1.0500947e-38
-0.0050999979 0.067757137 0.76500005 1.040732e-38
-0.003623815 0.067402884 0.76100004 1.0313656e-38
-0.0021714664 0.067314327 0.75999999 1.0589128e-38
-0.0007238391 0.067314312 0.75999999 1.0866841e-38
0.00072378916 0.067314312 0.75999999 1.1512616e-38
0.0021714035 0.067314312 0.75999999 1.2160862e-38
0.0036190178 0.067314312 0.75999999 1.216088e-38
0.0050666449 0.067314297 0.75999999 1.2160481e-38
0.0065142591 0.067314304 0.75999999 1.1977845e-38
0.0079618879 0.067314312 0.76000005 1.1695513e-38
0.0094095012 0.067314312 0.76000005 1.1786623e-38
0.010828568 0.067137152 0.75800002 1.1792016e-38
0.012304744 0.067314304 0.76000005 1.1892834e-38
0.013752357 0.067314312 0.76000005 1.1980736e-38
0.015199984 0.067314304 0.76000005 1.2349527e-38
0.016669516 0.067402877 0.76100004 1.2722642e-38
0.018119033 0.067402884 0.76100004 1.3379875e-38
0.019568553 0.067402869 0.76100004 1.3928736e-38
0.021073334 0.067580022 0.76300001 1.283568e-38
0.022526655 0.067580037 0.76299995 1.1634919e-38
0.023979995 0.067580029 0.76299995 8.2229329e-39
0.025500005 0.067757137 0.76500005 4.7426036e-39
0.026957132 0.067757145 0.76499999 1.4127853e-38
0.02852571 0.068022877 0.76800001 2.3414024e-38
0.029988576 0.068022862 0.76800007 2.3417635e-38
0.031451423 0.068022862 0.76800001 2.3415103e-38
0.032999981 0.068200022 0.76999998 2.3413289e-38
0.034466654 0.068200022 0.77000004 2.3416174e-38
0.035933323 0.068200022 0.77000004 2.3417624e-38
-0.024702854 0.071114302 0.78600001 7.8585182e-39
-0.023146657 0.070933327 0.78400004 5.6260284e-39
-0.021598129 0.070752397 0.78200001 3.4079985e-39
-0.020108594 0.070752382 0.78200006 3.5927583e-39
-0.018452359 0.070119061 0.77500004 3.7814459e-39
-0.016932387 0.069938123 0.77300006 4.145195e-39
-0.015400027 0.069666684 0.76999998 4.5146866e-39
-0.013933375 0.069666684 0.76999998 4.8834607e-39
-0.012466673 0.069666669 0.77000004 5.2529929e-39
-0.010971437 0.069485709 0.76800007 5.9005413e-39
-0.0094962167 0.069395244 0.76700002 6.6434874e-39
-0.0080142654 0.069214299 0.76500005 7.1008824e-39
-0.0065571354 0.069214299 0.76500005 7.6547778e-39
-0.0050999848 0.069214284 0.76500005 7.8337965e-39
-0.0036190583 0.068761915 0.76000005 8.1096337e-39
-0.00217143 0.068761922 0.76000005 8.7538891e-39
-0.00072385027 0.068761945 0.75999999 9.4003795e-39
0.00072189391 0.06858097 0.75800002 9.9571869e-39
0.0021656991 0.068580955 0.75800002 1.0427125e-38
0.0036095174 0.068580955 0.75800002 9.8660646e-39
0.0050666337 0.06876193 0.75999999 9.2213735e-39
0.0065142629 0.068761915 0.75999999 8.2965123e-39
0.0079618758 0.068761922 0.75999999 7.3785287e-39
0.009409504 0.06876193 0.75999999 7.3799748e-39
0.010857119 0.068761922 0.75999999 7.3036096e-39
0.012304747 0.068761915 0.75999999 9.6928109e-39
0.01375236 0.068761922 0.75999999 1.1994786e-38
0.015199975 0.06876193 0.76000005 1.1255427e-38
0.016669495 0.068852402 0.76099998 1.0520775e-38
0.018119028 0.06885241 0.76099998 1.0064141e-38
0.019568561 0.06885241 0.76100004 9.7068099e-39
0.021073319 0.069033362 0.76299995 8.223059e-39
0.022526661 0.069033355 0.76300001 6.7471372e-39
0.024042854 0.069214299 0.76500005 6.375035e-39
0.025566658 0.069395237 0.76700002 6.0074814e-39
0.027062846 0.069485724 0.76800001 1.3015823e-38
0.028525712 0.069485709 0.76800007 2.0111546e-38
0.02998857 0.069485709 0.76800001 2.1760994e-38
0.031533323 0.069666669 0.77000004 2.3411133e-38
0.033085696 0.069847628 0.77199996 2.341469e-38
0.034556195 0.069847628 0.77200001 2.3417589e-38
-0.024639986 0.072426677 0.78400004 3.0507333e-39
-0.023146661 0.072426677 0.78399998 2.0243606e-39
-0.021653317 0.072426677 0.78400004 9.2448985e-40
-0.020108603 0.07224191 0.78200001 1.7499359e-39
-0.018500011 0.071780004 0.77700001 2.4867709e-39
-0.016976198 0.071595252 0.77500004 2.116559e-39
-0.015439999 0.071318105 0.77199996 1.662408e-39
-0.013933365 0.071133345 0.76999998 1.8507481e-39
-0.012466684 0.07113336 0.76999998 2.0347821e-39
-0.010971427 0.070948578 0.76800001 2.7730576e-39
-0.0095085837 0.070948578 0.76800001 3.510617e-39
-0.008045719 0.070948571 0.76800001 4.1523949e-39
-0.0065828753 0.070948578 0.76800001 4.7059484e-39
-0.0051199836 0.070948578 0.76800001 5.2551971e-39
-0.0036333322 0.070486695 0.76299995 5.8094303e-39
-0.0021742976 0.070301935 0.76099998 6.9164715e-39
-0.00072479277 0.070301928 0.76100004 7.9288452e-39
0.00072378636 0.070209548 0.76000005 8.3041115e-39
0.0021714147 0.070209533 0.76000005 8.6639117e-39
0.003619029 0.070209533 0.76000005 7.470402e-39
0.005066657 0.070209533 0.76000005 6.2696854e-39
0.0065142713 0.070209548 0.76000005 4.6994758e-39
0.0079618795 0.070209548 0.75999999 3.0475061e-39
0.0094094928 0.07020954 0.75999999 2.9585334e-39
0.010871407 0.07030192 0.76099998 2.7878342e-39
0.012320939 0.07030192 0.76100004 7.3961696e-39
0.013770456 0.070301935 0.76100004 1.1995481e-38
0.015199977 0.07020954 0.75999999 1.015698e-38
0.016669521 0.07030192 0.76100004 8.2183633e-39
0.018119039 0.07030192 0.76100004 6.8318345e-39
0.019619996 0.070486687 0.76299995 5.3577862e-39
0.021073325 0.070486695 0.76300001 3.6028505e-39
0.022526665 0.070486695 0.76300001 1.8640787e-39
0.024105689 0.070856199 0.76700002 4.5222886e-39
0.025599988 0.070948571 0.76800001 7.2074764e-39
0.027062848 0.070948586 0.76800001 1.1999141e-38
0.028599991 0.071133353 0.77000004 1.669317e-38
0.030066643 0.071133345 0.76999998 2.0102937e-38
0.031451438 0.070948571 0.76800001 2.3412947e-38
0.033128567 0.071410492 0.77300006 2.3417237e-38
0.034600947 0.071410485 0.77300006 2.3416537e-38
-0.016976165 0.073071435 0.77500004 1.4729875e-39
-0.01544001 0.072788596 0.77200001 1.0148988e-39
-0.013969521 0.072788596 0.77199996 1.2014523e-39
-0.012466674 0.072600007 0.76999998 1.4769307e-39
-0.011000021 0.072600022 0.76999998 1.9389501e-39
-0.0095085809 0.072411433 0.76800001 2.4024323e-39
-0.0080457097 0.072411433 0.76800001 2.7686981e-39
-0.0065828445 0.072411433 0.76800001 3.0474808e-39
-0.0051200013 0.072411448 0.76800001 3.0453747e-39
-0.0036333257 0.071940035 0.76300001 2.9560629e-39
-0.0021742994 0.071751453 0.76100004 3.5074459e-39
-0.00072476669 0.071751446 0.76100004 4.0634909e-39
0.00072378916 0.071657158 0.75999999 4.2417893e-39
0.0021714035 0.071657158 0.76000005 4.5047261e-39
0.0036190317 0.071657166 0.76000005 3.8722669e-39
0.0050666449 0.071657166 0.76000005 3.2283156e-39
0.0065142731 0.071657151 0.76000005 2.3956697e-39
0.0079618869 0.071657166 0.76000005 1.6537844e-39
0.0094218981 0.071751446 0.76100004 4.141567e-39
0.010871418 0.071751431 0.76100004 6.6247856e-39
0.01232093 0.071751446 0.76099998 9.511218e-39
0.013770449 0.07175146 0.76099998 1.2372486e-38
0.015199966 0.071657181 0.75999999 8.2241212e-39
0.016669499 0.071751438 0.76100004 4.1703581e-39
0.018119032 0.071751446 0.76100004 4.063369e-39
0.019620003 0.071940035 0.76300001 3.9525207e-39
0.021073328 0.07194002 0.76300001 5.3469135e-39
0.022526672 0.071940012 0.76300001 6.8181788e-39
0.024042865 0.072128579 0.76500005 8.7658408e-39
0.025599984 0.07241144 0.76800001 1.0800935e-38
