# .PCD v0.7 - Point Cloud Data file format
VERSION 0.7
FIELDS x y z rgb
SIZE 4 4 4 4
TYPE F F F F
COUNT 1 1 1 1
WIDTH 951
HEIGHT 1
VIEWPOINT 0 0 0 1 0 0 0
POINTS 951
DATA ascii
-0.010399998 -0.054773346 0.72799999 2.341769e-38
-0.0089885788 -0.054622874 0.72600001 2.341769e-38
-0.0076057268 -0.054622859 0.72600001 2.341769e-38
-0.0062228767 -0.054622874 0.72600001 2.341769e-38
-0.0048333453 -0.054547623 0.72500002 2.341769e-38
-0.0034523557 -0.054547623 0.72499996 2.3417631e-38
-0.0020714279 -0.054547623 0.72500002 2.3417572e-38
-0.00068856473 -0.054397151 0.72299999 2.3415063e-38
0.00068857823 -0.054397151 0.72300005 2.3417574e-38
0.0020657361 -0.054397151 0.72299999 2.3410036e-38
0.0034428586 -0.054397166 0.72299999 2.3417567e-38
0.0048333397 -0.054547608 0.72500002 2.3395299e-38
0.0062143067 -0.054547623 0.72499996 2.1834786e-38
0.0075952569 -0.054547623 0.72500002 2.0165199e-38
0.0089762239 -0.054547608 0.72499996 1.6384831e-38
0.010357152 -0.054547623 0.72499996 1.2522363e-38
0.011738104 -0.054547623 0.72500002 1.1020714e-38
0.013119071 -0.054547608 0.72499996 9.5660382e-39
0.014499999 -0.054547623 0.72499996 1.046967e-38
0.015902853 -0.054622874 0.72600001 1.1404912e-38
0.017333316 -0.054773346 0.72800004 1.2150384e-38
0.018719999 -0.054773346 0.72800004 1.288797e-38
0.020134253 -0.054848582 0.72900003 1.3532646e-38
0.021522837 -0.054848567 0.72900003 1.4087957e-38
0.022974279 -0.054999083 0.73099995 1.362949e-38
0.024366632 -0.054999068 0.73100001 1.3078484e-38
0.025759047 -0.054999053 0.73100001 1.271043e-38
0.027188595 -0.055074304 0.73199999 1.2248706e-38
0.028739041 -0.055375248 0.73600006 1.0864683e-38
0.030181915 -0.055450514 0.73700005 9.4003095e-39
0.031671435 -0.055600971 0.73900002 9.9552405e-39
0.033123828 -0.055676192 0.74000001 1.0506618e-38
0.034626659 -0.055826679 0.74200004 1.1057636e-38
0.036040016 -0.055826679 0.74199998 1.1517533e-38
0.037453331 -0.055826679 0.74200004 1.0599897e-38
0.038866688 -0.055826679 0.74199998 9.589723e-39
-0.031714246 -0.054266676 0.73999995 1.2084512e-38
-0.030263815 -0.054193348 0.73900002 1.1807569e-38
-0.02889521 -0.054266676 0.73999995 1.1530991e-38
-0.027448568 -0.054193348 0.73900002 1.2085237e-38
-0.025970487 -0.054046676 0.73700005 1.2732409e-38
-0.024566675 -0.054046676 0.73700005 1.3374919e-38
-0.023162859 -0.05404669 0.73700005 1.4107121e-38
-0.021729508 -0.053973347 0.736 1.503232e-38
-0.020272376 -0.053826675 0.73399997 1.6037487e-38
-0.018822834 -0.053680018 0.73200005 1.6968395e-38
-0.017428556 -0.053680003 0.73200005 1.7981811e-38
-0.016012385 -0.053606689 0.73100001 1.8076871e-38
-0.014560026 -0.053386688 0.72800004 1.8174452e-38
-0.013173344 -0.053386688 0.72800004 1.8449605e-38
-0.011786683 -0.053386688 0.72800004 1.873408e-38
-0.010400024 -0.053386688 0.72800004 1.8911652e-38
-0.0089885471 -0.053240001 0.72599995 1.9193257e-38
-0.0076057324 -0.053240016 0.72600001 2.047716e-38
-0.0062228823 -0.053240016 0.72600001 2.1672816e-38
-0.0048400061 -0.053240016 0.72600001 2.2499335e-38
-0.0034571539 -0.053240001 0.72600001 2.341769e-38
-0.0020743038 -0.053240031 0.72600001 2.341769e-38
-0.00068855728 -0.053020015 0.72299999 2.341769e-38
0.00068856147 -0.05302 0.72300005 2.341769e-38
0.0020657436 -0.05302 0.72299999 2.341769e-38
0.0034523711 -0.053166673 0.72500002 2.341769e-38
0.0048333602 -0.053166658 0.72499996 2.341769e-38
0.0062142899 -0.053166658 0.72500002 2.258579e-38
0.0075952569 -0.053166673 0.72499996 2.1856394e-38
0.008976209 -0.053166658 0.72500002 1.9909459e-38
0.010357138 -0.053166673 0.72500002 1.7979116e-38
0.011738128 -0.053166658 0.72499996 1.7223263e-38
0.013119056 -0.053166673 0.72500002 1.6475226e-38
0.014500022 -0.053166673 0.72499996 1.4447949e-38
0.015902864 -0.053239986 0.72599995 1.2418646e-38
0.017333329 -0.053386688 0.72799999 1.214211e-38
0.01874567 -0.053460017 0.72900003 1.1876686e-38
0.020134253 -0.053460017 0.72900003 1.2983054e-38
0.021522859 -0.053460017 0.72900003 1.4090101e-38
0.022974284 -0.053606674 0.73099995 1.3630203e-38
0.024366636 -0.053606674 0.73100001 1.3171033e-38
0.025759026 -0.053606689 0.73100001 1.2620025e-38
0.027188569 -0.053680032 0.73200005 1.2068263e-38
0.02873905 -0.053973347 0.73600006 1.0960463e-38
0.030181896 -0.054046676 0.73700011 9.8598219e-39
0.031671412 -0.054193333 0.73900002 1.0230699e-38
0.033123814 -0.054266661 0.74000001 1.0598067e-38
0.034626689 -0.054413334 0.74199998 1.0874314e-38
0.036088552 -0.054486677 0.74300003 1.1151263e-38
0.037503809 -0.054486677 0.74299997 1.0507702e-38
0.038919069 -0.054486677 0.74300003 9.8641673e-39
-0.031714261 -0.052857161 0.73999995 1.2907795e-38
-0.03030475 -0.052857146 0.74000001 1.3101156e-38
-0.028895203 -0.052857131 0.73999995 1.3275501e-38
-0.027448591 -0.052785724 0.73900002 1.3561055e-38
-0.026040968 -0.052785724 0.73900002 1.3829042e-38
-0.024566656 -0.052642867 0.73700005 1.3837308e-38
-0.02316284 -0.052642867 0.73700005 1.3828351e-38
-0.021729497 -0.052571431 0.73600006 1.3838408e-38
-0.020272385 -0.052428603 0.73400003 1.3828734e-38
-0.018822821 -0.052285731 0.73200005 1.3746236e-38
-0.017428545 -0.052285731 0.73200005 1.3647583e-38
-0.016012406 -0.052214295 0.73100001 1.3283829e-38
-0.014619993 -0.05221431 0.73100001 1.2916847e-38
-0.01322764 -0.05221431 0.73100001 1.3472166e-38
-0.011835248 -0.052214295 0.73100001 1.3930262e-38
-0.010442857 -0.05221431 0.73099995 1.4484858e-38
-0.009013352 -0.052000016 0.72800004 1.4946198e-38
-0.0076266928 -0.052000001 0.72800004 1.7440833e-38
-0.0062228488 -0.051857159 0.72599995 1.9910346e-38
-0.0048399987 -0.051857144 0.72599995 2.16728e-38
-0.0034571222 -0.051857159 0.72599995 2.331544e-38
-0.0020742703 -0.051857159 0.72599995 2.3417684e-38
-0.00068855542 -0.05164285 0.72299999 2.3417687e-38
0.0006885652 -0.051642865 0.72300005 2.341769e-38
0.0020657082 -0.051642865 0.72300005 2.341769e-38
0.0034428679 -0.051642865 0.72299999 2.341769e-38
0.0048333472 -0.051785707 0.72500002 2.341769e-38
0.0062143141 -0.051785707 0.72499996 2.341769e-38
0.007595242 -0.051785722 0.72499996 2.3417644e-38
0.0089761922 -0.051785722 0.72500002 2.3417597e-38
0.01035716 -0.051785707 0.72499996 2.3412572e-38
0.011754279 -0.051857144 0.72600001 2.3417593e-38
0.013119079 -0.051785722 0.72499996 2.3396742e-38
0.014520004 -0.051857144 0.72600001 1.8428971e-38
0.015902858 -0.051857159 0.72599995 1.3447195e-38
0.017333342 -0.052000031 0.72799999 1.2122696e-38
0.018720001 -0.052000016 0.72799999 1.0769238e-38
0.020134276 -0.052071437 0.72900003 1.2432719e-38
0.02152282 -0.052071452 0.72900003 1.4087929e-38
0.022911426 -0.052071422 0.72900003 1.372168e-38
0.024366638 -0.05221431 0.73100001 1.3263942e-38
0.02575903 -0.05221431 0.73100001 1.2621816e-38
0.02718858 -0.052285746 0.73200005 1.1882802e-38
0.028660964 -0.052428573 0.73399997 1.1141278e-38
0.030140955 -0.052571431 0.73600006 1.0319746e-38
0.031671453 -0.052785724 0.73900002 1.0509122e-38
0.033123821 -0.052857161 0.74000001 1.0598811e-38
0.034626678 -0.053000018 0.74200004 1.0689577e-38
0.03604003 -0.053000018 0.74200004 1.0782126e-38
0.03745335 -0.053000018 0.74200004 1.0506615e-38
0.038919065 -0.053071454 0.74300003 1.0139304e-38
0.040334284 -0.053071439 0.74300003 1.0507035e-38
-0.030304739 -0.05144763 0.74000001 7.0116687e-39
-0.028895194 -0.051447615 0.73999995 6.7354462e-39
-0.027485685 -0.051447645 0.74000001 6.8272817e-39
-0.026040928 -0.051378101 0.73900002 7.0123974e-39
-0.024566697 -0.051239058 0.73700005 7.1946419e-39
-0.023162881 -0.051239058 0.73700005 7.3772325e-39
-0.02172951 -0.051169515 0.736 7.5616153e-39
-0.020217149 -0.050891459 0.73200005 7.8360708e-39
-0.01879715 -0.05082193 0.73100001 7.7446179e-39
-0.017404797 -0.050821915 0.73100001 7.7417508e-39
-0.016012404 -0.05082193 0.73100001 8.2034408e-39
-0.014620014 -0.050821915 0.73099995 8.6647679e-39
-0.013191432 -0.050682873 0.72900003 9.5824026e-39
-0.011835247 -0.05082193 0.73100001 1.0498595e-38
-0.010442856 -0.05082193 0.73100001 1.0962068e-38
-0.0090133389 -0.050613344 0.72800004 1.15131e-38
-0.0076266797 -0.050613344 0.72800004 1.2435062e-38
-0.0062228544 -0.050474301 0.72600001 1.3436286e-38
-0.0048400043 -0.050474301 0.72599995 1.4184962e-38
-0.0034571278 -0.050474286 0.72600001 1.5018308e-38
-0.0020742759 -0.050474286 0.72599995 1.4935451e-38
-0.00068854983 -0.050265715 0.72299999 1.4968819e-38
0.00068857078 -0.050265715 0.72300005 1.632842e-38
0.0020657138 -0.050265729 0.72300005 1.7723889e-38
0.0034523804 -0.050404757 0.72500002 1.91868e-38
0.0048333472 -0.050404757 0.72499996 2.0662625e-38
0.0062142992 -0.050404757 0.72500002 2.2040158e-38
0.0075952662 -0.050404757 0.72499996 2.341769e-38
0.0089885453 -0.050474301 0.72600001 2.341769e-38
0.010371421 -0.050474301 0.72600001 2.341769e-38
0.011754273 -0.050474301 0.72600001 2.341769e-38
0.013137124 -0.050474301 0.72600001 2.341768e-38
0.01452 -0.050474301 0.72600001 2.0926274e-38
0.015946658 -0.050613344 0.72800004 1.8440454e-38
0.017357131 -0.050682873 0.72900003 1.7038364e-38
0.018745715 -0.050682873 0.72900003 1.5552535e-38
0.020134259 -0.050682873 0.72900003 1.4453778e-38
0.021581873 -0.050821915 0.73100001 1.3444343e-38
0.022974286 -0.050821915 0.73100001 1.3353979e-38
0.02436664 -0.05082193 0.73100001 1.3357211e-38
0.025794292 -0.050891444 0.73200005 1.2620377e-38
0.027262848 -0.051030487 0.73399997 1.1883884e-38
0.028739048 -0.05116953 0.73600006 1.0594584e-38
0.03014094 -0.05116953 0.73600006 9.4007032e-39
0.031671427 -0.051378101 0.73900002 9.8634484e-39
0.033123828 -0.05144763 0.74000001 1.0414809e-38
0.034673322 -0.051656201 0.74300003 1.0506273e-38
0.036088586 -0.051656216 0.74300003 1.0597377e-38
0.037604783 -0.051795244 0.745 1.0505885e-38
0.039023809 -0.051795259 0.745 1.041444e-38
-0.030304756 -0.050038099 0.74000001 8.2813376e-40
-0.028895209 -0.050038099 0.73999995 1.0458171e-40
-0.027485698 -0.050038114 0.74000001 9.2397417e-41
-0.026040953 -0.049970478 0.73900002 1.0639359e-40
-0.024633327 -0.049970493 0.73900002 5.5158751e-40
-0.023225704 -0.049970478 0.73900002 9.3579132e-40
-0.021759044 -0.04983525 0.73700005 1.3781112e-39
-0.020217137 -0.049497172 0.73200005 1.7648303e-39
-0.01882286 -0.049497172 0.73200005 1.7454658e-39
-0.017428545 -0.049497157 0.73199999 1.7673611e-39
-0.016012402 -0.049429551 0.73100001 3.0311879e-39
-0.014620013 -0.049429536 0.73100001 4.3405612e-39
-0.013191472 -0.049294308 0.72900003 5.6944173e-39
-0.011835269 -0.049429551 0.73100001 7.0073765e-39
-0.010414322 -0.049294293 0.72900003 7.5350719e-39
-0.0090133278 -0.049226671 0.72800004 8.0204677e-39
-0.0076266667 -0.049226671 0.72800004 7.5333385e-39
-0.0062228618 -0.049091458 0.72600001 7.0085088e-39
-0.004840008 -0.049091443 0.72600001 6.7964923e-39
-0.0034571558 -0.049091443 0.72600001 6.6469037e-39
-0.0020742815 -0.049091429 0.72600001 6.5209929e-39
-0.0006885461 -0.048888579 0.72299999 6.4768702e-39
0.00068857451 -0.048888594 0.72300005 9.2028791e-39
0.0020714377 -0.049023807 0.72500002 1.1910961e-38
0.0034524046 -0.049023807 0.72499996 1.4943336e-38
0.0048333341 -0.049023822 0.72500002 1.7897507e-38
0.0062143235 -0.049023807 0.72499996 2.0662625e-38
0.0075952513 -0.049023822 0.72499996 2.341769e-38
0.0089885788 -0.049091443 0.72599995 2.341769e-38
0.010371453 -0.049091443 0.72599995 2.341769e-38
0.011786665 -0.049226671 0.72800004 2.341769e-38
0.013173324 -0.049226686 0.72800004 2.3417686e-38
0.014559985 -0.049226671 0.72800004 2.341768e-38
0.015968548 -0.049294293 0.72900003 2.3412577e-38
0.01735713 -0.049294293 0.72899997 2.1945997e-38
0.018745674 -0.049294293 0.72900003 2.0358562e-38
0.02013428 -0.049294293 0.72900003 1.6568869e-38
0.021581873 -0.049429551 0.73100001 1.271321e-38
0.022974266 -0.049429536 0.73100001 1.3076603e-38
0.024366656 -0.049429536 0.73099995 1.3446861e-38
0.025794305 -0.049497157 0.73200005 1.2618236e-38
0.027262839 -0.0496324 0.73400003 1.1790614e-38
0.028739057 -0.049767613 0.73600006 1.0135754e-38
0.030181907 -0.04983525 0.73699999 8.3919519e-39
0.031671427 -0.049970493 0.73900002 9.3120977e-39
0.033213355 -0.050173357 0.74199998 1.0231156e-38
0.034673318 -0.050240949 0.74300003 1.0322978e-38
0.036088537 -0.050240964 0.74300003 1.0414082e-38
0.03760476 -0.050376207 0.74500012 1.0597023e-38
0.039023824 -0.050376207 0.74500006 1.0689601e-38
-0.030386645 -0.048760012 0.74200004 7.4624664e-39
-0.028973313 -0.048760012 0.74199998 7.3645549e-39
-0.027559994 -0.048760027 0.74200004 7.7408876e-39
-0.026076144 -0.048628584 0.73999995 8.1975582e-39
-0.024633329 -0.048562869 0.73900002 8.3898416e-39
-0.023225704 -0.048562884 0.73900002 8.6703801e-39
-0.021759048 -0.048431441 0.73700005 9.3153894e-39
-0.020327598 -0.048365712 0.73600006 1.0057954e-38
-0.018874275 -0.048234314 0.73399997 1.0700431e-38
-0.017428573 -0.048102871 0.73200005 1.1448412e-38
-0.0160124 -0.048037156 0.73100001 1.2543287e-38
-0.014620009 -0.048037156 0.73100001 1.3655719e-38
-0.013227617 -0.048037156 0.73099995 1.4384665e-38
-0.011835264 -0.048037171 0.73100001 1.5230207e-38
-0.010442873 -0.048037171 0.73100001 1.549209e-38
-0.0090257535 -0.047905728 0.72900009 1.5785215e-38
-0.0076266518 -0.047840029 0.72799999 1.5493606e-38
-0.0062399926 -0.047840014 0.72799999 1.523746e-38
-0.0048400136 -0.047708586 0.72600001 1.5127318e-38
-0.0034571614 -0.047708586 0.72600001 1.5057361e-38
-0.002074287 -0.047708586 0.72600001 1.5034757e-38
-0.00069045718 -0.047642857 0.72500002 1.495978e-38
0.0006885801 -0.047511458 0.72300005 1.6322961e-38
0.0020714377 -0.047642857 0.72499996 1.7711635e-38
0.0034523897 -0.047642857 0.72500002 1.9180306e-38
0.0048333546 -0.047642857 0.72499996 2.0647899e-38
0.0062142843 -0.047642872 0.72499996 2.203657e-38
0.0076057212 -0.047708571 0.72600001 2.3417331e-38
0.0090133352 -0.047840029 0.72800004 2.341769e-38
0.010399994 -0.047840014 0.72800004 2.341769e-38
0.011786656 -0.047840014 0.72800004 2.341769e-38
0.013173338 -0.047840029 0.72800004 2.341769e-38
0.014579984 -0.047905713 0.72900003 2.341769e-38
0.015968569 -0.047905713 0.72900003 2.341769e-38
0.017357113 -0.047905728 0.72900003 2.2682647e-38
0.018745696 -0.047905698 0.72900003 2.1948193e-38
0.020189524 -0.048037171 0.73100001 1.9352994e-38
0.021581877 -0.048037156 0.73100001 1.6855098e-38
0.022974266 -0.048037156 0.73100001 1.4737099e-38
0.024400039 -0.048102871 0.73200005 1.2623537e-38
0.025864784 -0.048234284 0.73399997 1.2250545e-38
0.027262868 -0.048234299 0.73399997 1.1882089e-38
0.028739069 -0.048365712 0.73600006 1.0411607e-38
0.030181888 -0.048431441 0.73700005 9.034806e-39
0.031714316 -0.048628584 0.73999995 9.5876252e-39
0.033213317 -0.048760012 0.74200004 1.0231533e-38
0.034673356 -0.048825726 0.74300003 1.0231158e-38
0.036088571 -0.048825711 0.74300003 1.0322623e-38
0.037604731 -0.048957169 0.74500006 1.0414087e-38
0.039023802 -0.048957169 0.74500006 1.0597062e-38
-0.030427631 -0.047410488 0.74300003 1.4199195e-38
-0.028973324 -0.047346681 0.74200004 1.4560807e-38
-0.027559968 -0.047346681 0.74199998 1.5400968e-38
-0.026076159 -0.047219038 0.73999995 1.6218878e-38
-0.024633354 -0.047155246 0.73900002 1.632327e-38
-0.023225728 -0.047155231 0.73900002 1.6407228e-38
-0.021759067 -0.047027633 0.73700005 1.7338154e-38
-0.020327589 -0.046963811 0.73600006 1.8250769e-38
-0.018874304 -0.046836182 0.73399997 1.973341e-38
-0.017476197 -0.046836197 0.73400003 2.1105933e-38
-0.016012421 -0.046644792 0.73100001 2.2038291e-38
-0.01462003 -0.046644777 0.73100001 2.2855842e-38
-0.013227616 -0.046644792 0.73100001 2.3142112e-38
-0.011835263 -0.046644792 0.73100001 2.3320406e-38
-0.010414301 -0.046517149 0.72899997 2.3417628e-38
-0.009025733 -0.046517149 0.72900003 2.3414419e-38
-0.0076266779 -0.046453372 0.72800004 2.3417669e-38
-0.0062400186 -0.046453357 0.72800004 2.341587e-38
-0.0048399819 -0.046325728 0.72599995 2.3417658e-38
-0.0034571297 -0.046325728 0.72599995 2.3416937e-38
-0.0020742759 -0.046325713 0.72599995 2.3417654e-38
-0.00069043296 -0.046261907 0.72499996 2.34155e-38
0.0006904949 -0.046261907 0.72499996 2.3417651e-38
0.0020714228 -0.046261907 0.72500002 2.3414792e-38
0.0034524121 -0.046261892 0.72499996 2.3417672e-38
0.0048333416 -0.046261922 0.72500002 2.3414094e-38
0.0062143086 -0.046261907 0.72499996 2.341769e-38
0.0076057157 -0.046325728 0.72600001 2.341769e-38
0.0090133483 -0.046453342 0.72800004 2.341769e-38
0.010414273 -0.046517149 0.72900003 2.341769e-38
0.011802818 -0.046517149 0.72900003 2.341769e-38
0.013191401 -0.046517149 0.72900003 2.341769e-38
0.014579983 -0.046517164 0.72899997 2.341769e-38
0.015968552 -0.046517149 0.72900003 2.341769e-38
0.017357135 -0.046517149 0.72900003 2.341769e-38
0.018745681 -0.046517164 0.72900003 2.3417626e-38
0.020189503 -0.046644762 0.73099995 2.22237e-38
0.021581916 -0.046644762 0.73100001 2.1007911e-38
0.023005713 -0.046708599 0.73200005 1.6392773e-38
0.024399986 -0.046708599 0.73200005 1.179491e-38
0.025864754 -0.046836212 0.73399997 1.1878506e-38
0.027337164 -0.046963811 0.736 1.197247e-38
0.028739056 -0.046963796 0.73600006 1.077751e-38
0.030181907 -0.047027633 0.73700005 9.585812e-39
0.031671442 -0.047155231 0.73900002 9.9556763e-39
0.033213343 -0.047346681 0.74200004 1.0231169e-38
0.0346267 -0.047346666 0.74199998 1.0230796e-38
0.036088571 -0.047410473 0.74300003 1.0139288e-38
0.037503786 -0.047410488 0.74300003 1.032257e-38
0.03891905 -0.047410503 0.74300003 1.0414076e-38
-0.030509515 -0.046119049 0.745 1.3282367e-38
-0.029012375 -0.04599525 0.74300003 1.3472493e-38
-0.027597135 -0.04599525 0.74300003 1.3740462e-38
-0.026076149 -0.045809537 0.73999995 1.4116412e-38
-0.024633316 -0.045747623 0.73900002 1.4197125e-38
-0.02322573 -0.045747623 0.73900002 1.4296514e-38
-0.021759048 -0.045623824 0.73700005 1.4841089e-38
-0.020327602 -0.045561895 0.73600006 1.5496147e-38
-0.018874314 -0.045438111 0.73400003 1.6404827e-38
-0.017476192 -0.045438096 0.73399997 1.7244263e-38
-0.016034296 -0.045314297 0.73200005 1.7878862e-38
-0.014620029 -0.045252413 0.73100001 1.8535701e-38
-0.013227638 -0.045252398 0.73099995 1.8803674e-38
-0.011835262 -0.045252398 0.73100001 1.909353e-38
-0.010442871 -0.045252398 0.73100001 1.9171733e-38
-0.009025733 -0.045128584 0.72899997 1.9282582e-38
-0.0076371664 -0.045128584 0.72900003 1.9358992e-38
-0.0062400056 -0.045066684 0.72800004 1.9560599e-38
-0.0048399875 -0.044942886 0.72600001 1.9541945e-38
-0.0034666851 -0.045066684 0.72800004 1.9652435e-38
-0.0020742833 -0.044942871 0.72599995 2.0096187e-38
-0.00069047208 -0.044880956 0.72499996 2.0662625e-38
0.00069048 -0.044880971 0.72500002 2.0650069e-38
0.002071447 -0.044880956 0.72499996 2.0754461e-38
0.003452399 -0.044880956 0.72500002 2.0928446e-38
0.004840021 -0.044942856 0.72599995 2.1121803e-38
0.006222873 -0.044942871 0.72599995 2.1943659e-38
0.0076266387 -0.045066684 0.72800004 2.2866677e-38
0.0090132998 -0.045066684 0.72800004 2.3142183e-38
0.010414232 -0.045128584 0.72900003 2.341769e-38
0.011802837 -0.045128584 0.72900003 2.341769e-38
0.013191422 -0.045128584 0.72900003 2.341769e-38
0.014579966 -0.045128584 0.72900003 2.341769e-38
0.015968552 -0.045128584 0.72900003 2.341769e-38
0.017357117 -0.045128569 0.72900003 2.341769e-38
0.018797113 -0.045252398 0.73100001 2.341769e-38
0.020189503 -0.045252383 0.73100001 2.2866677e-38
0.021581896 -0.045252398 0.73099995 2.2223781e-38
0.023005724 -0.045314312 0.73200005 1.8801067e-38
0.024400001 -0.045314312 0.73200005 1.537618e-38
0.025864743 -0.045438096 0.73399997 1.3445414e-38
0.027337173 -0.04556191 0.736 1.1515425e-38
0.028778089 -0.045623839 0.73700005 1.0594192e-38
0.030181905 -0.045623809 0.73700005 9.5854462e-39
0.031671442 -0.045747623 0.73900002 9.954949e-39
0.033123821 -0.045809537 0.74000001 1.0322999e-38
0.034626693 -0.045933351 0.74200004 1.0323346e-38
0.036040045 -0.045933351 0.74199998 1.0323297e-38
0.037453361 -0.045933351 0.74200004 1.0414006e-38
-0.031928588 -0.044700027 0.74500006 1.2534327e-38
-0.030509559 -0.044700027 0.74500006 1.2441782e-38
-0.029090472 -0.044700012 0.745 1.2249487e-38
-0.027597159 -0.044579998 0.74300003 1.2154768e-38
-0.026146656 -0.04452002 0.74200004 1.196929e-38
-0.024666654 -0.044400007 0.74000001 1.2052145e-38
-0.023225693 -0.04434 0.73900002 1.2056108e-38
-0.021759054 -0.044220001 0.73700005 1.2416292e-38
-0.02032759 -0.044160008 0.73600006 1.2698261e-38
-0.018925698 -0.044160023 0.73600006 1.3053771e-38
-0.017476199 -0.044040009 0.73399997 1.3340752e-38
-0.016034286 -0.04392001 0.73200005 1.3697327e-38
-0.014620026 -0.043860018 0.73100001 1.4079744e-38
-0.013227634 -0.043860018 0.73100001 1.4443148e-38
-0.011835282 -0.043860018 0.73100001 1.4724757e-38
-0.01044289 -0.043860018 0.73100001 1.4892648e-38
-0.0090257479 -0.043740019 0.72900003 1.5000979e-38
-0.0076371664 -0.043740019 0.72900003 1.5358269e-38
-0.006248598 -0.043740019 0.72900003 1.5644902e-38
-0.0048533333 -0.043680027 0.72800004 1.5720959e-38
-0.0034666739 -0.043680012 0.72800004 1.5738537e-38
-0.0020742889 -0.043560013 0.72600001 1.6742987e-38
-0.00069044787 -0.043499991 0.72499996 1.7767177e-38
0.00069050235 -0.043500006 0.72499996 1.785651e-38
0.0020714302 -0.043500006 0.72500002 1.7960543e-38
0.0034523972 -0.043500006 0.72499996 1.8327168e-38
0.0048400154 -0.043560013 0.72600001 1.8703877e-38
0.0062228655 -0.043559998 0.72599995 2.0460271e-38
0.0076266518 -0.043680012 0.72800004 2.2206225e-38
0.009013311 -0.043680012 0.72800004 2.2866656e-38
0.010414254 -0.043740019 0.72900003 2.3409784e-38
0.011802838 -0.043740004 0.72899997 2.3417684e-38
0.013191407 -0.043740019 0.72900003 2.3417687e-38
0.014579989 -0.043740019 0.72900003 2.341769e-38
0.016012346 -0.043860033 0.73100001 2.341769e-38
0.017404763 -0.043860018 0.73100001 2.341769e-38
0.018797113 -0.043860003 0.73100001 2.341769e-38
0.020189507 -0.043860018 0.73100001 2.341769e-38
0.02161146 -0.04392001 0.73200005 2.3417307e-38
0.023005733 -0.043920025 0.73200005 2.1211438e-38
0.024466688 -0.044040009 0.73399997 1.8980394e-38
0.025935249 -0.044160008 0.73600006 1.5011293e-38
0.027337182 -0.044160008 0.73600006 1.1051231e-38
0.028778108 -0.044219986 0.73700005 1.0315097e-38
0.030181885 -0.04422003 0.73700005 9.584726e-39
0.031671416 -0.044340029 0.73900002 1.0046782e-38
0.033123828 -0.044399992 0.74000001 1.0414836e-38
0.034626693 -0.044520006 0.74199998 1.0415908e-38
0.036039989 -0.044520006 0.74199998 1.0414792e-38
0.037503824 -0.044579998 0.74300003 1.0505871e-38
-0.032057133 -0.043455258 0.74800003 1.2049987e-38
-0.030591451 -0.043397143 0.74700004 1.2050327e-38
-0.029168556 -0.043397158 0.74699998 1.2123126e-38
-0.02767143 -0.043280959 0.745 1.2133863e-38
-0.026146654 -0.043106675 0.74199998 1.2216708e-38
-0.024666646 -0.042990491 0.74000001 1.2406095e-38
-0.023225715 -0.042932391 0.73900002 1.2581888e-38
-0.021759072 -0.042816207 0.73700005 1.2864223e-38
-0.020355256 -0.042816207 0.73700005 1.3224749e-38
-0.018925712 -0.042758092 0.73600006 1.3779708e-38
-0.017476169 -0.042641908 0.73399997 1.4326763e-38
-0.016034273 -0.042525724 0.73200005 1.4791669e-38
-0.014639999 -0.042525738 0.73200005 1.5245124e-38
-0.013227632 -0.042467639 0.73100001 1.5439932e-38
-0.011835241 -0.042467639 0.73099995 1.5704327e-38
-0.010442887 -0.042467639 0.73100001 1.6263599e-38
-0.0090257293 -0.042351425 0.72900003 1.6806347e-38
-0.0076371832 -0.042351454 0.72900003 1.7645408e-38
-0.0062400037 -0.042293325 0.72799999 1.8367548e-38
-0.0048533427 -0.042293355 0.72799999 1.8751044e-38
-0.0034666609 -0.04229334 0.72800004 1.9102243e-38
-0.0020799998 -0.04229334 0.72800004 1.977056e-38
-0.00069046463 -0.042119056 0.72499996 2.039836e-38
0.00069046509 -0.042119041 0.72500002 2.0517835e-38
0.0020742838 -0.042177156 0.72600001 2.0598192e-38
0.0034571339 -0.042177156 0.72600001 2.0710118e-38
0.0048399856 -0.042177141 0.72600001 2.0783738e-38
0.00622286 -0.042177141 0.72600001 2.1546842e-38
0.0076371105 -0.042351454 0.72900003 2.2263956e-38
0.009013324 -0.04229334 0.72800004 2.2564224e-38
0.010414277 -0.042351425 0.72900003 2.2743246e-38
0.011802822 -0.04235144 0.72900003 2.1929655e-38
0.013191405 -0.042351425 0.72900003 2.1029961e-38
0.014579973 -0.042351454 0.72900003 2.1019564e-38
0.01601235 -0.042467639 0.73100001 2.1029967e-38
0.017404741 -0.042467609 0.73100001 2.2223829e-38
0.018797131 -0.042467639 0.73099995 2.341769e-38
0.020189509 -0.042467624 0.73100001 2.341769e-38
0.021611447 -0.042525724 0.73199999 2.341769e-38
0.023068573 -0.042641908 0.73399997 2.2311718e-38
0.02446668 -0.042641908 0.73399997 2.1199903e-38
0.025935236 -0.042758107 0.73600006 1.6581118e-38
0.027374271 -0.042816207 0.73700011 1.1862331e-38
0.028778087 -0.042816207 0.73700005 1.0583068e-38
0.030181903 -0.042816222 0.73700005 9.3095754e-39
0.031714305 -0.042990491 0.73999995 9.862389e-39
0.033123814 -0.042990491 0.74000001 1.0414838e-38
0.034626681 -0.043106675 0.74200004 1.0415197e-38
0.036088556 -0.04316476 0.74300003 1.0414093e-38
0.037503824 -0.043164775 0.74300003 1.0598453e-38
-0.032057151 -0.042030498 0.74800003 1.1500364e-38
-0.030632429 -0.042030498 0.74800003 1.1769775e-38
-0.029168582 -0.041974291 0.74699998 1.194948e-38
-0.027671451 -0.041861922 0.74500006 1.2224968e-38
-0.026181908 -0.041749537 0.74300003 1.2498653e-38
-0.024733309 -0.04169336 0.74200004 1.286525e-38
-0.023257114 -0.04158096 0.73999995 1.3138272e-38
-0.021818092 -0.041524783 0.73900002 1.3417751e-38
-0.020355238 -0.041412383 0.73700005 1.368859e-38
-0.018925702 -0.041356191 0.73600006 1.451403e-38
-0.017523808 -0.041356206 0.73600006 1.5344852e-38
-0.016034262 -0.041131437 0.73200005 1.5897657e-38
-0.014639988 -0.041131452 0.73200005 1.6448326e-38
-0.013245711 -0.041131452 0.73200005 1.6550579e-38
-0.01183524 -0.041075245 0.73100001 1.6637038e-38
-0.010442887 -0.041075274 0.73100001 1.765082e-38
-0.0090257442 -0.040962875 0.72900003 1.8664253e-38
-0.0076371627 -0.04096286 0.72900003 1.9957857e-38
-0.0062486166 -0.04096289 0.72900003 2.115461e-38
-0.0048600333 -0.04096286 0.72900003 2.1812905e-38
-0.0034714255 -0.040962845 0.72900003 2.2452539e-38
-0.0020799886 -0.040906683 0.72800004 2.2747432e-38
-0.00069141085 -0.040794298 0.72599995 2.3017929e-38
0.00069140201 -0.040794283 0.72600001 2.3126996e-38
0.0020742763 -0.040794298 0.72600001 2.3211304e-38
0.0034571283 -0.040794298 0.72600001 2.3039477e-38
0.00483998 -0.040794298 0.72600001 2.2847237e-38
0.0062228562 -0.040794298 0.72600001 2.2678672e-38
0.0076371087 -0.04096286 0.72900003 2.2387385e-38
0.0090257134 -0.040962875 0.72900003 2.229089e-38
0.01041426 -0.040962875 0.72900003 2.2107217e-38
0.011802844 -0.04096286 0.72900003 2.0344404e-38
0.013191389 -0.040962875 0.72900003 1.8614954e-38
0.014579995 -0.04096286 0.72900003 1.8600605e-38
0.016012352 -0.041075259 0.73100001 1.8619982e-38
0.017404744 -0.041075245 0.73100001 2.1029952e-38
0.018797135 -0.041075259 0.73099995 2.3417682e-38
0.020189488 -0.041075259 0.73100001 2.341769e-38
0.02161146 -0.041131452 0.73199999 2.341769e-38
0.023068564 -0.041243806 0.73399997 2.341769e-38
0.024466649 -0.041243836 0.73400003 2.3408294e-38
0.025935249 -0.041356191 0.73600006 1.8067057e-38
0.027374269 -0.041412413 0.73700005 1.270574e-38
0.028778085 -0.041412398 0.73700005 1.0844933e-38
0.030263832 -0.041524768 0.73900002 9.0275893e-39
0.031714313 -0.041580975 0.74000001 9.7701612e-39
0.033213332 -0.041693345 0.74199998 1.0414829e-38
0.034626689 -0.04169336 0.74199998 1.041593e-38
0.036088556 -0.041749537 0.74300003 1.0415162e-38
0.037503771 -0.041749537 0.74300003 1.0690258e-38
-0.032057166 -0.040605724 0.74800003 1.1870174e-38
-0.030632384 -0.040605709 0.74800003 1.2141757e-38
-0.029207643 -0.040605739 0.74800003 1.2322902e-38
-0.02774569 -0.040551424 0.74700004 1.2688078e-38
-0.02618191 -0.040334299 0.74300003 1.3055388e-38
-0.024733305 -0.040279999 0.74199998 1.3325838e-38
-0.023257105 -0.04017143 0.73999995 1.3688557e-38
-0.021818116 -0.040117159 0.73900002 1.3966974e-38
-0.02035524 -0.04000859 0.73700005 1.4240321e-38
-0.018951423 -0.040008575 0.73700005 1.5164408e-38
-0.017523797 -0.03995429 0.73600006 1.6089228e-38
-0.016078087 -0.03984572 0.73399997 1.6359361e-38
-0.014639976 -0.039737165 0.73200005 1.6721693e-38
-0.013245701 -0.039737165 0.73200005 1.7188417e-38
-0.011851423 -0.03973718 0.73200005 1.7744811e-38
-0.010442884 -0.03968288 0.73100001 1.8575275e-38
-0.0090504931 -0.03968288 0.73100001 1.9415471e-38
-0.0076371776 -0.039574295 0.72900003 2.0335304e-38
-0.0062485924 -0.039574295 0.72900003 2.1265169e-38
-0.0048600109 -0.039574295 0.72900003 2.2095666e-38
-0.0034714646 -0.039574295 0.72900003 2.2932977e-38
-0.0020800147 -0.039520025 0.72800004 2.2936593e-38
-0.00069141644 -0.039411426 0.72599995 2.2951669e-38
0.00069143553 -0.03941144 0.72599995 2.3133913e-38
0.0020799667 -0.03952001 0.72800004 2.3325845e-38
0.0034666483 -0.039520025 0.72800004 2.3231508e-38
0.0048533091 -0.039520025 0.72800004 2.3142183e-38
0.0062400075 -0.03952001 0.72799999 2.3049272e-38
0.0076371292 -0.03957428 0.72900003 2.2958513e-38
0.0090256752 -0.03957431 0.72900003 2.2860579e-38
0.010414283 -0.039574295 0.72900003 2.2774822e-38
0.011802826 -0.039574295 0.72900003 2.1931422e-38
0.01319141 -0.039574295 0.72900003 2.1005168e-38
0.014579954 -0.039574295 0.72900003 2.0725707e-38
0.016012354 -0.03968288 0.73100001 2.0339005e-38
0.017404744 -0.039682865 0.73100001 2.053596e-38
0.018797139 -0.039682865 0.73100001 2.066261e-38
0.020217156 -0.03973715 0.73200005 2.203944e-38
0.021611432 -0.039737165 0.73200005 2.341769e-38
0.023068557 -0.039845735 0.73400003 2.341769e-38
0.024533367 -0.03995429 0.73600006 2.3417656e-38
0.025935259 -0.039954305 0.73600006 1.8804323e-38
0.027374288 -0.040008575 0.73700005 1.4272354e-38
0.028778104 -0.04000859 0.73700005 1.1595032e-38
0.030263809 -0.040117145 0.73900002 9.0318717e-39
0.03171432 -0.040171444 0.74000001 9.7697674e-39
0.033123806 -0.040171444 0.74000001 1.0415177e-38
0.034626678 -0.040280014 0.74200004 1.0231557e-38
0.03604003 -0.040280029 0.74200004 1.0048888e-38
0.037453387 -0.040280014 0.74199998 1.0323244e-38
0.038866706 -0.040280029 0.74200004 1.0598781e-38
-0.032142874 -0.039285719 0.75000006 1.2238607e-38
-0.030714324 -0.039285719 0.75000006 1.2512331e-38
-0.029207621 -0.039180964 0.74800003 1.2692042e-38
-0.027745716 -0.039128572 0.74700004 1.3149055e-38
-0.026252395 -0.039023817 0.74500006 1.3514219e-38
-0.024766658 -0.038919061 0.74299997 1.3877949e-38
-0.023257095 -0.038761899 0.74000001 1.4243886e-38
-0.021818077 -0.038709521 0.73900002 1.4521217e-38
-0.020410452 -0.038709521 0.73900002 1.4796713e-38
-0.018951444 -0.038604781 0.73700005 1.5813708e-38
-0.017523812 -0.038552389 0.73600006 1.6821751e-38
-0.016078094 -0.038447633 0.73399997 1.6912159e-38
-0.014639988 -0.038342878 0.73200005 1.6910382e-38
-0.013245712 -0.038342863 0.73200005 1.7828755e-38
-0.011851436 -0.038342893 0.73200005 1.8751772e-38
-0.010442867 -0.038290486 0.73099995 1.9489325e-38
-0.0090504913 -0.038290501 0.73100001 2.0141184e-38
-0.0076580988 -0.038290501 0.73100001 2.0702282e-38
-0.0062485719 -0.038185716 0.72900003 2.125942e-38
-0.0048733549 -0.038290516 0.73100001 2.2371158e-38
-0.0034714441 -0.038185716 0.72900003 2.3384248e-38
-0.002082898 -0.038185716 0.72900003 2.3114511e-38
-0.00069142203 -0.038028598 0.72600001 2.2849419e-38
0.00069331867 -0.038133353 0.72800004 2.3131035e-38
0.0020799797 -0.038133338 0.72800004 2.3320458e-38
0.003466639 -0.038133353 0.72800004 2.3417689e-38
0.0048599625 -0.038185731 0.72900003 2.3417689e-38
0.00624857 -0.038185716 0.72900003 2.341769e-38
0.0076371143 -0.038185701 0.72900003 2.341769e-38
0.0090256976 -0.038185716 0.72900003 2.341769e-38
0.010414244 -0.038185745 0.72900003 2.341768e-38
0.011802849 -0.038185716 0.72900003 2.341767e-38
0.013191395 -0.038185731 0.72900003 2.3411568e-38
0.014579977 -0.038185731 0.72900003 2.2774815e-38
0.016012372 -0.038290486 0.73099995 2.2097085e-38
0.017404748 -0.038290501 0.73100001 1.9928824e-38
0.018822866 -0.038342878 0.73200005 1.7876604e-38
0.020217143 -0.038342863 0.73200005 2.065938e-38
0.021670477 -0.038447618 0.73399997 2.3416964e-38
0.023068564 -0.038447618 0.73399997 2.341769e-38
0.024533354 -0.038552389 0.736 2.3415515e-38
0.025935246 -0.038552389 0.73600006 1.964378e-38
0.027374307 -0.038604766 0.73700005 1.5752495e-38
0.028778084 -0.038604781 0.73700011 1.2414376e-38
0.030263808 -0.038709536 0.73900002 9.0290158e-39
0.031714305 -0.038761914 0.74000001 9.7701556e-39
0.033213347 -0.038866699 0.74200004 1.0414105e-38
0.034626678 -0.038866684 0.74199998 1.004643e-38
0.03608859 -0.038919061 0.74300003 9.6794005e-39
0.037503809 -0.038919061 0.74300003 1.0047055e-38
-0.032228608 -0.0379581 0.75200003 1.2330099e-38
-0.030714322 -0.037857145 0.75000006 1.2511617e-38
-0.029285733 -0.03785716 0.75000006 1.2784241e-38
-0.027782859 -0.037756205 0.74800003 1.3149776e-38
-0.026322847 -0.037705734 0.74699998 1.351459e-38
-0.024833351 -0.037604794 0.74500006 1.3879046e-38
-0.02335144 -0.037503809 0.74300003 1.4244615e-38
-0.021847602 -0.037352383 0.74000001 1.4611977e-38
-0.020410478 -0.037301913 0.73900002 1.4979305e-38
-0.019002853 -0.037301898 0.73900002 1.5715768e-38
-0.017547632 -0.037200958 0.73700005 1.6542651e-38
-0.016078124 -0.037049532 0.73400003 1.6820314e-38
-0.014680005 -0.037049517 0.73399997 1.709656e-38
-0.013245699 -0.036948577 0.73200005 1.7739431e-38
-0.011851424 -0.036948606 0.73200005 1.8474831e-38
-0.010457147 -0.036948591 0.73200005 1.9028712e-38
-0.0090505118 -0.036898106 0.73100001 1.9671959e-38
-0.0076581212 -0.036898106 0.73100001 2.0323814e-38
-0.0062657064 -0.036898121 0.73100001 2.1065695e-38
-0.0048733531 -0.036898121 0.73100001 2.1900487e-38
-0.0034809622 -0.036898091 0.73100001 2.2822459e-38
-0.0020886071 -0.036898121 0.73100001 2.3017279e-38
-0.00069433334 -0.036797151 0.72900003 2.3119173e-38
0.0006942742 -0.036797166 0.72900003 2.2940179e-38
0.0020828184 -0.036797151 0.72900009 2.2855535e-38
0.0034714036 -0.036797151 0.72900003 2.3044963e-38
0.0048599867 -0.036797151 0.72900003 2.3234018e-38
0.0062485309 -0.036797151 0.72900003 2.3325854e-38
0.0076371366 -0.036797151 0.72900003 2.341769e-38
0.0090504317 -0.036898136 0.73100001 2.341769e-38
0.010414265 -0.036797151 0.72900003 2.341769e-38
0.01180281 -0.036797166 0.72900003 2.341769e-38
0.013191416 -0.036797136 0.72900003 2.341769e-38
0.014579998 -0.036797151 0.72900003 2.3142183e-38
0.016012374 -0.036898106 0.73100001 2.2774665e-38
0.017404728 -0.036898121 0.73100001 2.1550492e-38
0.018797141 -0.036898106 0.73100001 2.0357508e-38
0.020217156 -0.036948591 0.73200005 2.0911192e-38
0.021611432 -0.036948591 0.73200005 2.1489128e-38
0.023068557 -0.037049532 0.73400003 2.24075e-38
0.024466677 -0.037049517 0.73399997 2.3417679e-38
0.025935255 -0.037150487 0.73600006 2.0376693e-38
0.027374264 -0.037200972 0.73700005 1.7230842e-38
0.02877808 -0.037200943 0.73700005 1.3074443e-38
0.030263808 -0.037301913 0.73900002 8.8478714e-39
0.031671431 -0.037301898 0.73900002 9.6772733e-39
0.033213351 -0.037453353 0.74199998 1.0414468e-38
0.034626707 -0.037453339 0.74199998 1.0230439e-38
0.036185708 -0.037604779 0.74500006 1.0044597e-38
0.037705697 -0.037705719 0.74699998 1.0229683e-38
0.039128579 -0.037705705 0.74700004 1.0506985e-38
-0.032228585 -0.036525726 0.75199997 1.2329741e-38
-0.030714298 -0.036428571 0.75000006 1.2603812e-38
-0.029285731 -0.036428571 0.75000006 1.2785318e-38
-0.027782854 -0.03633146 0.74800003 1.3151213e-38
-0.026322851 -0.036282867 0.74700004 1.3422748e-38
-0.024833357 -0.036185727 0.74500006 1.3786479e-38
-0.023351444 -0.036088571 0.74300003 1.4151346e-38
-0.021847615 -0.035942867 0.74000001 1.4610919e-38
-0.020410476 -0.035894305 0.73900002 1.50708e-38
-0.019002853 -0.035894305 0.73900002 1.571148e-38
-0.017547613 -0.035797149 0.73700005 1.6266437e-38
-0.016121898 -0.035748571 0.73600006 1.6821033e-38
-0.014680012 -0.035651445 0.73399997 1.7280235e-38
-0.013281927 -0.035651445 0.73400003 1.7741589e-38
-0.011851412 -0.035554305 0.73200005 1.8110009e-38
-0.010457137 -0.03555432 0.73200005 1.8662098e-38
-0.0090505099 -0.035505712 0.73100001 1.912023e-38
-0.0076581175 -0.035505742 0.73100001 1.994642e-38
-0.0062657269 -0.035505727 0.73099995 2.0785121e-38
-0.0048733493 -0.035505727 0.73100001 2.1525888e-38
-0.0034809585 -0.035505727 0.73100001 2.2268167e-38
-0.0020885679 -0.035505742 0.73099995 2.2829643e-38
-0.00069430913 -0.035408571 0.72900003 2.3386413e-38
0.00069423509 -0.035408586 0.72900003 2.2838644e-38
0.0020828408 -0.035408601 0.72900003 2.2299486e-38
0.0034714241 -0.035408571 0.72900003 2.2671867e-38
0.0048599681 -0.035408586 0.72900003 2.2954557e-38
0.0062485514 -0.035408586 0.72900003 2.3234019e-38
0.0076580802 -0.035505742 0.73100001 2.341769e-38
0.0090504717 -0.035505727 0.73099995 2.341769e-38
0.010414247 -0.035408571 0.72900003 2.341769e-38
0.011835217 -0.035505727 0.73100001 2.341769e-38
0.013227591 -0.035505727 0.73100001 2.341769e-38
0.014619984 -0.035505742 0.73100001 2.341769e-38
0.016012376 -0.035505727 0.73100001 2.3417602e-38
0.017428612 -0.03555432 0.73200005 2.3142007e-38
0.01882289 -0.035554305 0.73200005 2.2840691e-38
0.020272376 -0.035651445 0.73400003 2.1138884e-38
0.021670461 -0.035651445 0.73400003 1.9446812e-38
0.023131443 -0.035748571 0.73600006 2.1489145e-38
0.024533372 -0.035748556 0.73600006 2.3417684e-38
0.025970468 -0.035797134 0.73700005 2.1121791e-38
0.027374282 -0.035797164 0.73700005 1.8703817e-38
0.028856196 -0.035894275 0.73900002 1.3713014e-38
0.030263821 -0.03589429 0.73900002 8.6645661e-39
0.031800024 -0.036040008 0.74199998 9.5839917e-39
0.033213377 -0.036039993 0.74199998 1.0414457e-38
0.034673363 -0.036088571 0.74300003 1.041661e-38
0.036185723 -0.036185727 0.74500006 1.0321889e-38
-0.032228582 -0.035093352 0.75200003 1.2330099e-38
-0.030796207 -0.035093337 0.75200003 1.2511977e-38
-0.029285746 -0.035000026 0.75000006 1.278532e-38
-0.02778287 -0.03490667 0.74800003 1.3057944e-38
-0.026322877 -0.03486 0.74700004 1.3422025e-38
-0.024833342 -0.034766689 0.74500006 1.3785387e-38
-0.023320002 -0.034626693 0.74200004 1.4239237e-38
-0.021847608 -0.034533352 0.74000001 1.4610937e-38
-0.020410478 -0.034486681 0.73900002 1.507261e-38
-0.019002877 -0.034486681 0.73900002 1.5805844e-38
-0.017547632 -0.034393355 0.73700005 1.6541234e-38
-0.016121911 -0.03434667 0.73600006 1.6910717e-38
-0.014680021 -0.034253329 0.73400003 1.7186609e-38
-0.013281898 -0.034253344 0.73399997 1.7647965e-38
-0.011851401 -0.034160018 0.73200005 1.8019974e-38
-0.010457124 -0.034160018 0.73200005 1.8477719e-38
-0.0090628481 -0.034160033 0.73200005 1.8843649e-38
-0.0076581156 -0.034113362 0.73100001 1.9676288e-38
-0.0062657231 -0.034113333 0.73100001 2.0602123e-38
-0.0048733698 -0.034113348 0.73100001 2.1156311e-38
-0.003480979 -0.034113348 0.73100001 2.1710288e-38
-0.0020885642 -0.034113348 0.73100001 2.2363273e-38
-0.00069432589 -0.034020022 0.72900003 2.3105509e-38
0.00069425744 -0.034020007 0.72900003 2.2929748e-38
0.0020828389 -0.034019992 0.72899997 2.2668249e-38
0.0034714073 -0.034020036 0.72900003 2.2670775e-38
0.0048599904 -0.034020007 0.72900003 2.2770161e-38
0.0062485347 -0.034020007 0.72900003 2.3048554e-38
0.0076580821 -0.034113362 0.73100001 2.341769e-38
0.0090504736 -0.034113333 0.73100001 2.341769e-38
0.010414271 -0.034020022 0.72900003 2.341769e-38
0.011835217 -0.034113348 0.73100001 2.341769e-38
0.01322761 -0.034113348 0.73099995 2.341769e-38
0.014619963 -0.034113362 0.73100001 2.341769e-38
0.016012376 -0.034113348 0.73100001 2.341769e-38
0.017428564 -0.034160033 0.73200005 2.3325854e-38
0.018822879 -0.034160018 0.73199999 2.3142064e-38
0.020272383 -0.034253329 0.73399997 2.1741453e-38
0.021729536 -0.03434667 0.73600006 2.0282608e-38
0.023131428 -0.03434667 0.73600006 2.1849671e-38
0.024533322 -0.03434667 0.73600006 2.341769e-38
0.025970487 -0.03439334 0.73700005 2.1483046e-38
0.027374301 -0.03439334 0.73700005 1.9535737e-38
0.028856196 -0.034486681 0.73900002 1.4185852e-38
0.030304803 -0.034533337 0.73999995 8.757845e-39
0.03184288 -0.034673333 0.74300003 9.3109837e-39
0.033258095 -0.034673333 0.74300003 9.8645092e-39
0.03476667 -0.034766674 0.745 1.0046387e-38
0.036185697 -0.034766674 0.745 1.0230764e-38
-0.0321429 -0.033571437 0.75000006 1.2239706e-38
-0.030714333 -0.033571422 0.75000006 1.2512348e-38
-0.029207645 -0.033481926 0.74800003 1.2692778e-38
-0.027782887 -0.033481911 0.74800003 1.3056519e-38
-0.026322842 -0.033437133 0.74700004 1.3330566e-38
-0.024833348 -0.033347651 0.74500006 1.3786131e-38
-0.023351433 -0.03325811 0.74300003 1.4243189e-38
-0.021906642 -0.033213332 0.74199998 1.4611996e-38
-0.020438051 -0.033123821 0.74000001 1.4979682e-38
-0.019002838 -0.033079043 0.73899996 1.589802e-38
-0.017595252 -0.033079073 0.73900002 1.6816382e-38
-0.016121903 -0.032944784 0.73600006 1.7001853e-38
-0.014679992 -0.032855257 0.73399997 1.709406e-38
-0.013281907 -0.032855228 0.73400003 1.7551455e-38
-0.011851412 -0.032765716 0.73199999 1.7924185e-38
-0.010457135 -0.032765731 0.73199999 1.8293328e-38
-0.0090628369 -0.032765716 0.73200005 1.8570285e-38
-0.0076685613 -0.032765716 0.73200005 1.9496906e-38
-0.0062742839 -0.032765731 0.73200005 2.0325548e-38
-0.0048733698 -0.032720968 0.73100001 2.0694655e-38
-0.0034809771 -0.032720968 0.73100001 2.1064571e-38
-0.0020885866 -0.032720968 0.73099995 2.1990522e-38
-0.00069430354 -0.032631442 0.72900003 2.2825299e-38
0.00069427979 -0.032631442 0.72900003 2.2923239e-38
0.002082824 -0.032631427 0.72900003 2.3025151e-38
0.0034714073 -0.032631427 0.72900003 2.2756852e-38
0.0048733177 -0.032720983 0.73100001 2.2488902e-38
0.0062657082 -0.032720968 0.73099995 2.2955637e-38
0.0076580616 -0.032720968 0.73100001 2.3324417e-38
0.0090504745 -0.032720968 0.73100001 2.341769e-38
0.010442828 -0.032720968 0.73100001 2.341769e-38
0.01183522 -0.032720968 0.73100001 2.341769e-38
0.013227611 -0.032720968 0.73100001 2.341769e-38
0.014619964 -0.032720968 0.73100001 2.341769e-38
0.016012358 -0.032720953 0.73100001 2.341769e-38
0.017428575 -0.032765731 0.73200005 2.341769e-38
0.018822854 -0.032765731 0.73200005 2.3416554e-38
0.020272376 -0.032855242 0.73399997 2.2310523e-38
0.021729546 -0.032944769 0.73600006 2.1110612e-38
0.023131438 -0.032944784 0.73600006 2.2301294e-38
0.024566667 -0.032989532 0.73700005 2.3414091e-38
0.025970483 -0.032989532 0.73700005 2.1948322e-38
0.027374262 -0.032989532 0.73700005 2.0365132e-38
0.028856196 -0.033079058 0.73900002 1.464468e-38
0.03030481 -0.033123806 0.73999995 8.8496861e-39
0.031842854 -0.03325811 0.74300003 9.1287476e-39
0.033258095 -0.03325811 0.74300003 9.3109809e-39
0.034766648 -0.033347636 0.74500006 9.6732978e-39
0.036282849 -0.033437148 0.74699998 1.0045997e-38
0.037705727 -0.033437148 0.74700004 1.0140321e-38
-0.0321429 -0.032142863 0.75000006 1.2148954e-38
-0.030714309 -0.032142863 0.75000006 1.2421243e-38
-0.029207662 -0.032057166 0.74800003 1.2692789e-38
-0.027782882 -0.032057151 0.74800003 1.305904e-38
-0.026322868 -0.032014295 0.74700004 1.3424572e-38
-0.024833331 -0.031928599 0.74500006 1.378831e-38
-0.023351433 -0.031842858 0.74300003 1.4243193e-38
-0.021906653 -0.031800017 0.74199998 1.4611621e-38
-0.020438064 -0.03171429 0.73999995 1.5070064e-38
-0.019028557 -0.03171429 0.74000001 1.5806166e-38
-0.017595215 -0.031671435 0.73900002 1.6446529e-38
-0.016121892 -0.031542867 0.73600006 1.6632736e-38
-0.014740022 -0.031585723 0.73700011 1.6819991e-38
-0.0132819 -0.031457156 0.73399997 1.7555749e-38
-0.011883815 -0.031457156 0.73399997 1.8199685e-38
-0.010457125 -0.031371444 0.73199999 1.8474844e-38
-0.0090628499 -0.031371444 0.73199999 1.8749282e-38
-0.0076685725 -0.031371444 0.73200005 1.9307837e-38
-0.0062742746 -0.031371444 0.73200005 1.9957855e-38
-0.0048799971 -0.031371444 0.73200005 2.0508862e-38
-0.0034856822 -0.031371444 0.73199999 2.1148874e-38
-0.0020885847 -0.031328574 0.73100001 2.161813e-38
-0.00069623138 -0.031328589 0.73100001 2.2087705e-38
0.00069426303 -0.031242877 0.72900003 2.2367869e-38
0.002088574 -0.031328589 0.73100001 2.2649882e-38
0.0034809273 -0.031328589 0.73100001 2.2840417e-38
0.0048733177 -0.031328604 0.73100001 2.2942328e-38
0.0062657101 -0.031328589 0.73099995 2.2948816e-38
0.0076580634 -0.031328589 0.73100001 2.3047473e-38
0.009050454 -0.031328589 0.73100001 2.3233302e-38
0.010442868 -0.031328589 0.73100001 2.341769e-38
0.011835221 -0.031328604 0.73100001 2.341769e-38
0.013227613 -0.031328589 0.73100001 2.341769e-38
0.014619966 -0.031328589 0.73100001 2.341769e-38
0.016034311 -0.031371444 0.73200005 2.341769e-38
0.017428586 -0.031371444 0.73200005 2.341769e-38
0.018874282 -0.031457141 0.73400003 2.341769e-38
0.020327624 -0.031542853 0.73600006 2.2678701e-38
0.021729555 -0.031542853 0.73600006 2.202794e-38
0.023162872 -0.031585723 0.73700005 2.2486736e-38
0.024566649 -0.031585723 0.73700011 2.3050327e-38
0.025970465 -0.031585723 0.73700005 2.2128406e-38
0.027374281 -0.031585723 0.73700005 2.1291384e-38
0.028856173 -0.03167145 0.73900002 1.492486e-38
0.030304797 -0.031714275 0.73999995 8.5609107e-39
0.03184285 -0.031842858 0.74300003 9.2137672e-39
0.033347614 -0.031928584 0.74500006 9.8634246e-39
0.034766667 -0.031928584 0.74500006 1.0138207e-38
0.036282845 -0.03201431 0.74700004 1.0414756e-38
0.037705682 -0.032014295 0.74700004 1.0322526e-38
-0.032142874 -0.030714288 0.75000006 1.205711e-38
-0.030632397 -0.030632392 0.74800003 1.2330827e-38
-0.029207617 -0.030632392 0.74800003 1.2603445e-38
-0.027745729 -0.030591428 0.74700004 1.3061528e-38
-0.026322832 -0.030591443 0.74700004 1.351711e-38
-0.024833338 -0.030509546 0.745 1.388229e-38
-0.02335142 -0.03042762 0.74300003 1.4153856e-38
-0.021906627 -0.030386671 0.74199998 1.4704516e-38
-0.020493332 -0.030386686 0.74199998 1.5164405e-38
-0.019028548 -0.03030479 0.74000001 1.5626805e-38
-0.017595241 -0.030263826 0.73900002 1.608277e-38
-0.016143819 -0.030181929 0.73700011 1.635363e-38
-0.014740002 -0.030181915 0.73700005 1.6544115e-38
-0.013336186 -0.030181929 0.73700005 1.7559326e-38
-0.011916189 -0.030140951 0.73600006 1.8475179e-38
-0.010514297 -0.030140966 0.73600006 1.8656707e-38
-0.0090628369 -0.029977158 0.73200005 1.8841827e-38
-0.0076685613 -0.029977158 0.73200005 1.9210618e-38
-0.0062742839 -0.029977158 0.73200005 1.9493651e-38
-0.0048800064 -0.029977158 0.73200005 2.0325185e-38
-0.0034857101 -0.029977158 0.73200005 2.1149233e-38
-0.0020913936 -0.029977158 0.73200005 2.1245054e-38
-0.0006961904 -0.029936209 0.73099995 2.1254009e-38
0.00069426117 -0.029854298 0.72900003 2.1810751e-38
0.0020885516 -0.029936209 0.73100001 2.2271052e-38
0.003480905 -0.029936224 0.73100001 2.282893e-38
0.0048733214 -0.029936209 0.73100001 2.3391445e-38
0.006265712 -0.029936209 0.73100001 2.3032735e-38
0.0076580653 -0.029936209 0.73100001 2.2675091e-38
0.0090504568 -0.029936209 0.73100001 2.305034e-38
0.010442847 -0.029936209 0.73099995 2.3417327e-38
0.011835201 -0.029936209 0.73100001 2.341769e-38
0.013227614 -0.029936194 0.73100001 2.341769e-38
0.014620008 -0.029936194 0.73100001 2.341769e-38
0.0160343 -0.029977143 0.73199999 2.341769e-38
0.017428575 -0.029977173 0.73200005 2.341769e-38
0.018874289 -0.030059054 0.73399997 2.341769e-38
0.020327611 -0.030140966 0.73600006 2.3142183e-38
0.021729542 -0.030140951 0.736 2.2857685e-38
0.023131436 -0.030140936 0.73600006 2.2751478e-38
0.024566667 -0.030181915 0.73700005 2.2583613e-38
0.025970461 -0.030181915 0.73700005 2.24075e-38
0.027374299 -0.030181915 0.73700005 2.2116115e-38
0.028856209 -0.030263826 0.73900002 1.5201813e-38
0.030427625 -0.030427605 0.74300003 8.2936578e-39
0.031928562 -0.030509517 0.74500006 9.3931264e-39
0.033437129 -0.030591428 0.74700004 1.0412652e-38
0.034859963 -0.030591443 0.74700004 1.0600637e-38
0.036282882 -0.030591428 0.74700004 1.0782483e-38
0.037756208 -0.030632392 0.74800003 1.059627e-38
-0.032142874 -0.029285714 0.75000006 1.2057101e-38
-0.030632392 -0.029207632 0.74800003 1.2330451e-38
-0.02916855 -0.029168591 0.74699998 1.2603784e-38
-0.027745716 -0.029168576 0.74699998 1.2968235e-38
-0.026252409 -0.029090479 0.74500006 1.3333065e-38
-0.02483332 -0.029090494 0.74500006 1.3697175e-38
-0.023351423 -0.029012397 0.74300003 1.4152767e-38
-0.021906661 -0.028973341 0.74199998 1.4612663e-38
-0.020493304 -0.028973356 0.74199998 1.5072564e-38
-0.019028561 -0.028895244 0.74000001 1.5442062e-38
-0.017595241 -0.028856203 0.73900002 1.5811564e-38
-0.016187618 -0.028856203 0.73900002 1.6359714e-38
-0.014740008 -0.028778121 0.73700005 1.6820687e-38
