# .PCD v0.7 - Point Cloud Data file format
VERSION 0.7
FIELDS x y z rgb
SIZE 4 4 4 4
TYPE F F F F
COUNT 1 1 1 1
WIDTH 960
HEIGHT 1
VIEWPOINT 0 0 0 1 0 0 0
POINTS 960
DATA ascii
-0.02936382 -0.0093104541 0.75199997 1.336002e-38
-0.027931446 -0.0093104616 0.75199997 1.3809099e-38
-0.026499055 -0.0093104541 0.75199997 1.4367705e-38
-0.025000012 -0.0092857108 0.75 1.4920572e-38
-0.023508586 -0.0092609525 0.74799997 1.5545816e-38
-0.022054283 -0.0092485622 0.74700004 1.5715827e-38
-0.020631429 -0.0092485696 0.74700004 1.5902807e-38
-0.019157138 -0.0092237964 0.74500006 1.7679329e-38
-0.017690476 -0.0091990381 0.74299997 1.9444283e-38
-0.016253347 -0.0091866553 0.74199998 1.9528934e-38
-0.014840011 -0.0091866553 0.74199998 1.9615383e-38
-0.013390484 -0.009161897 0.73999995 1.9146514e-38
-0.011980961 -0.0091619045 0.73999995 1.8694162e-38
-0.010557149 -0.0091495141 0.73899996 1.9993501e-38
-0.0091495262 -0.0091495216 0.73900002 2.1393978e-38
-0.0077419048 -0.0091495216 0.73900002 2.1468938e-38
-0.0063342936 -0.0091495216 0.73899996 2.1569801e-38
-0.0049266568 -0.0091495067 0.73900002 2.2490367e-38
-0.0035190447 -0.0091494992 0.73899996 2.3417673e-38
-0.0021057106 -0.0091247708 0.73700005 2.1821296e-38
-0.00070191117 -0.0091247559 0.73699999 2.0275895e-38
0.00070189929 -0.0091247633 0.73700005 2.1842496e-38
0.0021057124 -0.0091247559 0.73699999 2.341769e-38
0.0035095229 -0.0091247633 0.73700005 2.2770895e-38
0.0049133301 -0.0091247559 0.73699999 2.2223829e-38
0.0063171401 -0.0091247633 0.73700005 2.2774842e-38
0.0077209473 -0.0091247633 0.73699999 2.3417669e-38
0.0091247661 -0.0091247559 0.73700005 2.2758296e-38
0.010528565 -0.0091247484 0.73699999 2.2031527e-38
0.011932383 -0.0091247633 0.73700005 2.2772689e-38
0.013336183 -0.0091247559 0.73699999 2.3417658e-38
0.014739999 -0.0091247633 0.73700005 2.2935489e-38
0.016187619 -0.0091495141 0.73900002 2.2339943e-38
0.017595248 -0.0091495141 0.73900002 2.1806099e-38
0.019002859 -0.0091495141 0.73899996 2.1274899e-38
0.020438088 -0.009161897 0.73999995 2.2308131e-38
0.021906661 -0.0091866627 0.74199998 2.3417684e-38
0.023319997 -0.0091866702 0.74200004 2.2115837e-38
0.024766669 -0.0091990456 0.74300003 2.0814637e-38
0.026181908 -0.009199053 0.74300003 1.656609e-38
0.027671427 -0.0092238039 0.74500006 1.2341624e-38
0.029168567 -0.0092485547 0.74699998 1.0965491e-38
0.030632379 -0.0092609525 0.74800003 9.5901097e-39
0.032142859 -0.0092857108 0.75000006 9.772343e-39
0.033571418 -0.0092857033 0.75 1.0046756e-38
0.035093334 -0.0093104541 0.75199997 9.9552615e-39
0.036525715 -0.0093104541 0.75200003 9.8637679e-39
-0.030919064 -0.0079094991 0.755 1.4845256e-38
-0.029402869 -0.007888563 0.75300002 1.4831954e-38
-0.027931442 -0.0078780726 0.75199997 1.5372894e-38
-0.026499053 -0.00787808 0.75199997 1.5850782e-38
-0.025000006 -0.0078571513 0.75000006 1.6880759e-38
-0.023571437 -0.0078571364 0.75 1.7856109e-38
-0.022083819 -0.0078361779 0.74799997 1.7725845e-38
-0.020631427 -0.0078257173 0.74700004 1.7585301e-38
-0.019208571 -0.0078257173 0.74700004 2.0197311e-38
-0.0177381 -0.0078047514 0.74500006 2.2671483e-38
-0.016275235 -0.0077838004 0.74300003 2.2033294e-38
-0.014860002 -0.0077838078 0.74300003 2.1280658e-38
-0.013426676 -0.0077733248 0.74199998 2.0987201e-38
-0.011980969 -0.0077523664 0.73999995 2.0636377e-38
-0.010571445 -0.0077523664 0.73999995 2.2040114e-38
-0.0091619128 -0.0077523813 0.74000001 2.3415126e-38
-0.0077523901 -0.0077523813 0.74000001 2.2951992e-38
-0.0063342829 -0.0077418834 0.73899996 2.2492847e-38
-0.0049266606 -0.0077418834 0.73900002 2.2958513e-38
-0.0035190491 -0.0077418908 0.73899996 2.3407262e-38
-0.0021057222 -0.0077209547 0.73699999 2.2181448e-38
-0.00070189766 -0.0077209547 0.73700005 2.1002678e-38
0.00070190208 -0.0077209547 0.73699999 2.2223829e-38
0.0021057189 -0.0077209696 0.73700005 2.3413733e-38
0.0035095187 -0.0077209547 0.73699999 2.2208381e-38
0.0049133361 -0.0077209473 0.73700005 2.0923771e-38
0.0063171433 -0.0077209398 0.73699999 2.2223829e-38
0.0077209533 -0.0077209547 0.73700005 2.3412651e-38
0.0091247624 -0.0077209547 0.73699999 2.2570688e-38
0.010528573 -0.0077209547 0.73700005 2.1662396e-38
0.01193238 -0.0077209473 0.73699999 2.2591171e-38
0.013336197 -0.0077209547 0.73700005 2.3412652e-38
0.014780001 -0.0077418983 0.73899996 2.2846556e-38
0.016187621 -0.0077418983 0.73899996 2.2183564e-38
0.017595243 -0.0077419057 0.73900002 2.1232151e-38
0.019028567 -0.0077523738 0.74000001 2.0261491e-38
0.02043809 -0.0077523738 0.74000001 2.1856487e-38
0.021906659 -0.0077733397 0.74200004 2.3417679e-38
0.023319995 -0.0077733174 0.74199998 2.2590791e-38
0.024766663 -0.0077838004 0.74299997 2.1729033e-38
0.026181905 -0.0077838004 0.74299997 1.7016284e-38
0.027671428 -0.0078047439 0.745 1.2249057e-38
0.029168567 -0.007825695 0.74699998 1.0690334e-38
0.030591425 -0.0078257024 0.74699998 9.1294847e-39
0.032142852 -0.0078571364 0.75 9.5882993e-39
0.033660948 -0.0078780726 0.75199997 1.004817e-38
0.03509333 -0.0078780726 0.75199997 1.0048507e-38
0.036671419 -0.007909514 0.755 9.9559439e-39
0.038109507 -0.0079095066 0.755 9.8644588e-39
-0.030919056 -0.0064714104 0.755 1.4469694e-38
-0.029402869 -0.0064542815 0.75300002 1.3913296e-38
-0.027968578 -0.0064542741 0.75299996 1.4824472e-38
-0.02649905 -0.0064456984 0.75199997 1.5771578e-38
-0.025066676 -0.006445691 0.75199997 1.669142e-38
-0.023571435 -0.0064285621 0.75000006 1.7598595e-38
-0.022083821 -0.0064114258 0.74799997 1.7769291e-38
-0.020631436 -0.0064028502 0.74699998 1.798425e-38
-0.019208582 -0.0064028502 0.74699998 1.9550555e-38
-0.017738093 -0.0063857064 0.745 2.120467e-38
-0.01631905 -0.0063856989 0.74500006 2.0831947e-38
-0.014860001 -0.00636857 0.74299997 2.0466735e-38
-0.013444756 -0.0063685775 0.74300003 1.9902784e-38
-0.012029524 -0.0063685775 0.74300003 1.94465e-38
-0.01061429 -0.00636857 0.74299997 2.138583e-38
-0.0091619054 -0.0063428506 0.74000001 2.3417686e-38
-0.0077523831 -0.0063428506 0.74000001 2.3230423e-38
-0.0063428604 -0.0063428506 0.74000001 2.2949899e-38
-0.0049333377 -0.0063428506 0.74000001 2.3048196e-38
-0.003523815 -0.0063428432 0.73999995 2.314215e-38
-0.0021114307 -0.0063342825 0.73899996 2.1076535e-38
-0.00070190884 -0.0063171387 0.73700005 1.9145512e-38
0.00070190581 -0.0063171312 0.73699999 2.1293635e-38
0.0021057152 -0.0063171461 0.73700005 2.3417668e-38
0.003509515 -0.0063171387 0.73699999 2.2206563e-38
0.0049133324 -0.0063171461 0.73700005 2.0988332e-38
0.0063171396 -0.0063171387 0.73699999 2.2213425e-38
0.0077209496 -0.0063171461 0.73700005 2.3417677e-38
0.0091247568 -0.0063171461 0.73699999 2.2581458e-38
0.010528574 -0.0063171387 0.73700005 2.184356e-38
0.011964762 -0.0063342825 0.73899996 2.2587942e-38
0.013372383 -0.0063342825 0.73900002 2.341769e-38
0.014779996 -0.006334275 0.73899996 2.3137161e-38
0.016209509 -0.0063428432 0.73999995 2.2866618e-38
0.017619042 -0.0063428581 0.74000001 2.15414e-38
0.019028565 -0.0063428581 0.74000001 2.0264373e-38
0.020493323 -0.006359987 0.74199998 2.1848953e-38
0.021906657 -0.006359987 0.74199998 2.3417675e-38
0.023351435 -0.0063685626 0.74299997 2.1470101e-38
0.024766665 -0.0063685626 0.74300003 1.9514208e-38
0.026252378 -0.0063856915 0.745 1.6200511e-38
0.027745714 -0.0064028502 0.74699998 1.2896556e-38
0.02916857 -0.0064028502 0.74699998 1.1240977e-38
0.030714277 -0.0064285621 0.75 9.5875734e-39
0.032228574 -0.0064457059 0.75200003 9.8648665e-39
0.033660941 -0.006445691 0.75199997 1.0233257e-38
0.035233323 -0.0064714178 0.755 1.0048839e-38
0.036671408 -0.0064714104 0.755 9.9555684e-39
-0.030960003 -0.0050399974 0.75599998 1.4099474e-38
-0.029480966 -0.0050333217 0.755 1.29777e-38
-0.02796858 -0.0050199851 0.75299996 1.4331536e-38
-0.026534304 -0.0050199926 0.75299996 1.5663578e-38
-0.025066676 -0.0050133169 0.75199997 1.651456e-38
-0.023571441 -0.0049999952 0.75 1.7322735e-38
-0.022142863 -0.0049999952 0.75000006 1.7768232e-38
-0.020659054 -0.0049866512 0.74799997 1.8252587e-38
-0.019234288 -0.0049866587 0.74799997 1.8999175e-38
-0.0177381 -0.0049666464 0.745 1.963122e-38
-0.016275236 -0.0049533397 0.74300003 1.9622211e-38
-0.01486 -0.0049533173 0.74299997 1.9532184e-38
-0.013444755 -0.0049533248 0.74299997 1.8894014e-38
-0.012029524 -0.0049533322 0.74299997 1.8148595e-38
-0.010614279 -0.0049533322 0.74300003 2.0822971e-38
-0.0091990475 -0.0049533397 0.74300003 2.3411945e-38
-0.007783812 -0.0049533322 0.74299997 2.3417686e-38
-0.0063428534 -0.0049333274 0.74000001 2.3415536e-38
-0.0049333307 -0.00493332 0.74000001 2.3142183e-38
-0.0035238224 -0.0049333274 0.74000001 2.2746762e-38
-0.0021114349 -0.0049266592 0.73899996 1.9928821e-38
-0.00070379802 -0.0049266517 0.73900002 1.7216544e-38
0.00070190441 -0.0049133301 0.73700005 2.0387119e-38
0.0021057115 -0.0049133375 0.73699999 2.3414803e-38
0.0035095289 -0.004913345 0.73700005 2.2212314e-38
0.0049133287 -0.0049133226 0.73699999 2.1007347e-38
0.0063171452 -0.0049133301 0.73700005 2.2223824e-38
0.0077209459 -0.0049133301 0.73699999 2.3416603e-38
0.0091495244 -0.0049266592 0.73900002 2.2677966e-38
0.010557146 -0.0049266666 0.73900002 2.1938985e-38
0.011964759 -0.0049266592 0.73899996 2.2683006e-38
0.013390472 -0.0049333274 0.74000001 2.341769e-38
0.014839997 -0.004946664 0.74200004 2.341769e-38
0.016209517 -0.00493332 0.73999995 2.3403649e-38
0.017666658 -0.0049466565 0.74199998 2.1802217e-38
0.019028572 -0.0049333274 0.74000001 2.0262947e-38
0.020493329 -0.0049466565 0.74200004 2.1856487e-38
0.021906665 -0.004946664 0.74199998 2.3410106e-38
0.023351429 -0.0049533322 0.74299997 2.0357243e-38
0.024833322 -0.0049666464 0.745 1.7209687e-38
0.02625238 -0.0049666539 0.745 1.5375092e-38
0.027745714 -0.0049799979 0.74700004 1.3445784e-38
0.029207608 -0.0049866587 0.74799997 1.1697635e-38
0.030714277 -0.0049999952 0.75 9.9556258e-39
0.03222857 -0.0050133169 0.75199997 1.0141445e-38
0.033795219 -0.0050333217 0.755 1.0324383e-38
0.035233319 -0.0050333291 0.755 1.0141054e-38
0.036671408 -0.0050333217 0.755 9.955602e-39
0.038109519 -0.0050333291 0.75500005 9.7708674e-39
-0.03096001 -0.0035999864 0.75599998 1.409265e-38
-0.029480973 -0.0035952181 0.75500005 1.2872926e-38
-0.02804287 -0.0035952181 0.755 1.3704434e-38
-0.026534308 -0.0035856962 0.75299996 1.456763e-38
-0.025066672 -0.0035809353 0.75199997 1.6044615e-38
-0.023571445 -0.0035714209 0.75 1.750139e-38
-0.022142867 -0.0035714284 0.75 1.7958377e-38
-0.020659057 -0.0035618991 0.74799997 1.844236e-38
-0.01923429 -0.0035618916 0.74800003 1.9085621e-38
-0.017785709 -0.0035571232 0.74699998 1.9708658e-38
-0.01631905 -0.0035476014 0.745 1.8410322e-38
-0.014900004 -0.0035476089 0.745 1.7217232e-38
-0.013480947 -0.0035476089 0.745 1.7115046e-38
-0.012029524 -0.0035380796 0.74299997 1.7103956e-38
-0.010614292 -0.003538087 0.74299997 2.0264777e-38
-0.0091990465 -0.003538087 0.74299997 2.3417683e-38
-0.0077838018 -0.0035380945 0.74299997 2.341769e-38
-0.00636857 -0.0035380945 0.74300003 2.341769e-38
-0.0049533243 -0.0035381019 0.74300003 2.3044967e-38
-0.0035333391 -0.0035333186 0.74200004 2.2569125e-38
-0.0021114242 -0.0035190284 0.73899996 1.9955237e-38
-0.00070380175 -0.0035190359 0.73900002 1.7394052e-38
0.00070190022 -0.0035095215 0.73699999 2.0465322e-38
0.0021057171 -0.0035095289 0.73700005 2.3417679e-38
0.0035095243 -0.0035095215 0.73699999 2.2303443e-38
0.0049133343 -0.0035095289 0.73700005 2.1176313e-38
0.0063171415 -0.0035095215 0.73699999 2.2304534e-38
0.0077209589 -0.0035095364 0.73700005 2.341768e-38
0.009149529 -0.0035190284 0.73900002 2.2676896e-38
0.01055715 -0.0035190359 0.73900002 2.202078e-38
0.01198095 -0.0035238042 0.74000001 2.2678342e-38
0.013390472 -0.0035238117 0.74000001 2.341769e-38
0.014839992 -0.0035333261 0.74199998 2.2774483e-38
0.01625333 -0.003533341 0.74200004 2.2222352e-38
0.017666664 -0.0035333335 0.74200004 2.1074366e-38
0.019079993 -0.0035333261 0.74199998 1.9975969e-38
0.020493319 -0.0035333335 0.74199998 2.1753889e-38
0.021936186 -0.0035380945 0.74299997 2.3417605e-38
0.023351431 -0.003538087 0.74300003 2.0533668e-38
0.024833331 -0.0035476089 0.74500006 1.7632967e-38
0.02632286 -0.0035571381 0.74700004 1.5451525e-38
0.027745718 -0.0035571456 0.74700004 1.3353955e-38
0.029207617 -0.0035618916 0.74800003 1.1607584e-38
0.03079618 -0.0035809353 0.75199997 9.9570552e-39
0.032271422 -0.0035856962 0.75299996 1.0047812e-38
0.033795226 -0.003595233 0.755 1.0139286e-38
0.035233311 -0.0035952255 0.755 9.7719394e-39
0.036671411 -0.0035952255 0.755 9.4960994e-39
0.038109511 -0.0035952255 0.755 9.4950485e-39
-0.030960007 -0.0021599978 0.75599998 1.4187344e-38
-0.029480979 -0.0021571219 0.755 1.2787891e-38
-0.028042866 -0.0021571293 0.755 1.3045064e-38
-0.02653431 -0.0021514148 0.75299996 1.3360847e-38
-0.025066687 -0.0021485463 0.75199997 1.5595132e-38
-0.023634294 -0.0021485463 0.75199997 1.7687213e-38
-0.022142861 -0.0021428615 0.75000006 1.8121234e-38
-0.020714296 -0.0021428615 0.75 1.852415e-38
-0.019285718 -0.002142854 0.75 1.9192527e-38
-0.017785711 -0.002134271 0.74699998 1.9707189e-38
-0.016319055 -0.0021285489 0.745 1.7277018e-38
-0.014899996 -0.0021285564 0.745 1.4800013e-38
-0.013480953 -0.0021285489 0.745 1.5428914e-38
-0.012029528 -0.0021228492 0.74300003 1.6092636e-38
-0.010614282 -0.0021228567 0.74300003 1.9806301e-38
-0.0091990354 -0.0021228492 0.74300003 2.3410141e-38
-0.0077838157 -0.0021228418 0.74299997 2.341769e-38
-0.0063685696 -0.0021228492 0.74299997 2.341769e-38
-0.0049533383 -0.0021228492 0.74299997 2.2958513e-38
-0.0035333494 -0.0021199882 0.74199998 2.2378631e-38
-0.0021142852 -0.0021142811 0.74000001 1.9928677e-38
-0.00070380641 -0.0021114275 0.73900002 1.7588836e-38
0.00070380571 -0.00211142 0.73899996 2.057079e-38
0.0021114275 -0.00211142 0.73900002 2.3417684e-38
0.0035095201 -0.002105698 0.73699999 2.2407488e-38
0.004926668 -0.00211142 0.73899996 2.1287163e-38
0.0063342899 -0.0021114126 0.73900002 2.2399589e-38
0.007741902 -0.0021114051 0.73899996 2.3415885e-38
0.0091618998 -0.0021142736 0.73999995 2.2774836e-38
0.010571414 -0.0021142662 0.73999995 2.2032263e-38
0.011980949 -0.0021142811 0.74000001 2.2774842e-38
0.013426666 -0.0021199882 0.74200004 2.3417686e-38
0.014839993 -0.0021199957 0.74200004 2.2223819e-38
0.016253321 -0.0021199808 0.74199998 2.0892476e-38
0.017666653 -0.0021199808 0.74199998 2.0296174e-38
0.01908 -0.0021199957 0.74200004 1.9699336e-38
0.020520952 -0.0021228492 0.74300003 2.158098e-38
0.021936188 -0.0021228418 0.74299997 2.3410818e-38
0.02341429 -0.0021285564 0.745 2.0727444e-38
0.024899995 -0.0021342561 0.74699998 1.8028666e-38
0.026322851 -0.0021342784 0.74699998 1.5627279e-38
0.027782852 -0.0021371394 0.74799997 1.3162751e-38
0.029207619 -0.0021371469 0.74800003 1.1605457e-38
0.030796183 -0.0021485537 0.75199997 9.9541839e-39
0.032271419 -0.0021514222 0.75299996 9.953437e-39
0.03379523 -0.0021571293 0.755 9.8623288e-39
0.035233315 -0.0021571368 0.755 9.4028024e-39
0.036719996 -0.0021599829 0.75599998 8.9436375e-39
0.038159996 -0.0021599829 0.75599998 9.3102746e-39
-0.029520018 -0.00071999431 0.75599998 1.3249564e-38
-0.028080018 -0.00071999431 0.75599998 1.3150512e-38
-0.026604772 -0.00071903318 0.755 1.3082465e-38
-0.025100021 -0.00071713328 0.75299996 1.5491106e-38
-0.023634294 -0.00071617216 0.75199997 1.78777e-38
-0.022142868 -0.00071427226 0.75 1.7860786e-38
-0.020714289 -0.00071427971 0.75000006 1.7973493e-38
-0.019285722 -0.00071427226 0.75 1.9178539e-38
-0.017785709 -0.00071141869 0.74699998 2.0262833e-38
-0.016319061 -0.00070951134 0.745 1.7470305e-38
-0.014900004 -0.00070950389 0.745 1.4695542e-38
-0.01348096 -0.00070950389 0.745 1.5338064e-38
-0.012029527 -0.00070761144 0.74299997 1.5979941e-38
-0.010614281 -0.00070761889 0.74299997 1.9612569e-38
-0.0091990503 -0.00070762634 0.74299997 2.3325832e-38
-0.0077838046 -0.00070761889 0.74300003 2.341769e-38
-0.0063685738 -0.00070762634 0.74300003 2.341769e-38
-0.0049466696 -0.00070666522 0.74200004 2.3141466e-38
-0.0035333345 -0.00070665777 0.74199998 2.2955825e-38
-0.0021142932 -0.00070474297 0.74000001 2.0619581e-38
-0.0007038106 -0.00070380419 0.73900002 1.833858e-38
0.00070380152 -0.00070380419 0.73899996 2.0835534e-38
0.0021114312 -0.00070378929 0.73900002 2.341769e-38
0.0035190526 -0.00070379674 0.73900002 2.2492519e-38
0.0049266648 -0.00070378929 0.73899996 2.1645181e-38
0.0063342866 -0.00070379674 0.73900002 2.2488546e-38
0.0077419062 -0.00070379674 0.73899996 2.3417677e-38
0.0091618998 -0.00070475042 0.73999995 2.2771613e-38
0.010571421 -0.00070475787 0.73999995 2.2211273e-38
0.011980944 -0.00070475787 0.73999995 2.2771613e-38
0.013426661 -0.00070665777 0.74199998 2.341768e-38
0.014839989 -0.00070665032 0.74199998 2.2752222e-38
0.016253326 -0.00070666522 0.74200004 2.1949246e-38
0.017666662 -0.00070665777 0.74199998 2.0950401e-38
0.019079989 -0.00070665777 0.74199998 1.9974075e-38
0.020520953 -0.00070761889 0.74299997 2.1661336e-38
0.021995233 -0.00070950389 0.745 2.3417663e-38
0.023477141 -0.00071141124 0.74699998 2.0818262e-38
0.024899997 -0.00071141124 0.74699998 1.8218452e-38
0.026322851 -0.00071141124 0.74699998 1.6102932e-38
0.027782856 -0.00071237236 0.74800003 1.3900305e-38
0.029207611 -0.00071237236 0.74799997 1.1881348e-38
0.030796178 -0.00071616471 0.75199997 9.7705115e-39
0.032271419 -0.00071712583 0.75299996 9.8622909e-39
0.033795223 -0.00071902573 0.755 9.9541489e-39
0.035279997 -0.00071997941 0.75599998 9.8619771e-39
0.03672 -0.00072000176 0.75599998 9.7697842e-39
0.038159996 -0.00071999431 0.75599998 9.7694255e-39
-0.030919066 0.00071906298 0.755 1.4020211e-38
-0.029519999 0.00072000921 0.75599998 1.3624455e-38
-0.028080001 0.00072000921 0.75599998 1.3224754e-38
-0.026604781 0.00071905553 0.75500005 1.2801926e-38
-0.025166677 0.00071906298 0.755 1.5408237e-38
-0.023665721 0.00071716309 0.75299996 1.796306e-38
-0.022201916 0.00071621686 0.75199997 1.7654483e-38
-0.020769527 0.00071620941 0.75199997 1.7416009e-38
-0.019337151 0.00071620941 0.75200003 1.9192535e-38
-0.017809538 0.00071239471 0.74799997 2.0812434e-38
-0.016362853 0.00071143359 0.74699998 1.7646484e-38
-0.01490001 0.00070955604 0.745 1.4514769e-38
-0.013480952 0.00070954859 0.745 1.5155484e-38
-0.012029516 0.00070761889 0.74300003 1.5816005e-38
-0.010614285 0.00070761889 0.74300003 1.9521447e-38
-0.0091990493 0.00070762634 0.74299997 2.3223232e-38
-0.0077838185 0.00070761889 0.74299997 2.3325854e-38
-0.0063685728 0.00070761889 0.74299997 2.341769e-38
-0.0049466798 0.00070667267 0.74199998 2.341769e-38
-0.0035333352 0.00070667267 0.74200004 2.3404673e-38
-0.0021142857 0.00070477277 0.74000001 2.1163928e-38
-0.00070379989 0.00070382655 0.73900002 1.8982929e-38
0.00070381223 0.00070382655 0.73899996 2.1198913e-38
0.0021114261 0.0007038191 0.73900002 2.3414094e-38
0.0035190559 0.00070381165 0.73900002 2.2683006e-38
0.0049266675 0.00070382655 0.73899996 2.1936829e-38
0.006334289 0.0007038191 0.73900002 2.2675446e-38
0.0077419011 0.0007038191 0.73899996 2.3415882e-38
0.0091618998 0.00070477277 0.74000001 2.2866677e-38
0.010571423 0.00070477277 0.73999995 2.2311001e-38
0.012013336 0.00070666522 0.74200004 2.2866677e-38
0.013426662 0.00070666522 0.74200004 2.3417686e-38
0.01483999 0.00070667267 0.74199998 2.3325845e-38
0.016253322 0.00070667267 0.74199998 2.3092907e-38
0.017690478 0.00070761889 0.74300003 2.1581807e-38
0.019105719 0.00070761889 0.74300003 2.015884e-38
0.020576183 0.00070954859 0.745 2.1856487e-38
0.021995233 0.00070954859 0.745 2.3401495e-38
0.023477143 0.00071144104 0.74699998 2.0909688e-38
0.024899999 0.00071144104 0.74699998 1.8413607e-38
0.026358088 0.00071238726 0.74800003 1.657329e-38
0.027782846 0.00071238726 0.74799997 1.464219e-38
0.02920761 0.00071238726 0.74799997 1.2156491e-38
0.030796191 0.00071620196 0.75200003 9.5857769e-39
0.032271415 0.00071715564 0.75299996 9.8630406e-39
0.033795226 0.00071906298 0.755 1.0045659e-38
0.035279993 0.00072000921 0.75599998 1.0321188e-38
0.036719993 0.00072001666 0.75599998 1.0503396e-38
0.038159993 0.00072001666 0.75599998 1.0227503e-38
-0.030959999 0.0021600127 0.75600004 1.373686e-38
-0.029519999 0.0021599904 0.75600004 1.4003293e-38
-0.028080011 0.0021600127 0.75599998 1.3341686e-38
-0.026640013 0.0021600127 0.75599998 1.2798689e-38
-0.025166688 0.0021571591 0.755 1.5395318e-38
-0.023728587 0.0021571591 0.755 1.7972369e-38
-0.022231447 0.0021514446 0.75299996 1.7491226e-38
-0.020797156 0.002151452 0.75299996 1.7046859e-38
-0.019337149 0.002148591 0.75199997 1.8810848e-38
-0.017809527 0.0021371543 0.74799997 2.0637755e-38
-0.016362853 0.0021342933 0.74700004 1.7836653e-38
-0.014899991 0.0021285862 0.74500006 1.5061505e-38
-0.013480949 0.0021285862 0.74500006 1.6737867e-38
-0.01202953 0.0021228716 0.74299997 1.8483903e-38
-0.010614284 0.0021228641 0.74299997 2.0435491e-38
-0.0091990381 0.0021228641 0.74300003 2.2495002e-38
-0.0077838073 0.0021228567 0.74300003 2.2957436e-38
-0.0063685719 0.0021228716 0.74299997 2.341769e-38
-0.0049466803 0.0021200106 0.74199998 2.3320832e-38
-0.0035333454 0.0021200106 0.74199998 2.3233992e-38
-0.0021142936 0.0021142885 0.74000001 2.220799e-38
-0.00070380361 0.0021114349 0.73900002 2.1199963e-38
0.00070380804 0.0021114498 0.73899996 2.2301999e-38
0.0021114303 0.0021114424 0.73900002 2.3417673e-38
0.0035190526 0.0021114349 0.73900002 2.3047478e-38
0.0049333195 0.002114296 0.73999995 2.2671513e-38
0.0063428525 0.0021142811 0.74000001 2.3045656e-38
0.0077523752 0.0021142885 0.74000001 2.3417676e-38
0.0091618979 0.0021142885 0.74000001 2.2956719e-38
0.010571423 0.002114296 0.74000001 2.2492519e-38
0.012013322 0.0021200031 0.74199998 2.2956719e-38
0.013426657 0.002120018 0.74199998 2.341769e-38
0.014839995 0.0021200106 0.74200004 2.2953132e-38
0.016253321 0.0021200031 0.74200004 2.2483803e-38
0.017666657 0.002120018 0.74199998 2.106168e-38
0.019105718 0.0021228641 0.74299997 1.9609998e-38
0.020520948 0.0021228641 0.74300003 2.0907281e-38
0.021995228 0.0021285862 0.745 2.2095684e-38
0.023477145 0.0021343008 0.74699998 2.118012e-38
0.024899999 0.0021342933 0.74699998 2.0156693e-38
0.026358092 0.0021371543 0.74800003 1.7683627e-38
0.027782848 0.0021371543 0.74799997 1.5295111e-38
0.029207615 0.0021371469 0.74800003 1.225442e-38
0.030796191 0.002148591 0.75200003 9.3084908e-39
0.032271415 0.0021514297 0.75299996 9.4932198e-39
0.033795219 0.0021571517 0.755 9.7683913e-39
0.035279997 0.0021600053 0.75599998 9.8598919e-39
0.036817141 0.0021657348 0.75800002 1.0042431e-38
0.038260952 0.0021657348 0.75800002 9.859061e-39
-0.030960007 0.0036000162 0.75599998 1.3462381e-38
-0.029520007 0.0036000088 0.75599998 1.4279163e-38
-0.028080007 0.0036000162 0.75599998 1.3523622e-38
-0.026640009 0.0036000162 0.75599998 1.2803373e-38
-0.025166692 0.0035952553 0.755 1.5401757e-38
-0.023728579 0.0035952479 0.755 1.7965546e-38
-0.02223145 0.003585726 0.75299996 1.7291056e-38
-0.020797158 0.003585726 0.75299996 1.6586965e-38
-0.019337147 0.0035809726 0.75199997 1.8549332e-38
-0.017809531 0.0035619065 0.74800003 2.0446524e-38
-0.016362863 0.0035571679 0.74699998 1.8000183e-38
-0.014899998 0.0035476312 0.74500006 1.5646986e-38
-0.013480955 0.0035476238 0.74500006 1.8434066e-38
-0.012061897 0.0035476238 0.74500006 2.1081526e-38
-0.010614283 0.0035381019 0.74299997 2.1332655e-38
-0.009199053 0.0035381168 0.74299997 2.1654838e-38
-0.0077838073 0.0035381094 0.74299997 2.2591171e-38
-0.0063600102 0.003533341 0.74199998 2.3412659e-38
-0.0049466658 0.0035333335 0.74200004 2.3213915e-38
-0.0035333454 0.0035333335 0.74200004 2.295311e-38
-0.0021114298 0.0035190582 0.73899996 2.3233992e-38
-0.00070476381 0.0035238117 0.74000001 2.3407616e-38
0.00070380431 0.0035190657 0.73899996 2.3390754e-38
0.0021114261 0.0035190582 0.73899996 2.3410141e-38
0.0035238052 0.0035238266 0.73999995 2.341769e-38
0.0049333279 0.0035238191 0.73999995 2.3414813e-38
0.0063428506 0.0035238266 0.73999995 2.3417676e-38
0.0077523836 0.0035238117 0.74000001 2.3417676e-38
0.0091619054 0.0035238117 0.74000001 2.3050333e-38
0.010571423 0.0035238191 0.74000001 2.2573932e-38
0.012013329 0.003533341 0.74200004 2.3049967e-38
0.013426658 0.003533341 0.74200004 2.3408688e-38
0.014839991 0.003533341 0.74199998 2.2677223e-38
0.016253319 0.0035333484 0.74199998 2.1805811e-38
0.017690482 0.0035380945 0.74300003 2.038805e-38
0.019105721 0.003538087 0.74300003 1.9049683e-38
0.020576196 0.0035476312 0.74500006 1.9974199e-38
0.021995239 0.0035476387 0.74500006 2.0818622e-38
0.023477145 0.003557153 0.74699998 2.1374623e-38
0.024899999 0.0035571456 0.74699998 2.1921702e-38
0.026358088 0.0035619065 0.74799997 1.8892576e-38
0.027782852 0.0035619065 0.74800003 1.5847214e-38
0.029285707 0.0035714507 0.75 1.244061e-38
0.030796183 0.0035809651 0.75199997 8.9436655e-39
0.032271415 0.0035857335 0.75299996 9.2162811e-39
0.03379523 0.0035952479 0.75500005 9.4003263e-39
0.035280004 0.0036000088 0.75600004 9.4914597e-39
0.036817137 0.0036095381 0.75799996 9.5836175e-39
0.038260952 0.0036095455 0.75799996 9.5828636e-39
-0.031041918 0.0050533563 0.75799996 1.3277226e-38
-0.029598108 0.0050533414 0.75799996 1.4199171e-38
-0.028154297 0.0050533488 0.75799996 1.4000435e-38
-0.026640007 0.0050399974 0.75600004 1.3805691e-38
-0.025200009 0.0050400048 0.75600004 1.6223236e-38
-0.023728589 0.0050333366 0.75500005 1.8625246e-38
-0.022290485 0.0050333515 0.755 1.7593829e-38
-0.020797161 0.0050200224 0.75299996 1.6674856e-38
-0.019337147 0.0050133541 0.75199997 1.8806544e-38
-0.017857147 0.0050000101 0.75000006 2.0925764e-38
-0.016362861 0.0049800202 0.74699998 2.0172613e-38
-0.014900005 0.0049666837 0.745 1.9448861e-38
-0.013480947 0.0049666762 0.74500006 2.0833738e-38
-0.012061904 0.0049666911 0.74500006 2.2126197e-38
-0.010614287 0.0049533322 0.74300003 2.2290802e-38
-0.0091990409 0.0049533322 0.74300003 2.2496052e-38
-0.0077838111 0.0049533322 0.74300003 2.2957795e-38
-0.0063685756 0.0049533397 0.74299997 2.3417675e-38
-0.0049466761 0.0049466789 0.74199998 2.3317213e-38
-0.0035333415 0.0049466863 0.74199998 2.3140733e-38
-0.0021142899 0.0049333498 0.73999995 2.3325496e-38
-0.00070476707 0.0049333498 0.73999995 2.3417676e-38
0.00070476637 0.0049333349 0.74000001 2.2669346e-38
0.0021142815 0.0049333349 0.74000001 2.1853244e-38
0.0035238038 0.0049333349 0.74000001 2.2398172e-38
0.0049333265 0.0049333349 0.73999995 2.2958513e-38
0.0063428492 0.0049333572 0.73999995 2.2951697e-38
0.007752372 0.0049333498 0.73999995 2.3050333e-38
0.0091866655 0.0049466714 0.74200004 2.2288011e-38
0.010599991 0.0049466714 0.74199998 2.1610358e-38
0.012013319 0.0049466714 0.74199998 2.2092486e-38
0.013426664 0.004946664 0.74200004 2.2652446e-38
0.014839992 0.004946664 0.74200004 2.2278626e-38
0.016253324 0.0049466714 0.74199998 2.1857481e-38
0.017690476 0.0049533471 0.74299997 2.1524942e-38
0.019105714 0.0049533397 0.74299997 2.1276719e-38
0.020576196 0.0049666837 0.74500006 2.1650536e-38
0.021995239 0.0049666762 0.74500006 2.2126227e-38
0.023477146 0.0049799979 0.74700004 2.1659527e-38
0.024933325 0.004986681 0.74799997 2.1109576e-38
0.02635809 0.004986681 0.74799997 1.7327805e-38
0.02785713 0.0050000027 0.75 1.3546679e-38
0.029285705 0.0050000027 0.75000006 1.1335005e-38
0.030837132 0.0050200075 0.75300002 9.1259072e-39
0.032271419 0.0050200075 0.75299996 9.3084768e-39
0.033795223 0.005033344 0.755 9.3999605e-39
0.035279993 0.0050400048 0.75599998 9.400685e-39
0.036719989 0.0050400048 0.75599998 9.4932226e-39
0.038260948 0.0050533563 0.75799996 9.4010129e-39
-0.032485712 0.0064971671 0.75799996 1.2164799e-38
-0.031041916 0.0064971671 0.75799996 1.3091415e-38
-0.029598108 0.0064971745 0.75799996 1.4011564e-38
-0.028154295 0.0064971596 0.75799996 1.4473252e-38
-0.026640017 0.0064800158 0.75599998 1.48356e-38
-0.025200015 0.0064799935 0.75599998 1.7060488e-38
-0.023728594 0.0064714402 0.755 1.9262009e-38
-0.022231439 0.0064542964 0.75299996 1.7968042e-38
-0.020769523 0.0064457357 0.75200003 1.6677006e-38
-0.019337159 0.0064457431 0.75199997 1.8983697e-38
-0.017857153 0.0064285845 0.75 2.1290651e-38
-0.016362861 0.0064028725 0.74699998 2.2315493e-38
-0.014899996 0.0063857287 0.745 2.3227476e-38
-0.013480954 0.0063857287 0.745 2.3234018e-38
-0.012061912 0.0063857287 0.745 2.3125274e-38
-0.010614286 0.0063685849 0.74299997 2.3208094e-38
-0.0091990409 0.0063685775 0.74299997 2.3223209e-38
-0.0077838101 0.00636857 0.74299997 2.3325854e-38
-0.0063685649 0.0063685775 0.74300003 2.3411571e-38
-0.0049533336 0.00636857 0.74300003 2.3404015e-38
-0.0035333415 0.0063600093 0.74199998 2.3310767e-38
-0.0021142974 0.006342873 0.73999995 2.341769e-38
-0.00070477452 0.0063428804 0.73999995 2.3402201e-38
0.00070475845 0.0063428655 0.74000001 2.1831967e-38
0.002114282 0.0063428655 0.74000001 2.0263614e-38
0.0035238047 0.0063428655 0.74000001 2.1363154e-38
0.0049333274 0.0063428655 0.74000001 2.2376597e-38
0.006359993 0.0063600019 0.74200004 2.2472402e-38
0.0077733276 0.0063600093 0.74199998 2.255597e-38
0.0091866562 0.0063600019 0.74199998 2.1625042e-38
0.010599999 0.0063600019 0.74200004 2.0702037e-38
0.012013327 0.0063600093 0.74200004 2.1240148e-38
0.013426661 0.0063600093 0.74199998 2.1827386e-38
0.014839989 0.0063600168 0.74199998 2.1927465e-38
0.01627524 0.0063685775 0.74300003 2.1915634e-38
0.01769048 0.00636857 0.74300003 2.2669336e-38
0.01915714 0.0063857362 0.745 2.3402953e-38
0.020576188 0.0063857362 0.745 2.3408342e-38
0.02205429 0.00640288 0.74700004 2.3408331e-38
0.023477146 0.0064028725 0.74700004 2.1843889e-38
0.024933331 0.0064114332 0.74799997 2.0273681e-38
0.026358096 0.0064114258 0.74800003 1.5761509e-38
0.027782852 0.0064114407 0.74799997 1.1246101e-38
0.029285703 0.006428577 0.75 1.0319095e-38
0.030796181 0.0064457357 0.75199997 9.3106558e-39
0.03222857 0.0064457282 0.75199997 9.4002983e-39
0.03379523 0.0064714402 0.755 9.400664e-39
0.03528 0.0064800084 0.75600004 9.4017486e-39
0.03672 0.0064800084 0.75600004 9.3102634e-39
0.038260948 0.0064971596 0.75799996 9.3102564e-39
-0.032485727 0.0079409704 0.75799996 1.1422946e-38
-0.031041909 0.0079409629 0.75800002 1.2161593e-38
-0.029598098 0.0079409704 0.75800002 1.2904527e-38
-0.028154287 0.0079409629 0.75800002 1.3175726e-38
-0.02664 0.0079200044 0.75600004 1.3360483e-38
-0.025166675 0.0079095289 0.75500005 1.4653004e-38
-0.023728587 0.0079095364 0.755 1.5955225e-38
-0.022231441 0.0078885853 0.75299996 1.5108998e-38
-0.020797163 0.0078885853 0.75299996 1.4274572e-38
-0.019337157 0.0078781173 0.75199997 1.6115571e-38
-0.017857147 0.0078571439 0.75000006 1.7886693e-38
-0.016384779 0.0078362003 0.74799997 1.8805826e-38
-0.014940004 0.0078257248 0.74699998 1.973853e-38
-0.013517149 0.0078257248 0.74699998 1.9625888e-38
-0.012061902 0.0078047812 0.745 1.9524684e-38
-0.010642859 0.0078047812 0.745 1.9702573e-38
-0.009223802 0.0078047812 0.745 2.0005385e-38
-0.0078047593 0.0078047812 0.74500006 2.0364877e-38
-0.0063857161 0.0078047737 0.74500006 2.0835507e-38
-0.004966659 0.0078047812 0.74500006 2.0806422e-38
-0.0035380872 0.0077838153 0.74300003 2.0893263e-38
-0.0021200068 0.0077733323 0.74200004 2.1732006e-38
-0.00070667255 0.0077733323 0.74199998 2.2553392e-38
0.00070666254 0.0077733397 0.74199998 2.1907918e-38
0.0021199933 0.0077733323 0.74200004 2.1240713e-38
0.0035333275 0.0077733323 0.74200004 2.1718939e-38
0.0049466547 0.0077733472 0.74199998 2.2252422e-38
0.0063599893 0.0077733546 0.74199998 2.2548065e-38
0.0077733272 0.0077733397 0.74200004 2.2800236e-38
0.0091866618 0.0077733472 0.74200004 2.2367586e-38
0.010599989 0.0077733397 0.74199998 2.1913823e-38
0.012013323 0.0077733546 0.74199998 2.2288732e-38
0.013426661 0.0077733397 0.74200004 2.2682628e-38
0.014839995 0.0077733397 0.74199998 2.2676177e-38
0.016319038 0.0078047812 0.745 2.2677261e-38
0.017690482 0.0077838078 0.74299997 2.2582202e-38
0.019105719 0.0077838078 0.74300003 2.2583993e-38
0.020631427 0.0078257397 0.74699998 2.1661689e-38
0.022083806 0.0078361928 0.74800003 2.0745096e-38
0.023508562 0.0078362003 0.74799997 1.8800016e-38
0.024933327 0.0078362003 0.74800003 1.6869979e-38
0.026358085 0.0078362003 0.74799997 1.4468208e-38
0.027857134 0.0078571364 0.75 1.2060399e-38
0.029285695 0.0078571513 0.75 1.0963755e-38
0.030796183 0.0078781247 0.75199997 9.9585293e-39
0.032357123 0.0079095364 0.755 9.7697772e-39
0.033839997 0.0079200044 0.75599998 9.6765152e-39
0.035466664 0.0079619214 0.75999999 9.4942876e-39
0.036914285 0.0079619288 0.75999999 9.4031709e-39
-0.029598098 0.0093847737 0.75799996 1.1787412e-38
-0.028154289 0.0093847886 0.75799996 1.1872784e-38
-0.026640007 0.0093600005 0.75599998 1.1876722e-38
-0.025166681 0.0093476251 0.755 1.2235447e-38
-0.023728581 0.0093476251 0.755 1.2616444e-38
-0.022231443 0.0093228742 0.75299996 1.2237286e-38
-0.020797165 0.0093228817 0.75299996 1.1868861e-38
-0.019337146 0.0093104988 0.75200003 1.3133027e-38
-0.017857155 0.0092857108 0.75 1.4455005e-38
-0.016384767 0.0092609599 0.74799997 1.5281572e-38
-0.014940003 0.0092485771 0.74699998 1.6115979e-38
-0.013517148 0.0092485771 0.74699998 1.6005845e-38
-0.012061909 0.0092238262 0.745 1.5918294e-38
-0.010642867 0.0092238188 0.745 1.6255481e-38
-0.0092238085 0.0092238262 0.745 1.6663036e-38
-0.0078047658 0.0092238188 0.745 1.7384482e-38
-0.0063857082 0.0092238262 0.745 1.813421e-38
-0.0049666651 0.0092238188 0.74500006 1.8275889e-38
-0.0035476221 0.0092238188 0.74500006 1.8501915e-38
-0.0021200175 0.0091866851 0.74199998 2.0063504e-38
-0.00070667255 0.0091866702 0.74200004 2.1639721e-38
0.00070666207 0.0091866776 0.74200004 2.1913741e-38
0.0021199901 0.0091866776 0.74199998 2.219251e-38
0.0035333247 0.0091866851 0.74199998 2.2203664e-38
0.0049466626 0.0091866702 0.74200004 2.2196872e-38
0.0063599898 0.0091866776 0.74199998 2.2666835e-38
0.0077733248 0.0091866776 0.74199998 2.3026275e-38
0.0091866627 0.0091866627 0.74200004 2.3039899e-38
0.010599997 0.0091866702 0.74200004 2.3035252e-38
0.012013323 0.0091866702 0.74199998 2.3226832e-38
0.013444762 0.0091990605 0.74299997 2.3414805e-38
0.014860002 0.009199053 0.74300003 2.3416954e-38
0.016319038 0.0092238411 0.745 2.3409413e-38
0.017690485 0.0091990456 0.74300003 2.2581808e-38
0.019105712 0.009199053 0.74299997 2.1655556e-38
0.020631427 0.0092485845 0.74699998 1.9817405e-38
0.022083798 0.0092609823 0.74799997 1.7958771e-38
0.023508566 0.0092609748 0.74799997 1.5740329e-38
0.024933331 0.0092609599 0.74800003 1.3454124e-38
0.026358087 0.0092609525 0.74799997 1.3181128e-38
0.02785713 0.0092857257 0.75 1.2807305e-38
0.02928571 0.0092857257 0.75 1.1700234e-38
0.030837132 0.0093228593 0.75300002 1.0507744e-38
0.032399997 0.0093600079 0.75599998 1.022787e-38
0.033840001 0.0093600079 0.75599998 9.8608939e-39
0.03546666 0.0094095394 0.75999999 9.6786648e-39
0.036962856 0.0094219074 0.76099998 9.4031625e-39
-0.028154289 0.010828592 0.75799996 1.2798646e-38
-0.026710492 0.010828592 0.75799996 1.2976553e-38
-0.025200007 0.010800004 0.75599998 1.3806278e-38
-0.023728585 0.010785736 0.755 1.4537756e-38
-0.022231445 0.010757156 0.75299996 1.4266217e-38
-0.020797152 0.010757156 0.75299996 1.3891344e-38
-0.019337144 0.010742873 0.75200003 1.518278e-38
-0.017857159 0.0107143 0.75 1.6477482e-38
-0.016428581 0.010714293 0.75 1.7033195e-38
-0.014960012 0.010685734 0.74799997 1.7570928e-38
-0.013517147 0.010671429 0.74699998 1.8040141e-38
-0.012094277 0.010671437 0.74699998 1.8407483e-38
-0.010642858 0.010642879 0.745 1.8961007e-38
-0.0092238151 0.010642886 0.745 1.9526758e-38
-0.0078047584 0.010642879 0.745 1.9799064e-38
-0.0063857147 0.010642879 0.745 2.0081369e-38
-0.004966672 0.010642879 0.745 2.0532997e-38
-0.0035476142 0.010642879 0.74500006 2.1019104e-38
-0.0021200031 0.010600008 0.74199998 2.1743768e-38
-0.0007066828 0.010600008 0.74199998 2.2578546e-38
0.00070666207 0.010600001 0.74200004 2.266716e-38
0.0021199961 0.010600001 0.74200004 2.2860189e-38
0.0035333233 0.010600016 0.74199998 2.2856991e-38
0.0049466579 0.010600008 0.74199998 2.2858785e-38
0.0063599958 0.010600001 0.74200004 2.3042097e-38
0.0077733314 0.010600001 0.74200004 2.3230432e-38
0.0091990503 0.010614298 0.74299997 2.2951338e-38
0.010614288 0.010614298 0.74300003 2.2583278e-38
0.012029526 0.010614291 0.74300003 2.1848236e-38
0.013444767 0.010614283 0.74300003 2.1210757e-38
0.014860003 0.010614298 0.74299997 2.0187281e-38
0.01631905 0.010642871 0.74500006 1.9175633e-38
0.017738102 0.010642871 0.74500006 1.8237524e-38
0.019157132 0.010642879 0.745 1.7414225e-38
0.020631427 0.010671437 0.74699998 1.6661594e-38
0.022083806 0.010685727 0.74799997 1.5899598e-38
0.023508569 0.010685727 0.74800003 1.4996618e-38
0.024933327 0.010685727 0.74799997 1.4178402e-38
0.026428565 0.010714293 0.75 1.3825461e-38
0.027857138 0.010714293 0.75000006 1.3553136e-38
0.029363807 0.010742873 0.75200003 1.225878e-38
0.030837134 0.010757156 0.75300002 1.1061982e-38
0.03239999 0.010800004 0.75599998 1.0230014e-38
0.033929519 0.010828584 0.75799996 9.4017066e-39
0.035513323 0.01087144 0.76099998 9.3105941e-39
-0.026710484 0.012272395 0.75800002 1.4093321e-38
-0.025200015 0.012240015 0.75599998 1.5291504e-38
-0.023728594 0.012223817 0.755 1.6482503e-38
-0.022231447 0.012191445 0.75299996 1.6214535e-38
-0.020797154 0.012191452 0.75299996 1.5934376e-38
-0.019337157 0.012175262 0.75199997 1.7229412e-38
-0.017857155 0.012142867 0.75 1.8423281e-38
-0.016384756 0.012110472 0.74800003 1.8803189e-38
-0.014960014 0.012110487 0.74799997 1.9066871e-38
-0.013517146 0.012094304 0.74700004 1.9992415e-38
-0.012094277 0.012094304 0.74700004 2.0909696e-38
-0.010671422 0.012094282 0.74700004 2.165371e-38
-0.0092238067 0.012061924 0.745 2.2384822e-38
-0.007804764 0.012061916 0.745 2.2203678e-38
-0.0063857217 0.012061924 0.745 2.2018921e-38
-0.0049666641 0.012061924 0.745 2.275539e-38
-0.0035476207 0.012061916 0.745 2.3404358e-38
-0.0021228585 0.012029529 0.74299997 2.3405455e-38
-0.00070761272 0.012029521 0.74300003 2.3407252e-38
0.00070665183 0.012013331 0.74199998 2.3407615e-38
0.0021199859 0.012013339 0.74199998 2.341049e-38
0.0035333312 0.012013331 0.74200004 2.341265e-38
0.0049466584 0.012013346 0.74200004 2.3408349e-38
0.006359993 0.012013346 0.74199998 2.341194e-38
0.0077733207 0.012013353 0.74199998 2.3406195e-38
0.009199054 0.012029521 0.74300003 2.2767646e-38
0.010614281 0.012029529 0.74299997 2.2112235e-38
0.01202952 0.012029529 0.74299997 2.0555328e-38
0.013444765 0.012029521 0.74299997 1.8879292e-38
0.014860004 0.012029521 0.74300003 1.6944969e-38
0.016319051 0.012061916 0.74500006 1.4908766e-38
0.017738102 0.012061909 0.74500006 1.3962394e-38
0.019157147 0.012061916 0.74500006 1.3059837e-38
0.020631429 0.012094297 0.74699998 1.3422887e-38
0.022083808 0.012110487 0.74800003 1.379807e-38
0.023508566 0.012110494 0.74799997 1.4351184e-38
0.024999991 0.012142859 0.75 1.4922371e-38
0.026428558 0.012142867 0.75 1.4571975e-38
0.027857138 0.012142859 0.75 1.4195973e-38
0.029363802 0.012175255 0.75199997 1.2903053e-38
0.03091903 0.012223825 0.755 1.1521874e-38
0.032399993 0.012240015 0.75599998 1.0228943e-38
0.033929523 0.012272395 0.75799996 8.8506978e-39
0.03546666 0.012304783 0.75999999 8.9425361e-39
-0.026710484 0.013716199 0.75799996 1.4099096e-38
-0.025200015 0.013680018 0.75599998 1.4742e-38
-0.023728592 0.013661906 0.755 1.5385556e-38
-0.022290489 0.013661921 0.755 1.548097e-38
-0.020797158 0.013625741 0.75299996 1.5667533e-38
-0.019362871 0.013625734 0.75300002 1.6679538e-38
-0.01785716 0.013571441 0.75 1.7693297e-38
-0.016428582 0.013571434 0.75 1.8247519e-38
-0.014960003 0.013535246 0.74800003 1.8799286e-38
-0.013535247 0.013535254 0.74799997 1.9537235e-38
-0.012094276 0.013517156 0.74700004 2.0278382e-38
-0.010671421 0.013517156 0.74700004 2.0737922e-38
-0.0092485668 0.013517149 0.74700004 2.1287503e-38
-0.0078047714 0.013480984 0.745 2.1105269e-38
-0.0064028567 0.013517156 0.74700004 2.0922315e-38
-0.0049800021 0.013517156 0.74700004 2.1013432e-38
-0.0035476275 0.013480976 0.745 2.1203218e-38
-0.0021228576 0.013444781 0.74299997 2.1015618e-38
-0.00070762669 0.013444774 0.74299997 2.0839121e-38
0.00070761947 0.013444774 0.74299997 2.0280934e-38
0.0021228576 0.013444766 0.74300003 1.9736719e-38
0.0035380959 0.013444766 0.74300003 1.9074838e-38
0.0049533411 0.013444766 0.74300003 1.8439532e-38
0.0063685691 0.013444766 0.74299997 1.8330845e-38
0.0077838083 0.013444766 0.74299997 1.8336932e-38
0.0091990465 0.013444774 0.74300003 1.8230736e-38
0.010614286 0.013444766 0.74300003 1.813458e-38
0.012029531 0.013444766 0.74300003 1.7756461e-38
0.01344476 0.013444774 0.74299997 1.7357486e-38
0.014859998 0.013444766 0.74299997 1.6546686e-38
0.016319046 0.013480976 0.745 1.5796168e-38
0.017738095 0.013480969 0.74500006 1.5433439e-38
0.019157138 0.013480969 0.74500006 1.5153664e-38
0.020631431 0.013517141 0.74699998 1.5449295e-38
0.022083813 0.013535231 0.74800003 1.5743045e-38
0.023508569 0.013535246 0.74799997 1.648485e-38
0.024999993 0.013571441 0.75 1.7230772e-38
0.026428564 0.013571441 0.75 1.5488885e-38
0.027931424 0.013607636 0.75199997 1.3826469e-38
0.029363805 0.013607636 0.75199997 1.2904476e-38
0.030919038 0.013661914 0.75500005 1.1984636e-38
0.032399997 0.013679996 0.75600004 1.0323296e-38
0.034019049 0.013752401 0.75999999 8.7581476e-39
0.035513319 0.013770491 0.76099998 8.9414613e-39
0.036962844 0.013770491 0.76099998 9.2169776e-39
-0.025200006 0.015120015 0.75599998 1.4100182e-38
-0.023760008 0.015120015 0.75599998 1.4192023e-38
-0.022320008 0.015120015 0.75599998 1.4840258e-38
-0.020852396 0.01510001 0.755 1.5389856e-38
-0.019362872 0.015060008 0.75300002 1.6219982e-38
-0.017904764 0.015040025 0.75199997 1.6953936e-38
-0.016428588 0.015000008 0.75 1.7786183e-38
-0.015000009 0.015000008 0.75 1.8521613e-38
-0.013535251 0.014959998 0.74799997 1.9078397e-38
-0.012094286 0.014940023 0.74699998 1.9538304e-38
-0.01067143 0.014940016 0.74699998 1.9823867e-38
-0.0092485752 0.014940016 0.74699998 2.0090406e-38
-0.0078047528 0.014900014 0.74500006 2.0007182e-38
-0.0063857199 0.014900021 0.745 1.9810951e-38
-0.0049666772 0.014900014 0.745 1.9356434e-38
-0.0035476198 0.014900029 0.745 1.888757e-38
-0.0021228618 0.014860004 0.74300003 1.8614933e-38
-0.00070953357 0.014900014 0.745 1.8240406e-38
0.00070952403 0.014900014 0.745 1.7140164e-38
0.002128568 0.014900014 0.745 1.5927597e-38
0.0035380963 0.014860012 0.74299997 1.4618532e-38
0.004953335 0.014860004 0.74300003 1.3339292e-38
0.0063685733 0.014860012 0.74300003 1.3318486e-38
0.0077838115 0.014860004 0.74300003 1.3240631e-38
0.0091990409 0.014860012 0.74299997 1.3684014e-38
0.010614286 0.014860019 0.74299997 1.4157198e-38
0.012029524 0.014860012 0.74299997 1.4977993e-38
0.013444763 0.014860012 0.74300003 1.5808073e-38
0.014860009 0.014860004 0.74300003 1.627153e-38
0.016319046 0.014900014 0.745 1.6636339e-38
0.017738095 0.014900006 0.745 1.7005811e-38
0.019208577 0.014940016 0.74700004 1.727954e-38
0.020659046 0.014960013 0.74800003 1.7477219e-38
0.0220838 0.014960021 0.74799997 1.7581964e-38
0.023508566 0.014960013 0.74800003 1.8522199e-38
0.024999997 0.015000001 0.75000006 1.9444923e-38
0.026428556 0.015000015 0.75 1.6418004e-38
0.027931424 0.015040018 0.75199997 1.3368733e-38
0.029363798 0.015040025 0.75199997 1.2904132e-38
0.030919027 0.015100017 0.755 1.2442737e-38
0.032399986 0.015120015 0.75599998 1.0504442e-38
0.034019042 0.015200019 0.75999999 8.5730207e-39
0.035513323 0.015220024 0.76099998 8.9399997e-39
0.036962848 0.015220009 0.76099998 9.3080816e-39
-0.025200006 0.016560018 0.75599998 1.1607304e-38
-0.023760008 0.016560018 0.75599998 1.1431188e-38
-0.022320008 0.016560018 0.75599998 1.1792811e-38
-0.020880008 0.016560003 0.75599998 1.2167703e-38
-0.0194143 0.016538106 0.755 1.2896664e-38
-0.017904775 0.016472392 0.75199997 1.37282e-38
-0.016428584 0.016428582 0.75000006 1.418486e-38
-0.015000015 0.016428597 0.75 1.4657694e-38
-0.013535239 0.016384773 0.74800003 1.5018244e-38
-0.012110484 0.01638478 0.74799997 1.5390269e-38
-0.01067143 0.016362876 0.74699998 1.5659695e-38
-0.0092485752 0.016362868 0.74699998 1.5937356e-38
-0.0078257201 0.016362876 0.74699998 1.5839063e-38
-0.0064028655 0.016362876 0.74699998 1.5743274e-38
-0.004979996 0.016362876 0.74699998 1.6292128e-38
-0.0035476258 0.016319081 0.745 1.6834156e-38
-0.0021285829 0.016319074 0.745 1.674302e-38
-0.00070952519 0.016319081 0.745 1.6642196e-38
0.00070951798 0.016319074 0.745 1.6368104e-38
0.0021228613 0.016275235 0.74300003 1.6071708e-38
0.0035381005 0.016275242 0.74300003 1.5616394e-38
0.0049533285 0.016275242 0.74299997 1.5153262e-38
0.0063685738 0.016275242 0.74299997 1.5612788e-38
0.0077838129 0.016275242 0.74299997 1.6071599e-38
0.0092238123 0.016319066 0.74500006 1.6352835e-38
0.01061429 0.016275235 0.74300003 1.6720223e-38
0.012029517 0.016275235 0.74299997 1.7280968e-38
0.013444764 0.016275249 0.74299997 1.7839527e-38
0.014899996 0.016319074 0.745 1.7929582e-38
0.016319048 0.016319066 0.745 1.8022859e-38
0.017738096 0.016319081 0.745 1.737033e-38
0.019208577 0.016362876 0.74700004 1.6726762e-38
0.020659039 0.016384773 0.74799997 1.7008723e-38
0.022083804 0.016384773 0.74799997 1.7300059e-38
0.023508571 0.016384766 0.74800003 1.8709565e-38
0.024999993 0.016428575 0.75 2.0098947e-38
0.026499046 0.016472399 0.75199997 1.5947348e-38
0.027931418 0.016472407 0.75199997 1.1887177e-38
0.029402839 0.016494296 0.75299996 1.2262372e-38
0.030919028 0.016538106 0.755 1.2724341e-38
0.032399993 0.016559996 0.75600004 1.0230713e-38
0.034019046 0.016647629 0.75999999 7.8340123e-39
0.035513319 0.016669549 0.76099998 8.1109425e-39
0.036962844 0.016669542 0.76099998 8.4811894e-39
0.038412377 0.016669542 0.76100004 8.3893875e-39
-0.023822853 0.018047646 0.75799996 8.5598078e-39
-0.022379044 0.018047631 0.75799996 8.7312889e-39
-0.020880016 0.018000022 0.75599998 8.9260905e-39
-0.019414309 0.017976202 0.755 9.654327e-39
-0.017904775 0.017904796 0.75199997 1.0394761e-38
-0.016472384 0.017904773 0.75199997 1.0567681e-38
-0.015000011 0.017857142 0.75 1.0766431e-38
-0.013571442 0.017857164 0.75 1.0946169e-38
-0.012110486 0.017809533 0.74799997 1.1134884e-38
-0.01068572 0.017809525 0.74800003 1.1395347e-38
-0.0092609646 0.017809533 0.74799997 1.1681951e-38
-0.0078361975 0.017809525 0.74800003 1.1668656e-38
-0.0064114425 0.01780954 0.74799997 1.1587616e-38
-0.0049799946 0.017785735 0.74699998 1.3143115e-38
-0.0035571405 0.017785728 0.74699998 1.4708958e-38
-0.0021285755 0.017738119 0.745 1.4880409e-38
-0.00070761878 0.017690472 0.74300003 1.4979421e-38
0.00070952589 0.017738119 0.745 1.5617966e-38
0.0021228553 0.01769048 0.74299997 1.6169277e-38
0.0035380935 0.017690487 0.74299997 1.6530821e-38
0.0049533392 0.01769048 0.74300003 1.6901387e-38
0.0063685784 0.01769048 0.74300003 1.7908345e-38
0.007783806 0.017690487 0.74299997 1.8835312e-38
0.0091990447 0.01769048 0.74299997 1.9118712e-38
0.010642856 0.017738111 0.74500006 1.9302773e-38
0.012061906 0.017738104 0.74500006 1.9585844e-38
0.013480957 0.017738111 0.74500006 1.9862784e-38
0.014899996 0.017738111 0.745 1.958369e-38
0.016362859 0.017785735 0.74699998 1.9303168e-38
0.017785713 0.017785728 0.74699998 1.7725829e-38
0.019208567 0.017785735 0.74699998 1.6167132e-38
0.020659043 0.01780954 0.74799997 1.6530883e-38
0.02208381 0.017809533 0.74800003 1.6945657e-38
0.023571426 0.017857142 0.75 1.8825137e-38
0.025066657 0.017904781 0.75199997 2.0644967e-38
0.026499039 0.017904773 0.75199997 1.5568524e-38
0.027968556 0.017928593 0.75299996 1.0422464e-38
0.029402843 0.017928593 0.75299996 1.1717445e-38
0.030959994 0.018000022 0.75599998 1.2904415e-38
0.032399993 0.018000014 0.75599998 9.9519726e-39
0.034019042 0.018095255 0.75999999 7.0067894e-39
0.035513323 0.018119067 0.76099998 7.3719902e-39
0.036962848 0.01811906 0.76099998 7.6510826e-39
0.038513321 0.018166669 0.76299995 7.5592457e-39
-0.025266668 0.019491449 0.75799996 1.0669432e-38
-0.023885719 0.019542873 0.75999999 1.0574003e-38
-0.022379061 0.019491449 0.75799996 1.0756234e-38
-0.020880001 0.01944001 0.75599998 1.0936679e-38
-0.019440001 0.01944001 0.75599998 1.1215416e-38
-0.017904771 0.019337155 0.75199997 1.1577763e-38
-0.016472382 0.019337155 0.75199997 1.2223868e-38
-0.015040006 0.019337147 0.75199997 1.286349e-38
-0.013571438 0.019285716 0.75 1.3146888e-38
-0.01214286 0.019285709 0.75000006 1.3419191e-38
-0.010685719 0.0192343 0.74799997 1.4065652e-38
-0.0092609515 0.019234292 0.74799997 1.4797063e-38
