# .PCD v0.7 - Point Cloud Data file format
VERSION 0.7
FIELDS x y z rgb
SIZE 4 4 4 4
TYPE F F F F
COUNT 1 1 1 1
WIDTH 949
HEIGHT 1
VIEWPOINT 0 0 0 1 0 0 0
POINTS 949
DATA ascii
0.030427614 -0.009199053 0.74300003 1.7147017e-38
0.031928584 -0.0092238113 0.74500006 1.5030477e-38
0.033347618 -0.0092238262 0.74500006 1.3003599e-38
0.034860022 -0.0092485771 0.74700004 1.1157161e-38
0.036331452 -0.0092609674 0.74800003 9.3153768e-39
0.03775622 -0.0092609674 0.74800003 9.5879616e-39
0.039285704 -0.0092857182 0.75000006 9.9538476e-39
0.040714279 -0.0092857182 0.75000006 9.6801137e-39
0.042142853 -0.0092857108 0.75000006 9.4982196e-39
0.043687601 -0.0093104765 0.75200003 9.5875257e-39
0.045119986 -0.0093104839 0.75200003 9.5871754e-39
-0.020935258 -0.0079409629 0.75800002 1.668097e-38
-0.019440008 -0.0079200044 0.75600004 1.6689575e-38
-0.018000009 -0.0079200193 0.75600004 1.6682066e-38
-0.016472418 -0.0078781024 0.75200003 1.8716821e-38
-0.015000031 -0.0078571513 0.75000006 2.0733626e-38
-0.013571457 -0.0078571439 0.75000006 2.1297925e-38
-0.012094288 -0.0078257173 0.74700004 2.175137e-38
-0.010671446 -0.0078257322 0.74700004 2.2407498e-38
-0.0092238337 -0.0078047737 0.74500006 2.2958137e-38
-0.0078047612 -0.0078047663 0.74500006 2.176426e-38
-0.0063857273 -0.0078047737 0.74500006 2.0428631e-38
-0.0049533308 -0.0077838004 0.74299997 2.0391971e-38
-0.0035381049 -0.0077838153 0.74299997 2.035617e-38
-0.0021200099 -0.0077733397 0.74200004 2.065112e-38
-0.00070667022 -0.0077733248 0.74200004 2.0826912e-38
0.00070667139 -0.0077733323 0.74199998 2.2131993e-38
0.002119974 -0.0077733323 0.74200004 2.3407578e-38
0.0035333156 -0.0077733397 0.74199998 2.0439e-38
0.0049466775 -0.0077733248 0.74200004 1.7463962e-38
0.0063428604 -0.0077523813 0.74000001 1.8283597e-38
0.0077419146 -0.0077419132 0.73900002 1.9024029e-38
0.00916191 -0.0077523887 0.74000001 1.893005e-38
0.010557135 -0.0077419057 0.73900002 1.8745269e-38
0.011964766 -0.0077419057 0.73900002 1.6898122e-38
0.013336223 -0.0077209547 0.73700005 1.5093481e-38
0.014780024 -0.0077418908 0.73899996 1.7996845e-38
0.016143827 -0.0077209547 0.73699999 2.0719236e-38
0.017595265 -0.0077418983 0.73899996 1.0561699e-38
0.019002873 -0.0077418908 0.73899996 3.8341067e-40
0.020410506 -0.0077418983 0.73900002 7.4892102e-39
0.021847634 -0.0077523813 0.74000001 1.4478055e-38
0.023257166 -0.0077523813 0.73999995 1.291759e-38
0.02473334 -0.0077733174 0.74199998 1.1259527e-38
0.026146667 -0.0077733472 0.74200004 1.501904e-38
0.027560009 -0.0077733248 0.74200004 1.8805096e-38
0.029012369 -0.0077838227 0.74300003 1.954946e-38
0.030427633 -0.0077838078 0.74299997 2.0186189e-38
0.03192858 -0.0078047588 0.74500006 1.594918e-38
0.033437159 -0.0078257173 0.74700004 1.1713231e-38
0.03486 -0.0078257397 0.74700004 1.0601483e-38
0.036331419 -0.0078362003 0.74800003 9.4983219e-39
0.037756182 -0.0078361928 0.74800003 9.7734108e-39
0.039285686 -0.007857129 0.75000006 1.0048545e-38
0.040822845 -0.0078781098 0.75200003 9.956695e-39
0.042255227 -0.0078780949 0.75200003 9.7715779e-39
0.043687608 -0.0078781098 0.75200003 9.7694157e-39
0.045179989 -0.0078885779 0.75300002 9.6790193e-39
0.046614271 -0.0078885779 0.75300002 1.0138558e-38
-0.022379067 -0.0064971596 0.75800002 1.5934371e-38
-0.020880025 -0.0064800158 0.75600004 1.7199257e-38
-0.019440027 -0.0064800158 0.75600004 1.6105478e-38
-0.017976191 -0.0064714327 0.75500005 1.497695e-38
-0.016472396 -0.0064457059 0.75199997 1.5641368e-38
-0.015040013 -0.0064457208 0.75200003 1.638075e-38
-0.013571453 -0.0064285696 0.75000006 1.7584691e-38
-0.012110495 -0.0064114481 0.74800003 1.8884024e-38
-0.010671431 -0.0064028576 0.74700004 2.0095468e-38
-0.0092238113 -0.0063857362 0.74500006 2.1211835e-38
-0.0078047388 -0.0063857138 0.74500006 1.9804519e-38
-0.0063857068 -0.0063857213 0.74500006 1.8302785e-38
-0.0049533513 -0.00636857 0.74300003 1.9409036e-38
-0.0035381012 -0.0063685849 0.74300003 2.0561002e-38
-0.0021199987 -0.0063600019 0.74199998 2.0737574e-38
-0.00070665905 -0.0063599944 0.74199998 2.0810769e-38
0.00070664345 -0.0063600019 0.74200004 2.2123025e-38
0.0021200075 -0.0063599944 0.74200004 2.3417624e-38
0.0035333491 -0.0063599944 0.74199998 2.0620162e-38
0.0049466505 -0.0063600019 0.74200004 1.7816578e-38
0.0063428539 -0.0063428655 0.74000001 1.8558706e-38
0.0077524087 -0.0063428581 0.74000001 1.9398519e-38
0.0091619045 -0.0063428506 0.74000001 1.8933623e-38
0.010557179 -0.0063342825 0.73899996 1.8563369e-38
0.011964788 -0.006334275 0.73899996 1.7276195e-38
0.013372398 -0.0063342825 0.73899996 1.6010033e-38
0.01478003 -0.006334275 0.73899996 1.7791659e-38
0.01618764 -0.0063342899 0.73899996 1.953039e-38
0.017595248 -0.006334275 0.73899996 9.8449275e-39
0.019002879 -0.0063342899 0.73900002 2.8725918e-40
0.020438096 -0.0063428506 0.74000001 7.3902001e-39
0.021847626 -0.0063428581 0.74000001 1.4477696e-38
0.023319973 -0.0063600093 0.74200004 1.3280983e-38
0.024733337 -0.0063600093 0.74200004 1.2172861e-38
0.026146676 -0.0063600019 0.74200004 1.5586203e-38
0.027597163 -0.00636857 0.74299997 1.910141e-38
0.029012389 -0.0063685626 0.74299997 1.9463e-38
0.030509528 -0.0063857287 0.74500006 1.9834264e-38
0.031928603 -0.0063857213 0.74500006 1.5583978e-38
0.033437133 -0.0064028651 0.74700004 1.1339425e-38
0.034906663 -0.0064114407 0.74800003 1.0599329e-38
0.036428567 -0.006428577 0.75000006 9.8645793e-39
0.037857138 -0.0064285696 0.75000006 9.9574237e-39
0.03939046 -0.0064457059 0.75199997 1.0050328e-38
0.040822841 -0.0064457059 0.75199997 9.864498e-39
0.042255223 -0.0064457208 0.75199997 9.6786718e-39
0.043687604 -0.0064457133 0.75200003 9.494998e-39
0.045179959 -0.006454289 0.75300002 9.3120445e-39
-0.022379069 -0.0050533488 0.75800002 1.6692754e-38
-0.020935263 -0.0050533563 0.75800002 1.7769287e-38
-0.019440008 -0.0050400048 0.75600004 1.5555526e-38
-0.01800001 -0.0050400123 0.75600004 1.3235244e-38
-0.016494321 -0.00502 0.75300002 1.2581991e-38
-0.01504003 -0.0050133392 0.75200003 1.1947457e-38
-0.01357145 -0.0049999952 0.75000006 1.395965e-38
-0.012110471 -0.004986681 0.74800003 1.6025611e-38
-0.010671452 -0.0049800202 0.74700004 1.778629e-38
-0.0092238141 -0.0049666837 0.74500006 1.944215e-38
-0.0078047416 -0.0049666688 0.74500006 1.7847537e-38
-0.0063857078 -0.0049666762 0.74500006 1.6182991e-38
-0.004966673 -0.0049666688 0.74500006 1.8471675e-38
-0.0035476408 -0.0049666837 0.74500006 2.072638e-38
-0.0021200285 -0.004946664 0.74200004 2.0835147e-38
-0.00070668699 -0.004946664 0.74200004 2.0826911e-38
0.00070667511 -0.0049466714 0.74199998 2.2131993e-38
0.0021200168 -0.004946664 0.74199998 2.3407936e-38
0.0035333193 -0.004946664 0.74200004 2.0807774e-38
0.0049466607 -0.0049466565 0.74199998 1.8105372e-38
0.0063600005 -0.004946664 0.74199998 1.8919264e-38
0.0077524013 -0.0049333349 0.73999995 1.9758353e-38
0.0091618961 -0.0049333349 0.74000001 1.9026552e-38
0.010557162 -0.0049266592 0.73899996 1.8285021e-38
0.011964773 -0.0049266517 0.73899996 1.7540978e-38
0.013372404 -0.0049266666 0.73900002 1.6847338e-38
0.014780015 -0.0049266592 0.73900002 1.7629163e-38
0.016187621 -0.0049266666 0.73899996 1.8230328e-38
0.01761906 -0.0049333274 0.74000001 9.1841045e-39
0.019028595 -0.0049333349 0.73999995 1.1577248e-40
0.020438086 -0.0049333349 0.74000001 7.3062693e-39
0.021906642 -0.0049466714 0.74200004 1.4386583e-38
0.023320006 -0.004946664 0.74200004 1.3739084e-38
0.024766654 -0.0049533322 0.74300003 1.3010856e-38
0.02618192 -0.0049533397 0.74299997 1.6142588e-38
0.027597144 -0.0049533397 0.74299997 1.9272882e-38
0.029012371 -0.0049533322 0.74300003 1.9367223e-38
0.030509526 -0.0049666837 0.74500006 1.936039e-38
0.032014273 -0.0049800053 0.74700004 1.5213428e-38
0.033481922 -0.004986681 0.74800003 1.0975313e-38
0.034906689 -0.0049866736 0.74800003 1.0591061e-38
0.036428593 -0.0050000027 0.75000006 1.0138281e-38
0.037857167 -0.0050000027 0.75000006 1.014109e-38
0.039390467 -0.0050133392 0.75200003 1.0048176e-38
0.040822849 -0.0050133392 0.75200003 9.8645022e-39
0.04225523 -0.0050133392 0.75200003 9.587558e-39
0.043745685 -0.0050200075 0.75300002 9.3109725e-39
0.045299977 -0.0050333366 0.75500005 8.944348e-39
-0.020935265 -0.003609553 0.75800008 1.7130029e-38
-0.019440029 -0.0036000088 0.75600004 1.5178841e-38
-0.018000031 -0.0036000237 0.7560001 1.3224779e-38
-0.016494328 -0.0035857186 0.75300002 1.2950662e-38
-0.015040009 -0.0035809577 0.75199997 1.2673811e-38
-0.013571446 -0.0035714284 0.75000006 1.5084583e-38
-0.012142872 -0.0035714209 0.75000006 1.751288e-38
-0.010685719 -0.0035619065 0.74800003 1.9450791e-38
-0.0092485715 -0.003557153 0.74700004 2.1474313e-38
-0.0078047807 -0.0035476238 0.74500006 1.933618e-38
-0.0063857096 -0.0035476312 0.74500006 1.7273492e-38
-0.0049666748 -0.0035476238 0.74500006 1.8943414e-38
-0.0035476408 -0.0035476387 0.74500006 2.065033e-38
-0.0021199968 -0.003533341 0.74200004 2.0737211e-38
-0.00070665532 -0.0035333335 0.74199998 2.0906548e-38
0.00070664717 -0.0035333335 0.74200004 2.2215936e-38
0.002119987 -0.003533341 0.74200004 2.3417619e-38
0.0035333287 -0.0035333261 0.74199998 2.0802388e-38
0.0049466719 -0.0035333335 0.74199998 1.8092113e-38
0.0063599967 -0.0035333335 0.74200004 1.8833918e-38
0.0077523966 -0.0035238117 0.73999995 1.9667976e-38
0.0091619287 -0.0035237968 0.73999995 1.8561293e-38
0.010571446 -0.0035238117 0.74000001 1.7549287e-38
0.011980979 -0.0035238042 0.73999995 1.7370976e-38
0.013372391 -0.0035190433 0.73900002 1.7311203e-38
0.014800006 -0.0035238042 0.73999995 1.6869736e-38
0.016209561 -0.0035238117 0.73999995 1.6475395e-38
0.017619053 -0.0035238117 0.74000001 9.2927612e-39
0.019028587 -0.0035238117 0.73999995 2.1436728e-39
0.020493312 -0.0035333335 0.74200004 9.4228017e-39
0.021906676 -0.0035333335 0.74200004 1.6696467e-38
0.023351448 -0.0035380945 0.74299997 1.6781851e-38
0.024766674 -0.003538087 0.74299997 1.6876551e-38
0.026181899 -0.0035381019 0.74300003 1.8345196e-38
0.027597126 -0.0035381019 0.74300003 1.990927e-38
0.029012389 -0.003538087 0.74299997 1.9910346e-38
0.030591426 -0.0035571605 0.74700004 1.9995718e-38
0.032014284 -0.0035571456 0.74700004 1.6777881e-38
0.033481907 -0.003561914 0.74800003 1.3645361e-38
0.03490667 -0.003561914 0.74800003 1.1977903e-38
0.036428533 -0.0035714358 0.75000006 1.0323734e-38
0.037857108 -0.0035714209 0.75000006 1.0231127e-38
0.03939043 -0.0035809502 0.75200003 1.02279e-38
0.040822811 -0.0035809577 0.75200003 9.9538294e-39
0.042255189 -0.0035809427 0.75200003 9.6790375e-39
0.043745697 -0.003585726 0.75300002 9.4028108e-39
0.045359999 -0.0036000013 0.75600004 9.126947e-39
-0.022379074 -0.0021657273 0.75800002 1.6692756e-38
-0.020990485 -0.002171427 0.76000005 1.6478883e-38
-0.019491445 -0.0021657273 0.75800002 1.4896446e-38
-0.018000012 -0.0021600127 0.75600004 1.3235132e-38
-0.016494336 -0.0021514446 0.75300002 1.3321564e-38
-0.015040026 -0.0021485686 0.75200003 1.341669e-38
-0.013571443 -0.0021428466 0.75 1.6191547e-38
-0.012142869 -0.0021428466 0.75000006 1.8884998e-38
-0.010685708 -0.0021371543 0.74800003 2.121362e-38
-0.0092485547 -0.0021343008 0.74700004 2.3412247e-38
-0.0078257145 -0.0021343008 0.74700004 2.0932646e-38
-0.0063857106 -0.0021285787 0.74500006 1.831064e-38
-0.0049666786 -0.0021285787 0.74500006 1.9377839e-38
-0.0035476212 -0.0021285862 0.74500006 2.0445853e-38
-0.0021228578 -0.0021228567 0.74299997 2.0740082e-38
-0.00070668326 -0.0021200106 0.74200004 2.1011658e-38
0.00070665835 -0.0021199957 0.74199998 2.2223829e-38
0.0021228425 -0.0021228641 0.74300003 2.3406143e-38
0.0035333249 -0.0021200031 0.74200004 2.0800603e-38
0.0049466635 -0.0021200106 0.74200004 1.8106825e-38
0.0063600051 -0.0021199882 0.74199998 1.8839659e-38
0.0077523892 -0.0021142736 0.73999995 1.9479648e-38
0.0091866497 -0.0021200031 0.74200004 1.8092796e-38
0.010571439 -0.0021142811 0.74000001 1.6717768e-38
0.01198097 -0.0021142811 0.73999995 1.717371e-38
0.013390488 -0.0021142811 0.74000001 1.7683586e-38
0.014800022 -0.0021142811 0.74000001 1.6246982e-38
0.016209552 -0.0021142811 0.73999995 1.4734464e-38
0.017666638 -0.0021199957 0.74200004 9.3677237e-39
0.019080004 -0.0021200106 0.74200004 4.074365e-39
0.020493345 -0.0021199957 0.74199998 1.1543986e-38
0.021906648 -0.0021200106 0.74200004 1.8989829e-38
0.023351425 -0.0021228492 0.74299997 1.9907458e-38
0.024766652 -0.0021228567 0.74300003 2.073039e-38
0.026181879 -0.0021228567 0.74300003 2.0636045e-38
0.027671415 -0.0021285713 0.74500006 2.0459553e-38
0.029090488 -0.0021285787 0.74500006 2.0552829e-38
0.030591443 -0.0021342933 0.74700004 2.0645377e-38
0.032014288 -0.0021342933 0.74700004 1.8440241e-38
0.033481896 -0.0021371543 0.74800003 1.6216752e-38
0.034906659 -0.0021371618 0.74800003 1.3351848e-38
0.036428563 -0.0021428615 0.75000006 1.0508482e-38
0.037958093 -0.0021485612 0.75199997 1.0415159e-38
0.039390475 -0.0021485761 0.75200003 1.0320803e-38
0.040877141 -0.0021514446 0.75300002 1.0043493e-38
0.042311423 -0.0021514297 0.75300002 9.6772341e-39
0.043861907 -0.0021571517 0.75500005 9.4939274e-39
0.045359954 -0.0021600053 0.75600004 9.3106166e-39
0.046799995 -0.0021600053 0.75600004 9.401736e-39
-0.022379076 -0.00072192401 0.75800002 1.6586551e-38
-0.020990472 -0.00072380155 0.76000005 1.7104466e-38
-0.019491447 -0.00072191656 0.75800002 1.6189603e-38
-0.018000031 -0.00072001666 0.7560001 1.5354474e-38
-0.016494283 -0.00071714818 0.75300002 1.5077531e-38
-0.015060038 -0.00071714818 0.75300002 1.4877751e-38
-0.01360766 -0.00071619451 0.75200003 1.609281e-38
-0.012142903 -0.00071429461 0.75000006 1.7315153e-38
-0.01071433 -0.00071428716 0.75000006 2.0370976e-38
-0.009260959 -0.00071238726 0.74800003 2.3415896e-38
-0.0078256978 -0.00071143359 0.74699998 2.1568066e-38
-0.0064028562 -0.00071143359 0.74700004 1.979154e-38
-0.0049666562 -0.00070952624 0.74500006 2.0051178e-38
-0.0035476212 -0.00070953369 0.74500006 2.0463791e-38
-0.0021228541 -0.00070761889 0.74300003 2.0736137e-38
-0.00070667395 -0.00070666522 0.74199998 2.1094166e-38
0.00070759712 -0.00070763379 0.74300003 2.2308848e-38
0.0021199945 -0.00070666522 0.74200004 2.3417627e-38
0.0035333324 -0.00070665777 0.74200004 2.0708417e-38
0.0049466747 -0.00070667267 0.74199998 1.8092122e-38
0.0063599772 -0.00070666522 0.74200004 1.883428e-38
0.0077733179 -0.00070666522 0.74199998 1.9573281e-38
0.0091866832 -0.00070665777 0.74200004 1.8004198e-38
0.010599986 -0.00070667267 0.74200004 1.6442284e-38
0.011980987 -0.00070475787 0.73999995 1.7755968e-38
0.013390481 -0.00070476532 0.74000001 1.9084099e-38
0.014840008 -0.00070665777 0.74199998 1.6048968e-38
0.016253309 -0.00070667267 0.74200004 1.3082139e-38
0.017666671 -0.00070666522 0.74200004 9.4789181e-39
0.019080013 -0.00070666522 0.74199998 6.0068494e-39
0.020520957 -0.00070761889 0.74299997 1.2830042e-38
0.021906657 -0.00070667267 0.74199998 1.9638403e-38
0.023351409 -0.00070761889 0.74300003 1.9717302e-38
0.024766635 -0.00070762634 0.74300003 1.980771e-38
0.026252382 -0.00070953369 0.74500006 2.0273709e-38
0.027671413 -0.00070953369 0.74500006 2.0740429e-38
0.029090486 -0.00070952624 0.745 2.0739722e-38
0.030591421 -0.00071144104 0.74700004 2.0837291e-38
0.032057155 -0.00071238726 0.74799997 1.7701247e-38
0.033481881 -0.00071239471 0.74800003 1.465447e-38
0.034906648 -0.00071240216 0.74800003 1.2992757e-38
0.036428541 -0.00071427971 0.75000006 1.1432219e-38
0.037958097 -0.00071618706 0.75200003 1.0691385e-38
0.039547578 -0.00071906298 0.75500005 1.0044929e-38
0.040877111 -0.00071714818 0.75300002 9.7683255e-39
0.042311437 -0.00071714818 0.75300002 9.5835937e-39
0.043919999 -0.00072000921 0.75600004 9.2184195e-39
0.045359999 -0.00072000921 0.75600004 8.9447095e-39
-0.024042869 0.00072855502 0.76500005 1.5208345e-38
-0.022438109 0.00072381645 0.76000005 1.6505911e-38
-0.020990456 0.00072381645 0.75999999 1.7778276e-38
-0.019491449 0.0007218942 0.75800002 1.7586654e-38
-0.018000016 0.00071997941 0.75600004 1.7403334e-38
-0.016538128 0.00071904063 0.75500005 1.6939484e-38
-0.015060047 0.00071714073 0.75300002 1.6378431e-38
-0.01360764 0.00071617961 0.75200003 1.5986341e-38
-0.012142877 0.00071427971 0.75000006 1.5662509e-38
-0.010714326 0.00071428716 0.75000006 1.9538715e-38
-0.0092609329 0.00071237981 0.74800003 2.3319756e-38
-0.0078257211 0.00071141124 0.74700004 2.2315664e-38
-0.0064028786 0.00071141869 0.74700004 2.1257686e-38
-0.0049666571 0.00070951879 0.74500006 2.0755385e-38
-0.003547624 0.00070951134 0.74500006 2.0354026e-38
-0.0021228727 0.00070761144 0.74300003 2.0829768e-38
-0.00070667767 0.00070665777 0.74200004 2.1197122e-38
0.00070761761 0.00070761144 0.74299997 2.2315664e-38
0.0021200038 0.00070666522 0.74199998 2.3405786e-38
0.0035333436 0.00070667267 0.74199998 2.0706619e-38
0.0049466477 0.00070666522 0.74200004 1.8012122e-38
0.0063599874 0.00070668012 0.74199998 1.883141e-38
0.0077733514 0.00070666522 0.74199998 1.9570391e-38
0.0091866544 0.00070666522 0.74200004 1.7908377e-38
0.010599996 0.00070666522 0.74200004 1.6176449e-38
0.012013336 0.00070667267 0.74199998 1.8323496e-38
0.013390474 0.00070476532 0.74000001 2.0364754e-38
0.014840002 0.00070666522 0.74200004 1.5965688e-38
0.016253343 0.00070667267 0.74199998 1.1417976e-38
0.017666683 0.00070668012 0.74199998 9.6432666e-39
0.019079985 0.00070665777 0.74200004 7.8471761e-39
0.020520939 0.00070761144 0.74300003 1.4131174e-38
0.021936163 0.00070761889 0.74300003 2.0272998e-38
0.02335145 0.00070761144 0.74299997 1.9515679e-38
0.024766674 0.00070762634 0.74300003 1.8798237e-38
0.02625238 0.00070951879 0.74500006 1.9909969e-38
0.027671436 0.00070951879 0.74500006 2.0921588e-38
0.029090509 0.00070951879 0.74500006 2.101234e-38
0.030591438 0.00071143359 0.74700004 2.101162e-38
0.032057162 0.00071237236 0.74800003 1.705695e-38
0.033481926 0.00071237236 0.74800003 1.2998202e-38
0.034999996 0.00071427971 0.75000006 1.2623995e-38
0.036428571 0.00071429461 0.75000006 1.2257313e-38
0.037958056 0.00071617961 0.75200003 1.096546e-38
0.039442837 0.00071714818 0.75299996 9.6779599e-39
0.040877126 0.00071712583 0.75300002 9.5846797e-39
0.042423792 0.00071904808 0.75500005 9.4932057e-39
0.043861888 0.00071903318 0.75500005 9.0343898e-39
0.045299981 0.00071904063 0.75500005 8.4837496e-39
-0.024042847 0.0021857172 0.76500005 1.4285696e-38
-0.022438094 0.0021714345 0.75999999 1.6042862e-38
-0.020990504 0.002171427 0.75999999 1.7712022e-38
-0.019491453 0.0021656901 0.75800002 1.8070013e-38
-0.017999997 0.0021599829 0.75600004 1.8447384e-38
-0.016538097 0.0021571368 0.75500005 1.8897219e-38
-0.015060017 0.0021514371 0.75299996 1.9362471e-38
-0.013607656 0.0021485686 0.75200003 1.9439932e-38
-0.012142872 0.002142854 0.75000006 1.9543671e-38
-0.0107143 0.002142854 0.75000006 2.1479456e-38
-0.0092609469 0.0021371394 0.74800003 2.341733e-38
-0.0078257043 0.0021342784 0.74699998 2.1374709e-38
-0.0064028627 0.0021342859 0.74700004 1.9321616e-38
-0.004966659 0.0021285638 0.74500006 1.9870049e-38
-0.0035476249 0.0021285564 0.74500006 2.0560305e-38
-0.0021228541 0.0021228716 0.74299997 2.0830127e-38
-0.00070666836 0.0021199957 0.74200004 2.1100266e-38
0.00070667325 0.0021200106 0.74199998 2.2310283e-38
0.0021199759 0.0021200031 0.74200004 2.3417623e-38
0.0035333175 0.0021200106 0.74199998 2.0709483e-38
0.0049466812 0.0021199957 0.74200004 1.8000281e-38
0.006360021 0.0021200106 0.74199998 1.8743519e-38
0.0077733225 0.0021199957 0.74200004 1.9581132e-38
0.0091866646 0.0021200106 0.74199998 1.7637852e-38
0.010600006 0.0021200031 0.74199998 1.5704345e-38
0.012013309 0.0021200106 0.74200004 1.8048721e-38
0.013426671 0.0021199957 0.74200004 2.0371909e-38
0.014840012 0.0021200031 0.74199998 1.4469002e-38
0.016253313 0.0021199957 0.74200004 8.6331336e-39
0.017666655 0.0021200106 0.74200004 9.0130214e-39
0.019079994 0.0021200031 0.74199998 9.504908e-39
0.02049336 0.0021200106 0.74199998 1.5128102e-38
0.021936206 0.0021228567 0.74300003 2.073576e-38
0.023351433 0.0021228492 0.74300003 2.0545584e-38
0.024833329 0.0021285638 0.74500006 2.0367691e-38
0.026252402 0.0021285638 0.74500006 2.0920534e-38
0.027671434 0.0021285713 0.74500006 2.1564076e-38
0.029168572 0.0021342784 0.74700004 2.1197069e-38
0.030632382 0.0021371245 0.74800003 2.082291e-38
0.032057147 0.002137132 0.74800003 1.6491932e-38
0.03357143 0.0021428689 0.75000006 1.224881e-38
0.035 0.002142854 0.75000006 1.2716921e-38
0.036525719 0.0021485686 0.75200003 1.318034e-38
0.038008571 0.0021514073 0.75300002 1.1335675e-38
0.039547596 0.0021571368 0.75500005 9.4935855e-39
0.040985733 0.0021571368 0.75500005 9.4939442e-39
0.042423785 0.0021571293 0.75500005 9.495012e-39
0.043919999 0.0021599904 0.75600004 9.4013731e-39
0.045300011 0.0021571368 0.75500005 9.2145001e-39
-0.023980007 0.0036333278 0.76300001 1.3360846e-38
-0.022526685 0.0036333352 0.76300001 1.5483163e-38
-0.021073338 0.0036333352 0.76300001 1.7603271e-38
-0.019542873 0.003619045 0.76000005 1.8533466e-38
-0.018047648 0.0036095083 0.75800008 1.9450764e-38
-0.016538087 0.0035952255 0.75500005 2.0931632e-38
-0.015060003 0.0035857186 0.75300002 2.2303767e-38
-0.013625757 0.0035857111 0.75300002 2.2866601e-38
-0.012175254 0.0035809502 0.75199997 2.3410117e-38
-0.010714293 0.0035714135 0.75000006 2.3417689e-38
-0.0092857219 0.0035714358 0.75000006 2.3403261e-38
-0.0078361947 0.0035618842 0.74800003 2.0352521e-38
-0.0064028841 0.0035571232 0.74700004 1.7292549e-38
-0.0049800039 0.0035571381 0.74699998 1.9025959e-38
-0.0035476268 0.0035476163 0.74500006 2.07264e-38
-0.0021228727 0.0035380945 0.74299997 2.0922317e-38
-0.00070665719 0.003533341 0.74199998 2.1014167e-38
0.00070664531 0.0035333335 0.74200004 2.2223829e-38
0.0021199852 0.0035333335 0.74199998 2.3407568e-38
0.003533351 0.003533341 0.74199998 2.071341e-38
0.0049466514 0.0035333335 0.74200004 1.8015338e-38
0.0063599939 0.003533341 0.74200004 1.8744596e-38
0.0077733337 0.003533341 0.74199998 1.9481768e-38
0.0091866357 0.003533341 0.74200004 1.7357689e-38
0.010600001 0.0035333261 0.74200004 1.5263126e-38
0.012013342 0.0035333261 0.74199998 1.7886612e-38
0.013426681 0.003533341 0.74199998 2.0364402e-38
0.014839984 0.003533341 0.74200004 1.3088975e-38
0.016253324 0.003533341 0.74199998 5.7995217e-39
0.017666666 0.0035333335 0.74199998 8.4548492e-39
0.019079991 0.0035333335 0.74200004 1.1157954e-38
0.020520961 0.0035380945 0.74300003 1.6140444e-38
0.021936188 0.003538087 0.74300003 2.1105629e-38
0.023351412 0.0035380945 0.74300003 2.1471505e-38
0.024833327 0.0035476163 0.74500006 2.1839944e-38
0.026252398 0.0035476089 0.74500006 2.2023995e-38
0.027671432 0.0035476163 0.74500006 2.2209802e-38
0.029090466 0.0035476014 0.74500006 2.1388645e-38
0.030632367 0.0035618842 0.74800003 2.0543452e-38
0.032057136 0.0035618916 0.74800003 1.6021967e-38
0.033571392 0.0035714284 0.75000006 1.1430165e-38
0.035000004 0.0035714358 0.75 1.2813767e-38
0.036574297 0.0035857111 0.75300002 1.4099038e-38
0.038008537 0.0035857037 0.75300002 1.1703358e-38
0.03954763 0.003595233 0.75500005 9.2195013e-39
0.040985681 0.003595233 0.75500005 9.4024619e-39
0.042480003 0.0035999864 0.75600004 9.4946421e-39
0.043920003 0.003599979 0.75600004 9.770136e-39
0.045359954 0.0035999864 0.75600004 9.952749e-39
-0.025566669 0.005113326 0.76700002 1.3262858e-38
-0.024042845 0.005099982 0.76500005 1.4086523e-38
-0.022526681 0.0050866678 0.76300001 1.5659939e-38
-0.021073358 0.0050866604 0.76300001 1.7214711e-38
-0.019491456 0.0050533265 0.75800002 1.7224779e-38
-0.017999997 0.0050399974 0.75600004 1.722663e-38
-0.016538115 0.0050333217 0.75500011 1.750578e-38
-0.015100025 0.0050333142 0.75500005 1.7881004e-38
-0.013625765 0.00502 0.75300002 1.8334073e-38
-0.012175269 0.0050133392 0.75200003 1.8812632e-38
-0.010742888 0.0050133318 0.75200003 2.0000405e-38
-0.0092857182 0.0050000101 0.75000006 2.1098325e-38
-0.0078362096 0.0049866438 0.74800003 1.922917e-38
-0.006411443 0.0049866587 0.74800003 1.7265567e-38
-0.0049800049 0.0049799979 0.74700004 1.8856643e-38
-0.0035476044 0.0049666539 0.74500006 2.0560667e-38
-0.0021228672 0.0049533248 0.74300003 2.0737206e-38
-0.00070760527 0.0049533471 0.74299997 2.1003763e-38
0.00070667884 0.004946664 0.74199998 2.2217371e-38
0.0021200187 0.0049466714 0.74199998 2.3417603e-38
0.0035333212 0.0049466565 0.74200004 2.0617608e-38
0.0049466626 0.0049466714 0.74200004 1.7908428e-38
0.0063600042 0.004946664 0.74199998 1.8650969e-38
0.0077733067 0.004946664 0.74200004 1.9396752e-38
0.0091866693 0.004946664 0.74200004 1.7270883e-38
0.010600011 0.0049466714 0.74199998 1.515517e-38
0.012029526 0.0049533322 0.74299997 1.7875169e-38
0.013426655 0.004946664 0.74200004 2.0650697e-38
0.014839995 0.004946664 0.74199998 1.262264e-38
0.016253358 0.0049466714 0.74199998 4.592404e-39
0.01766666 0.0049466565 0.74200004 8.1068928e-39
0.019105716 0.0049533397 0.74300003 1.1542163e-38
0.020520942 0.0049533322 0.74300003 1.6236943e-38
0.021936167 0.0049533397 0.74300003 2.1023496e-38
0.023351433 0.0049533397 0.74299997 2.1479071e-38
0.024833325 0.0049666613 0.74500006 2.1934666e-38
0.026252398 0.0049666613 0.74500006 2.1936106e-38
0.02767143 0.0049666688 0.74500006 2.2026136e-38
0.029168589 0.004979983 0.74700004 2.0279098e-38
0.030632393 0.0049866512 0.74799997 1.8614182e-38
0.032057162 0.0049866661 0.74799997 1.4555444e-38
0.033571396 0.0049999878 0.75000006 1.0513226e-38
0.03499997 0.0050000027 0.75000006 1.2541837e-38
0.036574267 0.00502 0.75300002 1.4658288e-38
0.038008593 0.0050199926 0.75300002 1.1798043e-38
0.039547578 0.0050333291 0.75500005 9.0329479e-39
0.040985715 0.0050333217 0.75500005 9.2184251e-39
0.042479958 0.0050399899 0.75600004 9.4027968e-39
0.043919995 0.0050399825 0.75600004 9.4946155e-39
0.045359995 0.0050399899 0.75600004 9.587537e-39
-0.025566693 0.0065742806 0.76700002 1.3450509e-38
-0.024042862 0.0065571368 0.76500005 1.4743774e-38
-0.022467617 0.0065228567 0.76099998 1.585588e-38
-0.020990495 0.0065142959 0.75999999 1.6859249e-38
-0.01949146 0.0064971298 0.75800002 1.5924026e-38
-0.018000016 0.0064799935 0.75600004 1.5015018e-38
-0.016538104 0.0064714253 0.75500005 1.4166993e-38
-0.015100014 0.0064714253 0.75500005 1.3354087e-38
-0.013625735 0.006454289 0.75299996 1.3775938e-38
-0.012175265 0.0064456984 0.75200003 1.4190305e-38
-0.010742906 0.0064457133 0.75200003 1.6488374e-38
-0.0092857135 0.0064285845 0.75000006 1.8787388e-38
-0.0078571411 0.006428577 0.75000006 1.801673e-38
-0.0064114579 0.0064114109 0.74800003 1.7283527e-38
-0.0049866936 0.0064114109 0.74800003 1.8757247e-38
-0.0035571449 0.0064028502 0.74700004 2.0268644e-38
-0.0021228504 0.0063685775 0.74299997 2.0645372e-38
-0.0007076239 0.00636857 0.74299997 2.1013449e-38
0.00070760085 0.0063685775 0.74300003 2.2223829e-38
0.0021228294 0.00636857 0.74300003 2.3405768e-38
0.0035333324 0.0063599944 0.74199998 2.0614387e-38
0.0049466738 0.0063600019 0.74199998 1.7735868e-38
0.0063599986 0.0063599944 0.74200004 1.8461533e-38
0.0077733402 0.0063600093 0.74200004 1.9204084e-38
0.0091866795 0.0063600019 0.74199998 1.7081797e-38
0.010599982 0.0063599944 0.74200004 1.4991577e-38
0.012013324 0.0063600019 0.74199998 1.7991054e-38
0.013426665 0.0063600093 0.74199998 2.0915083e-38
0.01483999 0.0063599944 0.74200004 1.2158428e-38
0.016253328 0.0063600019 0.74200004 3.4150358e-39
0.01769047 0.0063685626 0.74300003 7.6538109e-39
0.019105697 0.00636857 0.74300003 1.1901602e-38
0.020520961 0.00636857 0.74299997 1.6424542e-38
0.021936188 0.00636857 0.74299997 2.0836235e-38
0.023351436 0.00636857 0.74300003 2.1394425e-38
0.024833323 0.0063857138 0.74500006 2.1938265e-38
0.026252396 0.0063857064 0.745 2.194329e-38
0.02767143 0.0063857138 0.74500006 2.1844255e-38
0.029168567 0.0064028427 0.74700004 1.9271042e-38
0.030591447 0.0064028502 0.74700004 1.6586269e-38
0.032057147 0.0064114183 0.74800003 1.3071748e-38
0.0335714 0.0064285696 0.75000006 9.5048491e-39
0.035093348 0.0064457208 0.75200003 1.2366078e-38
0.03652573 0.0064457133 0.75200003 1.5116035e-38
0.038109519 0.0064714104 0.75500011 1.1980628e-38
0.039547611 0.0064714178 0.75500005 8.7599469e-39
0.040985703 0.0064714253 0.75500005 9.0354716e-39
0.042480003 0.0064799786 0.75600004 9.3106067e-39
0.044036176 0.0064971149 0.75800002 9.2180412e-39
0.045600008 0.0065142959 0.75999999 9.1276406e-39
0.047047623 0.0065142959 0.75999999 9.220911e-39
-0.025566654 0.0080352351 0.76699996 1.3455205e-38
-0.024042841 0.0080142841 0.76500005 1.4847501e-38
-0.022467632 0.007972382 0.76100004 1.6229752e-38
-0.020990482 0.0079619214 0.75999999 1.7707334e-38
-0.019491462 0.007940948 0.75800002 1.760434e-38
-0.018000001 0.007919997 0.75600004 1.7609703e-38
-0.016538097 0.007909514 0.75500005 1.787658e-38
-0.015100044 0.0079095215 0.75500005 1.8062018e-38
-0.013625721 0.0078885704 0.75300002 1.8421083e-38
-0.012175243 0.0078780949 0.75200003 1.8796009e-38
-0.010742883 0.0078780875 0.75200003 1.9906336e-38
-0.009285748 0.0078571364 0.75000006 2.110697e-38
-0.0078571737 0.0078571439 0.75000006 1.9706792e-38
-0.0064286026 0.007857129 0.75000006 1.8401002e-38
-0.0049866443 0.0078361779 0.74800003 1.9233616e-38
-0.0035619021 0.0078361854 0.74799997 2.0192581e-38
-0.0021285743 0.0078047588 0.74500006 2.0553896e-38
-0.00070764252 0.0077838004 0.74300003 2.1007709e-38
0.00070762134 0.0077838153 0.74299997 2.2218448e-38
0.0021228704 0.0077838078 0.74300003 2.341761e-38
0.0035380952 0.0077838078 0.74300003 2.0708023e-38
0.0049533215 0.0077838004 0.74300003 1.8000243e-38
0.0063685854 0.0077838227 0.74299997 1.8375052e-38
0.0077838111 0.0077838153 0.74299997 1.8846038e-38
0.0091990372 0.0077838153 0.74299997 1.6903831e-38
0.010599992 0.0077733397 0.74199998 1.4880719e-38
0.012013357 0.0077733323 0.74199998 1.76022e-38
0.01342666 0.0077733323 0.74200004 2.0278334e-38
0.014860002 0.0077838153 0.74300003 1.1053161e-38
0.016275227 0.0077838004 0.74300003 1.7454882e-39
0.017690452 0.0077838153 0.74300003 5.4404292e-39
0.019105716 0.0077838153 0.74299997 9.1386352e-39
0.020520942 0.0077838227 0.74299997 1.135384e-38
0.021936191 0.0077838078 0.74300003 1.3574055e-38
0.023351416 0.0077838078 0.74300003 1.485403e-38
0.024833323 0.0078047588 0.74500006 1.614439e-38
0.02625238 0.0078047439 0.74500006 1.7065257e-38
0.027671451 0.0078047588 0.74500006 1.7982855e-38
0.029168582 0.0078257099 0.74700004 1.5031165e-38
0.030714279 0.0078571364 0.75000006 1.2173503e-38
0.032142855 0.0078571439 0.75000006 1.0967084e-38
0.033660948 0.0078780949 0.75200003 9.7818116e-39
0.035140004 0.0078885779 0.75300002 1.2456498e-38
0.036671415 0.0079095066 0.75500011 1.512178e-38
0.038109507 0.007909514 0.75500005 1.1888783e-38
0.039600007 0.007919997 0.75600004 8.6645185e-39
0.041039959 0.007919997 0.75600004 8.9425585e-39
0.042479958 0.0079199821 0.75600004 9.2187755e-39
-0.019491464 0.0093847364 0.75800002 1.9359993e-38
-0.01800002 0.009359993 0.75600004 2.0185438e-38
-0.01656002 0.0093599856 0.75600004 2.1483333e-38
-0.015100034 0.0093476102 0.75500005 2.2760052e-38
-0.013625729 0.0093228519 0.75300002 2.3142092e-38
-0.01217526 0.0093104616 0.75200003 2.3409732e-38
-0.010742879 0.009310469 0.75200003 2.3417649e-38
-0.0093105184 0.0093104765 0.75200003 2.3321127e-38
-0.00785717 0.0092857182 0.75000006 2.1486547e-38
-0.006428598 0.0092857108 0.75000006 1.9513832e-38
-0.0050000246 0.0092857033 0.75000006 1.9766694e-38
-0.00357145 0.0092857108 0.75000006 1.9992409e-38
-0.0021285762 0.0092238113 0.74500006 2.0461704e-38
-0.00070954242 0.0092237964 0.74500006 2.0922332e-38
0.00070762692 0.0091990456 0.74300003 2.2223829e-38
0.0021228518 0.0091990605 0.74300003 2.3406126e-38
0.0035380784 0.0091990381 0.74300003 2.0799851e-38
0.0049533402 0.009199053 0.74299997 1.8197192e-38
0.0063685658 0.0091990456 0.74299997 1.8376502e-38
0.0077837915 0.009199053 0.74300003 1.8470097e-38
0.0091990409 0.0091990456 0.74300003 1.6622591e-38
0.010599989 0.0091866702 0.74200004 1.4815082e-38
0.012029531 0.0091990456 0.74299997 1.725891e-38
0.013444757 0.0091990456 0.74300003 1.9622563e-38
0.014859983 0.0091990456 0.74300003 9.8459938e-39
0.016275244 0.0091990456 0.74299997 9.9587479e-41
0.017690493 0.0091990456 0.74300003 3.2237838e-39
0.019105719 0.0091990381 0.74300003 6.3652175e-39
0.020520946 0.0091990456 0.74300003 6.3702552e-39
0.021995215 0.0092238113 0.74500006 6.2813064e-39
0.023414308 0.0092238039 0.74500006 8.3027817e-39
0.024833342 0.0092238039 0.74500006 1.0244634e-38
0.026252376 0.0092238039 0.74500006 1.2190791e-38
0.027745718 0.0092485622 0.74700004 1.4014172e-38
0.029207608 0.0092609301 0.74800003 1.0880588e-38
0.030714283 0.0092857108 0.75000006 7.7484925e-39
0.032142859 0.0092857182 0.75000006 8.9330255e-39
0.033660933 0.0093104616 0.75200003 1.0054423e-38
0.035139974 0.0093228519 0.75299996 1.26477e-38
0.036671404 0.0093476102 0.75500005 1.5114237e-38
0.038159966 0.0093599856 0.75600004 1.1880517e-38
0.039599966 0.009359993 0.75600004 8.5744682e-39
0.041148558 0.0093847513 0.75800002 8.8517978e-39
0.042592365 0.0093847588 0.75800002 9.1265812e-39
-0.019491468 0.010828555 0.75800002 1.6397597e-38
-0.018000001 0.010799997 0.75600004 1.6961546e-38
-0.016560003 0.010799989 0.75600004 1.7600471e-38
-0.015100024 0.010785706 0.75500005 1.825086e-38
-0.013625736 0.010757133 0.75300002 1.8989856e-38
-0.012175239 0.010742866 0.75200003 1.9834671e-38
-0.010742857 0.010742851 0.75200003 2.083948e-38
-0.009310497 0.010742866 0.75199997 2.1947243e-38
-0.0078781154 0.010742851 0.75200003 2.0182994e-38
-0.0064285924 0.010714293 0.75000006 1.8308891e-38
-0.0050000208 0.010714278 0.75000006 1.9321507e-38
-0.0035714463 0.010714285 0.75000006 2.0374819e-38
-0.0021342945 0.010671414 0.74700004 2.082833e-38
-0.00070952193 0.010642841 0.74500006 2.1281424e-38
0.00070955104 0.010642849 0.74500006 2.2309566e-38
0.0021228686 0.010614298 0.74299997 2.3417603e-38
0.0035380933 0.010614283 0.74299997 2.0800921e-38
0.0049533197 0.010614291 0.74299997 1.8183923e-38
0.0063685677 0.010614276 0.74300003 1.8281812e-38
0.0077837934 0.010614283 0.74300003 1.8382218e-38
0.0091990586 0.010614283 0.74299997 1.6725194e-38
0.010614284 0.010614283 0.74300003 1.5181718e-38
0.01202951 0.010614276 0.74300003 1.7424662e-38
0.013444736 0.010614291 0.74300003 1.9627218e-38
0.01486 0.010614291 0.74299997 1.3719553e-38
0.016275248 0.010614291 0.74300003 7.898395e-39
0.017738072 0.010642856 0.74500006 9.3878449e-39
0.019157168 0.010642856 0.74500006 1.0768602e-38
0.020576201 0.010642841 0.74500006 1.0218661e-38
0.021995233 0.010642849 0.74500006 9.6432708e-39
0.023414306 0.010642849 0.74500006 1.0401289e-38
0.024900014 0.010671429 0.74699998 1.1228593e-38
0.026322853 0.010671414 0.74700004 1.2623771e-38
0.027782869 0.010685705 0.74800003 1.4083739e-38
0.029207634 0.010685697 0.74800003 1.2526766e-38
0.030714288 0.010714285 0.75000006 1.0945471e-38
0.032228574 0.010742873 0.75200003 1.1236759e-38
0.033705682 0.010757133 0.75300002 1.1610222e-38
0.035139989 0.010757141 0.75300002 1.3002483e-38
0.036671434 0.010785706 0.75500005 1.4377751e-38
0.038160011 0.010799989 0.75600004 1.1517464e-38
0.039600007 0.010799997 0.75600004 8.5741011e-39
0.041040003 0.010799982 0.7560001 8.8503615e-39
0.042479955 0.010799974 0.75600004 9.1255064e-39
-0.019491432 0.012272373 0.75800002 1.3423254e-38
-0.01800002 0.012239993 0.75600004 1.3709519e-38
-0.016560024 0.012239978 0.75600004 1.3706287e-38
-0.015099992 0.01222381 0.75500005 1.3715618e-38
-0.013625745 0.01219143 0.75300002 1.4914504e-38
-0.012175255 0.012175232 0.75200003 1.6119882e-38
-0.010742873 0.012175232 0.75200003 1.8341907e-38
-0.0093104914 0.012175232 0.75200003 2.0549204e-38
-0.0078781322 0.01217524 0.75200003 1.8896899e-38
-0.0064285886 0.012142867 0.75000006 1.7109997e-38
-0.0050000153 0.012142852 0.75000006 1.8835444e-38
-0.0035714426 0.012142867 0.75000006 2.0632398e-38
-0.0021342945 0.012094267 0.74700004 2.1103478e-38
-0.00071141438 0.012094282 0.74700004 2.1564463e-38
0.00070951192 0.012061901 0.74500006 2.2499335e-38
0.0021228499 0.012029514 0.74299997 2.3406475e-38
0.0035380765 0.012029529 0.74300003 2.0802342e-38
0.0049533253 0.012029514 0.74300003 1.8195755e-38
0.0063685873 0.012029529 0.74299997 1.8275716e-38
0.0077838129 0.012029521 0.74299997 1.8283939e-38
0.0091990391 0.012029536 0.74300003 1.6898129e-38
0.010614265 0.012029521 0.74300003 1.5469086e-38
0.01202953 0.012029536 0.74299997 1.7538402e-38
0.013444755 0.012029529 0.74299997 1.9539382e-38
0.014860004 0.012029529 0.74300003 1.7690803e-38
0.016275229 0.012029521 0.74300003 1.5751846e-38
0.017738095 0.012061901 0.74500006 1.5476331e-38
0.019157166 0.012061901 0.74500006 1.5203325e-38
0.0205762 0.012061886 0.74500006 1.4184513e-38
0.021995233 0.012061894 0.74500006 1.3078183e-38
0.023477146 0.012094274 0.74699998 1.2613626e-38
0.024899989 0.012094282 0.74700004 1.2166317e-38
0.02632283 0.012094274 0.74700004 1.3175105e-38
0.027782854 0.012110457 0.74800003 1.4102046e-38
0.029207621 0.012110472 0.74800003 1.4104892e-38
0.030714253 0.012142852 0.75000006 1.4096617e-38
0.032228556 0.01217524 0.75200003 1.3642081e-38
0.033705674 0.012191422 0.75300002 1.3089278e-38
0.035140004 0.012191407 0.75300002 1.3373398e-38
0.036671422 0.012223817 0.75500005 1.3638038e-38
0.038159966 0.012239985 0.75600004 1.1145101e-38
0.039599963 0.012239993 0.75600004 8.5737368e-39
0.04104 0.012239993 0.75600004 8.8499915e-39
-0.019491434 0.013716191 0.75800002 1.4437298e-38
-0.018000001 0.013679996 0.75600004 1.3502412e-38
-0.016538097 0.013661891 0.75500005 1.3322657e-38
-0.015060021 0.013625711 0.75300002 1.3224723e-38
-0.013625753 0.013625711 0.75300002 1.4611583e-38
-0.012175272 0.013607621 0.75200003 1.6071697e-38
-0.010742891 0.013607621 0.75200003 1.868908e-38
-0.0093105091 0.013607614 0.75200003 2.1357727e-38
-0.0078571588 0.013571434 0.75000006 1.9332719e-38
-0.0064285849 0.013571441 0.75000006 1.7357513e-38
-0.0050000106 0.013571426 0.75000006 1.9130342e-38
-0.0035714388 0.013571426 0.75000006 2.0929797e-38
-0.0021342777 0.013517134 0.74700004 2.1013435e-38
-0.00071143673 0.013517119 0.74700004 2.1006275e-38
0.00071144348 0.013517141 0.74700004 2.221773e-38
0.0021285813 0.013480946 0.74500006 2.341723e-38
0.0035476151 0.013480946 0.74500006 2.0799458e-38
0.0049666506 0.013480946 0.74500006 1.8275747e-38
0.0063685677 0.013444766 0.74300003 1.809707e-38
0.0077837934 0.013444752 0.74300003 1.8017775e-38
0.0091990195 0.013444766 0.74300003 1.6178537e-38
0.010614284 0.013444759 0.74299997 1.4369595e-38
0.012029533 0.013444759 0.74300003 1.5855611e-38
0.013444759 0.013444752 0.74300003 1.7331436e-38
0.014859985 0.013444766 0.74300003 1.6870465e-38
0.016319061 0.013480954 0.74500006 1.6431725e-38
0.017738093 0.013480954 0.74500006 1.6602471e-38
0.019157127 0.013480946 0.74500006 1.6893384e-38
0.0205762 0.013480939 0.74500006 1.6046399e-38
0.022054305 0.013517134 0.74700004 1.5320668e-38
0.023477146 0.013517134 0.74700004 1.4754932e-38
0.024900027 0.013517141 0.74700004 1.4310459e-38
0.026358077 0.013535231 0.74800003 1.4573406e-38
0.027782841 0.013535216 0.74800003 1.4768942e-38
0.029207608 0.013535224 0.74800003 1.4203246e-38
0.030796155 0.013607606 0.75200003 1.3653624e-38
0.032271422 0.013625704 0.75300002 1.3367311e-38
0.033705704 0.013625719 0.75299996 1.3180758e-38
0.035139974 0.013625704 0.75300002 1.3183972e-38
0.036671415 0.013661891 0.75500011 1.3268536e-38
0.038160007 0.013679989 0.75600004 1.0871388e-38
0.03970477 0.013716184 0.75800002 8.5730151e-39
0.041148577 0.013716184 0.75800002 8.8496216e-39
-0.018047631 0.015159987 0.75800002 1.3332047e-38
-0.016560024 0.015119985 0.75600004 1.3041078e-38
-0.015100011 0.015099995 0.75500005 1.2686681e-38
-0.013625722 0.015060008 0.75300002 1.4326836e-38
-0.012191457 0.015059993 0.75300002 1.6015817e-38
-0.010742868 0.015039995 0.75200003 1.9076949e-38
-0.0093104867 0.015039995 0.75200003 2.2108611e-38
-0.0078781052 0.015040003 0.75200003 1.9902063e-38
-0.0064285821 0.015000001 0.75 1.7573139e-38
-0.0050000078 0.015000008 0.75 1.9399053e-38
-0.0035714342 0.015000001 0.75 2.1187736e-38
-0.0021371425 0.014959991 0.74800003 2.0829766e-38
-0.00071141997 0.014939986 0.74700004 2.0462438e-38
0.000711423 0.014939994 0.74700004 2.1948322e-38
0.0021343033 0.014939994 0.74700004 2.3404324e-38
0.0035571435 0.014939994 0.74700004 2.0885573e-38
0.004966646 0.014899991 0.74500006 1.828616e-38
0.00636855 0.014859997 0.74300003 1.8003083e-38
0.0077838129 0.014860012 0.74299997 1.7641824e-38
0.0091990624 0.014859997 0.74300003 1.5428788e-38
0.010614288 0.014860012 0.74300003 1.3248499e-38
0.012029514 0.014859989 0.74300003 1.4182009e-38
0.013444739 0.014859997 0.74300003 1.5100361e-38
0.014860004 0.014859997 0.74299997 1.6026966e-38
0.016319057 0.014899999 0.74500006 1.6953958e-38
0.017738091 0.014899999 0.74500006 1.7791985e-38
0.019157123 0.014899991 0.74500006 1.851876e-38
0.02063144 0.014939994 0.74700004 1.7969883e-38
0.022054283 0.014939979 0.74700004 1.7411686e-38
0.023477163 0.014939994 0.74700004 1.6958239e-38
0.024900004 0.014939979 0.74700004 1.6400046e-38
0.026358124 0.014959991 0.74800003 1.5947322e-38
0.027782869 0.014959984 0.74799997 1.5390575e-38
0.02928571 0.014999993 0.75000006 1.4285326e-38
0.030837109 0.015059993 0.75300002 1.3088931e-38
0.032271415 0.015059993 0.75300002 1.3176798e-38
0.033795238 0.015099995 0.75500005 1.318109e-38
0.035233311 0.015100002 0.75500005 1.3096418e-38
0.0366714 0.015100002 0.75500005 1.2899038e-38
0.038159963 0.015119985 0.75600004 1.0681996e-38
0.039704744 0.015159987 0.75800002 8.480116e-39
0.041148551 0.015159987 0.75800002 8.8499887e-39
0.042873338 0.015260004 0.76299995 9.1251281e-39
-0.018047633 0.016603805 0.75800002 1.6104365e-38
-0.016560005 0.016559988 0.75600004 1.6939089e-38
-0.015100001 0.016538091 0.75500005 1.7868268e-38
-0.013625731 0.016494289 0.75300002 1.8698076e-38
-0.012191465 0.016494282 0.75300002 1.9547262e-38
-0.010742884 0.016472384 0.75200003 2.0927728e-38
-0.0093105044 0.016472377 0.75200003 2.2403907e-38
-0.0078781229 0.016472377 0.75200003 2.008613e-38
-0.0064457641 0.016472377 0.75200003 1.7765806e-38
-0.0050000423 0.016428567 0.75000006 1.9325891e-38
-0.0035714686 0.016428575 0.75000006 2.1021296e-38
-0.0021371574 0.016384743 0.74800003 2.0920886e-38
-0.00071144232 0.016362838 0.74700004 2.0911932e-38
0.0007114379 0.016362868 0.74700004 2.2217371e-38
0.002134281 0.016362853 0.74700004 2.3417607e-38
0.0035571221 0.016362838 0.74700004 2.0797702e-38
0.0049800011 0.016362853 0.74700004 1.8184647e-38
0.0063857031 0.016319036 0.74500006 1.8190339e-38
0.0077838185 0.016275235 0.74300003 1.8290412e-38
0.0092238095 0.016319044 0.74500006 1.6633053e-38
0.010642843 0.016319029 0.74500006 1.4983272e-38
0.012061915 0.016319044 0.74500006 1.5353513e-38
0.013480949 0.016319036 0.74500006 1.5708297e-38
0.014899984 0.016319044 0.74500006 1.5999942e-38
0.016319053 0.016319044 0.74500006 1.6279462e-38
0.017785694 0.016362846 0.74700004 1.6746956e-38
0.019208575 0.016362846 0.74700004 1.728755e-38
0.020631418 0.016362846 0.74700004 1.6281289e-38
0.022054298 0.016362846 0.74700004 1.5173162e-38
0.023477141 0.016362861 0.74700004 1.5086346e-38
0.024933344 0.016384751 0.74800003 1.4986254e-38
0.026358111 0.016384751 0.74800003 1.4818001e-38
0.02785714 0.016428582 0.75000006 1.4632164e-38
0.029285714 0.016428567 0.75000006 1.3903563e-38
0.030837139 0.016494282 0.75300002 1.3259997e-38
0.032357156 0.016538084 0.75500005 1.3357929e-38
0.033795208 0.016538084 0.75500005 1.3546254e-38
0.035233345 0.016538084 0.75500005 1.2631118e-38
0.03671997 0.016559981 0.75600004 1.1793422e-38
0.038260922 0.01660379 0.75800002 9.3977507e-39
0.039704762 0.016603805 0.75800002 7.0096845e-39
0.041311428 0.016669542 0.76099998 7.5621478e-39
0.042873364 0.016713344 0.76300001 8.2096444e-39
0.044326685 0.016713336 0.76300001 8.0216532e-39
-0.018047636 0.018047594 0.75800002 1.8799969e-38
-0.016603852 0.018047608 0.75800002 2.0926167e-38
-0.015120012 0.017999999 0.75600004 2.2945496e-38
-0.013661941 0.01797618 0.75500005 2.2958077e-38
-0.012191434 0.017928571 0.75300002 2.2950578e-38
-0.010757167 0.017928563 0.75300002 2.286667e-38
-0.0093104802 0.017904766 0.75200003 2.2671129e-38
-0.0078781005 0.017904758 0.75200003 2.0364807e-38
-0.0064457194 0.017904758 0.75200003 1.7939401e-38
-0.0050133602 0.017904766 0.75200003 1.9300416e-38
-0.0035714649 0.017857149 0.75000006 2.0727491e-38
-0.0021371481 0.017809503 0.74800003 2.1103839e-38
-0.00071142556 0.017785713 0.74700004 2.1380795e-38
0.00071141555 0.017785706 0.74700004 2.24075e-38
0.0021342959 0.017785713 0.74699998 2.3404696e-38
0.0035571388 0.017785706 0.74700004 2.0702645e-38
0.0049666674 0.017738082 0.74500006 1.8013533e-38
0.0063857022 0.017738089 0.74500006 1.8466559e-38
0.007783799 0.017690472 0.74300003 1.8839995e-38
0.0092238085 0.017738096 0.74500006 1.7737249e-38
0.010642841 0.017738082 0.74500006 1.6635241e-38
0.012061914 0.017738096 0.74500006 1.6539837e-38
0.013480947 0.017738096 0.74500006 1.6354019e-38
0.014899983 0.017738096 0.74500006 1.598489e-38
0.01636287 0.017785713 0.74699998 1.5534695e-38
0.017785711 0.017785713 0.74700004 1.5812728e-38
0.019208556 0.017785713 0.74700004 1.6088235e-38
0.020631434 0.017785706 0.74700004 1.4511247e-38
0.022054275 0.017785706 0.74700004 1.2957912e-38
0.023477156 0.017785706 0.74699998 1.3228014e-38
0.024933331 0.017809518 0.74800003 1.3515393e-38
0.026358098 0.01780951 0.74800003 1.3706634e-38
0.027857145 0.017857142 0.75000006 1.3804549e-38
0.029285718 0.017857142 0.75000006 1.362014e-38
0.03083713 0.017928571 0.75300002 1.334931e-38
0.032357126 0.01797618 0.75500011 1.3631645e-38
0.033795241 0.017976187 0.75500005 1.3917895e-38
0.035233334 0.017976187 0.75500005 1.2271294e-38
0.036720008 0.017999984 0.75600004 1.0598826e-38
0.03826094 0.018047601 0.75800008 8.1052196e-39
0.039861914 0.018119067 0.76099998 5.5370655e-39
0.041311473 0.018119045 0.76099998 6.3621627e-39
0.042873345 0.018166661 0.76299995 7.1933373e-39
0.04432667 0.018166676 0.76299995 7.1025709e-39
-0.019620003 0.019620001 0.76300001 1.8899396e-38
-0.018095231 0.019542865 0.75999999 2.0195167e-38
-0.016603816 0.019491412 0.75800002 2.1300093e-38
-0.015120032 0.019439995 0.75600004 2.2407487e-38
-0.01366193 0.019414283 0.75500005 2.1385087e-38
-0.012223816 0.019414283 0.75500005 2.0369162e-38
-0.010757175 0.019362845 0.75300002 2.119784e-38
-0.0093228715 0.019362859 0.75300002 2.2017845e-38
-0.0078781163 0.01933714 0.75200003 1.9702528e-38
-0.0064457371 0.01933714 0.75200003 1.7357504e-38
-0.0050133779 0.019337155 0.75200003 1.9131446e-38
-0.0035714388 0.019285724 0.75000006 2.0933042e-38
-0.0021371238 0.019234277 0.74800003 2.1105274e-38
-0.00071144791 0.019208558 0.74700004 2.1374696e-38
0.00071143231 0.019208573 0.74699998 2.240176e-38
0.0021342717 0.019208558 0.74700004 2.3417614e-38
0.0035571146 0.019208558 0.74700004 2.0799149e-38
0.0049666655 0.019157127 0.74500006 1.8282224e-38
0.0063857012 0.019157141 0.74500006 1.856377e-38
0.0078047714 0.019157134 0.74500006 1.8845025e-38
0.0092238076 0.019157141 0.74500006 1.8199313e-38
0.010642841 0.019157127 0.74500006 1.7648307e-38
0.012061913 0.019157149 0.745 1.7644727e-38
0.013517126 0.019208565 0.74700004 1.7641874e-38
0.014940006 0.019208565 0.74699998 1.7460371e-38
0.016362846 0.019208573 0.74700004 1.7275587e-38
0.017785689 0.019208558 0.74700004 1.7561819e-38
0.019208569 0.019208573 0.74700004 1.7843441e-38
0.020631412 0.019208558 0.74700004 1.6451575e-38
0.022083825 0.019234285 0.74800003 1.516368e-38
0.02350859 0.01923427 0.74799997 1.5345872e-38
0.024933318 0.019234277 0.74800003 1.5537871e-38
0.026358083 0.01923427 0.74800003 1.5546199e-38
0.02785711 0.019285709 0.75000006 1.5555502e-38
0.029285721 0.019285724 0.75000006 1.4354801e-38
0.030837124 0.019362859 0.75300002 1.3160248e-38
0.032357138 0.019414283 0.75500005 1.399899e-38
0.033795226 0.019414276 0.75500005 1.4844853e-38
0.035279967 0.019439988 0.75600004 1.4839803e-38
0.036719967 0.01943998 0.75600004 1.4816785e-38
0.038260914 0.019491412 0.75800002 1.3628963e-38
0.039861925 0.019568577 0.76099998 1.2425783e-38
0.041311435 0.019568577 0.76099998 1.2802459e-38
0.042873371 0.019620001 0.76300001 1.3251592e-38
0.044210512 0.01956857 0.76100004 1.3076889e-38
-0.019619999 0.021073334 0.76300001 1.9912486e-38
-0.018095253 0.020990491 0.76000005 2.1481955e-38
-0.016603818 0.020935223 0.75800002 2.1671739e-38
-0.01516001 0.02093523 0.75800002 2.1756029e-38
