# .PCD v0.7 - Point Cloud Data file format
VERSION 0.7
FIELDS x y z rgb
SIZE 4 4 4 4
TYPE F F F F
COUNT 1 1 1 1
WIDTH 969
HEIGHT 1
VIEWPOINT 0 0 0 1 0 0 0
POINTS 969
DATA ascii
0.016319012 0.021995209 0.74500012 1.8386223e-38
0.017785687 0.022054255 0.7470001 1.8386951e-38
0.019208547 0.02205427 0.74700004 1.8390198e-38
0.020659054 0.022083804 0.74800003 1.8579268e-38
0.02214287 0.022142857 0.75000006 1.8765103e-38
0.02363424 0.022201888 0.75200009 1.7481211e-38
0.025066635 0.022201888 0.75200009 1.6198008e-38
0.026498999 0.022201888 0.75200009 1.4637506e-38
0.027968546 0.02223143 0.75300002 1.3172072e-38
0.029480906 0.022290476 0.75500011 1.6592575e-38
0.030919012 0.022290461 0.75500011 2.0009109e-38
0.032485701 0.022379018 0.75800002 1.9911857e-38
0.034019023 0.022438072 0.76000011 1.9923062e-38
0.035466641 0.022438072 0.76000011 2.0653166e-38
0.036962867 0.022467613 0.76100004 2.1489e-38
0.038513307 0.022526659 0.76300007 2.1390335e-38
0.03986191 0.022467613 0.76100004 2.1397148e-38
-0.026957169 0.024042852 0.7650001 1.0769242e-38
-0.025433378 0.023979984 0.76300007 1.1228805e-38
-0.023885723 0.023885697 0.76000005 1.1592879e-38
-0.02237905 0.023822844 0.75800002 1.2049508e-38
-0.020880021 0.023759991 0.7560001 1.2507983e-38
-0.019414308 0.023728564 0.75500011 1.3153718e-38
-0.017904811 0.023634262 0.75200009 1.3795862e-38
-0.016472422 0.023634262 0.75200009 1.4072457e-38
-0.015040058 0.02363427 0.75200009 1.4255416e-38
-0.013571438 0.023571409 0.75000006 1.5081225e-38
-0.012110482 0.023508549 0.74800003 1.5819861e-38
-0.01068573 0.023508549 0.74800009 1.655778e-38
-0.0092486171 0.02347713 0.7470001 1.7291398e-38
-0.0078048087 0.023414254 0.74500012 1.7381808e-38
-0.0063857413 0.023414269 0.74500012 1.738574e-38
-0.0049667028 0.023414269 0.74500012 1.8772227e-38
-0.0035476356 0.023414262 0.74500012 2.0060103e-38
-0.0021228909 0.023351401 0.74300009 2.0249542e-38
-0.00070764008 0.023351416 0.74300003 2.0426033e-38
0.00070760516 0.023351423 0.74300009 1.9960751e-38
0.0021228541 0.023351416 0.74300009 1.9408267e-38
0.0035380733 0.023351416 0.74300009 1.912842e-38
0.0049533243 0.023351423 0.74300009 1.8751391e-38
0.0063685435 0.023351409 0.74300009 1.8841074e-38
0.0077837924 0.023351423 0.74300009 1.8933252e-38
0.009199013 0.023351409 0.74300009 1.9300578e-38
0.010614262 0.023351416 0.74300003 1.9581848e-38
0.012061882 0.023414269 0.74500012 2.0140419e-38
0.013480951 0.023414262 0.74500006 2.0598523e-38
0.014899964 0.023414262 0.74500012 1.939211e-38
0.016362838 0.023477122 0.74700004 1.819861e-38
0.017785668 0.02347713 0.7470001 1.8291885e-38
0.019234277 0.023508556 0.74800003 1.8296216e-38
0.020659031 0.023508541 0.74800003 1.8584665e-38
0.022142865 0.023571409 0.75000006 1.8767623e-38
0.023634257 0.02363427 0.75200003 1.7206422e-38
0.025066622 0.023634262 0.75200009 1.5644843e-38
0.026534269 0.023665711 0.75300008 1.4173306e-38
0.027968556 0.023665696 0.75300008 1.2721174e-38
0.029480906 0.023728557 0.75500011 1.7982001e-38
0.030959984 0.023759983 0.7560001 2.3226301e-38
0.03257142 0.023885712 0.76000005 2.3322431e-38
0.034019031 0.023885697 0.76000005 2.3414316e-38
0.035513327 0.023917131 0.76100004 2.3416876e-38
0.036962837 0.023917131 0.76100004 2.3416156e-38
0.038513295 0.023979984 0.76300007 2.3417228e-38
0.03986188 0.023917124 0.76100004 2.3416509e-38
-0.02695719 0.025499977 0.7650001 1.0675267e-38
-0.02543336 0.025433317 0.76300001 1.1135198e-38
-0.023917146 0.025366649 0.76100004 1.1683311e-38
-0.022438107 0.025333315 0.76000005 1.2141022e-38
-0.020879999 0.025199994 0.7560001 1.2599475e-38
-0.019440021 0.025199994 0.75600004 1.3150839e-38
-0.017904799 0.025066651 0.75200009 1.3701508e-38
-0.016472435 0.025066644 0.75200009 1.4070299e-38
-0.015040041 0.025066666 0.75200003 1.4529842e-38
-0.013571444 0.024999984 0.75000012 1.517736e-38
-0.012142868 0.024999999 0.75000006 1.5824879e-38
-0.010685724 0.024933308 0.74800003 1.6374104e-38
-0.0092485799 0.024899982 0.74700004 1.6830781e-38
-0.00780479 0.024833314 0.74500006 1.7198133e-38
-0.0063857515 0.024833307 0.74500012 1.7564733e-38
-0.0049666823 0.024833314 0.74500006 1.8398041e-38
-0.0035476449 0.024833292 0.74500012 1.9230725e-38
-0.0021228611 0.024766654 0.74300003 1.9693913e-38
-0.00070764008 0.024766654 0.74300009 2.0247771e-38
0.00070760888 0.024766661 0.74300003 1.9873945e-38
0.002122828 0.024766646 0.74300009 1.9592304e-38
0.003538077 0.024766661 0.74300003 1.9123045e-38
0.0049532964 0.024766646 0.74300009 1.8749596e-38
0.0063856873 0.024833307 0.74500012 1.8656316e-38
0.0078047295 0.024833307 0.74500006 1.8655594e-38
0.0092237666 0.024833299 0.74500012 1.9025802e-38
0.010642834 0.024833314 0.74500012 1.9397087e-38
0.012061874 0.024833299 0.74500012 1.9773393e-38
0.013480942 0.024833314 0.74500012 2.0143636e-38
0.014939989 0.024899989 0.74700004 1.9303157e-38
0.01636282 0.024899974 0.74700004 1.8469458e-38
0.017809527 0.024933323 0.74800003 1.8287576e-38
0.019234281 0.024933308 0.74800003 1.8193984e-38
0.020659065 0.024933323 0.74800003 1.8394193e-38
0.022142833 0.024999984 0.75000006 1.8585394e-38
0.023634268 0.025066651 0.75200009 1.6839797e-38
0.025099987 0.025099993 0.75300008 1.5185665e-38
0.026604721 0.025166661 0.75500011 1.4178687e-38
0.028042825 0.025166661 0.75500011 1.3178944e-38
0.029480934 0.025166661 0.75500005 1.8071739e-38
0.031041885 0.025266647 0.75800002 2.3050243e-38
0.032571424 0.025333315 0.76000005 2.3231058e-38
0.034019034 0.025333323 0.76000005 2.3412592e-38
0.035466649 0.025333315 0.76000005 2.3321488e-38
0.036914259 0.025333323 0.76000005 2.3229301e-38
0.038361877 0.025333315 0.76000005 2.3138188e-38
0.03986191 0.025366664 0.76100004 2.3138188e-38
-0.025433373 0.026886642 0.76300007 1.1136604e-38
-0.02391715 0.026816167 0.7610001 1.1683651e-38
-0.022379052 0.026710451 0.75800002 1.2231057e-38
-0.020880032 0.026639983 0.7560001 1.2690233e-38
-0.019439999 0.026639998 0.75600004 1.3148693e-38
-0.01792861 0.026534267 0.75300008 1.3608599e-38
-0.016494324 0.026534274 0.75300008 1.4161058e-38
-0.01504003 0.02649904 0.75200009 1.4717102e-38
-0.01357142 0.026428558 0.75000006 1.5273506e-38
-0.012110472 0.026358075 0.74800003 1.5823813e-38
-0.010671456 0.026322842 0.7470001 1.6098972e-38
-0.0092485705 0.026322834 0.74700004 1.6372684e-38
-0.0078047966 0.026252352 0.74500012 1.7015533e-38
-0.006385759 0.026252359 0.74500012 1.7656927e-38
-0.0049666916 0.026252352 0.74500012 1.8024609e-38
-0.0035476524 0.026252359 0.74500012 1.8306629e-38
-0.002122889 0.026181892 0.74300009 1.9138946e-38
-0.00070764008 0.026181892 0.74300003 1.997011e-38
0.00070760516 0.026181877 0.74300009 1.9878615e-38
0.002122856 0.026181899 0.74300009 1.9681635e-38
0.0035380751 0.026181884 0.74300009 1.9205559e-38
0.0049533243 0.026181892 0.74300003 1.8654902e-38
0.0063857078 0.026252359 0.74500006 1.8562345e-38
0.0078047202 0.026252359 0.74500012 1.8380466e-38
0.0092237871 0.026252359 0.74500006 1.8749959e-38
0.010642827 0.026252352 0.74500012 1.9122672e-38
0.012061894 0.026252367 0.74500006 1.9412877e-38
0.013517111 0.026322834 0.7470001 1.9680873e-38
0.014939996 0.026322842 0.74700004 1.9206652e-38
0.016384752 0.026358083 0.74800003 1.8655266e-38
0.017809505 0.026358075 0.74800003 1.8378671e-38
0.019234288 0.026358083 0.74800003 1.8107862e-38
0.020714281 0.026428558 0.75000006 1.8303763e-38
0.02220186 0.026499033 0.75200009 1.8399552e-38
0.023665681 0.026534259 0.75300008 1.6564643e-38
0.025099969 0.026534267 0.75300008 1.4636826e-38
0.026604749 0.026604749 0.75500005 1.4084389e-38
0.028042829 0.026604757 0.75500005 1.3553123e-38
0.02951997 0.026639998 0.7560001 1.8258633e-38
0.031041896 0.026710458 0.75800008 2.2861537e-38
0.032571398 0.026780941 0.76000005 2.313813e-38
0.034019038 0.026780948 0.76000005 2.3320755e-38
0.035513356 0.026816174 0.76100004 2.3227517e-38
0.036962867 0.026816182 0.76100004 2.3045277e-38
0.038412374 0.026816189 0.76100004 2.2952001e-38
-0.02388574 0.028228551 0.76000011 1.1683273e-38
-0.022379067 0.028154276 0.75800002 1.2048454e-38
-0.02088001 0.028079987 0.7560001 1.2505845e-38
-0.019440033 0.028079987 0.7560001 1.2872835e-38
-0.017928598 0.027968556 0.75300002 1.3239468e-38
-0.016494311 0.027968556 0.75300008 1.3979899e-38
-0.015040043 0.027931422 0.75200003 1.4719616e-38
-0.01357145 0.027857132 0.75000006 1.5179522e-38
-0.012110496 0.027782843 0.74800009 1.5730193e-38
-0.010671449 0.027745694 0.7470001 1.6097192e-38
-0.0092485882 0.027745686 0.74700004 1.6463807e-38
-0.0078047817 0.027671412 0.74500012 1.6922616e-38
-0.0064028702 0.027745709 0.74700004 1.7471822e-38
-0.0049667009 0.027671404 0.74500012 1.7747316e-38
-0.0035476338 0.027671419 0.74500006 1.8025383e-38
-0.0021228909 0.027597129 0.74300009 1.8950603e-38
-0.00070764194 0.027597129 0.74300009 1.987971e-38
0.00070760888 0.027597137 0.74300003 1.9875753e-38
0.002122828 0.027597122 0.74300009 1.9958582e-38
0.003538077 0.027597129 0.74300003 1.9305651e-38
0.0049532983 0.027597129 0.74300009 1.865312e-38
0.0063856975 0.027671412 0.74500012 1.8654915e-38
0.0078047351 0.027671397 0.74500012 1.8656351e-38
0.0092237778 0.027671412 0.74500006 1.8931499e-38
0.010671405 0.027745701 0.74700004 1.9206272e-38
0.012094262 0.027745694 0.74700004 1.9497905e-38
0.013517118 0.027745694 0.7470001 1.9776656e-38
0.01496 0.02778285 0.74800003 1.9121984e-38
0.016384754 0.027782828 0.74800009 1.8566646e-38
0.017809536 0.027782843 0.74800003 1.8381517e-38
0.019234264 0.027782835 0.74800003 1.8198236e-38
0.020714276 0.02785714 0.75000012 1.7566539e-38
0.022142852 0.027857132 0.75000006 1.6838689e-38
0.023634242 0.027931415 0.75200009 1.6015058e-38
0.025099978 0.027968556 0.75300008 1.5191806e-38
0.026604747 0.028042845 0.75500011 1.4465411e-38
0.028042827 0.028042853 0.75500011 1.3740761e-38
0.029598089 0.028154269 0.75800002 1.8443016e-38
0.031123791 0.028228551 0.76000005 2.3142055e-38
0.032614283 0.028265715 0.76100004 2.323174e-38
0.034063794 0.0282657 0.76100004 2.3412232e-38
0.035513327 0.0282657 0.76100004 2.332188e-38
0.036962837 0.028265692 0.76100004 2.3231106e-38
0.03841237 0.0282657 0.76100004 2.3139253e-38
-0.023885733 0.029676169 0.76000005 1.1592155e-38
-0.022379052 0.02959808 0.75800002 1.1956625e-38
-0.020935258 0.02959808 0.75800002 1.2322897e-38
-0.01944001 0.029519983 0.7560001 1.2596617e-38
-0.01797623 0.029480942 0.75500011 1.2783522e-38
-0.01649433 0.02940283 0.75300008 1.3798742e-38
-0.01504003 0.029363796 0.75200009 1.4718184e-38
-0.013607665 0.029363789 0.75200009 1.5178449e-38
-0.01211049 0.029207617 0.74800003 1.5546159e-38
-0.010685738 0.029207602 0.74800003 1.6095747e-38
-0.0092485789 0.029168554 0.74700004 1.6555639e-38
-0.007825749 0.029168546 0.74700004 1.6922261e-38
-0.0064028618 0.029168554 0.74700004 1.7194888e-38
-0.00498003 0.029168561 0.74700004 1.7467873e-38
-0.0035476412 0.029090457 0.74500012 1.7654102e-38
-0.002122889 0.02901236 0.74300009 1.8665773e-38
-0.00070766802 0.02901236 0.74300009 1.9689227e-38
0.00070760702 0.029012367 0.74300009 1.9969387e-38
0.002122856 0.029012367 0.74300003 2.0237323e-38
0.003538077 0.029012375 0.74300009 1.9404667e-38
0.0049533262 0.029012367 0.74300003 1.8567744e-38
0.0063856873 0.029090449 0.74500012 1.8748187e-38
0.0078047574 0.029090464 0.74500012 1.8838227e-38
0.0092485528 0.029168554 0.7470001 1.9112656e-38
0.010671414 0.029168561 0.74700004 1.9303139e-38
0.012110471 0.029207602 0.74800003 1.95955e-38
0.013535224 0.02920761 0.74800003 1.9774873e-38
0.014959977 0.029207595 0.74800009 1.912127e-38
0.01638476 0.029207602 0.74800003 1.8476252e-38
0.017809514 0.029207587 0.74800003 1.8382965e-38
0.019234296 0.02920761 0.74800003 1.8294742e-38
0.020714274 0.029285714 0.75000006 1.683365e-38
0.022201892 0.029363804 0.75200009 1.5276411e-38
0.023665674 0.029402837 0.75300008 1.5465122e-38
0.02516664 0.029480949 0.75500011 1.566175e-38
0.026604719 0.029480949 0.75500011 1.4843882e-38
0.028079959 0.02951999 0.7560001 1.3929843e-38
0.029598074 0.02959808 0.75800002 1.8721802e-38
0.031123767 0.029676169 0.76000011 2.3414736e-38
0.032571435 0.029676184 0.76000005 2.3417605e-38
0.034019046 0.029676184 0.76000005 2.3415836e-38
0.035513327 0.029715233 0.76100004 2.3415861e-38
0.036962863 0.029715233 0.76100004 2.3414781e-38
0.03841237 0.029715218 0.76100004 2.3417648e-38
-0.023822861 0.031041883 0.75800002 1.159359e-38
-0.022379067 0.031041883 0.75800002 1.186623e-38
-0.020880019 0.030959994 0.7560001 1.2231786e-38
-0.019440014 0.030959994 0.75600004 1.2599133e-38
-0.017976232 0.03091903 0.75500011 1.2967914e-38
-0.016538123 0.030919053 0.75500005 1.361292e-38
-0.015060034 0.030837126 0.75300008 1.4349051e-38
-0.013607652 0.030796163 0.75200009 1.5086257e-38
-0.012142859 0.030714273 0.75000006 1.5823097e-38
-0.010714315 0.030714281 0.75000006 1.6189724e-38
-0.0092609776 0.030632362 0.74800003 1.6648547e-38
-0.0078362254 0.030632362 0.74800009 1.6921546e-38
-0.0064114411 0.030632377 0.74800003 1.7193459e-38
-0.0049800207 0.030591413 0.7470001 1.7376405e-38
-0.003557191 0.030591406 0.7470001 1.7467927e-38
-0.002128585 0.030509509 0.74500006 1.83935e-38
-0.00070954557 0.030509502 0.74500012 1.9322967e-38
0.00070952182 0.030509502 0.74500006 1.9876123e-38
0.002122828 0.030427605 0.74300009 2.0514987e-38
0.0035476016 0.030509502 0.74500006 1.9491844e-38
0.0049666404 0.030509502 0.74500012 1.8474478e-38
0.006402818 0.030591398 0.7470001 1.8562365e-38
0.0078257043 0.030591406 0.74700004 1.8651327e-38
0.0092485351 0.030591413 0.7470001 1.8929341e-38
0.01068572 0.030632362 0.74800003 1.9206289e-38
0.012110473 0.030632347 0.74800003 1.9679463e-38
0.013535226 0.030632354 0.74800009 2.014689e-38
0.014960009 0.030632369 0.74800003 1.9215976e-38
0.016384738 0.030632362 0.74800003 1.8200752e-38
0.01780952 0.030632369 0.74800003 1.7464621e-38
0.019285694 0.030714259 0.75000012 1.6732826e-38
0.02071427 0.030714273 0.75000006 1.6090715e-38
0.022201879 0.030796178 0.75200003 1.5457931e-38
0.023665709 0.030837141 0.75300002 1.6491457e-38
0.025166638 0.030919038 0.75500011 1.7513172e-38
0.026639979 0.030959994 0.75600004 1.5390597e-38
0.028079981 0.030959994 0.7560001 1.3279489e-38
0.029598059 0.031041875 0.75800008 1.7985014e-38
0.0311238 0.031123795 0.76000005 2.2774804e-38
0.03261428 0.031164743 0.76100004 2.2037602e-38
0.03406379 0.031164743 0.76100004 2.130543e-38
0.035513323 0.031164728 0.7610001 2.1115661e-38
0.036962863 0.03116475 0.76100004 2.1023118e-38
0.038361888 0.031123795 0.76000011 2.0838737e-38
-0.023885727 0.032571405 0.76000005 1.1502116e-38
-0.022379052 0.032485694 0.75800002 1.1775124e-38
-0.020935258 0.032485694 0.75800002 1.2048843e-38
-0.019440021 0.032399997 0.7560001 1.2600582e-38
-0.01800002 0.032399982 0.7560001 1.3060123e-38
-0.016538125 0.032357134 0.75500011 1.3520022e-38
-0.015100047 0.032357134 0.75500011 1.3982075e-38
-0.013607666 0.032228559 0.75200009 1.50859e-38
-0.012175302 0.032228544 0.75200009 1.6097886e-38
-0.01071432 0.03214284 0.75000012 1.6374471e-38
-0.0092857182 0.03214284 0.75000006 1.6648551e-38
-0.0078361919 0.032057121 0.74800003 1.6921197e-38
-0.0064114365 0.032057121 0.74800009 1.7193471e-38
-0.0049866806 0.032057121 0.74800003 1.7284225e-38
-0.0035571537 0.032014281 0.74700004 1.728533e-38
-0.0021285943 0.031928547 0.74500012 1.8116543e-38
-0.00070955674 0.031928547 0.74500012 1.8860541e-38
0.0007095125 0.031928539 0.74500012 1.9788571e-38
0.002128524 0.031928539 0.74500012 2.0696144e-38
0.0035475933 0.031928554 0.74500012 1.9481457e-38
0.0049666311 0.031928554 0.74500012 1.8287588e-38
0.0064028562 0.032014281 0.74700004 1.8375829e-38
0.0078256866 0.032014266 0.74700004 1.8467662e-38
0.0092485435 0.032014266 0.7470001 1.883823e-38
0.010685695 0.032057121 0.74800003 1.9118764e-38
0.012110449 0.032057121 0.74800009 1.9860987e-38
0.013535232 0.032057129 0.74800003 2.0506696e-38
0.014959984 0.032057121 0.74800009 1.9211303e-38
0.016428545 0.032142855 0.75000006 1.7922732e-38
0.017809521 0.032057114 0.74800003 1.654161e-38
0.019285718 0.032142848 0.75000006 1.5069034e-38
0.020714264 0.03214284 0.75000006 1.5337746e-38
0.02220189 0.032228559 0.75200009 1.5654558e-38
0.023634255 0.032228552 0.75200009 1.7530063e-38
0.025099978 0.032271408 0.75300008 1.934705e-38
0.026640002 0.03239999 0.75600004 1.6017663e-38
0.028154278 0.032485686 0.75800002 1.2639869e-38
0.029676167 0.03257142 0.76000005 1.7347544e-38
0.031123804 0.032571405 0.76000005 2.2032949e-38
0.03261428 0.032614276 0.76100004 2.065219e-38
0.03406379 0.032614261 0.76100004 1.9182104e-38
0.035513327 0.032614276 0.76100004 1.8902294e-38
0.037059966 0.032699987 0.76300007 1.8535313e-38
0.03841237 0.032614261 0.76100004 1.8257655e-38
-0.023885749 0.034019023 0.76000011 1.1502118e-38
-0.022438107 0.034019038 0.76000005 1.1774775e-38
-0.020935247 0.033929504 0.75800008 1.2047062e-38
-0.019491453 0.033929504 0.75800008 1.259916e-38
-0.018000023 0.033839993 0.7560001 1.3151971e-38
-0.016538125 0.033795223 0.75500011 1.370514e-38
-0.015100047 0.033795223 0.75500011 1.4258664e-38
-0.013625758 0.033705696 0.75300008 1.508626e-38
-0.012175258 0.033660933 0.75200009 1.5913857e-38
-0.010742894 0.033660941 0.75200009 1.6281558e-38
-0.0092857238 0.033571422 0.75000006 1.6649633e-38
-0.0078571774 0.033571407 0.75000006 1.6921566e-38
-0.0064114309 0.033481888 0.74800003 1.7099494e-38
-0.0049866787 0.033481881 0.74800003 1.7283163e-38
-0.0035571444 0.033437133 0.74700004 1.7374655e-38
-0.0021286018 0.033347592 0.74500012 1.8114016e-38
-0.00070953439 0.033347599 0.74500006 1.87651e-38
0.00070950319 0.033347592 0.74500012 1.9508737e-38
0.0021285464 0.033347607 0.74500006 2.0244137e-38
0.0035475839 0.033347592 0.74500012 1.9400756e-38
0.0049666516 0.033347599 0.74500006 1.8471269e-38
0.0064028385 0.033437133 0.74700004 1.8465875e-38
0.0078256959 0.033437125 0.74700004 1.846408e-38
0.009260945 0.033481874 0.74800003 1.87464e-38
0.010685728 0.033481888 0.74800003 1.9120205e-38
0.012110456 0.033481896 0.74800003 1.9402531e-38
0.013535208 0.033481874 0.74800003 1.9776672e-38
0.014959991 0.033481888 0.74800003 1.8201819e-38
0.01642854 0.033571415 0.75000006 1.663524e-38
0.017857142 0.033571407 0.75000006 1.5159778e-38
0.019285712 0.033571422 0.75000006 1.3775811e-38
0.020714259 0.033571407 0.75000006 1.5730925e-38
0.022201877 0.033660948 0.75200009 1.7598571e-38
0.023665672 0.033705689 0.75300008 1.7794882e-38
0.025166642 0.03379523 0.75500005 1.7877721e-38
0.02663997 0.033839993 0.7560001 1.5294818e-38
0.028154263 0.033929504 0.75800008 1.2822821e-38
0.029676169 0.034019038 0.76000005 1.6604606e-38
0.031123782 0.034019031 0.76000005 2.0377403e-38
0.032614283 0.034063801 0.76100004 1.9270364e-38
0.034063816 0.034063801 0.76100004 1.8256587e-38
0.035606626 0.034153312 0.76300007 1.7888887e-38
0.037059955 0.034153312 0.76300007 1.7611581e-38
-0.023885718 0.035466649 0.76000005 1.1409924e-38
-0.022438105 0.035466649 0.76000005 1.1774412e-38
-0.020935232 0.035373308 0.75800002 1.2047057e-38
-0.01949144 0.035373323 0.75800002 1.2688839e-38
-0.018000001 0.035280004 0.7560001 1.3245237e-38
-0.016560024 0.035279997 0.75600004 1.3890244e-38
-0.015100017 0.035233334 0.75500005 1.4534167e-38
-0.013625746 0.035139985 0.75300002 1.5085896e-38
-0.01219146 0.035139993 0.75300008 1.563727e-38
-0.010742908 0.035093322 0.75200009 1.6188645e-38
-0.0092857284 0.034999974 0.75000012 1.664891e-38
-0.0078571523 0.034999996 0.75000006 1.6831876e-38
-0.0064114551 0.034906641 0.74800003 1.7010519e-38
-0.0049866731 0.034906663 0.74800003 1.7282433e-38
-0.0035619184 0.034906663 0.74800003 1.7466113e-38
-0.0021343052 0.034859985 0.7470001 1.8108256e-38
-0.00071144546 0.034859985 0.74700004 1.8672913e-38
0.00071141054 0.034859985 0.74700004 1.923757e-38
0.0021285352 0.034766652 0.74500006 1.9781377e-38
0.0035571291 0.034859985 0.74700004 1.922208e-38
0.0049799602 0.034859985 0.7470001 1.8658157e-38
0.0064114169 0.034906656 0.74800003 1.8551975e-38
0.0078361686 0.034906656 0.74800003 1.8374396e-38
0.0092609515 0.034906648 0.74800003 1.8746752e-38
0.010685705 0.034906663 0.74800003 1.9120919e-38
0.012110458 0.034906663 0.74800009 1.9035549e-38
0.013535242 0.034906656 0.74800003 1.8942982e-38
0.014999987 0.034999989 0.75000012 1.7092268e-38
0.016428564 0.034999989 0.75000006 1.5252664e-38
0.017857136 0.034999989 0.75000006 1.386937e-38
0.019285707 0.034999989 0.75000012 1.2508783e-38
0.020769469 0.035093307 0.75200009 1.6027675e-38
0.022231421 0.035139985 0.75300008 1.953362e-38
0.023728561 0.035233326 0.75500005 1.798933e-38
0.02516664 0.035233311 0.75500011 1.6404756e-38
0.026639992 0.035279989 0.7560001 1.4644763e-38
0.028154278 0.035373308 0.75800002 1.2915366e-38
0.029676171 0.035466641 0.76000011 1.5871013e-38
0.031123813 0.035466641 0.76000005 1.8718983e-38
0.03261428 0.035513319 0.76100004 1.7978554e-38
0.03406379 0.035513312 0.76100004 1.7245308e-38
0.035606645 0.035606652 0.76300007 1.6969087e-38
0.037059974 0.035606645 0.76300007 1.669178e-38
-0.023980031 0.037059978 0.76300007 1.1500323e-38
-0.022467617 0.036962844 0.76100004 1.1773689e-38
-0.020990489 0.036914274 0.76000005 1.2136736e-38
-0.019542877 0.036914282 0.76000011 1.278318e-38
-0.018047659 0.036817126 0.75800008 1.3341373e-38
-0.016560001 0.036720008 0.75600004 1.3983151e-38
-0.015100018 0.036671415 0.75500011 1.4626357e-38
-0.01366194 0.036671415 0.75500011 1.508589e-38
-0.01219145 0.036574282 0.75300002 1.563619e-38
-0.010742893 0.036525704 0.75200009 1.6098241e-38
-0.0093105296 0.036525689 0.75200009 1.6649982e-38
-0.0078781368 0.036525697 0.75200003 1.6924062e-38
-0.0064285868 0.036428556 0.75000012 1.7104137e-38
-0.0050000106 0.036428556 0.75000006 1.7284571e-38
-0.0035714384 0.036428563 0.75000006 1.737462e-38
-0.0021371588 0.0363314 0.74800003 1.792851e-38
-0.00071240659 0.0363314 0.74800003 1.8397414e-38
0.00071237725 0.036331415 0.74800003 1.9138954e-38
0.0021371294 0.036331415 0.74800003 1.9962182e-38
0.0035618825 0.0363314 0.74800009 1.9128066e-38
0.0049866647 0.036331415 0.74800003 1.8387662e-38
0.0064114179 0.0363314 0.74800009 1.8193606e-38
0.0078362003 0.036331415 0.74800003 1.8010281e-38
0.0092609273 0.036331415 0.74800003 1.7922019e-38
0.010685712 0.036331415 0.74800003 1.7836296e-38
0.012110465 0.036331415 0.74800003 1.7566183e-38
0.013535218 0.0363314 0.74800009 1.7296405e-38
0.015000011 0.036428571 0.75000006 1.5532506e-38
0.016428558 0.036428556 0.75000006 1.3781483e-38
0.017857131 0.036428556 0.75000006 1.3608882e-38
0.01933709 0.036525689 0.75200009 1.3433252e-38
0.020769484 0.036525704 0.75200003 1.5386697e-38
0.022231402 0.036574274 0.75300008 1.7426472e-38
0.023665689 0.036574259 0.75300008 1.5583326e-38
0.02516664 0.036671422 0.75500011 1.3821874e-38
0.026639989 0.036719993 0.75600004 1.3269351e-38
0.028154267 0.036817111 0.75800002 1.2730968e-38
0.029598059 0.036817119 0.75800002 1.577668e-38
0.031164775 0.036962837 0.76100004 1.8811536e-38
0.03261428 0.036962844 0.76100004 1.8073244e-38
0.034153283 0.037059978 0.76300007 1.7338207e-38
0.035606638 0.037059978 0.76300007 1.7059836e-38
0.037059963 0.037059985 0.76300007 1.6781094e-38
0.03861424 0.037157133 0.7650001 1.6875074e-38
-0.02398001 0.038513318 0.76300007 1.1499976e-38
-0.022467617 0.038412362 0.76100004 1.1866968e-38
-0.020990513 0.038361892 0.76000011 1.2231442e-38
-0.019542871 0.038361907 0.76000005 1.2873936e-38
-0.018047618 0.038260926 0.75800002 1.342926e-38
-0.016560035 0.038159985 0.7560001 1.4074265e-38
-0.015120034 0.038159985 0.7560001 1.4624922e-38
-0.013661942 0.038109507 0.75500011 1.5086972e-38
-0.012223832 0.038109522 0.75500005 1.5546515e-38
-0.010757182 0.038008545 0.75300008 1.6101481e-38
-0.0093105175 0.037958071 0.75200009 1.6651789e-38
-0.0078781238 0.037958078 0.75200009 1.6926592e-38
-0.0064285626 0.03785713 0.75000006 1.7197039e-38
-0.0050000162 0.037857123 0.75000006 1.7285609e-38
-0.0035714458 0.037857119 0.75000012 1.7281686e-38
-0.0021371569 0.037756164 0.74800009 1.7742319e-38
-0.00071237492 0.037756175 0.74800003 1.812189e-38
0.00071235304 0.037756186 0.74800003 1.9142156e-38
0.0021371359 0.037756182 0.74800003 2.005438e-38
0.0035618891 0.037756182 0.74800003 1.9123437e-38
0.0049866415 0.037756167 0.74800009 1.8110369e-38
0.0064114262 0.037756179 0.74800003 1.7916645e-38
0.0078361789 0.037756179 0.74800003 1.7642568e-38
0.0092609618 0.037756175 0.74800003 1.709442e-38
0.010714289 0.037857123 0.75000006 1.6549151e-38
0.012142834 0.037857134 0.75000006 1.6096435e-38
0.013571405 0.037857126 0.75000012 1.5634377e-38
0.01499998 0.037857134 0.75000006 1.3959445e-38
0.016472349 0.037958097 0.75200009 1.2324002e-38
0.017904714 0.037958078 0.75200009 1.335179e-38
0.019362835 0.038008552 0.75300008 1.4280634e-38
0.020797096 0.038008545 0.75300008 1.4750658e-38
0.022290451 0.038109515 0.75500011 1.5212359e-38
0.023728533 0.038109511 0.75500011 1.3186967e-38
0.025199981 0.038159989 0.7560001 1.1156837e-38
0.026639981 0.038159989 0.7560001 1.187926e-38
0.02815428 0.038260937 0.75800002 1.2547645e-38
0.029715208 0.038412359 0.76100004 1.5784195e-38
0.031164775 0.038412374 0.76100004 1.8903009e-38
0.032699972 0.038513321 0.76300001 1.8164013e-38
0.034242839 0.038614277 0.76500005 1.7336782e-38
0.035699986 0.038614281 0.76500005 1.7150245e-38
-0.023980049 0.039966654 0.76300007 1.1409944e-38
-0.022526694 0.039966654 0.76300007 1.177478e-38
-0.021018082 0.039861899 0.76100004 1.2047416e-38
-0.019542869 0.039809506 0.76000005 1.2599503e-38
-0.018047636 0.039704751 0.75800008 1.3151955e-38
-0.016603841 0.03970474 0.75800008 1.3704049e-38
-0.015120012 0.039599985 0.7560001 1.4345111e-38
-0.013680034 0.039599985 0.7560001 1.4718199e-38
-0.012240004 0.039599996 0.75600004 1.5085553e-38
-0.010757171 0.039442845 0.75300008 1.5915669e-38
-0.0093228836 0.039442834 0.75300008 1.6652881e-38
-0.0078781378 0.03939046 0.75200003 1.6925176e-38
-0.0064457473 0.03939046 0.75200009 1.710376e-38
-0.0050133825 0.039390448 0.75200009 1.7099748e-38
-0.0035714216 0.039285693 0.75000006 1.7183369e-38
-0.0021371513 0.039180942 0.74800003 1.7560792e-38
-0.00071239914 0.039180942 0.74800009 1.8032548e-38
0.0007123847 0.039180938 0.74800003 1.859004e-38
0.0021371387 0.039180938 0.74800003 1.9233963e-38
0.0035618918 0.039180923 0.74800009 1.8211933e-38
0.0049866498 0.039180934 0.74800003 1.7196684e-38
0.006411402 0.039180938 0.74800003 1.6728143e-38
0.0078571094 0.039285693 0.75000006 1.6262513e-38
0.0092857108 0.039285704 0.75000006 1.5530343e-38
0.010714283 0.039285693 0.75000006 1.4894306e-38
0.012142829 0.039285697 0.75000006 1.5083711e-38
0.01357143 0.039285701 0.75000006 1.5368176e-38
0.014999976 0.039285712 0.75000006 1.4723883e-38
0.016472336 0.03939046 0.75200009 1.4081124e-38
0.01792853 0.039442841 0.75300008 1.4190985e-38
0.019362817 0.039442834 0.75300008 1.4300779e-38
0.020797133 0.039442845 0.75300008 1.4661685e-38
0.022290451 0.039547604 0.75500011 1.4934324e-38
0.023728531 0.039547592 0.75500011 1.2263563e-38
0.025200004 0.0396 0.75600004 9.5037827e-39
0.026710471 0.039704744 0.75800002 1.1248605e-38
0.028228546 0.039809503 0.76000005 1.3010758e-38
0.029715234 0.039861884 0.76100004 1.6238332e-38
0.031246636 0.03996665 0.76300007 1.9453659e-38
0.032699961 0.03996665 0.76300007 1.8349129e-38
0.03424282 0.040071424 0.7650001 1.7337149e-38
0.035699964 0.040071413 0.7650001 1.7060571e-38
-0.024042884 0.041528564 0.7650001 1.1316301e-38
-0.022526678 0.04141999 0.76300007 1.1590735e-38
-0.02101811 0.041311413 0.76100004 1.1865889e-38
-0.019568576 0.041311406 0.76100004 1.2324713e-38
-0.018095253 0.041257121 0.76000005 1.2784613e-38
-0.016603826 0.041148551 0.75800002 1.3428544e-38
-0.015160033 0.041148551 0.75800002 1.4073191e-38
-0.013680012 0.041039996 0.7560001 1.4354802e-38
-0.012240011 0.041039985 0.7560001 1.4628892e-38
-0.010785756 0.040985711 0.75500011 1.5638742e-38
-0.0093228742 0.040877134 0.75300002 1.6650008e-38
-0.0078781247 0.040822838 0.75200009 1.6834039e-38
-0.0064457594 0.040822838 0.75200009 1.7014081e-38
-0.0050133956 0.040822841 0.75200009 1.7009377e-38
-0.003580977 0.040822849 0.75200009 1.7006535e-38
-0.0021428789 0.040714268 0.75000006 1.746861e-38
-0.00071427855 0.040714271 0.75000006 1.7938567e-38
0.00071426784 0.040714283 0.75000006 1.8134453e-38
0.0021371453 0.040605705 0.74800003 1.8310941e-38
0.0035714398 0.040714279 0.75000006 1.7293569e-38
0.0049999864 0.040714279 0.75000006 1.618469e-38
0.0064285579 0.040714268 0.75000012 1.5537143e-38
0.0078571336 0.04071429 0.75000006 1.4793116e-38
0.0092857052 0.040714283 0.75000006 1.3961916e-38
0.010742835 0.040822838 0.75200009 1.31455e-38
0.012175198 0.040822834 0.75200009 1.4067142e-38
0.013607563 0.040822838 0.75200009 1.5012409e-38
0.015039983 0.040822845 0.75200009 1.5395542e-38
0.01649425 0.04087713 0.75300008 1.5758267e-38
0.017928567 0.040877126 0.75300008 1.5029729e-38
0.019362828 0.040877134 0.75300008 1.4294344e-38
0.020797115 0.040877137 0.75300008 1.4477675e-38
0.022290424 0.040985703 0.75500011 1.4655585e-38
0.023728559 0.040985715 0.75500011 1.1244738e-38
0.02519997 0.041039988 0.7560001 7.8450013e-39
0.026710456 0.041148551 0.75800008 1.0692591e-38
0.02815428 0.041148551 0.75800002 1.3470668e-38
0.029793328 0.041419987 0.76300001 1.6705053e-38
0.031246657 0.04141999 0.76300001 1.9914997e-38
0.03269998 0.041419979 0.76300001 1.8625721e-38
0.034242827 0.041528556 0.7650001 1.7246386e-38
0.035606638 0.041419987 0.76300001 1.7060912e-38
-0.024042903 0.042985696 0.7650001 1.0947151e-38
-0.022526689 0.042873319 0.76300007 1.1224453e-38
-0.021018108 0.042760938 0.76100004 1.1500691e-38
-0.019568576 0.042760942 0.76100004 1.1866251e-38
-0.018095275 0.042704746 0.76000011 1.232436e-38
-0.016603841 0.042592347 0.75800008 1.2877531e-38
-0.015159992 0.042592362 0.75800002 1.3521818e-38
-0.013680016 0.042479996 0.75600004 1.407714e-38
-0.012240015 0.042479999 0.7560001 1.4629615e-38
-0.010785728 0.042423792 0.75500005 1.5271414e-38
-0.0093228929 0.042311411 0.75300008 1.5912453e-38
-0.0078886058 0.042311408 0.75300008 1.6190813e-38
-0.0064457483 0.042255215 0.75200009 1.6466661e-38
-0.0050200284 0.042311419 0.75300002 1.6276157e-38
-0.00358099 0.042255227 0.75200009 1.6089277e-38
-0.0021428864 0.042142846 0.75000012 1.6460226e-38
-0.00071428414 0.042142846 0.75000006 1.6924439e-38
0.00071426225 0.042142846 0.75000006 1.7024895e-38
0.0021428338 0.042142842 0.75000012 1.7204247e-38
0.003571409 0.042142849 0.75000006 1.5726614e-38
0.0049999808 0.042142846 0.75000006 1.4343309e-38
0.0064285831 0.042142842 0.75000006 1.3600697e-38
0.007857128 0.042142846 0.75000006 1.2950997e-38
0.0092856996 0.042142849 0.75000012 1.3697481e-38
0.010742822 0.042255223 0.75200009 1.45252e-38
0.012175187 0.042255227 0.75200009 1.5287987e-38
0.013607576 0.04225523 0.75200009 1.6044577e-38
0.01503997 0.042255223 0.75200009 1.5583987e-38
0.016494259 0.042311415 0.75300008 1.512912e-38
0.017976159 0.042423792 0.75500011 1.484752e-38
0.019414239 0.0424238 0.75500011 1.4471582e-38
0.020797124 0.042311415 0.75300002 1.3371722e-38
0.022290451 0.042423792 0.75500005 1.2271088e-38
0.023728533 0.042423796 0.75500011 1.0047621e-38
0.025199993 0.042479992 0.7560001 7.9278657e-39
0.026710471 0.042592362 0.75800002 1.1342634e-38
0.028154265 0.042592365 0.75800002 1.4759249e-38
0.029793292 0.042873319 0.76300007 1.7066663e-38
0.031246645 0.042873316 0.76300007 1.9364712e-38
0.032699972 0.042873327 0.76300007 1.8166194e-38
0.034242809 0.042985704 0.7650001 1.7063069e-38
0.035606623 0.042873304 0.76300007 1.6785029e-38
-0.024042891 0.044442851 0.76500005 1.0489047e-38
-0.022526694 0.044326656 0.76300001 1.0767074e-38
-0.021018112 0.04421046 0.7610001 1.10408e-38
-0.019568572 0.044210464 0.76100004 1.1498554e-38
-0.018095242 0.044152368 0.76000005 1.1866261e-38
-0.016603826 0.044036176 0.75800002 1.2419075e-38
-0.015160006 0.04403618 0.75800002 1.2881121e-38
-0.013716212 0.044036169 0.75800002 1.3709791e-38
-0.012272418 0.044036176 0.75800002 1.4536332e-38
-0.010800017 0.043919999 0.75600004 1.4813294e-38
-0.0093476502 0.043861903 0.75500011 1.5088788e-38
-0.0078885965 0.0437457 0.75300002 1.5549747e-38
-0.006454309 0.043745704 0.75300008 1.5913134e-38
-0.005020048 0.043745704 0.75300008 1.5538609e-38
-0.0035857323 0.043745704 0.75300002 1.5172357e-38
-0.0021428622 0.043571416 0.75000006 1.5541866e-38
-0.00071428972 0.043571416 0.75000006 1.5823473e-38
0.0007142548 0.043571413 0.75000012 1.5927509e-38
0.0021428571 0.04357142 0.75000006 1.6007849e-38
0.0035714034 0.043571427 0.75000006 1.4248612e-38
0.0049999752 0.043571413 0.75000012 1.240869e-38
0.0064285765 0.04357142 0.75000006 1.1755456e-38
0.0078571215 0.043571409 0.75000006 1.1134135e-38
0.0093104141 0.043687608 0.75200009 1.353621e-38
0.010757116 0.043745693 0.75300008 1.5847588e-38
0.0121752 0.043687604 0.75200009 1.6514179e-38
0.013625694 0.043745693 0.75300008 1.7059096e-38
0.015059981 0.043745697 0.75300008 1.5766946e-38
0.016494241 0.043745704 0.75300008 1.4483054e-38
0.017976157 0.0438619 0.75500011 1.4576336e-38
0.019414267 0.043861896 0.75500005 1.4657024e-38
0.020852348 0.043861903 0.75500005 1.2265689e-38
0.022290453 0.043861888 0.75500011 9.7728475e-39
0.023728531 0.043861896 0.75500011 8.8390558e-39
0.025199989 0.043919988 0.75600004 7.9346816e-39
0.026639989 0.043919992 0.7560001 1.1990858e-38
0.028154278 0.044036176 0.75800002 1.5953465e-38
0.029793281 0.044326641 0.76300007 1.7345038e-38
0.031246634 0.044326644 0.76300007 1.8719346e-38
0.032699957 0.044326648 0.76300007 1.7795257e-38
0.034242842 0.044442855 0.7650001 1.6876523e-38
-0.022526706 0.045779981 0.76300007 1.0030961e-38
-0.021073379 0.045779984 0.76300007 1.0396879e-38
-0.019568577 0.045659989 0.76100004 1.0763872e-38
-0.018095264 0.04559999 0.76000005 1.1223057e-38
-0.016647628 0.045599993 0.76000005 1.168547e-38
-0.015160021 0.045479976 0.75800008 1.2241498e-38
-0.013716199 0.045479979 0.75800002 1.2699592e-38
-0.012272404 0.045479987 0.75800002 1.3248111e-38
-0.010800024 0.045359984 0.7560001 1.3618697e-38
-0.0093476502 0.045299977 0.75500011 1.3988183e-38
-0.0078886151 0.045179989 0.75300008 1.4078933e-38
-0.0064543276 0.045179974 0.75300008 1.4168616e-38
-0.0050200108 0.045179985 0.75300008 1.3426756e-38
-0.0035857509 0.045179997 0.75300008 1.2785352e-38
-0.0021428659 0.044999979 0.75000006 1.2689579e-38
-0.00071431953 0.044999987 0.75000006 1.269567e-38
0.00071428088 0.044999987 0.75000006 1.416826e-38
0.0021428533 0.044999983 0.75000006 1.5548647e-38
0.0035713979 0.044999987 0.75000006 1.5547196e-38
0.0049999994 0.044999998 0.75000006 1.5440005e-38
0.0064285458 0.044999987 0.75000006 1.546411e-38
0.0078780353 0.045119978 0.75200009 1.5477784e-38
0.0093228091 0.045179982 0.75300008 1.5671542e-38
0.010757126 0.045179993 0.75300008 1.5967147e-38
0.012191413 0.045179982 0.75300008 1.6513506e-38
0.013625674 0.045179985 0.75300008 1.7064144e-38
0.015059991 0.045179985 0.75300002 1.5863808e-38
0.01649425 0.045179989 0.75300002 1.4663149e-38
0.017976161 0.045299999 0.75500005 1.2269703e-38
0.019414267 0.045299985 0.75500011 9.8758177e-39
0.020852346 0.045299992 0.75500011 9.2189128e-39
0.022290451 0.045299992 0.75500011 8.5628136e-39
0.02375998 0.045359988 0.7560001 9.0309818e-39
0.025199981 0.045359988 0.7560001 9.4097879e-39
0.026816191 0.045659989 0.76100004 1.245003e-38
0.028265728 0.045659997 0.76100004 1.558612e-38
0.029793298 0.045779973 0.76300007 1.7065224e-38
0.031246627 0.045779981 0.76300007 1.8627148e-38
0.03269998 0.045779988 0.76300007 1.7428266e-38
0.034242824 0.045899983 0.7650001 1.6323353e-38
-0.022585759 0.047357127 0.7650001 9.205515e-39
-0.021128612 0.047357131 0.7650001 9.7547329e-39
-0.019620037 0.047233306 0.76300007 1.0120997e-38
-0.01816668 0.047233321 0.76300001 1.0488002e-38
-0.016669532 0.047109507 0.76100004 1.1041188e-38
-0.015200038 0.047047596 0.76000005 1.159469e-38
-0.013716213 0.046923794 0.75800002 1.1783002e-38
-0.012272392 0.046923783 0.75800008 1.1873076e-38
-0.010800026 0.046799984 0.7560001 1.233372e-38
-0.0093600256 0.046799984 0.7560001 1.279109e-38
-0.007909541 0.046738081 0.75500011 1.2608481e-38
-0.0064543183 0.046614274 0.75300008 1.2326493e-38
-0.0050200312 0.046614263 0.75300008 1.1306591e-38
-0.0035952467 0.046738092 0.75500005 1.0293545e-38
-0.0021486131 0.046552364 0.75200009 9.9186848e-39
-0.00071429531 0.046428576 0.75000006 9.5678978e-39
0.00071427715 0.046428561 0.75000006 1.2316917e-38
0.0021428477 0.046428561 0.75000012 1.51032e-38
0.003571423 0.046428565 0.75000006 1.6859923e-38
0.0049999957 0.046428565 0.75000006 1.8518018e-38
0.0064285411 0.046428569 0.75000006 1.9182782e-38
0.0078780483 0.046552356 0.75200009 1.9814531e-38
0.0093228221 0.046614267 0.75300008 1.7887802e-38
0.010757106 0.046614271 0.75300008 1.5958189e-38
0.012191423 0.046614282 0.75300002 1.6508135e-38
0.013625684 0.046614271 0.75300002 1.6971241e-38
0.015059971 0.046614274 0.75300008 1.5961032e-38
0.016494259 0.046614263 0.75300008 1.4840338e-38
0.017976161 0.046738088 0.75500011 9.9633568e-39
0.019414265 0.046738092 0.75500011 4.9877033e-39
0.020852344 0.046738084 0.75500011 6.1714852e-39
0.022290453 0.046738096 0.75500005 7.3746919e-39
0.023760002 0.046799991 0.7560001 9.1285529e-39
0.025199978 0.046799988 0.7560001 1.088274e-38
0.026816187 0.047109503 0.76100004 1.2996378e-38
0.028265698 0.047109511 0.76100004 1.5125506e-38
0.029793287 0.047233302 0.76300007 1.6794381e-38
0.031246616 0.047233313 0.76300007 1.8442039e-38
0.032699965 0.047233317 0.76300007 1.7058408e-38
0.034242805 0.047357123 0.7650001 1.5679438e-38
-0.022585753 0.048814267 0.7650001 8.1016911e-39
-0.02121146 0.04900571 0.76800001 8.377185e-39
-0.01972287 0.048941892 0.76700002 8.6472965e-39
-0.018166689 0.048686646 0.76300007 9.0161085e-39
-0.01671336 0.048686642 0.76300007 9.382768e-39
-0.015219996 0.048559032 0.76100004 9.8440615e-39
-0.013752393 0.048495226 0.76000005 9.9376528e-39
-0.01230478 0.048495222 0.76000005 9.9438003e-39
-0.010828584 0.048367601 0.75800002 1.0855028e-38
-0.0093847895 0.048367608 0.75800002 1.1682964e-38
-0.0079200277 0.048239987 0.7560001 1.2510899e-38
-0.0064714639 0.048176173 0.75500011 1.333414e-38
-0.0050333538 0.048176192 0.75500005 1.3425207e-38
-0.0035952486 0.048176177 0.75500011 1.3592039e-38
-0.0021486261 0.047984742 0.75200009 1.4261813e-38
-0.0007143009 0.047857136 0.75000006 1.4911591e-38
0.00071427156 0.047857128 0.75000006 1.657981e-38
0.0021428468 0.047857139 0.75000006 1.8350547e-38
0.0035809169 0.047984745 0.75200003 1.7983237e-38
0.005013308 0.047984749 0.75200009 1.772172e-38
0.0064285663 0.047857139 0.75000006 1.7986103e-38
0.0078780344 0.047984742 0.75200009 1.8260176e-38
0.0093228277 0.048048556 0.75300008 1.7426841e-38
0.010757118 0.048048556 0.75300002 1.6683197e-38
0.012191404 0.04804856 0.75300008 1.6049684e-38
0.013625691 0.04804856 0.75300008 1.5505108e-38
0.015059981 0.04804856 0.75300002 1.1812656e-38
0.01653808 0.048176188 0.75500011 8.1208959e-39
0.017976159 0.048176181 0.75500011 5.8988612e-39
0.019414237 0.048176184 0.75500011 3.7658341e-39
0.020852372 0.048176181 0.75500005 6.3537255e-39
0.022290453 0.048176184 0.75500011 8.8497996e-39
0.023759969 0.048239984 0.7560001 1.060796e-38
0.025200002 0.048239995 0.75600004 1.245506e-38
0.026816187 0.04855904 0.76100004 1.3368022e-38
0.028265698 0.048559044 0.76100004 1.4298627e-38
0.029793305 0.048686642 0.76300007 1.6512775e-38
0.031246634 0.048686646 0.76300007 1.8808661e-38
0.032699961 0.048686653 0.76300007 1.7244228e-38
0.034242813 0.048814263 0.7650001 1.5771644e-38
-0.021266656 0.050599977 0.77000004 6.9967687e-39
-0.019671449 0.050271433 0.76500005 7.2579063e-39
-0.018214302 0.050271422 0.76500005 7.452031e-39
-0.016713372 0.050139979 0.76300007 7.8133235e-39
-0.015260045 0.050139971 0.76300007 8.0970585e-39
-0.01377046 0.050008558 0.76100004 8.0873503e-39
-0.012304778 0.049942851 0.76000005 8.0081096e-39
-0.010828599 0.049811415 0.75800008 9.2759092e-39
-0.0093847802 0.049811404 0.75800008 1.0586698e-38
-0.0079200054 0.049679995 0.75600004 1.2418364e-38
-0.0064800284 0.049679983 0.75600004 1.4273747e-38
-0.0050400277 0.049679991 0.7560001 1.5560538e-38
-0.0036000262 0.049679991 0.7560001 1.6857734e-38
-0.0021514359 0.049482841 0.75300008 1.8533751e-38
-0.00071717496 0.049482845 0.75300008 2.017967e-38
0.00071614445 0.049417123 0.75200009 2.0831542e-38
0.0021485083 0.049417127 0.75200009 2.1476548e-38
0.003580929 0.049417138 0.75200009 1.9184611e-38
0.0050132941 0.049417127 0.75200009 1.6879052e-38
0.0064456589 0.049417134 0.75200009 1.6779337e-38
0.0078885509 0.049482852 0.75300002 1.6601406e-38
0.0093228379 0.049482841 0.75300008 1.6968032e-38
0.010757099 0.049482845 0.75300008 1.7333202e-38
0.012191384 0.04948283 0.75300008 1.5686242e-38
0.013625701 0.049482845 0.75300008 1.401273e-38
0.015059962 0.049482852 0.75300008 7.6631408e-39
0.016538052 0.049614266 0.75500011 1.3060032e-39
0.017976157 0.049614269 0.75500011 1.9290807e-39
0.019414267 0.049614284 0.75500005 2.5784046e-39
0.020852346 0.049614273 0.75500005 6.444482e-39
0.022319991 0.049679987 0.7560001 1.0329219e-38
0.023759967 0.049679995 0.7560001 1.2182096e-38
0.025266659 0.049811412 0.75800002 1.3918694e-38
0.026816189 0.050008561 0.76100004 1.3721366e-38
0.028265726 0.050008565 0.76100004 1.3467794e-38
0.029793296 0.050139982 0.76300007 1.6332682e-38
0.031328559 0.050271418 0.7650001 1.9085235e-38
0.032871407 0.05040285 0.76700008 1.7521881e-38
0.034332372 0.050402854 0.76700008 1.5866338e-38
-0.022733325 0.052066635 0.7700001 1.0227164e-38
-0.021266671 0.052066647 0.77000004 1.0496548e-38
-0.019671468 0.051728558 0.76500005 1.0957853e-38
-0.018166708 0.051593326 0.76300007 1.1414584e-38
-0.016713353 0.051593315 0.76300007 1.2247266e-38
-0.015219998 0.051458079 0.76100004 1.3071266e-38
-0.013752414 0.051390465 0.76000005 1.3537968e-38
-0.012304801 0.051390469 0.76000005 1.3908211e-38
-0.010857187 0.051390458 0.76000011 1.4740501e-38
-0.0093847653 0.051255215 0.75800002 1.5489154e-38
-0.0079409704 0.051255222 0.75800002 1.6315652e-38
-0.0064971768 0.051255226 0.75800002 1.7250954e-38
-0.0050400053 0.051119983 0.7560001 1.6969076e-38
-0.00360003 0.051119987 0.7560001 1.6713676e-38
-0.0021571692 0.051052377 0.75500005 1.7159958e-38
-0.00071719545 0.050917119 0.75300008 1.7625231e-38
0.00071712141 0.05091713 0.75300002 1.8813707e-38
0.0021514085 0.050917134 0.75300008 2.0008622e-38
0.0035856694 0.050917126 0.75300008 1.8716803e-38
0.0050199847 0.050917123 0.75300002 1.7412481e-38
0.0064456719 0.050849512 0.75200009 1.6229051e-38
0.0078885322 0.050917126 0.75300008 1.5133124e-38
0.0093228193 0.05091713 0.75300008 1.3470758e-38
0.010757136 0.05091713 0.75300002 1.1821977e-38
0.012191395 0.050917119 0.75300002 1.0608697e-38
0.013661866 0.051052365 0.75500011 9.3904107e-39
0.01509997 0.051052365 0.75500011 5.070883e-39
0.016538052 0.051052369 0.75500011 8.2704215e-40
0.017976161 0.051052384 0.75500005 3.5845817e-39
0.019414265 0.051052369 0.75500011 6.2557439e-39
0.020852344 0.051052362 0.75500011 1.0143009e-38
0.022319989 0.051119983 0.75600004 1.3931617e-38
0.023759989 0.051119987 0.75600004 1.3281269e-38
0.025266673 0.051255219 0.75800002 1.2724479e-38
0.026780937 0.051390462 0.76000005 1.280982e-38
0.028265698 0.051458076 0.76100004 1.2916414e-38
0.029715231 0.051458083 0.7610001 1.5682649e-38
0.031246642 0.051593326 0.76300007 1.8442739e-38
0.032699969 0.051593319 0.76300001 1.7154532e-38
0.034377128 0.051931422 0.76800007 1.5866327e-38
0.03583996 0.051931433 0.76800001 1.6875801e-38
0.037302822 0.051931426 0.76800001 1.7883856e-38
-0.024262859 0.053672358 0.77200007 1.2810844e-38
-0.02273334 0.053533304 0.7700001 1.3464469e-38
-0.02126666 0.053533312 0.7700001 1.4009732e-38
-0.01972287 0.053324752 0.76700002 1.4662258e-38
-0.018214313 0.05318569 0.7650001 1.5300847e-38
-0.016713364 0.053046644 0.76300007 1.6690262e-38
-0.015260037 0.053046636 0.76300007 1.8062055e-38
-0.013770462 0.052907608 0.76100004 1.8993683e-38
-0.012304767 0.052838095 0.76000005 1.9814478e-38
-0.010828599 0.052699029 0.75800002 2.0104349e-38
-0.0094095422 0.052838087 0.76000005 2.0370517e-38
-0.0079409555 0.052699029 0.75800002 2.0287282e-38
-0.0064971619 0.052699041 0.75800002 2.0096118e-38
-0.005040009 0.052559994 0.75600004 1.8258731e-38
-0.0036000076 0.052559998 0.75600004 1.6419164e-38
-0.0021571692 0.052490462 0.75500005 1.5674807e-38
-0.00071909069 0.052490469 0.75500011 1.495196e-38
0.00071710185 0.052351408 0.75300008 1.6789744e-38
0.0021513889 0.052351408 0.75300008 1.8537833e-38
0.0035857058 0.052351426 0.75300008 1.8260878e-38
0.0050199651 0.052351411 0.75300008 1.7974617e-38
0.0064542522 0.052351415 0.75300008 1.5775234e-38
0.0078885686 0.052351411 0.75300002 1.3549993e-38
0.0093228295 0.052351415 0.75300008 9.8679396e-39
0.010785679 0.052490477 0.75500005 6.1866038e-39
0.012223785 0.052490462 0.75500011 5.4440039e-39
0.013661865 0.052490465 0.75500011 4.7046326e-39
0.015099943 0.052490469 0.75500011 2.5866526e-39
0.01653808 0.052490469 0.75500005 3.7292756e-40
0.018000003 0.052559983 0.75600004 5.1433651e-39
0.019439977 0.052559987 0.75600004 9.9554268e-39
0.020879978 0.052559998 0.7560001 1.3756223e-38
0.022379044 0.052699026 0.75800002 1.7512136e-38
0.023885688 0.052838087 0.76000005 1.4470429e-38
0.025366679 0.052907601 0.76100004 1.1428711e-38
0.026816187 0.052907608 0.76100004 1.1876744e-38
0.028339976 0.053046651 0.76300007 1.2267103e-38
0.029793303 0.053046644 0.76300007 1.5038725e-38
0.03124663 0.053046655 0.76300007 1.7798095e-38
0.032914262 0.05339428 0.76800001 1.6878664e-38
0.034377124 0.053394288 0.76800001 1.586668e-38
0.035839986 0.05339428 0.76800001 1.5865604e-38
0.037302814 0.05339428 0.76800007 1.5772703e-38
-0.024262881 0.05514285 0.77200007 1.1343351e-38
-0.022792412 0.055142827 0.77200007 1.1899064e-38
-0.021321941 0.055142839 0.77200007 1.2548376e-38
-0.019748595 0.054857135 0.76800001 1.3006841e-38
-0.018261908 0.054785702 0.76700008 1.3569001e-38
-0.016713372 0.054499984 0.76300001 1.4760377e-38
-0.015260018 0.054499988 0.76300007 1.5962139e-38
-0.013770491 0.054357119 0.7610001 1.660356e-38
-0.012304791 0.054285694 0.76000005 1.7342908e-38
-0.010828584 0.054142851 0.75800002 1.7706663e-38
-0.0093847653 0.054142844 0.75800002 1.8070418e-38
-0.0079409722 0.054142836 0.75800002 1.8255165e-38
-0.0064971768 0.054142836 0.75800002 1.8433809e-38
-0.0050533568 0.05414284 0.75800008 1.7517603e-38
-0.0036095621 0.054142833 0.75800008 1.6590645e-38
-0.002157171 0.053928569 0.75500011 1.5863143e-38
-0.00071909255 0.053928562 0.75500011 1.522747e-38
0.00071904273 0.053928573 0.75500005 1.5686289e-38
0.0021571212 0.053928562 0.75500005 1.6244831e-38
0.0035856862 0.053785697 0.75300008 1.402499e-38
0.0050199474 0.0537857 0.75300008 1.1816976e-38
0.0064542624 0.053785712 0.75300008 9.7746958e-39
0.007888549 0.0537857 0.75300008 7.7295147e-39
0.00932281 0.053785708 0.75300008 5.4342957e-39
0.010785677 0.053928565 0.75500011 3.1229828e-39
0.012223758 0.053928569 0.75500011 2.9511486e-39
0.013661894 0.053928565 0.75500005 2.6831587e-39
0.015099972 0.053928573 0.75500005 4.7906947e-39
0.016538078 0.053928558 0.75500011 6.8929311e-39
0.017999969 0.053999986 0.7560001 1.0505429e-38
0.019439999 0.054000001 0.75600004 1.4022812e-38
0.020935236 0.05414284 0.75800002 1.4299046e-38
0.022438079 0.054285694 0.76000011 1.4665965e-38
0.023885692 0.054285701 0.76000011 1.2625429e-38
0.025366651 0.054357126 0.7610001 1.0591405e-38
0.026816214 0.054357126 0.76100004 1.1422218e-38
0.028339969 0.054499991 0.76300001 1.2358574e-38
0.029793322 0.054499984 0.76300007 1.5129127e-38
0.031328525 0.054642834 0.7650001 1.7984634e-38
0.032914259 0.054857135 0.76800001 1.7154884e-38
0.03437712 0.054857139 0.76800001 1.6325852e-38
0.035839979 0.054857135 0.76800001 1.6325849e-38
0.037302841 0.054857142 0.76800001 1.6325497e-38
-0.024262881 0.056613319 0.77200007 9.7821269e-39
-0.022792412 0.056613311 0.77200007 1.0422845e-38
-0.021321939 0.056613304 0.77200007 1.1072159e-38
-0.019799979 0.056466654 0.77000004 1.1431259e-38
-0.018261908 0.056246657 0.76700008 1.1718995e-38
-0.016757177 0.056099996 0.76500005 1.2728142e-38
-0.015260056 0.055953316 0.76300007 1.3746589e-38
-0.013770491 0.055806659 0.76100004 1.4298327e-38
-0.012304788 0.055733323 0.76000005 1.4851851e-38
-0.010857174 0.055733316 0.76000005 1.5308876e-38
-0.0093847802 0.055586644 0.75800008 1.5679448e-38
