# .PCD v0.7 - Point Cloud Data file format
VERSION 0.7
FIELDS x y z rgb
SIZE 4 4 4 4
TYPE F F F F
COUNT 1 1 1 1
WIDTH 950
HEIGHT 1
VIEWPOINT 0 0 0 1 0 0 0
POINTS 950
DATA ascii
-0.010357143 -0.062833346 0.72500002 1.1251114e-38
-0.0089761913 -0.062833332 0.72500002 1.3458415e-38
-0.0075952392 -0.062833346 0.72500008 1.4109175e-38
-0.0062142867 -0.062833332 0.72500002 1.4641802e-38
-0.0048200004 -0.062660001 0.72300005 1.0485439e-38
-0.0034428574 -0.062659986 0.72300005 6.3442373e-39
-0.0020657144 -0.062660001 0.72300005 7.2625978e-39
-0.00068857148 -0.062660001 0.72300005 8.1852618e-39
0.00068761915 -0.062573336 0.72200006 8.2835587e-39
0.0020657144 -0.062659986 0.72300005 8.3707334e-39
0.0034428576 -0.062660001 0.72300005 9.2962659e-39
0.0048200004 -0.062659986 0.72300005 1.021355e-38
0.0061971433 -0.062660001 0.72300005 1.0861425e-38
0.0075742863 -0.062660001 0.72300005 1.1501756e-38
0.0089514293 -0.062660001 0.72300005 1.0954324e-38
0.010357143 -0.062833332 0.72500002 1.0306454e-38
0.011738096 -0.062833346 0.72500002 1.0860336e-38
0.013119048 -0.062833346 0.72500008 1.1319497e-38
0.014500001 -0.062833332 0.72500002 1.1140473e-38
0.015902858 -0.062919997 0.72600001 1.095543e-38
0.017333336 -0.063093342 0.72800004 1.2336971e-38
0.018745717 -0.063180007 0.72900009 1.3629479e-38
0.020134289 -0.063180022 0.72900009 1.3449391e-38
0.021581907 -0.063353322 0.73099995 1.3172093e-38
0.023005717 -0.063440017 0.73200011 1.2528532e-38
0.024400001 -0.063440017 0.73200011 1.1883525e-38
0.025864765 -0.063613363 0.73400009 1.114812e-38
0.027337145 -0.063786663 0.73600006 1.0414492e-38
0.028778097 -0.063873328 0.73700005 1.0230802e-38
0.030304765 -0.064133339 0.74000001 9.9563573e-39
0.031842858 -0.064393334 0.74300003 1.0322609e-38
0.033347622 -0.064566664 0.74500006 1.0599906e-38
0.03476667 -0.064566649 0.74500006 1.0327267e-38
-0.038709529 -0.06263905 0.73900008 7.1887102e-39
-0.037301909 -0.06263905 0.73900002 7.0028882e-39
-0.035894293 -0.06263905 0.73900008 6.4490053e-39
-0.034393337 -0.062469535 0.73700005 5.895826e-39
-0.032989524 -0.062469549 0.73700011 5.8007479e-39
-0.031542856 -0.062384777 0.73600006 5.7982241e-39
-0.030059049 -0.062215261 0.73400009 5.4276409e-39
-0.02858286 -0.062045731 0.73200005 5.1521316e-39
-0.027188573 -0.062045731 0.73200011 5.0581395e-39
-0.025759049 -0.061960958 0.73100001 4.9648789e-39
-0.024366667 -0.061960943 0.73100001 5.795713e-39
-0.022911429 -0.061791442 0.72900003 6.626533e-39
-0.021522857 -0.061791427 0.72900009 6.5314648e-39
-0.020134285 -0.061791427 0.72900009 6.4414439e-39
-0.018720001 -0.061706685 0.72800004 6.4389524e-39
-0.017333334 -0.061706685 0.72800004 6.5297033e-39
-0.015902858 -0.061537124 0.72600001 7.9133258e-39
-0.014520001 -0.061537139 0.72600001 9.2980819e-39
-0.013137144 -0.061537124 0.72600001 9.9474366e-39
-0.011738096 -0.061452381 0.72500002 1.0691114e-38
-0.010371429 -0.061537139 0.72600001 1.253323e-38
-0.0089761913 -0.061452396 0.72500008 1.4372482e-38
-0.0075952392 -0.061452381 0.72500002 1.4651605e-38
-0.0062142862 -0.061452381 0.72500008 1.5012401e-38
-0.0048333337 -0.061452381 0.72500008 1.1776543e-38
-0.0034523811 -0.061452381 0.72500002 8.5468963e-39
-0.0020657147 -0.061282851 0.72300005 9.2905696e-39
-0.00068761909 -0.061198108 0.72200006 1.0122816e-38
0.00068761909 -0.061198108 0.72200012 9.9380564e-39
0.0020657144 -0.061282851 0.72300005 9.841214e-39
0.0034428574 -0.061282866 0.72300005 1.0491251e-38
0.0048200004 -0.061282851 0.72300005 1.1138763e-38
0.0061971433 -0.061282866 0.72300005 1.1414268e-38
0.0075742863 -0.061282851 0.72300005 1.1783021e-38
0.0089514302 -0.061282851 0.72300005 1.1597531e-38
0.010357143 -0.061452366 0.72500002 1.1321675e-38
0.011738096 -0.061452381 0.72500008 1.1319531e-38
0.013119049 -0.061452381 0.72500002 1.1319131e-38
0.014520002 -0.061537139 0.72600001 1.196696e-38
0.01594667 -0.061706685 0.7280001 1.2612782e-38
0.017333336 -0.061706685 0.72800004 1.3167845e-38
0.018745717 -0.061791427 0.72900009 1.3724586e-38
0.020134289 -0.061791442 0.72900009 1.3541263e-38
0.021581907 -0.061960958 0.73100001 1.3264314e-38
0.023005717 -0.062045731 0.73200011 1.2712218e-38
0.024400001 -0.062045731 0.73200011 1.2068284e-38
0.025864763 -0.062215246 0.73400003 1.151762e-38
0.027337145 -0.062384762 0.73600006 1.0967303e-38
0.028778097 -0.062469535 0.73700011 1.059958e-38
0.030304763 -0.062723808 0.74000001 1.0324062e-38
0.031800002 -0.062893339 0.7420001 1.0323692e-38
0.033258099 -0.062978081 0.74300003 1.0415519e-38
-0.038709525 -0.061231427 0.73900002 7.1876354e-39
-0.037301905 -0.061231427 0.73900008 7.0014448e-39
-0.03589429 -0.061231442 0.73900008 6.7252125e-39
-0.03448667 -0.061231427 0.73900002 6.3549852e-39
-0.032989524 -0.061065726 0.73700005 6.7208769e-39
-0.031585716 -0.061065726 0.73700011 6.9935149e-39
-0.030059049 -0.06081716 0.73400003 6.6186409e-39
-0.02858286 -0.060651444 0.73200005 6.1623263e-39
-0.027188573 -0.060651459 0.73200011 6.1616018e-39
-0.025759049 -0.060568564 0.73100001 6.0719341e-39
-0.024366667 -0.060568579 0.73100001 8.0962765e-39
-0.022911429 -0.060402863 0.72900009 1.0022658e-38
-0.021522859 -0.060402863 0.72900009 9.4684056e-39
-0.020134285 -0.060402863 0.72900009 8.9195688e-39
-0.018745713 -0.060402878 0.72900009 8.7337706e-39
-0.017333334 -0.060320012 0.72800004 8.4614815e-39
-0.01590286 -0.060154296 0.72600001 1.0310377e-38
-0.01452 -0.060154267 0.72600001 1.2149297e-38
-0.013137143 -0.060154282 0.72600001 1.2245136e-38
-0.011738096 -0.060071431 0.72500008 1.2342006e-38
-0.010371428 -0.060154282 0.72600001 1.3817485e-38
-0.0089761913 -0.060071431 0.72500002 1.5199702e-38
-0.0075952392 -0.060071446 0.72500008 1.5295505e-38
-0.0062142862 -0.060071431 0.72500002 1.537686e-38
-0.0048333337 -0.060071431 0.72500002 1.3060808e-38
-0.0034523814 -0.060071431 0.72500008 1.0763138e-38
-0.002071429 -0.060071446 0.72500002 1.1413174e-38
-0.00068761909 -0.05982288 0.72200012 1.1962746e-38
0.00068857148 -0.059905715 0.72300005 1.1595757e-38
0.0020657144 -0.059905715 0.72300005 1.1225913e-38
0.0034523811 -0.060071431 0.72500002 1.1596133e-38
0.0048200004 -0.0599057 0.72300005 1.1964557e-38
0.0061971433 -0.0599057 0.72300005 1.2056757e-38
0.0075742863 -0.0599057 0.72300005 1.20571e-38
0.0089514302 -0.0599057 0.72300005 1.2238963e-38
0.010357143 -0.060071431 0.72500002 1.233044e-38
0.011738096 -0.060071431 0.72500002 1.1868034e-38
0.013119048 -0.060071431 0.72500008 1.1320614e-38
0.014520002 -0.060154267 0.72600001 1.2795727e-38
0.01594667 -0.060319997 0.72800004 1.4177613e-38
0.017357146 -0.060402863 0.72900009 1.399722e-38
0.018745717 -0.060402863 0.72900009 1.3816413e-38
0.020189526 -0.060568564 0.73100001 1.3635249e-38
0.021581907 -0.060568564 0.73100001 1.3356511e-38
0.023005717 -0.060651444 0.73200005 1.2803343e-38
0.024400001 -0.060651459 0.73200011 1.2252682e-38
0.025864763 -0.06081716 0.73400009 1.1886409e-38
0.027337145 -0.060982876 0.73600006 1.1519751e-38
0.028778097 -0.061065726 0.73700011 1.1059464e-38
0.030263811 -0.061231442 0.73900008 1.059956e-38
0.031800002 -0.061480023 0.74200004 1.0415882e-38
0.033258099 -0.061562859 0.74300003 1.0139647e-38
0.03476667 -0.061728574 0.74500006 9.4939176e-39
-0.038709525 -0.059823819 0.73900002 9.0232691e-39
-0.037301905 -0.059823819 0.73900008 8.2839048e-39
-0.03589429 -0.059823819 0.73900008 7.8239916e-39
-0.03448667 -0.059823833 0.73900008 7.2715283e-39
-0.032989521 -0.059661917 0.73700011 6.7179874e-39
-0.031585712 -0.059661917 0.73700005 6.1723708e-39
-0.030140957 -0.059580944 0.73600006 5.8875527e-39
-0.028739052 -0.059580944 0.73600006 5.5223533e-39
-0.027188575 -0.059257172 0.73200011 5.9793672e-39
-0.025759051 -0.059176184 0.73100001 6.4428705e-39
-0.024366669 -0.059176184 0.73100001 7.7275122e-39
-0.02297429 -0.059176199 0.73100001 9.0121148e-39
-0.021522859 -0.059014283 0.72900009 8.8287829e-39
-0.020134287 -0.059014298 0.72900009 8.6472937e-39
-0.018745713 -0.059014298 0.72900009 8.6440931e-39
-0.017333332 -0.058933325 0.72800004 8.7316098e-39
-0.015946666 -0.058933325 0.72800004 1.0398267e-38
-0.014520001 -0.058771439 0.72600001 1.2151458e-38
-0.013137144 -0.058771424 0.72600001 1.2151524e-38
-0.011754286 -0.058771409 0.72600001 1.2154754e-38
-0.010371429 -0.058771424 0.72600001 1.3080283e-38
-0.0089761913 -0.058690496 0.72500008 1.40069e-38
-0.0075952387 -0.058690496 0.72500002 1.437533e-38
-0.0062142862 -0.058690496 0.72500008 1.4740099e-38
-0.0048333337 -0.058690481 0.72500008 1.2885391e-38
-0.0034523814 -0.058690481 0.72500002 1.1133344e-38
-0.002071429 -0.058690481 0.72500008 1.1411722e-38
-0.00068857148 -0.058528595 0.72300005 1.1780861e-38
0.00068857154 -0.05852858 0.72300005 1.1411368e-38
0.0020657144 -0.058528565 0.72300005 1.1135862e-38
0.0034428574 -0.058528565 0.72300011 1.2240042e-38
0.0048200004 -0.058528565 0.72300005 1.3250245e-38
0.0062142862 -0.058690481 0.72500008 1.2883275e-38
0.0075952387 -0.058690481 0.72500008 1.242445e-38
0.0089761913 -0.058690466 0.72500002 1.233225e-38
0.010357143 -0.058690496 0.72500008 1.2331885e-38
0.011738097 -0.058690481 0.72500008 1.1686517e-38
0.013137144 -0.058771409 0.72600001 1.1044798e-38
0.014520002 -0.058771424 0.72600001 1.2427404e-38
0.01594667 -0.058933325 0.72800004 1.3906094e-38
0.017357146 -0.059014313 0.72900009 1.381461e-38
0.018745717 -0.059014298 0.72900009 1.3816765e-38
0.020189526 -0.059176184 0.73100001 1.3633095e-38
0.021581907 -0.059176199 0.73100001 1.3447632e-38
0.023005717 -0.059257172 0.73200005 1.298738e-38
0.024466671 -0.059419058 0.73400009 1.2527839e-38
0.02593524 -0.059580959 0.73600006 1.2071169e-38
0.027337145 -0.059580959 0.73600006 1.1614456e-38
0.028778097 -0.059661902 0.73700005 1.1151287e-38
0.030263813 -0.059823819 0.73900008 1.0689954e-38
0.031800002 -0.060066693 0.7420001 1.0415878e-38
0.033258099 -0.060147621 0.74300003 1.0232552e-38
0.03476667 -0.060309537 0.74500006 9.8634008e-39
-0.040117148 -0.058416195 0.73900002 1.2253356e-38
-0.038709529 -0.058416195 0.73900008 1.0955803e-38
-0.037301909 -0.058416195 0.73900008 9.5807659e-39
-0.035894293 -0.058416195 0.73900002 8.92391e-39
-0.034486674 -0.058416195 0.73900008 8.1949714e-39
-0.032989524 -0.058258109 0.73700011 6.7995079e-39
-0.031585716 -0.058258094 0.73700011 5.3394292e-39
-0.030181907 -0.058258094 0.73700005 5.1446011e-39
-0.02873905 -0.058179043 0.73600006 4.8737525e-39
-0.027188573 -0.05786287 0.73200005 5.8825024e-39
-0.025794288 -0.05786287 0.73200011 6.8058908e-39
-0.024400001 -0.05786287 0.73200011 7.3590674e-39
-0.02297429 -0.057783805 0.73100001 7.9090084e-39
-0.021581909 -0.057783805 0.73100001 8.1877477e-39
-0.020189527 -0.057783805 0.73100001 8.3718012e-39
-0.018745715 -0.057625704 0.72900009 8.6473315e-39
-0.017357143 -0.057625733 0.72900009 8.9246275e-39
-0.01596857 -0.057625718 0.72900009 1.0491568e-38
-0.014560001 -0.057546668 0.72800004 1.2054969e-38
-0.013137143 -0.057388566 0.72600001 1.1963178e-38
-0.011754286 -0.057388566 0.72600007 1.1876729e-38
-0.010371428 -0.057388552 0.72600001 1.2341652e-38
-0.0089761913 -0.057309516 0.72500002 1.2716893e-38
-0.0075952387 -0.057309516 0.72500008 1.3366564e-38
-0.0062142862 -0.057309531 0.72500002 1.3999321e-38
-0.0048333337 -0.057309531 0.72500002 1.2791421e-38
-0.0034523814 -0.057309531 0.72500008 1.1503569e-38
-0.002071429 -0.057309516 0.72500002 1.1502488e-38
-0.00068857148 -0.057151429 0.72300011 1.1503576e-38
0.00068857148 -0.057151414 0.72300005 1.1317046e-38
0.0020657144 -0.057151414 0.72300005 1.1041889e-38
0.0034428574 -0.057151414 0.72300011 1.2794287e-38
0.0048200008 -0.057151429 0.72300005 1.4538465e-38
0.0062142862 -0.057309531 0.72500002 1.3709096e-38
0.0075952387 -0.057309531 0.72500002 1.2791805e-38
0.0089761913 -0.057309516 0.72500008 1.2517005e-38
0.010357143 -0.057309516 0.72500002 1.2239343e-38
0.011738096 -0.057309501 0.72500002 1.150107e-38
0.013137145 -0.057388552 0.72600007 1.0767492e-38
0.014520002 -0.057388566 0.72600001 1.2146131e-38
0.015968574 -0.057625733 0.72900009 1.3534077e-38
0.017357146 -0.057625718 0.72900009 1.372242e-38
0.018745717 -0.057625718 0.72900003 1.3815692e-38
0.020189526 -0.057783805 0.73100001 1.3633098e-38
0.021581907 -0.057783805 0.73100001 1.3447632e-38
0.023005718 -0.05786287 0.73200005 1.3078854e-38
0.024466669 -0.058020972 0.73400009 1.2712944e-38
0.02593524 -0.058179043 0.73600006 1.2256273e-38
0.027337145 -0.058179058 0.73600006 1.1704863e-38
0.028778097 -0.058258109 0.73700011 1.1240624e-38
0.030304765 -0.058495231 0.74000001 1.0782159e-38
0.031842858 -0.058732383 0.74300003 1.0508084e-38
0.033258099 -0.058732368 0.74300003 1.0232927e-38
0.03476667 -0.058890484 0.74500012 1.0325472e-38
0.03628286 -0.059048571 0.7470001 1.0324036e-38
-0.040117145 -0.057008587 0.73900002 1.3375879e-38
-0.038709525 -0.057008587 0.73900008 1.3185725e-38
-0.037301905 -0.057008572 0.73900008 1.3097822e-38
-0.03589429 -0.057008572 0.73900008 1.3181032e-38
-0.03448667 -0.057008572 0.73900008 1.3274688e-38
-0.03307905 -0.057008572 0.73900002 1.2252686e-38
-0.031585716 -0.0568543 0.73700011 1.1323121e-38
-0.030140957 -0.056777157 0.73600006 1.0858473e-38
-0.028778099 -0.056854285 0.73700005 1.038387e-38
-0.027262859 -0.05662287 0.73400003 9.8403901e-39
-0.025794288 -0.056468584 0.73200011 9.2836388e-39
-0.024400001 -0.056468584 0.73200011 8.4553256e-39
-0.023005717 -0.056468584 0.73200005 7.5359225e-39
-0.021581909 -0.056391425 0.73100001 7.9997901e-39
-0.020189527 -0.056391411 0.73099995 8.4643682e-39
-0.018797146 -0.05639144 0.73100001 8.7377405e-39
-0.017404765 -0.056391425 0.73100001 9.1140592e-39
-0.01596857 -0.056237139 0.72900003 1.0490881e-38
-0.014560001 -0.056159995 0.72800004 1.1869155e-38
-0.013173334 -0.05616001 0.7280001 1.1871331e-38
-0.011786668 -0.056159995 0.72800004 1.1873495e-38
-0.010400001 -0.05616001 0.72800004 1.2984499e-38
-0.0089885723 -0.056005694 0.72600001 1.4090832e-38
-0.0076057152 -0.056005709 0.72600001 1.3909674e-38
-0.0062142862 -0.055928595 0.72500008 1.3813143e-38
-0.0048333337 -0.05592858 0.72500008 1.3070533e-38
-0.0034523814 -0.05592858 0.72500002 1.2332253e-38
-0.002071429 -0.05592858 0.72500008 1.1780872e-38
-0.00068857148 -0.055774279 0.72300011 1.1138762e-38
0.00068857154 -0.055774279 0.72300005 1.1129454e-38
0.0020657144 -0.055774279 0.72300005 1.1123694e-38
0.0034428574 -0.055774279 0.72300011 1.2882538e-38
0.0048333337 -0.055928566 0.72500002 1.472681e-38
0.0062142862 -0.05592858 0.72500008 1.3711268e-38
0.0075952387 -0.05592858 0.72500008 1.2700701e-38
0.0089761922 -0.055928566 0.72500002 1.2516652e-38
0.010357144 -0.05592858 0.72500008 1.2331909e-38
0.011754286 -0.056005709 0.72600007 1.2052818e-38
0.013137144 -0.056005709 0.72600001 1.1776243e-38
0.014560002 -0.056159995 0.72800004 1.270214e-38
0.015968574 -0.056237139 0.72900009 1.3627336e-38
0.017357146 -0.056237139 0.72900009 1.3813542e-38
0.018797142 -0.056391425 0.73100001 1.3999008e-38
0.020189524 -0.05639144 0.73100001 1.3815696e-38
0.021581905 -0.05639144 0.73100001 1.3630944e-38
0.023005717 -0.056468599 0.73200011 1.3171763e-38
0.024466669 -0.05662287 0.73400009 1.2804777e-38
0.025864763 -0.05662287 0.73400009 1.2348466e-38
0.027337145 -0.056777157 0.73600006 1.189105e-38
0.028778097 -0.0568543 0.73700011 1.1242787e-38
0.030263811 -0.057008572 0.73900002 1.0690335e-38
0.031842858 -0.05731713 0.74300003 1.0507017e-38
0.033258099 -0.057317145 0.74300003 1.0324421e-38
0.034766674 -0.057471417 0.74500006 1.0508808e-38
0.036282863 -0.057625718 0.74700004 1.0785021e-38
-0.038709525 -0.055600949 0.73900008 1.5497456e-38
-0.037301905 -0.055600949 0.73900002 1.6504782e-38
-0.03594286 -0.05567617 0.74000001 1.7428166e-38
-0.03448667 -0.055600949 0.73900008 1.8252187e-38
-0.03307905 -0.055600978 0.73900008 1.7796251e-38
-0.031585716 -0.055450477 0.73700005 1.7322669e-38
-0.030181907 -0.055450492 0.73700011 1.6674387e-38
-0.028778097 -0.055450492 0.73700005 1.5931785e-38
-0.027337145 -0.055375241 0.73600006 1.3903489e-38
-0.02593524 -0.055375226 0.73600006 1.1782989e-38
-0.024466669 -0.055224784 0.73400003 9.4594471e-39
-0.023068573 -0.055224784 0.73400009 7.1786488e-39
-0.02161143 -0.055074312 0.73200011 7.8104004e-39
-0.020217145 -0.055074312 0.73200011 8.4568208e-39
-0.018797144 -0.054999046 0.73100001 8.9084509e-39
-0.017404763 -0.054999031 0.73100001 9.2872891e-39
-0.01596857 -0.054848574 0.72900009 1.0488702e-38
-0.01458 -0.054848574 0.72900009 1.1592906e-38
-0.013173334 -0.054773338 0.72800004 1.1779831e-38
-0.011786668 -0.054773338 0.72800004 1.1876704e-38
-0.0104 -0.054773353 0.72800004 1.3632357e-38
-0.0089885723 -0.054622851 0.72600001 1.5376871e-38
-0.0076057152 -0.054622851 0.72600001 1.4551427e-38
-0.0062142862 -0.05454763 0.72500002 1.3628391e-38
-0.0048333337 -0.05454763 0.72500002 1.3436453e-38
-0.0034523814 -0.05454763 0.72500008 1.3159831e-38
-0.002071429 -0.054547615 0.72500002 1.1966287e-38
-0.00068857148 -0.054397143 0.72300011 1.0764933e-38
0.00068857148 -0.054397143 0.72300005 1.1030077e-38
0.0020657144 -0.054397129 0.72300005 1.1219471e-38
0.0034428574 -0.054397158 0.72300011 1.3069437e-38
0.0048333337 -0.05454763 0.72500008 1.4813972e-38
0.0062142862 -0.054547615 0.72500002 1.370838e-38
0.0075952387 -0.05454763 0.72500002 1.2516303e-38
0.0089761913 -0.05454763 0.72500008 1.2516294e-38
0.010357143 -0.05454763 0.72500002 1.2423028e-38
0.011754287 -0.054622836 0.72600001 1.2601322e-38
0.013137145 -0.054622851 0.72600001 1.2699618e-38
0.014560002 -0.054773338 0.72800004 1.3167049e-38
0.015968574 -0.054848574 0.72900009 1.3626968e-38
0.017357146 -0.054848574 0.72900009 1.3905368e-38
0.018797144 -0.054999046 0.73100001 1.4090125e-38
0.020189526 -0.054999046 0.73100001 1.3999377e-38
0.021581907 -0.054999046 0.73100001 1.3815696e-38
0.023005717 -0.055074297 0.73200011 1.3355434e-38
0.024466671 -0.055224769 0.73400009 1.280585e-38
0.02593524 -0.055375226 0.73600006 1.2441014e-38
0.027337145 -0.055375241 0.73600006 1.2072915e-38
0.028778097 -0.055450477 0.73700005 1.1332095e-38
0.030304763 -0.055676199 0.74000001 1.0506288e-38
0.031928573 -0.056052364 0.74500006 1.0413015e-38
0.033347622 -0.056052364 0.74500012 1.0323345e-38
0.034860004 -0.056202851 0.7470001 1.0783252e-38
0.03633143 -0.056278102 0.74800003 1.115201e-38
-0.03594286 -0.054266654 0.74000001 1.4947272e-38
-0.034393333 -0.054046668 0.73700005 1.6335565e-38
-0.032989521 -0.054046668 0.73700011 1.725069e-38
-0.031585712 -0.054046668 0.73700011 1.8262299e-38
-0.030181909 -0.054046683 0.73700005 1.8809706e-38
-0.028778099 -0.054046683 0.73700011 1.9367486e-38
-0.027337147 -0.053973339 0.73600006 1.8344331e-38
-0.025864763 -0.053826682 0.73400003 1.7331565e-38
-0.024466669 -0.053826697 0.73400009 1.6031453e-38
-0.023068573 -0.053826682 0.73400009 1.4745058e-38
-0.02161143 -0.05368001 0.73200005 1.417792e-38
-0.020217145 -0.053680025 0.73200011 1.3603542e-38
-0.018797144 -0.053606652 0.73100001 1.2137712e-38
-0.017404763 -0.053606667 0.73099995 1.0749805e-38
-0.01596857 -0.053459994 0.72900009 1.0574052e-38
-0.01458 -0.053460009 0.72900009 1.0489418e-38
-0.013173333 -0.053386681 0.72800004 1.1038664e-38
-0.011786667 -0.053386681 0.7280001 1.1507191e-38
-0.0104 -0.053386681 0.72800004 1.2983396e-38
-0.0089885714 -0.053239979 0.72600001 1.4457782e-38
-0.0076057152 -0.053239979 0.72600001 1.3997883e-38
-0.0062228581 -0.053239994 0.72600001 1.3630182e-38
-0.0048333337 -0.053166665 0.72500008 1.3255664e-38
-0.0034523814 -0.053166665 0.72500002 1.2884306e-38
-0.0020714288 -0.05316668 0.72500008 1.205341e-38
-0.00068857148 -0.053020008 0.72300011 1.1311612e-38
0.00068857154 -0.053020008 0.72300005 1.158682e-38
0.0020714288 -0.05316668 0.72500008 1.176725e-38
0.0034523811 -0.053166665 0.72500008 1.269743e-38
0.0048333337 -0.053166665 0.72500002 1.371086e-38
0.0062228572 -0.053240009 0.72600001 1.3251694e-38
0.0075952387 -0.05316665 0.72500002 1.2885071e-38
0.0089885732 -0.053239979 0.72600001 1.2517731e-38
0.01037143 -0.053239994 0.72600001 1.2150394e-38
0.011786669 -0.053386666 0.72800004 1.2330841e-38
0.013173335 -0.053386666 0.72800004 1.2610649e-38
0.014560002 -0.053386666 0.72800004 1.29805e-38
0.015968574 -0.053459994 0.72900003 1.3348581e-38
0.017404763 -0.053606667 0.73100001 1.3720251e-38
0.018797144 -0.053606667 0.73099995 1.4089766e-38
0.020189526 -0.053606682 0.73100001 1.3999386e-38
0.02161143 -0.05368001 0.73200005 1.3909689e-38
0.023005717 -0.053680025 0.73200011 1.3448344e-38
0.024466669 -0.053826682 0.73400009 1.2989518e-38
0.02593524 -0.053973339 0.73600006 1.2533561e-38
0.027337145 -0.053973325 0.73600006 1.2076491e-38
0.028778097 -0.054046683 0.73700011 1.1427858e-38
0.030304765 -0.054266654 0.74000001 1.0782856e-38
0.031928577 -0.054633312 0.74500006 1.0599182e-38
0.033347625 -0.054633342 0.74500012 1.0415539e-38
0.034860004 -0.054779984 0.74700004 1.0691431e-38
0.036331434 -0.054853342 0.74800003 1.0876866e-38
-0.034393337 -0.05264286 0.73700011 1.4299745e-38
-0.032989524 -0.052642874 0.73700005 1.679223e-38
-0.031585716 -0.052642874 0.73700011 1.9177798e-38
-0.030181907 -0.05264286 0.73700011 2.0934868e-38
-0.028778097 -0.052642845 0.73700005 2.2678284e-38
-0.027374288 -0.05264286 0.73700011 2.2774759e-38
-0.025935242 -0.052571423 0.73600006 2.2860105e-38
-0.024466669 -0.052428581 0.73400009 2.2590306e-38
-0.023005718 -0.052285723 0.73200011 2.2208982e-38
-0.021611432 -0.052285738 0.73200005 2.0552365e-38
-0.020217147 -0.052285738 0.73200011 1.8789491e-38
-0.01882286 -0.052285723 0.73200011 1.5472588e-38
-0.017404763 -0.052214272 0.73099995 1.2155401e-38
-0.016012382 -0.052214287 0.73100001 1.0752408e-38
-0.01458 -0.052071415 0.72900003 9.3852469e-39
-0.013191429 -0.052071445 0.72900009 1.028599e-38
-0.011802857 -0.05207143 0.72900009 1.1133716e-38
-0.010414286 -0.052071445 0.72900009 1.2336227e-38
-0.0090133343 -0.051999994 0.72800004 1.3440047e-38
-0.0076266672 -0.051999994 0.72800004 1.3535829e-38
-0.0062228581 -0.051857136 0.72600001 1.3534747e-38
-0.004840001 -0.051857121 0.72600001 1.307126e-38
-0.0034523811 -0.05178573 0.72500008 1.251627e-38
-0.0020714288 -0.05178573 0.72500002 1.2234993e-38
-0.00068857142 -0.051642857 0.72300011 1.1864092e-38
0.00068857154 -0.051642857 0.72300005 1.2146444e-38
0.0020714288 -0.0517857 0.72500002 1.2329397e-38
0.0034523811 -0.0517857 0.72500002 1.2425539e-38
0.0048333337 -0.0517857 0.72500008 1.2517373e-38
0.0062142862 -0.051785715 0.72500002 1.288579e-38
0.0076057147 -0.051857136 0.72600001 1.3161662e-38
0.0089885723 -0.051857136 0.72600001 1.2519181e-38
0.010371429 -0.051857136 0.72600001 1.1873803e-38
0.011754286 -0.051857121 0.72600001 1.2144988e-38
0.013173334 -0.051999994 0.72800004 1.2424452e-38
0.014560001 -0.052000009 0.72800004 1.2795752e-38
0.015968574 -0.05207143 0.72900009 1.3073075e-38
0.017404763 -0.052214287 0.73100001 1.3629491e-38
0.018797144 -0.052214287 0.73100007 1.4091553e-38
0.020217145 -0.052285723 0.73200011 1.3998656e-38
0.02161143 -0.052285723 0.73200005 1.3906455e-38
0.023068573 -0.052428566 0.73400003 1.3538746e-38
0.024466669 -0.052428581 0.73400009 1.3081362e-38
0.025935238 -0.052571438 0.73600006 1.2626489e-38
0.027337143 -0.052571438 0.73600006 1.2074714e-38
0.028778097 -0.052642874 0.73700011 1.1611903e-38
0.030263811 -0.052785717 0.73900008 1.1060162e-38
0.031842861 -0.053071432 0.74300003 1.0785361e-38
0.033347622 -0.053214274 0.74500006 1.0506988e-38
0.03476667 -0.053214289 0.74500012 1.0597393e-38
0.03633143 -0.053428568 0.74800003 1.0598825e-38
0.037756193 -0.053428568 0.74800003 1.0416227e-38
-0.032989524 -0.051239051 0.73700011 9.1365206e-39
-0.031671431 -0.051378109 0.73900008 9.7008207e-39
-0.030263811 -0.051378109 0.73900008 1.2462357e-38
-0.028856192 -0.051378094 0.73900002 1.5329349e-38
-0.027374288 -0.051239051 0.73700011 1.753125e-38
-0.025970478 -0.051239051 0.73700011 1.974427e-38
-0.024533335 -0.051169537 0.73600006 2.1121803e-38
-0.023005717 -0.050891452 0.73200011 2.2499335e-38
-0.021670477 -0.051030479 0.73400003 2.1851823e-38
-0.020217145 -0.050891437 0.73200005 2.1121726e-38
-0.018822858 -0.050891422 0.73200011 1.9453183e-38
-0.017404763 -0.050821908 0.73100001 1.7800138e-38
-0.016012382 -0.050821893 0.73100001 1.6768775e-38
-0.01462 -0.050821893 0.73100001 1.574773e-38
-0.013191429 -0.05068285 0.72900003 1.5003986e-38
-0.011802857 -0.050682865 0.72900009 1.4261827e-38
-0.010414286 -0.05068285 0.72900009 1.3249902e-38
-0.0090133343 -0.050613336 0.72800004 1.2328681e-38
-0.0076266672 -0.050613336 0.72800004 1.2882927e-38
-0.0062228581 -0.050474279 0.72600001 1.3442541e-38
-0.004840001 -0.050474279 0.72600007 1.2887214e-38
-0.003457143 -0.050474279 0.72600001 1.2425535e-38
-0.0020742859 -0.050474264 0.72600001 1.1862692e-38
-0.00069047621 -0.050404765 0.72500002 1.1395261e-38
0.00069047621 -0.050404765 0.72500002 1.1868068e-38
0.0020714288 -0.050404765 0.72500008 1.2426628e-38
0.0034523811 -0.050404765 0.72500002 1.242449e-38
0.0048333337 -0.05040475 0.72500002 1.2424117e-38
0.0062228572 -0.050474279 0.72600001 1.2793238e-38
0.0076057143 -0.050474294 0.72600001 1.3163106e-38
0.0090133343 -0.050613336 0.72800004 1.2609954e-38
0.010400001 -0.050613336 0.7280001 1.215002e-38
0.011786668 -0.050613336 0.72800004 1.2423333e-38
0.013191431 -0.050682865 0.72900009 1.269779e-38
0.014580002 -0.050682865 0.72900009 1.2884358e-38
0.016012382 -0.050821893 0.73100001 1.3069845e-38
0.017404763 -0.050821893 0.73100001 1.3722043e-38
0.018822858 -0.050891437 0.73200005 1.4372435e-38
0.020272383 -0.051030509 0.73400009 1.4182315e-38
0.021670479 -0.051030479 0.73400003 1.4086892e-38
0.02313143 -0.051169522 0.73600006 1.3629148e-38
0.024533335 -0.051169537 0.73600006 1.3169979e-38
0.025970478 -0.051239066 0.73700011 1.2623995e-38
0.02737429 -0.051239066 0.73700011 1.2166924e-38
0.028856194 -0.051378094 0.73900008 1.1611919e-38
0.030304763 -0.051447608 0.74000007 1.1060167e-38
0.031842858 -0.051656179 0.74300003 1.0783205e-38
0.033258099 -0.051656179 0.74300003 1.0596644e-38
0.034673337 -0.051656179 0.74300003 1.0597342e-38
-0.032989521 -0.049835242 0.73700011 1.4699369e-39
-0.031671435 -0.04997047 0.73900008 1.210876e-40
-0.030181907 -0.049835257 0.73700005 4.0682035e-39
-0.028778097 -0.049835257 0.73700011 7.9454324e-39
-0.027374288 -0.049835227 0.73700005 1.2276458e-38
-0.025970478 -0.049835242 0.73700011 1.6510253e-38
-0.024533337 -0.049767621 0.73600006 1.9652426e-38
-0.023131432 -0.049767621 0.73600006 2.2770172e-38
-0.02161143 -0.049497165 0.73200011 2.3142181e-38
-0.020217145 -0.04949715 0.73200005 2.3417649e-38
-0.018822858 -0.04949715 0.73200011 2.3417613e-38
-0.017404763 -0.049429528 0.73100001 2.3413663e-38
-0.016012382 -0.049429514 0.73100001 2.2774757e-38
-0.01462 -0.049429514 0.73100001 2.2022449e-38
-0.013191429 -0.0492943 0.72900009 1.9721135e-38
-0.011835239 -0.049429514 0.73100001 1.7316535e-38
-0.010414286 -0.049294285 0.72900009 1.4256172e-38
-0.0090133343 -0.049226679 0.7280001 1.1140916e-38
-0.0076266676 -0.049226679 0.72800004 1.2224982e-38
-0.0062228581 -0.049091436 0.72600001 1.3250936e-38
-0.004840001 -0.049091421 0.72600001 1.2792812e-38
-0.003457143 -0.049091406 0.72600001 1.2230341e-38
-0.0020742859 -0.049091421 0.72600001 1.1578904e-38
-0.00069047621 -0.0490238 0.72500002 1.0851765e-38
0.00069047621 -0.049023814 0.72500008 1.1687621e-38
0.0020714288 -0.049023814 0.72500002 1.2423388e-38
0.0034523811 -0.049023829 0.72500008 1.2329048e-38
0.0048333337 -0.049023814 0.72500008 1.2238644e-38
0.0062228572 -0.049091421 0.72600001 1.2699968e-38
0.0076057143 -0.049091421 0.72600001 1.3067676e-38
0.0090133343 -0.049226664 0.72800004 1.2790741e-38
0.010400001 -0.049226664 0.72800004 1.2424094e-38
0.011786668 -0.049226679 0.72800004 1.2700656e-38
0.013191431 -0.0492943 0.72900009 1.288327e-38
0.014580002 -0.049294285 0.72900009 1.2974051e-38
0.016012382 -0.049429514 0.73100001 1.3072715e-38
0.017476192 -0.049632408 0.73400009 1.3816022e-38
0.018874288 -0.049632393 0.73400009 1.4550713e-38
0.020272382 -0.049632393 0.73400003 1.4363462e-38
0.021729523 -0.049767621 0.73600006 1.4181232e-38
0.023131428 -0.049767606 0.73600006 1.3720983e-38
0.024533333 -0.049767621 0.73600006 1.3172135e-38
0.025970478 -0.049835242 0.73700005 1.2715842e-38
0.027374288 -0.049835242 0.73700011 1.2164778e-38
0.028856192 -0.049970485 0.73900008 1.1608335e-38
0.030304765 -0.050038092 0.74000007 1.0966551e-38
0.031842861 -0.050240956 0.74300009 1.0874702e-38
0.033258103 -0.050240926 0.74300003 1.0689938e-38
0.03476667 -0.050376184 0.74500006 1.069028e-38
0.036185715 -0.050376199 0.74500012 1.0598453e-38
-0.032989521 -0.048431434 0.73700005 9.3109963e-39
-0.031671431 -0.048562877 0.73900008 8.8467503e-39
-0.030181907 -0.048431434 0.73700005 1.0596601e-38
-0.028778097 -0.048431434 0.73700011 1.2322199e-38
-0.027374288 -0.048431434 0.73700011 1.4186985e-38
-0.02593524 -0.048365705 0.73600006 1.6020179e-38
-0.024466669 -0.048234306 0.73400003 1.7238506e-38
-0.023068573 -0.048234306 0.73400009 1.8532101e-38
-0.02161143 -0.048102863 0.73200011 1.9550548e-38
-0.020217145 -0.048102863 0.73200011 2.0570787e-38
-0.018822858 -0.048102863 0.73200011 2.1855052e-38
-0.017404765 -0.048037149 0.73100001 2.3142183e-38
-0.016012384 -0.048037119 0.73100001 2.2958513e-38
-0.01462 -0.048037134 0.73100001 2.2774842e-38
-0.013191429 -0.047905721 0.72900009 2.1574521e-38
-0.011835239 -0.048037134 0.73100001 2.0384514e-38
-0.010414286 -0.047905721 0.72900009 1.87999e-38
-0.0090257144 -0.047905721 0.72900009 1.7325461e-38
-0.0076266676 -0.047840007 0.72800004 1.6574942e-38
-0.0062400009 -0.047840007 0.72800004 1.5828386e-38
-0.004840001 -0.047708564 0.72600001 1.3246196e-38
-0.003457143 -0.047708564 0.72600007 1.0745864e-38
-0.0020742859 -0.047708564 0.72600001 1.102786e-38
-0.00069047621 -0.047642864 0.72500002 1.1317022e-38
0.00069047627 -0.047642864 0.72500002 1.1871646e-38
0.0020714288 -0.047642849 0.72500008 1.2515571e-38
0.0034523811 -0.047642864 0.72500002 1.2237912e-38
0.0048400001 -0.047708564 0.72600007 1.1959899e-38
0.0062228572 -0.047708564 0.72600001 1.2698892e-38
0.0076057143 -0.047708549 0.72600001 1.3432858e-38
0.0090133343 -0.047840007 0.72800004 1.2881487e-38
0.010400001 -0.047839992 0.72800004 1.2238634e-38
0.011802859 -0.047905736 0.72900009 1.2608483e-38
0.01322762 -0.048037149 0.73100001 1.288508e-38
0.01462 -0.048037149 0.73100001 1.2701781e-38
0.016034286 -0.048102863 0.73200005 1.2614255e-38
0.017476192 -0.048234291 0.73400009 1.3813501e-38
0.018874288 -0.048234306 0.73400003 1.5099921e-38
0.02032762 -0.048365705 0.73600006 1.4826572e-38
0.021729525 -0.04836572 0.73600006 1.455323e-38
0.02313143 -0.048365705 0.73600006 1.3633093e-38
0.024566669 -0.048431434 0.73700011 1.2806593e-38
0.025970478 -0.048431434 0.73700011 1.244178e-38
0.027374288 -0.048431434 0.73700005 1.2076537e-38
0.028856192 -0.048562847 0.73900008 1.1519373e-38
0.030304765 -0.048628576 0.74000007 1.0965486e-38
0.031842858 -0.048825733 0.74300003 1.0690692e-38
0.033258099 -0.048825704 0.74300003 1.0414815e-38
0.034766674 -0.048957147 0.74500006 1.0507353e-38
0.036185719 -0.048957147 0.74500006 1.0508781e-38
-0.031671431 -0.047155254 0.73900008 1.7510277e-38
-0.030181907 -0.04702764 0.73700011 1.7149735e-38
-0.028856192 -0.047155254 0.73900008 1.6770959e-38
-0.027374288 -0.047027625 0.73700011 1.6220349e-38
-0.025935242 -0.046963803 0.73600006 1.5580764e-38
-0.024533337 -0.046963803 0.73600006 1.4932927e-38
-0.023068573 -0.046836205 0.73400009 1.4213311e-38
-0.02161143 -0.046708591 0.73200011 1.595711e-38
-0.020217145 -0.046708576 0.73200011 1.7713834e-38
-0.018822858 -0.046708576 0.73200005 2.0289901e-38
-0.017404765 -0.04664477 0.73100001 2.2773407e-38
-0.016012384 -0.04664477 0.73100001 2.3142183e-38
-0.01462 -0.046644755 0.73100007 2.341769e-38
-0.013191429 -0.046517126 0.72900009 2.341769e-38
-0.011802857 -0.046517141 0.72900003 2.3416926e-38
-0.010414286 -0.046517141 0.72900009 2.3417597e-38
-0.0090257144 -0.046517141 0.72900009 2.3405734e-38
-0.0076266672 -0.046453349 0.7280001 2.0921128e-38
-0.0062400005 -0.046453349 0.72800004 1.84232e-38
-0.004840001 -0.046325706 0.72600001 1.3800859e-38
-0.003457143 -0.046325721 0.72600001 9.2015353e-39
-0.0020742859 -0.046325691 0.72600001 1.046964e-38
-0.00069047615 -0.046261914 0.72500008 1.1680394e-38
0.00069047627 -0.046261914 0.72500008 1.2150368e-38
0.0020714288 -0.046261899 0.72500002 1.2608106e-38
0.0034523811 -0.046261899 0.72500008 1.2147132e-38
0.0048400005 -0.046325706 0.72600001 1.1687982e-38
0.0062400005 -0.046453349 0.72800004 1.2793982e-38
0.0076266672 -0.046453334 0.72800004 1.3800932e-38
0.0090257162 -0.046517156 0.72900009 1.2972247e-38
0.010414287 -0.046517156 0.72900009 1.2056036e-38
0.011802859 -0.046517141 0.72900009 1.2517e-38
0.013227621 -0.04664477 0.73100001 1.2885067e-38
0.014620001 -0.04664477 0.73100001 1.2517373e-38
0.016034286 -0.046708591 0.73200005 1.2062517e-38
0.017476194 -0.04683622 0.73400009 1.3814942e-38
0.018874289 -0.04683622 0.73400009 1.5561255e-38
0.020327618 -0.046963803 0.73600006 1.5197505e-38
0.021729523 -0.046963818 0.73600006 1.4828382e-38
0.023131428 -0.046963818 0.73600006 1.3634533e-38
0.024566669 -0.047027625 0.73700005 1.2439964e-38
0.025970478 -0.04702764 0.73700011 1.2260249e-38
0.027448576 -0.047155268 0.73900008 1.1982545e-38
0.028895242 -0.047219045 0.74000001 1.1426465e-38
0.03038667 -0.047346689 0.7420001 1.0875089e-38
0.031842858 -0.047410481 0.74300003 1.0507384e-38
0.033347622 -0.047538094 0.74500006 1.0140038e-38
0.03476667 -0.047538094 0.74500006 1.0324062e-38
-0.031671435 -0.045747615 0.73900002 1.4864048e-38
-0.030181907 -0.045623817 0.73700011 1.5498299e-38
-0.028856192 -0.04574763 0.73900008 1.6064734e-38
-0.027374288 -0.045623802 0.73700005 1.6512426e-38
-0.02593524 -0.045561902 0.73600006 1.6894473e-38
-0.024566669 -0.045623802 0.73700011 1.7433645e-38
-0.023068573 -0.045438118 0.73400003 1.8083305e-38
-0.021611432 -0.045314305 0.73200011 1.9274293e-38
-0.020217147 -0.045314305 0.73200011 2.0465303e-38
-0.01882286 -0.045314275 0.73200005 2.1759985e-38
-0.017404763 -0.045252375 0.73100001 2.3142182e-38
-0.016012382 -0.045252375 0.73100001 2.3234019e-38
-0.01462 -0.045252375 0.73100001 2.341769e-38
-0.013191429 -0.045128591 0.72900009 2.341769e-38
-0.011802857 -0.045128562 0.72900009 2.341769e-38
-0.010414286 -0.045128562 0.72900009 2.341769e-38
-0.0090257144 -0.045128576 0.72900009 2.341769e-38
-0.0076371436 -0.045128576 0.72900009 2.2219524e-38
-0.0062400005 -0.045066677 0.72800004 2.0938017e-38
-0.004840001 -0.044942848 0.72600001 1.8246691e-38
-0.003457143 -0.044942863 0.72600001 1.565694e-38
-0.0020742859 -0.044942848 0.72600001 1.4264278e-38
-0.00069047621 -0.044880949 0.72500002 1.2875668e-38
0.00069047621 -0.044880949 0.72500002 1.2144255e-38
0.0020742861 -0.044942833 0.72600001 1.1415304e-38
0.0034571432 -0.044942833 0.72600001 1.159502e-38
0.0048400001 -0.044942848 0.72600001 1.1870937e-38
0.0062400005 -0.045066677 0.72800004 1.297445e-38
0.0076266672 -0.045066662 0.72800004 1.4076451e-38
0.0090257162 -0.045128576 0.72900009 1.3341742e-38
0.010414287 -0.045128576 0.72900009 1.2608123e-38
0.011802859 -0.045128576 0.72900009 1.2792859e-38
0.013227621 -0.04525239 0.73100001 1.2977249e-38
0.014620001 -0.045252375 0.73100001 1.279286e-38
0.016034286 -0.04531429 0.73200011 1.2701771e-38
0.017476192 -0.045438103 0.73400009 1.3813152e-38
0.018874288 -0.045438118 0.73400009 1.491877e-38
0.02032762 -0.045561902 0.73600006 1.4735461e-38
0.021729525 -0.045561902 0.73600006 1.4550727e-38
0.02313143 -0.045561902 0.73600006 1.3632026e-38
0.024566669 -0.045623802 0.73700011 1.271152e-38
0.025970478 -0.045623817 0.73700005 1.2533232e-38
0.027448574 -0.04574763 0.73900008 1.2350959e-38
0.02889524 -0.0458095 0.74000001 1.1336067e-38
0.03038667 -0.045933343 0.74200004 1.0416633e-38
0.031842858 -0.045995243 0.74300003 1.004857e-38
0.033258099 -0.045995243 0.74300003 9.7727087e-39
0.034673337 -0.045995213 0.74300003 1.0140054e-38
-0.031671431 -0.044340022 0.73900008 1.2165213e-38
-0.030263811 -0.044340007 0.73900008 1.373072e-38
-0.028856192 -0.044340007 0.73900002 1.529768e-38
-0.027448574 -0.044340022 0.73900008 1.6778542e-38
-0.025970479 -0.044219993 0.73700005 1.8157183e-38
-0.024533337 -0.044160001 0.73600006 2.0007199e-38
-0.023131432 -0.044160016 0.73600006 2.184355e-38
-0.021670477 -0.044040017 0.73400009 2.2591148e-38
-0.020217145 -0.043920018 0.73200011 2.3226832e-38
-0.018822858 -0.043920003 0.73200011 2.3325853e-38
-0.017428573 -0.043920003 0.73200005 2.341769e-38
-0.016012382 -0.043859996 0.73099995 2.341769e-38
-0.01462 -0.043859996 0.73100001 2.341769e-38
-0.013191429 -0.043739997 0.72900009 2.341769e-38
-0.011802857 -0.043740027 0.72900009 2.341769e-38
-0.010414286 -0.043740012 0.72900009 2.341769e-38
-0.0090257144 -0.043740012 0.72900009 2.341769e-38
-0.0076371436 -0.043740012 0.72900009 2.341769e-38
-0.0062400005 -0.043680005 0.7280001 2.3417633e-38
-0.0048533338 -0.043680005 0.72800004 2.2774727e-38
-0.0034666669 -0.04367999 0.72800004 2.2019194e-38
-0.0020800002 -0.043680005 0.7280001 1.8054442e-38
-0.00069142866 -0.043559976 0.72600001 1.3997839e-38
0.00069142861 -0.043559976 0.72600001 1.2043409e-38
0.0020742859 -0.043559976 0.72600001 1.011703e-38
0.003457143 -0.043559991 0.72600001 1.1129747e-38
0.0048533338 -0.04367999 0.72800004 1.205245e-38
0.0062400005 -0.043680005 0.7280001 1.3156672e-38
0.0076371427 -0.043739997 0.72900003 1.4261192e-38
0.0090257162 -0.043740027 0.72900009 1.3710163e-38
0.010414287 -0.043739997 0.72900009 1.3068382e-38
0.011835239 -0.043859996 0.73100001 1.3068734e-38
0.01322762 -0.043860011 0.73100001 1.2976897e-38
0.01462 -0.043859996 0.73100001 1.315913e-38
0.016034286 -0.043920018 0.73200011 1.3347849e-38
0.017476192 -0.044040017 0.73400009 1.3816736e-38
0.018874288 -0.044040017 0.73400009 1.427592e-38
0.02032762 -0.044160001 0.73600006 1.4274132e-38
0.021729525 -0.044159986 0.73600006 1.4274499e-38
0.02313143 -0.044160001 0.73600006 1.3630942e-38
0.024566669 -0.044220008 0.73700011 1.2898409e-38
0.025970478 -0.044220008 0.73700011 1.281016e-38
0.027448574 -0.044340007 0.73900002 1.2716866e-38
0.028856192 -0.044339992 0.73900008 1.1334286e-38
0.03038667 -0.044520013 0.7420001 9.8652659e-39
0.031842858 -0.04458002 0.74300003 9.5890307e-39
0.033258099 -0.04457999 0.74300003 9.313506e-39
0.034673337 -0.04457999 0.74300003 9.9559776e-39
-0.031800002 -0.043106668 0.74200004 1.2859628e-38
-0.030263811 -0.042932384 0.73900008 1.3706938e-38
-0.028895238 -0.042990468 0.74000007 1.4524169e-38
-0.027448574 -0.042932384 0.73900008 1.5183196e-38
-0.025970478 -0.04281617 0.73700011 1.591723e-38
-0.024566669 -0.04281617 0.73700005 1.6763547e-38
-0.02313143 -0.0427581 0.73600006 1.769231e-38
-0.021670477 -0.042641915 0.73400009 1.8059296e-38
-0.020272382 -0.04264193 0.73400009 1.8443861e-38
-0.018874288 -0.042641915 0.73400009 1.8991291e-38
-0.017428573 -0.042525716 0.73200005 1.9468764e-38
-0.016012382 -0.042467631 0.73100001 2.0841991e-38
-0.01462 -0.042467616 0.73100001 2.2223829e-38
-0.013191429 -0.042351432 0.72900009 2.2866677e-38
-0.011802857 -0.042351432 0.72900009 2.341769e-38
-0.010414286 -0.042351432 0.72900009 2.341769e-38
-0.0090257144 -0.042351432 0.72900009 2.341769e-38
-0.0076371436 -0.042351417 0.72900009 2.341769e-38
-0.0062400009 -0.042293333 0.72800004 2.341769e-38
-0.0048533343 -0.042293333 0.7280001 2.3050348e-38
-0.0034666667 -0.042293333 0.72800004 2.277482e-38
-0.00208 -0.042293333 0.72800004 2.0739709e-38
-0.00069142861 -0.042177148 0.72600001 1.8710922e-38
0.00069142861 -0.042177133 0.72600001 1.6202509e-38
0.0020742861 -0.042177118 0.72600001 1.3777157e-38
0.0034571432 -0.042177118 0.72600001 1.2685571e-38
0.0048599998 -0.042351432 0.72900009 1.1685462e-38
0.0062657148 -0.042467631 0.73100001 1.2883304e-38
0.0076580956 -0.042467616 0.73099995 1.4172221e-38
0.0090504773 -0.042467616 0.73100001 1.3712316e-38
0.010442859 -0.042467602 0.73100001 1.3345689e-38
0.01183524 -0.042467616 0.73099995 1.3253849e-38
0.013227621 -0.042467616 0.73100001 1.3160934e-38
0.014620001 -0.042467616 0.73100001 1.3252763e-38
0.016034286 -0.042525716 0.73200011 1.3346055e-38
0.017476194 -0.04264193 0.73400009 1.381422e-38
0.018874289 -0.04264193 0.73400009 1.4277354e-38
0.02032762 -0.0427581 0.73600006 1.4459598e-38
0.021729525 -0.042758085 0.73600006 1.473439e-38
0.023162859 -0.042816184 0.73700011 1.372492e-38
0.024566669 -0.042816184 0.73700005 1.2807998e-38
0.025970478 -0.042816184 0.73700011 1.2717954e-38
0.027448576 -0.042932399 0.73900008 1.2627542e-38
0.028895242 -0.042990468 0.74000001 1.1153139e-38
0.03038667 -0.043106668 0.74200004 9.7737933e-39
0.031842858 -0.043164767 0.74300003 9.7730563e-39
0.033347622 -0.043280952 0.74500006 9.6811815e-39
0.03476667 -0.043280937 0.74500006 9.9559299e-39
-0.031800002 -0.041693352 0.7420001 1.3522904e-38
-0.030304763 -0.041580938 0.74000001 1.3620844e-38
-0.02889524 -0.041580953 0.74000007 1.3708728e-38
-0.027448574 -0.04152476 0.73900008 1.3695809e-38
-0.025970479 -0.041412391 0.73700011 1.3715244e-38
-0.024566671 -0.041412376 0.73700011 1.3620603e-38
-0.023131432 -0.041356184 0.73600006 1.3447342e-38
-0.021729527 -0.041356198 0.73600006 1.350941e-38
-0.020272382 -0.041243814 0.73400009 1.3633517e-38
-0.018874288 -0.041243829 0.73400009 1.4542174e-38
-0.017428573 -0.041131429 0.73200005 1.5483524e-38
-0.016012382 -0.041075237 0.73100001 1.8257638e-38
-0.01462 -0.041075222 0.73100001 2.1014874e-38
-0.01322762 -0.041075237 0.73100001 2.2223822e-38
-0.011835239 -0.041075237 0.73100001 2.3417686e-38
-0.010414286 -0.040962853 0.72900009 2.341769e-38
-0.0090257144 -0.040962838 0.72900003 2.341769e-38
-0.0076371436 -0.040962867 0.72900009 2.341769e-38
-0.0062400009 -0.04090666 0.72800004 2.341769e-38
-0.0048533338 -0.04090666 0.72800004 2.341769e-38
-0.0034666669 -0.04090666 0.72800004 2.3417679e-38
-0.0020800002 -0.04090666 0.72800004 2.3417669e-38
-0.00069142861 -0.040794291 0.72600007 2.3407905e-38
0.00069142861 -0.040794276 0.72600001 2.0462635e-38
0.0020800002 -0.04090666 0.72800004 1.7398272e-38
0.0034666671 -0.040906675 0.7280001 1.433391e-38
0.0048733335 -0.041075237 0.73100001 1.1223736e-38
0.0062657148 -0.041075237 0.73100001 1.2610634e-38
0.0076580956 -0.041075252 0.73100001 1.3988176e-38
0.0090504773 -0.041075252 0.73100001 1.3804158e-38
0.010442859 -0.041075222 0.73100001 1.3529366e-38
0.01183524 -0.041075237 0.73100007 1.3439322e-38
0.013245715 -0.041131444 0.73200011 1.3344973e-38
0.014640001 -0.041131429 0.73200005 1.3344613e-38
0.016078096 -0.041243814 0.73400009 1.334893e-38
0.017476192 -0.041243829 0.73400009 1.3816013e-38
0.018925715 -0.041356184 0.73600006 1.4185165e-38
0.02032762 -0.041356184 0.73600006 1.4736554e-38
0.021729525 -0.041356169 0.73600006 1.5195014e-38
0.023162859 -0.041412391 0.73700011 1.3910033e-38
0.024566669 -0.041412376 0.73700011 1.2624333e-38
0.025970478 -0.041412391 0.73700005 1.253393e-38
0.027448574 -0.041524775 0.73900008 1.2440641e-38
0.02889524 -0.041580938 0.74000001 1.1060222e-38
0.03038667 -0.041693337 0.7420001 9.681955e-39
0.031842858 -0.04174953 0.74300003 9.8648932e-39
0.033258099 -0.041749515 0.74300003 1.0048532e-38
0.034673337 -0.04174953 0.74300003 1.00485e-38
-0.031842858 -0.040334292 0.74300003 1.4175062e-38
-0.030386671 -0.040280007 0.7420001 1.4731481e-38
-0.028973337 -0.040280007 0.7420001 1.5381456e-38
-0.027485715 -0.040171422 0.74000001 1.5745522e-38
-0.026040955 -0.040117167 0.73900008 1.6127274e-38
-0.024633335 -0.040117152 0.73900008 1.6584e-38
-0.023162859 -0.040008567 0.73700005 1.7140764e-38
-0.021729525 -0.039954282 0.73600006 1.7773219e-38
-0.020272382 -0.039845727 0.73400009 1.8415679e-38
-0.018874288 -0.039845742 0.73400009 1.8598602e-38
-0.017428573 -0.039737143 0.73200011 1.8848712e-38
-0.016034286 -0.039737143 0.73200005 1.9429213e-38
-0.01462 -0.039682858 0.73100001 1.9976318e-38
-0.01322762 -0.039682843 0.73100001 2.0459567e-38
-0.011835239 -0.039682858 0.73100001 2.0938125e-38
-0.010414286 -0.039574288 0.72900009 2.1022075e-38
-0.0090257144 -0.039574303 0.72900009 2.1029967e-38
-0.0076371436 -0.039574273 0.72900009 2.2223829e-38
-0.0062485724 -0.039574288 0.72900009 2.341769e-38
-0.0048533338 -0.039520003 0.72800004 2.341769e-38
-0.0034666667 -0.039520003 0.72800004 2.341769e-38
-0.00208 -0.039520003 0.72800004 2.341769e-38
-0.00069142861 -0.039411433 0.72600001 2.341769e-38
0.00069333339 -0.039520018 0.72800004 2.1941865e-38
0.0020828573 -0.039574288 0.72900009 2.0468374e-38
0.0034666671 -0.039520003 0.72800004 1.749574e-38
0.0048733335 -0.039682858 0.73100001 1.4529421e-38
0.0062657148 -0.039682858 0.73100001 1.3706526e-38
0.0076580956 -0.039682858 0.73100001 1.2885777e-38
0.0090504764 -0.039682873 0.73100001 1.3160237e-38
0.010442858 -0.039682858 0.73100001 1.343682e-38
0.011851429 -0.039737158 0.73200005 1.3344265e-38
0.013245715 -0.039737158 0.73200011 1.3250638e-38
0.014640001 -0.039737158 0.73200011 1.3252433e-38
0.016078096 -0.039845742 0.73400009 1.3255665e-38
0.017476192 -0.039845727 0.73400003 1.3722739e-38
0.018925715 -0.039954282 0.73600006 1.4185888e-38
0.02032762 -0.039954297 0.73600006 1.4460702e-38
0.021729525 -0.039954282 0.73600006 1.482804e-38
0.023162859 -0.040008582 0.73700005 1.3633457e-38
0.024566669 -0.040008582 0.73700011 1.2530709e-38
0.025970478 -0.040008567 0.73700011 1.2439587e-38
0.027448574 -0.040117167 0.73900008 1.2438847e-38
0.02889524 -0.040171422 0.74000001 1.115205e-38
0.03038667 -0.040280022 0.74200004 9.8652659e-39
0.031928573 -0.040442847 0.74500006 9.9570888e-39
0.033347622 -0.040442847 0.74500006 1.00489e-38
0.03476667 -0.040442862 0.74500012 1.0139635e-38
-0.031928573 -0.039023824 0.74500006 1.473003e-38
-0.030427624 -0.038919054 0.74300009 1.5840338e-38
-0.028973337 -0.038866661 0.74200004 1.6943066e-38
-0.027560003 -0.038866676 0.7420001 1.7777822e-38
-0.026040955 -0.038709529 0.73900008 1.8517943e-38
-0.024633335 -0.038709529 0.73900002 1.9630787e-38
-0.02316286 -0.038604759 0.73700011 2.0733549e-38
-0.021759052 -0.038604759 0.73700011 2.1934962e-38
-0.020327622 -0.038552381 0.73600006 2.3127373e-38
-0.018925717 -0.038552381 0.73600006 2.267966e-38
-0.017476192 -0.038447641 0.73400009 2.2198636e-38
-0.016034288 -0.038342871 0.73200005 2.0634599e-38
-0.01462 -0.038290463 0.73100001 1.8982956e-38
-0.01322762 -0.038290463 0.73099995 1.8699875e-38
-0.011835239 -0.038290478 0.73100001 1.8428707e-38
-0.010414286 -0.038185723 0.72900009 1.8518065e-38
-0.0090257144 -0.038185723 0.72900009 1.862212e-38
-0.0076371436 -0.038185708 0.72900009 2.1029954e-38
-0.0062657148 -0.038290478 0.73100001 2.3417684e-38
-0.0048600007 -0.038185723 0.72900009 2.341769e-38
-0.0034714288 -0.038185723 0.72900009 2.341769e-38
-0.0020828573 -0.038185708 0.72900009 2.341769e-38
-0.00069333339 -0.038133331 0.72800004 2.341769e-38
0.00069428579 -0.038185708 0.72900009 2.341769e-38
0.0020828573 -0.038185708 0.72900003 2.3412221e-38
0.0034714288 -0.038185723 0.72900009 2.0650969e-38
0.0048733335 -0.038290463 0.73100001 1.7864266e-38
0.0062657148 -0.038290463 0.73100001 1.4799905e-38
0.0076580956 -0.038290478 0.73100001 1.1777996e-38
0.0090504764 -0.038290478 0.73100001 1.2605288e-38
0.010442858 -0.038290463 0.73100001 1.3342835e-38
0.011835239 -0.038290493 0.73100001 1.3250275e-38
0.013245715 -0.038342871 0.73200011 1.3068034e-38
0.014640001 -0.038342856 0.73200011 1.3066954e-38
0.016078098 -0.038447641 0.73400003 1.3073071e-38
0.017476194 -0.038447641 0.73400009 1.363307e-38
0.018925715 -0.038552381 0.73600006 1.4092622e-38
0.02032762 -0.038552396 0.73600006 1.427595e-38
0.021729525 -0.038552381 0.73600006 1.4459616e-38
0.023162859 -0.038604759 0.73700011 1.3448706e-38
0.024566669 -0.038604759 0.73700005 1.2347396e-38
0.025970478 -0.038604774 0.73700011 1.2347036e-38
0.027448576 -0.038709529 0.73900008 1.2347363e-38
0.028895242 -0.038761877 0.74000001 1.1243154e-38
0.03038667 -0.038866676 0.7420001 1.0049277e-38
0.031928573 -0.039023809 0.74500006 1.0049622e-38
0.033437148 -0.039128579 0.74700004 1.0047802e-38
0.034860007 -0.039128564 0.7470001 1.01371e-38
-0.031928573 -0.037604772 0.74500012 1.4360186e-38
-0.030509526 -0.037604757 0.74500006 1.5374001e-38
-0.029012384 -0.037503801 0.74300003 1.6292375e-38
-0.027597146 -0.037503786 0.74300003 1.7130032e-38
-0.02607619 -0.037352361 0.74000001 1.7963778e-38
-0.024666667 -0.037352376 0.74000007 1.8983347e-38
