# .PCD v0.7 - Point Cloud Data file format
VERSION 0.7
FIELDS x y z rgb
SIZE 4 4 4 4
TYPE F F F F
COUNT 1 1 1 1
WIDTH 950
HEIGHT 1
VIEWPOINT 0 0 0 1 0 0 0
POINTS 950
DATA ascii
0.011705732 -0.039248578 0.72300005 3.1247232e-39
0.01308289 -0.039248578 0.72300005 5.5106398e-39
0.014460023 -0.039248578 0.72300011 7.7265159e-39
0.015837152 -0.039248578 0.72300005 1.0015663e-38
0.017214311 -0.039248593 0.72300011 1.0874903e-38
0.018591473 -0.039248578 0.72300011 1.181049e-38
0.019968577 -0.039248578 0.72300005 1.5029048e-38
0.021404758 -0.039357118 0.72500002 1.8274881e-38
0.022785736 -0.039357133 0.72500002 1.9644901e-38
0.02416666 -0.039357148 0.72500002 2.1029967e-38
0.025547637 -0.039357133 0.72500002 2.0283445e-38
0.026965709 -0.039411433 0.72600007 1.956019e-38
0.028426675 -0.039519988 0.72800004 1.9344899e-38
0.029813344 -0.039520003 0.72800004 1.9138972e-38
0.031242846 -0.039574288 0.72900003 1.7579906e-38
0.03272095 -0.039682858 0.73100001 1.6092195e-38
0.034159992 -0.039737143 0.73200005 1.41697e-38
0.035651423 -0.039845712 0.73400009 1.2338011e-38
0.037150469 -0.039954297 0.73600006 1.1421807e-38
0.038604751 -0.040008582 0.73700005 1.0598833e-38
0.040117119 -0.040117152 0.73900002 1.0508749e-38
0.04158096 -0.040171422 0.74000001 1.0417253e-38
0.043106664 -0.040279992 0.74200004 1.0415797e-38
0.044579983 -0.040334292 0.74300003 1.0506223e-38
0.045995224 -0.040334307 0.74300003 1.0139265e-38
-0.027671417 -0.039023809 0.74500006 1.3004951e-38
-0.02618194 -0.038919054 0.74300003 1.2079438e-38
-0.024733359 -0.038866661 0.74200004 1.0882007e-38
-0.023319989 -0.038866676 0.74200004 9.5912882e-39
-0.021847598 -0.038761906 0.74000001 8.6575092e-39
-0.020410474 -0.038709529 0.73900002 7.6548521e-39
-0.019002873 -0.038709514 0.73900002 8.7550858e-39
-0.017547628 -0.038604759 0.73700005 9.8628333e-39
-0.016078079 -0.038447626 0.73400009 1.0510686e-38
-0.014620014 -0.038290478 0.73100001 1.1062097e-38
-0.013191444 -0.038185708 0.72900003 1.0885998e-38
-0.011802855 -0.038185708 0.72900003 1.0602956e-38
-0.010399989 -0.038133346 0.72800004 9.3194069e-39
-0.0090133259 -0.038133331 0.72800004 7.9350445e-39
-0.0076057212 -0.038028561 0.72600001 6.6349829e-39
-0.006222873 -0.03802859 0.72600007 5.35539e-39
-0.0048400275 -0.038028575 0.72600001 4.9794454e-39
-0.0034523867 -0.037976183 0.72500002 4.524214e-39
-0.0020656828 -0.037871443 0.72300011 4.6982006e-39
-0.00068855105 -0.037871443 0.72300005 4.7936038e-39
0.00068858074 -0.037871428 0.72300011 4.7028235e-39
0.0020657405 -0.037871443 0.72300011 4.5155484e-39
0.0034428705 -0.037871428 0.72300005 4.8896895e-39
0.0048200302 -0.037871458 0.72300011 5.2484303e-39
0.0061971638 -0.037871443 0.72300011 2.6756113e-39
0.0075742919 -0.037871443 0.72300005 9.8829377e-41
0.0089514535 -0.037871443 0.72300011 5.5154267e-40
0.010328611 -0.037871443 0.72300011 9.2822851e-40
0.011705741 -0.037871443 0.72300005 5.1433525e-39
0.013082875 -0.037871458 0.72300011 9.4000923e-39
0.014460007 -0.037871428 0.72300005 1.4733745e-38
0.015837163 -0.037871443 0.72300005 1.9985626e-38
0.017214324 -0.037871443 0.72300011 2.1764617e-38
0.018642874 -0.037976183 0.72500002 2.3408335e-38
0.020023799 -0.037976198 0.72500002 2.3417669e-38
0.021404751 -0.037976198 0.72500002 2.3414077e-38
0.022785729 -0.037976198 0.72500002 2.1855024e-38
0.024166653 -0.037976183 0.72500002 2.0168943e-38
0.025582863 -0.038028575 0.72600007 1.8229241e-38
0.027039988 -0.038133316 0.72800004 1.6293852e-38
0.028426683 -0.038133316 0.72800004 1.5997152e-38
0.029854268 -0.038185708 0.72900003 1.5734195e-38
0.031328563 -0.038290478 0.73100001 1.6195161e-38
0.032765713 -0.038342841 0.73200005 1.6651809e-38
0.034253336 -0.038447626 0.73400003 1.4720015e-38
0.035748549 -0.038552381 0.73600006 1.2704646e-38
0.037150491 -0.038552381 0.73600012 1.1606196e-38
0.038604777 -0.038604759 0.73700011 1.041446e-38
0.040117156 -0.038709544 0.73900008 1.0416586e-38
0.041580945 -0.038761891 0.74000001 1.0324386e-38
0.043106653 -0.038866661 0.74200004 1.0691006e-38
0.044579983 -0.038919054 0.74300003 1.1057985e-38
0.046119038 -0.039023809 0.74500006 1.0231104e-38
-0.027671436 -0.037604772 0.74500006 1.0973455e-38
-0.026181916 -0.037503816 0.74300003 9.5015589e-39
-0.024766702 -0.037503816 0.74300003 9.2220895e-39
-0.023319997 -0.037453331 0.74200004 8.9383546e-39
-0.021847617 -0.037352405 0.74000007 8.2955286e-39
-0.020410499 -0.037301905 0.73900002 7.7456058e-39
-0.019002844 -0.037301905 0.73900002 7.7492057e-39
-0.017523825 -0.03715048 0.73600006 7.8525137e-39
-0.016034307 -0.036948554 0.73200005 7.6613023e-39
-0.014640002 -0.036948554 0.73200011 7.5734297e-39
-0.01322764 -0.036898114 0.73100001 6.8290767e-39
-0.011802871 -0.036797144 0.72900003 6.1707929e-39
-0.010399982 -0.036746658 0.72800004 6.2712268e-39
-0.0090133194 -0.036746658 0.72800004 6.3587365e-39
-0.0076057203 -0.036645703 0.72600007 5.9928084e-39
-0.0062228767 -0.036645718 0.72600001 5.7155083e-39
-0.0048400033 -0.036645703 0.72600007 5.1644953e-39
-0.003457129 -0.036645718 0.72600007 4.61096e-39
-0.0020714402 -0.036595248 0.72500002 4.5183944e-39
-0.00069046213 -0.036595233 0.72500008 4.4290827e-39
0.00069045828 -0.036595218 0.72500002 3.4131637e-39
0.0020657219 -0.036494292 0.72300005 2.3157746e-39
0.0034428816 -0.036494292 0.72300005 5.1540388e-39
0.0048200153 -0.036494307 0.72300011 7.9001452e-39
0.0061971452 -0.036494277 0.72300005 8.9236172e-39
0.0075743049 -0.036494277 0.72300011 9.829083e-39
0.0089514628 -0.036494307 0.72300011 1.1053462e-38
0.010328595 -0.036494292 0.72300005 1.2159818e-38
0.011705726 -0.036494292 0.72300011 1.4289277e-38
0.013082886 -0.036494292 0.72300011 1.6436704e-38
0.014460018 -0.036494292 0.72300005 1.8996313e-38
0.015837174 -0.036494292 0.72300005 2.1672816e-38
0.017214309 -0.036494307 0.72300011 2.139408e-38
0.018642871 -0.036595233 0.72500002 2.1212203e-38
0.020023791 -0.036595233 0.72500002 2.0462094e-38
0.021404771 -0.036595233 0.72500002 1.9730969e-38
0.022785721 -0.036595248 0.72500002 1.8409369e-38
0.024166672 -0.036595218 0.72500002 1.7081987e-38
0.025582829 -0.036645703 0.72600001 1.672605e-38
0.027039997 -0.036746658 0.72800004 1.6439058e-38
0.028426664 -0.036746658 0.72800004 1.6644248e-38
0.029854281 -0.036797144 0.72900009 1.684012e-38
0.031328533 -0.036898084 0.73100001 1.6750082e-38
0.032765713 -0.036948569 0.73200005 1.6661485e-38
0.034253348 -0.037049524 0.73400009 1.463358e-38
0.035748567 -0.03715048 0.73600006 1.2613537e-38
0.037150454 -0.03715048 0.73600006 1.151436e-38
0.038604774 -0.03720098 0.73700011 1.0414117e-38
0.040171433 -0.037352376 0.74000001 1.0415182e-38
0.041580986 -0.037352391 0.74000007 1.0322997e-38
0.043164767 -0.037503816 0.74300009 1.0599231e-38
0.044819999 -0.037705727 0.7470001 1.0783589e-38
0.046304759 -0.037756197 0.74800009 1.0231826e-38
0.047729533 -0.037756182 0.74800009 9.771222e-39
-0.026181918 -0.036088564 0.74300003 6.9219142e-39
-0.024733344 -0.036040001 0.74200004 7.5665507e-39
-0.023257127 -0.035942875 0.74000007 8.2079754e-39
-0.021847608 -0.03594286 0.74000001 8.0235982e-39
-0.020410491 -0.035894297 0.73900002 7.7463022e-39
-0.018951414 -0.035797141 0.73700011 6.7357573e-39
-0.017523807 -0.035748579 0.73600006 5.7226885e-39
-0.016034277 -0.035554282 0.73200011 4.8918559e-39
-0.014640004 -0.035554282 0.73200005 3.9760218e-39
-0.013227647 -0.03550569 0.73100001 2.8697009e-39
-0.011802859 -0.035408579 0.72900009 1.6744031e-39
-0.010414299 -0.035408564 0.72900003 3.2359639e-39
-0.0090133389 -0.035359986 0.72800004 4.707836e-39
-0.0076056942 -0.03526286 0.72600007 5.3531899e-39
-0.0062228758 -0.03526286 0.72600007 5.9931658e-39
-0.0048400015 -0.03526286 0.72600007 5.3513921e-39
-0.0034571569 -0.035262845 0.72600001 4.7024325e-39
-0.0020714197 -0.035214268 0.72500002 4.4276309e-39
-0.00069046771 -0.035214283 0.72500008 4.0552919e-39
0.00069048064 -0.035214268 0.72500002 2.1127811e-39
0.0020714328 -0.035214297 0.72500002 1.0674952e-40
0.0034523811 -0.035214283 0.72500002 5.3270249e-39
0.0048200265 -0.035117172 0.72300011 1.0595391e-38
0.0062143113 -0.035214283 0.72500002 1.5106474e-38
0.0075952336 -0.035214268 0.72500002 1.9618623e-38
0.0089762118 -0.035214283 0.72500002 2.1580902e-38
0.010357132 -0.035214283 0.72500002 2.3404351e-38
0.011738112 -0.035214283 0.72500002 2.3417637e-38
0.013119034 -0.035214268 0.72500002 2.3417299e-38
0.014499987 -0.035214268 0.72500002 2.3325845e-38
0.015880965 -0.035214297 0.72500002 2.3217498e-38
0.017261889 -0.035214268 0.72500002 2.1109935e-38
0.018642863 -0.035214268 0.72500002 1.8878224e-38
0.020051418 -0.03526286 0.72600007 1.7486663e-38
0.021404764 -0.035214268 0.72500002 1.6008649e-38
0.022817137 -0.03526286 0.72600007 1.4969723e-38
0.024200013 -0.035262875 0.72600007 1.3963824e-38
0.025653344 -0.035359986 0.72800004 1.5338114e-38
0.027040007 -0.035359986 0.72800004 1.6636367e-38
0.028465705 -0.035408579 0.72900009 1.7300022e-38
0.029854266 -0.035408564 0.72900003 1.7852118e-38
0.031328555 -0.035505705 0.73100001 1.7303623e-38
0.032765713 -0.035554297 0.73200011 1.6658265e-38
0.034346648 -0.035748564 0.73600006 1.4539594e-38
0.035748586 -0.035748579 0.73600012 1.2430219e-38
0.037200961 -0.035797156 0.73700011 1.1422872e-38
0.03870951 -0.035894282 0.73900002 1.0414104e-38
0.040171418 -0.03594286 0.74000001 1.041481e-38
0.0417495 -0.036088578 0.74300003 1.0322978e-38
0.043280941 -0.036185719 0.74500006 1.0415176e-38
0.044820014 -0.03628286 0.74700004 1.0507346e-38
0.046428595 -0.036428578 0.75000012 1.0324728e-38
-0.02618192 -0.034673341 0.74300003 7.3789406e-39
-0.024733352 -0.034626655 0.74200004 7.4736488e-39
-0.023320012 -0.034626655 0.74200004 7.6605498e-39
-0.021847596 -0.034533329 0.74000001 7.1945564e-39
-0.020410486 -0.034486674 0.73900002 6.7357334e-39
-0.01895142 -0.034393348 0.73700011 5.4410626e-39
-0.017523816 -0.034346662 0.73600006 4.1445938e-39
-0.016034281 -0.034159996 0.73200005 4.242518e-39
-0.014640005 -0.034159996 0.73200005 4.3343563e-39
-0.013227651 -0.034113325 0.73100001 3.5107081e-39
-0.011835272 -0.034113325 0.73099995 2.6863494e-39
-0.010414283 -0.034019999 0.72900009 3.4206817e-39
-0.0090133287 -0.033973344 0.72800004 4.2507969e-39
-0.0076266658 -0.033973314 0.72800004 4.8897077e-39
-0.0062228516 -0.033880003 0.72600007 5.4396403e-39
-0.0048400052 -0.033880003 0.72600001 5.7119139e-39
-0.0034571569 -0.033880003 0.72600007 5.8883977e-39
-0.0020714253 -0.033833317 0.72500002 6.9061089e-39
-0.0006904733 -0.033833332 0.72500008 7.9145449e-39
0.00069047319 -0.033833332 0.72500002 9.6741652e-39
0.0020714253 -0.033833332 0.72500002 1.1426242e-38
0.0034523737 -0.033833317 0.72500002 1.4197836e-38
0.0048333276 -0.033833332 0.72500002 1.6987016e-38
0.0062143039 -0.033833332 0.72500008 1.9273254e-38
0.0075952262 -0.033833317 0.72500002 2.1489145e-38
0.0089762043 -0.033833332 0.72500002 2.1211486e-38
0.010357128 -0.033833317 0.72500002 2.0846296e-38
0.011738105 -0.033833317 0.72500002 2.0283086e-38
0.013119057 -0.033833332 0.72500008 1.9743902e-38
0.014500005 -0.033833317 0.72500002 1.9157004e-38
0.015880959 -0.033833332 0.72500002 1.8679513e-38
0.017261907 -0.033833317 0.72500002 1.8400041e-38
0.018668571 -0.033880003 0.72600007 1.818401e-38
0.020051416 -0.033880003 0.72600001 1.7646554e-38
0.02143429 -0.033879988 0.72600001 1.6990029e-38
0.022817139 -0.033880003 0.72600007 1.6626587e-38
0.024266683 -0.033973329 0.72800004 1.6270772e-38
0.025653319 -0.033973329 0.72800004 1.6911873e-38
0.027077155 -0.034020014 0.72900009 1.755975e-38
0.028465718 -0.034019999 0.72900003 1.7846381e-38
0.029854281 -0.034019984 0.72900009 1.8035443e-38
0.031371411 -0.034159996 0.73200005 1.7393322e-38
0.03294475 -0.034346677 0.73600012 1.6658991e-38
0.034346666 -0.034346677 0.73600006 1.4266599e-38
0.035748549 -0.034346662 0.73600006 1.1787007e-38
0.037200958 -0.034393348 0.73700011 1.0963682e-38
0.038709514 -0.034486674 0.73900008 1.0138944e-38
0.040279973 -0.03462667 0.74200004 1.0322961e-38
0.041861888 -0.034766667 0.74500006 1.0598464e-38
0.043397155 -0.034860007 0.74700004 1.0875044e-38
0.044880006 -0.034906663 0.74800009 1.1240577e-38
0.046428598 -0.035000004 0.75000012 1.0690625e-38
-0.02618192 -0.033258103 0.74300009 7.7466245e-39
-0.024733361 -0.03321334 0.74200004 7.4718327e-39
-0.023320019 -0.03321334 0.74200004 7.0991069e-39
-0.021847613 -0.033123828 0.74000007 6.4494397e-39
-0.02041048 -0.03307905 0.73900008 5.7154732e-39
-0.019002853 -0.03307905 0.73900002 4.147814e-39
-0.017523823 -0.032944761 0.73600006 2.4933248e-39
-0.016078068 -0.03285525 0.73400009 3.5996387e-39
-0.014639977 -0.032765724 0.73200011 4.700601e-39
-0.013245702 -0.032765724 0.73200005 4.1524705e-39
-0.011835277 -0.032720961 0.73100001 3.6007527e-39
-0.010414299 -0.03263142 0.72900003 3.6925994e-39
-0.0090257088 -0.03263142 0.72900009 3.785874e-39
-0.0076266592 -0.032586657 0.72800004 4.331869e-39
-0.0062399916 -0.032586657 0.72800004 4.8897133e-39
-0.0048533287 -0.032586657 0.72800004 5.9842227e-39
-0.0034571625 -0.03249713 0.72600001 7.0980966e-39
-0.0020714328 -0.032452382 0.72500002 9.4851118e-39
-0.00069045468 -0.032452367 0.72500002 1.1800403e-38
0.00069046573 -0.032452367 0.72500002 1.7334243e-38
0.0020714458 -0.032452382 0.72500002 2.2755778e-38
0.0034523681 -0.032452352 0.72500002 2.3050312e-38
0.0048333462 -0.032452367 0.72500002 2.332476e-38
0.0062142964 -0.032452382 0.72500002 2.3325854e-38
0.0075952187 -0.032452352 0.72500002 2.33115e-38
0.0089761987 -0.032452367 0.72500002 2.0837318e-38
0.010357121 -0.032452367 0.72500002 1.8237888e-38
0.011738097 -0.032452382 0.72500002 1.712433e-38
0.013119049 -0.032452382 0.72500008 1.5921465e-38
0.0145 -0.032452367 0.72500002 1.4969713e-38
0.015880952 -0.032452367 0.72500002 1.4066809e-38
0.017285697 -0.032497145 0.72600007 1.5809556e-38
0.018668571 -0.03249716 0.72600007 1.7554031e-38
0.02010667 -0.032586657 0.72800004 1.7833443e-38
0.021493336 -0.032586657 0.72800004 1.8010271e-38
0.022879999 -0.032586657 0.72800004 1.8275707e-38
0.024266666 -0.032586642 0.72800004 1.8469096e-38
0.025653329 -0.032586657 0.72800004 1.8478096e-38
0.027077142 -0.032631435 0.72900003 1.8484207e-38
0.028465731 -0.03263142 0.72900009 1.8398843e-38
0.029936165 -0.032720961 0.73100001 1.8216968e-38
0.031371433 -0.032765724 0.73200011 1.7483005e-38
0.032944743 -0.032944746 0.73600006 1.6656473e-38
0.034346681 -0.032944776 0.73600012 1.3896374e-38
0.035748567 -0.032944776 0.73600012 1.1144877e-38
0.037301894 -0.033079065 0.73900002 1.0505239e-38
0.038761914 -0.033123799 0.74000001 9.8630939e-39
0.040279996 -0.03321334 0.74200004 1.0322976e-38
0.041749522 -0.033258088 0.74300003 1.0783214e-38
0.043280952 -0.033347629 0.74500006 1.1337442e-38
0.044819992 -0.033437155 0.74700004 1.1884847e-38
0.046428602 -0.033571415 0.75000012 1.1148348e-38
-0.026181925 -0.03184285 0.74300003 7.4703852e-39
-0.024766659 -0.031842865 0.74300009 7.0969335e-39
-0.023319997 -0.031799994 0.74200004 6.7220526e-39
-0.021847602 -0.031714283 0.74000001 6.264303e-39
-0.020410474 -0.031671427 0.73900002 5.8040563e-39
-0.019002873 -0.031671442 0.73900002 3.9626899e-39
-0.017523805 -0.03154286 0.73600012 2.213847e-39
-0.016078088 -0.031457148 0.73400009 2.6733608e-39
-0.014640003 -0.031371422 0.73200011 3.1347145e-39
-0.01324573 -0.031371407 0.73200005 4.5165741e-39
-0.011835253 -0.031328581 0.73100001 5.9841652e-39
-0.010442874 -0.031328566 0.73100001 7.1870104e-39
-0.0090257265 -0.031242855 0.72900003 8.4701962e-39
-0.0076371366 -0.031242855 0.72900009 9.4018243e-39
-0.006240014 -0.031199999 0.72800004 1.0415638e-38
-0.0048533212 -0.031199984 0.72800004 1.1063903e-38
-0.0034666825 -0.031199984 0.72800004 1.1718623e-38
-0.0020714402 -0.031071417 0.72500002 1.2725976e-38
-0.00069046213 -0.031071417 0.72500002 1.3753054e-38
0.00069046201 -0.031071402 0.72500002 1.6508145e-38
0.0020714384 -0.031071432 0.72500002 1.9284375e-38
0.0034523606 -0.031071417 0.72500002 1.9456567e-38
0.0048333388 -0.031071417 0.72500002 1.9558447e-38
0.0062142909 -0.031071417 0.72500002 1.9433249e-38
0.0075952392 -0.031071417 0.72500002 1.9235937e-38
0.0089761913 -0.031071417 0.72500002 1.8031302e-38
0.01035714 -0.031071417 0.72500002 1.6806482e-38
0.01173809 -0.031071432 0.72500002 1.6725659e-38
0.01311907 -0.031071417 0.72500002 1.6530808e-38
0.014519971 -0.031114288 0.72600001 1.6445012e-38
0.015902845 -0.031114303 0.72600007 1.6358987e-38
0.01728572 -0.031114273 0.72600007 1.7376062e-38
0.018720012 -0.031199984 0.72800004 1.8481309e-38
0.020106675 -0.031199984 0.72800004 1.8387672e-38
0.021493345 -0.031199984 0.72800004 1.8298699e-38
0.022911416 -0.03124284 0.72900003 1.8285418e-38
0.024300007 -0.03124287 0.72900009 1.8280414e-38
0.025688568 -0.031242855 0.72900003 1.829227e-38
0.027077155 -0.031242855 0.72900009 1.8306281e-38
0.02854378 -0.031328566 0.73100001 1.8307379e-38
0.029936189 -0.031328566 0.73100001 1.821554e-38
0.031371433 -0.031371422 0.73200005 1.7299692e-38
0.032944757 -0.03154286 0.73600006 1.638383e-38
0.034346644 -0.03154286 0.73600006 1.389923e-38
0.035797138 -0.031585716 0.73700005 1.1512939e-38
0.037301898 -0.031671427 0.73900002 1.0780045e-38
0.038761925 -0.031714298 0.74000001 1.0046782e-38
0.040280011 -0.031800009 0.74200004 1.032299e-38
0.041749518 -0.031842865 0.74300009 1.059883e-38
0.043280955 -0.031928562 0.74500006 1.0966504e-38
0.044879992 -0.032057144 0.74800003 1.1240908e-38
0.046428576 -0.03214284 0.75000006 1.0780986e-38
-0.026181927 -0.030427627 0.74300003 7.097658e-39
-0.024766689 -0.030427627 0.74300003 6.7234973e-39
-0.023320006 -0.030386679 0.74200004 6.2646659e-39
-0.021906665 -0.030386664 0.74200004 6.0809823e-39
-0.020438096 -0.030304767 0.74000001 5.7990187e-39
-0.019002868 -0.030263819 0.73900008 3.8690397e-39
-0.017547594 -0.030181907 0.73700011 1.8436576e-39
-0.016078077 -0.030059062 0.73400009 1.6539091e-39
-0.014679985 -0.030059062 0.73400009 1.4874699e-39
-0.01324573 -0.029977135 0.73200005 4.9790264e-39
-0.011851425 -0.02997715 0.73200005 8.389878e-39
-0.01044288 -0.029936187 0.73100001 1.0784442e-38
-0.0090505015 -0.029936187 0.73100001 1.3089299e-38
-0.0076371506 -0.029854275 0.72900003 1.4573735e-38
-0.0062400056 -0.029813327 0.72800004 1.5945902e-38
-0.0048533119 -0.029813342 0.72800004 1.6136762e-38
-0.0034666751 -0.029813312 0.72800004 1.6313613e-38
-0.0020714477 -0.029690467 0.72500002 1.6038462e-38
-0.00069046771 -0.029690467 0.72500002 1.5662523e-38
0.00069045456 -0.029690482 0.72500002 1.5752936e-38
0.0020714309 -0.029690467 0.72500002 1.5750413e-38
0.003452383 -0.029690467 0.72500008 1.5749325e-38
0.0048333332 -0.029690467 0.72500002 1.5737833e-38
0.0062142853 -0.029690452 0.72500008 1.5428953e-38
0.0075952318 -0.029690467 0.72500002 1.5164923e-38
0.0089761838 -0.029690482 0.72500002 1.5337114e-38
0.010357164 -0.029690467 0.72500008 1.5429972e-38
0.011738084 -0.029690467 0.72500002 1.6348993e-38
0.013119062 -0.029690467 0.72500002 1.7181576e-38
0.014519999 -0.029731415 0.72600001 1.7921247e-38
0.015902849 -0.029731445 0.72600007 1.866064e-38
0.017333329 -0.029813342 0.72800004 1.9038073e-38
0.018719992 -0.029813327 0.72800004 1.9310703e-38
0.020106658 -0.029813327 0.72800004 1.8937255e-38
0.021493321 -0.029813327 0.72800004 1.8476274e-38
0.022911433 -0.02985429 0.72900009 1.8286854e-38
0.024299992 -0.02985429 0.72900003 1.8009928e-38
0.025688579 -0.02985429 0.72900009 1.810465e-38
0.02707714 -0.029854275 0.72900003 1.811865e-38
0.028543804 -0.029936202 0.73100001 1.8216237e-38
0.029936155 -0.029936187 0.73100001 1.8218039e-38
0.031371433 -0.029977135 0.73200005 1.7207857e-38
0.032855242 -0.030059032 0.73400003 1.6105451e-38
0.034393352 -0.030181892 0.73700005 1.3987834e-38
0.035797134 -0.030181892 0.73700005 1.1787364e-38
0.037301905 -0.030263819 0.73900008 1.0963709e-38
0.038866665 -0.030386664 0.74200004 1.0138251e-38
0.040279981 -0.030386664 0.74200004 1.0323703e-38
0.041749492 -0.030427627 0.74300003 1.0415165e-38
0.043280941 -0.030509524 0.74500006 1.0505551e-38
0.044820026 -0.030591436 0.74700004 1.0598086e-38
-0.026252367 -0.029090486 0.74500006 6.7285181e-39
-0.024766691 -0.029012375 0.74300003 6.2671925e-39
-0.023351453 -0.029012389 0.74300003 5.7158025e-39
-0.021906672 -0.028973334 0.74200004 5.7071734e-39
-0.020438086 -0.028895237 0.74000001 5.6971246e-39
-0.019002864 -0.028856196 0.73900002 6.2592527e-39
-0.017547598 -0.028778099 0.73700011 6.8013618e-39
-0.016078096 -0.02866096 0.73400009 7.6498284e-39
-0.014680001 -0.028660946 0.73400009 8.4881889e-39
-0.013281879 -0.028660946 0.73400009 1.014697e-38
-0.011851427 -0.028582864 0.73200005 1.1903717e-38
-0.010457152 -0.028582849 0.73200005 1.3005417e-38
-0.0090505052 -0.028543793 0.73100001 1.4120361e-38
-0.0076371683 -0.028465696 0.72900003 1.4662408e-38
-0.0062485784 -0.028465711 0.72900009 1.5310991e-38
-0.0048600193 -0.028465711 0.72900003 1.5298787e-38
-0.0034666676 -0.02842667 0.72800004 1.5391299e-38
-0.0020714272 -0.028309532 0.72500002 1.5282921e-38
-0.00069047516 -0.028309517 0.72500002 1.5177094e-38
0.00069047319 -0.028309502 0.72500002 1.572667e-38
0.0020743012 -0.028348558 0.72600007 1.6255418e-38
0.0034524035 -0.028309502 0.72500002 1.6453415e-38
0.0048333257 -0.028309502 0.72500002 1.6622712e-38
0.006214302 -0.028309517 0.72500002 1.6627352e-38
0.0075952243 -0.028309517 0.72500002 1.6627e-38
0.0089762043 -0.028309517 0.72500002 1.6810677e-38
0.010357156 -0.028309517 0.72500008 1.6900722e-38
0.011738079 -0.028309502 0.72500002 1.7273089e-38
0.013119055 -0.028309517 0.72500002 1.764903e-38
0.014519997 -0.028348573 0.72600007 1.8290433e-38
0.015902841 -0.028348558 0.72600001 1.902765e-38
0.017333338 -0.028426655 0.72800004 1.9496177e-38
0.018720001 -0.028426655 0.72800004 1.9958936e-38
0.020134268 -0.028465711 0.72900009 1.9122726e-38
0.021522857 -0.028465725 0.72900009 1.8381931e-38
0.022911416 -0.028465711 0.72900009 1.810103e-38
0.024300003 -0.028465711 0.72900009 1.7918808e-38
0.025688564 -0.028465725 0.72900009 1.8017833e-38
0.027077125 -0.028465711 0.72900003 1.8122225e-38
0.028543768 -0.028543793 0.73100001 1.8126171e-38
0.029936176 -0.028543808 0.73100001 1.8130497e-38
0.031371403 -0.028582864 0.73200005 1.6933427e-38
0.032855254 -0.02866096 0.73400009 1.574026e-38
0.034393322 -0.028778099 0.73700005 1.3531881e-38
0.035894282 -0.02885621 0.73900002 1.1327822e-38
0.037301883 -0.028856196 0.73900002 1.087079e-38
0.038866654 -0.028973348 0.74200004 1.0412676e-38
0.040279996 -0.028973334 0.74200004 1.0414457e-38
0.041749515 -0.029012375 0.74300003 1.0507366e-38
0.043164726 -0.029012375 0.74300003 1.0415168e-38
0.044820011 -0.029168583 0.74700004 1.0322246e-38
-0.02632287 -0.027745731 0.74700004 6.3600916e-39
-0.024833331 -0.027671449 0.74500006 5.8087227e-39
-0.023351455 -0.027597152 0.74300003 5.1630113e-39
-0.021906679 -0.027559988 0.74200004 5.3341323e-39
-0.020438077 -0.027485736 0.74000001 5.5357623e-39
-0.019002886 -0.027448572 0.73900002 8.6693123e-39
-0.017547606 -0.02737429 0.73700005 1.1706377e-38
-0.016121916 -0.027337156 0.73600012 1.3563211e-38
-0.014679992 -0.027262874 0.73400009 1.5393084e-38
-0.013281898 -0.027262844 0.73400009 1.5400595e-38
-0.011851429 -0.027188562 0.73200005 1.5394516e-38
-0.010457126 -0.027188577 0.73200011 1.5212659e-38
-0.0090505118 -0.027151413 0.73099995 1.5017494e-38
-0.0076581053 -0.027151428 0.73100001 1.4827709e-38
-0.0062485943 -0.027077131 0.72900003 1.4549315e-38
-0.0048600044 -0.027077131 0.72900009 1.4448134e-38
-0.0034666602 -0.027039982 0.72800004 1.435375e-38
-0.0020742938 -0.026965715 0.72600007 1.452411e-38
-0.00069144933 -0.026965715 0.72600001 1.4711388e-38
0.000691425 -0.026965715 0.72600007 1.5720523e-38
0.0020742696 -0.0269657 0.72600001 1.6725683e-38
0.0034571439 -0.026965715 0.72600007 1.7186645e-38
0.0048333202 -0.026928566 0.72500002 1.7554691e-38
0.0062228367 -0.026965715 0.72600007 1.7830901e-38
0.007605711 -0.02696573 0.72600007 1.8103176e-38
0.0089761987 -0.026928551 0.72500002 1.8286485e-38
0.010357151 -0.026928566 0.72500008 1.8375094e-38
0.011754274 -0.0269657 0.72600001 1.8193578e-38
0.013137149 -0.026965715 0.72600007 1.8012412e-38
0.014519993 -0.0269657 0.72600001 1.8746732e-38
0.015902841 -0.026965715 0.72600007 1.9395327e-38
0.017333344 -0.027039997 0.72800004 2.0051456e-38
0.018745719 -0.027077131 0.72900003 2.0599253e-38
0.020134307 -0.027077146 0.72900009 1.9396437e-38
0.02152284 -0.027077146 0.72900009 1.8195722e-38
0.022911398 -0.027077131 0.72900003 1.8000175e-38
0.024299989 -0.027077131 0.72900009 1.773224e-38
0.025759032 -0.027151413 0.73100001 1.7925277e-38
0.027151411 -0.027151413 0.73100007 1.8029308e-38
0.028543795 -0.027151428 0.73100001 1.8035765e-38
0.029936144 -0.027151413 0.73100001 1.8036499e-38
0.031457141 -0.027262859 0.73400009 1.6746875e-38
0.032944761 -0.027337141 0.73600012 1.537076e-38
0.034393348 -0.027374275 0.73700011 1.3163463e-38
0.035894286 -0.027448572 0.73900002 1.0869696e-38
0.037352379 -0.027485721 0.74000001 1.0778903e-38
0.03886665 -0.027560003 0.74200004 1.0597032e-38
0.040334273 -0.027597167 0.74300003 1.0597398e-38
0.041749515 -0.027597152 0.74300003 1.0599196e-38
0.043280952 -0.027671434 0.74500006 1.032513e-38
0.044820003 -0.027745716 0.74700004 1.0048536e-38
-0.026322851 -0.026322849 0.7470001 8.007381e-39
-0.024833323 -0.026252382 0.74500006 8.8450239e-39
-0.023351433 -0.026181914 0.74300003 9.6708582e-39
-0.021906657 -0.026146673 0.74200004 9.7691817e-39
-0.020438092 -0.02607619 0.74000001 9.8815154e-39
-0.019002851 -0.026040949 0.73900002 1.1166185e-38
-0.017547635 -0.025970481 0.73700005 1.2556998e-38
-0.016121928 -0.025935225 0.73600006 1.3281644e-38
-0.014719986 -0.025935225 0.73600012 1.4018434e-38
-0.013318101 -0.02593524 0.73600006 1.3912203e-38
-0.011883793 -0.025864772 0.73400009 1.3825754e-38
-0.010457153 -0.02579429 0.73200011 1.3811411e-38
-0.0090628788 -0.025794275 0.73200005 1.3796312e-38
-0.0076581072 -0.025759064 0.73100001 1.4444509e-38
-0.0062657306 -0.025759034 0.73100001 1.517163e-38
-0.0048733773 -0.025759034 0.73100001 1.4988646e-38
-0.003480969 -0.025759049 0.73100001 1.4795971e-38
-0.002080014 -0.025653325 0.72800004 1.5534208e-38
-0.00069331942 -0.025653325 0.72800004 1.6178174e-38
0.00069331744 -0.025653325 0.72800004 1.6821063e-38
0.0020800103 -0.025653325 0.72800004 1.746392e-38
0.003457142 -0.025582872 0.72600007 1.783665e-38
0.0048399866 -0.025582843 0.72600007 1.8118969e-38
0.0062228628 -0.025582857 0.72600007 1.8202549e-38
0.0076057073 -0.025582857 0.72600001 1.8381903e-38
0.0089761913 -0.025547616 0.72500002 1.8470138e-38
0.010357143 -0.025547631 0.72500008 1.8558389e-38
0.011738094 -0.025547616 0.72500002 1.8375796e-38
0.013137147 -0.025582857 0.72600007 1.8195352e-38
0.014519993 -0.025582843 0.72600007 1.874457e-38
0.015902869 -0.025582872 0.72600007 1.920374e-38
0.017333323 -0.025653325 0.72800004 1.9769812e-38
0.018745702 -0.025688551 0.72900003 2.0418432e-38
0.020134291 -0.025688581 0.72900003 1.9305316e-38
0.02158186 -0.025759049 0.73100001 1.8289682e-38
0.022974269 -0.025759034 0.73100001 1.8096262e-38
0.024366621 -0.025759034 0.73100001 1.7911579e-38
0.025759028 -0.025759064 0.73100001 1.8110739e-38
0.027151408 -0.025759034 0.73100001 1.8400592e-38
0.028543789 -0.025759049 0.73100007 1.8219429e-38
0.029977132 -0.025794275 0.73200005 1.8130479e-38
0.031457145 -0.025864758 0.73400003 1.6657539e-38
0.03294475 -0.02593524 0.73600006 1.5281071e-38
0.03439334 -0.025970496 0.73700011 1.2890468e-38
0.035894293 -0.026040964 0.73900002 1.0503762e-38
0.037352387 -0.02607619 0.74000001 1.0229273e-38
0.038866669 -0.026146688 0.7420001 1.0047422e-38
0.040334273 -0.026181899 0.74300009 1.0231477e-38
0.041861903 -0.026252396 0.74500006 1.0324403e-38
0.043280933 -0.026252382 0.74500006 9.8652393e-39
0.044819992 -0.026322879 0.74700004 9.4978861e-39
-0.026322836 -0.024900019 0.74700004 9.5858694e-39
-0.024833318 -0.024833336 0.74500006 1.1893247e-38
-0.023351433 -0.024766676 0.74300009 1.4190219e-38
-0.021906665 -0.024733327 0.74200004 1.4190228e-38
-0.020493325 -0.024733342 0.74200004 1.4197424e-38
-0.019002873 -0.024633341 0.73900002 1.3740061e-38
-0.017595248 -0.024633318 0.73900002 1.3267946e-38
-0.016143801 -0.024566673 0.73700011 1.2896279e-38
-0.014720025 -0.024533339 0.73600006 1.2515992e-38
-0.013318081 -0.024533346 0.73600012 1.2404393e-38
-0.011916196 -0.024533324 0.73600012 1.2234364e-38
-0.010485692 -0.024466679 0.73400009 1.2410153e-38
-0.0090628788 -0.024399988 0.73200005 1.2508432e-38
-0.0076685762 -0.024399996 0.73200005 1.416576e-38
-0.0062657343 -0.024366654 0.73100001 1.5724077e-38
-0.0048733577 -0.024366662 0.73100001 1.5538954e-38
-0.0034809783 -0.024366662 0.73099995 1.5260911e-38
-0.0020828582 -0.024300002 0.72900009 1.6455107e-38
-0.00069331384 -0.024266653 0.72800004 1.7647922e-38
0.00069332303 -0.024266653 0.72800004 1.7920947e-38
0.0020800158 -0.024266668 0.72800004 1.8199686e-38
0.0034666546 -0.024266653 0.72800004 1.8484881e-38
0.0048399884 -0.0242 0.72600007 1.866639e-38
0.0062228329 -0.024199992 0.72600001 1.8662077e-38
0.0076057073 -0.024200007 0.72600007 1.856555e-38
0.0089885518 -0.024199985 0.72600001 1.8653052e-38
0.010371426 -0.024200007 0.72600007 1.8649487e-38
0.0117543 -0.024200015 0.72600007 1.8556241e-38
0.013137121 -0.0242 0.72600007 1.8373279e-38
0.014519993 -0.024200007 0.72600007 1.8739896e-38
0.015946668 -0.02426666 0.72800004 1.9023315e-38
0.017357126 -0.024299994 0.72900003 1.9589773e-38
0.018745715 -0.024299979 0.72900009 2.0138642e-38
0.020189503 -0.024366662 0.73100001 1.9208457e-38
0.021581884 -0.024366662 0.73100001 1.8286481e-38
0.022974266 -0.024366669 0.73100007 1.818385e-38
0.024366641 -0.024366647 0.73100001 1.8006666e-38
0.025759021 -0.024366654 0.73100001 1.8388388e-38
0.027151402 -0.024366684 0.73100001 1.8672879e-38
0.028582854 -0.024399996 0.73200005 1.8402053e-38
0.02997716 -0.024400003 0.73200011 1.8126912e-38
0.031542856 -0.024533331 0.73600012 1.6654682e-38
0.032944743 -0.024533331 0.73600012 1.5187088e-38
0.034486674 -0.024633348 0.73900002 1.2613882e-38
0.035942875 -0.024666682 0.74000001 1.0044243e-38
0.03745335 -0.024733342 0.74200004 9.7708492e-39
0.038919028 -0.024766661 0.74300003 9.4964315e-39
0.040334273 -0.024766684 0.74300009 9.7733856e-39
0.04186191 -0.024833336 0.74500006 1.0048182e-38
0.043397132 -0.024900012 0.74700004 9.4964582e-39
0.044879988 -0.024933331 0.74800009 8.8546775e-39
-0.024833338 -0.023414291 0.74500006 1.272881e-38
-0.023351464 -0.023351431 0.74300003 1.3475676e-38
-0.021906672 -0.023320004 0.74200004 1.3275488e-38
-0.020438073 -0.023257144 0.74000001 1.3191536e-38
-0.019028576 -0.023257151 0.74000001 1.2616839e-38
-0.017595241 -0.023225725 0.73900002 1.2041024e-38
-0.01618764 -0.02322571 0.73900002 1.2227515e-38
-0.014739999 -0.023162864 0.73700005 1.2398254e-38
-0.013336161 -0.023162872 0.73700011 1.3048978e-38
-0.011916207 -0.023131423 0.73600006 1.3695069e-38
-0.010485711 -0.023068562 0.73400009 1.3789789e-38
-0.0090628518 -0.023005724 0.73200011 1.3885214e-38
-0.0076685762 -0.023005709 0.73200005 1.4988319e-38
-0.0062743025 -0.023005709 0.73200005 1.6182895e-38
-0.004879998 -0.023005717 0.73200005 1.6181815e-38
-0.003480982 -0.022974283 0.73100001 1.6181801e-38
-0.002082875 -0.022911437 0.72900003 1.6914676e-38
-0.00069333619 -0.022879988 0.72800004 1.7740855e-38
0.00069333235 -0.022879988 0.72800004 1.7921674e-38
0.0020799953 -0.022879988 0.72800004 1.8194669e-38
0.003466662 -0.022879988 0.72800004 1.8479143e-38
0.0048399828 -0.022817142 0.72600001 1.8756429e-38
0.0062228572 -0.02281715 0.72600007 1.8660991e-38
0.0076057315 -0.022817157 0.72600007 1.856445e-38
0.0089885499 -0.022817142 0.72600007 1.8559384e-38
0.010371426 -0.02281715 0.72600007 1.846257e-38
0.011754271 -0.022817142 0.72600001 1.8462613e-38
0.013137145 -0.02281715 0.72600007 1.8460448e-38
0.014519989 -0.022817142 0.72600001 1.8739528e-38
0.015946675 -0.02288001 0.72800004 1.9019028e-38
0.017333338 -0.022879995 0.72800004 1.9585513e-38
0.018745702 -0.022911422 0.72900003 2.0051851e-38
0.020134291 -0.022911422 0.72900009 1.9121642e-38
0.021581879 -0.02297429 0.73100001 1.819862e-38
0.022974256 -0.02297429 0.73100001 1.8097452e-38
0.024366667 -0.022974297 0.73100001 1.8093144e-38
0.025794303 -0.023005702 0.73200011 1.8203631e-38
0.027188579 -0.023005702 0.73200005 1.8397741e-38
0.028582852 -0.023005702 0.73200005 1.8124782e-38
0.030059049 -0.023068585 0.73400009 1.7942186e-38
0.031542849 -0.023131423 0.73600006 1.6564292e-38
0.032944761 -0.023131438 0.73600012 1.5188886e-38
0.034486648 -0.02322571 0.73900002 1.2522401e-38
0.035894275 -0.023225702 0.73900002 9.9513463e-39
0.037453339 -0.023320004 0.74200004 9.8612848e-39
0.038866654 -0.023320004 0.74200004 9.8627197e-39
0.040279996 -0.023320004 0.74200004 1.0139302e-38
0.041861888 -0.023414299 0.74500006 1.0415168e-38
0.043397151 -0.023477145 0.7470001 9.8641547e-39
0.04488001 -0.023508571 0.74800009 9.4060492e-39
-0.023414275 -0.021995239 0.74500006 1.271476e-38
-0.021936227 -0.021936193 0.74300003 1.2428461e-38
-0.02049334 -0.021906666 0.74200004 1.2057159e-38
-0.019028565 -0.021847621 0.74000001 1.1402458e-38
-0.017595261 -0.021818101 0.73900002 1.0754196e-38
-0.016187634 -0.021818079 0.73900002 1.1574943e-38
-0.014739973 -0.021759056 0.73700011 1.2313933e-38
-0.013336166 -0.021759041 0.73700011 1.3697564e-38
-0.011932384 -0.021759048 0.73700011 1.5075114e-38
-0.010514302 -0.021729521 0.73600006 1.5168046e-38
-0.0090876063 -0.021670476 0.73400009 1.5168403e-38
-0.0076895142 -0.021670468 0.73400009 1.5903446e-38
-0.0062742736 -0.021611415 0.73200011 1.6548449e-38
-0.0048799999 -0.021611415 0.73200005 1.6823959e-38
-0.0034856945 -0.02161143 0.73200011 1.709766e-38
-0.0020828601 -0.021522842 0.72900009 1.7463916e-38
-0.00069430104 -0.021522857 0.72900009 1.7740154e-38
0.00069428788 -0.021522865 0.72900009 1.8013881e-38
0.0020828471 -0.021522842 0.72900009 1.8197558e-38
0.003471408 -0.021522842 0.72900003 1.8572439e-38
0.0048533343 -0.021493331 0.72800004 1.8846132e-38
0.0062399991 -0.021493323 0.72800004 1.8752483e-38
0.007626662 -0.021493316 0.72800004 1.8563764e-38
0.0090133287 -0.021493338 0.72800004 1.8466165e-38
0.010399992 -0.021493323 0.72800004 1.8281438e-38
0.011786684 -0.021493331 0.72800004 1.8463336e-38
0.013173323 -0.021493323 0.72800004 1.8554446e-38
0.014560016 -0.021493323 0.72800004 1.8830303e-38
0.015968563 -0.021522865 0.72900009 1.9022969e-38
0.017357126 -0.021522857 0.72900003 1.9497957e-38
0.018745715 -0.021522857 0.72900009 1.9954972e-38
0.020189492 -0.021581903 0.73100001 1.9026922e-38
0.021581871 -0.021581896 0.73100001 1.8101384e-38
0.023005726 -0.02161143 0.73200005 1.8097431e-38
0.024399973 -0.02161143 0.73200005 1.8101745e-38
0.025864771 -0.021670468 0.73400003 1.8118974e-38
0.02726287 -0.021670491 0.73400009 1.8030392e-38
0.028739041 -0.021729514 0.73600006 1.7848183e-38
0.030140957 -0.021729514 0.73600012 1.7666301e-38
0.031542841 -0.021729536 0.73600012 1.6379884e-38
0.032989521 -0.021759048 0.73700005 1.5093466e-38
0.034626674 -0.021906666 0.74200004 1.2519556e-38
0.036039993 -0.021906666 0.74200004 9.8588017e-39
0.037453335 -0.021906681 0.74200004 1.0043873e-38
0.038866647 -0.021906666 0.74200004 1.01375e-38
0.040334266 -0.021936186 0.74300003 1.0413723e-38
0.0417495 -0.021936186 0.74300003 1.0689573e-38
0.04339717 -0.0220543 0.74700004 1.0322217e-38
0.044880006 -0.022083811 0.74800009 9.9559593e-39
0.046304777 -0.022083804 0.74800009 1.0048878e-38
-0.023414293 -0.020576186 0.74500006 1.1404983e-38
-0.021936204 -0.020520963 0.74300003 1.1587172e-38
-0.020493349 -0.020493321 0.74200004 1.1757551e-38
-0.019080004 -0.020493336 0.74200004 1.1580318e-38
-0.01761906 -0.020438097 0.74000001 1.1396273e-38
-0.016187629 -0.020410471 0.73900002 1.2222417e-38
-0.014739978 -0.02035524 0.73700011 1.3053618e-38
-0.01333617 -0.020355247 0.73700005 1.4065261e-38
-0.011932388 -0.020355232 0.73700005 1.5075834e-38
-0.010514283 -0.020327628 0.73600006 1.5258452e-38
-0.0091123972 -0.02032762 0.73600006 1.5441044e-38
-0.007689503 -0.020272404 0.73400009 1.5995281e-38
-0.0062742755 -0.020217128 0.73200005 1.6549172e-38
-0.0048799999 -0.020217128 0.73200005 1.6823252e-38
-0.0034856964 -0.02021715 0.73200005 1.709409e-38
-0.002088584 -0.020189516 0.73100001 1.737246e-38
-0.00069431594 -0.020134285 0.72900003 1.7742323e-38
0.00069427484 -0.020134285 0.72900009 1.7923133e-38
0.0020828322 -0.02013427 0.72900003 1.8100359e-38
0.0034714211 -0.020134278 0.72900009 1.8660352e-38
0.0048599821 -0.020134278 0.72900003 1.9119147e-38
0.006248571 -0.02013427 0.72900009 1.8842539e-38
0.0076371301 -0.020134285 0.72900003 1.8655992e-38
0.0090257209 -0.020134293 0.72900009 1.8469087e-38
0.010414278 -0.020134278 0.72900003 1.8376531e-38
0.011802867 -0.020134285 0.72900009 1.8465493e-38
0.013191428 -0.020134278 0.72900003 1.8647367e-38
0.014580017 -0.020134285 0.72900009 1.8831752e-38
0.015968552 -0.020134293 0.72900003 1.9019376e-38
0.017357141 -0.020134293 0.72900009 1.9492908e-38
0.018797109 -0.020189531 0.73100001 1.9957821e-38
0.020189518 -0.020189524 0.73100001 1.8934353e-38
0.021581896 -0.020189509 0.73100001 1.800092e-38
0.0230057 -0.020217136 0.73200005 1.8003062e-38
0.024400001 -0.02021715 0.73200011 1.8004878e-38
0.025864782 -0.020272389 0.73400009 1.7928131e-38
0.027337151 -0.020327628 0.73600012 1.7848151e-38
0.028739037 -0.02032762 0.73600012 1.7756689e-38
0.030181928 -0.020355247 0.73700011 1.7668436e-38
0.031585708 -0.020355232 0.73700011 1.6381657e-38
0.032989517 -0.020355217 0.73700005 1.5182793e-38
0.034626666 -0.020493321 0.74200004 1.2522093e-38
0.036039982 -0.020493358 0.74200004 9.9513645e-39
0.037453324 -0.020493336 0.74200004 1.0044223e-38
0.03891905 -0.020520955 0.74300003 1.0137132e-38
0.040334262 -0.020520963 0.74300003 1.0229682e-38
0.04197428 -0.020631425 0.74700004 1.0413325e-38
0.043455254 -0.020659037 0.74800009 1.0138506e-38
0.044880025 -0.020659052 0.74800009 9.7715443e-39
-0.023414286 -0.019157149 0.74500006 1.0123932e-38
-0.021936208 -0.019105725 0.74300003 1.0757428e-38
-0.020493327 -0.019080006 0.74200004 1.1399535e-38
-0.019080011 -0.019080013 0.74200004 1.1764342e-38
-0.017619051 -0.019028567 0.74000001 1.2040909e-38
-0.016187625 -0.01900284 0.73900002 1.2865261e-38
-0.014780024 -0.019002855 0.73900002 1.3696099e-38
-0.013336175 -0.018951416 0.73700005 1.4341473e-38
-0.011932394 -0.018951431 0.73700005 1.4982551e-38
-0.010514291 -0.018925734 0.73600012 1.5349198e-38
-0.0091123786 -0.018925712 0.73600006 1.5625069e-38
-0.0076895226 -0.018874303 0.73400009 1.6087482e-38
-0.0062743016 -0.018822849 0.73200005 1.6456984e-38
-0.004879998 -0.018822864 0.73200011 1.6733575e-38
-0.0034857225 -0.018822864 0.73200005 1.700547e-38
-0.0020886194 -0.018797144 0.73100001 1.7373147e-38
-0.00069621211 -0.018797144 0.73100001 1.7742299e-38
0.00069425622 -0.01874572 0.72900003 1.7927781e-38
0.0020828471 -0.018745705 0.72900009 1.8017835e-38
0.0034714062 -0.018745713 0.72900003 1.8756838e-38
0.0048599951 -0.018745713 0.72900009 1.9396801e-38
0.0062485542 -0.018745698 0.72900003 1.9025498e-38
0.0076371431 -0.01874572 0.72900009 1.8655636e-38
0.0090257023 -0.01874572 0.72900003 1.8561641e-38
0.010414293 -0.018745713 0.72900009 1.8466925e-38
0.011802852 -0.018745705 0.72900003 1.855839e-38
0.013191439 -0.01874572 0.72900009 1.864662e-38
0.01458 -0.018745698 0.72900003 1.8829914e-38
0.015968589 -0.018745713 0.72900009 1.9020059e-38
0.017404722 -0.018797129 0.73100001 1.9496113e-38
0.018797131 -0.018797122 0.73100001 1.9861301e-38
0.020189509 -0.018797137 0.73100001 1.8934692e-38
0.02158189 -0.018797152 0.73100001 1.7913385e-38
0.023005726 -0.018822841 0.73200011 1.7908369e-38
0.024400001 -0.018822849 0.73200005 1.7821581e-38
0.025864763 -0.018874288 0.73400009 1.7740532e-38
0.027337139 -0.018925712 0.73600006 1.7661253e-38
0.028739056 -0.018925726 0.73600012 1.7661613e-38
0.030181924 -0.018951416 0.73700005 1.7672044e-38
0.031585705 -0.018951423 0.73700005 1.6479288e-38
0.032989539 -0.018951431 0.73700011 1.5193224e-38
0.034626659 -0.019079998 0.74200004 1.2617874e-38
0.036039975 -0.019080006 0.74200004 1.0045355e-38
0.037453316 -0.019079998 0.74200004 1.0044947e-38
0.03891905 -0.019105725 0.74300003 1.0045659e-38
0.040334288 -0.019105725 0.74300003 1.0137489e-38
0.04203045 -0.019234285 0.74800003 1.0138543e-38
0.043455221 -0.019234277 0.74800003 9.8637315e-39
0.044999991 -0.019285709 0.75000006 9.5882404e-39
-0.023477139 -0.017785728 0.7470001 1.1608348e-38
-0.021995222 -0.017738104 0.74500006 1.25206e-38
-0.02052097 -0.017690495 0.74300009 1.3522512e-38
-0.019080019 -0.017666675 0.74200004 1.3707588e-38
-0.017666677 -0.01766666 0.74200004 1.3882636e-38
-0.016187618 -0.017595246 0.73900002 1.4163508e-38
-0.014780017 -0.017595239 0.73900002 1.4431851e-38
-0.013336206 -0.017547615 0.73700005 1.4803149e-38
-0.011932368 -0.01754763 0.73700011 1.5162981e-38
-0.0105143 -0.017523803 0.73600006 1.5347033e-38
-0.0091124149 -0.017523818 0.73600006 1.5531079e-38
-0.0076895412 -0.017476201 0.73400009 1.5997087e-38
-0.0062743053 -0.017428569 0.73200005 1.6456989e-38
-0.0048800008 -0.017428577 0.73200011 1.6637797e-38
-0.0034857281 -0.017428562 0.73200005 1.6821069e-38
-0.002088597 -0.017404757 0.73100001 1.7188369e-38
-0.0006962177 -0.01740475 0.73099995 1.7558605e-38
0.0006942972 -0.017357156 0.72900009 1.7743017e-38
0.0020885412 -0.01740475 0.73100001 1.8020333e-38
0.0034714192 -0.017357141 0.72900009 1.8389123e-38
0.0048599802 -0.017357148 0.72900003 1.8849013e-38
0.0062485691 -0.017357133 0.72900009 1.8564531e-38
0.0076371282 -0.017357133 0.72900003 1.8287221e-38
0.0090257172 -0.017357156 0.72900009 1.8190353e-38
0.010414276 -0.017357133 0.72900003 1.8095989e-38
0.011802865 -0.017357148 0.72900009 1.8186728e-38
0.013191426 -0.017357126 0.72900003 1.8275662e-38
0.014580015 -0.017357141 0.72900009 1.8460018e-38
0.015968574 -0.017357148 0.72900003 1.8642998e-38
0.017404748 -0.01740475 0.73100001 1.9023997e-38
0.018797098 -0.017404757 0.73100001 1.9403177e-38
0.020189503 -0.01740475 0.73100001 1.8929651e-38
0.021581884 -0.017404757 0.73100001 1.8462602e-38
0.023005722 -0.017428555 0.73200011 1.8559479e-38
0.0244 -0.017428569 0.73200005 1.8643092e-38
0.025864774 -0.017476201 0.73400009 1.8853696e-38
0.027337132 -0.01752381 0.73600012 1.9047397e-38
0.028739044 -0.01752381 0.73600006 1.9058144e-38
0.03018189 -0.017547622 0.73700005 1.896996e-38
0.031585727 -0.017547615 0.73700011 1.7409537e-38
0.033079047 -0.017595246 0.73900008 1.5849374e-38
0.034626652 -0.01766666 0.74200004 1.280585e-38
0.036039967 -0.017666668 0.74200004 9.8634807e-39
0.037503783 -0.01769048 0.74300003 9.9545524e-39
0.039023802 -0.017738104 0.74500006 1.0046738e-38
0.040551409 -0.017785728 0.74700004 1.0138924e-38
0.042030469 -0.017809518 0.74800003 1.023182e-38
0.043455243 -0.017809525 0.74800003 9.77191e-39
0.044879988 -0.01780951 0.74800009 9.404938e-39
-0.023571398 -0.016428567 0.75000012 1.2994165e-38
-0.022054275 -0.016362861 0.7470001 1.4285256e-38
-0.020576186 -0.016319051 0.74500006 1.5564488e-38
-0.01910571 -0.016275249 0.74300009 1.5660622e-38
-0.017666684 -0.01625333 0.74200004 1.5652367e-38
-0.01618764 -0.016187623 0.73900002 1.5474432e-38
-0.014780014 -0.016187608 0.73900002 1.5189955e-38
-0.013372414 -0.016187616 0.73900002 1.5276408e-38
-0.011932373 -0.016143814 0.73700011 1.5363937e-38
-0.010528565 -0.016143806 0.73700005 1.5344923e-38
-0.0091123953 -0.016121909 0.73600006 1.5360351e-38
-0.0077104848 -0.016121894 0.73600006 1.5912085e-38
-0.0062914379 -0.016078085 0.73400009 1.6372704e-38
-0.0048933448 -0.0160781 0.73400003 1.6448046e-38
-0.0034857281 -0.016034275 0.73200005 1.6547388e-38
-0.0020885728 -0.016012378 0.73100001 1.6908964e-38
-0.00069622142 -0.016012371 0.73100001 1.7286007e-38
0.00069615612 -0.016012371 0.73099995 1.7649058e-38
0.0020885393 -0.016012378 0.73100001 1.8021426e-38
0.0034714304 -0.015968569 0.72900003 1.8113623e-38
0.0048599914 -0.015968576 0.72900009 1.8204006e-38
0.0062656756 -0.016012385 0.73100001 1.8003815e-38
0.0076371413 -0.015968569 0.72900009 1.7827306e-38
0.0090257004 -0.015968569 0.72900003 1.7816533e-38
0.010414291 -0.015968576 0.72900009 1.7731518e-38
0.011835221 -0.016012385 0.73100001 1.7816542e-38
0.013227575 -0.016012363 0.73100001 1.7916618e-38
0.014619982 -0.016012378 0.73100001 1.8092029e-38
0.016012361 -0.016012378 0.73100001 1.8287909e-38
0.017404741 -0.016012371 0.73100007 1.8645938e-38
0.018797118 -0.016012378 0.73100001 1.8942245e-38
0.020189499 -0.016012371 0.73099995 1.8918563e-38
0.02161145 -0.016034298 0.73200011 1.8944436e-38
0.023005722 -0.016034275 0.73200005 1.9223214e-38
0.024466692 -0.0160781 0.73400009 1.9508426e-38
0.025864782 -0.0160781 0.73400009 1.9984125e-38
0.027337121 -0.016121894 0.73600006 2.0450114e-38
0.028739037 -0.016121909 0.73600012 2.0370471e-38
0.030181916 -0.016143806 0.73700011 2.0267898e-38
0.031585723 -0.016143814 0.73700011 1.8339733e-38
0.03307905 -0.016187616 0.73900002 1.6397158e-38
0.03462667 -0.01625333 0.74200004 1.3076334e-38
0.036088564 -0.016275242 0.74300003 9.6790894e-39
0.037503805 -0.016275227 0.74300003 9.8627127e-39
0.038919017 -0.016275249 0.74300003 1.0046737e-38
0.040551454 -0.016362868 0.7470001 1.0139642e-38
0.042030491 -0.016384766 0.74800009 1.0231108e-38
0.043455236 -0.016384758 0.74800009 9.6786522e-39
0.04488001 -0.016384751 0.74800009 9.1290797e-39
-0.023634262 -0.015039988 0.75200009 8.12656e-39
-0.022083811 -0.014959984 0.74800009 9.6863551e-39
-0.020576181 -0.014899999 0.74500006 1.1259053e-38
-0.019157151 -0.014899999 0.74500006 1.097567e-38
-0.017690474 -0.014860012 0.74300009 1.0795952e-38
-0.016209524 -0.014800005 0.74000001 1.1988386e-38
-0.014799971 -0.014800005 0.74000001 1.3189408e-38
-0.013372378 -0.01478 0.73900002 1.4193843e-38
-0.011932376 -0.014739998 0.73700011 1.5304454e-38
-0.010514319 -0.01472 0.73600006 1.575069e-38
-0.0091123767 -0.014719993 0.73600012 1.6213805e-38
-0.0076895244 -0.014680006 0.73400009 1.6947044e-38
-0.0062914006 -0.014679998 0.73400009 1.7591336e-38
-0.0048933337 -0.014680006 0.73400009 1.7490539e-38
-0.0034952424 -0.014680013 0.73400009 1.7481201e-38
-0.0020914245 -0.014639989 0.73200005 1.8313449e-38
-0.00069619907 -0.014619999 0.73100001 1.9231092e-38
0.00069615239 -0.014619999 0.73100001 1.9231815e-38
0.0020885617 -0.014620006 0.73100001 1.9221404e-38
0.0034809392 -0.014619984 0.73100001 1.9783886e-38
0.0048732907 -0.014619999 0.73100001 2.0236937e-38
0.0062656999 -0.014619991 0.73100001 2.014579e-38
0.0076580774 -0.014619984 0.73100001 2.0047842e-38
0.0090504587 -0.014620006 0.73100001 1.9958143e-38
0.010442836 -0.014619991 0.73100001 1.9860237e-38
0.011835217 -0.014619999 0.73100007 1.9777398e-38
0.013227597 -0.014620006 0.73100001 1.9686652e-38
0.014619974 -0.014619991 0.73099995 2.0058668e-38
0.016012358 -0.014619999 0.73100001 2.0433545e-38
0.017404733 -0.014619984 0.73100001 2.0803758e-38
0.018797142 -0.014619999 0.73100001 2.1096831e-38
0.020189494 -0.014619984 0.73100001 2.0715486e-38
0.021611424 -0.014639996 0.73200011 2.0366507e-38
0.023068575 -0.014680006 0.73400009 2.0448724e-38
0.024466671 -0.014679998 0.73400009 2.0641733e-38
0.025935231 -0.01472 0.73600012 2.0825774e-38
0.027337143 -0.01472 0.73600006 2.1020214e-38
0.028739026 -0.01472 0.73600006 2.073718e-38
0.030181915 -0.014739998 0.73700011 2.0361211e-38
0.031585719 -0.014740005 0.73700011 1.787446e-38
0.033079028 -0.01478 0.73900002 1.5384099e-38
0.034626666 -0.014839999 0.74200004 1.2527831e-38
0.036088564 -0.014860004 0.74300003 9.6794467e-39
0.037503805 -0.014859997 0.74300003 9.5875608e-39
0.039023817 -0.014900006 0.74500006 9.4953623e-39
0.040551443 -0.014940009 0.74700004 9.8641351e-39
0.042030487 -0.014960006 0.74800009 1.013928e-38
0.043455258 -0.014959998 0.74800009 9.7715751e-39
-0.026534306 -0.013625704 0.75300002 1.0783662e-38
-0.025100028 -0.013625711 0.75300002 7.0043918e-39
-0.023634277 -0.013607621 0.75200009 3.1512582e-39
-0.022142859 -0.013571419 0.75000006 4.9825984e-39
-0.020631421 -0.013517141 0.74700004 6.8293766e-39
-0.019157141 -0.013480946 0.74500006 6.3705817e-39
-0.017690506 -0.013444752 0.74300003 5.818861e-39
-0.016209539 -0.013390481 0.74000001 8.4935797e-39
-0.014799986 -0.013390489 0.74000007 1.1158244e-38
-0.013372401 -0.013372377 0.73900002 1.3187952e-38
-0.01193238 -0.013336197 0.73700005 1.5116855e-38
