# .PCD v0.7 - Point Cloud Data file format
VERSION 0.7
FIELDS x y z rgb
SIZE 4 4 4 4
TYPE F F F F
COUNT 1 1 1 1
WIDTH 951
HEIGHT 1
VIEWPOINT 0 0 0 1 0 0 0
POINTS 951
DATA ascii
0.020051429 -0.046325728 0.72600001 9.7350558e-39
0.02143429 -0.046325743 0.72600007 1.1508986e-38
0.022817126 -0.046325743 0.72600007 1.3073415e-38
0.024266681 -0.046453357 0.72800004 1.4648677e-38
0.025653325 -0.046453357 0.72800004 1.6045648e-38
0.027039995 -0.046453357 0.72800004 1.7325922e-38
0.02842669 -0.046453357 0.72800004 1.7142568e-38
0.029854292 -0.046517164 0.72900009 1.687504e-38
0.031242842 -0.046517164 0.72900009 1.9560599e-38
0.032720968 -0.046644762 0.73100001 2.221163e-38
0.034113351 -0.046644777 0.73100001 2.0098695e-38
0.03555429 -0.046708584 0.73200005 1.7983246e-38
0.036948562 -0.046708599 0.73200011 1.6874758e-38
0.038447618 -0.046836212 0.73400003 1.5768027e-38
0.039954297 -0.046963826 0.73600006 1.3188699e-38
0.041356213 -0.046963811 0.73600006 1.0511066e-38
0.042758122 -0.046963811 0.73600006 1.0412358e-38
0.044219986 -0.047027633 0.73700005 1.0322636e-38
0.045747623 -0.047155246 0.73900002 1.0324749e-38
0.047346674 -0.047346681 0.74200004 1.0232911e-38
0.048825711 -0.047410503 0.74300009 9.9566838e-39
0.05037621 -0.047538102 0.74500006 9.6804585e-39
0.051934298 -0.04766573 0.74700004 1.0506618e-38
0.053357169 -0.04766573 0.74700004 1.1333489e-38
-0.023571413 -0.046428576 0.75000006 1.5953043e-38
-0.022142852 -0.046428591 0.75000006 1.5847504e-38
-0.020714292 -0.046428606 0.75000006 1.5855097e-38
-0.019157138 -0.046119064 0.74500006 1.6403297e-38
-0.01773808 -0.046119064 0.74500006 1.6862742e-38
-0.016275227 -0.045995235 0.74300003 1.5730849e-38
-0.014800008 -0.045809537 0.74000007 1.45604e-38
-0.013372372 -0.045747638 0.73900002 1.6679168e-38
-0.011964757 -0.045747638 0.73900002 1.8799681e-38
-0.010528582 -0.045623839 0.73700005 1.9455491e-38
-0.009112373 -0.045561925 0.73600006 2.0091745e-38
-0.007689517 -0.045438111 0.73400003 1.380805e-38
-0.0062742857 -0.045314282 0.73200011 7.444129e-39
-0.0048799943 -0.045314297 0.73200005 8.1838255e-39
-0.0034809622 -0.045252398 0.73100007 9.0186112e-39
-0.0020828655 -0.045128569 0.72900009 9.8469397e-39
-0.00069332845 -0.045066684 0.72800004 1.0675986e-38
0.00069141504 -0.044942871 0.72600007 1.0859672e-38
0.0020742847 -0.044942871 0.72600001 1.1134453e-38
0.0034571339 -0.044942856 0.72600007 1.0491236e-38
0.0048399968 -0.044942886 0.72600007 9.9395235e-39
0.0062228525 -0.044942856 0.72600001 1.0492706e-38
0.007626683 -0.045066684 0.72800004 1.1046216e-38
0.0090133278 -0.045066684 0.72800004 1.1137679e-38
0.0104 -0.045066699 0.7280001 1.1322775e-38
0.011802867 -0.045128584 0.72900009 1.0482971e-38
0.013191416 -0.045128584 0.72900003 9.5545588e-39
0.014579992 -0.045128584 0.72900009 1.0383575e-38
0.01596857 -0.045128584 0.72900009 1.129616e-38
0.017333327 -0.045066684 0.72800004 1.1952609e-38
0.018719999 -0.045066699 0.72800004 1.2680242e-38
0.020106692 -0.045066684 0.72800004 1.3902924e-38
0.021434268 -0.044942871 0.72600007 1.5118665e-38
0.022817152 -0.044942856 0.72600001 1.5672904e-38
0.024200017 -0.044942871 0.72600001 1.6236154e-38
0.025653325 -0.04506667 0.72800004 1.5773789e-38
0.027039999 -0.04506667 0.72800004 1.5321772e-38
0.028465725 -0.045128569 0.72900003 1.4846436e-38
0.029854275 -0.045128599 0.72900009 1.438406e-38
0.031242851 -0.045128599 0.72900009 1.6412362e-38
0.032720946 -0.045252398 0.73100001 1.8423056e-38
0.034113333 -0.045252398 0.73100001 1.733143e-38
0.035554282 -0.045314282 0.73200011 1.6224732e-38
0.037049521 -0.045438111 0.73400003 1.4571325e-38
0.0384476 -0.045438111 0.73400009 1.3010433e-38
0.039954279 -0.045561925 0.73600006 1.0790189e-38
0.041356187 -0.045561895 0.73600006 8.5749503e-39
0.042816184 -0.045623839 0.73700005 9.3113606e-39
0.044219978 -0.045623839 0.73700011 9.9549168e-39
0.045747627 -0.045747623 0.73900002 1.0048177e-38
0.047346685 -0.045933351 0.74200004 1.0233282e-38
0.048825707 -0.04599528 0.74300009 1.0140009e-38
0.050376181 -0.046119064 0.74500012 1.0046403e-38
0.051934287 -0.046242863 0.74700004 1.0505962e-38
0.053357158 -0.046242878 0.74700004 1.0965474e-38
-0.023571419 -0.045000002 0.75000006 1.6962908e-38
-0.022142859 -0.045000002 0.75000006 1.8163918e-38
-0.020714287 -0.045000017 0.75000012 1.9262382e-38
-0.019234285 -0.044880033 0.74800003 1.9083401e-38
-0.017738096 -0.044700012 0.74500012 1.8783774e-38
-0.016275229 -0.044580013 0.74300003 1.6622686e-38
-0.014800012 -0.044400021 0.74000007 1.445782e-38
-0.013372372 -0.044340014 0.73900002 1.6677381e-38
-0.011964757 -0.044340029 0.73900008 1.8801477e-38
-0.010528583 -0.044220015 0.73700005 1.9559159e-38
-0.0091123683 -0.044160023 0.73600006 2.017639e-38
-0.0077209473 -0.04422003 0.73700005 1.370758e-38
-0.006274295 -0.04392004 0.73200011 7.2643845e-39
-0.0048800036 -0.04392001 0.73200011 7.9047204e-39
-0.0034809464 -0.043860018 0.73100001 8.4640025e-39
-0.0020828571 -0.043740004 0.72900009 9.7550986e-39
-0.00069332845 -0.043680012 0.72800004 1.0949317e-38
0.00069142901 -0.043560013 0.72600001 1.0672375e-38
0.0020742782 -0.043560013 0.72600007 1.0396853e-38
0.0034571404 -0.043560013 0.72600007 1.0581226e-38
0.0048399968 -0.043560013 0.72600001 1.0673456e-38
0.0062400103 -0.043680012 0.72800004 1.0764612e-38
0.007626683 -0.043680012 0.72800004 1.0766028e-38
0.0090133268 -0.043680012 0.72800004 1.0399382e-38
0.010414298 -0.043740019 0.72900003 1.0026319e-38
0.011802847 -0.043740034 0.72900003 9.0003621e-39
0.013191424 -0.043740034 0.72900003 7.9112631e-39
0.014580001 -0.043740019 0.72900009 1.0104208e-38
0.015968578 -0.043740019 0.72900009 1.2336606e-38
0.017357128 -0.043740019 0.72900009 1.4918769e-38
0.018719997 -0.043680027 0.7280001 1.7411302e-38
0.020106692 -0.043680012 0.72800004 1.8077528e-38
0.021493336 -0.043679997 0.72800004 1.8624593e-38
0.022880007 -0.043680012 0.72800004 1.8263348e-38
0.024266679 -0.043679997 0.72800004 1.7792345e-38
0.025653325 -0.043680012 0.72800004 1.5583284e-38
0.027039995 -0.043680027 0.72800004 1.3284528e-38
0.028465707 -0.043740019 0.72900003 1.2536572e-38
0.029854283 -0.043740019 0.72900003 1.1811238e-38
0.031328559 -0.043860033 0.73100001 1.318987e-38
0.032720946 -0.043860033 0.73100001 1.4571694e-38
0.034160003 -0.04392001 0.73200005 1.448666e-38
0.03565143 -0.044040024 0.73400009 1.4381528e-38
0.037150487 -0.044160008 0.73600006 1.2266419e-38
0.038552396 -0.044160008 0.73600006 1.0144829e-38
0.040008564 -0.044220015 0.73700005 8.3859179e-39
0.041412383 -0.044220015 0.73700011 6.6467426e-39
0.042816199 -0.044220015 0.73700005 8.1189397e-39
0.044340011 -0.044340014 0.73900002 9.5875608e-39
0.045747641 -0.044340029 0.73900002 9.8626791e-39
0.047410458 -0.044580027 0.74300003 1.0139635e-38
0.048825707 -0.044580013 0.74300003 1.0324038e-38
0.050376199 -0.044700027 0.74500006 1.0414453e-38
0.051934298 -0.044820026 0.74700004 1.0505586e-38
0.053357147 -0.044820011 0.74700004 1.0598132e-38
-0.022142854 -0.043571457 0.75000006 1.5302028e-38
-0.020714294 -0.043571457 0.75000006 1.6049262e-38
-0.019234298 -0.043455258 0.74800009 1.6965099e-38
-0.017738093 -0.043280959 0.74500006 1.7881942e-38
-0.016275251 -0.04316479 0.74300009 1.6381644e-38
-0.014860018 -0.043164805 0.74300009 1.5021047e-38
-0.013390475 -0.042990491 0.74000001 1.6952536e-38
-0.011964751 -0.042932391 0.73900002 1.8883268e-38
-0.010528568 -0.042816207 0.73700005 1.9638433e-38
-0.0091123795 -0.042758107 0.73600006 2.0459056e-38
-0.0077104773 -0.042758107 0.73600006 1.389804e-38
-0.006274282 -0.042525724 0.73200005 7.3472335e-39
-0.0048799925 -0.042525738 0.73200005 8.3631678e-39
-0.003480966 -0.042467639 0.73100007 9.3812728e-39
-0.00208858 -0.042467639 0.73100007 1.0212477e-38
-0.00069332938 -0.042293355 0.72800004 1.0948578e-38
0.00069142156 -0.042177156 0.72600001 9.8436635e-39
0.0020742838 -0.042177171 0.72600007 8.7405389e-39
0.0034571534 -0.042177156 0.72600001 8.7387228e-39
0.0048400015 -0.042177156 0.72600007 8.8363555e-39
0.006248557 -0.042351454 0.72900009 1.0484788e-38
0.0076371343 -0.042351454 0.72900009 1.2139953e-38
0.0090257106 -0.042351469 0.72900009 1.2972544e-38
0.01041428 -0.04235144 0.72900003 1.3790859e-38
0.011802857 -0.042351454 0.72900003 1.4455637e-38
0.013191434 -0.04235144 0.72900003 1.5108211e-38
0.01458001 -0.04235144 0.72900003 1.6217093e-38
0.015968561 -0.04235144 0.72900003 1.7434675e-38
0.017357137 -0.04235144 0.72900009 1.7247819e-38
0.018745715 -0.04235144 0.72900009 1.7081006e-38
0.02010669 -0.04229334 0.72800004 1.6423088e-38
0.021493332 -0.042293355 0.72800004 1.5691632e-38
0.022880005 -0.04229334 0.72800004 1.5954942e-38
0.024266679 -0.042293355 0.72800004 1.6126761e-38
0.025653351 -0.042293325 0.72800004 1.5304172e-38
0.02707712 -0.042351454 0.72900009 1.4471213e-38
0.028465718 -0.04235144 0.72900003 1.3281674e-38
0.029854292 -0.04235144 0.72900003 1.2185763e-38
0.031328563 -0.042467624 0.73100001 1.1720861e-38
0.032720931 -0.042467624 0.73100007 1.1361027e-38
0.034253336 -0.042641923 0.73400003 1.1256252e-38
0.035651416 -0.042641923 0.73400009 1.1057835e-38
0.037150487 -0.042758092 0.73600006 1.0230561e-38
0.038552396 -0.042758107 0.73600006 9.3957468e-39
0.040008578 -0.042816192 0.73700005 8.6649655e-39
0.041412372 -0.042816192 0.73700005 8.027484e-39
0.042816162 -0.042816207 0.73700011 8.8532706e-39
0.04434 -0.042932391 0.73900002 9.6786648e-39
0.045809537 -0.042990491 0.74000001 9.8630028e-39
0.047410484 -0.04316479 0.74300009 1.01389e-38
0.048825707 -0.043164775 0.74300003 1.0231484e-38
0.050376214 -0.043280959 0.74500006 1.0322609e-38
0.052003801 -0.043455243 0.74800003 1.0322257e-38
-0.022201896 -0.042255238 0.75199997 1.2432078e-38
-0.020714289 -0.042142883 0.75000006 1.2810923e-38
-0.019234279 -0.042030498 0.74800003 1.4845677e-38
-0.017738072 -0.041861922 0.74500006 1.6845555e-38
-0.016275253 -0.041749552 0.74300009 1.6185074e-38
-0.014839988 -0.041693345 0.74200004 1.5471619e-38
-0.01339048 -0.041580975 0.74000007 1.7228036e-38
-0.011964764 -0.041524768 0.73900008 1.8891517e-38
-0.010557129 -0.041524768 0.73900002 1.9835024e-38
-0.0091123758 -0.041356191 0.73600006 2.0635922e-38
-0.0076895384 -0.041243821 0.73400009 1.3986665e-38
-0.0062742913 -0.041131437 0.73200011 7.3547907e-39
-0.0048800008 -0.041131452 0.73200011 8.8195063e-39
-0.0034809501 -0.041075245 0.73100001 1.029892e-38
-0.0020885782 -0.041075245 0.73100001 1.0672721e-38
-0.00069333124 -0.040906683 0.72800004 1.094498e-38
0.00069142715 -0.040794298 0.72600007 9.0124707e-39
0.0020742978 -0.040794298 0.72600001 6.9870969e-39
0.003457146 -0.040794283 0.72600007 6.9799531e-39
0.004839981 -0.040794283 0.72600007 6.9957948e-39
0.0062485673 -0.040962875 0.72900009 1.0289374e-38
0.0076371441 -0.040962875 0.72900009 1.3532666e-38
0.0090257209 -0.040962875 0.72900009 1.5559494e-38
0.01041427 -0.04096289 0.72900009 1.7507083e-38
0.011802846 -0.04096289 0.72900009 1.9922819e-38
0.013191443 -0.040962875 0.72900003 2.2210117e-38
0.014579992 -0.04096286 0.72900003 2.2312734e-38
0.01596857 -0.040962875 0.72900003 2.2400277e-38
0.017357146 -0.04096286 0.72900003 1.9556619e-38
0.018719997 -0.040906668 0.7280001 1.6689259e-38
0.02010669 -0.040906668 0.72800004 1.4749939e-38
0.021493332 -0.040906668 0.72800004 1.273424e-38
0.022880005 -0.040906683 0.72800004 1.3646516e-38
0.024300003 -0.04096289 0.72900009 1.4479118e-38
0.025653351 -0.040906698 0.72800004 1.5127691e-38
0.027039995 -0.040906683 0.72800004 1.5672612e-38
0.028465705 -0.04096289 0.72900009 1.4116078e-38
0.029854303 -0.04096286 0.72900003 1.244186e-38
0.031328574 -0.041075259 0.73100001 1.032963e-38
0.032765716 -0.041131452 0.73200005 8.1205442e-39
0.034253322 -0.041243821 0.73400003 7.9350698e-39
0.035748579 -0.041356191 0.73600006 7.745994e-39
0.037150495 -0.041356206 0.73600006 8.2015603e-39
0.038552403 -0.041356206 0.73600006 8.5731748e-39
0.040008545 -0.041412413 0.73700011 8.9429971e-39
0.041412383 -0.041412398 0.73700005 9.3138956e-39
0.042932402 -0.041524768 0.73900002 9.5879377e-39
0.044340003 -0.041524753 0.73900002 9.7712262e-39
0.045933332 -0.04169336 0.74200004 9.9559495e-39
0.047410481 -0.041749537 0.74300003 1.0048521e-38
0.048957147 -0.041861907 0.74500006 1.0140735e-38
0.050579049 -0.042030483 0.74800003 1.0140017e-38
0.052003801 -0.042030483 0.74800003 1.0230776e-38
-0.022201903 -0.040822878 0.75200003 1.3527555e-38
-0.020797156 -0.040877149 0.75300002 1.2692121e-38
-0.019208578 -0.040551439 0.74700004 1.3709539e-38
-0.017785711 -0.040551439 0.74700004 1.4796109e-38
-0.016275242 -0.040334314 0.74300009 1.5172387e-38
-0.014839987 -0.040280029 0.74200004 1.5473056e-38
-0.013426658 -0.040280014 0.74200004 1.7135833e-38
-0.011964745 -0.040117159 0.73900002 1.8793583e-38
-0.010557143 -0.040117174 0.73900002 1.973028e-38
-0.0091247614 -0.040008605 0.73700005 2.0732792e-38
-0.007710468 -0.03995429 0.73600006 1.38066e-38
-0.0062742811 -0.039737165 0.73200005 6.8881036e-39
-0.0048800102 -0.039737165 0.73200011 7.9047681e-39
-0.0034809483 -0.039682865 0.73100001 9.0164616e-39
-0.0020885633 -0.039682865 0.73100001 9.5635103e-39
-0.00069428026 -0.039574295 0.72900003 1.0115581e-38
0.00069334009 -0.039520025 0.72800004 1.0570434e-38
0.0020799984 -0.03952001 0.7280001 1.1112562e-38
0.0034571395 -0.03941144 0.72600007 1.28855e-38
0.0048599988 -0.039574295 0.72900009 1.4734466e-38
0.0062485756 -0.03957431 0.72900009 1.6306488e-38
0.007637152 -0.03957431 0.72900009 1.7978549e-38
0.0090257013 -0.03957431 0.72900009 1.8899423e-38
0.010414277 -0.03957431 0.72900009 1.983609e-38
0.011802855 -0.03957431 0.72900009 1.8820893e-38
0.013191432 -0.039574295 0.72900009 1.7904332e-38
0.014579981 -0.039574295 0.72900009 1.7433675e-38
0.015968578 -0.03957431 0.72900003 1.7072054e-38
0.017357156 -0.03957431 0.72900003 1.5858803e-38
0.018719995 -0.039520025 0.72800004 1.4634068e-38
0.020106688 -0.03952001 0.72800004 1.4102404e-38
0.021493359 -0.03952001 0.72800004 1.3552147e-38
0.022880005 -0.03952001 0.72800004 1.3097312e-38
0.024266677 -0.03952001 0.72800004 1.273964e-38
0.025653349 -0.039520025 0.7280001 1.1537154e-38
0.027077137 -0.03957431 0.72900009 1.0435124e-38
0.028465712 -0.03957431 0.72900009 9.0317568e-39
0.029854292 -0.03957431 0.72900009 7.7176751e-39
0.031328574 -0.039682865 0.73100001 7.4564731e-39
0.032765709 -0.039737165 0.73200011 7.1720025e-39
0.034253329 -0.03984572 0.73400003 7.0934443e-39
0.03574856 -0.039954305 0.73600006 7.0041115e-39
0.037150495 -0.03995429 0.73600006 9.4951395e-39
0.038552385 -0.03995432 0.73600012 1.2068307e-38
0.04000856 -0.04000859 0.73700005 1.1523731e-38
0.041412368 -0.040008575 0.73700005 1.0972314e-38
0.042932387 -0.040117145 0.73900002 1.0231487e-38
0.044399995 -0.040171444 0.74000007 9.5861287e-39
0.045995232 -0.040334299 0.74300003 9.6797592e-39
0.047665711 -0.040551439 0.74700004 9.6822773e-39
0.049154278 -0.040605724 0.74800003 9.957072e-39
0.050579049 -0.040605724 0.74800003 1.0232571e-38
-0.020769523 -0.039390489 0.75200003 1.2508768e-38
-0.019234292 -0.039180979 0.74800003 1.2688148e-38
-0.017785722 -0.039128587 0.74700004 1.2773166e-38
-0.016275244 -0.038919076 0.74300009 1.4143164e-38
-0.014860011 -0.038919061 0.74300009 1.5466236e-38
-0.01342667 -0.038866684 0.74200004 1.713979e-38
-0.011964758 -0.038709536 0.73900002 1.8708568e-38
-0.010557123 -0.038709536 0.73900002 1.9742832e-38
-0.009124767 -0.038604796 0.73700011 2.0727393e-38
-0.0077104662 -0.038552403 0.73600006 1.3619309e-38
-0.0062914435 -0.038447648 0.73400009 6.4375021e-39
-0.004879999 -0.038342878 0.73200011 7.078931e-39
-0.0034857073 -0.038342863 0.73200005 7.6285469e-39
-0.0020914169 -0.038342863 0.73200005 8.4493645e-39
-0.00069429143 -0.038185731 0.72900009 9.2023396e-39
0.0006942919 -0.038185731 0.72900003 1.2225015e-38
0.0020828678 -0.038185731 0.72900003 1.5196467e-38
0.0034666772 -0.038133323 0.72800004 1.8806461e-38
0.0048600081 -0.038185731 0.72900009 2.2389868e-38
0.0062485849 -0.038185731 0.72900003 2.2407476e-38
0.0076371338 -0.038185731 0.72900009 2.2310622e-38
0.0090257106 -0.038185731 0.72900009 2.2223813e-38
0.010414287 -0.038185745 0.72900009 2.2030449e-38
0.011802864 -0.038185731 0.72900009 1.780314e-38
0.013191412 -0.038185731 0.72900009 1.346822e-38
0.014579989 -0.038185731 0.72900009 1.2629149e-38
0.015968569 -0.038185716 0.72900009 1.1720472e-38
0.017357146 -0.038185731 0.72900009 1.2172467e-38
0.018745715 -0.038185716 0.72900003 1.263307e-38
0.020106688 -0.038133338 0.72800004 1.3564688e-38
0.021493362 -0.038133323 0.72800004 1.4377942e-38
0.022911416 -0.038185731 0.72900003 1.2633793e-38
0.024299994 -0.038185716 0.72900009 1.0883514e-38
0.025688572 -0.038185731 0.72900009 8.029415e-39
0.027077148 -0.038185731 0.72900009 5.0777521e-39
0.028465724 -0.038185731 0.72900009 4.041363e-39
0.02993617 -0.038290486 0.73100007 3.0379618e-39
0.03137143 -0.038342863 0.73200005 4.6070321e-39
0.032855213 -0.038447633 0.73400009 6.1696831e-39
0.034253314 -0.038447648 0.73400003 6.1711307e-39
0.035748564 -0.038552389 0.73600006 6.1890715e-39
0.037150472 -0.038552403 0.73600006 1.0889904e-38
0.038604759 -0.038604781 0.73700011 1.5577108e-38
0.040008571 -0.038604766 0.73700005 1.4110619e-38
0.041524772 -0.038709551 0.73900002 1.2534625e-38
0.042932373 -0.038709536 0.73900008 1.0963654e-38
0.044519994 -0.038866669 0.74200004 9.4031695e-39
0.046119049 -0.039023831 0.74500006 9.4028108e-39
0.04766573 -0.039128572 0.74700004 9.3123962e-39
0.049154278 -0.039180979 0.74800009 9.7726373e-39
0.050579049 -0.039180964 0.74800003 1.023182e-38
-0.02076951 -0.037958115 0.75200003 1.3331661e-38
-0.019285703 -0.037857145 0.75000006 1.3611445e-38
-0.017809523 -0.03775619 0.74800003 1.3965184e-38
-0.016319046 -0.037604779 0.74500012 1.4523758e-38
-0.014860013 -0.037503839 0.74300003 1.5200053e-38
-0.013426668 -0.037453353 0.74200004 1.6861425e-38
-0.011980947 -0.037352398 0.74000001 1.8606333e-38
-0.010557138 -0.037301913 0.73900002 1.9177826e-38
-0.009124768 -0.037200972 0.73700011 1.9814044e-38
-0.0077104773 -0.037150487 0.73600006 1.3616049e-38
-0.0062914472 -0.037049547 0.73400009 7.4390493e-39
-0.0048933476 -0.037049547 0.73400003 1.0016197e-38
-0.0034857176 -0.036948591 0.73200011 1.2581945e-38
-0.0020914271 -0.036948577 0.73200011 1.4453186e-38
-0.00069618016 -0.036898091 0.73100001 1.6304974e-38
0.00069428072 -0.036797151 0.72900009 1.7785115e-38
0.0020828436 -0.036797166 0.72900009 1.9376869e-38
0.0034714409 -0.036797151 0.72900003 2.0749797e-38
0.0048600174 -0.036797151 0.72900003 2.2223829e-38
0.0062485663 -0.036797151 0.72900003 2.0014396e-38
0.0076371436 -0.036797166 0.72900003 1.790756e-38
0.0090257199 -0.036797151 0.72900003 1.7063104e-38
0.010414298 -0.036797166 0.72900009 1.6228663e-38
0.011802846 -0.036797136 0.72900009 1.4749221e-38
0.013191422 -0.036797151 0.72900009 1.3250444e-38
0.014579999 -0.036797166 0.72900009 1.2257479e-38
0.015968576 -0.036797166 0.72900009 1.1253391e-38
0.017357126 -0.036797166 0.72900009 1.0611621e-38
0.018745702 -0.036797166 0.72900009 9.9766677e-39
0.0201343 -0.036797151 0.72900003 9.9633974e-39
0.021522876 -0.036797151 0.72900003 9.9544067e-39
0.022911426 -0.036797151 0.72900003 9.4948467e-39
0.024300002 -0.036797166 0.72900003 9.0284637e-39
0.025688579 -0.036797151 0.72900003 7.2817634e-39
0.027077155 -0.036797166 0.72900009 5.518574e-39
0.028465705 -0.036797151 0.72900009 3.7711688e-39
0.0299362 -0.036898106 0.73100001 2.1220703e-39
0.031371422 -0.036948606 0.73200011 4.7906737e-39
0.032855246 -0.037049547 0.73400003 7.5550867e-39
0.034253325 -0.037049547 0.73400009 1.0418151e-38
0.035748564 -0.037150487 0.73600006 1.3364796e-38
0.037150476 -0.037150487 0.73600006 1.53999e-38
0.038604744 -0.037200972 0.73700011 1.7433948e-38
0.040008582 -0.037200987 0.73700005 1.4198934e-38
0.041524775 -0.037301928 0.73900002 1.1060984e-38
0.043106668 -0.037453353 0.74200004 1.0505906e-38
0.044700012 -0.037604779 0.74500006 1.0047805e-38
0.046119072 -0.037604794 0.74500006 9.8634162e-39
0.047729526 -0.03775622 0.74800003 9.6779179e-39
0.0491543 -0.03775619 0.74800003 9.9559019e-39
0.050714292 -0.03785716 0.75000006 1.0231071e-38
-0.019285711 -0.036428586 0.75000006 1.464469e-38
-0.017809534 -0.036331445 0.74800003 1.5089494e-38
-0.01631904 -0.036185727 0.74500006 1.4969654e-38
-0.01486 -0.036088586 0.74300003 1.4825889e-38
-0.013426664 -0.036040023 0.74200004 1.6683494e-38
-0.011980951 -0.035942882 0.74000001 1.8524178e-38
-0.010557131 -0.03589429 0.73900002 1.8731553e-38
-0.009124768 -0.035797164 0.73700005 1.8790933e-38
-0.0077209622 -0.035797164 0.73700011 1.3592014e-38
-0.0063085705 -0.035748586 0.73600006 8.3757739e-39
-0.0049066627 -0.035748586 0.73600006 1.2965485e-38
-0.0034952357 -0.03565146 0.73400003 1.7498123e-38
-0.0020914346 -0.03555432 0.73200011 2.0476373e-38
-0.00069619971 -0.035505727 0.73100007 2.3406505e-38
0.00069618621 -0.035505727 0.73100001 2.3417272e-38
0.0020885721 -0.035505742 0.73100001 2.3417649e-38
0.0034714157 -0.035408601 0.72900009 2.2682984e-38
0.0048599774 -0.035408616 0.72900009 2.1929639e-38
0.0062485747 -0.035408586 0.72900003 1.7701611e-38
0.0076371524 -0.035408586 0.72900003 1.3374229e-38
0.0090257293 -0.035408586 0.72900003 1.1891594e-38
0.010414278 -0.035408586 0.72900003 1.0338262e-38
0.011802855 -0.035408586 0.72900003 1.1714698e-38
0.013191433 -0.035408586 0.72900009 1.2992513e-38
0.01458001 -0.035408586 0.72900009 1.1896595e-38
0.015968557 -0.035408586 0.72900009 1.0695901e-38
0.017357133 -0.035408586 0.72900009 8.9517272e-39
0.018745711 -0.035408586 0.72900009 7.1946531e-39
0.020134289 -0.035408601 0.72900009 6.3577276e-39
0.021522837 -0.035408586 0.72900009 5.4450983e-39
0.022911435 -0.035408586 0.72900003 6.2708877e-39
0.024300011 -0.035408601 0.72900003 7.0998945e-39
0.025688589 -0.035408586 0.72900003 6.5506513e-39
0.02715143 -0.035505727 0.73100001 5.9849079e-39
0.028543817 -0.035505712 0.73100001 3.5867593e-39
0.029977145 -0.03555429 0.73200005 1.113333e-39
0.03145713 -0.035651445 0.73400003 5.0615769e-39
0.032855228 -0.035651445 0.73400003 8.9488293e-39
0.034346685 -0.035748586 0.73600006 1.4765705e-38
0.035748571 -0.035748586 0.73600006 2.0455201e-38
0.037200943 -0.035797179 0.73700011 1.9818451e-38
0.038604759 -0.035797149 0.73700005 1.9165158e-38
0.040117159 -0.035894305 0.73900002 1.4373529e-38
0.041693341 -0.036040023 0.74200004 9.5883343e-39
0.04316476 -0.036088586 0.74300003 1.0134261e-38
0.044700004 -0.036185727 0.74500006 1.059774e-38
0.046304777 -0.036331445 0.74800003 1.0324742e-38
0.0477295 -0.03633146 0.74800003 1.0048494e-38
0.049285702 -0.036428586 0.75000012 1.0141742e-38
0.050714284 -0.036428571 0.75000006 1.0232517e-38
-0.019285703 -0.035000026 0.75000006 1.7234475e-38
-0.017809534 -0.0349067 0.74800003 1.7420581e-38
-0.016319036 -0.034766674 0.74500006 1.6008892e-38
-0.0149 -0.034766689 0.74500012 1.4653693e-38
-0.013444768 -0.034673348 0.74300003 1.6311846e-38
-0.011980955 -0.034533352 0.74000007 1.7962756e-38
-0.010571415 -0.034533352 0.74000001 1.9265694e-38
-0.009149516 -0.034486681 0.73900002 2.0638399e-38
-0.0077209622 -0.03439334 0.73700005 1.8236522e-38
-0.0063171554 -0.03439334 0.73700011 1.5944385e-38
-0.0049066581 -0.034346655 0.73600006 1.8155774e-38
-0.0034952385 -0.034253359 0.73400009 2.047894e-38
-0.0020971389 -0.034253359 0.73400003 2.102925e-38
-0.00069618388 -0.034113348 0.73100001 2.158098e-38
0.00069618807 -0.034113348 0.73100001 1.9370112e-38
0.002088574 -0.034113348 0.73100001 1.7172854e-38
0.003471425 -0.034020022 0.72900009 1.6320123e-38
0.0048599876 -0.034020007 0.72900009 1.5374851e-38
0.0062485645 -0.034020022 0.72900009 1.3819732e-38
0.0076371413 -0.034020022 0.72900009 1.2332081e-38
0.0090257106 -0.034020036 0.72900003 1.1338405e-38
0.010414287 -0.034020007 0.72900003 1.0425778e-38
0.011802864 -0.034020022 0.72900003 9.5960176e-39
0.01319144 -0.034020007 0.72900003 8.7716646e-39
0.01457999 -0.034020007 0.72900003 7.9343957e-39
0.015968569 -0.034020022 0.72900009 7.1921419e-39
0.017357145 -0.034020022 0.72900009 6.0832636e-39
0.018745722 -0.034020022 0.72900009 5.0529758e-39
0.02013427 -0.034020022 0.72900009 5.1591507e-39
0.021522848 -0.034020022 0.72900009 5.3499936e-39
0.022911424 -0.034020022 0.72900009 5.8098843e-39
0.024366664 -0.034113362 0.73100007 6.2737099e-39
0.025759052 -0.034113333 0.73100007 6.5434599e-39
0.027151411 -0.034113348 0.73100001 6.8139189e-39
0.028543795 -0.034113348 0.73100001 6.999717e-39
0.029977133 -0.034160018 0.73200011 7.183105e-39
0.031457141 -0.034253359 0.73400009 1.0140212e-38
0.032855242 -0.034253359 0.73400003 1.3096562e-38
0.034346666 -0.03434667 0.73600006 1.58635e-38
0.035748575 -0.03434667 0.73600006 1.8627159e-38
0.037200928 -0.034393355 0.73700011 1.7235621e-38
0.038709544 -0.034486681 0.73900002 1.5942274e-38
0.040117145 -0.034486681 0.73900008 1.2804684e-38
0.041693326 -0.034626678 0.74200004 9.7640599e-39
0.043164756 -0.034673333 0.74300003 1.0044579e-38
0.044820011 -0.034860015 0.74700004 1.0414426e-38
0.046304751 -0.034906685 0.74800003 1.0232183e-38
0.047857162 -0.035000011 0.75000006 1.0141053e-38
0.049285721 -0.035000026 0.75000006 1.0140323e-38
0.050849527 -0.035093352 0.75200003 1.0232529e-38
-0.019285697 -0.033571437 0.75000006 1.9912413e-38
-0.017785707 -0.033437148 0.74700004 1.970679e-38
-0.016319051 -0.033347651 0.74500012 1.7082949e-38
-0.014860004 -0.033258125 0.74300003 1.4457823e-38
-0.013426675 -0.033213362 0.7420001 1.5946998e-38
-0.011980953 -0.033123836 0.74000001 1.7327079e-38
-0.010571431 -0.033123821 0.74000001 1.9912862e-38
-0.0091495104 -0.033079058 0.73900002 2.2488836e-38
-0.0077209473 -0.032989547 0.73700005 2.2955466e-38
-0.0063171564 -0.032989547 0.73700011 2.3408268e-38
-0.0049066544 -0.032944769 0.73600006 2.3417676e-38
-0.0035047668 -0.032944784 0.73600006 2.3417669e-38
-0.0020971417 -0.032855257 0.73400003 2.1580952e-38
-0.00069620344 -0.032720968 0.73100007 1.9628722e-38
0.00069618248 -0.032720968 0.73100007 1.5309577e-38
0.0020885693 -0.032720953 0.73100001 1.0888912e-38
0.0034809543 -0.032720968 0.73100001 9.8654411e-39
0.00487334 -0.032720968 0.73100001 8.8581191e-39
0.0062657259 -0.032720953 0.73100001 1.0053414e-38
0.0076371222 -0.032631457 0.72900009 1.1245838e-38
0.0090256995 -0.032631457 0.72900009 1.0887463e-38
0.010414297 -0.032631427 0.72900003 1.0506824e-38
0.011802874 -0.032631427 0.72900003 7.5630418e-39
0.013191422 -0.032631442 0.72900003 4.5321187e-39
0.014579999 -0.032631427 0.72900003 4.0600339e-39
0.015968576 -0.032631442 0.72900003 3.6015557e-39
0.017357154 -0.032631427 0.72900009 3.2284571e-39
0.018745704 -0.032631442 0.72900003 2.8593033e-39
0.02013428 -0.032631457 0.72900009 4.0592436e-39
0.021522857 -0.032631457 0.72900009 5.1616409e-39
0.022974283 -0.032720953 0.73100001 5.2527715e-39
0.024366667 -0.032720953 0.73100001 5.3507082e-39
0.025759054 -0.032720953 0.73100001 6.5356056e-39
0.027151441 -0.032720953 0.73100001 7.6548563e-39
0.028543826 -0.032720968 0.73100001 1.0414949e-38
0.029977145 -0.032765716 0.73200005 1.3180797e-38
0.031457126 -0.032855257 0.73400009 1.5218777e-38
0.032944784 -0.032944784 0.73600006 1.7234156e-38
0.03434667 -0.032944769 0.73600006 1.6964053e-38
0.035797153 -0.032989547 0.73700005 1.6675945e-38
0.037200946 -0.032989532 0.73700011 1.4646551e-38
0.038709551 -0.033079058 0.73900002 1.2617511e-38
0.040171418 -0.033123836 0.74000001 1.1322437e-38
0.041693341 -0.033213362 0.7420001 9.9513421e-39
0.043164782 -0.03325811 0.74300003 1.0049615e-38
0.044819999 -0.033437148 0.74700004 1.0141095e-38
0.046304751 -0.033481911 0.74800003 1.0140379e-38
0.04785715 -0.033571437 0.75000006 1.0139288e-38
0.049285714 -0.033571452 0.75000006 1.0230034e-38
0.050849542 -0.033660963 0.75199997 1.023075e-38
-0.019285707 -0.032142863 0.75000006 1.7519311e-38
-0.017785717 -0.03201431 0.74700004 1.7706863e-38
-0.016319035 -0.031928584 0.74500006 1.6289446e-38
-0.014860008 -0.031842873 0.74300003 1.4830543e-38
-0.01344476 -0.031842873 0.74300003 1.6309299e-38
-0.011980956 -0.031714305 0.74000001 1.7873069e-38
-0.010571436 -0.031714305 0.74000007 2.0374922e-38
-0.0091495253 -0.03167145 0.73900002 2.2866677e-38
-0.0077418881 -0.031671435 0.73900002 2.2498618e-38
-0.0063171415 -0.031585738 0.73700005 2.2131993e-38
-0.0049133496 -0.031585738 0.73700011 1.937083e-38
-0.0035047631 -0.031542867 0.73600006 1.6713671e-38
-0.0021028395 -0.031542853 0.73600006 1.3923062e-38
-0.00069618761 -0.031328589 0.73100001 1.1227533e-38
0.00069618435 -0.031328574 0.73100001 1.0595431e-38
0.0020885712 -0.031328589 0.73100001 9.9317869e-39
0.0034809562 -0.031328574 0.73100001 9.2186367e-39
0.0048733419 -0.031328589 0.73100001 8.5869188e-39
0.0062657278 -0.031328589 0.73100001 8.8588477e-39
0.0076581142 -0.031328604 0.73100001 9.1393597e-39
0.0090257088 -0.031242877 0.72900009 8.667251e-39
0.010414285 -0.031242877 0.72900009 8.1922543e-39
0.011835224 -0.031328589 0.73100001 6.6385492e-39
0.013191431 -0.031242862 0.72900003 5.0809331e-39
0.014580008 -0.031242862 0.72900003 3.6944323e-39
0.015968585 -0.031242877 0.72900003 2.3125979e-39
0.017357135 -0.031242862 0.72900003 1.8483996e-39
0.018797154 -0.031328559 0.73100001 1.4838994e-39
0.02018954 -0.031328574 0.73100001 4.8796309e-39
0.021581925 -0.031328574 0.73100001 8.3722777e-39
0.022974283 -0.031328589 0.73100001 1.0228028e-38
0.024366667 -0.031328589 0.73100001 1.2065121e-38
0.025759036 -0.031328589 0.73100007 1.2445042e-38
0.027188556 -0.031371474 0.73200011 1.2916453e-38
0.028582847 -0.031371444 0.73200011 1.3741214e-38
0.03005906 -0.031457156 0.73400003 1.4579181e-38
0.031542849 -0.031542867 0.73600006 1.5577141e-38
0.032944784 -0.031542867 0.73600006 1.6586262e-38
0.034346674 -0.031542867 0.73600006 1.6482595e-38
0.035797149 -0.031585738 0.73700011 1.6373466e-38
0.037200958 -0.031585738 0.73700005 1.4631745e-38
0.038709536 -0.031671435 0.73900002 1.287469e-38
0.040171433 -0.03171429 0.74000001 1.1323548e-38
0.04169333 -0.031800017 0.7420001 9.7709249e-39
0.043164782 -0.031842873 0.74300003 9.5882993e-39
0.044820011 -0.032014281 0.74700004 9.4089443e-39
0.04630477 -0.032057151 0.74800003 1.0048215e-38
0.047857147 -0.032142863 0.75000006 1.0688537e-38
0.04941716 -0.032228604 0.75200003 1.0413731e-38
0.050849531 -0.032228604 0.75200003 1.0230046e-38
-0.017785707 -0.030591443 0.74700004 1.5654539e-38
-0.016319029 -0.030509531 0.74500006 1.5445346e-38
-0.014900009 -0.030509546 0.74500012 1.5193946e-38
-0.013444761 -0.030427635 0.74300003 1.676957e-38
-0.012013323 -0.030386686 0.74200004 1.8339788e-38
-0.010571421 -0.030304775 0.74000001 2.0754461e-38
-0.0091495048 -0.030263811 0.73900002 2.3141825e-38
-0.007741903 -0.030263826 0.73900002 2.1948322e-38
-0.0063342862 -0.030263811 0.73900002 2.0733279e-38
-0.0049133506 -0.030181915 0.73700011 1.5402857e-38
-0.0035047585 -0.030140951 0.73600006 9.962296e-39
-0.0021028358 -0.030140966 0.73600006 6.3537815e-39
-0.00069618667 -0.029936194 0.73100001 2.7843857e-39
0.00069617969 -0.029936224 0.73100007 5.9128826e-39
0.0020885656 -0.029936209 0.73100007 8.9412959e-39
0.0034809366 -0.029936194 0.73100007 8.6740333e-39
0.0048733223 -0.029936194 0.73100001 8.3038285e-39
0.0062657092 -0.029936209 0.73100001 7.6552487e-39
0.0076580946 -0.029936209 0.73100001 7.0109499e-39
0.0090504801 -0.029936209 0.73100001 6.4502357e-39
0.010442866 -0.029936209 0.73100001 5.8992059e-39
0.011835253 -0.029936209 0.73100001 5.7183893e-39
0.01322761 -0.029936209 0.73100001 5.5300478e-39
0.014579998 -0.029854298 0.72900009 3.232001e-39
0.016012382 -0.029936194 0.73100001 9.2894878e-40
0.017404769 -0.029936194 0.73100001 5.515735e-40
0.018797135 -0.029936209 0.73100007 1.0567612e-40
0.02018952 -0.029936194 0.73100007 5.7862108e-39
0.021581905 -0.029936209 0.73100007 1.1520941e-38
0.022974292 -0.029936209 0.73100007 1.5129822e-38
0.024366651 -0.029936224 0.73100001 1.8707456e-38
0.025759036 -0.029936194 0.73100001 1.8446296e-38
0.027188569 -0.029977158 0.73200011 1.8155004e-38
0.028582858 -0.029977158 0.73200005 1.7053337e-38
0.030059041 -0.030059054 0.73400003 1.5838987e-38
0.031542853 -0.030140951 0.73600006 1.583285e-38
0.032944791 -0.030140966 0.73600006 1.5833577e-38
0.034393337 -0.030181915 0.73700005 1.5915019e-38
0.03579713 -0.030181915 0.73700005 1.6009695e-38
0.037301891 -0.030263826 0.73900002 1.4632132e-38
0.038761895 -0.030304775 0.74000001 1.3160238e-38
0.040280003 -0.030386686 0.7420001 1.132531e-38
0.041693348 -0.030386686 0.7420001 9.4921506e-39
0.043164756 -0.030427635 0.74300009 9.1229799e-39
0.044700004 -0.030509546 0.74500012 8.668124e-39
0.04630477 -0.030632392 0.74800003 9.954914e-39
0.047857139 -0.030714303 0.75000006 1.1148768e-38
0.049417146 -0.0307962 0.75199997 1.0689944e-38
0.050849516 -0.030796185 0.75200003 1.0230399e-38
-0.017857132 -0.029285744 0.75000006 1.581344e-38
-0.01636285 -0.029168591 0.74700004 1.5357095e-38
-0.014899989 -0.029090494 0.74500006 1.4924186e-38
-0.013444762 -0.029012397 0.74300003 1.6675599e-38
-0.012013322 -0.028973341 0.74200004 1.8513064e-38
-0.010571425 -0.028895244 0.74000001 2.0193403e-38
-0.0091619045 -0.028895244 0.74000001 2.1947246e-38
-0.0077418825 -0.028856218 0.73900002 1.6134346e-38
-0.0063342806 -0.028856218 0.73900002 1.0409302e-38
-0.0049133357 -0.028778106 0.73700005 9.1214188e-39
-0.0035047547 -0.028739065 0.73600006 7.8984776e-39
-0.0021028675 -0.02873908 0.73600006 6.5435229e-39
-0.0006971627 -0.028582886 0.73200011 5.2750437e-39
0.00069618155 -0.028543845 0.73100001 6.3724048e-39
0.0020885675 -0.028543815 0.73100001 7.4805068e-39
0.0034809664 -0.02854383 0.73100001 7.6591317e-39
0.0048733242 -0.028543815 0.73100001 7.7473854e-39
0.006265711 -0.028543815 0.73100001 6.7321769e-39
0.0076580965 -0.02854383 0.73100001 5.8084284e-39
0.009050482 -0.028543815 0.73100001 4.4290883e-39
0.010442868 -0.028543815 0.73100001 3.1441116e-39
0.011835234 -0.028543815 0.73100007 4.2378881e-39
0.01322762 -0.028543815 0.73100007 5.333803e-39
0.014579977 -0.028465733 0.72900009 6.8117665e-39
0.016012365 -0.02854383 0.73100001 8.2718256e-39
0.01740475 -0.02854383 0.73100001 9.491534e-39
0.018797135 -0.02854383 0.73100001 1.0692614e-38
0.020189522 -0.02854383 0.73100001 1.3552113e-38
0.021581907 -0.02854383 0.73100001 1.6427392e-38
0.022974292 -0.028543815 0.73100001 1.7340404e-38
0.024366679 -0.02854383 0.73100001 1.8168328e-38
0.02579427 -0.028582871 0.73200011 1.7416753e-38
0.027188558 -0.028582871 0.73200011 1.6765258e-38
0.02858285 -0.028582871 0.73200011 1.6101567e-38
0.030059027 -0.028660968 0.73400009 1.5431048e-38
0.031542853 -0.028739065 0.73600006 1.6096808e-38
0.032944791 -0.02873905 0.73600006 1.674541e-38
0.034393333 -0.028778106 0.73700011 1.6654663e-38
0.035797145 -0.028778106 0.73700005 1.6566789e-38
0.037301924 -0.028856188 0.73900002 1.4725789e-38
0.038761891 -0.028895259 0.74000001 1.2889753e-38
0.040279992 -0.028973356 0.7420001 1.1329581e-38
0.041749507 -0.029012397 0.74300009 9.8619658e-39
0.043164756 -0.029012397 0.74300009 9.58606e-39
0.044699997 -0.029090479 0.74500006 9.3073473e-39
0.046428598 -0.029285714 0.75000006 9.9541643e-39
0.047857158 -0.029285729 0.75000006 1.0598811e-38
0.049482863 -0.029402882 0.75300002 1.0415142e-38
0.051052369 -0.029480964 0.75500005 1.0139995e-38
-0.019285699 -0.027857155 0.75000006 1.7330257e-38
-0.017857142 -0.02785717 0.75000006 1.6013257e-38
-0.016362859 -0.027745739 0.74700004 1.5336954e-38
-0.014899987 -0.027671441 0.74500006 1.4640045e-38
-0.013444765 -0.027597174 0.74300003 1.6678472e-38
-0.012013318 -0.027560025 0.74200004 1.8615301e-38
-0.01057143 -0.027485728 0.74000007 1.9650996e-38
-0.0091619082 -0.027485743 0.74000007 2.0644646e-38
-0.0077418974 -0.027448595 0.73900002 1.0416432e-38
-0.0063342825 -0.027448609 0.73900002 1.1469908e-40
-0.0049266452 -0.02744858 0.73900002 2.9583569e-39
-0.0035095296 -0.027374312 0.73700011 5.8081103e-39
-0.0021057164 -0.027374297 0.73700005 6.7379279e-39
-0.00069905235 -0.027262881 0.73400009 7.653057e-39
0.00069714081 -0.027188584 0.73200005 6.8215167e-39
0.0020914304 -0.027188599 0.73200005 5.9985776e-39
0.0034809469 -0.027151451 0.73100007 6.642854e-39
0.0048733335 -0.027151465 0.73100007 7.1884818e-39
0.0062657194 -0.027151436 0.73100007 5.9006282e-39
0.0076580769 -0.027151436 0.73100001 4.5166204e-39
0.0090504624 -0.027151436 0.73100001 2.4047459e-39
0.010442849 -0.027151451 0.73100001 2.9077644e-40
0.011835235 -0.027151436 0.73100001 2.6638319e-39
0.01322762 -0.027151436 0.73100001 5.0777451e-39
0.014620006 -0.027151436 0.73100001 1.040887e-38
0.016012395 -0.027151436 0.73100001 1.5665026e-38
0.01740478 -0.027151451 0.73100001 1.8541711e-38
0.018797139 -0.027151436 0.73100001 2.128568e-38
0.020217137 -0.027188599 0.73200005 2.1302207e-38
0.021611407 -0.027188599 0.73200011 2.128893e-38
0.0230057 -0.027188599 0.73200011 1.9451498e-38
0.02439999 -0.027188584 0.73200011 1.759105e-38
0.025794281 -0.027188584 0.73200011 1.6471026e-38
0.027188571 -0.027188584 0.73200005 1.5267817e-38
0.028660959 -0.027262881 0.73400003 1.5156231e-38
0.030140953 -0.027337164 0.73600006 1.5074073e-38
0.03154286 -0.027337164 0.73600006 1.6378058e-38
0.032944746 -0.027337164 0.73600006 1.7665569e-38
0.034393318 -0.027374297 0.73700011 1.7391159e-38
0.035894308 -0.027448595 0.73900002 1.7115288e-38
0.037352379 -0.027485728 0.74000007 1.4814014e-38
0.038866661 -0.027560025 0.7420001 1.2522407e-38
0.040280025 -0.027560011 0.74200004 1.1424659e-38
0.041749507 -0.027597174 0.74300009 1.0232196e-38
0.043280955 -0.027671456 0.74500006 1.0143194e-38
0.044819999 -0.027745724 0.74700004 9.956667e-39
0.046304744 -0.027782872 0.74800003 1.0047799e-38
0.04785715 -0.02785714 0.75000006 1.0048161e-38
0.049417153 -0.027931437 0.75200003 1.0048165e-38
-0.019337138 -0.026499048 0.75199997 1.7059113e-38
-0.017904755 -0.026499048 0.75200003 1.7408729e-38
-0.016384771 -0.026358098 0.74800009 1.6097413e-38
-0.014939991 -0.026322871 0.74700004 1.4926289e-38
-0.013480945 -0.026252404 0.74500006 1.6768875e-38
-0.012029517 -0.026181906 0.74300003 1.8700678e-38
-0.010599988 -0.026146665 0.74200004 1.9730987e-38
-0.0091619072 -0.026076213 0.74000001 2.0736799e-38
-0.0077523869 -0.026076198 0.74000001 1.087517e-38
-0.006334275 -0.026040971 0.73900002 1.0107538e-39
-0.0049266601 -0.026040971 0.73900002 3.2334654e-39
-0.0035095296 -0.025970504 0.73700005 5.5451258e-39
-0.0021057229 -0.025970489 0.73700011 6.0900291e-39
-0.00069904863 -0.02586478 0.73400003 6.6349492e-39
0.00069904537 -0.02586478 0.73400009 5.2556287e-39
0.002091422 -0.025794312 0.73200011 3.9674291e-39
0.0034857125 -0.025794297 0.73200011 3.7812554e-39
0.0048733354 -0.025759056 0.73100001 3.6872549e-39
0.0062742922 -0.025794297 0.73200005 5.8877068e-39
0.0076581067 -0.025759041 0.73100001 8.0852791e-39
0.0090504922 -0.025759056 0.73100001 9.2080892e-39
0.010442851 -0.025759056 0.73100001 1.0398443e-38
0.011835237 -0.025759056 0.73100001 1.2259627e-38
0.013227622 -0.025759056 0.73100001 1.4210792e-38
0.014619988 -0.025759056 0.73100007 1.6417373e-38
0.016012374 -0.025759056 0.73100007 1.8734067e-38
0.017404761 -0.025759071 0.73100007 1.890554e-38
0.018797146 -0.025759071 0.73100001 1.908563e-38
0.02021713 -0.025794297 0.73200011 1.8796499e-38
0.02161142 -0.025794297 0.73200005 1.860776e-38
0.023068564 -0.02586478 0.73400003 1.7950155e-38
0.024466665 -0.02586475 0.73400003 1.7283181e-38
0.025864763 -0.025864765 0.73400003 1.673064e-38
0.027262842 -0.025864765 0.73400003 1.6076667e-38
0.028660944 -0.02586478 0.73400003 1.6172443e-38
0.030140957 -0.025935248 0.73600006 1.6269693e-38
0.031542864 -0.025935248 0.73600006 1.6924771e-38
0.03294475 -0.025935248 0.73600006 1.7575538e-38
0.034393333 -0.025970489 0.73700005 1.7391894e-38
0.035894293 -0.026040971 0.73900008 1.7301468e-38
0.037352398 -0.026076213 0.74000001 1.463355e-38
0.038866669 -0.026146695 0.74200004 1.1971389e-38
0.040280014 -0.026146665 0.74200004 1.0872942e-38
0.041749503 -0.026181921 0.74300009 9.8659483e-39
0.043280974 -0.026252374 0.74500006 9.8666336e-39
0.044700012 -0.026252389 0.74500012 9.9602683e-39
0.046428565 -0.026428595 0.75000006 1.0049598e-38
0.047857143 -0.026428595 0.75000006 1.0048884e-38
0.04948286 -0.026534304 0.75300002 9.9566922e-39
-0.019337146 -0.025066659 0.75200003 1.6707562e-38
-0.017857129 -0.025000013 0.75000006 1.8784511e-38
-0.016384764 -0.024933346 0.74800003 1.6902131e-38
-0.01494 -0.024900012 0.74700004 1.5098519e-38
-0.013480941 -0.024833344 0.74500006 1.6953619e-38
-0.012029542 -0.024766691 0.74300009 1.8708572e-38
-0.010599986 -0.024733342 0.74200004 1.9835025e-38
-0.0091619119 -0.024666697 0.74000001 2.0825767e-38
-0.0077523906 -0.024666689 0.74000007 1.1428695e-38
-0.0063342769 -0.024633363 0.73900002 1.9445258e-39
-0.0049266545 -0.024633355 0.73900002 3.6025856e-39
-0.0035095166 -0.02456668 0.73700005 5.1684372e-39
-0.0021057238 -0.024566673 0.73700011 5.3495816e-39
-0.00069905142 -0.024466671 0.73400003 5.5260822e-39
0.00069904164 -0.024466693 0.73400009 3.6900939e-39
0.0020914341 -0.024400011 0.73200005 1.8462374e-39
0.0034857041 -0.024400026 0.73200011 1.0107776e-39
0.0048799943 -0.024400018 0.73200011 1.0678034e-40
0.0062742848 -0.024400018 0.73200011 5.8780771e-39
0.0076580872 -0.024366677 0.73100007 1.1607395e-38
0.0090504736 -0.024366684 0.73100007 1.6035231e-38
0.010442859 -0.024366684 0.73100001 2.0452343e-38
0.011835244 -0.024366692 0.73100001 2.1856461e-38
0.013227602 -0.024366684 0.73100001 2.3227531e-38
0.014619989 -0.024366692 0.73100001 2.2498581e-38
0.016012376 -0.024366677 0.73100001 2.1746654e-38
0.017404761 -0.024366669 0.73100001 1.9259899e-38
0.018797148 -0.024366677 0.73100001 1.6756286e-38
0.020217121 -0.024400026 0.73200011 1.6281304e-38
0.021611413 -0.024400018 0.73200011 1.5825333e-38
0.023068577 -0.024466679 0.73400009 1.6457398e-38
0.024533337 -0.024533354 0.73600006 1.7006569e-38
0.025935246 -0.024533354 0.73600006 1.7000423e-38
0.027337134 -0.024533346 0.73600006 1.6908935e-38
0.028739071 -0.024533354 0.73600006 1.71873e-38
0.030140959 -0.024533346 0.73600006 1.7467152e-38
0.031542867 -0.024533346 0.73600006 1.7475443e-38
0.032944754 -0.024533361 0.73600006 1.7388284e-38
0.034393348 -0.024566665 0.73700005 1.739045e-38
0.035894301 -0.024633348 0.73900002 1.7391145e-38
0.037352391 -0.024666674 0.74000001 1.4447006e-38
0.038866688 -0.024733342 0.74200004 1.1419662e-38
0.040280003 -0.02473335 0.74200004 1.0413056e-38
0.04174953 -0.024766676 0.74300009 9.4046311e-39
0.043280944 -0.024833359 0.74500006 9.6801081e-39
0.044700004 -0.024833344 0.74500006 9.9573999e-39
0.046428557 -0.025000036 0.75000006 1.0049587e-38
0.04798476 -0.025066689 0.75200003 1.0049235e-38
-0.019285716 -0.023571461 0.75000006 1.7517229e-38
-0.017857136 -0.023571424 0.75000006 1.8701689e-38
-0.016428577 -0.023571432 0.75000006 1.6832258e-38
-0.014939991 -0.023477152 0.74700004 1.5009951e-38
-0.013480958 -0.023414299 0.74500012 1.6951463e-38
-0.01202953 -0.023351453 0.74300009 1.8885427e-38
-0.010599998 -0.023320019 0.74200004 1.9824267e-38
-0.0091866534 -0.023320027 0.74200004 2.074075e-38
-0.0077523747 -0.023257151 0.74000001 1.0874094e-38
-0.0063428534 -0.023257159 0.74000001 1.010737e-39
-0.0049266545 -0.023225725 0.73900002 1.8480086e-39
-0.0035095371 -0.023162872 0.73700011 2.6867067e-39
-0.0021057238 -0.023162857 0.73700005 3.7772336e-39
-0.00069905422 -0.023068577 0.73400003 4.9596185e-39
0.00069905934 -0.023068577 0.73400003 6.8042219e-39
0.0020971384 -0.023068592 0.73400009 8.6345223e-39
0.0034857143 -0.023005724 0.73200011 1.0136583e-38
0.0048800055 -0.023005724 0.73200005 1.1615668e-38
0.0062742755 -0.023005739 0.73200011 1.4473362e-38
0.007658089 -0.022974305 0.73100001 1.7349346e-38
0.0090504754 -0.02297429 0.73100001 1.9274331e-38
0.010442861 -0.022974297 0.73100001 2.1305474e-38
0.011835246 -0.022974305 0.73100001 2.0561821e-38
0.013227633 -0.02297429 0.73100001 1.9834283e-38
0.014620018 -0.022974283 0.73100001 1.9066564e-38
0.016012376 -0.02297429 0.73100001 1.8320713e-38
0.017404743 -0.02297429 0.73100007 1.7844271e-38
0.018822841 -0.023005724 0.73200011 1.7265589e-38
0.02027238 -0.023068592 0.73400009 1.7279175e-38
0.021670479 -0.023068599 0.73400003 1.7373525e-38
0.023131432 -0.023131453 0.73600006 1.7651906e-38
0.024533341 -0.023131438 0.73600006 1.7927407e-38
0.025935229 -0.023131445 0.73600006 1.764759e-38
0.027337138 -0.023131438 0.73600006 1.7463543e-38
0.028739074 -0.023131438 0.73600006 1.7461014e-38
0.030140962 -0.023131445 0.73600006 1.7558638e-38
0.031542867 -0.02313143 0.73600006 1.7566579e-38
0.032989517 -0.023162887 0.73700005 1.7663078e-38
0.034486685 -0.023225732 0.73900002 1.7298605e-38
0.035894286 -0.02322574 0.73900002 1.6935191e-38
0.037352361 -0.023257159 0.74000007 1.3989619e-38
0.038866676 -0.023320004 0.74200004 1.0958693e-38
0.040280018 -0.023320012 0.74200004 1.0411988e-38
0.04174953 -0.023351446 0.74300009 9.8631023e-39
0.043280963 -0.023414284 0.74500006 9.8637945e-39
0.044820018 -0.023477167 0.74700004 9.9559678e-39
0.04642858 -0.023571454 0.75000006 1.0232169e-38
0.047984771 -0.0236343 0.75200003 1.0416569e-38
-0.019285724 -0.022142872 0.75000006 1.8355582e-38
-0.017857129 -0.022142872 0.75000006 1.850833e-38
-0.016384766 -0.022083826 0.74800003 1.6622762e-38
-0.01494 -0.022054307 0.74700004 1.4822341e-38
-0.013480953 -0.021995254 0.74500006 1.6956498e-38
-0.012061897 -0.021995254 0.74500006 1.8984078e-38
-0.010614298 -0.021936208 0.74300009 1.9835017e-38
-0.0091990503 -0.021936201 0.74300009 2.0638126e-38
-0.007773336 -0.021906689 0.74200004 1.0407703e-38
-0.006342859 -0.021847643 0.74000007 9.9881752e-41
-0.0049266499 -0.021818109 0.73900002 9.2342766e-41
-0.0035190328 -0.021818101 0.73900002 9.9905574e-41
-0.002111417 -0.021818116 0.73900002 2.2046194e-39
-0.00070096157 -0.021729536 0.73600006 4.335141e-39
0.00069904258 -0.021670483 0.73400003 9.9320952e-39
0.0020971356 -0.021670498 0.73400009 1.5478132e-38
0.0034857059 -0.021611437 0.73200011 1.9376871e-38
0.0048933206 -0.021670491 0.73400003 2.3130303e-38
0.0062742857 -0.02161143 0.73200011 2.3142157e-38
0.0076685767 -0.021611437 0.73200011 2.3048538e-38
0.0090504559 -0.021581918 0.73100007 2.2591164e-38
0.010442841 -0.021581911 0.73100007 2.2013565e-38
0.011835228 -0.021581918 0.73100007 1.9158733e-38
0.013227615 -0.021581925 0.73100001 1.6291684e-38
0.01462 -0.021581933 0.73100001 1.5612544e-38
0.016034272 -0.021611437 0.73200011 1.4888987e-38
0.017428564 -0.021611445 0.73200005 1.634724e-38
0.018874284 -0.021670483 0.73400003 1.7823045e-38
0.020327611 -0.021729544 0.73600006 1.8379421e-38
0.021729548 -0.021729536 0.73600006 1.8845063e-38
0.023131436 -0.021729544 0.73600006 1.8849734e-38
0.024533344 -0.021729529 0.73600006 1.8846846e-38
0.025935233 -0.021729544 0.73600006 1.838227e-38
0.027337139 -0.021729544 0.73600006 1.7916269e-38
0.028739057 -0.021729536 0.73600006 1.781797e-38
0.030140964 -0.021729521 0.73600006 1.7649414e-38
0.031585686 -0.021759078 0.73700011 1.7753136e-38
0.032989532 -0.021759063 0.73700005 1.7846758e-38
0.034533344 -0.021847636 0.74000007 1.7205336e-38
0.035942849 -0.021847628 0.74000007 1.6471709e-38
0.037453346 -0.021906674 0.74200004 1.3526136e-38
0.038866661 -0.021906666 0.74200004 1.0500585e-38
0.040280007 -0.021906666 0.74200004 1.0412693e-38
0.041749526 -0.021936208 0.74300009 1.0230436e-38
0.043280963 -0.021995261 0.74500012 1.0138937e-38
0.044699989 -0.021995246 0.74500006 9.9552531e-39
0.046119049 -0.021995254 0.74500006 1.0414775e-38
0.047857147 -0.02214288 0.75000006 1.0783207e-38
0.04928571 -0.022142887 0.75000006 1.0416238e-38
-0.017857138 -0.020714298 0.75000006 1.6404364e-38
-0.016384779 -0.020659074 0.74800009 1.545473e-38
-0.014939989 -0.02063144 0.74700004 1.4648722e-38
-0.013480948 -0.020576186 0.74500006 1.6768533e-38
-0.012061891 -0.020576194 0.74500006 1.8881121e-38
-0.010614299 -0.020520963 0.74300009 1.9269999e-38
-0.0091990512 -0.02052097 0.74300009 1.9722256e-38
-0.0077733351 -0.020493351 0.74200004 1.1504667e-38
-0.0063428432 -0.020438105 0.74000001 3.3983912e-39
-0.0049333367 -0.020438112 0.74000001 6.1620657e-39
-0.0035190478 -0.020410486 0.73900002 9.0068921e-39
-0.0021114114 -0.020410486 0.73900002 1.1427697e-38
-0.00070095598 -0.020327635 0.73600006 1.3927723e-38
0.00070096576 -0.020327628 0.73600006 1.6686752e-38
0.0020971543 -0.020272389 0.73400003 1.9468743e-38
0.0034952334 -0.020272404 0.73400009 2.0478954e-38
