# .PCD v0.7 - Point Cloud Data file format
VERSION 0.7
FIELDS x y z rgb
SIZE 4 4 4 4
TYPE F F F F
COUNT 1 1 1 1
WIDTH 968
HEIGHT 1
VIEWPOINT 0 0 0 1 0 0 0
POINTS 968
DATA ascii
0.013426665 0.0049466714 0.74200004 2.2884888e-38
0.014840004 0.0049466714 0.74200004 2.2272526e-38
0.016275248 0.0049533397 0.74300009 2.1642239e-38
0.017666683 0.004946664 0.7420001 2.219828e-38
0.019105716 0.0049533397 0.74300003 2.26783e-38
0.02052095 0.0049533471 0.74300003 2.2029389e-38
0.021995243 0.0049666762 0.74500006 2.1380053e-38
0.023477122 0.0049800128 0.74700004 1.880253e-38
0.024933301 0.0049866736 0.74800003 1.6239766e-38
0.02635807 0.0049866736 0.74800003 1.365153e-38
0.027857117 0.0050000101 0.75000006 1.1162552e-38
0.029285705 0.0050000101 0.75000006 1.069539e-38
0.030796185 0.0050133392 0.75200003 1.0231889e-38
0.032228567 0.0050133392 0.75200009 9.8627352e-39
0.033660918 0.0050133392 0.75200003 9.4946687e-39
0.035093319 0.0050133467 0.75200003 9.2187951e-39
0.036671422 0.0050333515 0.75500005 8.9422026e-39
0.038159989 0.0050400123 0.75600004 9.2184153e-39
-0.030960014 0.0064800158 0.75600004 1.1339004e-38
-0.029598085 0.0064971447 0.75800002 1.2899863e-38
-0.028080011 0.0064800158 0.75600004 1.4286019e-38
-0.026639992 0.0064800009 0.75600004 1.5574618e-38
-0.0252 0.0064800084 0.7560001 1.7053704e-38
-0.023728592 0.0064714402 0.75500005 1.8424756e-38
-0.022231428 0.006454289 0.75300002 1.7215088e-38
-0.020769555 0.0064457282 0.75200003 1.603096e-38
-0.019285714 0.006428577 0.75000006 1.8725805e-38
-0.01780954 0.0064114332 0.74800003 2.1378607e-38
-0.016384801 0.0064114332 0.74800003 2.0452695e-38
-0.014940041 0.0064028576 0.74700004 1.9446486e-38
-0.013517169 0.0064028651 0.74700004 2.1305472e-38
-0.012094297 0.0064028651 0.74700004 2.3032367e-38
-0.01067148 0.0064028725 0.74700004 2.091078e-38
-0.0092238234 0.0063857362 0.745 1.880395e-38
-0.0078047686 0.0063857436 0.745 2.1102354e-38
-0.0063857152 0.0063857287 0.745 2.3310747e-38
-0.0049533336 0.0063685849 0.74300003 2.2958508e-38
-0.0035380989 0.0063685924 0.74300003 2.2475988e-38
-0.0021200168 0.0063600019 0.74200004 2.053809e-38
-0.00070667797 0.0063600093 0.74200004 1.8589424e-38
0.00070473581 0.0063428804 0.74000001 1.920964e-38
0.0021142571 0.0063428655 0.74000001 1.9880862e-38
0.0035237765 0.0063428804 0.74000001 2.0141335e-38
0.0049466495 0.0063600168 0.74200004 2.0341106e-38
0.0063599902 0.0063600093 0.74200004 2.020905e-38
0.0077733281 0.0063600093 0.74200004 2.0053387e-38
0.0091866674 0.0063600019 0.74200004 2.1724749e-38
0.010600008 0.0063600168 0.7420001 2.3388565e-38
0.012013346 0.0063600019 0.7420001 2.3126708e-38
0.013426656 0.0063600168 0.74200004 2.2749683e-38
0.014839995 0.0063600093 0.74200004 2.3133888e-38
0.016253335 0.0063600168 0.74200004 2.340258e-38
0.017690476 0.0063685924 0.74300003 2.3405808e-38
0.019105712 0.0063685924 0.74300003 2.3409057e-38
0.02057617 0.0063857287 0.74500006 2.2766226e-38
0.022054264 0.0064028576 0.74700004 2.2118322e-38
0.023477105 0.0064028725 0.74700004 2.0375565e-38
0.024933292 0.0064114481 0.74800003 1.8525582e-38
0.026358061 0.0064114407 0.74800003 1.3641442e-38
0.027782829 0.0064114407 0.74800003 8.7680002e-39
0.029285707 0.0064285845 0.75000006 9.6819901e-39
0.030796165 0.0064457282 0.75200003 1.059995e-38
0.032228548 0.0064457282 0.75200003 1.0043878e-38
0.033705693 0.006454289 0.75300002 9.4939428e-39
0.035233326 0.0064714402 0.75500005 9.4028248e-39
0.036671448 0.0064714402 0.75500011 9.3106194e-39
0.038260989 0.0064971521 0.75800002 9.4949952e-39
0.039704766 0.0064971521 0.75800002 9.5868321e-39
-0.030960014 0.0079200119 0.75600004 1.077935e-38
-0.029598102 0.007940948 0.75800002 1.2523505e-38
-0.028080007 0.0079200119 0.75600004 1.3353611e-38
-0.026639989 0.007919997 0.75600004 1.4095179e-38
-0.025200004 0.0079200119 0.75600004 1.5016831e-38
-0.023728596 0.0079095364 0.75500005 1.5943052e-38
-0.022231443 0.0078885704 0.75300002 1.5004581e-38
-0.020769544 0.0078781098 0.75200009 1.4175589e-38
-0.01928574 0.0078571439 0.75000006 1.6302549e-38
-0.017857153 0.0078571588 0.75000006 1.8424428e-38
-0.016384808 0.0078362003 0.74800003 1.7771152e-38
-0.01496004 0.0078362003 0.74800003 1.7219825e-38
-0.013517182 0.0078257322 0.74700004 1.888116e-38
-0.01209431 0.0078257248 0.74700004 2.052876e-38
-0.010671464 0.0078257248 0.74700004 1.9889801e-38
-0.0092485901 0.0078257173 0.74700004 1.925052e-38
-0.00780479 0.0078047812 0.745 2.063162e-38
-0.0063857366 0.0078047737 0.745 2.199954e-38
-0.0049666823 0.0078047812 0.74500006 2.1916026e-38
-0.0035381007 0.0077838153 0.74300003 2.188692e-38
-0.0021199964 0.0077733323 0.7420001 2.1069677e-38
-0.00070668728 0.0077733472 0.74200004 2.0298715e-38
0.00070665247 0.0077733397 0.74200004 2.0789772e-38
0.0021199922 0.0077733397 0.74200004 2.1254021e-38
0.0035333319 0.0077733323 0.74200004 2.1541773e-38
0.00494667 0.0077733323 0.7420001 2.172939e-38
0.0063600098 0.0077733397 0.7420001 2.1726879e-38
0.0077733505 0.0077733472 0.7420001 2.17488e-38
0.0091866581 0.0077733397 0.74200004 2.2573563e-38
0.010599998 0.0077733546 0.74200004 2.3412284e-38
0.012013337 0.0077733397 0.74200004 2.3226104e-38
0.013426676 0.0077733472 0.74200004 2.3138944e-38
0.014840016 0.0077733323 0.74200004 2.2952055e-38
0.016275242 0.0077838227 0.74300009 2.2764434e-38
0.017690502 0.0077838227 0.74300009 2.1291475e-38
0.019105708 0.0077838227 0.74300003 1.9826414e-38
0.020576173 0.0078047812 0.745 1.889407e-38
0.022054249 0.0078257248 0.74700004 1.8074329e-38
0.023508573 0.0078361928 0.74800003 1.7243824e-38
0.02493331 0.0078362003 0.74799997 1.649836e-38
0.026428558 0.0078571439 0.75000006 1.2717302e-38
0.027857145 0.0078571513 0.75000006 8.8512149e-39
0.029285705 0.0078571513 0.75 9.9589511e-39
0.030796176 0.0078781024 0.75200003 1.1064151e-38
0.032357134 0.0079095364 0.75500005 1.0414791e-38
0.033795256 0.0079095364 0.75500011 9.7690822e-39
0.035280015 0.0079200119 0.75600004 9.5861371e-39
0.03681716 0.0079409629 0.75800002 9.4946477e-39
0.038361862 0.0079619288 0.76000005 9.4946337e-39
-0.029598093 0.0093847737 0.75800002 1.2154012e-38
-0.028154282 0.0093847662 0.75800002 1.2418044e-38
-0.026639991 0.0093600079 0.75600004 1.2616456e-38
-0.025200002 0.0093600005 0.75600004 1.3067059e-38
-0.023665732 0.0093228668 0.75300002 1.3441556e-38
-0.022231428 0.0093228593 0.75300002 1.2867923e-38
-0.020769563 0.0093104914 0.75200003 1.2241247e-38
-0.019337157 0.0093104839 0.75200003 1.379172e-38
-0.017857153 0.0092857331 0.75000006 1.5372655e-38
-0.016428566 0.0092857182 0.75000006 1.5171047e-38
-0.014960023 0.0092609674 0.74800003 1.4916374e-38
-0.013535252 0.0092609674 0.74800003 1.6470069e-38
-0.012094293 0.0092485771 0.74700004 1.7956615e-38
-0.010671477 0.009248592 0.74700004 1.8776996e-38
-0.009248605 0.0092485845 0.74700004 1.9619674e-38
-0.0078257313 0.009248592 0.74700004 2.0173571e-38
-0.006385731 0.0092238188 0.745 2.0632426e-38
-0.0049666767 0.0092238262 0.745 2.1001957e-38
-0.0035476235 0.0092238188 0.745 2.1273855e-38
-0.0021200057 0.0091866702 0.74200004 2.1738033e-38
-0.00070666679 0.0091866702 0.7420001 2.2099617e-38
0.00070667296 0.0091866702 0.7420001 2.2396271e-38
0.0021200108 0.0091866702 0.7420001 2.2662478e-38
0.0035333226 0.0091866702 0.74200004 2.295021e-38
0.0049466626 0.0091866851 0.74200004 2.3124195e-38
0.0063600005 0.0091866702 0.74200004 2.3311453e-38
0.0077733402 0.0091866776 0.74200004 2.3406177e-38
0.0091866786 0.0091866627 0.74200004 2.340799e-38
0.010600018 0.0091866702 0.7420001 2.341086e-38
0.012013326 0.0091866702 0.74200004 2.3410503e-38
0.013426667 0.0091866776 0.74200004 2.3410489e-38
0.014860001 0.009199053 0.74300003 2.2770496e-38
0.016275236 0.0091990605 0.74300009 2.2018949e-38
0.0176905 0.009199053 0.74300009 1.9076623e-38
0.019157154 0.0092238337 0.74500006 1.6116698e-38
0.020631419 0.009248592 0.74700004 1.5001377e-38
0.022054235 0.0092485845 0.74700004 1.3927351e-38
0.023508562 0.0092609599 0.74800003 1.4210771e-38
0.024933303 0.0092609599 0.74799997 1.4472249e-38
0.02642856 0.0092857331 0.75000006 1.169383e-38
0.027857147 0.0092857182 0.75000006 8.9448496e-39
0.02928571 0.0092857108 0.75000006 1.0238423e-38
0.030837139 0.0093228742 0.75300002 1.1430427e-38
0.032357126 0.0093476325 0.75500005 1.0690656e-38
0.033839993 0.0093600005 0.75600004 9.953828e-39
0.035280012 0.0093600079 0.75600004 9.8612834e-39
0.036914252 0.0094095469 0.76000005 9.6779487e-39
0.03841237 0.0094219148 0.76100004 9.5860908e-39
-0.028154274 0.010828577 0.75800002 1.3079552e-38
-0.026639989 0.010800011 0.7560001 1.3916474e-38
-0.0252 0.010800011 0.75600004 1.4092971e-38
-0.023665743 0.010757156 0.75300002 1.4367747e-38
-0.022231441 0.010757148 0.75300002 1.4271953e-38
-0.020769527 0.010742873 0.75200003 1.4283098e-38
-0.019337175 0.010742873 0.75200003 1.5380484e-38
-0.017857155 0.0107143 0.75000006 1.6491503e-38
-0.016428592 0.0107143 0.75000006 1.6853489e-38
-0.01496003 0.01068572 0.74800003 1.7324153e-38
-0.013535261 0.01068572 0.74800003 1.8148886e-38
-0.01211049 0.010685712 0.74800003 1.8897896e-38
-0.010685751 0.010685727 0.74800003 1.9810128e-38
-0.009248619 0.010671444 0.74699998 2.0645306e-38
-0.0078257462 0.010671452 0.74700004 2.0916557e-38
-0.006402872 0.010671444 0.74700004 2.1191346e-38
-0.0049666683 0.010642864 0.74500006 2.1563352e-38
-0.0035476449 0.010642886 0.745 2.2030071e-38
-0.0021228462 0.010614313 0.74300003 2.2304508e-38
-0.0007066761 0.010600008 0.74200004 2.2679395e-38
0.00070666365 0.010600008 0.74200004 2.2674743e-38
0.0021200033 0.010600016 0.74200004 2.2672238e-38
0.0035333431 0.010600001 0.74200004 2.2672603e-38
0.0049466831 0.010600008 0.7420001 2.2669374e-38
0.006360021 0.010600001 0.7420001 2.2303826e-38
0.0077733309 0.010600016 0.74200004 2.2034418e-38
0.0091866683 0.010600001 0.74200004 2.0925576e-38
0.010600009 0.010600016 0.74200004 1.9830365e-38
0.012029529 0.010614306 0.74300003 1.9357194e-38
0.013444765 0.010614298 0.74300003 1.8995911e-38
0.014860001 0.010614306 0.74300003 1.7779769e-38
0.016319023 0.010642879 0.745 1.6668414e-38
0.017738076 0.010642871 0.745 1.5181467e-38
0.019157132 0.010642879 0.74500006 1.3592235e-38
0.020631405 0.010671452 0.74700004 1.5840721e-38
0.022054253 0.010671437 0.74700004 1.8157136e-38
0.023508552 0.01068572 0.74800003 1.5862044e-38
0.025 0.0107143 0.75000006 1.3556775e-38
0.026428588 0.010714293 0.75000006 1.1335089e-38
0.027857119 0.010714307 0.75000006 9.128885e-39
0.029285708 0.010714307 0.75000006 1.0513591e-38
0.03083713 0.010757148 0.75300002 1.1892125e-38
0.032400008 0.010800004 0.7560001 1.0691373e-38
0.033839997 0.010800019 0.75600004 9.493933e-39
0.036962815 0.01087144 0.76100004 9.4935491e-39
0.038513329 0.010900013 0.76300001 9.4023988e-39
-0.026710484 0.012272403 0.75800002 1.5111426e-38
-0.025266649 0.012272395 0.75800002 1.520363e-38
-0.023759983 0.01224 0.75600004 1.5200409e-38
-0.022319997 0.012240008 0.75600004 1.5752506e-38
-0.020797182 0.012191437 0.75300002 1.6308555e-38
-0.019337162 0.012175247 0.75200009 1.6955005e-38
-0.017857149 0.012142859 0.75000006 1.7506027e-38
-0.016428592 0.012142882 0.75000006 1.8611291e-38
-0.014960038 0.012110487 0.74800003 1.9716209e-38
-0.013535269 0.012110479 0.74800003 1.9811297e-38
-0.012110498 0.012110479 0.74800003 1.981702e-38
-0.01068576 0.012110479 0.74800003 2.0736792e-38
-0.0092609907 0.012110487 0.74800003 2.1657321e-38
-0.0078362226 0.012110479 0.74800003 2.1655549e-38
-0.0064028841 0.012094304 0.74699998 2.1657712e-38
-0.0049800384 0.012094311 0.74700004 2.22134e-38
-0.0035476105 0.012061916 0.74500006 2.2764414e-38
-0.002122849 0.012029544 0.74300003 2.2953828e-38
-0.00070761301 0.012029529 0.74300003 2.3133559e-38
0.00070668414 0.012013324 0.7420001 2.2950252e-38
0.002119994 0.012013346 0.74200004 2.2670065e-38
0.0035333319 0.012013331 0.74200004 2.2489606e-38
0.0049466738 0.012013339 0.74200004 2.2206566e-38
0.0063600116 0.012013339 0.74200004 2.1383275e-38
0.0077733514 0.012013346 0.74200004 2.0539881e-38
0.0091990577 0.012029536 0.74300009 1.8429446e-38
0.010614264 0.012029551 0.74300003 1.6209954e-38
0.012029527 0.012029536 0.74300003 1.537553e-38
0.013444761 0.012029544 0.74300003 1.4450328e-38
0.014859997 0.012029529 0.74300003 1.2867929e-38
0.016319059 0.012061916 0.74500006 1.1310641e-38
0.017738083 0.012061916 0.745 1.1204425e-38
0.019208549 0.012094297 0.74700004 1.1142788e-38
0.020631421 0.012094297 0.74700004 1.6795399e-38
0.022054238 0.012094297 0.74700004 2.2300903e-38
0.023571413 0.012142889 0.75000006 1.7523342e-38
0.025 0.012142874 0.75000006 1.2630529e-38
0.026428564 0.012142874 0.75000006 1.0960929e-38
0.027857121 0.012142874 0.75000006 9.2246651e-39
0.029285708 0.012142882 0.75000006 1.0794481e-38
0.030919027 0.012223817 0.75500005 1.2259112e-38
0.032400012 0.012239993 0.7560001 1.0688511e-38
0.033929516 0.012272395 0.75800002 9.0344024e-39
0.035466634 0.01230479 0.76000005 9.2180804e-39
0.036962837 0.012320966 0.76099998 9.3098935e-39
0.038412362 0.012320966 0.76100004 9.2187544e-39
-0.026710449 0.013716206 0.75800008 1.3552388e-38
-0.025333388 0.013752408 0.76000005 1.3824685e-38
-0.023760011 0.013680004 0.75600004 1.4191339e-38
-0.02237905 0.013716206 0.75800002 1.4838879e-38
-0.02085237 0.013661914 0.75500011 1.548783e-38
-0.019362891 0.013625719 0.75300002 1.5854458e-38
-0.017857149 0.013571434 0.75000006 1.6220716e-38
-0.016428592 0.013571456 0.75 1.723377e-38
-0.015000003 0.013571441 0.75000006 1.8341935e-38
-0.013571443 0.013571441 0.75000006 1.8344485e-38
-0.012110482 0.013535246 0.74800003 1.844456e-38
-0.010685742 0.013535254 0.74799997 1.8809021e-38
-0.009260972 0.013535246 0.74800003 1.9183891e-38
-0.007836204 0.013535254 0.74800003 1.8991246e-38
-0.0064028702 0.013517156 0.74700004 1.8723295e-38
-0.0049800216 0.013517156 0.74700004 1.8713631e-38
-0.0035571798 0.013517156 0.74700004 1.8809768e-38
-0.0021228518 0.013444774 0.74300003 1.8708601e-38
-0.00070761674 0.013444781 0.74300003 1.8623583e-38
0.00070761918 0.013444774 0.74300009 1.8430944e-38
0.0021228793 0.013444774 0.74300009 1.8160419e-38
0.0035380854 0.013444774 0.74300003 1.7777611e-38
0.0049533234 0.013444781 0.74300003 1.741601e-38
0.0063685835 0.013444766 0.74300003 1.7211532e-38
0.0077838195 0.013444774 0.74300003 1.6914117e-38
0.0091990558 0.013444774 0.74300009 1.6458498e-38
0.010614286 0.013444789 0.74300003 1.588809e-38
0.012029522 0.013444774 0.74300003 1.5624755e-38
0.013444759 0.013444781 0.74300003 1.5245553e-38
0.014899984 0.013480976 0.74500006 1.4152114e-38
0.016319038 0.013480961 0.74500006 1.2950302e-38
0.017738091 0.013480946 0.74500006 1.4061594e-38
0.019208534 0.013517164 0.74700004 1.528505e-38
0.020659026 0.013535254 0.74799997 1.8533548e-38
0.022083795 0.013535239 0.74800003 2.1758548e-38
0.023508564 0.013535254 0.74800003 1.6315139e-38
0.024999972 0.013571441 0.75000006 1.0777321e-38
0.02642856 0.013571449 0.75000006 1.0598605e-38
0.027857149 0.013571441 0.75000006 1.0330996e-38
0.029363779 0.013607636 0.75200003 1.1528449e-38
0.030919051 0.013661906 0.75500011 1.2630405e-38
0.032399986 0.013680011 0.75600004 1.0782504e-38
0.033929523 0.013716199 0.75800002 8.8485846e-39
0.035466626 0.013752408 0.75999999 9.0329801e-39
0.036962833 0.013770491 0.76100004 9.3084754e-39
0.038412362 0.013770498 0.76100004 9.125868e-39
0.03996665 0.013806686 0.76299995 9.0358261e-39
-0.025433339 0.015260018 0.76300001 1.2534661e-38
-0.023917159 0.015220016 0.76100004 1.3086051e-38
-0.022467637 0.015220016 0.76100004 1.3831516e-38
-0.020935232 0.015160009 0.75800008 1.4559394e-38
-0.019362878 0.015060008 0.75300002 1.4753837e-38
-0.017904794 0.015040018 0.75200003 1.4834548e-38
-0.016428562 0.015000015 0.75000006 1.5852986e-38
-0.015000031 0.015000008 0.75000006 1.6860688e-38
-0.013571442 0.015000015 0.75000006 1.6964025e-38
-0.012142856 0.015000008 0.75000006 1.6954335e-38
-0.010714298 0.015000015 0.75 1.6870389e-38
-0.0092609804 0.014960006 0.74800003 1.6675223e-38
-0.0078571485 0.015000023 0.75000006 1.6217825e-38
-0.0064114421 0.014959998 0.74800003 1.5749682e-38
-0.004986702 0.014960013 0.74800003 1.5291944e-38
-0.0035619333 0.014960006 0.74800003 1.4731592e-38
-0.0021285738 0.014900014 0.74500006 1.4446388e-38
-0.0007076186 0.014860012 0.74300003 1.4085848e-38
0.00070764153 0.014860012 0.74300003 1.389786e-38
0.0021228774 0.014860004 0.74300009 1.3617662e-38
0.0035380817 0.014860027 0.74300003 1.3136215e-38
0.0049533197 0.014860019 0.74300003 1.259739e-38
0.0063685817 0.014860019 0.74300003 1.29493e-38
0.0077838157 0.014860012 0.74300003 1.3321669e-38
0.0091990512 0.014860012 0.74300009 1.4510514e-38
0.010614314 0.014860004 0.74300009 1.5619712e-38
0.012029518 0.014860019 0.74300003 1.5898446e-38
0.013444754 0.014860012 0.74300003 1.6085668e-38
0.014899989 0.014900021 0.745 1.5360633e-38
0.016319042 0.014900021 0.745 1.4611632e-38
0.01778568 0.014940001 0.74700004 1.699006e-38
0.019208552 0.014940009 0.74700004 1.9341303e-38
0.020659018 0.014960013 0.74799997 2.0294924e-38
0.022083787 0.014960006 0.74800003 2.1195323e-38
0.023508558 0.014960006 0.74800003 1.5109049e-38
0.025000004 0.015000008 0.75000006 8.9467007e-39
0.026428562 0.015000023 0.75000006 1.0232714e-38
0.027857151 0.015000015 0.75000006 1.1434815e-38
0.029363792 0.015040003 0.75200009 1.2265271e-38
0.030960023 0.015120007 0.75600004 1.2995938e-38
0.032485727 0.015160017 0.75800002 1.0870735e-38
0.034019016 0.015200026 0.76000005 8.6645269e-39
0.035513334 0.015220016 0.76100004 8.9396704e-39
0.03696283 0.015220024 0.76100004 9.2162629e-39
0.038412381 0.015220009 0.76100004 9.0318857e-39
0.039861877 0.015220009 0.76100004 8.8503685e-39
-0.025433335 0.016713351 0.76300001 1.0959445e-38
-0.023980021 0.016713358 0.76300001 1.1052365e-38
-0.022526678 0.016713344 0.76300001 1.1510116e-38
-0.020990523 0.016647637 0.76000005 1.2051818e-38
-0.019414285 0.016538113 0.75500011 1.2332364e-38
-0.017904783 0.016472392 0.75200009 1.2602489e-38
-0.016472407 0.016472399 0.75200003 1.3344347e-38
-0.015000002 0.016428582 0.75000006 1.4171589e-38
-0.013571443 0.016428597 0.75000006 1.4357776e-38
-0.012142856 0.01642859 0.75000006 1.452782e-38
-0.010714294 0.01642859 0.75000006 1.4720464e-38
-0.009285735 0.01642859 0.75000006 1.4980162e-38
-0.0078571476 0.01642859 0.75000006 1.489727e-38
-0.0064285859 0.016428575 0.75000006 1.4786049e-38
-0.0049867113 0.016384773 0.74800003 1.4985131e-38
-0.0035619417 0.01638478 0.74800003 1.5245191e-38
-0.0021285934 0.016319074 0.74500006 1.562435e-38
-0.00070762233 0.016275257 0.74300003 1.6079555e-38
0.00070763781 0.016275242 0.74300003 1.6085627e-38
0.0021228737 0.016275249 0.74300009 1.6071621e-38
0.0035380798 0.016275249 0.74300003 1.5892957e-38
0.0049533402 0.016275249 0.74300003 1.5704247e-38
0.006368577 0.016275249 0.74300003 1.5891847e-38
0.0077838139 0.016275257 0.74300003 1.5983722e-38
0.0091990475 0.016275242 0.74300009 1.654123e-38
0.010642834 0.016319059 0.74500006 1.7191991e-38
0.012061888 0.016319066 0.74500006 1.6548804e-38
0.013480942 0.016319051 0.74500006 1.6000612e-38
0.014899966 0.016319066 0.745 1.590191e-38
0.016362848 0.016362876 0.74700004 1.5899881e-38
0.017785667 0.016362868 0.74700004 1.8599824e-38
0.019208539 0.016362876 0.74700004 2.1397264e-38
0.020659041 0.016384766 0.74800003 1.9183571e-38
0.022083778 0.01638478 0.74800003 1.6966211e-38
0.023508547 0.016384766 0.74800003 1.2991779e-38
0.025000002 0.016428582 0.75000006 8.9434651e-39
0.026428564 0.016428582 0.75000006 1.0882035e-38
0.027931394 0.016472399 0.75200003 1.2818089e-38
0.029402824 0.016494296 0.75300002 1.3094286e-38
0.030919041 0.016538106 0.75500005 1.3370437e-38
0.032485735 0.016603827 0.75800002 1.0599157e-38
0.034019038 0.016647637 0.76000005 7.8361857e-39
0.035466634 0.016647637 0.76000005 8.021635e-39
0.036962826 0.016669542 0.76100004 8.2989673e-39
0.038412347 0.016669542 0.76100004 7.9302227e-39
0.039861899 0.016669527 0.76100004 7.5628863e-39
-0.02550002 0.018214285 0.7650001 9.4785706e-39
-0.024042888 0.018214293 0.76500005 8.9293429e-39
-0.022526674 0.018166684 0.76300001 9.2887857e-39
-0.020990502 0.018095255 0.76000005 9.5639293e-39
-0.019491434 0.018047638 0.75800002 9.9212226e-39
-0.01797617 0.017976195 0.75500011 1.0294667e-38
-0.016472394 0.017904766 0.75200003 1.0841738e-38
-0.015040045 0.017904788 0.75200003 1.1402824e-38
-0.013607639 0.017904773 0.75200003 1.1767324e-38
-0.012142882 0.017857157 0.75000006 1.2138962e-38
-0.010742881 0.017904773 0.75200003 1.2687456e-38
-0.0093105007 0.017904781 0.75200003 1.3239182e-38
-0.007878121 0.017904766 0.75200009 1.351361e-38
-0.0064285859 0.017857157 0.75000006 1.3788382e-38
-0.0049999976 0.017857157 0.75000006 1.4801425e-38
-0.0035714402 0.017857164 0.75 1.5715119e-38
-0.0021343182 0.017785728 0.74699998 1.6909701e-38
-0.00070953526 0.017738119 0.74500006 1.8015298e-38
0.00070951908 0.017738111 0.74500006 1.8293297e-38
0.0021228699 0.01769048 0.74300009 1.8473724e-38
0.0035380761 0.017690502 0.74300003 1.8660249e-38
0.0049533383 0.017690487 0.74300003 1.8837822e-38
0.0063685724 0.017690495 0.74300003 1.8746347e-38
0.0077838092 0.01769048 0.74300003 1.8655236e-38
0.0091990698 0.017690487 0.74300003 1.8662059e-38
0.010642837 0.017738119 0.745 1.8662063e-38
0.012061892 0.017738111 0.745 1.7287763e-38
0.013517119 0.017785728 0.74700004 1.589875e-38
0.014939962 0.017785721 0.74699998 1.6530836e-38
0.016362837 0.017785735 0.74700004 1.7128954e-38
0.017785681 0.017785721 0.74700004 2.0295238e-38
0.019234264 0.017809533 0.74800003 2.341372e-38
0.020659031 0.017809533 0.74800003 1.8075802e-38
0.022083772 0.017809533 0.74800003 1.2722031e-38
0.023571415 0.017857164 0.75 1.0856215e-38
0.024999978 0.017857149 0.75000006 8.9463154e-39
0.026499024 0.017904781 0.75200003 1.1533844e-38
0.027931403 0.017904766 0.75200009 1.410738e-38
0.029402845 0.017928578 0.75300008 1.3923342e-38
0.030959992 0.018000007 0.75600004 1.3733129e-38
0.03248572 0.018047631 0.75800002 1.0319347e-38
0.034019027 0.018095262 0.76000005 6.9182049e-39
0.035513297 0.01811906 0.76100004 7.1036696e-39
0.036962848 0.018119067 0.76100004 7.2873364e-39
0.038412344 0.018119067 0.76100004 6.7352444e-39
0.039861891 0.018119067 0.76100004 6.1813657e-39
-0.025433352 0.019620016 0.76300001 1.0583797e-38
-0.023980014 0.019620016 0.76299995 1.0673458e-38
-0.02252667 0.019620016 0.76300001 1.0944994e-38
-0.021018127 0.019568585 0.76100004 1.13098e-38
-0.019542888 0.01954288 0.75999999 1.1763929e-38
-0.0179762 0.019414298 0.75500011 1.2221322e-38
-0.016494285 0.019362852 0.75300002 1.2865615e-38
-0.015040033 0.019337147 0.75200003 1.3514614e-38
-0.013607627 0.019337162 0.75200009 1.3885594e-38
-0.012175275 0.019337155 0.75200003 1.4347978e-38
-0.010742869 0.019337162 0.75200003 1.4987934e-38
-0.0093105203 0.019337155 0.75200003 1.5724071e-38
-0.0078781135 0.019337162 0.75200003 1.5905965e-38
-0.0064285859 0.019285731 0.75000006 1.6093563e-38
-0.0049999994 0.019285731 0.75000006 1.6734239e-38
-0.0035714374 0.019285716 0.75000006 1.7373169e-38
-0.0021343015 0.019208588 0.74700004 1.8019273e-38
-0.00070955575 0.019157164 0.745 1.8757895e-38
0.00070949673 0.019157156 0.74500006 1.8756093e-38
0.0021228681 0.019105732 0.74300009 1.8848989e-38
0.0035380723 0.019105732 0.74300003 1.8845386e-38
0.0049533346 0.019105732 0.74300003 1.893437e-38
0.0063685705 0.019105725 0.74300003 1.8749281e-38
0.0077838055 0.019105725 0.74300003 1.8657422e-38
0.0092237918 0.019157149 0.74500006 1.783052e-38
0.010642846 0.019157156 0.74500006 1.7006141e-38
0.012094258 0.019208588 0.74699998 1.6264988e-38
0.013517105 0.019208595 0.74700004 1.5520665e-38
0.014939979 0.01920858 0.74700004 1.7860725e-38
0.016384715 0.0192343 0.74800003 2.0289803e-38
0.017809486 0.019234307 0.74800003 2.0385684e-38
0.019234279 0.019234292 0.74800003 2.047895e-38
0.020659024 0.0192343 0.74800003 1.5121277e-38
0.022142859 0.019285724 0.75000006 9.7646246e-39
0.023571417 0.019285724 0.75000006 9.6752386e-39
0.024999974 0.019285724 0.75000006 9.5945266e-39
0.026499037 0.019337147 0.75200009 1.2453984e-38
0.027931413 0.019337155 0.75200003 1.5399184e-38
0.029402861 0.019362859 0.75300002 1.5027186e-38
0.030959994 0.019440003 0.75600004 1.4747638e-38
0.03257142 0.01954288 0.76000005 1.2989035e-38
0.034063797 0.019568585 0.76100004 1.1229825e-38
0.035513293 0.019568577 0.76100004 1.2344421e-38
0.037059985 0.019620016 0.76300001 1.3439592e-38
0.038513325 0.019620024 0.76299995 1.3168709e-38
0.039861891 0.019568585 0.76100004 1.28785e-38
-0.025433348 0.021073341 0.76300001 1.1688329e-38
-0.024042862 0.021128573 0.76500005 1.232793e-38
-0.022526668 0.021073356 0.76300001 1.2692027e-38
-0.021018133 0.021018103 0.76100004 1.3056122e-38
-0.019542867 0.020990498 0.76000005 1.360389e-38
-0.017976206 0.020852394 0.75500005 1.4152048e-38
-0.016494298 0.020797141 0.75300002 1.4884955e-38
-0.015060024 0.020797156 0.75300002 1.5537873e-38
-0.013607645 0.020769544 0.75200003 1.6003892e-38
-0.012175266 0.020769529 0.75200009 1.645947e-38
-0.010742888 0.020769544 0.75200003 1.7284183e-38
-0.0093105081 0.020769529 0.75200003 1.8111792e-38
-0.0078781005 0.020769536 0.75200009 1.8292966e-38
-0.0064457501 0.020769536 0.75200003 1.8388737e-38
-0.0050000246 0.020714298 0.75000006 1.8760732e-38
-0.0035714374 0.020714298 0.75000006 1.9033389e-38
-0.002137169 0.020659052 0.74800003 1.921959e-38
-0.00070952222 0.020576201 0.74500006 1.9400387e-38
0.00070950232 0.020576209 0.745 1.9308189e-38
0.0021228644 0.020520963 0.74300009 1.9125226e-38
0.0035380966 0.020520978 0.74300003 1.9029433e-38
0.0049533308 0.02052097 0.74300003 1.8935806e-38
0.0063685668 0.020520963 0.74300003 1.8751063e-38
0.0077838036 0.020520963 0.74300003 1.8561989e-38
0.0092237964 0.020576201 0.74500006 1.6904982e-38
0.01064285 0.020576201 0.74500006 1.5250879e-38
0.012094275 0.020631447 0.74700004 1.5153318e-38
0.013517092 0.020631455 0.74699998 1.5101379e-38
0.014939964 0.020631447 0.74700004 1.9284993e-38
0.016384764 0.020659059 0.74800003 2.3416202e-38
0.017809503 0.020659059 0.74800003 2.0478949e-38
0.019234272 0.020659052 0.74800003 1.7514716e-38
0.020659043 0.020659052 0.74800003 1.2165989e-38
0.022142833 0.020714298 0.75000006 6.8323291e-39
0.023571422 0.020714305 0.75000006 8.5775357e-39
0.025066635 0.020769536 0.75200003 1.0243862e-38
0.026534269 0.020797156 0.75300002 1.3471391e-38
0.027968546 0.020797148 0.75300002 1.6591988e-38
0.029480936 0.020852394 0.75500005 1.6222476e-38
0.030959995 0.020879991 0.75600004 1.5761767e-38
0.032571409 0.020990506 0.76000005 1.5658716e-38
0.034063794 0.021018103 0.76100004 1.5484068e-38
0.035513315 0.021018118 0.76100004 1.7603872e-38
0.036962841 0.021018103 0.76100004 1.9622779e-38
0.038412359 0.02101811 0.76100004 1.9621306e-38
0.03986188 0.02101811 0.76099998 1.9620233e-38
-0.025500037 0.022585727 0.76500005 1.1687964e-38
-0.024105752 0.022644773 0.76700002 1.2329365e-38
-0.022526689 0.022526667 0.76300001 1.2509795e-38
-0.021018136 0.022467628 0.76100004 1.2690588e-38
-0.019542877 0.022438124 0.76000005 1.3513869e-38
-0.018047623 0.022379063 0.75800002 1.4244272e-38
-0.016560009 0.02232001 0.75600004 1.4798536e-38
-0.015119991 0.02232001 0.75600004 1.5267758e-38
-0.013625734 0.022231445 0.75300002 1.6000647e-38
-0.012175258 0.022201926 0.75200003 1.6824293e-38
-0.010742877 0.022201926 0.75200003 1.7377097e-38
-0.0093105007 0.022201926 0.75200003 1.793099e-38
-0.007878121 0.022201911 0.75200003 1.8020324e-38
-0.0064285821 0.022142865 0.75000006 1.8203636e-38
-0.0050000246 0.022142872 0.75 1.8665324e-38
-0.0035714374 0.022142865 0.75000006 1.9034831e-38
-0.0021371793 0.022083819 0.74800003 1.9309631e-38
-0.00070952036 0.021995246 0.74500006 1.9672668e-38
0.00071235962 0.022083811 0.74800003 1.9493661e-38
0.0021342619 0.022054285 0.74700004 1.9405765e-38
0.0035476128 0.021995246 0.745 1.8939049e-38
0.0049666683 0.021995246 0.74500006 1.8568826e-38
0.0063857227 0.021995254 0.74500006 1.7645438e-38
0.0078256978 0.022054292 0.74700004 1.6812081e-38
0.0092485445 0.0220543 0.74700004 1.5615688e-38
0.010671388 0.022054307 0.74699998 1.4510472e-38
0.012094261 0.0220543 0.74700004 1.6938052e-38
0.013535217 0.022083819 0.74800003 1.9262745e-38
0.014959987 0.022083811 0.74800003 2.1024586e-38
0.016384756 0.022083819 0.74800003 2.2866671e-38
0.017809493 0.022083811 0.74800003 1.7701637e-38
0.019285711 0.022142872 0.75000006 1.2617991e-38
0.020714274 0.022142872 0.75000006 9.5859339e-39
0.02220189 0.022201918 0.75200009 6.5550122e-39
0.023634268 0.022201926 0.75200003 9.7767963e-39
0.025066648 0.022201918 0.75200003 1.3005056e-38
0.026499053 0.022201903 0.75200009 1.3929535e-38
0.027968558 0.02223143 0.75300002 1.4938608e-38
0.02948096 0.022290483 0.75500011 1.6501563e-38
0.030959997 0.02232001 0.75600004 1.8163475e-38
0.032400016 0.022319995 0.7560001 1.8808021e-38
0.034019027 0.022438124 0.76000005 1.9464237e-38
0.035513312 0.022467643 0.76100004 2.0470218e-38
0.036962833 0.022467643 0.76099998 2.1580816e-38
0.038412359 0.022467643 0.76100004 2.1573245e-38
0.03986188 0.022467643 0.76099998 2.1580778e-38
0.041257106 0.022438109 0.76000005 2.1573962e-38
-0.025500022 0.024042867 0.76500005 1.1686534e-38
-0.024042889 0.02404286 0.76500005 1.2236828e-38
-0.022467664 0.023917161 0.76099998 1.2327586e-38
-0.020990485 0.023885742 0.76000005 1.232399e-38
-0.019542886 0.023885734 0.76000005 1.3332377e-38
-0.018047616 0.023822874 0.75800002 1.4338272e-38
-0.016538093 0.023728579 0.75500005 1.4704549e-38
-0.01511999 0.023760006 0.75600004 1.4987226e-38
-0.013625747 0.023665719 0.75300002 1.6090324e-38
-0.012175245 0.023634292 0.75200009 1.7100519e-38
-0.010742895 0.0236343 0.75200003 1.7377107e-38
-0.0093104886 0.0236343 0.75200003 1.76537e-38
-0.0078781387 0.0236343 0.75200003 1.7837022e-38
-0.006428584 0.023571432 0.75000006 1.8018537e-38
-0.0049999948 0.023571439 0.75000006 1.8570265e-38
-0.0035714384 0.023571439 0.75 1.9035192e-38
-0.0021371606 0.023508593 0.74800003 1.9495457e-38
-0.00070954085 0.023414299 0.74500006 1.9861723e-38
0.00070951349 0.023414299 0.74500006 1.9770962e-38
0.0021228588 0.023351446 0.74300009 1.9586208e-38
0.0035475923 0.023414314 0.745 1.8843985e-38
0.0049666469 0.023414299 0.745 1.8106035e-38
0.0064028413 0.023477152 0.74700004 1.6541207e-38
0.0078256838 0.023477174 0.74699998 1.4973578e-38
0.0092485314 0.023477159 0.74700004 1.4418651e-38
0.010685701 0.023508571 0.74800003 1.3813894e-38
0.01211044 0.023508593 0.74800003 1.8641779e-38
0.01353521 0.023508586 0.74800003 2.3411897e-38
0.014959978 0.023508586 0.74800003 2.2866677e-38
0.016384747 0.023508579 0.74800003 2.2205515e-38
0.017809486 0.023508593 0.74800003 1.5026901e-38
0.019285684 0.023571439 0.75000006 7.7510428e-39
0.020714274 0.023571439 0.75000006 7.0048318e-39
0.022201873 0.023634307 0.75200003 6.2759029e-39
0.023634279 0.0236343 0.75200003 1.0969575e-38
0.025066631 0.023634307 0.75200003 1.5674375e-38
0.026534298 0.023665726 0.75300002 1.4486996e-38
0.027968545 0.023665719 0.75300002 1.3283052e-38
0.029480955 0.023728579 0.75500011 1.6865675e-38
0.030959999 0.023760006 0.75600004 2.0463014e-38
0.032614261 0.023917161 0.76100004 2.1945627e-38
0.034019019 0.023885742 0.76000005 2.3413961e-38
0.035513308 0.023917161 0.76100004 2.3414722e-38
0.036962826 0.023917161 0.76100004 2.3416849e-38
0.038513344 0.023980014 0.76300001 2.3417541e-38
0.039861877 0.023917161 0.76100004 2.3416842e-38
-0.025500037 0.025500007 0.76500005 1.195989e-38
-0.024042903 0.025500014 0.76500005 1.2694944e-38
-0.022467669 0.025366679 0.76100004 1.2692802e-38
-0.020990495 0.02533336 0.76000005 1.2598447e-38
-0.019542897 0.02533336 0.75999999 1.3330968e-38
-0.018047608 0.025266692 0.75800002 1.4061704e-38
-0.016560007 0.025200009 0.75600004 1.4708495e-38
-0.015119989 0.025199994 0.75600004 1.5354924e-38
-0.013661909 0.025166668 0.75500011 1.5998842e-38
-0.012191432 0.0251 0.75300002 1.673318e-38
-0.010742884 0.025066674 0.75200009 1.7285997e-38
-0.0093105063 0.025066681 0.75200003 1.7745185e-38
-0.0078781275 0.025066681 0.75200003 1.7834878e-38
-0.006428584 0.025000013 0.75000006 1.783021e-38
-0.0049999948 0.025000021 0.75000006 1.8574933e-38
-0.0035714346 0.025000021 0.75000006 1.9316084e-38
-0.0021371681 0.024933338 0.74800003 1.9223182e-38
-0.00071240001 0.024933331 0.74800003 1.9222104e-38
0.0007113929 0.024900012 0.74700004 1.9038073e-38
0.0021342656 0.024900004 0.74700004 1.8855113e-38
0.0035571365 0.024900012 0.74700004 1.7467886e-38
0.0049799546 0.024900027 0.74700004 1.608204e-38
0.0064028273 0.024900012 0.74700004 1.534227e-38
0.0078361556 0.024933338 0.74800003 1.4510455e-38
0.0092609255 0.024933338 0.74800003 1.6568587e-38
0.010685695 0.024933338 0.74800003 1.8613455e-38
0.012110434 0.024933353 0.74800003 2.0930957e-38
0.013535204 0.024933338 0.74800003 2.3234019e-38
0.014959971 0.024933346 0.74800003 1.9912157e-38
0.016384741 0.024933331 0.74800003 1.658237e-38
0.017809508 0.024933353 0.74799997 1.1244041e-38
0.019285714 0.025000021 0.75000006 5.9968175e-39
0.020714274 0.025000021 0.75000006 6.3558624e-39
0.022201881 0.025066696 0.75200003 6.8190098e-39
0.02366568 0.025100015 0.75300002 1.2916048e-38
0.025099982 0.025100023 0.75300002 1.9000893e-38
0.026534284 0.025100008 0.75300002 1.4936478e-38
0.028042857 0.025166668 0.75500011 1.0881692e-38
0.029520005 0.025200009 0.75600004 1.5581053e-38
0.030959995 0.025200002 0.7560001 2.0376984e-38
0.032614257 0.025366679 0.76100004 2.194253e-38
0.034063779 0.025366679 0.76100004 2.3412249e-38
0.03551333 0.025366686 0.76100004 2.3414391e-38
0.036962826 0.025366679 0.76100004 2.3325772e-38
0.038412374 0.025366679 0.76100004 2.3139936e-38
-0.023980016 0.026886687 0.76300001 1.3152678e-38
-0.022467647 0.026816204 0.76100004 1.3058699e-38
-0.020990504 0.02678097 0.75999999 1.2874666e-38
-0.019568602 0.026816204 0.76100004 1.3331329e-38
-0.018047625 0.026710495 0.75800002 1.3699028e-38
-0.016560007 0.026640005 0.75600004 1.4712088e-38
-0.015100008 0.026604787 0.75500005 1.5629001e-38
-0.013680001 0.026640013 0.75600004 1.6000282e-38
-0.012223823 0.026604772 0.75500005 1.636871e-38
-0.010757171 0.026534297 0.75300002 1.7104122e-38
-0.009310497 0.026499048 0.75200003 1.7837742e-38
-0.0078781191 0.02649907 0.75200003 1.7743767e-38
-0.006445739 0.026499055 0.75200003 1.7653718e-38
-0.0050000218 0.026428595 0.75000006 1.8582469e-38
-0.0035714337 0.02642858 0.75000006 1.950156e-38
-0.0021371765 0.026358105 0.74800003 1.9043119e-38
-0.00071143889 0.026322864 0.74700004 1.8582505e-38
0.0007114078 0.026322871 0.74700004 1.8303768e-38
0.002128551 0.026252396 0.74500006 1.8026081e-38
0.0035571235 0.026322879 0.74700004 1.6090691e-38
0.0049799704 0.026322864 0.74700004 1.4058834e-38
0.0064028441 0.026322871 0.74700004 1.4051303e-38
0.0078361481 0.026358105 0.74800003 1.4092633e-38
0.0092485324 0.026322879 0.74700004 1.882403e-38
0.010685713 0.026358105 0.74800003 2.341011e-38
0.012110451 0.026358105 0.74799997 2.3234019e-38
0.01353522 0.026358105 0.74800003 2.2945939e-38
0.01495999 0.026358098 0.74800003 1.6964776e-38
0.016428569 0.026428588 0.75000006 1.097464e-38
0.017857127 0.026428588 0.75000006 7.5530281e-39
0.019285714 0.026428573 0.75000006 4.1461157e-39
0.020714277 0.026428573 0.75000006 5.7862108e-39
0.02220189 0.026499055 0.75200003 7.3876343e-39
0.023665691 0.026534297 0.75300002 1.4875141e-38
0.025099995 0.026534304 0.75300002 2.2207271e-38
0.026604759 0.026604787 0.75500005 1.5283733e-38
0.028042855 0.026604772 0.75500011 8.4007086e-39
0.029520007 0.026639998 0.75600004 1.4383981e-38
0.031123798 0.02678097 0.76000005 2.0281927e-38
0.03261428 0.026816204 0.76100004 2.1851408e-38
0.034063775 0.026816212 0.76100004 2.3412963e-38
0.035606667 0.026886687 0.76300001 2.3320403e-38
0.037059981 0.026886687 0.76299995 2.3229641e-38
0.038513325 0.026886687 0.76300001 2.2952338e-38
-0.024042876 0.028414294 0.76500005 1.3154464e-38
-0.022526698 0.028340027 0.76300001 1.2969006e-38
-0.021018101 0.02826573 0.76100004 1.2877173e-38
-0.019568605 0.02826573 0.76100004 1.3333841e-38
-0.018047616 0.028154306 0.75800002 1.379302e-38
-0.016560005 0.028080009 0.75600004 1.4433357e-38
-0.015099985 0.02804286 0.75500011 1.5162296e-38
-0.013661918 0.028042875 0.75500005 1.5815182e-38
-0.012191432 0.027968578 0.75300002 1.6555254e-38
-0.010742866 0.027931444 0.75200009 1.7106633e-38
-0.0093105156 0.027931444 0.75200003 1.7655867e-38
-0.007878108 0.027931452 0.75200003 1.7562612e-38
-0.0064285793 0.027857162 0.75000006 1.7468616e-38
-0.0050000218 0.027857162 0.75 1.784384e-38
-0.0035714337 0.02785717 0.75000006 1.8217669e-38
-0.0021343238 0.027745739 0.74699998 1.7849638e-38
-0.00071145192 0.027745731 0.74699998 1.7576639e-38
0.0007113929 0.027745731 0.74700004 1.6744377e-38
0.0021342675 0.027745724 0.74700004 1.5916017e-38
0.0035571104 0.027745739 0.74699998 1.5624318e-38
0.0049799574 0.027745724 0.74700004 1.5337042e-38
0.0064114272 0.02778285 0.74800003 1.7031763e-38
0.0078361668 0.027782865 0.74799997 1.8810783e-38
0.0092609357 0.02778288 0.74800003 2.0750156e-38
0.010685704 0.027782865 0.74800003 2.2683006e-38
0.012110473 0.027782857 0.74800003 2.0280575e-38
0.013535213 0.027782872 0.74800003 1.7973532e-38
0.014959983 0.027782872 0.74800003 1.4016677e-38
0.016428569 0.027857155 0.75000006 1.0144507e-38
0.017857125 0.027857162 0.75 6.1722503e-39
0.019285714 0.027857162 0.75000006 2.1149728e-39
0.020714277 0.027857155 0.75000006 6.9011651e-39
0.022201871 0.027931444 0.75200003 1.1712906e-38
0.023665683 0.027968578 0.75300002 1.6702219e-38
0.025099985 0.027968578 0.75300002 2.1761394e-38
0.026604753 0.028042875 0.75500005 1.4366814e-38
0.02807999 0.028080016 0.75600004 7.1046182e-39
0.029598111 0.028154299 0.75800008 1.4111003e-38
0.031164724 0.028265737 0.76100004 2.1209256e-38
0.032699987 0.028340027 0.76300001 2.2312733e-38
0.034063797 0.028265737 0.76100004 2.3415113e-38
0.035606641 0.028340019 0.76300001 2.3413672e-38
0.037059981 0.028340019 0.76299995 2.332041e-38
0.038513329 0.028340019 0.76300001 2.3138181e-38
-0.024042891 0.029871441 0.76500005 1.3063336e-38
-0.022526694 0.029793352 0.76300001 1.2969347e-38
-0.021018134 0.029715255 0.76099998 1.2876433e-38
-0.019568583 0.029715262 0.76100004 1.3333098e-38
-0.018095266 0.029676206 0.76000005 1.379157e-38
-0.016560003 0.029520005 0.75600004 1.4250041e-38
-0.015099989 0.029480964 0.75500005 1.4618819e-38
-0.013661923 0.029480971 0.75500005 1.563511e-38
-0.012191444 0.029402867 0.75300002 1.6646382e-38
-0.010742882 0.029363811 0.75200003 1.7018752e-38
-0.0093105026 0.029363818 0.75200009 1.7383591e-38
-0.0078781275 0.029363818 0.75200003 1.7289972e-38
-0.0064457455 0.029363826 0.75200003 1.7197412e-38
-0.004999992 0.029285729 0.75000006 1.7106285e-38
-0.0035714607 0.029285721 0.75000006 1.6927662e-38
-0.0021371653 0.029207639 0.74799997 1.6744733e-38
-0.00071143702 0.029168583 0.74700004 1.6467774e-38
0.00071137986 0.029168591 0.74700004 1.5180984e-38
0.0021342526 0.029168591 0.74700004 1.3795942e-38
0.0035571272 0.029168591 0.74700004 1.5245244e-38
0.0049799723 0.029168583 0.74700004 1.6668385e-38
0.0064114197 0.029207632 0.74800003 2.0111546e-38
0.0078361584 0.029207632 0.74800003 2.3414068e-38
0.0092609283 0.029207632 0.74800003 2.2683003e-38
0.010685696 0.029207624 0.74800003 2.1928943e-38
0.012110465 0.029207624 0.74800003 1.7415727e-38
0.013535205 0.029207624 0.74800003 1.2915748e-38
0.014959974 0.029207632 0.74800003 1.1166889e-38
0.016428569 0.029285736 0.75000006 9.307189e-39
0.017809482 0.029207639 0.74800003 4.6927846e-39
0.019285688 0.029285721 0.75000006 9.5293901e-41
0.020714276 0.029285729 0.75000006 7.9903005e-39
0.022201886 0.029363826 0.75200003 1.5945961e-38
0.023665695 0.029402882 0.75300002 1.8642244e-38
0.025099972 0.029402867 0.75300002 2.127563e-38
0.026604777 0.029480971 0.75500011 1.3500397e-38
0.028079992 0.029520012 0.75600004 5.7281284e-39
0.029676177 0.029676206 0.76000005 1.3929855e-38
0.031164743 0.029715255 0.76100004 2.2031841e-38
0.032699991 0.029793367 0.76300001 2.2774791e-38
0.03406379 0.029715255 0.76100004 2.3416565e-38
0.035606649 0.029793352 0.76300001 2.3415489e-38
0.037059989 0.029793344 0.76300001 2.3414774e-38
0.038614284 0.029871427 0.76500005 2.3417645e-38
-0.023980005 0.031246684 0.76300001 1.2970414e-38
-0.022467634 0.03116478 0.76100004 1.2969687e-38
-0.021018136 0.03116478 0.76100004 1.2968607e-38
-0.019568587 0.031164788 0.76100004 1.3425267e-38
-0.018095275 0.031123832 0.76000005 1.3790121e-38
-0.016603814 0.031041913 0.75800002 1.4159636e-38
-0.015120015 0.030960009 0.75600004 1.4621692e-38
-0.0136619 0.030919068 0.75500011 1.535746e-38
-0.012223832 0.03091906 0.75500005 1.6182908e-38
-0.010757154 0.030837156 0.75300008 1.6463082e-38
-0.0093104951 0.030796215 0.75200003 1.6834374e-38
-0.0078885788 0.030837156 0.75300002 1.6557795e-38
-0.006445738 0.030796215 0.75200003 1.63734e-38
-0.0050133583 0.030796207 0.75200003 1.5819869e-38
-0.0035714309 0.030714303 0.75000006 1.5365737e-38
-0.0021371746 0.030632392 0.74800003 1.4622464e-38
-0.00071240374 0.030632392 0.74800003 1.3981377e-38
0.00071139849 0.030591451 0.74700004 1.5823793e-38
0.0021342712 0.030591443 0.74700004 1.7749924e-38
0.0035571123 0.030591458 0.74699998 1.8878593e-38
0.0049866424 0.030632406 0.74800003 2.0111584e-38
0.0064114113 0.030632392 0.74800003 2.057079e-38
0.0078361509 0.030632406 0.74800003 2.1029964e-38
0.0092609189 0.030632392 0.74800003 1.898949e-38
0.010685688 0.030632399 0.74800003 1.6943991e-38
0.012110458 0.030632392 0.74800003 1.4471599e-38
0.013535197 0.030632399 0.74800003 1.1994868e-38
0.015000013 0.030714288 0.75000006 9.039946e-39
0.016428571 0.030714311 0.75000006 6.1736264e-39
0.017857132 0.030714296 0.75000006 4.7831305e-39
0.019285718 0.030714296 0.75000006 3.3984865e-39
0.020714277 0.030714303 0.75000006 1.1525632e-38
0.022201866 0.030796207 0.75200003 1.9744231e-38
0.023665711 0.030837148 0.75300008 1.9094247e-38
0.025099983 0.030837148 0.75300002 1.852519e-38
0.026640028 0.030960001 0.75600004 1.2792538e-38
0.028079992 0.030960001 0.75600004 7.2035611e-39
0.029676167 0.031123832 0.76000005 1.4391914e-38
0.031164741 0.03116478 0.76100004 2.1489091e-38
0.032699969 0.031246684 0.76300001 2.1580223e-38
0.034153342 0.031246692 0.76300001 2.1580948e-38
0.035606656 0.031246684 0.76300001 2.1207513e-38
0.03706 0.031246692 0.76300001 2.0841962e-38
0.03851334 0.031246684 0.76300001 2.0746894e-38
-0.024042889 0.032785714 0.76500005 1.2789278e-38
-0.022526687 0.032700032 0.76299995 1.2970054e-38
-0.02101814 0.032614298 0.76100004 1.3060088e-38
-0.019620029 0.032700032 0.76300001 1.3425986e-38
-0.018119069 0.032614298 0.76100004 1.3791914e-38
-0.016647657 0.03257145 0.76000005 1.4160354e-38
-0.015120015 0.032400012 0.75600004 1.4529496e-38
-0.013679998 0.032399997 0.7560001 1.5082308e-38
-0.012223808 0.032357149 0.75500011 1.5633326e-38
-0.010785718 0.032357164 0.75500005 1.6000315e-38
-0.0093104839 0.032228589 0.75200009 1.6280845e-38
-0.0078885909 0.032271445 0.75300002 1.591745e-38
-0.0064457278 0.032228582 0.75200003 1.5450704e-38
-0.0050133462 0.032228582 0.75200009 1.4616977e-38
-0.0035714319 0.03214287 0.75000006 1.3697243e-38
-0.002137182 0.032057151 0.74800003 1.2582e-38
-0.00071241119 0.032057151 0.74800003 1.1507621e-38
0.00071235589 0.032057144 0.74800003 1.656685e-38
0.0021342563 0.032014295 0.74700004 2.1642605e-38
0.0035571291 0.032014295 0.74700004 2.2591142e-38
0.004986634 0.032057151 0.74800003 2.3417669e-38
0.0064114039 0.032057136 0.74800003 2.1029952e-38
0.0078361416 0.032057151 0.74800003 1.8527796e-38
0.0092609106 0.032057144 0.74800003 1.5301001e-38
0.010685707 0.032057151 0.74800003 1.1989884e-38
0.012110475 0.032057144 0.74800003 1.1531766e-38
0.013571424 0.032142885 0.75000006 1.1060355e-38
0.014999987 0.03214287 0.75000006 7.0077185e-39
0.016428575 0.032142878 0.75000006 2.9543716e-39
0.017857132 0.03214287 0.75000006 4.7759867e-39
0.019285718 0.032142885 0.75000006 6.6482784e-39
0.020714281 0.03214287 0.75000006 1.5060621e-38
0.022142839 0.032142878 0.75000006 2.3416583e-38
0.023634253 0.032228589 0.75200003 1.9556629e-38
0.02509997 0.032271437 0.75300002 1.5653891e-38
0.02664 0.032400005 0.75600004 1.2124954e-38
0.028154274 0.032485723 0.75800002 8.6718585e-39
0.02971521 0.032614313 0.76099998 1.4852882e-38
0.031164736 0.032614298 0.76100004 2.0929113e-38
0.032699976 0.032700017 0.76299995 2.0383861e-38
0.03415332 0.032700017 0.76300001 1.9734555e-38
0.035606656 0.032700017 0.76299995 1.899162e-38
0.03706 0.032700017 0.76300001 1.8260519e-38
0.038513318 0.032700017 0.76300001 1.7981063e-38
-0.024042904 0.034242868 0.76500005 1.2795759e-38
-0.02258574 0.034242854 0.7650001 1.269635e-38
-0.02107334 0.034153357 0.76300001 1.2691675e-38
-0.019620026 0.03415335 0.76299995 1.3059004e-38
-0.018119073 0.034063816 0.76100004 1.3516051e-38
-0.016647667 0.03401906 0.76000005 1.3700817e-38
-0.015159988 0.033929542 0.75800002 1.3978122e-38
-0.013679996 0.033840008 0.7560001 1.4348697e-38
-0.012240009 0.033840001 0.75600004 1.4808956e-38
-0.010785721 0.033795267 0.75500005 1.4809319e-38
-0.0093228808 0.033705719 0.75300002 1.4901154e-38
-0.007888603 0.033705726 0.75300002 1.4073917e-38
-0.0064543015 0.033705711 0.75300008 1.3242313e-38
-0.0050133639 0.033660963 0.75200003 1.3877923e-38
-0.0035809593 0.033660963 0.75200003 1.4611622e-38
-0.0021371904 0.033481918 0.74800003 1.6016509e-38
-0.0007124205 0.033481911 0.74800003 1.7501746e-38
0.00071234844 0.033481911 0.74800003 1.9996453e-38
0.0021342433 0.03343717 0.74699998 2.2591168e-38
0.0035618835 0.033481926 0.74799997 2.1211127e-38
0.0049866526 0.033481911 0.74800003 1.9927926e-38
0.0064114206 0.033481918 0.74800003 1.7517229e-38
0.0078361891 0.033481903 0.74800003 1.5188705e-38
0.0092609292 0.033481918 0.74800003 1.2630234e-38
0.010685699 0.033481911 0.74800003 1.0151368e-38
0.012142866 0.033571444 0.75000006 9.6810428e-39
0.013571398 0.033571452 0.75000006 9.2074866e-39
0.014999986 0.033571444 0.75000006 5.8077487e-39
0.016428573 0.033571437 0.75000006 2.4012174e-39
0.017857132 0.033571444 0.75 8.2941048e-39
0.019285692 0.033571452 0.75000006 1.4193891e-38
0.020769509 0.033660963 0.75200009 1.8815871e-38
0.022201883 0.033660963 0.75200003 2.3417666e-38
0.023665709 0.033705726 0.75300002 1.8057463e-38
0.025166672 0.033795252 0.75500005 1.2776137e-38
0.026640002 0.033840016 0.75600004 1.1502568e-38
0.028154284 0.033929549 0.75800002 1.033172e-38
0.029715208 0.034063831 0.76100004 1.494292e-38
0.03116476 0.034063816 0.76100004 1.9643419e-38
0.03270001 0.03415335 0.76300001 1.899737e-38
0.034153324 0.034153357 0.76300001 1.8440611e-38
0.035606638 0.034153357 0.76300001 1.7981427e-38
0.037157107 0.034242861 0.76500005 1.7522603e-38
0.03871524 0.034332387 0.76700002 1.7246014e-38
-0.022585729 0.035700001 0.76500005 1.2510882e-38
-0.021073362 0.03560669 0.76300001 1.2325768e-38
-0.019619994 0.035606675 0.76300001 1.2785297e-38
-0.018119076 0.035513341 0.76100004 1.3149783e-38
-0.01664765 0.035466686 0.75999999 1.3240915e-38
-0.015159979 0.035373345 0.75800002 1.3334912e-38
-0.013680025 0.035280004 0.75600004 1.3616526e-38
-0.012240008 0.035279997 0.75600004 1.3892039e-38
-0.010785696 0.035233356 0.75500011 1.3710886e-38
-0.0093228929 0.035140015 0.75300002 1.3430689e-38
-0.0078885891 0.035140008 0.75300002 1.2235007e-38
-0.0064457343 0.035093345 0.75200003 1.1037232e-38
-0.0050133583 0.035093367 0.75200003 1.3224813e-38
-0.003580977 0.035093352 0.75200003 1.5475205e-38
-0.0021428696 0.035000019 0.75000006 1.946258e-38
-0.00071240374 0.03490667 0.74800003 2.3406524e-38
0.00071236707 0.034906678 0.74800003 2.3417687e-38
0.0021371359 0.034906685 0.74800003 2.3414094e-38
0.0035618751 0.034906685 0.74800003 1.9918241e-38
0.0049866433 0.03490667 0.74800003 1.6414142e-38
0.0064114123 0.034906678 0.74800003 1.4106413e-38
0.0078361817 0.034906685 0.74800003 1.1804045e-38
0.0092609217 0.034906678 0.74800003 1.006345e-38
0.010685691 0.03490667 0.74800003 8.3031348e-39
0.01214284 0.035000011 0.75000006 7.8335387e-39
0.013571427 0.035000019 0.75000006 7.3700228e-39
0.014999986 0.035000019 0.75000006 4.6142082e-39
0.016428573 0.035000019 0.75000006 1.7748874e-39
0.017857136 0.035000004 0.75000006 1.1804733e-38
0.01933711 0.035093352 0.75200003 2.1744167e-38
0.02076949 0.035093337 0.75200003 2.2591171e-38
0.022201898 0.035093352 0.75200003 2.3307122e-38
