# .PCD v0.7 - Point Cloud Data file format
VERSION 0.7
FIELDS x y z rgb
SIZE 4 4 4 4
TYPE F F F F
COUNT 1 1 1 1
WIDTH 971
HEIGHT 1
VIEWPOINT 0 0 0 1 0 0 0
POINTS 971
DATA ascii
-0.0049800184 0.020631425 0.74700004 1.7105946e-38
-0.003547637 0.020576186 0.74500006 1.7563326e-38
-0.002122862 0.020520955 0.74300003 1.8301594e-38
-0.00070761819 0.020520955 0.74300003 1.8943717e-38
0.00070761121 0.020520963 0.74299997 1.9128457e-38
0.0021228555 0.020520963 0.74299997 1.9211295e-38
0.0035380893 0.020520963 0.74300003 1.9016115e-38
0.0049533332 0.020520963 0.74300003 1.8836019e-38
0.006368563 0.020520963 0.74300003 1.9011069e-38
0.0077838069 0.02052097 0.74299997 1.9108699e-38
0.0092237908 0.020576194 0.74500006 1.9392511e-38
0.010642846 0.020576201 0.74500006 1.9580115e-38
0.012061888 0.020576201 0.74500006 2.0228692e-38
0.013480945 0.020576179 0.74500006 2.0871538e-38
0.014939979 0.020631425 0.74700004 1.9759823e-38
0.016362848 0.020631425 0.74700004 1.8659587e-38
0.017809521 0.020659067 0.74800003 1.8478424e-38
0.019234287 0.020659052 0.74799997 1.8299431e-38
0.020659041 0.020659067 0.74800003 1.7845648e-38
0.022142833 0.02071429 0.75000006 1.7297146e-38
0.023571409 0.020714298 0.75000006 1.6378075e-38
0.024999976 0.02071429 0.75000006 1.5382642e-38
0.026499035 0.020769514 0.75200003 1.5120099e-38
0.027968567 0.020797148 0.75300002 1.4841298e-38
0.029402841 0.020797141 0.75300002 1.5020958e-38
0.03096001 0.020880014 0.75599998 1.5113821e-38
0.032485701 0.020935237 0.75800002 1.5658686e-38
0.033929512 0.020935237 0.75800002 1.6127949e-38
0.03546666 0.020990476 0.76000005 1.7604175e-38
0.036962856 0.021018103 0.76100004 1.907354e-38
0.038412381 0.02101808 0.76100004 1.9257567e-38
0.039704747 0.02093523 0.75800002 1.943945e-38
-0.025266679 0.022379041 0.75800002 1.1135882e-38
-0.023885727 0.022438094 0.76000005 1.1501067e-38
-0.022379061 0.022379048 0.75800002 1.1865893e-38
-0.020880008 0.022320002 0.75599998 1.2232527e-38
-0.019414291 0.022290491 0.75500005 1.2692072e-38
-0.01790479 0.022201896 0.75200003 1.3152324e-38
-0.016472399 0.022201896 0.75200003 1.3612217e-38
-0.015040013 0.022201903 0.75200003 1.4072096e-38
-0.013607631 0.022201911 0.75199997 1.4901468e-38
-0.012142885 0.022142872 0.75000006 1.5639762e-38
-0.010714308 0.022142872 0.75000006 1.6097168e-38
-0.0092609599 0.022083811 0.74799997 1.6559227e-38
-0.0078361882 0.022083819 0.74799997 1.6831516e-38
-0.0064114346 0.022083819 0.74799997 1.719815e-38
-0.0049800128 0.022054285 0.74700004 1.7933561e-38
-0.0035571598 0.022054285 0.74700004 1.866824e-38
-0.0021285939 0.021995224 0.74500006 1.8945892e-38
-0.00070953765 0.021995232 0.74500006 1.9222104e-38
0.00070950366 0.021995232 0.74500006 1.9405047e-38
0.0021228583 0.021936215 0.74299997 1.9679808e-38
0.0035380924 0.021936201 0.74300003 1.9394229e-38
0.0049533215 0.021936208 0.74300003 1.9028326e-38
0.0063685658 0.021936208 0.74299997 1.9110838e-38
0.0078047439 0.021995224 0.74500006 1.9199824e-38
0.0092237862 0.021995224 0.74500006 1.9391764e-38
0.010671416 0.022054277 0.74699998 1.9579393e-38
0.01209427 0.022054292 0.74699998 2.0135799e-38
0.013517139 0.022054292 0.74699998 2.0599272e-38
0.014939991 0.022054292 0.74699998 1.9488987e-38
0.016384769 0.022083826 0.74799997 1.829153e-38
0.017809521 0.022083819 0.74799997 1.8202196e-38
0.019234287 0.022083826 0.74799997 1.8210108e-38
0.020714264 0.022142857 0.75000006 1.7476877e-38
0.022142841 0.022142865 0.75000006 1.6835809e-38
0.023571415 0.022142872 0.75000006 1.6943775e-38
0.025066659 0.022201903 0.75199997 1.7046792e-38
0.026534278 0.022231422 0.75300002 1.5114002e-38
0.027968563 0.02223143 0.75300002 1.3092843e-38
0.029480953 0.022290491 0.755 1.613555e-38
0.030959994 0.022320002 0.75600004 1.9090024e-38
0.032485697 0.022379041 0.75800002 1.9453014e-38
0.033929508 0.022379048 0.75800002 1.9831919e-38
0.035466667 0.022438087 0.76000005 2.0562738e-38
0.0369143 0.022438116 0.75999999 2.130531e-38
0.038361903 0.022438094 0.75999999 2.1390324e-38
0.039704762 0.022379033 0.75800002 2.1488986e-38
-0.025266679 0.023822851 0.75800002 1.1505375e-38
-0.023885719 0.023885734 0.75999999 1.1868388e-38
-0.022379063 0.023822859 0.75800002 1.2417227e-38
-0.020880006 0.023760006 0.75599998 1.2875712e-38
-0.019414298 0.023728572 0.75500005 1.3702975e-38
-0.017928585 0.023665711 0.75300002 1.443694e-38
-0.016494296 0.023665711 0.75300002 1.4621328e-38
-0.015040021 0.02363427 0.75200003 1.4714936e-38
-0.013607633 0.023634277 0.75199997 1.5456775e-38
-0.012142878 0.023571432 0.75000006 1.6191491e-38
-0.010714301 0.023571439 0.75000006 1.7017325e-38
-0.0092609525 0.023508586 0.74799997 1.7751299e-38
-0.0078361975 0.023508593 0.74800003 1.7842066e-38
-0.0064114258 0.023508579 0.74799997 1.7841353e-38
-0.0049866722 0.023508586 0.74800003 1.8762223e-38
-0.0035619072 0.023508571 0.74799997 1.9680576e-38
-0.0021343061 0.023477137 0.74700004 1.9591248e-38
-0.00070954324 0.023414284 0.74500006 1.9406508e-38
0.00070949853 0.023414291 0.74500006 1.9773857e-38
0.0021228616 0.023351461 0.74299997 2.0137207e-38
0.003547596 0.023414277 0.74500006 1.9669016e-38
0.0049533243 0.023351431 0.74300003 1.9208412e-38
0.0063856933 0.023414284 0.74500006 1.9204475e-38
0.0078047388 0.023414269 0.74500012 1.9203761e-38
0.0092237806 0.023414269 0.74500006 1.939497e-38
0.010671417 0.023477137 0.74700004 1.9581167e-38
0.012110486 0.023508593 0.74799997 1.9951753e-38
0.013517124 0.023477137 0.74700004 2.0321964e-38
0.014960003 0.023508593 0.74799997 1.9120926e-38
0.016384758 0.023508586 0.74800003 1.7924543e-38
0.017809523 0.023508579 0.74799997 1.8012421e-38
0.019285705 0.023571439 0.75000006 1.8022827e-38
0.02071427 0.023571424 0.75000006 1.7199181e-38
0.022142846 0.023571432 0.75000006 1.6293786e-38
0.023571407 0.023571439 0.75 1.7514597e-38
0.025066657 0.023634277 0.75200003 1.8704532e-38
0.026534278 0.023665711 0.75300002 1.5012479e-38
0.02804286 0.023728572 0.75500005 1.1350512e-38
0.02951999 0.023759991 0.75599998 1.7246611e-38
0.031041889 0.023822851 0.75800002 2.3041912e-38
0.032485697 0.023822851 0.75800002 2.3231303e-38
0.033929508 0.023822844 0.75800002 2.3414304e-38
0.035466667 0.023885727 0.76000005 2.3417581e-38
0.036914289 0.023885727 0.76000005 2.3416852e-38
0.038361911 0.023885705 0.76000005 2.3417558e-38
-0.025266681 0.025266662 0.75800002 1.1410667e-38
-0.023885719 0.025333345 0.76000005 1.1866575e-38
-0.022379063 0.025266662 0.75800002 1.2233159e-38
-0.020880006 0.025200009 0.75599998 1.2690944e-38
-0.019440003 0.025200009 0.75599998 1.3517146e-38
-0.017928585 0.025100008 0.75300002 1.4434065e-38
-0.016494304 0.025100008 0.75300002 1.4802482e-38
-0.015040022 0.025066651 0.75200003 1.5168725e-38
-0.013607642 0.025066659 0.75200003 1.5637565e-38
-0.012142877 0.024999999 0.75000006 1.6192924e-38
-0.010714302 0.025000006 0.75000006 1.6925855e-38
-0.0092609627 0.024933346 0.74800003 1.7749511e-38
-0.007836191 0.024933346 0.74799997 1.7839915e-38
-0.0064114365 0.024933338 0.74800003 1.8021433e-38
-0.0049866727 0.024933346 0.74799997 1.8667866e-38
-0.0035619002 0.024933353 0.74799997 1.931215e-38
-0.0021343015 0.024900004 0.74700004 1.9312868e-38
-0.00071144081 0.024900004 0.74700004 1.931361e-38
0.0007114124 0.024900004 0.74700004 1.9590577e-38
0.0021285496 0.024833336 0.74500006 1.9957139e-38
0.0035571337 0.024900012 0.74700004 1.9578972e-38
0.0049666464 0.024833329 0.74500006 1.9298455e-38
0.0063857026 0.024833329 0.74500006 1.9295598e-38
0.0078047439 0.024833329 0.74500006 1.9291642e-38
0.0092238002 0.024833336 0.74500006 1.9484989e-38
0.010671414 0.024900012 0.74700004 1.9673701e-38
0.012110475 0.024933338 0.74800003 2.0047518e-38
0.01353524 0.024933346 0.74799997 2.0513517e-38
0.014959993 0.024933346 0.74800003 1.9217781e-38
0.016384758 0.024933346 0.74799997 1.7925973e-38
0.017809527 0.024933338 0.74800003 1.7096211e-38
0.019285696 0.025000013 0.75000006 1.6281519e-38
0.020714263 0.025000013 0.75000006 1.6829651e-38
0.022142839 0.024999999 0.75000006 1.7391169e-38
0.023634277 0.025066674 0.75199997 1.8159317e-38
0.025066655 0.025066659 0.75200003 1.8998732e-38
0.026604753 0.025166668 0.75500005 1.4467203e-38
0.028042864 0.025166675 0.755 1.0059466e-38
0.029519998 0.025200002 0.75599998 1.6419442e-38
0.031123811 0.025333345 0.76000005 2.2865151e-38
0.032571431 0.025333337 0.76000005 2.3138151e-38
0.034019038 0.025333345 0.76000005 2.3411519e-38
0.03546666 0.025333337 0.76000005 2.3322208e-38
0.036914278 0.025333337 0.76000005 2.3322908e-38
0.0383619 0.025333337 0.76000005 2.3047383e-38
-0.02398001 0.026886679 0.76300001 1.1776191e-38
-0.022379063 0.026710473 0.75800002 1.2142066e-38
-0.020880006 0.026640005 0.75599998 1.2507999e-38
-0.019440001 0.026640013 0.75599998 1.3424586e-38
-0.017928582 0.026534297 0.75300002 1.4342228e-38
-0.016494298 0.026534289 0.75300002 1.49858e-38
-0.015040013 0.02649904 0.75199997 1.5632583e-38
-0.013607643 0.02649904 0.75200003 1.591597e-38
-0.012142879 0.02642858 0.75000006 1.6098588e-38
-0.010714302 0.02642858 0.75000006 1.6926564e-38
-0.0092857359 0.026428573 0.75000006 1.7657665e-38
-0.0078361901 0.02635812 0.74799997 1.7929947e-38
-0.0064114365 0.026358113 0.74800003 1.8116134e-38
-0.0049866652 0.026358105 0.74799997 1.8574958e-38
-0.0035619105 0.026358105 0.74799997 1.8943736e-38
-0.0021343075 0.026322849 0.74700004 1.9125974e-38
-0.00071145385 0.026322849 0.74700004 1.9220692e-38
0.0007114138 0.026322849 0.74700004 1.9501592e-38
0.002128544 0.026252359 0.74500012 1.9678759e-38
0.0035476002 0.026252374 0.74500006 1.9575398e-38
0.0049666413 0.026252374 0.74500006 1.938922e-38
0.0063856971 0.026252374 0.74500006 1.9387072e-38
0.0078047388 0.026252374 0.74500006 1.9388508e-38
0.0092485482 0.026322849 0.74700004 1.9580074e-38
0.010671415 0.026322864 0.74700004 1.976591e-38
0.012110475 0.026358113 0.74799997 2.0234429e-38
0.01353524 0.02635812 0.74799997 2.0601768e-38
0.014959994 0.026358105 0.74799997 1.9310329e-38
0.016384773 0.026358113 0.74799997 1.7921661e-38
0.017857127 0.02642858 0.75000006 1.625677e-38
0.019285703 0.026428588 0.75000006 1.4519824e-38
0.02071427 0.02642858 0.75000006 1.6446255e-38
0.022201888 0.026499048 0.75200003 1.8422945e-38
0.023665702 0.026534289 0.75300002 1.88248e-38
0.025099991 0.026534282 0.75300002 1.916698e-38
0.026604757 0.026604764 0.75500005 1.398217e-38
0.02804286 0.026604757 0.75500005 8.776258e-39
0.029520003 0.026640005 0.75599998 1.569048e-38
0.031123802 0.026780955 0.76000005 2.2585694e-38
0.032571424 0.026780948 0.76000005 2.3044531e-38
0.034019053 0.02678097 0.75999999 2.3412239e-38
0.03546666 0.026780955 0.75999999 2.3320053e-38
0.036914278 0.026780963 0.75999999 2.313744e-38
-0.023917163 0.028265707 0.76100004 1.1870198e-38
-0.022379065 0.028154276 0.75800002 1.2235002e-38
-0.020880003 0.028080016 0.75599998 1.2692395e-38
-0.019440014 0.028080009 0.75600004 1.3424578e-38
-0.017928585 0.027968571 0.75300002 1.4249316e-38
-0.016494304 0.027968563 0.75300002 1.4802852e-38
-0.015040016 0.027931422 0.75200003 1.5449646e-38
-0.013607635 0.027931429 0.75199997 1.5818782e-38
-0.012142879 0.027857155 0.75000006 1.6276529e-38
-0.010714303 0.027857162 0.75000006 1.6832209e-38
-0.0092857368 0.02785714 0.75000006 1.7473984e-38
-0.0078361938 0.027782872 0.74800003 1.8027153e-38
-0.0064114295 0.027782872 0.74799997 1.8672525e-38
-0.004986675 0.027782865 0.74800003 1.894589e-38
-0.0035619109 0.02778288 0.74799997 1.9220323e-38
-0.0021343038 0.027745709 0.74700004 1.9310368e-38
-0.00071144267 0.027745716 0.74700004 1.940041e-38
0.00071141054 0.027745716 0.74700004 1.968058e-38
0.0021285492 0.027671434 0.74500006 1.9956416e-38
0.0035476054 0.027671412 0.74500006 1.9670475e-38
0.0049799848 0.027745716 0.74700004 1.9479266e-38
0.0064028385 0.027745716 0.74700004 1.9385992e-38
0.0078257062 0.027745716 0.74700004 1.9386723e-38
0.0092485594 0.027745709 0.74700004 1.948216e-38
0.010685711 0.027782865 0.74799997 1.9667274e-38
0.012110475 0.027782872 0.74799997 1.967948e-38
0.013535229 0.027782865 0.74799997 1.9685568e-38
0.014960009 0.027782872 0.74799997 1.7745532e-38
0.016428558 0.027857147 0.75000006 1.5806211e-38
0.017857134 0.027857147 0.75000006 1.5248725e-38
0.019285696 0.027857162 0.75000006 1.4788557e-38
0.020714261 0.027857147 0.75000006 1.7864413e-38
0.022201885 0.027931429 0.75200003 2.0937721e-38
0.023665706 0.027968563 0.75300002 1.835597e-38
0.025099991 0.027968571 0.75300002 1.586234e-38
0.026604762 0.028042868 0.755 1.2901999e-38
0.02808 0.028080009 0.75599998 1.0066239e-38
0.029676195 0.028228581 0.75999999 1.6515189e-38
0.031123817 0.028228581 0.75999999 2.3049172e-38
0.032614261 0.0282657 0.76100004 2.323108e-38
0.034019042 0.028228574 0.76000005 2.3412959e-38
0.035466664 0.028228566 0.76000005 2.3321125e-38
0.036914285 0.028228574 0.76000005 2.3321827e-38
-0.023980012 0.029793322 0.76300001 1.1869097e-38
-0.022438101 0.029676199 0.76000005 1.2326816e-38
-0.020935256 0.029598087 0.75800002 1.2783857e-38
-0.019440006 0.029520005 0.75599998 1.3424209e-38
-0.017976196 0.029480971 0.755 1.4066716e-38
-0.0165381 0.029480956 0.75500005 1.4617744e-38
-0.015040017 0.029363796 0.75200003 1.5172346e-38
-0.013607636 0.029363811 0.75199997 1.5816272e-38
-0.012142879 0.029285721 0.75000006 1.6370158e-38
-0.010714305 0.029285729 0.75000006 1.6834718e-38
-0.0092609571 0.029207624 0.74800003 1.720206e-38
-0.0078361928 0.029207632 0.74799997 1.8216195e-38
-0.006411429 0.029207632 0.74799997 1.9132783e-38
-0.0049866671 0.029207624 0.74799997 1.9315763e-38
-0.003561903 0.029207624 0.74799997 1.9405083e-38
-0.0021343089 0.029168561 0.74700004 1.9494403e-38
-0.00071145664 0.029168561 0.74700004 1.9495114e-38
0.00071141147 0.029168569 0.74700004 1.9863884e-38
0.0021285585 0.029090472 0.74500006 2.0229765e-38
0.0035571186 0.029168569 0.74700004 1.9854865e-38
0.0049799858 0.029168561 0.74700004 1.9481426e-38
0.0064028394 0.029168561 0.74700004 1.9382417e-38
0.0078361928 0.029207639 0.74799997 1.929274e-38
0.0092609469 0.029207639 0.74800003 1.9478567e-38
0.010685711 0.029207639 0.74799997 1.9580465e-38
0.012110465 0.029207624 0.74800003 1.9130274e-38
0.013535244 0.029207624 0.74799997 1.8669623e-38
0.014999983 0.029285729 0.75000006 1.6179622e-38
0.016428549 0.029285714 0.75000006 1.3598584e-38
0.017857125 0.029285721 0.75000006 1.4326854e-38
0.019285701 0.029285721 0.75 1.5013901e-38
0.020714268 0.029285714 0.75000006 1.9193208e-38
0.022201894 0.029363818 0.75199997 2.3321159e-38
0.023665702 0.02940286 0.75300002 1.7890684e-38
0.025166668 0.029480956 0.75500005 1.2450069e-38
0.026639994 0.029520005 0.75599998 1.1881039e-38
0.028080005 0.029520012 0.75599998 1.1351239e-38
0.029676186 0.029676199 0.76000005 1.7438618e-38
0.031123808 0.029676206 0.76000005 2.3415114e-38
0.032571428 0.029676184 0.76000005 2.341764e-38
0.034019049 0.029676184 0.76000005 2.3414408e-38
0.035466656 0.029676192 0.76000005 2.3412612e-38
0.036962856 0.029715233 0.76100004 2.3414763e-38
-0.023980018 0.031246655 0.76300001 1.1960193e-38
-0.022438101 0.031123824 0.75999999 1.2417554e-38
-0.020935256 0.031041905 0.75800002 1.2875677e-38
-0.019440006 0.030960001 0.75599998 1.3517111e-38
-0.0179762 0.030919053 0.75500005 1.4158905e-38
-0.016538097 0.03091906 0.755 1.4711372e-38
-0.015060018 0.030837141 0.75300002 1.526454e-38
-0.013607637 0.030796193 0.75200003 1.5816632e-38
-0.012175257 0.030796193 0.75199997 1.6461274e-38
-0.010714305 0.030714303 0.75000006 1.6924398e-38
-0.0092857378 0.030714296 0.75000006 1.7385365e-38
-0.0078361938 0.030632399 0.74799997 1.8030003e-38
-0.0064114328 0.030632392 0.74800003 1.8765446e-38
-0.004986668 0.030632392 0.74799997 1.9133546e-38
-0.0035619133 0.030632399 0.74800003 1.9589484e-38
-0.0021343047 0.030591421 0.74700004 1.9588755e-38
-0.00071144407 0.030591421 0.74700004 1.9588383e-38
0.00071140914 0.030591436 0.74700004 1.9773475e-38
0.0021342768 0.030591428 0.74700004 1.9865649e-38
0.00355713 0.030591428 0.74700004 1.9580795e-38
0.004979983 0.030591428 0.74700004 1.9301349e-38
0.0064028362 0.030591428 0.74700004 1.8928274e-38
0.0078361826 0.030632384 0.74800003 1.86481e-38
0.0092609469 0.030632384 0.74799997 1.8747824e-38
0.010685701 0.030632392 0.74800003 1.8851884e-38
0.01211048 0.030632392 0.74799997 1.7937144e-38
0.013571413 0.030714296 0.75000006 1.692832e-38
0.014999989 0.030714303 0.75000006 1.544023e-38
0.016428556 0.030714296 0.75000006 1.4051319e-38
0.017857132 0.030714288 0.75000006 1.6574383e-38
0.019285709 0.030714296 0.75000006 1.9184943e-38
0.020714261 0.030714288 0.75000006 2.0108384e-38
0.022201894 0.0307962 0.75199997 2.1027802e-38
0.023665704 0.030837134 0.75300002 1.5490755e-38
0.025166675 0.030919068 0.755 1.0043683e-38
0.026640002 0.030960009 0.75599998 1.1059175e-38
0.028154278 0.031041905 0.75800002 1.21724e-38
0.029676178 0.03112381 0.76000005 1.7434007e-38
0.03112381 0.03112381 0.75999999 2.2682977e-38
0.032614261 0.031164743 0.76100004 2.2128013e-38
0.034063794 0.031164743 0.76100004 2.1668829e-38
0.035513327 0.031164758 0.76100004 2.1390804e-38
0.036962848 0.03116475 0.76100004 2.1026706e-38
-0.022438101 0.032571435 0.76000005 1.2507273e-38
-0.020935247 0.032485709 0.75799996 1.2874622e-38
-0.019491438 0.032485723 0.75800002 1.351712e-38
-0.018000009 0.032400012 0.75599998 1.416034e-38
-0.016560003 0.032400005 0.75599998 1.4712083e-38
-0.015060012 0.032271437 0.75300002 1.5264535e-38
-0.013625722 0.032271437 0.75300002 1.5908462e-38
-0.012175257 0.032228567 0.75200003 1.6553827e-38
-0.01074287 0.032228574 0.75199997 1.7107717e-38
-0.0092857387 0.03214287 0.75000006 1.7568334e-38
-0.0078571625 0.03214287 0.75000006 1.7936399e-38
-0.0064285961 0.032142863 0.75000006 1.8305207e-38
-0.0049866778 0.032057151 0.74800003 1.9046377e-38
-0.0035619054 0.032057159 0.74799997 1.9685626e-38
-0.0021371518 0.032057144 0.74800003 1.9683102e-38
-0.00071238703 0.032057151 0.74799997 1.9683455e-38
0.00071142032 0.032014288 0.74699998 1.9592333e-38
0.0021342735 0.032014288 0.74699998 1.9497604e-38
0.0035571165 0.032014273 0.74700004 1.9301712e-38
0.0049799844 0.032014273 0.74700004 1.9025868e-38
0.0064114286 0.032057166 0.74799997 1.85642e-38
0.0078361826 0.032057144 0.74799997 1.800885e-38
0.0092609618 0.032057151 0.74799997 1.8103884e-38
0.010685716 0.032057151 0.74799997 1.8113222e-38
0.012142829 0.032142863 0.75000006 1.6654626e-38
0.013571405 0.03214287 0.75000006 1.5171961e-38
0.014999981 0.03214287 0.75000006 1.4785939e-38
0.016428549 0.03214287 0.75000006 1.4462118e-38
0.017857123 0.032142855 0.75000006 1.8917329e-38
0.01928569 0.03214287 0.75000012 2.332295e-38
0.020714266 0.032142855 0.75000006 2.102709e-38
0.02220189 0.032228582 0.75200003 1.862177e-38
0.023665691 0.032271422 0.75300002 1.309225e-38
0.025099989 0.032271437 0.75300002 7.5687759e-39
0.026604764 0.032357156 0.75500005 1.0323769e-38
0.028079996 0.032400005 0.75600004 1.3005011e-38
0.029676193 0.032571435 0.75999999 1.7441888e-38
0.0311238 0.03257145 0.76000005 2.1848915e-38
0.032614265 0.032614283 0.76100004 2.0925898e-38
0.034063797 0.032614276 0.76100004 1.9915709e-38
0.035513319 0.032614268 0.76100004 1.927071e-38
0.037059985 0.032699987 0.76300001 1.8629305e-38
0.038513325 0.03270001 0.76300001 1.7983953e-38
-0.022526681 0.034153335 0.76299995 1.2232517e-38
-0.020935249 0.033929527 0.75800002 1.2781374e-38
-0.01949144 0.033929527 0.75800002 1.3333457e-38
-0.017999999 0.033840008 0.75599998 1.3885193e-38
-0.016560014 0.033840001 0.75600004 1.434581e-38
-0.015100007 0.033795245 0.75500005 1.4897544e-38
-0.013625729 0.033705719 0.75300002 1.5726221e-38
-0.012175261 0.033660948 0.75200003 1.6554188e-38
-0.010742878 0.033660956 0.75200003 1.7015887e-38
-0.0092857322 0.03357143 0.75000006 1.7476874e-38
-0.0078571634 0.033571437 0.75000006 1.7750601e-38
-0.0064285975 0.03357143 0.75000006 1.811581e-38
-0.0050000218 0.033571437 0.75000006 1.904351e-38
-0.0035714444 0.033571437 0.75000006 1.9964721e-38
-0.0021371434 0.033481918 0.74799997 1.9963271e-38
-0.00071238703 0.033481918 0.74799997 2.0052958e-38
0.00071140681 0.033437133 0.74700004 1.9779249e-38
0.0021342745 0.033437133 0.74700004 1.9597345e-38
0.0035571284 0.03343714 0.74700004 1.8757166e-38
0.0049866643 0.033481918 0.74799997 1.7926018e-38
0.0064114183 0.033481918 0.74800003 1.727603e-38
0.0078361975 0.033481918 0.74799997 1.6534831e-38
0.0092609515 0.033481918 0.74800003 1.6081335e-38
0.010685716 0.033481918 0.74799997 1.5628249e-38
0.012142835 0.03357143 0.75000006 1.6178537e-38
0.013571412 0.033571437 0.75000006 1.6818177e-38
0.014999988 0.033571452 0.75000006 1.7862825e-38
0.016428554 0.033571437 0.75000006 1.9001568e-38
0.017857131 0.03357143 0.75000006 2.010946e-38
0.019337123 0.033660956 0.75200003 2.1305467e-38
0.020769512 0.033660956 0.75199997 1.8442056e-38
0.022201888 0.033660956 0.75200003 1.548213e-38
0.023665702 0.033705711 0.75300002 1.1428428e-38
0.025166657 0.033795252 0.75500005 7.3757653e-39
0.026639991 0.033840001 0.75599998 1.0598554e-38
0.028154274 0.033929527 0.75800002 1.3827217e-38
0.029676186 0.034019046 0.76000005 1.697122e-38
0.031164752 0.034063801 0.76100004 2.0100447e-38
0.032614272 0.034063801 0.76100004 1.9361821e-38
0.03406379 0.034063809 0.76100004 1.8624278e-38
0.035606652 0.034153335 0.76300001 1.816511e-38
0.037059996 0.034153327 0.76300001 1.7796336e-38
0.038513321 0.034153335 0.76299995 1.7244607e-38
-0.022526685 0.03560666 0.76300001 1.2049569e-38
-0.021073349 0.03560666 0.76300001 1.2599502e-38
-0.019620012 0.035606667 0.76300001 1.3150152e-38
-0.018095246 0.035466671 0.76000005 1.3610769e-38
-0.016603822 0.035373345 0.75800002 1.4072104e-38
-0.01512001 0.035280004 0.75599998 1.4440524e-38
-0.013661916 0.035233334 0.75500005 1.5545062e-38
-0.012191442 0.03514 0.75300002 1.655562e-38
-0.01075716 0.035139993 0.75300002 1.6924404e-38
-0.0093104923 0.035093322 0.75200003 1.7291035e-38
-0.0078781117 0.035093345 0.75199997 1.7565472e-38
-0.006428598 0.035000004 0.75000006 1.7844234e-38
-0.0050000208 0.035000011 0.75000006 1.9046732e-38
-0.0035714449 0.035000019 0.75 2.0149463e-38
-0.0021371439 0.034906685 0.74799997 2.033635e-38
-0.00071238237 0.034906678 0.74800003 2.0425682e-38
0.00071238191 0.034906685 0.74799997 2.005799e-38
0.0021371359 0.034906678 0.74800003 1.9591251e-38
0.0035619007 0.034906678 0.74799997 1.8203289e-38
0.004986654 0.034906685 0.74800003 1.6821799e-38
0.0064114332 0.034906685 0.74799997 1.5987019e-38
0.0078361873 0.034906685 0.74800003 1.5068996e-38
0.0092609515 0.03490667 0.74799997 1.4150615e-38
0.010714262 0.035000011 0.75000006 1.3139059e-38
0.012142843 0.035000004 0.75000006 1.5796259e-38
0.013571404 0.035000004 0.75000006 1.8414665e-38
0.01499998 0.035000011 0.75 2.0938005e-38
0.016472369 0.035093337 0.75199997 2.341547e-38
0.017904749 0.03509333 0.75200003 2.1396585e-38
0.019337121 0.035093337 0.75200003 1.9269296e-38
0.02076951 0.035093337 0.75200003 1.586205e-38
0.022231417 0.03514 0.75300002 1.2351459e-38
0.023728564 0.035233341 0.75500005 9.7635288e-39
0.025166662 0.035233334 0.755 7.1024294e-39
0.026639998 0.035280012 0.75599998 1.0867305e-38
0.028154274 0.035373323 0.75800002 1.4659507e-38
0.029715225 0.035513327 0.76100004 1.6514556e-38
0.031164747 0.035513319 0.76100004 1.8351267e-38
0.032699998 0.035606675 0.76299995 1.7796667e-38
0.03415332 0.03560666 0.76300001 1.724566e-38
0.035699997 0.035700001 0.76499999 1.7061277e-38
0.037157152 0.035700008 0.76499999 1.6876174e-38
-0.024105716 0.037254289 0.76699996 1.1502145e-38
-0.022585716 0.037157148 0.76499999 1.1958814e-38
-0.021073347 0.03706 0.76300001 1.2417271e-38
-0.019620011 0.037060007 0.76300001 1.2876087e-38
-0.018095247 0.036914289 0.76000005 1.3335987e-38
-0.016603822 0.036817133 0.75800002 1.3980274e-38
-0.015120002 0.036720023 0.75599998 1.4625275e-38
-0.013680006 0.036720015 0.75599998 1.5361392e-38
-0.012223818 0.036671422 0.75500005 1.6097157e-38
-0.010785715 0.036671437 0.755 1.6740367e-38
-0.0093228659 0.036574282 0.75300002 1.738142e-38
-0.0078781126 0.036525711 0.75200003 1.7566884e-38
-0.0064457236 0.036525719 0.75199997 1.7750231e-38
-0.0050133537 0.036525711 0.75200003 1.8398494e-38
-0.0035809728 0.036525711 0.75200003 1.9045637e-38
-0.0021428799 0.036428586 0.75000006 1.914105e-38
-0.00071238191 0.036331438 0.74799997 1.9326886e-38
0.00071238237 0.036331445 0.74799997 1.8953098e-38
0.0021371359 0.036331438 0.74799997 1.8668956e-38
0.0035619002 0.036331445 0.74799997 1.719382e-38
0.0049866689 0.036331438 0.74799997 1.5630051e-38
0.0064114332 0.036331445 0.74799997 1.4611912e-38
0.0078361873 0.036331438 0.74799997 1.360388e-38
0.0092609515 0.036331452 0.74799997 1.3785044e-38
0.010714268 0.036428578 0.75000006 1.3959892e-38
0.012142834 0.036428571 0.75000006 1.6569099e-38
0.01357141 0.036428578 0.75000006 1.9187502e-38
0.01503998 0.036525711 0.75200003 1.9739607e-38
0.016472369 0.036525711 0.75200003 2.0294917e-38
0.017904744 0.036525719 0.75199997 1.798252e-38
0.019337121 0.036525711 0.75200003 1.5757659e-38
0.02079713 0.036574282 0.75300002 1.2995056e-38
0.022231419 0.036574282 0.75300002 1.0318868e-38
0.02372857 0.036671445 0.75500005 1.0505364e-38
0.025166655 0.036671445 0.75500005 1.0687978e-38
0.026639991 0.036720008 0.75599998 1.2995723e-38
0.028228572 0.036914296 0.76000005 1.5316737e-38
0.029676192 0.036914289 0.76000005 1.6789348e-38
0.03116475 0.036962837 0.76100004 1.8258713e-38
0.032699987 0.037059993 0.76300001 1.7612992e-38
0.034153316 0.03706 0.76300001 1.6969069e-38
0.035700001 0.037157148 0.76499999 1.696871e-38
0.037254293 0.037254296 0.76699996 1.6965125e-38
0.038715247 0.037254289 0.76699996 1.6784327e-38
-0.024105724 0.038715247 0.76700002 1.150143e-38
-0.022644769 0.038715236 0.76700002 1.1865904e-38
-0.021128582 0.038614292 0.76500005 1.2233602e-38
-0.019620014 0.038513329 0.76300001 1.2693135e-38
-0.018095246 0.038361922 0.76000005 1.3061198e-38
-0.016603822 0.038260955 0.75800002 1.3979915e-38
-0.015160014 0.038260944 0.75800002 1.4807155e-38
-0.013680005 0.038160007 0.75599998 1.5269564e-38
-0.012240001 0.038160022 0.75599998 1.5639074e-38
-0.010785724 0.038109519 0.75500005 1.655816e-38
-0.0093228715 0.038008559 0.75300002 1.747471e-38
-0.0078781135 0.037958089 0.75200003 1.7570481e-38
-0.0064457329 0.037958097 0.75199997 1.7568718e-38
-0.0050133453 0.0379581 0.75199997 1.7751702e-38
-0.0035809737 0.037958089 0.75200003 1.7941467e-38
-0.0021428799 0.037857145 0.75000006 1.8038322e-38
-0.00071430416 0.037857153 0.75000006 1.8129089e-38
0.00071426178 0.037857149 0.75000006 1.7942555e-38
0.0021371364 0.037756212 0.74799997 1.7753112e-38
0.0035619049 0.037756208 0.74800003 1.6089279e-38
0.0049866694 0.037756197 0.74799997 1.4430465e-38
0.0064114234 0.037756208 0.74800003 1.3318718e-38
0.0078571225 0.037857156 0.75000006 1.2137459e-38
0.0092856986 0.037857156 0.75000006 1.3425712e-38
0.01074284 0.037958086 0.75200003 1.4731945e-38
0.012175228 0.037958093 0.75200003 1.7331765e-38
0.013607602 0.037958093 0.75199997 1.9820307e-38
0.01505999 0.038008574 0.75300002 1.8446376e-38
0.01649428 0.038008571 0.75300002 1.7062374e-38
0.017928554 0.038008571 0.75300002 1.4664235e-38
0.019414289 0.038109526 0.755 1.2261069e-38
0.020852376 0.038109533 0.75500005 1.0224527e-38
0.022290476 0.038109526 0.75500005 8.2084253e-39
0.023760006 0.038160015 0.75599998 1.1250808e-38
0.025200002 0.038160011 0.75599998 1.4280312e-38
0.026710466 0.038260948 0.75800002 1.5110786e-38
0.028228562 0.038361903 0.76000005 1.5861276e-38
0.029715225 0.038412377 0.76100004 1.7067717e-38
0.031246664 0.038513336 0.76299995 1.8166516e-38
0.032785706 0.038614288 0.76500005 1.742753e-38
0.03433238 0.038715236 0.76700002 1.6602092e-38
0.035793334 0.03871524 0.76700002 1.6878682e-38
0.037302852 0.038765725 0.76800001 1.7061274e-38
-0.024105718 0.040176198 0.76699996 1.1774787e-38
-0.022644764 0.040176202 0.76699996 1.1958457e-38
-0.021128578 0.040071432 0.76499999 1.2141768e-38
-0.019620012 0.039966665 0.76300001 1.2693854e-38
-0.018119063 0.039861903 0.76100004 1.3337423e-38
-0.016647628 0.039809518 0.76000005 1.3796243e-38
-0.015160016 0.039704762 0.75800002 1.4252199e-38
-0.013680006 0.039600007 0.75599998 1.4992271e-38
-0.012240012 0.0396 0.75600004 1.5825633e-38
-0.010785718 0.039547622 0.75500005 1.609686e-38
-0.0093476316 0.039547618 0.75500005 1.6460593e-38
-0.0078885853 0.039442867 0.75300002 1.655707e-38
-0.0064457352 0.039390475 0.75200003 1.6651803e-38
-0.0050133462 0.039390475 0.75199997 1.6650754e-38
-0.0035809653 0.039390482 0.75199997 1.6745821e-38
-0.0021428813 0.039285716 0.75000006 1.6654706e-38
-0.00071429764 0.039285723 0.75000006 1.6657578e-38
0.00071426877 0.039285712 0.75000006 1.6198045e-38
0.002142845 0.039285719 0.75000006 1.5831743e-38
0.0035619054 0.039180961 0.74799997 1.4987607e-38
0.0049866587 0.039180964 0.74800003 1.4245376e-38
0.006411423 0.039180972 0.74799997 1.4442305e-38
0.0078571141 0.039285716 0.75000006 1.4630009e-38
0.0092856912 0.039285723 0.75000006 1.4830267e-38
0.010714267 0.039285731 0.75000006 1.5128403e-38
0.012142833 0.039285727 0.75000006 1.6321576e-38
0.01357141 0.039285712 0.75000006 1.7427562e-38
0.015059992 0.039442856 0.75300002 1.6140086e-38
0.016494267 0.039442852 0.75300002 1.4843609e-38
0.017976182 0.039547622 0.75500005 1.1620021e-38
0.019414283 0.039547618 0.75500005 8.3982129e-39
0.02085238 0.03954763 0.755 8.0222291e-39
0.022319999 0.039600007 0.75599998 7.7438458e-39
0.023759997 0.039600004 0.75599998 1.1247219e-38
0.025200007 0.039600004 0.75599998 1.4837052e-38
0.026710473 0.03970477 0.75800002 1.5113989e-38
0.028265709 0.039861895 0.76100004 1.5489973e-38
0.029793331 0.039966665 0.76299995 1.6880092e-38
0.031328578 0.040071432 0.76499999 1.8351262e-38
0.032871429 0.040176205 0.76699996 1.7613715e-38
0.034377143 0.040228587 0.76800001 1.697016e-38
0.035793338 0.040176194 0.76699996 1.6969454e-38
0.037302848 0.040228587 0.76800001 1.7063433e-38
-0.02413715 0.041691449 0.76799995 1.1959167e-38
-0.022674298 0.041691434 0.76800001 1.1959523e-38
-0.021183817 0.041637149 0.76699996 1.1958809e-38
-0.019671425 0.041528586 0.76499999 1.2786048e-38
-0.018119071 0.041311409 0.76100004 1.3612213e-38
-0.016647618 0.04125715 0.75999999 1.3614729e-38
-0.015160016 0.041148569 0.75800002 1.361187e-38
-0.013680008 0.041039992 0.75600004 1.4805741e-38
-0.012240012 0.041040014 0.75600004 1.6003563e-38
-0.010800007 0.041039996 0.75599998 1.5726994e-38
-0.0093476269 0.040985737 0.75500005 1.5359995e-38
-0.0079095336 0.040985718 0.75500005 1.5545086e-38
-0.006454302 0.040877137 0.75300008 1.5639085e-38
-0.0050200098 0.040877152 0.75300002 1.5636586e-38
-0.0035857281 0.040877149 0.75300002 1.5545099e-38
-0.0021485963 0.040822849 0.75200003 1.5359983e-38
-0.00071430509 0.040714305 0.75000006 1.5090966e-38
0.00071426085 0.040714301 0.75000006 1.4543574e-38
0.002142837 0.040714301 0.75000006 1.3896046e-38
0.0035714027 0.040714283 0.75000006 1.3967419e-38
0.0049999789 0.040714297 0.75000006 1.3994695e-38
0.0064285551 0.040714297 0.75000006 1.5574925e-38
0.0078571206 0.040714286 0.75000006 1.7045418e-38
0.0093104588 0.04082286 0.75200003 1.6319753e-38
0.010714274 0.040714301 0.75 1.5491455e-38
0.01217522 0.040822864 0.75199997 1.5306365e-38
0.013625705 0.040877149 0.75300002 1.5037688e-38
0.015100003 0.040985715 0.75500005 1.3843122e-38
0.016538091 0.040985726 0.75500005 1.2540518e-38
0.017976185 0.040985718 0.755 8.4824898e-39
0.019414287 0.040985726 0.75500005 4.4359616e-39
0.020852372 0.040985718 0.75500005 5.8145422e-39
0.022320006 0.041040018 0.75599998 7.1981928e-39
0.023728568 0.040985726 0.75500005 1.1249019e-38
0.025199991 0.041039996 0.75600004 1.5296947e-38
0.026710473 0.041148569 0.75800002 1.5201874e-38
0.02822857 0.041257154 0.76000005 1.5032955e-38
0.029793318 0.04141999 0.76300001 1.6795451e-38
0.031410474 0.041637152 0.76700002 1.8535659e-38
0.03291427 0.041691437 0.76800001 1.7889939e-38
0.03437715 0.041691449 0.76799995 1.7245307e-38
0.03583999 0.041691445 0.76800001 1.7149175e-38
0.037399996 0.041799996 0.77000004 1.6968365e-38
-0.024137162 0.043154284 0.76800001 1.0491585e-38
-0.022674296 0.043154299 0.76799995 1.0857846e-38
-0.02118382 0.043098103 0.76700002 1.1223402e-38
-0.019671429 0.042985734 0.76499999 1.1681869e-38
-0.018119063 0.042760938 0.76100004 1.2230377e-38
-0.016647626 0.042704765 0.76000005 1.2692432e-38
-0.015160016 0.04259238 0.75800002 1.3151982e-38
-0.013716209 0.042592384 0.75800002 1.3612967e-38
-0.012240004 0.042480011 0.75599998 1.4166135e-38
-0.010800007 0.042480011 0.75599998 1.4075019e-38
-0.0093600033 0.042480014 0.75599998 1.4074291e-38
-0.0079095298 0.042423807 0.75500005 1.3892763e-38
-0.0064542969 0.04231143 0.75300002 1.3804153e-38
-0.0050200149 0.042311426 0.75300002 1.3426404e-38
-0.0035857337 0.042311426 0.75300002 1.3151591e-38
-0.002148588 0.042255241 0.75199997 1.4164269e-38
-0.00071429857 0.042142868 0.75000006 1.5272098e-38
0.00071426737 0.042142864 0.75000006 1.5930435e-38
0.0021428436 0.042142879 0.75000006 1.6567909e-38
0.0035714097 0.042142853 0.75000006 1.6212052e-38
0.0049999855 0.042142875 0.75000006 1.5864124e-38
0.0064285616 0.042142861 0.75000006 1.5676189e-38
0.00787808 0.042255245 0.75199997 1.5596205e-38
0.0093104569 0.04225523 0.75200003 1.5585815e-38
0.010757129 0.04231143 0.75300002 1.5578284e-38
0.012191418 0.042311426 0.75300002 1.549506e-38
0.013625692 0.042311423 0.75300002 1.5409694e-38
0.015100007 0.042423818 0.755 1.1629743e-38
0.016538095 0.042423815 0.75500005 7.9411808e-39
0.01797618 0.042423815 0.75500005 5.0762681e-39
0.019414291 0.042423822 0.755 2.3032442e-39
0.020852378 0.042423818 0.75500005 6.3597679e-39
0.022319987 0.042480007 0.75600004 1.0504967e-38
0.023759985 0.042480003 0.75600004 1.3645716e-38
0.025199998 0.042480011 0.75600004 1.6777077e-38
0.026710473 0.04259238 0.75800002 1.575898e-38
0.028228562 0.04270475 0.76000005 1.4756379e-38
0.029871428 0.042985722 0.76500005 1.651207e-38
0.031410478 0.043098111 0.76699996 1.835128e-38
0.032914281 0.043154303 0.76799995 1.7798462e-38
0.034466658 0.043266669 0.77000004 1.7338574e-38
0.035839997 0.043154314 0.76799995 1.6968369e-38
-0.022674298 0.044617154 0.76800001 9.7572594e-39
-0.021183809 0.044559058 0.76699996 1.0396882e-38
-0.019671435 0.044442862 0.76499999 1.057984e-38
-0.018166687 0.044326652 0.76300001 1.0762792e-38
-0.016647628 0.044152383 0.76000005 1.1772981e-38
-0.015160017 0.044036184 0.75800002 1.2692803e-38
-0.013716209 0.044036184 0.75800002 1.2511676e-38
-0.0122724 0.044036191 0.75800002 1.2236878e-38
-0.010800008 0.043920007 0.75599998 1.2516682e-38
-0.0093600014 0.043920014 0.75599998 1.2788592e-38
-0.0079095261 0.043861911 0.75500005 1.2331197e-38
-0.0064714327 0.043861911 0.75500005 1.1864127e-38
-0.0050333464 0.043861907 0.75500005 1.1297331e-38
-0.0035952425 0.043861914 0.75500005 1.0764275e-38
-0.0021485889 0.043687623 0.75200003 1.3056596e-38
-0.00071430695 0.043571446 0.75 1.5385182e-38
0.00071425945 0.043571435 0.75000006 1.7337459e-38
0.0021428356 0.043571442 0.75000006 1.9259191e-38
0.0035714016 0.043571439 0.75000006 1.8448457e-38
0.0049999775 0.043571446 0.75000006 1.7607238e-38
0.0064285542 0.043571454 0.75000006 1.5853045e-38
0.0078780781 0.043687623 0.75200003 1.4115006e-38
0.0093104662 0.043687623 0.75199997 1.4848994e-38
0.01075713 0.043745704 0.75300002 1.5587262e-38
0.012191414 0.043745726 0.75300002 1.568627e-38
0.0136619 0.043861922 0.75500005 1.5762303e-38
0.015099999 0.043861903 0.75500005 9.508145e-39
0.016538098 0.043861911 0.755 3.2421072e-39
0.017976183 0.043861911 0.75500005 1.6693655e-39
0.019414283 0.043861914 0.75500005 1.0350551e-40
0.02085238 0.043861922 0.755 7.0001444e-39
0.022319997 0.04392001 0.75600004 1.3828309e-38
0.023759995 0.043920003 0.75599998 1.6051427e-38
0.025199991 0.043919999 0.75599998 1.8153927e-38
0.026710473 0.044036187 0.75800002 1.6301043e-38
0.028228575 0.044152383 0.76000005 1.4479801e-38
0.029871432 0.044442859 0.76500005 1.6328392e-38
0.031410474 0.04455905 0.76699996 1.8073617e-38
0.032914277 0.044617146 0.76800001 1.7705192e-38
0.034377143 0.044617165 0.76799995 1.733606e-38
0.035839997 0.044617154 0.76800001 1.6876528e-38
-0.022674298 0.046080016 0.76799995 8.9271554e-39
-0.021183815 0.046020001 0.76699996 9.5678515e-39
-0.019671429 0.045900006 0.76499999 9.8429993e-39
-0.018166685 0.045779988 0.76300001 1.0028456e-38
-0.016669534 0.04566 0.76100004 1.0302517e-38
-0.015200005 0.045600012 0.76000005 1.0579868e-38
-0.013752386 0.045600016 0.76000005 1.0484135e-38
-0.012272402 0.045479994 0.75800002 1.0487706e-38
-0.010828591 0.045479998 0.75800002 1.159115e-38
-0.0093600126 0.045359995 0.75600004 1.269173e-38
-0.0079200082 0.045360018 0.75600004 1.3617248e-38
-0.006471429 0.045300011 0.75500005 1.4524128e-38
-0.0050333426 0.045300011 0.75500005 1.4543145e-38
-0.0035952486 0.045300007 0.75500005 1.4551819e-38
-0.0021485907 0.045120001 0.75200003 1.5666465e-38
-0.00071620219 0.045119993 0.75200003 1.688405e-38
0.00071617146 0.045120012 0.75199997 1.752264e-38
0.0021428426 0.045000009 0.75000006 1.8162618e-38
0.0035714081 0.045000006 0.75000006 1.7702361e-38
0.0050133253 0.045119997 0.75199997 1.7324949e-38
0.0064456887 0.045119997 0.75200003 1.6317245e-38
0.0078780772 0.045120001 0.75200003 1.5395689e-38
0.0093228435 0.04518 0.75300002 1.4205083e-38
0.010757128 0.045180012 0.75300002 1.3021618e-38
0.012191416 0.045180008 0.75300002 1.190129e-38
0.013661903 0.045300007 0.755 1.0781997e-38
0.015100003 0.045299999 0.75500005 6.9148124e-39
0.016538091 0.045299999 0.75500005 3.032927e-39
0.017976187 0.045300011 0.755 3.0357548e-39
0.019414287 0.045300007 0.75500005 3.0322053e-39
0.020852374 0.045300007 0.75500005 1.0423566e-38
0.022320004 0.04536001 0.75599998 1.7807774e-38
0.023760002 0.04536001 0.75599998 1.7983253e-38
0.02526666 0.045479991 0.75800002 1.8251896e-38
0.026780944 0.045600012 0.76000005 1.6494059e-38
0.028265709 0.045659993 0.76100004 1.4848942e-38
0.02979332 0.045779999 0.76300001 1.6601379e-38
0.031410482 0.046020016 0.76699996 1.8348402e-38
0.032871421 0.046019997 0.76700002 1.761192e-38
0.034377139 0.046080004 0.76800001 1.6872933e-38
0.035840005 0.046080016 0.76799995 1.8251184e-38
0.0374 0.046200011 0.76999998 1.9630161e-38
-0.0226743 0.04754287 0.76800001 8.188119e-39
-0.021211443 0.047542863 0.76799995 8.7394893e-39
-0.019671436 0.047357153 0.76499999 9.012126e-39
-0.018166682 0.047233328 0.76300001 9.2898073e-39
-0.016713344 0.047233328 0.76300001 8.9206926e-39
-0.015220016 0.047109522 0.76100004 8.4633523e-39
-0.013752394 0.047047619 0.76000005 8.5412392e-39
-0.012304773 0.047047615 0.76000005 8.6531666e-39
-0.010828591 0.046923805 0.75800002 1.0576335e-38
-0.0093847839 0.046923809 0.75800002 1.2526065e-38
-0.0079200091 0.04680001 0.75599998 1.4829865e-38
-0.0064800037 0.046799999 0.75599998 1.7136165e-38
-0.005033338 0.046738107 0.75500005 1.7706918e-38
-0.0035952448 0.046738103 0.75500005 1.8252938e-38
-0.0021485814 0.046552379 0.75199997 1.8356641e-38
-0.00071620359 0.046552375 0.75200003 1.8349489e-38
0.0007161696 0.046552375 0.75200003 1.7706664e-38
0.0021485582 0.046552379 0.75199997 1.6967677e-38
0.0035809362 0.046552375 0.75200003 1.7057004e-38
0.005013309 0.046552379 0.75200003 1.7058414e-38
0.0064456975 0.046552386 0.75199997 1.6879024e-38
0.0078885658 0.046614289 0.75300002 1.6588819e-38
0.0093228398 0.046614289 0.75300002 1.3553237e-38
0.010757129 0.046614286 0.75300002 1.0417903e-38
0.012191419 0.046614282 0.75300002 8.1148283e-39
0.013661897 0.04673811 0.75500005 5.7245579e-39
0.015100008 0.046738103 0.755 4.2436741e-39
0.016538095 0.046738118 0.75500005 2.7642392e-39
0.017976182 0.046738099 0.75500005 4.4086475e-39
0.019414293 0.046738103 0.755 6.004704e-39
0.020879999 0.046800002 0.75599998 1.3946018e-38
0.022319995 0.046800002 0.75599998 2.1754552e-38
0.023760008 0.04680001 0.75599998 2.0005377e-38
0.02526666 0.046923812 0.75800002 1.8244697e-38
0.026816182 0.047109511 0.76100004 1.6666254e-38
0.028265702 0.047109507 0.76100004 1.5123369e-38
0.029871423 0.047357146 0.76500005 1.6879748e-38
0.031410474 0.047480963 0.76699996 1.8623901e-38
0.032871429 0.047480967 0.76699996 1.7521154e-38
0.034332395 0.047480967 0.76699996 1.6323e-38
0.03583999 0.04754287 0.76800001 1.953259e-38
0.037400015 0.047666673 0.76999998 2.2762266e-38
-0.024200002 0.049133345 0.76999998 9.2757635e-39
-0.022733342 0.049133342 0.77000004 1.0026215e-38
-0.021211445 0.049005717 0.76800001 1.0669781e-38
-0.019722853 0.04894191 0.76699996 1.0857038e-38
-0.018214289 0.048814293 0.76499999 1.1034305e-38
-0.01671334 0.048686668 0.76299995 1.1782314e-38
-0.015260016 0.048686661 0.76300001 1.2423046e-38
-0.013770489 0.048559044 0.76100004 1.3169603e-38
-0.012304765 0.048495248 0.76000005 1.3823238e-38
-0.010828584 0.048367623 0.75800002 1.4653726e-38
-0.0093847727 0.048367627 0.75800002 1.549608e-38
-0.0079409564 0.048367627 0.75800002 1.5954231e-38
-0.0064800032 0.04824001 0.75599998 1.6432078e-38
-0.0050400062 0.048240013 0.75599998 1.6329855e-38
-0.0035952402 0.048176203 0.75500005 1.6242678e-38
-0.0021514457 0.048048571 0.75300002 1.7153493e-38
-0.00071620452 0.047984753 0.75200003 1.7970327e-38
0.00071616867 0.047984757 0.75200003 1.78871e-38
0.0021485568 0.04798476 0.75200003 1.7790967e-38
0.0035809448 0.047984768 0.75199997 1.6140444e-38
0.0050133076 0.04798476 0.75200003 1.449348e-38
0.0064456961 0.047984749 0.75200003 1.2455497e-38
0.0078885527 0.048048582 0.75300002 1.0333231e-38
0.0093228417 0.048048567 0.75300002 8.9345277e-39
0.010785704 0.048176195 0.75500005 7.6244187e-39
0.012223815 0.048176207 0.755 7.0023585e-39
0.013661901 0.048176207 0.75500005 6.3695293e-39
0.015100001 0.048176199 0.75500005 5.9860191e-39
0.016538098 0.048176199 0.755 5.7083603e-39
0.017976185 0.04817621 0.75500005 8.208365e-39
0.019414272 0.048176192 0.75500005 1.0713108e-38
0.020879991 0.04824001 0.75599998 1.4121138e-38
0.022320004 0.048240017 0.75599998 1.7626622e-38
0.023760002 0.048240017 0.75599998 1.7423888e-38
0.02526666 0.048367616 0.75800002 1.7320937e-38
0.026816174 0.04855904 0.76100004 1.6400793e-38
0.028265707 0.048559047 0.76100004 1.5496091e-38
0.029871427 0.048814297 0.76500005 1.7063054e-38
0.031410482 0.048941899 0.76700002 1.8716088e-38
0.032914281 0.049005728 0.76799995 1.7612623e-38
0.034377132 0.049005724 0.76800001 1.6508467e-38
0.035839997 0.049005736 0.76799995 1.8900518e-38
0.0374 0.049133345 0.76999998 2.1305467e-38
-0.025666678 0.050600011 0.77000004 1.0218982e-38
-0.024200002 0.050600007 0.76999998 1.1048721e-38
-0.022733342 0.050600003 0.77000004 1.187918e-38
-0.021211442 0.050468586 0.76799995 1.2619595e-38
-0.019722858 0.050402869 0.76699996 1.2712141e-38
-0.018214295 0.050271437 0.76499999 1.2810123e-38
-0.016757146 0.050271444 0.76499999 1.4659795e-38
-0.015260011 0.050139997 0.76300001 1.6405056e-38
-0.013770494 0.050008573 0.76100004 1.7707282e-38
-0.012320969 0.050008565 0.76100004 1.8986176e-38
-0.010857152 0.049942862 0.76000005 1.8719652e-38
-0.0093847746 0.04981143 0.75800002 1.8435204e-38
-0.0079409583 0.04981143 0.75800002 1.7058058e-38
-0.0064800037 0.049680006 0.75599998 1.5680533e-38
-0.0050399988 0.049680009 0.75599998 1.4937606e-38
-0.0036000118 0.049680002 0.75600004 1.4210098e-38
-0.0021514341 0.049482875 0.75300002 1.5952822e-38
-0.00071715959 0.049482856 0.75300002 1.7611237e-38
0.00071712979 0.049482856 0.75300002 1.8079739e-38
0.0021514182 0.049482852 0.75300002 1.8526713e-38
0.003585703 0.049482863 0.75300002 1.521991e-38
0.0050199917 0.049482863 0.75300002 1.1897294e-38
0.0064542661 0.04948286 0.75300002 8.0236669e-39
0.0079095103 0.049614288 0.75500005 4.0646918e-39
0.0093476214 0.049614299 0.755 4.4108644e-39
0.010785707 0.049614295 0.75500005 4.7860775e-39
0.012223809 0.04961428 0.75500005 5.9002807e-39
0.013661905 0.049614307 0.755 6.9090432e-39
0.015099991 0.049614288 0.75500005 7.7147646e-39
0.016538093 0.049614288 0.75500005 8.5768182e-39
0.017976189 0.049614295 0.755 1.2002732e-38
0.019414276 0.049614292 0.75500005 1.5305237e-38
0.020879999 0.049680009 0.75599998 1.4381515e-38
0.022319995 0.049680009 0.75599998 1.3373449e-38
0.023759997 0.049680006 0.75600004 1.4926734e-38
0.02526666 0.04981143 0.75800002 1.6397898e-38
0.026816182 0.050008565 0.76100004 1.6119885e-38
0.028265713 0.050008573 0.76100004 1.5767999e-38
0.029871427 0.050271437 0.76499999 1.7251388e-38
0.031410489 0.050402869 0.76699996 1.8719318e-38
0.032914277 0.050468579 0.76800001 1.770482e-38
0.034377139 0.050468594 0.76800001 1.6692846e-38
0.035839994 0.050468586 0.76800001 1.8255137e-38
-0.025666678 0.052066673 0.76999998 1.0142664e-38
-0.024200002 0.052066684 0.76999998 1.1075729e-38
-0.0226743 0.051931441 0.76800001 1.1806468e-38
-0.021211445 0.051931437 0.76800001 1.2553335e-38
-0.019722853 0.051863827 0.76699996 1.2636545e-38
-0.018214293 0.051728584 0.76500005 1.2742056e-38
-0.016757151 0.051728573 0.76499999 1.374619e-38
-0.015260015 0.051593333 0.76300001 1.4768598e-38
-0.013806677 0.051593337 0.76300001 1.5405728e-38
-0.012320965 0.051458091 0.76100004 1.6052167e-38
-0.010871444 0.051458087 0.76100004 1.6598519e-38
-0.0093847746 0.051255241 0.75800002 1.7232762e-38
-0.0079409657 0.051255241 0.75800002 1.6594581e-38
-0.0064971563 0.051255241 0.75800002 1.6038548e-38
-0.0050400086 0.051120009 0.75600004 1.5400721e-38
-0.0036000113 0.051120009 0.75600004 1.4850434e-38
-0.0021571575 0.051052388 0.75500005 1.4482742e-38
-0.00071715773 0.050917134 0.75300002 1.4125796e-38
0.00071713119 0.050917145 0.75300008 1.4115386e-38
0.0021514159 0.050917141 0.75300002 1.4108192e-38
0.0035857048 0.050917141 0.75300002 1.1067555e-38
0.0050199791 0.050917137 0.75300002 8.107606e-39
0.0064542782 0.050917149 0.75300002 5.071606e-39
0.0078885676 0.050917145 0.75300002 2.1231816e-39
0.0093476148 0.051052388 0.75500005 2.3036212e-39
0.010785711 0.051052399 0.755 2.5862799e-39
0.012223813 0.051052392 0.75500005 6.5448696e-39
0.013661899 0.051052392 0.75500005 1.0590337e-38
0.015099996 0.051052399 0.755 1.1888989e-38
0.016538097 0.051052384 0.75500005 1.3288803e-38
0.017976183 0.051052395 0.75500005 1.3378884e-38
0.019440008 0.05112002 0.75599998 1.3470675e-38
0.020880006 0.051120006 0.75599998 1.281128e-38
0.022319993 0.051120013 0.75600004 1.2252011e-38
0.023822848 0.05125523 0.75800002 1.465049e-38
0.025333339 0.051390484 0.75999999 1.7040727e-38
0.026780961 0.051390484 0.75999999 1.6400751e-38
0.028339982 0.051593326 0.76300001 1.5857672e-38
0.029871427 0.051728584 0.76499999 1.7617295e-38
0.03132857 0.051728588 0.76499999 1.9367908e-38
0.032785714 0.051728569 0.76500005 1.7980688e-38
0.034242857 0.051728573 0.76500005 1.6507373e-38
0.035793331 0.051863827 0.76699996 1.7059459e-38
0.037254296 0.051863827 0.76699996 1.7608702e-38
0.03876571 0.051931448 0.76799995 1.8537126e-38
-0.025666678 0.053533334 0.76999998 1.014479e-38
-0.024200011 0.053533327 0.77000004 1.1069624e-38
-0.022674302 0.053394295 0.76800001 1.1717876e-38
-0.021211443 0.053394306 0.76800001 1.2359643e-38
-0.019722857 0.053324763 0.76699996 1.2539005e-38
-0.018214295 0.053185713 0.76500005 1.2635165e-38
-0.016757147 0.05318572 0.76499999 1.290567e-38
-0.015300006 0.053185724 0.76499999 1.3098689e-38
-0.013806674 0.053046677 0.76299995 1.3094405e-38
-0.012353348 0.053046666 0.76300001 1.3012623e-38
-0.010871439 0.052907627 0.76100004 1.4480563e-38
-0.009409532 0.052838095 0.76000005 1.5952805e-38
-0.0079619186 0.052838098 0.76000005 1.6231904e-38
-0.0065142969 0.052838098 0.76000005 1.6413049e-38
-0.0050533419 0.052699052 0.75800002 1.5960314e-38
-0.0036095323 0.052699052 0.75800002 1.5392805e-38
-0.0021571529 0.052490488 0.75500005 1.3002218e-38
-0.00071905903 0.052490484 0.75500005 1.0516554e-38
0.00071903761 0.052490491 0.75500005 1.0055935e-38
0.0021571384 0.052490473 0.75500005 9.5960106e-39
0.0035952346 0.052490495 0.755 6.9266533e-39
0.0050333356 0.05249048 0.75500005 4.2450978e-39
0.006471422 0.052490477 0.75500005 2.2160779e-39
0.0079095187 0.052490488 0.755 1.9245994e-40
0.0093476186 0.052490488 0.75500005 2.7747111e-40
0.010785705 0.05249048 0.75500005 2.9544977e-40
0.012223802 0.052490495 0.755 7.2864704e-39
0.013661903 0.052490491 0.75500005 1.4197111e-38
0.015099988 0.052490473 0.75500005 1.605429e-38
0.0165381 0.052490499 0.75500005 1.78813e-38
0.018000003 0.052560013 0.75599998 1.4752781e-38
0.019439992 0.052560002 0.75600004 1.1609522e-38
