# .PCD v0.7 - Point Cloud Data file format
VERSION 0.7
FIELDS x y z rgb
SIZE 4 4 4 4
TYPE F F F F
COUNT 1 1 1 1
WIDTH 952
HEIGHT 1
VIEWPOINT 0 0 0 1 0 0 0
POINTS 952
DATA ascii
-0.021936178 -0.077130497 0.74300009 2.3945795e-39
-0.020355225 -0.076507643 0.73700011 3.4909021e-39
-0.018951435 -0.076507613 0.73700011 4.053431e-39
-0.017523807 -0.076403812 0.73600006 4.684105e-39
-0.0160781 -0.076196209 0.73400009 4.4215339e-39
-0.014640002 -0.075988576 0.73200005 4.044834e-39
-0.013245722 -0.075988561 0.73200005 3.3169337e-39
-0.011835208 -0.075884774 0.73100007 2.6701196e-39
-0.010442823 -0.075884774 0.73100007 2.0297626e-39
-0.0090504382 -0.075884774 0.73100007 1.4801902e-39
-0.0076371506 -0.075677142 0.72900003 2.1248379e-39
-0.0062399581 -0.07557334 0.7280001 2.677297e-39
-0.0048533157 -0.075573355 0.7280001 3.4141446e-39
-0.003466646 -0.075573355 0.7280001 4.0598783e-39
-0.0020742693 -0.075365722 0.72600007 4.9775299e-39
-0.00069045997 -0.075261906 0.72500002 5.8141513e-39
0.00069049583 -0.075261921 0.72500002 6.9226919e-39
0.0020714237 -0.075261921 0.72500002 8.0394174e-39
0.0034523776 -0.075261906 0.72500002 8.3073821e-39
0.0048333611 -0.075261906 0.72500008 8.672199e-39
0.006214316 -0.075261936 0.72500008 9.040243e-39
0.0075952448 -0.075261906 0.72500008 9.5019176e-39
0.0089761987 -0.075261906 0.72500002 9.7781262e-39
0.010357154 -0.075261906 0.72500002 1.0141889e-38
0.011705716 -0.075054303 0.72300011 1.0605021e-38
0.013082878 -0.075054273 0.72300011 1.115101e-38
0.014460013 -0.075054303 0.72300011 1.0417041e-38
0.015837148 -0.075054288 0.72300005 9.7659166e-39
0.017214315 -0.075054303 0.72300011 8.0202995e-39
0.018591451 -0.075054303 0.72300011 6.1688928e-39
0.019968586 -0.075054318 0.72300011 5.530719e-39
0.021345722 -0.075054288 0.72300011 4.7945777e-39
0.022785753 -0.075261921 0.72500008 4.058435e-39
0.024166681 -0.075261921 0.72500008 3.3233895e-39
0.025547635 -0.075261906 0.72500008 3.045009e-39
0.026928589 -0.075261906 0.72500002 2.7709374e-39
0.028309517 -0.075261921 0.72500002 2.7723723e-39
0.029690471 -0.075261921 0.72500002 2.7730786e-39
0.031114314 -0.075365737 0.72600007 3.689986e-39
0.03258669 -0.075573355 0.7280001 4.7055897e-39
0.033973355 -0.07557334 0.7280001 4.2417795e-39
0.035408571 -0.075677156 0.72900003 3.8769262e-39
0.03689814 -0.075884774 0.73100007 3.9665855e-39
0.038290523 -0.075884774 0.73100007 3.9708903e-39
0.039682884 -0.075884774 0.73100007 4.1524075e-39
0.041131429 -0.075988576 0.73200011 4.3403945e-39
0.042641904 -0.076196209 0.73400009 3.8744109e-39
0.04416002 -0.076403812 0.73600006 3.501325e-39
0.04556191 -0.076403812 0.73600012 6.7291936e-39
0.047155246 -0.076715246 0.73900002 1.004137e-38
0.048562877 -0.076715261 0.73900002 1.0599199e-38
0.050376192 -0.077338099 0.74500006 1.1243472e-38
0.051795229 -0.077338099 0.74500012 1.0967237e-38
-0.027671438 -0.075919062 0.74500012 6.4574356e-40
-0.026252376 -0.075919062 0.74500012 1.858388e-40
-0.02476665 -0.075715229 0.74300003 4.6026068e-40
-0.023351405 -0.075715229 0.74300009 6.4394429e-40
-0.021936161 -0.075715259 0.74300009 3.6809308e-40
-0.020493312 -0.075613335 0.7420001 9.2607612e-41
-0.01895142 -0.075103804 0.73700005 9.2269899e-41
-0.017547632 -0.075103819 0.73700011 9.22713e-41
-0.016143817 -0.075103819 0.73700011 1.841096e-40
-0.014639976 -0.074594289 0.73200005 2.7773035e-40
-0.013245696 -0.074594274 0.73200011 1.012766e-39
-0.011851415 -0.074594274 0.73200011 1.6588277e-39
-0.010457134 -0.074594289 0.73200011 1.293264e-39
-0.0090504438 -0.074492395 0.73100007 8.3589695e-40
-0.0076371673 -0.074288577 0.72900003 1.5720313e-39
-0.006248571 -0.074288562 0.72900009 2.2166832e-39
-0.0048600063 -0.074288577 0.72900009 3.2293932e-39
-0.0034666376 -0.074186683 0.7280001 4.1502817e-39
-0.0020742684 -0.073982865 0.72600007 5.2548426e-39
-0.00069046183 -0.073880941 0.72500002 6.3655286e-39
0.0006904921 -0.073880956 0.72500002 7.6559409e-39
0.00207142 -0.073880956 0.72500002 8.9527459e-39
0.0034523739 -0.073880941 0.72500002 9.3193593e-39
0.0048333593 -0.07388097 0.72500008 9.5952175e-39
0.0062143113 -0.073880956 0.72500008 1.0148736e-38
0.0075952411 -0.073880956 0.72500008 1.0607183e-38
0.0089761941 -0.07388097 0.72500002 1.0884471e-38
0.010357148 -0.073880941 0.72500002 1.1066002e-38
0.011738103 -0.073880956 0.72500002 1.1714603e-38
0.013119061 -0.07388097 0.72500008 1.2349904e-38
0.014460001 -0.073677167 0.72300011 1.0787969e-38
0.015837137 -0.073677152 0.72300011 9.2188469e-39
0.017214302 -0.073677152 0.72300011 7.2881225e-39
0.018591441 -0.073677167 0.72300011 5.2573495e-39
0.019968577 -0.073677167 0.72300011 4.6048251e-39
0.021345738 -0.073677152 0.72300011 3.870839e-39
0.022722874 -0.073677167 0.72300005 3.1321893e-39
0.024166673 -0.073880941 0.72500008 2.3045853e-39
0.025547627 -0.073880956 0.72500002 1.837866e-39
0.026928581 -0.073880956 0.72500002 1.2947395e-39
0.028309535 -0.073880956 0.72500002 1.0213798e-39
0.029731434 -0.073982865 0.72600007 6.5366229e-40
0.031114284 -0.07398288 0.72600007 1.5651845e-39
0.032586664 -0.074186668 0.72800004 2.4882338e-39
0.034019992 -0.074288562 0.72900003 2.6687085e-39
0.035408556 -0.074288562 0.72900003 2.7637473e-39
0.036898106 -0.074492395 0.73100001 2.7601348e-39
0.038290489 -0.074492395 0.73100001 2.7648081e-39
0.039737146 -0.074594274 0.73200005 3.037456e-39
0.041131426 -0.074594289 0.73200005 3.3197742e-39
0.042641908 -0.074798122 0.73400009 3.134664e-39
0.044160035 -0.075001925 0.73600012 2.8616659e-39
0.045561895 -0.07500191 0.73600006 6.6401915e-39
0.047155276 -0.075307623 0.73900008 1.032045e-38
0.048628606 -0.075409532 0.74000007 1.1155961e-38
0.050511435 -0.07612285 0.74700004 1.197996e-38
0.051934291 -0.07612285 0.74700004 1.1426069e-38
-0.026252378 -0.074499995 0.74500012 2.7803443e-40
-0.024766658 -0.074300021 0.74300009 2.7695263e-40
-0.023351414 -0.074300021 0.74300009 3.684378e-40
-0.021906648 -0.074199989 0.74200004 2.7660931e-40
-0.020493301 -0.074200019 0.7420001 9.2943923e-41
-0.01907998 -0.074200004 0.7420001 3.6809588e-40
-0.017619042 -0.074000001 0.74000007 6.4322682e-40
-0.016187601 -0.073900014 0.73900002 8.2723833e-40
-0.014680013 -0.073400006 0.73400009 1.0120023e-39
-0.013245698 -0.073200002 0.73200005 1.4726316e-39
-0.011851419 -0.073200002 0.73200005 2.0265032e-39
-0.010457139 -0.073200002 0.73200005 1.7513442e-39
-0.009050454 -0.073100016 0.73100001 1.5687761e-39
-0.0076371524 -0.072899997 0.72900003 2.1216093e-39
-0.0062485877 -0.072899982 0.72900003 2.6740642e-39
-0.004860023 -0.072899997 0.72900003 3.4112663e-39
-0.0034666301 -0.07280001 0.7280001 4.1492097e-39
-0.0020799597 -0.07280001 0.7280001 5.0729765e-39
-0.00069046929 -0.07249999 0.72500002 6.0028571e-39
0.00069048465 -0.07250002 0.72500002 7.7520812e-39
0.0020714405 -0.072500005 0.72500002 9.5098546e-39
0.0034523981 -0.07250002 0.72500008 9.5984447e-39
0.0048333518 -0.072500005 0.72500008 9.7810423e-39
0.0062143058 -0.07250002 0.72500002 1.0148387e-38
0.0075952346 -0.07249999 0.72500008 1.0607195e-38
0.0089761894 -0.072500005 0.72500002 1.0422795e-38
0.010357143 -0.072500005 0.72500002 1.0328825e-38
0.011738128 -0.072500005 0.72500008 1.0513589e-38
0.013119056 -0.07250002 0.72500008 1.0786199e-38
0.01450001 -0.07250002 0.72500008 9.9578595e-39
0.015837152 -0.072300017 0.72300011 9.2166917e-39
0.017214317 -0.072300017 0.72300011 7.1937717e-39
0.018591452 -0.072300017 0.72300011 5.1708894e-39
0.019968588 -0.072300032 0.72300011 4.4254533e-39
0.021345723 -0.072300017 0.72300011 3.7782832e-39
0.022722859 -0.072300017 0.72300011 3.0403538e-39
0.024166666 -0.072500005 0.72500008 2.3939054e-39
0.02554762 -0.07249999 0.72500002 2.1180262e-39
0.026928576 -0.072500005 0.72500002 1.8443022e-39
0.028348587 -0.072600022 0.72600007 1.6624136e-39
0.029731438 -0.072600007 0.72600007 1.5716333e-39
0.031200003 -0.07280001 0.72800004 2.026485e-39
0.032586671 -0.07280001 0.72800004 2.4824647e-39
0.034020003 -0.072899997 0.72900003 2.5757659e-39
0.035408568 -0.072899982 0.72900003 2.5750219e-39
0.036898121 -0.073100016 0.73100001 2.4853107e-39
0.03834286 -0.073200002 0.73200005 2.3931389e-39
0.039737143 -0.073200002 0.73200005 2.9470442e-39
0.041243814 -0.073400021 0.73400009 3.5012675e-39
0.0427581 -0.073599994 0.73600006 3.4079775e-39
0.044160016 -0.073599994 0.73600006 3.405465e-39
0.04562382 -0.073700026 0.73700011 6.8223897e-39
0.047219057 -0.074000016 0.74000007 1.0321512e-38
0.048760019 -0.074200019 0.7420001 1.0783605e-38
0.050511412 -0.074700013 0.74700004 1.1338557e-38
0.052003816 -0.074800014 0.74800003 1.1150932e-38
-0.02625238 -0.073080957 0.74500012 2.7768971e-40
-0.024833344 -0.073080972 0.74500012 1.8440387e-40
-0.023351397 -0.072884768 0.74300009 9.3645974e-41
-0.021936154 -0.072884783 0.74300009 9.2572579e-41
-0.020520911 -0.072884783 0.74300009 9.2931312e-41
-0.019079994 -0.072786689 0.7420001 6.4322822e-40
-0.017619038 -0.07259047 0.74000007 1.1027546e-39
-0.016209509 -0.0725905 0.74000007 1.3778926e-39
-0.01473999 -0.072296217 0.73700011 1.6544949e-39
-0.013318091 -0.072198093 0.73600006 2.0229327e-39
-0.011916198 -0.072198108 0.73600006 2.3920641e-39
-0.010457142 -0.071805701 0.73200005 2.2998643e-39
-0.0090504596 -0.071707621 0.73100007 2.2102008e-39
-0.0076371692 -0.071511433 0.72900003 2.6708314e-39
-0.0062485747 -0.071511418 0.72900009 3.1325284e-39
-0.0048600081 -0.071511433 0.72900009 3.5924318e-39
-0.0034666227 -0.071413353 0.7280001 4.0555764e-39
-0.0020799784 -0.071413338 0.7280001 4.7924351e-39
-0.0006914211 -0.071217135 0.72600007 5.5390105e-39
0.00069048093 -0.07111904 0.72500002 7.7481393e-39
0.0020714647 -0.071119055 0.72500008 9.962935e-39
0.003457159 -0.071217149 0.72600007 9.9665041e-39
0.0048400108 -0.071217149 0.72600007 9.965079e-39
0.006214302 -0.071119055 0.72500002 1.0239519e-38
0.007595256 -0.07111907 0.72500002 1.0514647e-38
0.0089761838 -0.071119055 0.72500002 1.0054015e-38
0.010357139 -0.071119025 0.72500002 9.5937699e-39
0.011738121 -0.07111907 0.72500008 9.4075976e-39
0.013119075 -0.071119055 0.72500002 9.1327932e-39
0.014500003 -0.071119055 0.72500008 9.1320603e-39
0.015880957 -0.07111907 0.72500002 9.125931e-39
0.017261911 -0.07111904 0.72500002 7.0987034e-39
0.018642843 -0.07111904 0.72500002 4.9829066e-39
0.019968599 -0.070922881 0.72300011 4.3318143e-39
0.021345735 -0.070922852 0.72300011 3.5945884e-39
0.02272287 -0.070922881 0.72300011 3.0399573e-39
0.024166688 -0.071119055 0.72500002 2.3967473e-39
0.025547618 -0.071119055 0.72500002 2.3960284e-39
0.026928572 -0.07111904 0.72500002 2.3974619e-39
0.028348584 -0.071217149 0.72600007 2.3963857e-39
0.029731436 -0.071217135 0.72600001 2.397092e-39
0.031242859 -0.071511403 0.72900003 2.4867639e-39
0.032631423 -0.071511433 0.72900003 2.4864248e-39
0.034019988 -0.071511433 0.72900003 2.4853696e-39
0.035505734 -0.071707606 0.73100007 2.393876e-39
0.036898118 -0.071707636 0.73100007 2.2123406e-39
0.03834286 -0.071805716 0.73200005 1.9379159e-39
0.039737139 -0.071805701 0.73200005 2.8562779e-39
0.041243821 -0.072001919 0.73400009 3.6842197e-39
0.042758115 -0.072198093 0.73600006 3.774609e-39
0.044160008 -0.072198093 0.73600012 3.873273e-39
0.045623813 -0.072296202 0.73700005 7.1058248e-39
0.047346681 -0.072786674 0.74200004 1.032117e-38
0.048825741 -0.072884768 0.74300009 1.0502356e-38
0.05051145 -0.073277146 0.7470001 1.0598487e-38
0.052003827 -0.073375255 0.74800003 1.0874702e-38
-0.024900017 -0.071854293 0.74700004 3.7735258e-39
-0.023414284 -0.071661904 0.74500012 3.7699343e-39
-0.021936163 -0.071469545 0.74300009 3.8660704e-39
-0.02052095 -0.071469516 0.74300003 4.0422052e-39
-0.019079983 -0.071373343 0.74200004 3.5891219e-39
-0.017619034 -0.071180955 0.74000001 3.1234859e-39
-0.016209505 -0.071180955 0.74000007 3.220701e-39
-0.01474 -0.070892394 0.73700011 3.3993721e-39
-0.0133181 -0.070796192 0.73600006 3.4976872e-39
-0.011916184 -0.070796177 0.73600006 3.6774135e-39
-0.010485731 -0.070603818 0.73400009 3.7728378e-39
-0.009062835 -0.070411444 0.73200005 3.8621733e-39
-0.0076580541 -0.070315242 0.73100007 4.0515953e-39
-0.0062485896 -0.070122853 0.72900003 4.2352761e-39
-0.0048733102 -0.070315257 0.73100007 4.6054963e-39
-0.003471433 -0.070122868 0.72900003 4.9735698e-39
-0.0020828682 -0.070122853 0.72900003 5.7157997e-39
-0.00069141923 -0.069834292 0.72600007 6.459155e-39
0.00069143088 -0.069834307 0.72600007 8.027236e-39
0.002074281 -0.069834307 0.72600007 9.5966706e-39
0.0034571628 -0.069834292 0.72600007 9.7799619e-39
0.0048400126 -0.069834292 0.72600007 9.8725316e-39
0.0062228898 -0.069834307 0.72600007 1.0517549e-38
0.0076057399 -0.069834307 0.72600007 1.1158217e-38
0.0089885909 -0.069834292 0.72600007 1.0697577e-38
0.010371441 -0.069834322 0.72600007 1.0238042e-38
0.011754292 -0.069834292 0.72600007 1.032952e-38
0.013137173 -0.069834292 0.72600007 1.0419558e-38
0.014500001 -0.069738105 0.72500002 1.0144047e-38
0.015880954 -0.069738105 0.72500002 9.9542428e-39
0.017261909 -0.06973809 0.72500002 7.7436986e-39
0.018642861 -0.06973809 0.72500002 5.5339126e-39
0.020051427 -0.069834292 0.72600007 4.8860461e-39
0.021404773 -0.06973809 0.72500008 4.238848e-39
0.022879999 -0.070026696 0.72800004 3.5023255e-39
0.024266697 -0.070026681 0.7280001 2.8584092e-39
0.025653366 -0.070026666 0.7280001 2.8591351e-39
0.027040036 -0.070026696 0.7280001 2.9524154e-39
0.028426681 -0.070026681 0.7280001 3.0428257e-39
0.029854275 -0.070122853 0.72900003 3.2257779e-39
0.03124284 -0.070122853 0.72900003 3.0417467e-39
0.032720961 -0.070315227 0.73100007 2.858803e-39
0.034113344 -0.070315242 0.73100001 2.7641075e-39
0.035554297 -0.070411414 0.73200005 2.670114e-39
0.036948577 -0.070411444 0.73200011 2.3981892e-39
0.038447604 -0.070603818 0.73400009 2.1262602e-39
0.039845705 -0.070603818 0.73400009 3.043169e-39
0.041356213 -0.070796192 0.73600012 4.0540728e-39
0.042758133 -0.070796192 0.73600012 4.051556e-39
0.044160023 -0.070796192 0.73600012 4.0537365e-39
0.045623831 -0.070892408 0.73700011 7.2848673e-39
0.047219064 -0.07118094 0.74000001 1.0599563e-38
0.048825756 -0.071469545 0.74300009 1.059957e-38
0.050511427 -0.071854293 0.74700004 1.0597048e-38
0.05214287 -0.072142854 0.75000006 1.0689948e-38
-0.024900012 -0.070431426 0.74700004 7.3695057e-39
-0.023414284 -0.070242867 0.74500012 7.3680582e-39
-0.021995222 -0.070242852 0.74500012 7.6518029e-39
-0.020520933 -0.070054293 0.74300003 7.9212151e-39
-0.019105688 -0.070054308 0.74300003 6.5469155e-39
-0.017666651 -0.069960013 0.74200004 5.1611322e-39
-0.016209502 -0.069771439 0.74000001 5.1654356e-39
-0.014779996 -0.069677144 0.73900002 5.0682219e-39
-0.013336196 -0.069488585 0.73700011 5.0750392e-39
-0.011932381 -0.06948857 0.73700011 4.975313e-39
-0.010514276 -0.069394305 0.73600012 5.2515384e-39
-0.0090875998 -0.069205731 0.73400009 5.433064e-39
-0.0076685576 -0.069017142 0.73200005 5.4373772e-39
-0.0062742764 -0.069017142 0.73200005 5.3433865e-39
-0.0048733205 -0.068922862 0.73100001 5.6199663e-39
-0.0034809073 -0.068922877 0.73100007 5.8040073e-39
-0.0020828552 -0.068734288 0.72900003 6.6377126e-39
-0.00069329492 -0.068639994 0.7280001 7.3767616e-39
0.00069145695 -0.068451419 0.72600007 8.3045053e-39
0.0020743089 -0.068451419 0.72600007 9.2239294e-39
0.0034666883 -0.068639979 0.7280001 9.5001478e-39
0.0048400089 -0.068451419 0.72600007 9.7781752e-39
0.00622286 -0.068451419 0.72600001 1.0800215e-38
0.0076057408 -0.068451434 0.72600007 1.1802132e-38
0.0089885918 -0.068451419 0.72600007 1.1340062e-38
0.010371442 -0.068451434 0.72600007 1.0788335e-38
0.011802854 -0.068734288 0.72900009 1.1252179e-38
0.01319142 -0.068734303 0.72900003 1.1708115e-38
0.014560019 -0.068640009 0.7280001 1.1253947e-38
0.015946688 -0.068640009 0.7280001 1.0688554e-38
0.017333359 -0.068640009 0.7280001 8.3876149e-39
0.018720027 -0.068639994 0.72800004 5.9955886e-39
0.020106696 -0.068639979 0.72800004 5.4399149e-39
0.021493338 -0.068639994 0.72800004 4.791656e-39
0.022880007 -0.068639994 0.72800004 4.0562266e-39
0.024266675 -0.068639994 0.72800004 3.2279176e-39
0.025688566 -0.068734303 0.72900009 3.4130278e-39
0.027040046 -0.068639994 0.7280001 3.5037969e-39
0.028465724 -0.068734288 0.72900003 3.7796719e-39
0.029936209 -0.068922862 0.73100007 3.9619122e-39
0.031328592 -0.068922877 0.73100007 3.595652e-39
0.032765709 -0.069017142 0.73200005 3.136113e-39
0.034160018 -0.069017157 0.73200005 3.0414062e-39
0.035651438 -0.069205716 0.73400009 2.9510014e-39
0.037049536 -0.069205731 0.73400009 2.6762068e-39
0.038447637 -0.069205716 0.73400009 2.3102942e-39
0.039845735 -0.069205716 0.73400009 3.3197601e-39
0.041356198 -0.06939429 0.73600006 4.3288884e-39
0.042758089 -0.06939429 0.73600006 4.2316859e-39
0.044220012 -0.0694886 0.73700011 4.1524103e-39
0.045623824 -0.0694886 0.73700011 7.4724829e-39
0.047346681 -0.069960013 0.7420001 1.0783224e-38
0.048825715 -0.070054278 0.74300003 1.069964e-38
0.05024096 -0.070054293 0.74300009 1.0602055e-38
-0.023414288 -0.068823814 0.74500012 7.741535e-39
-0.021995224 -0.068823814 0.74500012 7.9309247e-39
-0.020520942 -0.068639055 0.74300009 8.2085962e-39
-0.019208562 -0.069008559 0.74700004 5.6260942e-39
-0.017785706 -0.069008574 0.7470001 3.1458184e-39
-0.016209524 -0.068361908 0.74000007 3.4163026e-39
-0.014779994 -0.068269521 0.73900008 3.694302e-39
-0.013336175 -0.068084776 0.73700011 3.2336714e-39
-0.011932361 -0.068084776 0.73700011 2.8666895e-39
-0.010514291 -0.067992389 0.73600006 3.962617e-39
-0.0091123739 -0.067992374 0.73600006 5.0685932e-39
-0.007710482 -0.067992374 0.73600006 4.4286188e-39
-0.0062742811 -0.06762284 0.73200005 3.7850389e-39
-0.0048799999 -0.067622855 0.73200005 3.5030598e-39
-0.0034809408 -0.067530498 0.73100001 3.2293568e-39
-0.0020828701 -0.067345709 0.72900003 4.057321e-39
-0.0006961727 -0.067530483 0.73100001 4.7999573e-39
0.00069145882 -0.067068577 0.72600007 5.8145114e-39
0.0020743089 -0.067068577 0.72600007 6.7389732e-39
0.0034666967 -0.067253351 0.7280001 7.190267e-39
0.0048533641 -0.067253336 0.7280001 7.745589e-39
0.0062400335 -0.067253336 0.72800004 8.6732738e-39
0.0076057101 -0.067068577 0.72600007 9.5937657e-39
0.0089885602 -0.067068577 0.72600007 7.5618886e-39
0.010371441 -0.067068577 0.72600007 5.4561335e-39
0.011754317 -0.067068577 0.72600007 7.8460116e-39
0.013191404 -0.067345694 0.72900003 1.0325549e-38
0.014500014 -0.06697619 0.72500002 8.2039845e-39
0.015902869 -0.067068592 0.72600007 6.0874381e-39
0.01728572 -0.067068577 0.72600007 5.9909139e-39
0.018668573 -0.067068562 0.72600007 5.9058943e-39
0.02005145 -0.067068577 0.72600007 5.0686115e-39
0.021493345 -0.067253321 0.72800004 4.3292513e-39
0.022880014 -0.067253351 0.72800004 3.5934786e-39
0.024266684 -0.067253336 0.72800004 2.8591547e-39
0.025688574 -0.067345709 0.72900003 3.1343025e-39
0.02707714 -0.067345709 0.72900003 3.3194182e-39
0.028465707 -0.067345709 0.72900003 3.7775279e-39
0.029936202 -0.067530498 0.73100001 4.3285521e-39
0.031328615 -0.067530498 0.73100007 4.6987752e-39
0.032765705 -0.06762284 0.73200005 5.1604512e-39
0.034160011 -0.067622855 0.73200005 5.3459018e-39
0.035651416 -0.06780763 0.73400009 5.5281337e-39
0.037049513 -0.06780763 0.73400009 5.5295644e-39
0.038552377 -0.067992389 0.73600006 5.5263344e-39
0.039954297 -0.067992389 0.73600006 5.6199607e-39
0.041412402 -0.068084776 0.73700011 5.7093187e-39
0.042816188 -0.068084791 0.73700005 6.7249224e-39
0.044340007 -0.068269536 0.73900002 7.7397568e-39
0.045747641 -0.068269521 0.73900002 9.2187895e-39
0.047346693 -0.068546668 0.74200004 1.0687074e-38
0.048825733 -0.068639055 0.74300003 1.0692089e-38
0.05037621 -0.068823814 0.74500012 1.0788223e-38
-0.020659044 -0.067676187 0.74800003 8.4794644e-39
-0.01920858 -0.067585707 0.74700004 4.7869995e-39
-0.017738095 -0.067404777 0.74500006 1.0206666e-39
-0.016275195 -0.067223817 0.74300009 1.6592088e-39
-0.014779996 -0.066861898 0.73900002 2.2195741e-39
-0.013372391 -0.066861928 0.73900002 1.4827644e-39
-0.011932371 -0.066680968 0.73700011 7.4984322e-40
-0.010528557 -0.066680968 0.73700011 2.7554853e-39
-0.0091123851 -0.066590488 0.73600006 4.7070386e-39
-0.0077104676 -0.066590473 0.73600006 3.4239032e-39
-0.0063085752 -0.066590488 0.73600006 2.1334811e-39
-0.0048933169 -0.066409543 0.73400009 1.3779304e-39
-0.0034856924 -0.066228569 0.73200011 6.5800492e-40
-0.0020971175 -0.066409543 0.73400009 1.4698682e-39
-0.00069617922 -0.066138104 0.73100007 2.2253797e-39
0.00069427327 -0.065957144 0.72900003 3.2305703e-39
0.0020828389 -0.065957129 0.72900003 4.2486627e-39
0.0034714045 -0.065957144 0.72900003 4.9600402e-39
0.0048599942 -0.065957129 0.72900003 5.6326383e-39
0.0062400149 -0.065866664 0.7280001 6.5534806e-39
0.0076266844 -0.065866664 0.7280001 7.3717604e-39
0.0090133538 -0.065866664 0.72800004 3.7661522e-39
0.010400023 -0.065866664 0.72800004 1.1819252e-40
0.011786667 -0.065866664 0.72800004 4.5334612e-39
0.013173336 -0.065866679 0.72800004 8.8486071e-39
0.014520019 -0.065685719 0.72600007 5.1485948e-39
0.015946705 -0.065866664 0.7280001 1.4776987e-39
0.017333373 -0.065866664 0.7280001 3.5823943e-39
0.018720016 -0.065866679 0.7280001 5.703565e-39
0.020106684 -0.065866679 0.7280001 4.7826835e-39
0.021493353 -0.065866694 0.72800004 3.8657551e-39
0.022911403 -0.065957129 0.72900003 3.2207458e-39
0.024299968 -0.065957144 0.72900003 2.4867877e-39
0.025688589 -0.065957144 0.72900003 2.8530633e-39
0.027151454 -0.066138104 0.73100007 3.1318124e-39
0.028543837 -0.066138104 0.73100001 3.8665118e-39
0.029936222 -0.066138089 0.73100001 4.6047943e-39
0.031371418 -0.066228583 0.73200005 5.8944471e-39
0.032855254 -0.066409528 0.73400009 7.1880361e-39
0.034253351 -0.066409543 0.73400009 7.6540281e-39
0.035651453 -0.066409528 0.73400009 8.0192121e-39
0.037150502 -0.066590473 0.73600006 8.3879834e-39
0.038552392 -0.066590488 0.73600012 8.6584677e-39
0.039954312 -0.066590473 0.73600012 7.9248613e-39
0.041412394 -0.066680968 0.73700011 7.0976314e-39
0.042816211 -0.066680968 0.73700011 9.218107e-39
0.044220019 -0.066680968 0.73700011 1.1242763e-38
0.045933358 -0.067133337 0.7420001 1.088436e-38
0.047346678 -0.067133337 0.74200004 1.0508414e-38
0.048825722 -0.067223817 0.74300009 1.0685276e-38
0.05037621 -0.067404777 0.74500012 1.0875047e-38
0.051934302 -0.067585707 0.7470001 1.0970113e-38
0.05335715 -0.067585707 0.74700004 1.0968311e-38
-0.022201912 -0.066605717 0.75200003 9.6834727e-39
-0.020714264 -0.066428572 0.75000006 1.0779323e-38
-0.019234281 -0.066251457 0.74800009 5.7056936e-39
-0.017785721 -0.066162854 0.74700004 6.4325905e-40
-0.016275235 -0.065808579 0.74300003 3.4051357e-39
-0.014799988 -0.065542877 0.74000001 6.2660981e-39
-0.013372362 -0.065454274 0.73900008 5.4468233e-39
-0.01193238 -0.065277144 0.73700011 4.6180898e-39
-0.010528564 -0.065277159 0.73700011 7.5635785e-39
-0.0091123693 -0.065188572 0.73600012 1.0611106e-38
-0.0077104517 -0.065188572 0.73600012 1.0423941e-38
-0.006291437 -0.065011442 0.73400009 1.0324825e-38
-0.0048800036 -0.064834282 0.73200005 1.0049569e-38
-0.0034856962 -0.064834282 0.73200005 9.8706553e-39
-0.0020914169 -0.064834297 0.73200005 1.0235937e-38
-0.0006943082 -0.064568564 0.72900003 1.0512503e-38
0.00069425651 -0.064568564 0.72900003 1.1152824e-38
0.0020828529 -0.064568579 0.72900009 1.1891109e-38
0.0034714176 -0.064568579 0.72900009 1.2905258e-38
0.0048600072 -0.064568579 0.72900003 1.3923646e-38
0.0062400233 -0.064480022 0.7280001 1.0696436e-38
0.0076266928 -0.064480022 0.7280001 7.5532622e-39
0.0090133622 -0.064480022 0.72800004 4.0553003e-39
0.010400006 -0.064480007 0.7280001 6.7601861e-40
0.011786674 -0.064480007 0.72800004 8.1336828e-39
0.013173344 -0.064480022 0.72800004 1.5570494e-38
0.014519992 -0.064302862 0.72600007 1.0220646e-38
0.015946683 -0.064479992 0.72800004 4.8676919e-39
0.017333355 -0.064480007 0.7280001 5.7868147e-39
0.01874572 -0.064568594 0.72900003 6.6140237e-39
0.020134283 -0.064568579 0.72900003 6.8051986e-39
0.02152285 -0.064568579 0.72900003 7.0796247e-39
0.022911415 -0.064568579 0.72900003 6.5300424e-39
0.024366707 -0.064745709 0.73100007 5.9725891e-39
0.025759092 -0.064745709 0.73100007 5.9754758e-39
0.027151451 -0.064745724 0.73100007 5.9783666e-39
0.02858286 -0.064834297 0.73200011 6.2585577e-39
0.029977165 -0.064834297 0.73200005 6.5337152e-39
0.031457134 -0.065011442 0.73400009 8.0131375e-39
0.032855231 -0.065011427 0.73400009 9.4914864e-39
0.034253333 -0.065011442 0.73400009 9.5854855e-39
0.035748597 -0.065188572 0.73600012 9.7713018e-39
0.037150491 -0.065188587 0.73600012 9.4003641e-39
0.038604785 -0.065277144 0.73700011 9.120557e-39
0.040008575 -0.065277174 0.73700011 8.3844424e-39
0.041524768 -0.065454289 0.73900002 7.6504576e-39
0.042932373 -0.065454274 0.73900002 8.9436697e-39
0.044400021 -0.065542862 0.74000007 1.024045e-38
0.045933343 -0.065720007 0.7420001 1.0328301e-38
0.047538083 -0.065985724 0.74500012 1.0419798e-38
0.049088571 -0.066162869 0.74700004 1.0875765e-38
0.050511427 -0.06616284 0.74700004 1.1332442e-38
0.052003801 -0.066251427 0.74800003 1.0966905e-38
0.053571437 -0.066428557 0.75000006 1.0691393e-38
-0.02220194 -0.065173343 0.75200003 1.1079675e-38
-0.020714272 -0.065000013 0.75000006 1.3077361e-38
-0.01923427 -0.064826682 0.74800009 6.6125523e-39
-0.017785717 -0.064739987 0.74700004 1.8412361e-40
-0.016275218 -0.064393327 0.74300003 5.2351334e-39
-0.014800009 -0.064133346 0.74000001 1.0320196e-38
-0.01337239 -0.064046681 0.73900002 9.4198085e-39
-0.011964757 -0.064046666 0.73900002 8.4002742e-39
-0.010528575 -0.063873336 0.73700011 1.2453575e-38
-0.0091123842 -0.063786656 0.73600006 1.6500488e-38
-0.0077104927 -0.063786671 0.73600006 1.75197e-38
-0.0062914295 -0.063613355 0.73400009 1.8433707e-38
-0.0048800083 -0.06344001 0.73200005 1.8808538e-38
-0.0034857269 -0.063439995 0.73200005 1.9081935e-38
-0.0020914467 -0.063439995 0.73200005 1.8998037e-38
-0.00069429516 -0.06318 0.72900003 1.880144e-38
0.00069426955 -0.06318 0.72900003 1.916088e-38
0.0020828361 -0.063180014 0.72900003 1.9448953e-38
0.003471426 -0.06318 0.72900003 2.0846227e-38
0.0048599914 -0.063179985 0.72900003 2.2115375e-38
0.0062400317 -0.063093334 0.7280001 1.4938884e-38
0.0076267002 -0.063093334 0.7280001 7.6454816e-39
0.0090133697 -0.063093349 0.7280001 4.4086251e-39
0.010400013 -0.063093349 0.7280001 1.2320931e-39
0.011786683 -0.063093334 0.72800004 1.1846311e-38
0.013173352 -0.063093334 0.72800004 2.2295023e-38
0.014520017 -0.062919989 0.72600007 1.5295709e-38
0.015946664 -0.063093334 0.72800004 8.2785504e-39
0.017333332 -0.063093334 0.72800004 7.8990171e-39
0.018745704 -0.06318 0.72900003 7.5399218e-39
0.02013427 -0.06318 0.72900003 8.9278533e-39
0.021522835 -0.06318 0.72900003 1.0213554e-38
0.0229114 -0.063179985 0.72900003 9.8476516e-39
0.024366673 -0.063353345 0.73100001 9.4720489e-39
0.02575906 -0.063353345 0.73100001 9.1889993e-39
0.027151443 -0.063353345 0.73100001 8.8317158e-39
0.028543826 -0.063353345 0.73100001 8.6548747e-39
0.029977135 -0.063440025 0.73200005 8.3804641e-39
0.031457163 -0.06361334 0.73400009 1.0041415e-38
0.032855235 -0.063613355 0.73400009 1.1696614e-38
0.034346666 -0.063786656 0.73600006 1.1608375e-38
0.035748582 -0.063786656 0.73600006 1.1423622e-38
0.037150476 -0.063786671 0.73600006 1.0504903e-38
0.03860477 -0.063873336 0.73700005 9.4896913e-39
0.04000856 -0.063873336 0.73700011 8.8418206e-39
0.041524772 -0.064046681 0.73900008 8.2025412e-39
0.042932402 -0.064046681 0.73900008 8.6660067e-39
0.044400029 -0.064133346 0.74000007 9.1298028e-39
0.045933351 -0.064306676 0.74200004 9.7686618e-39
0.047538079 -0.064566672 0.74500006 1.0325454e-38
0.048957143 -0.064566672 0.74500012 1.1065201e-38
0.050579034 -0.064826682 0.74800003 1.1794505e-38
0.052142859 -0.064999998 0.75000006 1.1056951e-38
-0.022201911 -0.063740969 0.75200009 1.1533487e-38
-0.020714279 -0.063571408 0.75000006 1.3184622e-38
-0.019234259 -0.063401937 0.74800009 6.6254484e-39
-0.017785707 -0.06331715 0.7470001 1.8416705e-40
-0.016319066 -0.063147619 0.74500006 6.6389556e-39
-0.014800007 -0.062723801 0.74000001 1.3104381e-38
-0.013372362 -0.062639043 0.73900008 1.2455783e-38
-0.011964755 -0.062639043 0.73900008 1.1792875e-38
-0.010528553 -0.062469542 0.73700011 1.4383311e-38
-0.009124741 -0.062469542 0.73700011 1.6876156e-38
-0.0077104778 -0.062384769 0.73600006 1.7800979e-38
-0.0062914258 -0.062215254 0.73400009 1.881657e-38
-0.0048933262 -0.062215254 0.73400009 1.9643825e-38
-0.0034857297 -0.062045708 0.73200005 2.0476796e-38
-0.0020914485 -0.062045693 0.73200005 2.065795e-38
-0.00069431192 -0.06179142 0.72900003 2.0932737e-38
0.00069425465 -0.06179142 0.72900003 2.1112099e-38
0.0020828492 -0.061791435 0.72900009 2.1397301e-38
0.003471439 -0.06179142 0.72900003 2.1856128e-38
0.0048600044 -0.061791435 0.72900003 2.2313468e-38
0.00624857 -0.06179142 0.72900003 1.4931071e-38
0.0076267086 -0.061706662 0.7280001 7.5378871e-39
0.009013352 -0.061706677 0.7280001 4.1417002e-39
0.010400021 -0.061706677 0.7280001 8.5474582e-40
0.011786691 -0.061706662 0.7280001 1.1830633e-38
0.01317336 -0.061706662 0.72800004 2.2866216e-38
0.014520017 -0.061537147 0.72600007 1.6767304e-38
0.015946671 -0.061706662 0.72800004 1.065339e-38
0.01733334 -0.061706677 0.72800004 1.0014089e-38
0.018745717 -0.061791435 0.72900009 9.3816652e-39
0.020134281 -0.061791405 0.72900003 1.0583438e-38
0.021522846 -0.06179142 0.72900003 1.1784487e-38
0.022911411 -0.061791405 0.72900003 1.076857e-38
0.024300003 -0.06179142 0.72900003 9.7561902e-39
0.025759079 -0.061960965 0.73100001 9.8447607e-39
0.027151436 -0.061960965 0.73100007 1.0034537e-38
0.028543821 -0.061960965 0.73100001 1.0033827e-38
0.029977132 -0.062045708 0.73200005 1.0128203e-38
0.031457141 -0.062215254 0.73400009 1.1510785e-38
0.032855239 -0.062215254 0.73400009 1.28894e-38
0.03425334 -0.062215269 0.73400009 1.2155798e-38
0.035748575 -0.062384769 0.73600012 1.1513664e-38
0.037150491 -0.062384754 0.73600006 1.0686781e-38
0.038604792 -0.062469527 0.73700011 9.8588241e-39
0.040008582 -0.062469542 0.73700011 9.1198326e-39
0.041412394 -0.062469557 0.73700011 8.3858493e-39
0.042932402 -0.062639043 0.73900002 9.5854322e-39
0.044400029 -0.062723815 0.74000007 1.0873949e-38
0.04593334 -0.062893331 0.74200004 1.0690227e-38
0.047538105 -0.063147634 0.74500012 1.0507694e-38
0.048957139 -0.063147634 0.74500006 1.0600309e-38
0.050579045 -0.063401908 0.74800003 1.0601375e-38
0.052003819 -0.063401923 0.74800003 1.0508095e-38
-0.022201911 -0.06230858 0.75200003 1.2005193e-38
-0.020714287 -0.062142879 0.75000006 1.3173844e-38
-0.019234303 -0.061977148 0.74800003 6.6125285e-39
-0.017809527 -0.061977163 0.74800003 1.0271938e-40
-0.016319066 -0.061728582 0.74500006 8.0315309e-39
-0.014859966 -0.061562881 0.74300009 1.5857664e-38
-0.013390474 -0.061314285 0.74000001 1.5597609e-38
-0.011964757 -0.061231434 0.73900002 1.52109e-38
-0.010528563 -0.061065719 0.73700011 1.6226116e-38
-0.0091247503 -0.061065733 0.73700011 1.7244939e-38
-0.0077104629 -0.060982853 0.73600012 1.8175156e-38
-0.0062914183 -0.060817152 0.73400009 1.9087774e-38
-0.0048933187 -0.060817167 0.73400009 2.0473202e-38
-0.0034857045 -0.060651422 0.73200005 2.1850737e-38
-0.0020914234 -0.060651436 0.73200005 2.2407494e-38
-0.00069429702 -0.06040287 0.72900003 2.2954917e-38
0.00069426768 -0.060402855 0.72900003 2.3141096e-38
0.0020828585 -0.060402855 0.72900003 2.3233655e-38
0.0034714232 -0.06040284 0.72900003 2.2866677e-38
0.0048599886 -0.060402855 0.72900003 2.2397417e-38
0.0062485542 -0.06040284 0.72900003 1.493395e-38
0.0076266909 -0.06032002 0.7280001 7.3660263e-39
0.0090133604 -0.060320005 0.7280001 3.8575182e-39
0.010400029 -0.060320005 0.7280001 4.0378696e-40
0.011786697 -0.06032002 0.7280001 1.1938253e-38
0.013173366 -0.060320005 0.72800004 2.3412228e-38
0.014560009 -0.060320005 0.7280001 1.8253216e-38
0.015946679 -0.060320005 0.72800004 1.3058335e-38
0.017357135 -0.06040284 0.72900003 1.2122682e-38
0.018745702 -0.06040284 0.72900003 1.1127944e-38
0.020134266 -0.060402855 0.72900003 1.2240039e-38
0.021522831 -0.060402855 0.72900003 1.325132e-38
0.022911398 -0.060402855 0.72900003 1.1685469e-38
0.024366686 -0.060568601 0.73100007 1.0031694e-38
0.025759071 -0.060568586 0.73100007 1.0582331e-38
0.027151454 -0.060568586 0.73100007 1.1134786e-38
0.028543839 -0.060568571 0.73100007 1.1501419e-38
0.029936224 -0.060568571 0.73100007 1.1874526e-38
0.031457152 -0.060817167 0.73400009 1.2983752e-38
0.03285525 -0.060817167 0.73400009 1.399251e-38
0.034253351 -0.060817167 0.73400009 1.2795783e-38
0.03574859 -0.060982853 0.73600012 1.1605146e-38
0.037150506 -0.060982868 0.73600012 1.086974e-38
0.038604781 -0.061065719 0.73700011 1.013326e-38
0.040008597 -0.061065733 0.73700011 9.3931937e-39
0.041524772 -0.061231434 0.73900008 8.5731076e-39
0.04299048 -0.061314285 0.74000007 1.0599565e-38
0.044520035 -0.061480001 0.7420001 1.252879e-38
0.045995247 -0.061562866 0.74300009 1.1610756e-38
0.047665711 -0.061894283 0.74700004 1.0690656e-38
0.049154278 -0.061977148 0.74800003 1.0043553e-38
0.050579056 -0.061977163 0.74800003 9.4039206e-39
0.052003805 -0.061977163 0.74800009 9.8659553e-39
-0.022201937 -0.060876191 0.75200003 1.2545059e-38
-0.020714294 -0.060714275 0.75000006 1.4096487e-38
-0.019234292 -0.060552403 0.74800003 9.4769997e-39
-0.017785722 -0.06047143 0.74700004 4.959582e-39
-0.01631904 -0.060309544 0.74500012 8.5674533e-39
-0.014859975 -0.060147628 0.74300009 1.2186768e-38
-0.01339044 -0.059904769 0.74000007 1.1808725e-38
-0.011980942 -0.059904769 0.74000001 1.144172e-38
-0.010557123 -0.059823811 0.73900008 1.1895852e-38
-0.0091247577 -0.059661925 0.73700011 1.246699e-38
-0.0077209445 -0.059661925 0.73700011 1.2182908e-38
-0.0063085854 -0.059580952 0.73600006 1.1907031e-38
-0.0048933411 -0.059419066 0.73400009 1.3469296e-38
-0.0034857064 -0.059257135 0.73200005 1.5137057e-38
-0.002091428 -0.059257135 0.73200005 1.5593377e-38
-0.00069431379 -0.059014276 0.72900003 1.6154075e-38
0.00069425092 -0.059014276 0.72900003 1.6881223e-38
0.0020828715 -0.059014291 0.72900003 1.7723888e-38
0.0034714362 -0.059014291 0.72900003 1.7901103e-38
0.0048600025 -0.059014305 0.72900003 1.8179804e-38
0.0062485682 -0.059014276 0.72900003 1.2261045e-38
0.0076266686 -0.058933347 0.72800004 6.4404686e-39
0.0090133678 -0.058933347 0.7280001 3.3154077e-39
0.010400035 -0.058933347 0.7280001 3.0079712e-40
0.011786705 -0.058933333 0.7280001 1.1921751e-38
0.013173348 -0.058933333 0.7280001 2.341763e-38
0.014560018 -0.058933347 0.7280001 1.7779731e-38
0.015946686 -0.058933333 0.72800004 1.2214599e-38
0.017357118 -0.059014291 0.72900003 1.1761043e-38
0.018745713 -0.059014276 0.72900009 1.1318759e-38
0.020134278 -0.059014291 0.72900009 1.1965225e-38
0.021522842 -0.059014291 0.72900003 1.2703872e-38
0.022911435 -0.059014276 0.72900003 1.1595046e-38
0.024366677 -0.059176177 0.73100001 1.0581629e-38
0.02575906 -0.059176192 0.73100001 1.0674184e-38
0.027151443 -0.059176192 0.73100001 1.0859657e-38
0.028543834 -0.059176192 0.73100007 1.1136246e-38
0.029977156 -0.059257135 0.73200005 1.1415363e-38
0.031457156 -0.059419051 0.73400009 1.2246567e-38
0.032855231 -0.059419066 0.73400009 1.3168869e-38
0.034346655 -0.059580937 0.73600006 1.2433469e-38
0.035748575 -0.059580952 0.73600006 1.179241e-38
0.037200961 -0.05966191 0.73700005 1.1055568e-38
0.038604774 -0.05966191 0.73700011 1.0319448e-38
0.040117133 -0.059823811 0.73900002 9.7655635e-39
0.041580953 -0.059904769 0.74000001 9.2199035e-39
0.043106675 -0.06006667 0.74200004 1.0416248e-38
0.044580027 -0.060147628 0.74300009 1.1520401e-38
0.046119042 -0.060309544 0.74500012 1.1151599e-38
0.047729541 -0.060552403 0.74800009 1.0692459e-38
0.049285725 -0.06071429 0.75000006 1.059779e-38
0.050714295 -0.06071429 0.75000012 1.0410875e-38
0.052142892 -0.06071429 0.75000012 1.0415524e-38
-0.023634296 -0.059443831 0.75200003 1.1248574e-38
-0.022201937 -0.059443802 0.75200003 1.3107586e-38
-0.020714276 -0.059285715 0.75000006 1.4925565e-38
-0.019208569 -0.059048563 0.7470001 1.2330776e-38
-0.017785687 -0.059048578 0.7470001 9.7526141e-39
-0.016319042 -0.058890492 0.74500012 9.0922354e-39
-0.014859959 -0.05873239 0.74300009 8.4698669e-39
-0.013390437 -0.058495253 0.74000007 8.0996887e-39
-0.011964757 -0.058416173 0.73900002 7.6430167e-39
-0.010528551 -0.058258116 0.73700011 7.6315317e-39
-0.0091123795 -0.058179051 0.73600006 7.5572951e-39
-0.0077104634 -0.058179051 0.73600006 6.0897404e-39
-0.0062914072 -0.058020964 0.73400009 4.6200068e-39
-0.0048933085 -0.058020964 0.73400009 6.4513287e-39
-0.0034857362 -0.057862848 0.73200005 8.3006265e-39
-0.002091429 -0.057862848 0.73200005 8.7659346e-39
-0.00069616432 -0.057783812 0.73100001 9.2240275e-39
0.00069429004 -0.057625711 0.72900003 1.06898e-38
0.0020828547 -0.057625711 0.72900003 1.2089599e-38
0.0034714213 -0.057625696 0.72900003 1.3018023e-38
0.0048599858 -0.057625696 0.72900003 1.3824062e-38
0.0062485514 -0.057625711 0.72900003 9.6734954e-39
0.0076371171 -0.057625711 0.72900003 5.4385823e-39
0.0090133445 -0.057546675 0.72800004 2.8473824e-39
0.010400044 -0.057546675 0.7280001 2.2767597e-40
0.011786687 -0.05754666 0.7280001 1.1846417e-38
0.013173356 -0.057546675 0.7280001 2.3410094e-38
0.014560025 -0.057546675 0.7280001 1.7417407e-38
0.015946694 -0.057546675 0.72800004 1.1311308e-38
0.017357133 -0.057625726 0.72900003 1.1387962e-38
0.018745698 -0.057625711 0.72900003 1.140522e-38
0.020134263 -0.057625711 0.72900003 1.1782288e-38
0.021522855 -0.057625711 0.72900003 1.2147844e-38
0.022974314 -0.057783812 0.73100001 1.1592893e-38
0.024366673 -0.057783827 0.73100007 1.1041163e-38
0.025759056 -0.057783812 0.73100001 1.0856416e-38
0.027151441 -0.057783827 0.73100001 1.0582715e-38
0.028543826 -0.057783827 0.73100001 1.0768551e-38
0.029977128 -0.057862848 0.73200005 1.0863992e-38
0.03145716 -0.058020964 0.73400009 1.1601923e-38
0.032855261 -0.058020979 0.73400009 1.2249809e-38
0.03434667 -0.058179051 0.73600006 1.2067947e-38
0.03574859 -0.058179051 0.73600006 1.1883543e-38
0.037200984 -0.058258116 0.73700011 1.1240319e-38
0.038604796 -0.058258101 0.73700011 1.0502047e-38
0.040117163 -0.058416203 0.73900002 1.0221159e-38
0.04158096 -0.058495253 0.74000001 9.8609737e-39
0.043164771 -0.058732376 0.74300009 1.0232962e-38
0.0447 -0.058890492 0.74500012 1.05088e-38
0.046242867 -0.059048563 0.74700004 1.0599531e-38
0.047729522 -0.059127614 0.74800003 1.0692108e-38
0.049285717 -0.059285715 0.75000006 1.1060191e-38
0.050714288 -0.059285715 0.75000006 1.1425367e-38
0.052142885 -0.05928573 0.75000012 1.0966535e-38
-0.025066685 -0.058011428 0.75200003 9.8523333e-39
-0.023634296 -0.058011442 0.75200003 1.0883405e-38
-0.022142824 -0.057857156 0.75000012 1.3650741e-38
-0.020714283 -0.057857141 0.75000006 1.6493272e-38
-0.019208563 -0.057625711 0.74700004 1.5107424e-38
-0.017785707 -0.057625711 0.7470001 1.3821007e-38
-0.016319044 -0.057471439 0.74500012 1.2869285e-38
-0.014859968 -0.057317153 0.74300009 1.1939095e-38
-0.013390458 -0.057085738 0.74000007 1.1854437e-38
-0.011964729 -0.057008564 0.73900008 1.1756516e-38
-0.010557123 -0.057008579 0.73900008 1.2126021e-38
-0.0091247475 -0.056854293 0.73700011 1.2581976e-38
-0.0077104727 -0.056777135 0.73600012 1.1856983e-38
-0.0062914276 -0.056622863 0.73400009 1.1204449e-38
-0.0048799915 -0.056468561 0.73200011 1.2132488e-38
-0.0034857101 -0.056468576 0.73200011 1.3041208e-38
-0.002091429 -0.056468576 0.73200011 1.3236409e-38
-0.00069431751 -0.056237131 0.72900003 1.3408586e-38
0.00069427327 -0.056237131 0.72899997 1.4630055e-38
0.0020828678 -0.056237146 0.72900003 1.5926204e-38
0.0034714343 -0.056237146 0.72900003 1.6292517e-38
0.0048599988 -0.056237146 0.72900003 1.6628618e-38
0.0062485654 -0.056237161 0.72900003 1.5269707e-38
0.007637131 -0.056237131 0.72900003 1.3996915e-38
0.0090256967 -0.056237131 0.72900003 1.2810577e-38
0.010399995 -0.056159988 0.72800004 1.1629328e-38
0.011786695 -0.056160018 0.7280001 1.7531967e-38
0.013173364 -0.056160018 0.7280001 2.3417626e-38
0.014560034 -0.056159988 0.7280001 1.7319826e-38
0.015946677 -0.056160003 0.7280001 1.1204403e-38
0.017357146 -0.056237131 0.72900009 1.1117477e-38
0.018745713 -0.056237131 0.72900009 1.1132233e-38
0.020134276 -0.056237131 0.72900009 1.1595046e-38
0.021522868 -0.056237131 0.72900003 1.2144624e-38
0.022974312 -0.056391448 0.73100007 1.1776921e-38
0.024366695 -0.056391433 0.73100007 1.1316666e-38
0.025759079 -0.056391433 0.73100007 1.085641e-38
0.027151464 -0.056391433 0.73100007 1.0305774e-38
0.028543822 -0.056391418 0.73100007 1.1045498e-38
0.029977124 -0.056468561 0.73200005 1.1874543e-38
0.031457137 -0.056622878 0.73400009 1.2430951e-38
0.032944769 -0.056777149 0.73600012 1.2986658e-38
0.034346685 -0.056777135 0.73600012 1.2617911e-38
0.035748579 -0.056777135 0.73600012 1.2249825e-38
0.037200972 -0.056854278 0.73700011 1.0963741e-38
0.038604785 -0.056854293 0.73700011 9.6766091e-39
0.040117137 -0.057008579 0.73900002 9.7655733e-39
0.041693352 -0.057240009 0.7420001 9.7695124e-39
0.043280941 -0.057471424 0.74500006 1.0047523e-38
0.044699997 -0.057471424 0.74500012 1.041627e-38
0.046242848 -0.057625711 0.74700004 1.0507716e-38
0.047729533 -0.057702869 0.74800003 1.0599922e-38
0.049285706 -0.057857141 0.75000006 1.0785038e-38
0.050849494 -0.058011428 0.75200003 1.1060174e-38
-0.025066681 -0.056579053 0.75200009 9.8376267e-39
-0.023571428 -0.056428581 0.75000012 1.0421003e-38
-0.022142831 -0.056428552 0.75000012 1.421073e-38
-0.020659039 -0.056278124 0.74800003 1.7970211e-38
-0.019208584 -0.056202859 0.74700004 1.7876905e-38
-0.017785704 -0.056202859 0.74700004 1.7760969e-38
-0.016319046 -0.056052402 0.74500012 1.6624079e-38
-0.014839989 -0.055826679 0.7420001 1.5432014e-38
-0.013390455 -0.055676207 0.74000007 1.5622861e-38
-0.011964758 -0.055600941 0.73900002 1.580117e-38
-0.01052857 -0.055450499 0.73700011 1.6717751e-38
-0.0091123497 -0.055375233 0.73600012 1.7637557e-38
-0.0076895198 -0.055224776 0.73400009 1.7734789e-38
-0.0062914202 -0.055224776 0.73400009 1.773443e-38
-0.0048799943 -0.055074289 0.73200005 1.7740887e-38
-0.0034857139 -0.055074275 0.73200005 1.773016e-38
-0.0020914327 -0.055074289 0.73200005 1.7729835e-38
-0.00069427839 -0.054848567 0.72900003 1.765272e-38
0.00069428631 -0.054848552 0.72900003 1.8679423e-38
0.0020828529 -0.054848552 0.72900003 1.9688546e-38
0.0034714176 -0.054848567 0.72900003 1.9596719e-38
0.0048599839 -0.054848552 0.72900003 1.9403724e-38
0.0062485486 -0.054848552 0.72900003 2.0963495e-38
0.0076371143 -0.054848552 0.72900003 2.2465533e-38
0.0090256799 -0.054848552 0.72900003 2.2768687e-38
0.010414301 -0.054848567 0.72900009 2.3038123e-38
0.011802867 -0.054848567 0.72900003 2.3234019e-38
0.013191433 -0.054848567 0.72900003 2.3411534e-38
0.014579998 -0.054848552 0.72900003 1.7331321e-38
0.015968565 -0.054848567 0.72900003 1.1129098e-38
0.01735713 -0.054848567 0.72900003 1.0928828e-38
0.018745694 -0.054848567 0.72900003 1.0763123e-38
0.020189531 -0.054999039 0.73100001 1.1503936e-38
0.021581916 -0.054999053 0.73100001 1.2145341e-38
0.022974301 -0.054999053 0.73100001 1.1869109e-38
0.024366714 -0.054999068 0.73100007 1.1591789e-38
0.025759073 -0.054999053 0.73100007 1.0854933e-38
0.027151458 -0.054999068 0.73100007 1.0031693e-38
0.028582869 -0.055074275 0.73200005 1.141645e-38
0.02997715 -0.055074289 0.73200005 1.2796857e-38
0.031542893 -0.055375233 0.73600012 1.3260702e-38
0.032944754 -0.055375233 0.73600006 1.3627345e-38
0.03434667 -0.055375248 0.73600006 1.3075632e-38
0.035797153 -0.055450484 0.73700011 1.2524598e-38
0.037200965 -0.055450484 0.73700011 1.0687507e-38
0.038709532 -0.055600956 0.73900008 8.84721e-39
0.040171441 -0.055676207 0.74000007 9.3035176e-39
0.041693341 -0.055826679 0.74200004 9.6776545e-39
0.04328097 -0.056052387 0.74500012 9.9545763e-39
0.0447 -0.056052387 0.74500006 1.0230074e-38
0.046242855 -0.056202874 0.7470001 1.0415172e-38
0.047857162 -0.056428581 0.75000012 1.0508822e-38
0.049482889 -0.056654289 0.75300002 1.060283e-38
0.050917145 -0.056654289 0.75300002 1.0600631e-38
-0.025066681 -0.055146679 0.75200003 1.0038158e-38
-0.023571409 -0.055000007 0.75000006 1.1068878e-38
-0.022083804 -0.054853335 0.74800003 1.4572698e-38
-0.020659052 -0.05485335 0.74800009 1.8064595e-38
-0.019157145 -0.054633334 0.74500012 1.7596803e-38
-0.017738083 -0.054633334 0.74500012 1.7211754e-38
-0.016319048 -0.054633349 0.74500012 1.6632629e-38
-0.01485999 -0.054486677 0.74300003 1.5980455e-38
-0.013390453 -0.054266661 0.74000007 1.6358561e-38
-0.011980923 -0.054266661 0.74000007 1.6812025e-38
-0.010557123 -0.054193333 0.73900008 1.6809899e-38
-0.0091123907 -0.053973317 0.73600006 1.6902838e-38
-0.0076895161 -0.053826675 0.73400009 1.7088686e-38
-0.0062914426 -0.05382669 0.73400009 1.727774e-38
-0.0048799971 -0.053679988 0.73200005 1.7272717e-38
-0.0034857157 -0.053679988 0.73200005 1.7266278e-38
-0.0020914373 -0.053680003 0.73200005 1.7827354e-38
-0.00069618574 -0.053606659 0.73100001 1.8404594e-38
0.00069619925 -0.053606659 0.73100001 1.9411593e-38
0.0020885842 -0.053606659 0.73100001 2.0511077e-38
0.0034809674 -0.053606674 0.73100001 2.0333114e-38
0.0048733521 -0.053606689 0.73100001 2.0242751e-38
0.0062657399 -0.053606704 0.73100007 2.1533866e-38
0.0076371282 -0.053460002 0.72900003 2.285729e-38
0.0090257199 -0.053459987 0.72900003 2.2952414e-38
0.010414286 -0.053460002 0.72900003 2.3132856e-38
0.011802851 -0.053460002 0.72900003 2.3231867e-38
0.013191417 -0.053459987 0.72900003 2.341764e-38
0.014579982 -0.053459987 0.72900003 1.7227661e-38
0.015968548 -0.053460002 0.72900003 1.0928955e-38
0.017404787 -0.053606674 0.73100007 1.1581764e-38
0.01879717 -0.053606689 0.73100001 1.2150009e-38
0.020189553 -0.053606659 0.73100001 1.2146074e-38
0.021581912 -0.053606674 0.73100007 1.2052788e-38
0.022974297 -0.053606674 0.73100001 1.1868383e-38
0.024366681 -0.053606659 0.73100001 1.1683958e-38
0.025759066 -0.053606659 0.73100001 1.1222949e-38
0.027188584 -0.053680003 0.73200005 1.0671301e-38
0.028582867 -0.053679988 0.73200005 1.1690543e-38
0.030059054 -0.05382669 0.73400009 1.2706469e-38
0.031542849 -0.053973332 0.73600006 1.289121e-38
0.032944769 -0.053973332 0.73600006 1.3074529e-38
0.034346681 -0.053973332 0.73600006 1.2800105e-38
0.035797171 -0.054046705 0.73700011 1.2524583e-38
0.037301894 -0.054193318 0.73900002 1.0777539e-38
0.038709529 -0.054193333 0.73900002 9.119478e-39
0.040171444 -0.054266676 0.74000007 9.4925597e-39
0.041693378 -0.054413334 0.7420001 9.957802e-39
0.043280967 -0.054633349 0.74500012 1.0322241e-38
0.044820011 -0.054779992 0.74700004 1.0685292e-38
0.046304755 -0.05485335 0.74800003 1.050594e-38
0.04785715 -0.054999992 0.75000012 1.0325169e-38
-0.025066681 -0.05371429 0.75200003 1.0218606e-38
-0.023571417 -0.053571418 0.75000006 1.1617748e-38
-0.022083819 -0.053428605 0.74800003 1.4855035e-38
-0.020631425 -0.053357124 0.74700004 1.8064234e-38
-0.019208569 -0.053357139 0.74700004 1.7416699e-38
-0.017785715 -0.053357154 0.7470001 1.665535e-38
-0.016275218 -0.053071424 0.74300003 1.6622585e-38
-0.014859974 -0.053071439 0.74300003 1.6550896e-38
-0.013426673 -0.053000003 0.74200004 1.7202772e-38
-0.011964756 -0.05278571 0.73900002 1.7750186e-38
-0.010557124 -0.052785695 0.73900002 1.6990021e-38
-0.0091247465 -0.052642882 0.73700011 1.6164558e-38
-0.0077209314 -0.052642882 0.73700011 1.643897e-38
-0.00629141 -0.052428588 0.73400009 1.6721653e-38
-0.0048800269 -0.052285716 0.73200005 1.6806315e-38
-0.0034857204 -0.052285716 0.73200005 1.6806699e-38
-0.0020914392 -0.052285701 0.73200005 1.7908391e-38
-0.00069616339 -0.052214295 0.73100007 1.9035582e-38
0.00069621787 -0.05221431 0.73100001 2.0235237e-38
0.0020886029 -0.052214295 0.73100001 2.1342259e-38
0.0034809608 -0.052214295 0.73100007 2.1165736e-38
0.0048733447 -0.05221428 0.73100001 2.0974209e-38
0.0062657287 -0.052214295 0.73100001 2.207125e-38
0.0076581137 -0.05221428 0.73100001 2.3216024e-38
0.0090504978 -0.052214295 0.73100001 2.3234019e-38
0.010442856 -0.05221431 0.73100001 2.3138955e-38
0.01183524 -0.052214295 0.73100001 2.3325854e-38
0.01319143 -0.052071422 0.72900003 2.3409746e-38
0.014620037 -0.05221431 0.73100007 1.7140845e-38
0.016012421 -0.052214295 0.73100007 1.0763214e-38
0.017404806 -0.052214295 0.73100007 1.2135278e-38
0.018797163 -0.05221431 0.73100007 1.3521078e-38
0.020189552 -0.052214295 0.73100007 1.2786053e-38
0.021581933 -0.052214295 0.73100007 1.1959881e-38
0.022974316 -0.052214295 0.73100007 1.1867675e-38
