# .PCD v0.7 - Point Cloud Data file format
VERSION 0.7
FIELDS x y z rgb
SIZE 4 4 4 4
TYPE F F F F
COUNT 1 1 1 1
WIDTH 953
HEIGHT 1
VIEWPOINT 0 0 0 1 0 0 0
POINTS 953
DATA ascii
0.021050477 -0.076732419 0.71300012 4.1477299e-39
0.022408573 -0.076732405 0.71300012 3.6889266e-39
0.023766669 -0.076732434 0.71300012 3.3223021e-39
0.025124764 -0.076732434 0.71300012 3.0464369e-39
0.02648286 -0.076732434 0.71300012 2.8624057e-39
0.02788 -0.076840051 0.71400005 3.4137747e-39
0.029239999 -0.076840036 0.71400005 3.9676519e-39
0.030685715 -0.077055268 0.71600008 4.3349883e-39
0.032094292 -0.077162884 0.71700001 4.7945399e-39
0.033460006 -0.077162884 0.71700001 4.9789438e-39
0.034922864 -0.077378117 0.71900004 5.1629651e-39
0.036292385 -0.077378131 0.71900004 5.2565844e-39
0.037714288 -0.077485763 0.72000003 5.4431281e-39
0.039194293 -0.077700995 0.72200012 5.6246481e-39
0.040569529 -0.07770098 0.72200006 5.8983763e-39
0.042002864 -0.077808596 0.72300011 5.2551845e-39
0.043380007 -0.077808596 0.72300011 4.6119549e-39
0.04475715 -0.077808596 0.72300011 4.0587671e-39
0.04626191 -0.078023814 0.72500002 3.507785e-39
0.04784001 -0.078346677 0.72800004 7.1970185e-39
0.049429532 -0.07866957 0.73100001 1.0973051e-38
0.05089144 -0.078777172 0.73200011 1.0694689e-38
0.052428573 -0.078992419 0.73400009 1.0417314e-38
0.053826671 -0.078992404 0.73400009 1.0324687e-38
0.055375244 -0.079207636 0.73600006 1.0231791e-38
0.056854293 -0.079315268 0.73700011 1.0509106e-38
-0.021729527 -0.077805735 0.73600006 2.2141371e-39
-0.020355241 -0.077911444 0.73700005 1.8460692e-39
-0.018874288 -0.077594303 0.73400009 2.4892694e-39
-0.017428575 -0.0773829 0.73200011 3.0388629e-39
-0.016034288 -0.0773829 0.73200011 2.4878667e-39
-0.014520002 -0.076748587 0.72600007 1.9364838e-39
-0.013119049 -0.076642893 0.72500002 1.7542351e-39
-0.011705716 -0.076431446 0.72300005 1.5716375e-39
-0.010314288 -0.076325752 0.72200006 2.031887e-39
-0.0089142872 -0.076114304 0.72000003 2.39888e-39
-0.0075428574 -0.076114304 0.72000003 2.5825608e-39
-0.0061714291 -0.076114334 0.72000003 2.7666032e-39
-0.0047800005 -0.075797163 0.71700001 2.7658969e-39
-0.0034142861 -0.075797163 0.71700001 2.6747803e-39
-0.0020457148 -0.075691484 0.71600008 3.1364703e-39
-0.00068000017 -0.075480036 0.71400011 3.5974288e-39
0.00067904766 -0.075374328 0.71300012 3.6899692e-39
0.0020371431 -0.075374328 0.71300012 3.7825291e-39
0.0033952387 -0.075374313 0.71300012 3.9672833e-39
0.0047533335 -0.075374328 0.71300012 4.1505802e-39
0.0061114291 -0.075374328 0.71300012 4.1437503e-39
0.0074695242 -0.075374328 0.71300012 4.0583958e-39
0.0088276193 -0.075374328 0.71300012 4.1502565e-39
0.010185715 -0.075374313 0.71300006 4.1502579e-39
0.01154381 -0.075374328 0.71300006 3.2301107e-39
0.012901906 -0.075374328 0.71300006 2.222067e-39
0.014260001 -0.075374313 0.71300006 1.9447612e-39
0.015618097 -0.075374328 0.71300006 1.5799206e-39
0.016976191 -0.075374313 0.71300006 2.8623791e-39
0.018282859 -0.075162895 0.71100003 4.0576783e-39
0.019637143 -0.07516288 0.71100003 4.1488005e-39
0.02099143 -0.07516288 0.71100003 4.1484474e-39
0.022345716 -0.075162895 0.71100003 3.6885595e-39
0.023766669 -0.075374313 0.71300012 3.1386171e-39
0.025124764 -0.075374328 0.71300012 2.8638239e-39
0.02648286 -0.075374328 0.71300012 2.4961231e-39
0.027880002 -0.075480036 0.71400005 3.3219237e-39
0.029240001 -0.075480036 0.71400005 4.0583902e-39
0.030685717 -0.075691484 0.71600008 4.51899e-39
0.032094296 -0.075797163 0.71700001 4.887432e-39
0.03346001 -0.075797178 0.71700001 5.0722044e-39
0.034922864 -0.076008581 0.71900004 5.2565984e-39
0.036292385 -0.076008596 0.71900004 5.5324693e-39
0.037714291 -0.076114319 0.72000003 5.7168521e-39
0.039194293 -0.076325737 0.72200006 5.7168465e-39
0.040569529 -0.076325737 0.72200006 5.7157759e-39
0.042002864 -0.076431446 0.72300005 5.2573229e-39
0.043380007 -0.076431461 0.72300005 4.7045009e-39
0.04488096 -0.076642878 0.72500002 3.9665743e-39
0.04626191 -0.076642893 0.72500002 3.1443596e-39
0.04784001 -0.076960005 0.72800004 7.0154424e-39
0.049429532 -0.077277191 0.73100001 1.0876143e-38
0.05089144 -0.077382885 0.73200005 1.0602813e-38
0.052285723 -0.077382885 0.73200005 1.0325478e-38
0.053826675 -0.077594317 0.73400009 1.023289e-38
0.055375248 -0.07780572 0.73600006 1.0142851e-38
0.056777153 -0.07780575 0.73600006 1.0510553e-38
-0.021729525 -0.076403834 0.73600006 1.7527862e-39
-0.020355241 -0.076507635 0.73700011 1.5687564e-39
-0.018874288 -0.076196216 0.73400009 1.9360984e-39
-0.017404763 -0.075884782 0.73100001 2.2116343e-39
-0.016012382 -0.075884782 0.73100001 1.9361573e-39
-0.014560002 -0.075573362 0.72800004 1.6606312e-39
-0.013137146 -0.075365745 0.72600007 1.570211e-39
-0.011738097 -0.075261928 0.72500002 1.5727151e-39
-0.010285715 -0.074742876 0.72000003 1.8482146e-39
-0.0089142863 -0.074742891 0.72000003 2.2159251e-39
-0.0075323815 -0.074639045 0.71899998 2.6758285e-39
-0.0061457148 -0.074431442 0.71700001 3.1371752e-39
-0.0047800005 -0.074431457 0.71700001 3.0435614e-39
-0.0034142861 -0.074431472 0.71700001 2.8609652e-39
-0.0020457148 -0.074327655 0.71600008 3.2297407e-39
-0.00068000006 -0.074120037 0.71400011 3.5081185e-39
0.00068000006 -0.074120022 0.71400005 3.8751017e-39
0.0020400002 -0.074120022 0.71400005 4.1520333e-39
0.0033952384 -0.074016251 0.71300012 4.4293237e-39
0.0047533335 -0.074016251 0.71300012 4.7094965e-39
0.0061114291 -0.074016251 0.71300012 4.4300453e-39
0.0074695242 -0.074016221 0.71300012 4.2503372e-39
0.0088276183 -0.074016221 0.71300006 4.5219131e-39
0.010185714 -0.074016251 0.71300006 4.7977881e-39
0.01154381 -0.074016236 0.71300006 4.9829038e-39
0.012901906 -0.074016236 0.71300006 5.1651259e-39
0.014260001 -0.074016221 0.71300006 4.9843107e-39
0.015618095 -0.074016236 0.71300006 4.7112859e-39
0.016976191 -0.074016236 0.71300006 4.8895465e-39
0.018282859 -0.073808588 0.71100008 5.162207e-39
0.019637143 -0.073808588 0.71100008 4.8860054e-39
0.02099143 -0.073808603 0.71100003 4.7001793e-39
0.022345716 -0.073808588 0.71100003 4.1495208e-39
0.023766669 -0.074016236 0.71300012 3.6899762e-39
0.025124764 -0.074016251 0.71300012 3.4151774e-39
0.026520001 -0.074120037 0.71400005 3.2322252e-39
0.02788 -0.074120022 0.71400011 3.6906852e-39
0.029321909 -0.074327655 0.71600008 4.149127e-39
0.030685717 -0.07432764 0.71600008 4.4271264e-39
0.032094292 -0.074431457 0.71700001 4.7962957e-39
0.033460006 -0.074431457 0.71700001 4.9817926e-39
0.034922861 -0.074639075 0.71900004 5.1662021e-39
0.036292382 -0.07463906 0.71900004 5.349534e-39
0.037714288 -0.074742891 0.72000009 5.6239516e-39
0.039194297 -0.074950494 0.72200006 5.80761e-39
0.040569533 -0.074950494 0.72200006 6.0823962e-39
0.042002864 -0.07505431 0.72300005 5.4409785e-39
0.043380007 -0.07505431 0.72300005 4.7977643e-39
0.044880964 -0.075261928 0.72500002 4.0598447e-39
0.046325721 -0.075365745 0.72600007 3.4140984e-39
0.047905721 -0.075677164 0.72900003 7.1029143e-39
0.049429532 -0.075884812 0.73100001 1.0872507e-38
0.050891437 -0.075988613 0.73200011 1.0691379e-38
0.05228572 -0.075988598 0.73200011 1.0508071e-38
0.053826675 -0.076196216 0.73400009 1.0509869e-38
0.055375244 -0.076403819 0.73600006 1.0514521e-38
0.056777149 -0.076403834 0.73600006 1.0878982e-38
-0.021759052 -0.075103842 0.73700005 1.2914493e-39
-0.020355241 -0.075103827 0.73700005 1.2914493e-39
-0.01900286 -0.07530766 0.73900002 1.3825673e-39
-0.017428575 -0.074594341 0.73200011 1.3833044e-39
-0.016034288 -0.074594311 0.73200011 1.3840429e-39
-0.014560003 -0.07418669 0.72800004 1.2918332e-39
-0.013173336 -0.074186705 0.72800004 1.4769237e-39
-0.011786669 -0.07418669 0.72800004 1.5705487e-39
-0.01027143 -0.073269539 0.71900004 1.7556518e-39
-0.0089019062 -0.073269539 0.71900004 1.9393284e-39
-0.0075323815 -0.073269553 0.71900004 2.7672898e-39
-0.0061628576 -0.073269553 0.71900004 3.501985e-39
-0.0047933338 -0.073269553 0.71900004 3.3183238e-39
-0.0034142861 -0.07306575 0.71700001 3.0439005e-39
-0.0020457145 -0.072963841 0.71600008 3.2297323e-39
-0.00068000006 -0.072760038 0.71400005 3.4134019e-39
0.00068000006 -0.072760023 0.71400005 3.9662085e-39
0.0020399999 -0.072760008 0.71400005 4.5200872e-39
0.0033952384 -0.072658129 0.71300012 4.8888599e-39
0.004753334 -0.072658144 0.71300012 5.1658041e-39
0.0061114295 -0.072658144 0.71300012 4.7995411e-39
0.0074695246 -0.072658129 0.71300006 4.3375022e-39
0.0088276183 -0.072658129 0.71300006 4.8896012e-39
0.010185714 -0.072658129 0.71300006 5.3534422e-39
0.011543809 -0.072658144 0.71300006 6.7388667e-39
0.012901905 -0.072658129 0.71300012 8.1113867e-39
0.014260001 -0.072658129 0.71300012 8.0245847e-39
0.015618097 -0.072658129 0.71300006 7.8340726e-39
0.016976191 -0.072658129 0.71300012 7.0057356e-39
0.018334286 -0.072658129 0.71300012 6.1760002e-39
0.019692382 -0.072658129 0.71300012 5.7161192e-39
0.020991432 -0.072454311 0.71100003 5.1622378e-39
0.022408573 -0.072658129 0.71300012 4.7023443e-39
0.023766669 -0.072658129 0.71300012 4.2417206e-39
0.025124764 -0.072658129 0.71300012 4.0583986e-39
0.026520001 -0.072760023 0.71400011 3.8747262e-39
0.02788 -0.072760038 0.71400011 4.0587559e-39
0.029321907 -0.072963856 0.71600008 4.1509389e-39
0.030685715 -0.072963841 0.71600008 4.4278705e-39
0.032094296 -0.07306575 0.71700001 4.6133576e-39
0.03355334 -0.073269553 0.71900004 4.8921165e-39
0.034922864 -0.073269539 0.71900004 5.0743596e-39
0.036342863 -0.073371463 0.72000003 5.258755e-39
0.037714291 -0.073371477 0.72000003 5.44134e-39
0.039194293 -0.073575266 0.72200006 5.8990728e-39
0.040569529 -0.073575266 0.72200006 6.3593166e-39
0.042002864 -0.073677175 0.72300011 5.6260592e-39
0.043380007 -0.07367719 0.72300011 4.8895858e-39
0.04488096 -0.073880963 0.72500002 4.2445905e-39
0.046325721 -0.073982887 0.72600007 3.6045825e-39
0.047905721 -0.074288584 0.72900003 7.2930396e-39
0.04949715 -0.074594326 0.73200005 1.0874293e-38
0.051030483 -0.074798115 0.73400009 1.0782127e-38
0.052428577 -0.074798115 0.73400009 1.0599183e-38
0.053826675 -0.074798115 0.73400009 1.0691748e-38
0.055375244 -0.075001933 0.73600006 1.0786086e-38
0.056777149 -0.075001933 0.73600006 1.124633e-38
-0.021759052 -0.073700033 0.73700005 1.2900059e-39
-0.020355241 -0.073700018 0.73700005 1.2907248e-39
-0.018925715 -0.073600031 0.73600006 1.2896486e-39
-0.017428575 -0.073200025 0.73200005 1.1974656e-39
-0.016034288 -0.073200025 0.73200011 1.1985516e-39
-0.014560003 -0.072800018 0.72800004 1.10527e-39
-0.013173336 -0.072800018 0.72800004 1.2914409e-39
-0.011786669 -0.072800018 0.72800004 1.4765468e-39
-0.01027143 -0.071900018 0.71900004 1.568741e-39
-0.0089142872 -0.072000004 0.72000003 1.6609395e-39
-0.0075428574 -0.072000019 0.72000003 1.9375263e-39
-0.0061714291 -0.072000049 0.72000009 2.3055914e-39
-0.0047800005 -0.071700029 0.71700001 2.3977898e-39
-0.0034142861 -0.071700029 0.71700001 2.5825538e-39
-0.0020457145 -0.071600042 0.71600008 3.1335822e-39
-0.00068190473 -0.071600042 0.71600008 3.6845938e-39
0.00068000006 -0.071400009 0.71400005 4.5186452e-39
0.0020400002 -0.071400024 0.71400005 5.3487534e-39
0.0034000003 -0.071400024 0.71400005 5.9022775e-39
0.0047600004 -0.071400024 0.71400011 6.4493487e-39
0.0061114295 -0.071300037 0.71300006 6.3585922e-39
0.0074695246 -0.071300022 0.71300006 6.2570737e-39
0.0088276183 -0.071300037 0.71300006 7.0046734e-39
0.010185714 -0.071300052 0.71300006 7.6500232e-39
0.011543809 -0.071300037 0.71300006 8.2074836e-39
0.012901905 -0.071300052 0.71300012 8.6598802e-39
0.01426 -0.071300037 0.71300012 8.3869198e-39
0.015618095 -0.071300037 0.71300012 8.1045778e-39
0.016976191 -0.071300037 0.71300012 7.5567738e-39
0.018282859 -0.071100019 0.71100003 6.9110597e-39
0.019692382 -0.071300037 0.71300012 6.2664204e-39
0.02099143 -0.071100019 0.71100003 5.6214265e-39
0.022408573 -0.071300037 0.71300012 4.8853132e-39
0.023766669 -0.071300052 0.71300012 4.2410186e-39
0.025160002 -0.071400024 0.71400005 4.057335e-39
0.026520003 -0.071400024 0.71400005 3.7821858e-39
0.027880002 -0.071400024 0.71400005 3.6907077e-39
0.029321907 -0.071600042 0.71600008 3.5081101e-39
0.030728571 -0.071700029 0.71700001 3.7843298e-39
0.032094292 -0.071700029 0.71700001 4.0620027e-39
0.033553336 -0.071900032 0.71900004 4.1538508e-39
0.034922861 -0.071900018 0.71900004 4.3375162e-39
0.036292382 -0.071900018 0.71900004 4.3382267e-39
0.037714291 -0.072000034 0.72000003 4.4329264e-39
0.039194293 -0.072200052 0.72200006 4.7973915e-39
0.040569529 -0.072200023 0.72200006 5.258706e-39
0.042002864 -0.072300009 0.72300005 4.6122548e-39
0.043380007 -0.072300009 0.72300005 3.9719343e-39
0.04488096 -0.072500028 0.72500002 3.3237216e-39
0.046453346 -0.072800003 0.72800004 2.5890082e-39
0.048037149 -0.073100023 0.73100001 6.366431e-39
0.049429532 -0.073100038 0.73100001 1.0141037e-38
0.050891437 -0.07320004 0.73200011 1.059952e-38
0.052428573 -0.073400043 0.73400009 1.0966162e-38
0.053826671 -0.073400028 0.73400009 1.0968332e-38
0.055375248 -0.073600017 0.73600012 1.0875772e-38
0.056777153 -0.073600017 0.73600006 1.1152706e-38
-0.021759052 -0.072296225 0.73700011 1.1978103e-39
-0.020355241 -0.07229621 0.73700011 1.2896486e-39
-0.01882286 -0.071805753 0.73200011 1.1956649e-39
-0.017428575 -0.071805753 0.73200011 1.0141547e-39
-0.016034288 -0.071805738 0.73200011 1.014882e-39
-0.014640002 -0.071805753 0.73200011 9.2339263e-40
-0.013191431 -0.07151144 0.72900009 1.1070524e-39
-0.011802859 -0.07151147 0.72900009 1.2910849e-39
-0.0089142863 -0.070628606 0.72000003 1.2921653e-39
-0.0075428574 -0.070628606 0.72000003 1.2003312e-39
-0.0061714291 -0.070628606 0.72000003 1.0184539e-39
-0.0047800005 -0.070334308 0.71700001 1.5687494e-39
-0.0034142858 -0.070334323 0.71700001 2.1215813e-39
-0.0020485714 -0.070334323 0.71700001 3.0378105e-39
-0.00068190484 -0.070236214 0.71600008 3.8722038e-39
0.00068000006 -0.070040025 0.71400011 4.9824624e-39
0.0020399999 -0.07004004 0.71400011 6.0891925e-39
0.0034 -0.07004004 0.71400011 6.9218511e-39
0.0047600009 -0.07004004 0.71400011 7.7465839e-39
0.006120001 -0.07004004 0.71400011 8.0199464e-39
0.0074695242 -0.069941945 0.71300006 8.2021839e-39
0.0088400003 -0.070040025 0.71400005 9.1298687e-39
0.0102 -0.070040025 0.71400005 9.9567371e-39
0.01156 -0.07004004 0.71400005 9.5972774e-39
0.012920001 -0.070040025 0.71400005 9.2213258e-39
0.01426 -0.069941945 0.71300012 8.8507552e-39
0.015618097 -0.069941945 0.71300012 8.3879918e-39
0.016976191 -0.069941945 0.71300012 8.0213673e-39
0.018334286 -0.06994193 0.71300012 7.6489947e-39
0.019692382 -0.069941945 0.71300012 6.8167285e-39
0.021050477 -0.069941945 0.71300012 5.9891328e-39
0.022408573 -0.069941945 0.71300012 5.1597435e-39
0.023800001 -0.07004004 0.71400005 4.2399396e-39
0.02516 -0.070040025 0.71400005 3.9644177e-39
0.026520001 -0.07004004 0.71400005 3.6889112e-39
0.027958097 -0.070236214 0.71600008 3.3222867e-39
0.029321907 -0.070236228 0.71600008 2.8620274e-39
0.030728573 -0.070334308 0.71700001 3.2307973e-39
0.032094296 -0.070334293 0.71700001 3.506315e-39
0.03355334 -0.070530497 0.71899998 3.5074038e-39
0.034922864 -0.070530511 0.71899998 3.5066821e-39
0.036342859 -0.070628606 0.72000009 3.5077541e-39
0.037714288 -0.070628621 0.72000009 3.4155543e-39
0.039194297 -0.070824794 0.72200006 3.7821746e-39
0.040569533 -0.070824794 0.72200006 4.056944e-39
0.042002864 -0.070922874 0.72300005 3.5923659e-39
0.043500006 -0.071119063 0.72500002 3.0446096e-39
0.04488096 -0.071119078 0.72500002 2.306009e-39
0.046453346 -0.071413361 0.72800004 1.578466e-39
0.048037145 -0.071707644 0.73100001 5.5341761e-39
0.04949715 -0.071805753 0.73200005 9.4024156e-39
0.050891437 -0.071805723 0.73200005 1.0416579e-38
0.052428577 -0.072001942 0.73400009 1.1337107e-38
0.053826675 -0.072001927 0.73400009 1.1155251e-38
0.055375244 -0.072198115 0.73600006 1.0969055e-38
0.056777149 -0.072198115 0.73600006 1.1060519e-38
-0.01882286 -0.070411466 0.73200005 1.3807736e-39
-0.017428575 -0.070411466 0.73200005 1.107428e-39
-0.016121905 -0.070796199 0.73600006 9.2376397e-40
-0.014620001 -0.070315264 0.73100001 7.415153e-40
-0.013191431 -0.07012289 0.72900009 1.1077685e-39
-0.011802859 -0.070122875 0.72900009 1.4747573e-39
-0.010414287 -0.07012289 0.72900009 1.5669572e-39
-0.0089885741 -0.069834314 0.72600001 1.7517044e-39
-0.0075323815 -0.06916099 0.71900004 1.6613024e-39
-0.0061628572 -0.06916099 0.71900004 1.5705375e-39
-0.0047933334 -0.06916099 0.71900004 1.9378739e-39
-0.00342381 -0.06916099 0.71900004 2.3066872e-39
-0.0020485716 -0.068968602 0.71700001 2.9517245e-39
-0.00068190484 -0.068872415 0.71600008 3.6006364e-39
0.00068190484 -0.068872415 0.71600008 5.4441258e-39
0.0020457145 -0.068872415 0.71600008 7.2866567e-39
0.0034000003 -0.068680011 0.71400005 7.9356835e-39
0.0047800005 -0.068968602 0.71700001 8.6761198e-39
0.0061457148 -0.068968616 0.71700001 9.0384508e-39
0.0074800011 -0.068680026 0.71400005 9.4929675e-39
0.0088647613 -0.0688724 0.71600008 9.9582463e-39
0.010199999 -0.068680026 0.71400005 1.041849e-38
0.011592381 -0.068872415 0.71600008 1.0422785e-38
0.01292 -0.068680026 0.71400005 1.0511716e-38
0.01426 -0.068583854 0.71300012 9.8652449e-39
0.015618095 -0.068583854 0.71300012 9.2184714e-39
0.016976191 -0.068583854 0.71300012 8.9429859e-39
0.018334286 -0.068583868 0.71300012 8.5709608e-39
0.019692382 -0.068583854 0.71300012 6.91288e-39
0.021050477 -0.068583839 0.71300012 5.3480836e-39
0.022408573 -0.068583839 0.71300012 4.6987724e-39
0.023800002 -0.068680011 0.71400005 4.0530372e-39
0.025160002 -0.068680041 0.71400005 3.6863945e-39
0.026594289 -0.068872415 0.71600008 3.3194126e-39
0.027958099 -0.0688724 0.71600008 2.9506371e-39
0.029362859 -0.068968587 0.71700001 2.6722523e-39
0.030728573 -0.068968587 0.71700001 2.4903652e-39
0.032094292 -0.068968587 0.71700001 2.3059866e-39
0.033600006 -0.069257163 0.72000003 2.4911023e-39
0.034971435 -0.069257177 0.72000003 2.7662486e-39
0.036443815 -0.069449566 0.72200006 2.5832923e-39
0.037819054 -0.069449551 0.72200006 2.3985423e-39
0.039194293 -0.069449551 0.72200006 2.8598694e-39
0.040625717 -0.069545738 0.72300011 3.3193818e-39
0.04200286 -0.069545738 0.72300011 3.2257274e-39
0.043500006 -0.069738097 0.72500002 3.1339325e-39
0.04488096 -0.069738127 0.72500002 3.0428552e-39
0.046453346 -0.070026688 0.72800004 2.9556481e-39
0.047905721 -0.07012289 0.72900009 6.5501104e-39
0.049429528 -0.070315294 0.73100001 1.0139978e-38
0.05089144 -0.070411466 0.73200011 1.0509503e-38
0.052285723 -0.070411466 0.73200011 1.0881891e-38
0.053826675 -0.07060384 0.73400009 1.0601745e-38
0.055375244 -0.070796229 0.73600006 1.0325143e-38
-0.0218181 -0.069677167 0.73900008 1.2871487e-39
-0.02041048 -0.069677182 0.73900008 1.931072e-39
-0.018951431 -0.069488592 0.73700005 1.562651e-39
-0.01752381 -0.069394313 0.73600006 1.1974628e-39
-0.016121905 -0.069394298 0.73600006 8.3155853e-40
-0.014620001 -0.068922885 0.73100001 4.6492701e-40
-0.013191431 -0.068734311 0.72900003 1.0152155e-39
-0.011802859 -0.068734311 0.72900003 1.5665914e-39
-0.010400003 -0.068640001 0.72800004 1.8438972e-39
-0.0089885732 -0.068451442 0.72600001 2.1204813e-39
-0.0075952387 -0.068357177 0.72500002 2.121919e-39
-0.0061714291 -0.067885749 0.72000009 2.0304394e-39
-0.0048000002 -0.067885749 0.72000009 2.2137489e-39
-0.0034238098 -0.067791454 0.71900004 2.399236e-39
-0.002054286 -0.067791469 0.71900004 2.860947e-39
-0.00068190473 -0.067508601 0.71600008 3.3262453e-39
0.00068190484 -0.067508601 0.71600008 5.90663e-39
0.0020457145 -0.067508601 0.71600008 8.3926848e-39
0.0034 -0.067320026 0.71400005 8.9498355e-39
0.0047800005 -0.06760288 0.71700001 9.503361e-39
0.0061457148 -0.06760288 0.71700001 1.0147644e-38
0.007511429 -0.067602895 0.71700001 1.0786908e-38
0.0088647613 -0.067508616 0.71600008 1.0791575e-38
0.010228571 -0.067508601 0.71600008 1.079013e-38
0.011592382 -0.067508601 0.71600008 1.1254679e-38
0.012956192 -0.067508601 0.71600008 1.1708107e-38
0.014260001 -0.067225747 0.71300012 1.0880144e-38
0.015618097 -0.067225762 0.71300012 1.0051476e-38
0.016976191 -0.067225732 0.71300012 9.7766912e-39
0.018334286 -0.067225747 0.71300012 9.4947037e-39
0.019692382 -0.067225762 0.71300012 7.0987062e-39
0.021050477 -0.067225747 0.71300012 4.6115878e-39
0.02244 -0.067320026 0.71400011 4.2334586e-39
0.023866668 -0.067508616 0.71600008 3.8679061e-39
0.025230478 -0.067508601 0.71600008 3.4090831e-39
0.026594287 -0.067508601 0.71600008 2.8577086e-39
0.027958097 -0.067508616 0.71600008 2.6715251e-39
0.029362859 -0.067602865 0.71700001 2.3960074e-39
0.030728573 -0.06760288 0.71700001 1.7517142e-39
0.032183815 -0.067791469 0.7190001 1.0181204e-39
0.033600003 -0.067885734 0.72000003 1.4762371e-39
0.034971431 -0.067885734 0.72000003 1.9379159e-39
0.036443815 -0.068074308 0.72200012 1.6609633e-39
0.037819054 -0.068074323 0.72200012 1.2954234e-39
0.039248578 -0.068168573 0.72300005 1.9389977e-39
0.040625721 -0.068168603 0.72300005 2.582914e-39
0.042002864 -0.068168603 0.72300005 2.8566184e-39
0.043500006 -0.068357177 0.72500008 3.1321389e-39
0.04488096 -0.068357147 0.72500002 3.776079e-39
0.046453346 -0.068640031 0.7280001 4.3389175e-39
0.048037145 -0.068922885 0.73100007 7.5710853e-39
0.049429528 -0.068922915 0.73100007 1.0783908e-38
0.05089144 -0.069017164 0.73200005 1.0599535e-38
0.052285723 -0.069017164 0.73200005 1.0416579e-38
0.053826675 -0.069205739 0.73400009 1.0043854e-38
-0.021847622 -0.068361931 0.74000007 3.863939e-39
-0.02041048 -0.068269558 0.73900002 3.4008056e-39
-0.01900286 -0.068269558 0.73900002 2.7590236e-39
-0.017595241 -0.068269558 0.73900008 2.1147359e-39
-0.016121905 -0.067992397 0.73600006 1.6584241e-39
-0.014640002 -0.067622878 0.73200005 1.1999627e-39
-0.013227621 -0.06753052 0.73100001 1.3825561e-39
-0.011802859 -0.067345731 0.72900003 1.5647978e-39
-0.010400003 -0.067253344 0.72800004 1.8431783e-39
-0.0089885732 -0.067068599 0.72600001 2.0290059e-39
-0.0075952387 -0.066976227 0.72500002 2.214116e-39
-0.0061971433 -0.066791452 0.72300005 2.3073879e-39
-0.004813333 -0.06669908 0.72200006 2.4903414e-39
-0.0034285716 -0.066514336 0.72000003 2.6740208e-39
-0.002057143 -0.066514321 0.72000003 2.8616462e-39
-0.00068285724 -0.066237159 0.71700001 3.1404626e-39
0.00068285712 -0.066237159 0.71700001 6.0903991e-39
0.0020485716 -0.066237159 0.71700001 9.1310135e-39
0.0034142861 -0.066237159 0.71700001 9.5030162e-39
0.0047800005 -0.066237174 0.71700001 9.8725008e-39
0.0061457148 -0.066237174 0.71700001 1.0330232e-38
0.007511429 -0.066237174 0.71700001 1.0878737e-38
0.0088647613 -0.066144787 0.71600008 1.0974162e-38
0.010228571 -0.066144802 0.71600008 1.1154236e-38
0.011592381 -0.066144787 0.71600008 1.1341483e-38
0.01292 -0.065960042 0.71400011 1.1521944e-38
0.014280001 -0.065960027 0.71400005 1.1064218e-38
0.015618097 -0.06586764 0.71300012 1.0605387e-38
0.016976191 -0.06586767 0.71300012 1.0329509e-38
0.018334286 -0.065867655 0.71300012 1.005254e-38
0.019692382 -0.065867655 0.71300012 7.2848897e-39
0.021050477 -0.065867655 0.71300012 4.5215291e-39
0.022408573 -0.065867655 0.71300012 4.14589e-39
0.023766669 -0.06586767 0.71300012 3.8675221e-39
0.025124764 -0.065867655 0.71300012 3.2250408e-39
0.026520003 -0.065960027 0.71400005 2.5821867e-39
0.027840953 -0.065867655 0.71300012 2.5814636e-39
0.029362859 -0.066237159 0.71700001 2.488182e-39
0.030728573 -0.066237159 0.71700001 2.1204687e-39
0.032183815 -0.066421919 0.71900004 1.8442657e-39
0.03355334 -0.066421933 0.71900004 2.1205093e-39
0.035068579 -0.06669908 0.722 2.4903442e-39
0.036494292 -0.066791452 0.72300011 1.9375179e-39
0.037871435 -0.066791467 0.72300005 1.4787188e-39
0.039248578 -0.066791452 0.72300005 1.9411431e-39
0.040625721 -0.066791438 0.72300011 2.4925232e-39
0.042119056 -0.066976212 0.72500002 3.0413908e-39
0.04350001 -0.066976227 0.72500002 3.5880878e-39
0.044942863 -0.067068569 0.72600007 4.2384584e-39
0.046517149 -0.067345731 0.72900003 4.8892116e-39
0.048037149 -0.06753049 0.73100001 7.9319911e-39
0.04949715 -0.067622893 0.73200011 1.0968302e-38
0.050891437 -0.067622893 0.73200011 1.0784271e-38
0.052428577 -0.067807637 0.73400009 1.0599855e-38
0.053826675 -0.067807652 0.73400003 1.0507632e-38
-0.021847622 -0.0669524 0.74000001 6.4482402e-39
-0.020438099 -0.066952415 0.74000001 4.879495e-39
-0.01900286 -0.06686195 0.73900002 3.9582632e-39
-0.017595241 -0.06686192 0.73900002 3.0381104e-39
-0.016143812 -0.066680975 0.73700005 2.4867358e-39
-0.014640002 -0.066228606 0.73200011 1.9350068e-39
-0.013227621 -0.066138141 0.73100007 1.7499037e-39
-0.011786669 -0.065866686 0.72800004 1.5665914e-39
-0.010400003 -0.065866686 0.72800004 1.7509813e-39
-0.0089885732 -0.065685757 0.72600001 1.9368201e-39
-0.0076057152 -0.065685742 0.72600001 2.3059711e-39
-0.0062142862 -0.065595262 0.72500002 2.5825482e-39
-0.0048333337 -0.065595262 0.72500002 2.7665723e-39
-0.0034428574 -0.065414317 0.72300011 2.9509622e-39
-0.0020657144 -0.065414332 0.72300011 2.9549097e-39
-0.00068761909 -0.065323852 0.72200012 2.8685476e-39
0.00068476202 -0.065052398 0.71900004 6.3662811e-39
0.002057143 -0.065142877 0.72000003 9.8692904e-39
0.0034285716 -0.065142892 0.72000003 1.0058687e-38
0.0047933343 -0.065052398 0.71900004 1.0147293e-38
0.0061628581 -0.065052398 0.71900004 1.0605393e-38
0.0075323819 -0.065052398 0.71900004 1.0973452e-38
0.0088771423 -0.064871438 0.71700007 1.1255058e-38
0.010242857 -0.064871453 0.71700007 1.1434779e-38
0.011608571 -0.064871438 0.71700007 1.1435494e-38
0.012974286 -0.064871453 0.71700007 1.1340794e-38
0.014320001 -0.064781003 0.71600008 1.1248964e-38
0.015640002 -0.064600013 0.71400005 1.1066358e-38
0.016999999 -0.064600028 0.71400005 1.0791199e-38
0.01836 -0.064600028 0.71400005 1.0507028e-38
0.01977524 -0.064780973 0.71600008 7.4667152e-39
0.02108 -0.064600043 0.71400005 4.3349729e-39
0.022502858 -0.064780988 0.71600008 4.1441174e-39
0.023900002 -0.064871453 0.71700001 3.8686109e-39
0.025265716 -0.064871438 0.71700001 3.1332095e-39
0.02663143 -0.064871453 0.71700001 2.3077676e-39
0.027997145 -0.064871423 0.71700001 2.4918001e-39
0.029444762 -0.065052412 0.71900004 2.5818308e-39
0.030814286 -0.065052412 0.71900004 2.5814622e-39
0.032183815 -0.065052412 0.71900004 2.5800399e-39
0.03355334 -0.065052398 0.71900004 2.7626473e-39
0.035068579 -0.065323822 0.72200006 2.9477378e-39
0.036494292 -0.065414317 0.72300005 2.3037977e-39
0.037871435 -0.065414317 0.72300005 1.5734242e-39
0.039248578 -0.065414317 0.72300005 2.0372708e-39
0.040738102 -0.065595262 0.72500002 2.4028331e-39
0.042177148 -0.065685727 0.72600001 3.228289e-39
0.043560006 -0.065685742 0.72600001 3.9640337e-39
0.045066677 -0.065866686 0.72800004 4.7001386e-39
0.046453346 -0.065866672 0.72800004 5.3527065e-39
0.048037149 -0.066138111 0.73100001 8.2993681e-39
0.049429532 -0.066138141 0.73100001 1.1150203e-38
0.050891437 -0.066228606 0.73200005 1.0969032e-38
0.05228572 -0.066228606 0.73200005 1.0785349e-38
0.053680006 -0.066228606 0.73200005 1.0973312e-38
-0.02190667 -0.065720029 0.74200004 7.1886555e-39
-0.020438099 -0.065542884 0.74000001 5.9854614e-39
-0.019028574 -0.065542884 0.74000001 5.0631548e-39
-0.017595241 -0.065454312 0.73900002 4.1437222e-39
-0.016143812 -0.065277167 0.73700011 3.5909128e-39
-0.014640002 -0.064834319 0.73200005 3.0381118e-39
-0.013227621 -0.064745747 0.73100001 2.6686216e-39
-0.011802858 -0.064568587 0.72900009 2.3941885e-39
-0.010400002 -0.064480029 0.72800004 2.5778567e-39
-0.0089885732 -0.064302899 0.72600001 2.8548247e-39
-0.0076057152 -0.064302884 0.72600001 2.8555674e-39
-0.0062228581 -0.064302884 0.72600001 2.8577086e-39
-0.0048333337 -0.064214326 0.72500002 2.3978024e-39
-0.0034428574 -0.064037167 0.72300005 1.9389781e-39
-0.0020657142 -0.064037167 0.72300005 2.3091829e-39
-0.00068857148 -0.064037152 0.72300005 2.7770751e-39
0.00068476202 -0.063682862 0.71900004 5.0784486e-39
0.002054286 -0.063682891 0.71900004 7.4923351e-39
0.0034238098 -0.063682877 0.71900004 7.1131297e-39
0.0047933343 -0.063682877 0.71900004 6.8387064e-39
0.0061628581 -0.063682891 0.71900004 7.567299e-39
0.0075323819 -0.063682877 0.71900004 8.3988407e-39
0.0088771423 -0.063505732 0.71700001 8.7679749e-39
0.010242857 -0.063505746 0.71700001 9.047789e-39
0.011608571 -0.063505732 0.71700001 8.9527277e-39
0.012974286 -0.063505746 0.71700007 8.8605279e-39
0.01432 -0.063417174 0.71600008 8.6761338e-39
0.015683813 -0.063417189 0.71600008 8.4974753e-39
0.017047621 -0.063417159 0.71600008 8.2137081e-39
0.018411431 -0.063417174 0.71600008 7.9316632e-39
0.019802857 -0.063505732 0.71700007 6.1752267e-39
0.021168573 -0.063505732 0.71700007 4.5128887e-39
0.022534287 -0.063505746 0.71700007 4.3285269e-39
0.023966666 -0.063682877 0.71900004 4.2370417e-39
0.025336191 -0.063682877 0.71900004 3.6867364e-39
0.026705714 -0.063682862 0.71900004 3.1357332e-39
0.028075239 -0.063682877 0.71900004 3.2257849e-39
0.029444762 -0.063682877 0.71900004 3.2243415e-39
0.030814286 -0.063682877 0.71900004 3.4069279e-39
0.03236286 -0.064037181 0.72300005 3.5906031e-39
0.033740003 -0.064037152 0.72300005 3.9622541e-39
0.035117146 -0.064037181 0.72300005 4.3252801e-39
0.036595244 -0.064214297 0.72500002 4.3317246e-39
0.038028579 -0.064302899 0.72600007 4.4228357e-39
0.039411433 -0.064302884 0.72600007 4.793758e-39
0.040906675 -0.064480029 0.72800004 5.1596846e-39
0.042293344 -0.064480014 0.72800004 5.9905271e-39
0.043740008 -0.064568616 0.72900009 6.8184633e-39
0.045128576 -0.064568587 0.72900009 7.5570737e-39
0.046708576 -0.064834319 0.73200011 8.2971947e-39
0.048102863 -0.064834304 0.73200011 9.956028e-39
0.04949715 -0.064834319 0.73200011 1.1608687e-38
0.050891437 -0.064834319 0.73200011 1.0782505e-38
-0.024766671 -0.064393334 0.74300003 8.3019437e-39
-0.023351433 -0.064393334 0.74300003 8.6678017e-39
-0.021847621 -0.064133368 0.74000007 7.9266129e-39
-0.020438097 -0.064133368 0.74000007 7.0925306e-39
-0.01900286 -0.064046703 0.73900002 6.1651793e-39
-0.017595241 -0.064046688 0.73900002 5.1546288e-39
-0.016143812 -0.063873358 0.73700011 4.6943751e-39
-0.014640002 -0.063440032 0.73200011 4.1401363e-39
-0.013227621 -0.063353367 0.73100001 3.6752219e-39
-0.01183524 -0.063353367 0.73100001 3.127076e-39
-0.010414287 -0.063180022 0.72900009 3.4947753e-39
-0.0090133352 -0.063093342 0.72800004 3.7717293e-39
-0.0076057152 -0.062920041 0.72600007 3.4955194e-39
-0.0062228581 -0.062920026 0.72600001 3.1303242e-39
-0.0048333341 -0.062833346 0.72500002 2.0279325e-39
-0.0034523811 -0.062833361 0.72500002 9.262709e-40
-0.0020657144 -0.062660046 0.72300005 1.7488499e-39
-0.0006885716 -0.062660016 0.72300005 2.5804449e-39
0.0006857143 -0.062400021 0.72000003 3.8615316e-39
0.002057143 -0.062400021 0.72000003 5.0715234e-39
0.0034238098 -0.062313356 0.71900004 4.2457101e-39
0.0047933338 -0.062313356 0.71900004 3.4209955e-39
0.0061628576 -0.062313356 0.71900004 4.6102033e-39
0.0075323815 -0.062313356 0.71900004 5.8123184e-39
0.0089019043 -0.06231337 0.71900004 6.2783146e-39
0.010271428 -0.06231337 0.71900004 6.6427951e-39
0.011640952 -0.062313356 0.71900004 6.5588601e-39
0.012974286 -0.062140025 0.71700001 6.3665796e-39
0.014340001 -0.06214001 0.71700001 6.1886497e-39
0.015683811 -0.062053375 0.71600008 5.906672e-39
0.017071428 -0.062140025 0.71700007 5.6340214e-39
0.018437142 -0.062140025 0.71700007 5.3484227e-39
0.019858094 -0.062313356 0.71900004 4.973141e-39
0.021227619 -0.06231337 0.71900004 4.6050927e-39
0.022597142 -0.062313356 0.71900004 4.6029502e-39
0.023966666 -0.062313356 0.71900004 4.6054487e-39
0.025336191 -0.062313356 0.71900004 4.3320834e-39
0.026742859 -0.062400036 0.72000009 3.9629645e-39
0.028075239 -0.062313341 0.71900004 3.959394e-39
0.029444762 -0.06231337 0.71900004 3.8661152e-39
0.030814286 -0.062313356 0.71900004 4.2312964e-39
0.032362863 -0.062660031 0.72300011 4.5143629e-39
0.03383334 -0.062833346 0.72500002 5.0783168e-39
0.03521429 -0.062833361 0.72500002 5.6268019e-39
0.036645722 -0.062920012 0.72600007 6.4590456e-39
0.038133338 -0.063093357 0.72800004 7.2812561e-39
0.039520007 -0.063093357 0.72800004 7.5546074e-39
0.040906671 -0.063093357 0.72800004 7.8329964e-39
0.04229334 -0.063093342 0.72800004 8.7560275e-39
0.043740008 -0.063180037 0.72900009 9.5821826e-39
0.045128576 -0.063180037 0.72900009 1.0412641e-38
0.046708576 -0.063440017 0.73200005 1.1149845e-38
0.04836572 -0.063786678 0.73600006 1.1617999e-38
-0.026252383 -0.063147657 0.74500006 7.3807119e-39
-0.024766669 -0.062978111 0.74300003 8.4859664e-39
-0.023351431 -0.062978111 0.74300003 9.5890462e-39
-0.02190667 -0.062893353 0.74200004 8.5734523e-39
-0.020520953 -0.062978126 0.74300003 7.6500232e-39
-0.019028572 -0.062723838 0.74000001 6.8123298e-39
-0.017595241 -0.06263908 0.73900002 5.9818657e-39
-0.016143812 -0.062469535 0.73700005 5.5216134e-39
-0.014640002 -0.06204576 0.73200005 5.0613611e-39
-0.013227621 -0.061960988 0.73100001 4.6900731e-39
-0.011802858 -0.061791442 0.72900009 4.2301767e-39
-0.010414287 -0.061791442 0.72900009 4.5982334e-39
-0.0090133352 -0.061706685 0.72800004 4.8748175e-39
-0.0076057152 -0.061537184 0.72600007 4.6911479e-39
-0.0062228581 -0.061537169 0.72600007 4.41564e-39
-0.004840001 -0.061537184 0.72600007 4.0490141e-39
-0.0034523814 -0.061452411 0.72500002 3.774602e-39
-0.0020714288 -0.061452381 0.72500002 4.5075091e-39
-0.00068761909 -0.061198123 0.72200006 5.3325951e-39
0.00068761909 -0.061198108 0.72200006 5.699937e-39
0.002057143 -0.061028592 0.72000003 6.0640518e-39
0.0034285716 -0.061028592 0.72000003 5.3379789e-39
0.0047933343 -0.060943834 0.71900004 4.6007978e-39
0.0061628581 -0.060943834 0.71900004 5.6149483e-39
0.0075428579 -0.061028607 0.72000003 6.6244283e-39
0.0089019043 -0.060943834 0.71900004 6.5372619e-39
0.010271428 -0.060943849 0.71900004 6.4314499e-39
0.011640952 -0.060943834 0.71900004 6.2560423e-39
0.013010476 -0.060943834 0.71900004 6.0616164e-39
0.01434 -0.060774319 0.71700001 4.8767303e-39
0.015705716 -0.060774319 0.71700001 3.6738837e-39
0.017119046 -0.060943834 0.71900004 4.2345642e-39
0.018488571 -0.060943849 0.71900004 4.7830534e-39
0.019858094 -0.060943834 0.71900004 4.69515e-39
0.021227619 -0.060943834 0.71900004 4.6065375e-39
0.022628574 -0.061028592 0.72000003 4.9717201e-39
0.024000002 -0.061028607 0.72000003 5.3408403e-39
0.025441907 -0.061198138 0.72200006 5.8035897e-39
0.026817147 -0.061198123 0.72200006 6.2617162e-39
0.028192384 -0.061198138 0.72200006 5.6153042e-39
0.029567624 -0.061198138 0.72200006 4.8752309e-39
0.030985717 -0.061282881 0.72300005 5.2443581e-39
0.032452386 -0.061452381 0.72500002 5.6160539e-39
0.033880007 -0.061537169 0.72600007 6.7303258e-39
0.035262864 -0.061537169 0.72600007 7.746235e-39
0.036746673 -0.061706699 0.72800004 8.1146321e-39
0.038133338 -0.061706685 0.72800004 8.4841279e-39
0.039574292 -0.061791472 0.72900003 8.2968696e-39
0.040962864 -0.061791457 0.72900003 8.207911e-39
0.042351436 -0.061791457 0.72900003 8.9426005e-39
0.043860007 -0.061960988 0.73100001 9.6787265e-39
0.045252386 -0.061960973 0.73100001 1.0138627e-38
0.046963818 -0.062384792 0.73600006 1.0689601e-38
0.048365723 -0.062384777 0.73600006 1.1059773e-38
0.049835246 -0.062469549 0.73700005 1.1428912e-38
-0.026181908 -0.061562888 0.74300003 6.7385781e-39
-0.024766671 -0.061562873 0.74300003 8.6721457e-39
-0.023351433 -0.061562873 0.74300003 1.0509555e-38
-0.02190667 -0.061480023 0.74200004 9.3113705e-39
-0.020493336 -0.061480023 0.74200004 8.1067078e-39
-0.019028572 -0.061314307 0.74000001 7.4527008e-39
-0.017595241 -0.061231472 0.73900002 6.7176581e-39
-0.01614381 -0.061065726 0.73700011 6.3488826e-39
-0.014680003 -0.06081716 0.73400003 5.9797371e-39
-0.013245716 -0.060651474 0.73200011 5.7013524e-39
-0.011802859 -0.060402878 0.72900003 5.3350782e-39
-0.010414287 -0.060402878 0.72900003 5.7013355e-39
-0.0090133352 -0.060320012 0.72800004 5.9786385e-39
-0.0076057152 -0.060154311 0.72600007 5.8864485e-39
-0.0062228581 -0.060154311 0.72600007 5.7031376e-39
-0.004840001 -0.060154311 0.72600007 6.161599e-39
-0.0034523814 -0.060071461 0.72500008 6.5311018e-39
-0.0020714288 -0.060071446 0.72500002 7.3569122e-39
-0.00068857148 -0.059905745 0.72300005 8.0923235e-39
0.00068761909 -0.05982288 0.72200006 7.5409602e-39
0.0020628574 -0.059822895 0.72200006 6.9903129e-39
0.0034380956 -0.05982288 0.72200006 6.3496239e-39
0.0048000002 -0.059657179 0.72000009 5.7075055e-39
0.0061714291 -0.059657164 0.72000009 6.532604e-39
0.0075428574 -0.059657179 0.72000009 7.3619891e-39
0.0089142863 -0.059657164 0.72000003 6.8152767e-39
0.010271428 -0.059574313 0.71900004 6.1634726e-39
0.011640952 -0.059574313 0.71900004 5.9719221e-39
0.013010476 -0.059574299 0.71900004 5.6978533e-39
0.01438 -0.059574299 0.71900004 3.5827698e-39
0.015749523 -0.059574299 0.71900004 1.3790458e-39
0.017119046 -0.059574313 0.71900004 2.8476641e-39
0.018514287 -0.059657179 0.72000003 4.2298699e-39
0.019885717 -0.059657164 0.72000003 4.417138e-39
0.021227619 -0.059574313 0.71900004 4.6018852e-39
0.022691431 -0.05982288 0.72200006 5.3362104e-39
0.024066668 -0.059822895 0.72200006 5.9858664e-39
0.025441907 -0.05982288 0.72200006 7.2790883e-39
0.026854286 -0.059905745 0.72300005 8.5622811e-39
0.028192382 -0.059822895 0.72200006 7.2726465e-39
0.029567622 -0.059822895 0.72200006 5.8886555e-39
0.030985715 -0.059905745 0.72300005 6.3460393e-39
0.03245239 -0.060071446 0.72500002 6.7216728e-39
0.033833344 -0.060071446 0.72500002 8.2961914e-39
0.035262864 -0.060154311 0.72600007 9.8588255e-39
0.036746673 -0.060320012 0.72800004 9.7684222e-39
0.038185719 -0.060402878 0.72900003 9.6765755e-39
0.039574292 -0.060402893 0.72900003 9.1244765e-39
0.040962864 -0.060402893 0.72900003 8.4830685e-39
0.042351436 -0.060402878 0.72900003 9.1273575e-39
0.043860003 -0.060568608 0.73100001 9.6798013e-39
0.045314297 -0.060651459 0.73200005 9.9574545e-39
0.047027625 -0.061065741 0.73700011 1.0230432e-38
0.048431434 -0.061065741 0.73700011 1.0502334e-38
0.049835246 -0.061065741 0.73700011 1.0781791e-38
-0.026181906 -0.060147636 0.74300003 6.9193778e-39
-0.024733337 -0.060066678 0.74200004 9.1323952e-39
-0.023320002 -0.060066693 0.74200004 1.134289e-38
-0.02190667 -0.060066693 0.74200004 9.7723458e-39
-0.020493336 -0.060066678 0.74200004 8.1960518e-39
-0.019028574 -0.059904791 0.74000007 7.6396326e-39
-0.017595241 -0.059823848 0.73900002 7.1786615e-39
-0.016143812 -0.059661932 0.73700011 6.8095258e-39
-0.014680003 -0.059419058 0.73400003 6.4403719e-39
-0.013245716 -0.059257157 0.73200005 6.0730103e-39
-0.01183524 -0.059176199 0.73100001 5.7067305e-39
-0.010414287 -0.059014313 0.72900009 6.624354e-39
-0.0090257162 -0.059014298 0.72900009 7.5434321e-39
-0.0076266672 -0.058933355 0.7280001 7.2668536e-39
-0.0062228581 -0.058771454 0.72600007 6.99171e-39
-0.004840001 -0.058771469 0.72600007 7.8185924e-39
-0.003457143 -0.058771454 0.72600007 8.6472643e-39
-0.002071429 -0.058690496 0.72500002 8.5547113e-39
-0.0006885716 -0.05852861 0.72300005 8.5568819e-39
0.00068857148 -0.058528595 0.72300005 8.0966451e-39
0.0020628574 -0.058447637 0.72200006 7.6385564e-39
0.0034380956 -0.058447637 0.72200006 7.6396438e-39
0.004813334 -0.058447637 0.72200006 7.6425263e-39
0.0061714295 -0.058285736 0.72000003 8.0073697e-39
0.0075428579 -0.058285736 0.72000003 8.3729041e-39
0.0089142863 -0.058285765 0.72000003 8.1917302e-39
0.010271428 -0.058204807 0.71900004 8.005918e-39
0.011640952 -0.058204778 0.71900004 7.4502527e-39
0.013010476 -0.058204792 0.71900004 6.9917927e-39
0.01438 -0.058204778 0.71900004 5.9783723e-39
0.015749523 -0.058204778 0.71900004 5.0545915e-39
0.017142858 -0.05828575 0.72000009 6.0658119e-39
0.018514287 -0.058285736 0.72000009 7.167154e-39
0.019885715 -0.058285736 0.72000009 7.5399092e-39
0.021257143 -0.05828575 0.72000009 7.8121941e-39
0.022722857 -0.058528595 0.72300011 8.2807042e-39
0.0241 -0.058528595 0.72300011 8.7423914e-39
0.025441907 -0.058447652 0.72200006 9.0247124e-39
0.026817145 -0.058447652 0.72200012 9.3034377e-39
0.028192382 -0.058447652 0.72200006 8.5604931e-39
0.029567622 -0.058447666 0.72200006 7.7242948e-39
0.03107143 -0.058690496 0.72500002 8.0923613e-39
0.03245239 -0.058690496 0.72500002 8.4651179e-39
0.033833344 -0.058690496 0.72500002 9.1198382e-39
0.035262864 -0.058771454 0.72600007 9.7677229e-39
0.036746673 -0.05893337 0.72800004 9.5851421e-39
0.038185719 -0.059014313 0.72900009 9.4929269e-39
0.039574292 -0.059014328 0.72900009 9.3092335e-39
0.040962864 -0.059014328 0.72900009 9.1255681e-39
0.04246762 -0.059176214 0.73100001 9.4950681e-39
0.043860003 -0.059176229 0.73100001 9.9553063e-39
0.045314293 -0.059257172 0.73200011 1.0231513e-38
0.046963815 -0.059580974 0.73600006 1.041483e-38
0.048431434 -0.059661917 0.73700005 1.0873293e-38
0.049835246 -0.059661932 0.73700005 1.1330684e-38
-0.026146671 -0.058653332 0.74200004 7.0133517e-39
-0.024733337 -0.058653347 0.74200004 9.5944285e-39
-0.023320002 -0.058653347 0.74200004 1.2078288e-38
-0.021847622 -0.058495261 0.74000001 1.0147586e-38
-0.020493336 -0.058653347 0.7420001 8.1967678e-39
-0.019028574 -0.058495246 0.74000001 7.9147747e-39
-0.017595241 -0.058416225 0.73900002 7.6385508e-39
-0.016143812 -0.058258109 0.73700005 7.2697753e-39
-0.014640002 -0.057862885 0.73200011 6.8102251e-39
-0.013245716 -0.057862885 0.73200011 6.4432292e-39
-0.01183524 -0.05778382 0.73100001 6.0762319e-39
-0.010414287 -0.057625733 0.72900009 7.6381388e-39
-0.0090133362 -0.057546683 0.72800004 9.106076e-39
-0.0076266672 -0.057546683 0.72800004 8.6461867e-39
-0.0062228581 -0.057388611 0.72600007 8.1877295e-39
-0.004840001 -0.057388596 0.72600007 9.4734306e-39
-0.003457143 -0.057388596 0.72600007 1.066873e-38
-0.0020742859 -0.057388581 0.72600007 9.8418544e-39
-0.00068857148 -0.057151444 0.72300005 8.9245925e-39
0.00068857148 -0.057151444 0.72300005 8.5579848e-39
0.0020628572 -0.057072408 0.72200006 8.1910127e-39
0.0034380956 -0.057072408 0.72200006 8.9278603e-39
0.004813334 -0.057072408 0.72200006 9.5725108e-39
0.0061714295 -0.056914307 0.72000003 9.4806823e-39
0.0075428579 -0.056914322 0.72000003 9.2955708e-39
0.0089142853 -0.056914322 0.72000003 9.572864e-39
0.010285714 -0.056914307 0.72000003 9.7536721e-39
0.011640952 -0.056835257 0.71900004 9.0143302e-39
0.013028572 -0.056914307 0.72000003 8.1888855e-39
0.01438 -0.056835257 0.71900004 8.4672605e-39
0.01577143 -0.056914307 0.72000003 8.6444533e-39
0.017142858 -0.056914307 0.72000003 9.3780386e-39
0.018565714 -0.057072423 0.72200006 1.0115242e-38
0.019940954 -0.057072408 0.72200012 1.0578733e-38
0.021257143 -0.056914322 0.72000003 1.1038631e-38
0.022722859 -0.057151444 0.72300005 1.1323467e-38
0.024100002 -0.057151459 0.72300005 1.1504988e-38
0.025441907 -0.057072408 0.72200006 1.0773176e-38
0.026817145 -0.057072408 0.72200006 1.0035975e-38
0.028192382 -0.057072408 0.72200006 9.8490711e-39
0.029567622 -0.057072394 0.72200006 9.564948e-39
0.031071432 -0.057309531 0.72500002 9.9258258e-39
0.032452386 -0.057309531 0.72500002 1.0213568e-38
0.03383334 -0.057309546 0.72500002 9.9506582e-39
0.035262864 -0.057388611 0.72600007 9.5840477e-39
0.036746673 -0.057546698 0.72800004 9.4032606e-39
0.038185719 -0.057625763 0.72900009 9.2192267e-39
0.039574292 -0.057625748 0.72900009 9.4936528e-39
0.040962864 -0.057625748 0.72900009 9.6801866e-39
0.04246762 -0.057783835 0.73100007 9.95497e-39
0.043920007 -0.057862885 0.73200005 1.0230814e-38
0.045314293 -0.057862885 0.73200005 1.0415183e-38
0.047027621 -0.058258109 0.73700005 1.059993e-38
0.04843143 -0.058258124 0.73700005 1.1244933e-38
0.049835242 -0.058258109 0.73700005 1.179308e-38
-0.026146671 -0.057240032 0.7420001 9.3016931e-39
-0.024733337 -0.057240017 0.7420001 1.1524754e-38
-0.023320002 -0.057240032 0.7420001 1.3830691e-38
-0.02190667 -0.057240017 0.74200004 1.0966936e-38
-0.020493336 -0.057240032 0.74200004 8.0891481e-39
-0.019028574 -0.057085745 0.74000007 8.0008635e-39
-0.017619051 -0.057085745 0.74000001 7.9147705e-39
-0.016187621 -0.057008602 0.73900002 7.638548e-39
-0.014680003 -0.056622885 0.73400003 7.3633918e-39
-0.013245716 -0.056468599 0.73200005 7.0875182e-39
-0.01183524 -0.056391455 0.73100001 6.8119977e-39
-0.010442859 -0.056391455 0.73100001 7.7299799e-39
-0.0090257162 -0.056237169 0.72900009 8.647623e-39
-0.0076266672 -0.056160025 0.72800004 8.3728396e-39
-0.0062400005 -0.05616001 0.72800004 8.0984121e-39
-0.004840001 -0.056005739 0.72600007 9.0171272e-39
-0.003457143 -0.056005724 0.72600007 9.8443711e-39
-0.0020742859 -0.056005739 0.72600007 9.3841231e-39
-0.00068857148 -0.055774309 0.72300005 9.0175154e-39
0.00068857148 -0.055774309 0.72300005 9.2923198e-39
0.0020628574 -0.055697165 0.72200012 9.6593143e-39
0.0034380956 -0.055697165 0.72200012 9.8483761e-39
0.004813334 -0.055697165 0.72200006 1.0126038e-38
0.0061714291 -0.055542879 0.72000003 1.0215724e-38
0.0075428574 -0.055542879 0.72000003 1.0306126e-38
0.0089142863 -0.055542879 0.72000003 1.0399756e-38
0.010285715 -0.055542894 0.72000003 1.0493387e-38
0.011657144 -0.055542894 0.72000003 1.0212501e-38
0.013028572 -0.055542864 0.72000003 9.9344816e-39
0.014400001 -0.055542879 0.72000003 1.0303973e-38
0.01577143 -0.055542864 0.72000003 1.0667013e-38
0.017190477 -0.055697165 0.72200006 1.0485137e-38
0.018565716 -0.055697165 0.72200006 1.0397948e-38
0.019940954 -0.055697165 0.72200006 1.0672721e-38
0.021316191 -0.055697165 0.72200006 1.0950738e-38
0.022691431 -0.055697151 0.72200006 1.1228756e-38
0.024066668 -0.05569718 0.72200006 1.1506779e-38
0.025441907 -0.055697165 0.72200006 1.0863578e-38
0.026817145 -0.055697165 0.72200006 1.0126024e-38
0.028192382 -0.05569718 0.72200006 9.4774341e-39
0.029567622 -0.055697165 0.72200006 8.8320549e-39
0.03107143 -0.055928595 0.72500002 8.3685516e-39
0.032452386 -0.055928595 0.72500002 7.9201824e-39
0.03383334 -0.05592858 0.72500002 9.8484139e-39
0.035262864 -0.056005724 0.72600001 1.1785943e-38
0.036746673 -0.05616001 0.7280001 1.2991298e-38
0.038185719 -0.056237169 0.72900009 1.4181226e-38
0.039682865 -0.056391455 0.73100001 1.308854e-38
0.041075245 -0.056391455 0.73100001 1.2075102e-38
0.042467624 -0.05639144 0.73100001 1.0874407e-38
0.044040006 -0.05662287 0.73400003 9.6794453e-39
0.04556191 -0.056777172 0.73600006 9.8634498e-39
0.047027625 -0.056854315 0.73700011 1.0141107e-38
0.048562866 -0.057008602 0.73900002 1.0692836e-38
0.050173339 -0.057240017 0.74200004 1.1334251e-38
-0.026181906 -0.055901937 0.74300009 1.151833e-38
-0.024766669 -0.055901922 0.74300009 1.3555239e-38
-0.023351431 -0.055901922 0.74300003 1.557382e-38
-0.02190667 -0.055826701 0.74200004 1.1800306e-38
-0.020493334 -0.055826686 0.74200004 7.9155399e-39
-0.019028574 -0.055676199 0.74000001 7.9933301e-39
-0.017619051 -0.055676244 0.74000007 8.0944983e-39
-0.016187621 -0.055600978 0.73900002 8.0062557e-39
-0.014680002 -0.055224784 0.73400003 7.9147776e-39
-0.013245717 -0.055074312 0.73200011 7.7318226e-39
-0.011851431 -0.055074312 0.73200011 7.5463496e-39
-0.010442859 -0.054999076 0.73100007 7.821849e-39
-0.0090257162 -0.054848589 0.72900009 8.0969996e-39
-0.0076266667 -0.054773353 0.72800004 8.0984373e-39
-0.00624 -0.054773353 0.72800004 8.0083955e-39
-0.004840001 -0.054622881 0.72600001 8.5601273e-39
-0.003457143 -0.054622851 0.72600001 9.0182314e-39
-0.0020742859 -0.054622866 0.72600001 9.0157245e-39
-0.0006885716 -0.054397158 0.72300011 9.0157413e-39
0.00068857148 -0.054397173 0.72300011 1.0025949e-38
0.0020628574 -0.054321922 0.72200006 1.1042595e-38
0.0034380956 -0.054321922 0.72200006 1.0864302e-38
0.004813334 -0.054321937 0.72200006 1.0585931e-38
0.0061885724 -0.054321922 0.72200006 1.095005e-38
0.0075638103 -0.054321922 0.72200006 1.1318477e-38
0.0089390473 -0.054321922 0.72200006 1.122665e-38
0.010285715 -0.054171465 0.72000003 1.1135167e-38
0.011657144 -0.054171465 0.72000009 1.1407441e-38
0.013064762 -0.054321937 0.72200006 1.1683306e-38
0.01444 -0.054321937 0.72200006 1.2146789e-38
0.015815239 -0.054321922 0.72200006 1.2601294e-38
0.017190477 -0.054321937 0.72200006 1.1588584e-38
0.018565716 -0.054321922 0.72200006 1.0580186e-38
0.019940954 -0.054321922 0.72200006 1.0762779e-38
0.021316191 -0.054321922 0.72200006 1.0856413e-38
0.022691431 -0.054321937 0.72200006 1.122627e-38
0.024066668 -0.054321937 0.72200006 1.1505351e-38
0.025441907 -0.054321937 0.72200006 1.0864284e-38
0.026817145 -0.054321937 0.72200006 1.0211734e-38
0.028192382 -0.054321922 0.72200006 9.1025181e-39
0.029608574 -0.054397173 0.72300005 7.9965475e-39
0.03107143 -0.05454763 0.72500002 6.7962303e-39
0.032452386 -0.05454763 0.72500002 5.6178798e-39
