# .PCD v0.7 - Point Cloud Data file format
VERSION 0.7
FIELDS x y z rgb
SIZE 4 4 4 4
TYPE F F F F
COUNT 1 1 1 1
WIDTH 944
HEIGHT 1
VIEWPOINT 0 0 0 1 0 0 0
POINTS 944
DATA ascii
0.016209548 -0.013390467 0.74000001 1.2607439e-38
0.017666684 -0.013426661 0.74200004 1.2523166e-38
0.01908003 -0.013426669 0.74200004 1.2429566e-38
0.020520972 -0.013444752 0.74300003 1.5276498e-38
0.021936214 -0.013444752 0.74300003 1.8158614e-38
0.023477154 -0.013517141 0.7470001 2.0662625e-38
0.024900015 -0.013517149 0.74700004 2.3033411e-38
0.026358126 -0.013535246 0.74800009 1.8979657e-38
0.027782878 -0.013535239 0.74800009 1.4923065e-38
0.029285721 -0.013571426 0.75000006 1.2068225e-38
0.030796217 -0.013607621 0.75200003 9.2209405e-39
0.032271445 -0.013625704 0.75300002 9.492833e-39
0.033705749 -0.013625704 0.75300002 9.7704961e-39
0.035140038 -0.013625711 0.75300008 9.7719352e-39
0.036671445 -0.013661899 0.75500005 9.6793809e-39
-0.030919045 -0.012223795 0.75500005 1.4274456e-38
-0.029363783 -0.012175247 0.75200009 1.3527187e-38
-0.02793142 -0.012175232 0.75200003 1.1953757e-38
-0.026499035 -0.01217524 0.75200003 1.0485188e-38
-0.024999991 -0.012142859 0.75000006 1.2160908e-38
-0.023571437 -0.012142859 0.75 1.3830443e-38
-0.022083817 -0.012110479 0.74800003 1.3276913e-38
-0.02063144 -0.012094289 0.74700004 1.2796223e-38
-0.019157114 -0.012061909 0.74500012 1.3450202e-38
-0.017738061 -0.012061909 0.74500012 1.4117499e-38
-0.016275203 -0.012029529 0.74300003 1.83549e-38
-0.014859987 -0.012029521 0.74300003 2.2568523e-38
-0.013444744 -0.012029514 0.74300003 1.8303504e-38
-0.012013316 -0.012013331 0.74199998 1.4143325e-38
-0.010571394 -0.011980943 0.74000001 1.8506985e-38
-0.0091618728 -0.011980943 0.74000007 2.2958504e-38
-0.0077418997 -0.011964753 0.73900002 2.3142183e-38
-0.0063342825 -0.011964753 0.73900008 2.3417654e-38
-0.0049266568 -0.011964761 0.73900002 1.5470259e-38
-0.0035190398 -0.011964753 0.73900002 7.5928909e-39
-0.0021056954 -0.01193238 0.73700005 1.5512663e-38
-0.00070189341 -0.011932358 0.73699999 2.341769e-38
0.00070191518 -0.01193238 0.73700005 2.341769e-38
0.0021057369 -0.011932373 0.73700005 2.3417645e-38
0.003509524 -0.011932358 0.73699999 1.8703856e-38
0.0049133464 -0.011932373 0.73700005 1.3873406e-38
0.0063171689 -0.01193238 0.73700005 1.2865964e-38
0.007720957 -0.011932358 0.73700005 1.1874483e-38
0.0091247801 -0.011932373 0.73700005 1.242806e-38
0.010528588 -0.011932373 0.73700005 1.3072334e-38
0.01193239 -0.011932366 0.73699999 1.2797176e-38
0.013372387 -0.011964761 0.73900002 1.2522749e-38
0.014800019 -0.011980943 0.74000001 1.251737e-38
0.016253347 -0.012013331 0.74200004 1.2422329e-38
0.017666684 -0.012013331 0.74200004 1.2612838e-38
0.019105745 -0.012029521 0.74300003 1.288874e-38
0.020520976 -0.012029514 0.74300003 1.556169e-38
0.021995267 -0.012061901 0.74500012 1.8255472e-38
0.023477163 -0.012094289 0.7470001 2.0561821e-38
0.024899989 -0.012094274 0.74700004 2.2941212e-38
0.026358124 -0.012110479 0.74800009 1.8701272e-38
0.027857142 -0.012142844 0.75 1.4461731e-38
0.029285718 -0.012142844 0.75000006 1.1794513e-38
0.030796222 -0.01217524 0.75200009 9.2241466e-39
0.032271456 -0.01219143 0.75300002 9.4031037e-39
0.03379526 -0.012223788 0.75500005 9.6779179e-39
0.035233352 -0.012223795 0.75500005 9.6790193e-39
0.036671448 -0.012223803 0.75500005 9.6804388e-39
-0.030919027 -0.010785706 0.75500005 1.3820676e-38
-0.029363809 -0.010742858 0.75200003 1.3160941e-38
-0.027931398 -0.010742858 0.75200003 1.2135658e-38
-0.026499035 -0.010742858 0.75200003 1.1036938e-38
-0.02506665 -0.010742866 0.75200003 1.1136384e-38
-0.023571422 -0.010714285 0.75000006 1.1162944e-38
-0.022083804 -0.010685712 0.74800003 1.3566464e-38
-0.020631416 -0.010671422 0.74700004 1.5848359e-38
-0.019157115 -0.010642849 0.74500012 1.4275316e-38
-0.017738063 -0.010642856 0.74500006 1.2645993e-38
-0.016275212 -0.010614283 0.74300003 1.7172518e-38
-0.014859969 -0.010614283 0.74300003 2.1636481e-38
-0.013444753 -0.010614268 0.74300003 1.6990077e-38
-0.012013324 -0.010599993 0.7420001 1.2326651e-38
-0.010571402 -0.010571413 0.74000007 1.7879925e-38
-0.0091618998 -0.010571428 0.74000001 2.3410867e-38
-0.007752351 -0.01057142 0.74000007 2.341769e-38
-0.0063342503 -0.010557145 0.73900008 2.3396481e-38
-0.004926654 -0.01055713 0.73900002 1.460821e-38
-0.0035190361 -0.010557145 0.73900008 5.9319528e-39
-0.0021057038 -0.010528557 0.73700005 1.4693318e-38
-0.0007018813 -0.010528572 0.73700005 2.341769e-38
0.00070190587 -0.010528557 0.73699999 2.341769e-38
0.0021057285 -0.010528557 0.73700005 2.3414431e-38
0.0035095511 -0.010528572 0.73700005 1.8720744e-38
0.004913338 -0.010528564 0.73699999 1.3888479e-38
0.0063171596 -0.010528557 0.73700005 1.2765507e-38
0.0077209692 -0.010528557 0.73700005 1.1685059e-38
0.0091247717 -0.010528557 0.73699999 1.2335856e-38
0.010528578 -0.010528557 0.73700005 1.2887934e-38
0.011964773 -0.010557137 0.73900002 1.2612775e-38
0.013372404 -0.01055713 0.73900002 1.2245085e-38
0.014800026 -0.010571413 0.74000001 1.2242586e-38
0.016209563 -0.01057142 0.74000007 1.2242956e-38
0.017666673 -0.010599993 0.74200004 1.2800078e-38
0.019080032 -0.010600008 0.74200004 1.3256075e-38
0.020520967 -0.010614268 0.74300003 1.5733888e-38
0.021995265 -0.010642841 0.74500006 1.8250094e-38
0.023477141 -0.010671422 0.74700004 2.057079e-38
0.024900002 -0.010671422 0.74700004 2.2757898e-38
0.026358105 -0.010685727 0.74800003 1.8422893e-38
0.027857156 -0.010714293 0.75000006 1.4001111e-38
0.029285712 -0.010714278 0.75000006 1.1606887e-38
0.030837167 -0.010757148 0.75300002 9.1290994e-39
0.032271467 -0.010757141 0.75300008 9.3095193e-39
0.033795267 -0.010785699 0.75500005 9.4939204e-39
0.035233356 -0.010785706 0.75500005 9.5857699e-39
0.036671452 -0.010785706 0.75500005 9.6790277e-39
-0.030919036 -0.0093476102 0.75500005 1.3629487e-38
-0.029402828 -0.0093228742 0.75300008 1.3068767e-38
-0.027968561 -0.0093228593 0.75300002 1.2322581e-38
-0.026534244 -0.0093228593 0.75300008 1.1675501e-38
-0.02506665 -0.0093104765 0.75200003 1.0957033e-38
-0.023571428 -0.0092857182 0.75000006 1.0251439e-38
-0.022142874 -0.0092857033 0.75 1.3475758e-38
-0.020659022 -0.0092609525 0.74800003 1.6602815e-38
-0.019208577 -0.0092485547 0.74700004 1.4105665e-38
-0.017785715 -0.0092485696 0.74700004 1.1630437e-38
-0.01631902 -0.0092238113 0.74500012 1.6235508e-38
-0.014859978 -0.0091990381 0.74300003 2.0723095e-38
-0.013444735 -0.0091990307 0.74300003 1.7009341e-38
-0.012013323 -0.0091866776 0.74200004 1.333392e-38
-0.010599984 -0.0091866553 0.74200004 1.8433452e-38
-0.0091618784 -0.009161897 0.74000001 2.3417686e-38
-0.0077523571 -0.0091618896 0.74000007 2.2499335e-38
-0.0063428278 -0.009161897 0.74000001 2.1580928e-38
-0.004933306 -0.0091619045 0.74000007 1.3816831e-38
-0.003519024 -0.0091495141 0.73900002 6.118844e-39
-0.0021057141 -0.0091247484 0.73699999 1.4776903e-38
-0.00070189248 -0.0091247484 0.73700005 2.341769e-38
0.00070383464 -0.0091495216 0.73900002 2.341769e-38
0.0021114319 -0.009149529 0.73900002 2.3417672e-38
0.0035095417 -0.0091247484 0.73700005 1.8428762e-38
0.0049133482 -0.0091247484 0.73700005 1.3408502e-38
0.0063343043 -0.0091495141 0.73900002 1.2589356e-38
0.0077209598 -0.0091247559 0.73700005 1.1784776e-38
0.0091247819 -0.0091247559 0.73700005 1.2428398e-38
0.010528584 -0.0091247335 0.73699999 1.3071235e-38
0.011964776 -0.0091495216 0.73900002 1.2887551e-38
0.013372408 -0.0091495216 0.73900008 1.27039e-38
0.014800034 -0.009161897 0.74000001 1.2518096e-38
0.016253348 -0.0091866776 0.74200004 1.2425543e-38
0.017666673 -0.0091866627 0.74200004 1.26128e-38
0.019105727 -0.0091990381 0.74300003 1.2794739e-38
0.020520991 -0.0091990381 0.74300009 1.5562421e-38
0.021995282 -0.0092238113 0.74500012 1.834839e-38
0.02347715 -0.0092485622 0.74700004 2.0562539e-38
0.02493334 -0.0092609599 0.74800003 2.2667855e-38
0.026358107 -0.0092609599 0.74800003 1.8423248e-38
0.027857149 -0.0092857108 0.75000006 1.4084332e-38
0.029285705 -0.0092857108 0.75 1.1697995e-38
0.030837176 -0.0093228593 0.75300008 9.314941e-39
0.03227146 -0.0093228519 0.75300002 9.496105e-39
0.033705749 -0.0093228593 0.75300008 9.6783425e-39
0.035233349 -0.0093476027 0.75500005 9.6779838e-39
0.03667146 -0.0093476176 0.75500005 9.7698123e-39
-0.030919017 -0.007909514 0.75500005 1.3439341e-38
-0.029402837 -0.007888563 0.75300002 1.2883652e-38
-0.02796855 -0.0078885704 0.75300008 1.2593783e-38
-0.026534254 -0.0078885704 0.75300002 1.232118e-38
-0.025066655 -0.0078781024 0.75200003 1.0855792e-38
-0.023634272 -0.0078780949 0.75200009 9.321911e-39
-0.022142859 -0.0078571513 0.75000006 1.3389638e-38
-0.020659037 -0.0078362003 0.74800003 1.7331739e-38
-0.019234272 -0.0078361854 0.74800003 1.4005203e-38
-0.017785719 -0.0078257024 0.74700004 1.0623455e-38
-0.016319023 -0.0078047663 0.74500012 1.5231395e-38
-0.014859989 -0.0077838004 0.74300003 1.9796467e-38
-0.013444725 -0.0077838153 0.74300003 1.7081783e-38
-0.01202951 -0.0077838078 0.74300003 1.4365626e-38
-0.010614268 -0.0077837929 0.74300003 1.8917746e-38
-0.0091866432 -0.0077733248 0.74200004 2.3417687e-38
-0.0077733123 -0.0077733248 0.74200004 2.158098e-38
-0.0063599735 -0.0077733323 0.74200004 1.9622235e-38
-0.0049333037 -0.0077523738 0.74000001 1.2867956e-38
-0.0035237812 -0.0077523738 0.74000007 6.2063607e-39
-0.0021114231 -0.0077418908 0.73900002 1.4876989e-38
-0.00070379238 -0.0077419132 0.73900002 2.341769e-38
0.00070381974 -0.0077418983 0.73900002 2.341769e-38
0.0021114505 -0.0077418983 0.73900002 2.3413712e-38
0.0035190617 -0.0077418908 0.73900002 1.8259055e-38
0.0049266792 -0.0077418983 0.73900002 1.2967965e-38
0.0063428893 -0.0077523738 0.74000001 1.2398154e-38
0.0077524041 -0.0077523664 0.74000001 1.1777601e-38
0.0091495523 -0.0077419132 0.73900008 1.2520951e-38
0.010557164 -0.0077419057 0.73900002 1.3255284e-38
0.011964781 -0.0077418983 0.73900008 1.316274e-38
0.013390493 -0.0077523664 0.74000001 1.3070551e-38
0.014800028 -0.0077523813 0.74000007 1.2884375e-38
0.01625335 -0.0077733323 0.74200004 1.2610297e-38
0.017666673 -0.0077733248 0.74200004 1.2522404e-38
0.019080019 -0.0077733397 0.74200004 1.2338433e-38
0.020520983 -0.0077838153 0.74300003 1.5372651e-38
0.021995267 -0.0078047514 0.74500006 1.843592e-38
0.02347715 -0.0078257099 0.7470001 2.0570431e-38
0.024933342 -0.0078361928 0.74800003 2.2575299e-38
0.026358105 -0.0078361854 0.74800003 1.8425755e-38
0.027782872 -0.0078361928 0.74800003 1.4183712e-38
0.029285735 -0.0078571439 0.75000006 1.1878106e-38
0.030714286 -0.007857129 0.75 9.4957421e-39
0.032271456 -0.0078885704 0.75300008 9.6811843e-39
0.033705737 -0.007888563 0.75300002 9.8627155e-39
0.035140041 -0.0078885779 0.75300002 9.8616534e-39
0.036574308 -0.007888563 0.75300002 9.770164e-39
-0.030919028 -0.0064714253 0.75500005 1.4278398e-38
-0.029402828 -0.0064542815 0.75300008 1.3626218e-38
-0.027968558 -0.0064542815 0.75300002 1.3154481e-38
-0.026534243 -0.0064542815 0.75300002 1.2782471e-38
-0.025099972 -0.0064542815 0.75300002 1.0212865e-38
-0.02363427 -0.0064457133 0.75200003 7.6584184e-39
-0.022142865 -0.0064285696 0.75000006 1.2275031e-38
-0.020714263 -0.006428577 0.75000006 1.6880074e-38
-0.019234255 -0.0064114407 0.74800003 1.4942194e-38
-0.017785721 -0.0064028576 0.74700004 1.3014746e-38
-0.016319005 -0.0063857213 0.74500012 1.5680506e-38
-0.014899953 -0.0063857138 0.74500012 1.8343939e-38
-0.013444735 -0.0063685626 0.74300003 1.7209471e-38
-0.012029491 -0.0063685626 0.74300003 1.6118385e-38
-0.010614276 -0.0063685551 0.74300003 1.9733149e-38
-0.0091866702 -0.0063600019 0.74200004 2.341769e-38
-0.0077733123 -0.0063600093 0.74200004 1.8811566e-38
-0.0063599735 -0.006359987 0.74200004 1.4285e-38
-0.004946663 -0.0063600019 0.74200004 1.1232825e-38
-0.0035237803 -0.0063428432 0.74000001 8.3189218e-39
-0.0021114193 -0.0063342825 0.73900002 1.5877852e-38
-0.00070474326 -0.0063428432 0.74000001 2.341769e-38
0.00070479297 -0.0063428581 0.74000007 2.341769e-38
0.0021143088 -0.0063428432 0.74000001 2.3417645e-38
0.003523845 -0.0063428432 0.74000007 1.8151407e-38
0.0049466784 -0.0063599944 0.74199998 1.2857463e-38
0.0063428958 -0.0063428581 0.74000007 1.2221659e-38
0.0077523966 -0.0063428506 0.74000001 1.1600747e-38
0.0091619343 -0.0063428581 0.74000007 1.2704262e-38
0.010571449 -0.0063428506 0.74000001 1.389887e-38
0.011980984 -0.0063428506 0.74000007 1.3622317e-38
0.013426682 -0.0063599944 0.74199998 1.3254966e-38
0.014840025 -0.0063600019 0.74200004 1.2977299e-38
0.01625335 -0.0063600093 0.74200004 1.2701065e-38
0.017666675 -0.0063599944 0.74200004 1.2429495e-38
0.019105742 -0.0063685551 0.74300003 1.2245164e-38
0.020576231 -0.0063857064 0.74500012 1.5378748e-38
0.022054279 -0.0064028502 0.74700004 1.8624972e-38
0.023508575 -0.0064114332 0.74800003 2.0654374e-38
0.02493334 -0.0064114332 0.74800003 2.2667132e-38
0.026358107 -0.0064114258 0.74800003 1.842539e-38
0.027857151 -0.0064285621 0.75000006 1.42752e-38
0.029285727 -0.006428577 0.75000006 1.1790602e-38
0.03083718 -0.006454289 0.75300008 9.4049828e-39
0.032271445 -0.0064542741 0.75300002 9.6797214e-39
0.033795256 -0.0064714104 0.75500005 9.9538196e-39
0.035233356 -0.0064714253 0.75500005 1.0046039e-38
0.036914293 -0.0065142885 0.76000005 1.01375e-38
-0.030959984 -0.0050399899 0.75600004 1.5114288e-38
-0.029480932 -0.0050333142 0.75500005 1.4365586e-38
-0.028042834 -0.0050333366 0.75500005 1.379948e-38
-0.02653428 -0.00502 0.75300002 1.3148367e-38
-0.025099963 -0.0050199926 0.75300002 9.5545728e-39
-0.023634268 -0.0050133243 0.75200003 5.9088791e-39
-0.022201886 -0.0050133318 0.75200003 1.1171587e-38
-0.020714266 -0.0050000027 0.75000006 1.64159e-38
-0.019234268 -0.004986681 0.74800009 1.5959956e-38
-0.017785696 -0.0049799979 0.7470001 1.5403572e-38
-0.016319009 -0.0049666688 0.74500012 1.6131091e-38
-0.014899984 -0.0049666613 0.74500012 1.6770222e-38
-0.013444744 -0.0049533248 0.74300003 1.7293842e-38
-0.012029501 -0.0049533173 0.74300003 1.7786883e-38
-0.010614286 -0.0049533248 0.74300003 2.0662625e-38
-0.0091866702 -0.004946664 0.74200004 2.341374e-38
-0.0077733113 -0.004946664 0.74200004 1.6146534e-38
-0.0063599725 -0.0049466714 0.74200004 8.8480479e-39
-0.0049466621 -0.004946664 0.74200004 9.5514465e-39
-0.0035333021 -0.0049466565 0.74200004 1.0336792e-38
-0.0021142645 -0.0049333274 0.74000007 1.689737e-38
-0.00070473488 -0.00493332 0.74000001 2.341769e-38
0.00070480042 -0.0049333274 0.74000007 2.341769e-38
0.0021143162 -0.00493332 0.74000001 2.3412638e-38
0.0035238375 -0.00493332 0.74000007 1.8070725e-38
0.004933353 -0.0049333274 0.74000001 1.2691412e-38
0.0063600237 -0.004946664 0.74200004 1.2030865e-38
0.0077733495 -0.004946664 0.74200004 1.1319169e-38
0.0091866739 -0.0049466565 0.74200004 1.2980488e-38
0.010600018 -0.0049466714 0.74200004 1.4540994e-38
0.012013344 -0.004946664 0.74200004 1.3988926e-38
0.013426668 -0.0049466565 0.74200004 1.3437191e-38
0.014840026 -0.004946664 0.74200004 1.3068411e-38
0.016253352 -0.004946664 0.74200004 1.2702134e-38
0.017690504 -0.0049533322 0.74300009 1.2432356e-38
0.019105747 -0.0049533322 0.74300003 1.2060055e-38
0.020576229 -0.0049666688 0.74500006 1.5364042e-38
0.021995269 -0.0049666688 0.74500006 1.871071e-38
0.02350859 -0.0049866736 0.74800003 2.0754461e-38
0.024933357 -0.0049866661 0.74800003 2.2666074e-38
0.026428571 -0.0049999878 0.75000006 1.851762e-38
0.027857147 -0.0049999952 0.75000006 1.4371713e-38
0.029285723 -0.0049999952 0.75000006 1.1788086e-38
0.030919062 -0.0050333142 0.75500005 9.2202398e-39
0.032357171 -0.0050333291 0.75500005 9.6793781e-39
0.033840034 -0.0050400048 0.75600004 1.0046385e-38
0.03537336 -0.0050533339 0.75800008 1.0322633e-38
0.036914289 -0.005066663 0.76000005 1.0504848e-38
0.038361922 -0.0050666705 0.76000011 9.951663e-39
-0.030959977 -0.0036000013 0.75600004 1.4099477e-38
-0.029480942 -0.0035952255 0.75500005 1.3728857e-38
-0.028042836 -0.0035952181 0.75500005 1.3436799e-38
-0.02660474 -0.003595233 0.75500005 1.3150509e-38
-0.02509998 -0.003585726 0.75300008 1.0116687e-38
-0.023634275 -0.0035809651 0.75200003 7.0977169e-39
-0.022201912 -0.0035809502 0.75200003 1.1345947e-38
-0.020714274 -0.0035714284 0.75000006 1.5682678e-38
-0.019285699 -0.0035714209 0.75000006 1.5408262e-38
-0.017785719 -0.0035571232 0.74700004 1.5038767e-38
-0.016319038 -0.0035476089 0.74500006 1.5118046e-38
-0.014899965 -0.0035476163 0.74500012 1.5219465e-38
-0.013480913 -0.0035476238 0.74500012 1.7791114e-38
-0.012029511 -0.0035380796 0.74300003 2.0378042e-38
-0.010614246 -0.0035380945 0.74300003 2.1762499e-38
-0.0091866693 -0.0035333335 0.74200004 2.3142175e-38
-0.0077733104 -0.0035333335 0.74200004 1.3817275e-38
-0.0063599716 -0.0035333261 0.74200004 4.5005643e-39
-0.0049466607 -0.0035333335 0.74200004 7.8212787e-39
-0.0035333012 -0.003533341 0.74200004 1.126268e-38
-0.0021142636 -0.0035237893 0.74000001 1.7348296e-38
-0.00070472836 -0.0035238042 0.74000001 2.341769e-38
0.00070477434 -0.0035237968 0.74000001 2.341769e-38
0.0021143097 -0.0035237968 0.74000007 2.3417677e-38
0.0035238245 -0.0035238042 0.74000001 1.7135541e-38
0.0049466859 -0.003533341 0.74200004 1.0837166e-38
0.0063600247 -0.0035333335 0.74200004 1.1492458e-38
0.0077733505 -0.0035333335 0.74200004 1.2153966e-38
0.0091866953 -0.0035333335 0.74200004 1.3072325e-38
0.010600018 -0.0035333335 0.74200004 1.389814e-38
0.012013344 -0.003533341 0.74200004 1.3621927e-38
0.013426688 -0.003533341 0.74200004 1.3344987e-38
0.014860014 -0.003538087 0.74300003 1.2699627e-38
0.016275277 -0.0035380945 0.74300009 1.2055692e-38
0.017690508 -0.0035380945 0.74300003 1.2242937e-38
0.019105736 -0.0035380945 0.74300003 1.242309e-38
0.020576233 -0.0035476238 0.74500012 1.5653542e-38
0.022054287 -0.0035571307 0.74700004 1.8904786e-38
0.023508592 -0.0035619065 0.74800003 2.0838404e-38
0.025000012 -0.0035714284 0.75000006 2.2663939e-38
0.026428586 -0.0035714284 0.75000006 1.8702402e-38
0.027857142 -0.0035714209 0.75000006 1.4650821e-38
0.029363839 -0.0035809651 0.75200009 1.1887089e-38
0.030919066 -0.0035952181 0.75500005 9.2223964e-39
0.03235716 -0.0035952255 0.75500005 9.4950036e-39
0.033840027 -0.0036000013 0.75600004 9.8616506e-39
0.035373349 -0.0036095306 0.75800008 9.9542245e-39
0.036914289 -0.003619045 0.76000005 1.0137513e-38
0.038361918 -0.003619045 0.76000005 9.6772355e-39
-0.029519988 -0.0021599978 0.75600004 1.2983043e-38
-0.028079985 -0.0021600053 0.75600004 1.306767e-38
-0.026604747 -0.0021571293 0.75500005 1.305904e-38
-0.025099987 -0.0021514297 0.75300002 1.0664122e-38
-0.023634274 -0.0021485612 0.75200003 8.196496e-39
-0.02220189 -0.0021485761 0.75200003 1.1615668e-38
-0.020714279 -0.0021428466 0.75000006 1.494079e-38
-0.019285705 -0.0021428615 0.75000006 1.4860107e-38
-0.017809521 -0.0021371394 0.74800003 1.4661707e-38
-0.016362859 -0.0021342784 0.74700004 1.4174885e-38
-0.014899967 -0.0021285713 0.74500012 1.3656494e-38
-0.013480915 -0.0021285638 0.74500006 1.8365195e-38
-0.0120295 -0.0021228418 0.74300009 2.2955947e-38
-0.010614256 -0.0021228567 0.74300003 2.2958513e-38
-0.009199013 -0.0021228418 0.74300003 2.2839383e-38
-0.007783798 -0.0021228418 0.74300003 1.1480089e-38
-0.0063685351 -0.0021228641 0.74300003 9.2457673e-41
-0.0049533197 -0.0021228567 0.74300003 6.1535696e-39
-0.0035333002 -0.0021199957 0.74200004 1.2178901e-38
-0.0021142692 -0.0021142736 0.74000001 1.7815725e-38
-0.00070473301 -0.0021142811 0.74000007 2.341769e-38
0.00070669287 -0.0021199882 0.74200004 2.341769e-38
0.0021200178 -0.0021199957 0.74200004 2.3407966e-38
0.0035333426 -0.0021199957 0.74200004 1.621606e-38
0.0049466868 -0.0021200031 0.74200004 9.0183702e-39
0.0063600126 -0.0021200031 0.74200004 1.1040102e-38
0.0077733514 -0.0021199957 0.74200004 1.2976188e-38
0.0091866953 -0.0021199957 0.74200004 1.3164171e-38
0.010600019 -0.0021199957 0.74200004 1.3255649e-38
0.012029546 -0.0021228492 0.74300003 1.3255651e-38
0.01344479 -0.0021228418 0.74300003 1.316238e-38
0.01486002 -0.0021228492 0.74300003 1.2329762e-38
0.016275268 -0.0021228492 0.74300003 1.1413552e-38
0.017690498 -0.0021228641 0.74300003 1.206034e-38
0.019105742 -0.0021228567 0.74300003 1.270433e-38
0.020576231 -0.0021285564 0.74500012 1.5921867e-38
0.022083828 -0.0021371469 0.74800003 1.9080202e-38
0.023508592 -0.0021371543 0.74800003 2.0938132e-38
0.025000008 -0.002142854 0.75000006 2.266502e-38
0.026428578 -0.0021428689 0.75000006 1.8792812e-38
0.027857134 -0.002142854 0.75000006 1.4926684e-38
0.02928571 -0.0021428391 0.75000006 1.2070388e-38
0.030919073 -0.0021571368 0.75500005 9.1287673e-39
0.032400019 -0.0021599904 0.75600004 9.400671e-39
0.033929542 -0.0021657199 0.75800008 9.6776166e-39
0.035373338 -0.0021657124 0.75800002 9.6783383e-39
0.036914304 -0.0021714345 0.76000011 9.6775914e-39
0.038361918 -0.0021714345 0.76000011 9.493891e-39
-0.029519979 -0.00072000176 0.75600004 1.2977295e-38
-0.028079977 -0.00071999431 0.75600004 1.3063731e-38
-0.026604729 -0.00071904063 0.75500005 1.3241284e-38
-0.025099978 -0.00071713328 0.75300008 1.130949e-38
-0.023634253 -0.00071619451 0.75200003 9.2855894e-39
-0.022201888 -0.00071619451 0.75200003 1.2161254e-38
-0.020714285 -0.00071428716 0.75000006 1.512515e-38
-0.019285711 -0.00071427971 0.75000006 1.5500075e-38
-0.017809507 -0.00071237981 0.74800003 1.5950959e-38
-0.016362863 -0.00071141869 0.74700004 1.5116863e-38
-0.014940002 -0.00071141869 0.74700004 1.4397305e-38
-0.013480926 -0.00070953369 0.74500012 1.8728699e-38
-0.012061873 -0.00070952624 0.74500012 2.3142183e-38
-0.010642822 -0.00070951879 0.74500012 2.0289543e-38
-0.0091990232 -0.00070760399 0.74300003 1.7521511e-38
-0.0078047453 -0.00070951879 0.74500012 8.7429155e-39
-0.0063685444 -0.00070761889 0.74300003 9.2453469e-41
-0.004953302 -0.00070761144 0.74300003 7.4622632e-39
-0.0035380863 -0.00070761889 0.74300003 1.4861163e-38
-0.0021199894 -0.00070666522 0.74200004 1.9189311e-38
-0.00070474605 -0.00070474297 0.74000001 2.341769e-38
0.00070479017 -0.00070475787 0.74000001 2.341769e-38
0.0021200187 -0.00070666522 0.74200004 2.3417627e-38
0.0035238413 -0.00070475042 0.74000007 1.5931893e-38
0.0049466877 -0.00070666522 0.74200004 8.5412336e-39
0.0063600135 -0.00070666522 0.74200004 1.0670972e-38
0.0077733365 -0.00070667267 0.74200004 1.2883284e-38
0.0091866963 -0.00070667267 0.74200004 1.3069834e-38
0.010614309 -0.00070761889 0.74300003 1.3347484e-38
0.012029552 -0.00070761144 0.74300003 1.3257075e-38
0.013444782 -0.00070761144 0.74300003 1.3259226e-38
0.01486003 -0.00070761889 0.74300009 1.2517007e-38
0.016275261 -0.00070761144 0.74300003 1.1779452e-38
0.017690504 -0.00070761144 0.74300003 1.2244367e-38
0.019105731 -0.00070761144 0.74300003 1.2799749e-38
0.020631427 -0.00071141124 0.74700004 1.5841145e-38
0.022083828 -0.00071238726 0.74800009 1.8994462e-38
0.023508595 -0.00071238726 0.74800009 2.0745851e-38
0.024999999 -0.00071428716 0.75000006 2.2571754e-38
0.026428575 -0.00071427971 0.75000006 1.8516598e-38
0.027857151 -0.00071429461 0.75000006 1.4467506e-38
0.029363828 -0.00071619451 0.75200003 1.1794868e-38
0.030960035 -0.00071999431 0.75600004 9.1280498e-39
0.032400016 -0.00072000176 0.75600004 9.4024787e-39
0.033929534 -0.00072190911 0.75800002 9.7698081e-39
0.03537336 -0.00072190911 0.75800008 9.7694353e-39
0.0369143 -0.000723809 0.76000005 9.8594421e-39
0.038260967 -0.00072190911 0.75800008 9.5853341e-39
-0.031041892 0.00072190166 0.75800002 1.2990587e-38
-0.029519999 0.00072000921 0.75600004 1.2888319e-38
-0.028079968 0.00072000176 0.75600004 1.3152316e-38
-0.026639987 0.00072000176 0.75600004 1.3426006e-38
-0.025099987 0.00071714073 0.75300002 1.1954462e-38
-0.023665698 0.00071714818 0.75300008 1.0397288e-38
-0.022201894 0.00071619451 0.75200009 1.2801597e-38
-0.020769503 0.00071619451 0.75200003 1.5213766e-38
-0.019285716 0.00071428716 0.75000006 1.6247327e-38
-0.01780952 0.00071237236 0.74800003 1.7150227e-38
-0.016362837 0.00071143359 0.7470001 1.612781e-38
-0.014939976 0.00071142614 0.7470001 1.5035509e-38
-0.013480929 0.00070952624 0.74500012 1.9193257e-38
-0.012061875 0.00070952624 0.74500006 2.3232916e-38
-0.010642824 0.00070952624 0.74500006 1.7719174e-38
-0.0091990326 0.00070764124 0.74300003 1.2070536e-38
-0.0078047267 0.00070952624 0.74500012 6.0617299e-39
-0.0063685542 0.00070761889 0.74300003 1.0142879e-40
-0.0049533108 0.00070763379 0.74300003 8.8340896e-39
-0.0035380668 0.00070761889 0.74300003 1.7516875e-38
-0.0021199884 0.00070667267 0.74200004 2.0478954e-38
-0.00070666458 0.00070667267 0.74200004 2.341769e-38
0.00070669473 0.00070667267 0.74200004 2.341769e-38
0.0021200196 0.00070666522 0.74200004 2.3402901e-38
0.0035333445 0.00070667267 0.74200004 1.5735632e-38
0.0049466877 0.00070666522 0.74200004 8.0045475e-39
0.0063600135 0.00070667267 0.74200004 1.0403351e-38
0.0077733374 0.00070667267 0.74200004 1.2790369e-38
0.0091866972 0.00070666522 0.74200004 1.306804e-38
0.010614314 0.00070762634 0.74300003 1.3346772e-38
0.012029542 0.00070763379 0.74300003 1.3348922e-38
0.013444792 0.00070761144 0.74300009 1.3255296e-38
0.014860036 0.00070763379 0.74300003 1.2699981e-38
0.016275262 0.00070763379 0.74300003 1.2057474e-38
0.017690493 0.00070762634 0.74300003 1.243018e-38
0.019157181 0.00070952624 0.74500012 1.2798668e-38
0.020631425 0.00071143359 0.74700004 1.5832538e-38
0.022083828 0.00071237236 0.74800009 1.8897245e-38
0.023508595 0.00071237236 0.74800009 2.0662266e-38
0.025000008 0.00071429461 0.75000006 2.2387715e-38
0.02642858 0.00071428716 0.75000006 1.8142421e-38
0.027857156 0.00071428716 0.75000006 1.3908226e-38
0.029363833 0.00071619451 0.75200003 1.1513253e-38
0.030960029 0.00072000921 0.75600004 9.1276897e-39
0.032400023 0.00072000176 0.75600004 9.4950386e-39
0.033929557 0.0007218942 0.75800008 9.7698109e-39
0.03537336 0.0007218942 0.75800008 9.8616295e-39
0.0369143 0.00072380155 0.76000011 9.9527308e-39
0.038260967 0.00072191656 0.75800002 9.6775676e-39
-0.031041903 0.002165705 0.75800002 1.280943e-38
-0.029598067 0.002165705 0.75800008 1.2800779e-38
-0.028154274 0.0021656975 0.75800008 1.2788897e-38
-0.026639977 0.0021600053 0.75600004 1.2783848e-38
-0.025099976 0.0021514297 0.75300008 1.1955509e-38
-0.023634257 0.0021485612 0.75200009 1.1036897e-38
-0.022201894 0.0021485761 0.75200003 1.1143183e-38
-0.020769509 0.0021485612 0.75200003 1.1263056e-38
-0.019285722 0.0021428615 0.75000006 1.2093934e-38
-0.017809505 0.0021371394 0.74800003 1.2927972e-38
-0.016362861 0.0021343008 0.74700004 1.1896242e-38
-0.014899982 0.0021285787 0.74500006 1.0974319e-38
-0.01348091 0.0021285713 0.74500012 1.6518548e-38
-0.012061858 0.0021285713 0.74500012 2.194827e-38
-0.010642833 0.0021285713 0.74500012 1.4291074e-38
-0.0091990214 0.0021228492 0.74300009 6.7045798e-39
-0.0077837785 0.0021228641 0.74300003 3.498926e-39
-0.006368563 0.0021228641 0.74300003 3.8662806e-40
-0.0049533206 0.0021228567 0.74300003 9.7775895e-39
-0.0035380565 0.0021228567 0.74300003 1.9281497e-38
-0.0021199875 0.0021200031 0.74200004 2.1304756e-38
-0.00070666271 0.0021200031 0.74200004 2.341769e-38
0.00070668169 0.0021200031 0.74200004 2.3142183e-38
0.0021200206 0.0021200031 0.74200004 2.2866578e-38
0.0035333445 0.0021200031 0.74199998 1.5464035e-38
0.0049466887 0.0021199957 0.74200004 8.1738482e-39
0.0063600144 0.0021200031 0.74200004 1.0485493e-38
0.0077733384 0.0021199957 0.74200004 1.2877896e-38
0.0091990735 0.0021228641 0.74300003 1.3251352e-38
0.010614304 0.0021228641 0.74300003 1.371412e-38
0.012029547 0.0021228641 0.74300003 1.353045e-38
0.013444795 0.0021228567 0.74300003 1.3254233e-38
0.014860026 0.0021228641 0.74300003 1.3252088e-38
0.016275255 0.0021228641 0.74300003 1.3249187e-38
0.017690497 0.0021228716 0.74300003 1.2794282e-38
0.019157166 0.0021285787 0.74500006 1.2427735e-38
0.020659065 0.002137132 0.74800009 1.593442e-38
0.02208381 0.0021371469 0.74800003 1.9457228e-38
0.023571433 0.0021428466 0.75000006 2.0930598e-38
0.025 0.0021428615 0.75000006 2.2388781e-38
0.026428577 0.0021428689 0.75000006 1.84197e-38
0.027931457 0.0021485612 0.75200009 1.4539939e-38
0.029363822 0.0021485761 0.75200003 1.1696914e-38
0.030960036 0.0021599978 0.75600004 8.9458109e-39
0.032400016 0.0021600053 0.75600004 9.3110145e-39
0.033929542 0.002165705 0.75800008 9.6772607e-39
0.035466678 0.0021714345 0.76000005 9.5854056e-39
0.036914289 0.002171427 0.76000005 9.4942904e-39
0.038260974 0.0021656975 0.75800008 9.4024577e-39
-0.029676193 0.0036190525 0.76000005 1.2702479e-38
-0.028154287 0.0036095232 0.75800002 1.2418691e-38
-0.02663997 0.0036000013 0.75600004 1.2143169e-38
-0.025099983 0.0035857186 0.75300002 1.195446e-38
-0.023665695 0.0035857186 0.75300002 1.1681165e-38
-0.022201871 0.0035809502 0.75200009 9.4703562e-39
-0.020769509 0.0035809651 0.75200003 7.1949656e-39
-0.019285727 0.0035714433 0.75 7.9368732e-39
-0.017857153 0.0035714358 0.75000006 8.5746728e-39
-0.016384752 0.0035618916 0.74800009 7.7387997e-39
-0.014940002 0.003557153 0.74700004 6.9313589e-39
-0.013480912 0.0035476238 0.74500012 1.3866798e-38
-0.012061887 0.0035476238 0.74500012 2.0647506e-38
-0.010642835 0.0035476238 0.74500012 1.0976029e-38
-0.0092237834 0.0035476238 0.74500006 1.3024242e-39
-0.0077837883 0.0035381019 0.74300003 1.0265324e-39
-0.0063685449 0.0035381168 0.74300003 6.639268e-40
-0.004953309 0.0035380945 0.74300009 1.0792092e-38
-0.0035380668 0.0035380945 0.74300003 2.0926288e-38
-0.0021199866 0.0035333335 0.74200004 2.2223829e-38
-0.00070666178 0.003533341 0.74200004 2.341769e-38
0.00070477807 0.0035238266 0.74000001 2.2866677e-38
0.0021143144 0.0035238042 0.74000007 2.2286109e-38
0.0035333454 0.003533341 0.74200004 1.5264144e-38
0.0049466896 0.0035333335 0.74200004 8.2774939e-39
0.0063600154 0.0035333335 0.74200004 1.0578069e-38
0.0077733393 0.003533341 0.74200004 1.2880061e-38
0.0091990661 0.0035381019 0.74300003 1.3528658e-38
0.010614309 0.0035381094 0.74300003 1.408075e-38
0.012029557 0.0035380945 0.74300003 1.3713052e-38
0.013444788 0.0035381019 0.74300003 1.3253887e-38
0.014860016 0.0035381094 0.74300003 1.3804913e-38
0.016275259 0.0035381019 0.74300003 1.4355175e-38
0.01769051 0.0035381019 0.74300003 1.3254193e-38
0.019157182 0.0035476163 0.74500012 1.2062919e-38
0.020659043 0.0035619065 0.74800003 1.6019458e-38
0.02208381 0.0035619065 0.74800003 1.9910316e-38
0.023571441 0.0035714358 0.75000006 2.1213279e-38
0.024999997 0.0035714507 0.75 2.2388422e-38
0.026428573 0.0035714358 0.75000006 1.8791348e-38
0.027931446 0.0035809502 0.75200003 1.5103156e-38
0.02940288 0.0035857186 0.75300002 1.1880241e-38
0.030960029 0.0036000013 0.75600004 8.6670828e-39
0.032400023 0.0035999939 0.75600004 9.1255499e-39
0.033840042 0.0036000013 0.75600004 9.5847077e-39
0.035373334 0.0036095157 0.75800002 9.3077453e-39
0.036914296 0.0036190376 0.76000005 8.9421914e-39
0.038260978 0.0036095157 0.75800008 9.1258554e-39
-0.031164752 0.0050733536 0.76100004 1.2247616e-38
-0.029676178 0.005066663 0.76000005 1.2869283e-38
-0.028228579 0.0050666705 0.76000005 1.3342074e-38
-0.026639991 0.0050400048 0.75600004 1.3802682e-38
-0.025166655 0.0050333589 0.75500005 1.3898099e-38
-0.023665685 0.0050199926 0.75300008 1.3986723e-38
-0.022201899 0.0050133318 0.75200003 9.9427479e-39
-0.020769516 0.0050133243 0.75200009 5.8948549e-39
-0.019285714 0.0050000027 0.75000006 5.24918e-39
-0.017857159 0.0050000027 0.75000006 4.5923031e-39
-0.016384738 0.0049866587 0.74800009 5.8872878e-39
-0.014940005 0.0049800053 0.7470001 7.1763269e-39
-0.013480942 0.0049666762 0.74500006 1.3565104e-38
-0.012061869 0.0049666688 0.74500012 1.9911389e-38
-0.010642817 0.0049666613 0.74500012 1.1800397e-38
-0.0092237648 0.0049666688 0.74500012 3.7679879e-39
-0.0078047127 0.0049666613 0.74500012 2.1174264e-39
-0.0063685551 0.0049533546 0.74300003 3.6797117e-40
-0.0049532913 0.0049533397 0.74300003 1.1256298e-38
-0.0035380751 0.0049533397 0.74300003 2.2131992e-38
-0.0021199856 0.0049466714 0.74200004 2.2774842e-38
-0.00070666178 0.0049466714 0.74200004 2.341769e-38
0.00070668355 0.004946664 0.74200004 2.0650069e-38
0.0021200075 0.0049466714 0.74200004 1.7861466e-38
0.0035333463 0.0049466714 0.74200004 1.397801e-38
0.0049466924 0.0049466714 0.74200004 1.0021623e-38
0.0063600163 0.0049466714 0.74200004 1.140712e-38
0.0077733402 0.004946664 0.74200004 1.279111e-38
0.0091990689 0.0049533471 0.74300003 1.3252798e-38
0.01061432 0.0049533397 0.74300009 1.3713415e-38
0.012029548 0.0049533397 0.74300003 1.3437553e-38
0.013444791 0.0049533397 0.74300003 1.3161706e-38
0.014860021 0.0049533546 0.74300003 1.3254275e-38
0.016319091 0.0049666762 0.74500012 1.3346795e-38
0.017738128 0.0049666688 0.74500012 1.261136e-38
0.019208563 0.0049800053 0.74700004 1.1876754e-38
0.020659057 0.0049866661 0.74800003 1.5935172e-38
0.022083825 0.0049866661 0.74800003 2.01044e-38
0.023571433 0.0050000027 0.75000006 2.1206105e-38
0.025000008 0.0050000027 0.75000006 2.2201523e-38
0.026499068 0.0050133318 0.75200003 1.8609112e-38
0.027931469 0.0050133318 0.75200009 1.5017068e-38
0.029402891 0.0050200075 0.75300008 1.1791648e-38
0.030960036 0.0050399974 0.75600004 8.6649375e-39
0.032400016 0.0050400123 0.75600004 9.1255499e-39
0.033840034 0.0050400048 0.75600004 9.5850651e-39
0.035373356 0.0050533339 0.75800008 9.3095376e-39
0.036914285 0.005066663 0.76000005 9.1258512e-39
0.038260967 0.0050533339 0.75800008 9.2183887e-39
-0.031164747 0.0065228641 0.76100004 1.1885312e-38
-0.029676164 0.0065142885 0.76000011 1.2983043e-38
-0.028228564 0.006514281 0.76000011 1.4185884e-38
-0.026710473 0.0064971372 0.75800008 1.5380103e-38
-0.025166662 0.0064714402 0.75500005 1.5848607e-38
-0.023665695 0.006454289 0.75300002 1.6209129e-38
-0.022201877 0.0064457059 0.75200009 1.0419544e-38
-0.020769514 0.0064457133 0.75200003 4.5198532e-39
-0.019337131 0.0064457133 0.75200003 2.5719586e-39
-0.017857166 0.0064285919 0.75000006 5.6233267e-40
-0.016384771 0.0064114332 0.74800003 4.0413125e-39
-0.01494 0.0064028651 0.74700004 7.4805628e-39
-0.013517139 0.00640288 0.74700004 1.3305382e-38
-0.012061872 0.0063857138 0.74500012 1.9080205e-38
-0.01064282 0.0063857213 0.74500006 1.2730232e-38
-0.0092237964 0.0063857213 0.74500006 6.2636766e-39
-0.0078047444 0.0063857213 0.74500006 3.2147665e-39
-0.0063685435 0.00636857 0.74300003 1.0967262e-40
-0.0049666194 0.0063857064 0.74500012 1.1733057e-38
-0.0035475662 0.0063857138 0.74500012 2.3320472e-38
-0.0021199856 0.0063600093 0.74200004 2.341769e-38
-0.00070666085 0.0063600093 0.74199998 2.34166e-38
0.00070668448 0.0063600019 0.74200004 1.845388e-38
0.0021200085 0.0063600019 0.74200004 1.3441155e-38
0.0035333333 0.0063600093 0.74200004 1.2581834e-38
0.0049466933 0.0063600019 0.74200004 1.1769727e-38
0.0063600172 0.0063600093 0.74200004 1.2237219e-38
0.0077733402 0.0063600093 0.74199998 1.2697472e-38
0.0091990614 0.0063685924 0.74300003 1.306912e-38
0.010614324 0.00636857 0.74300003 1.334606e-38
0.012029553 0.0063685849 0.74300003 1.3161312e-38
0.013444781 0.0063685849 0.74300003 1.2978014e-38
0.014860011 0.0063685775 0.74300003 1.2702878e-38
0.016319074 0.0063857213 0.74500006 1.2336236e-38
0.017738147 0.0063857138 0.74500012 1.1967441e-38
0.019208575 0.0064028651 0.74700004 1.1600529e-38
0.020659057 0.0064114258 0.74800003 1.5922967e-38
0.022083825 0.0064114258 0.74800003 2.0278021e-38
0.023508577 0.0064114332 0.74800003 2.1213638e-38
0.025000004 0.0064285696 0.75000006 2.2020371e-38
0.026499057 0.0064457208 0.75200003 1.8426177e-38
0.027931454 0.0064457208 0.75200003 1.4829465e-38
0.02948097 0.0064714327 0.75500005 1.1787713e-38
0.030919062 0.0064714402 0.75500005 8.6667255e-39
0.032400023 0.0064800084 0.75600004 9.1266065e-39
0.033929553 0.0064971223 0.75800008 9.494296e-39
0.035373356 0.0064971447 0.75800008 9.4028094e-39
0.0369143 0.0065142885 0.76000005 9.31132e-39
0.038361914 0.006514281 0.76000005 9.4035016e-39
-0.028228568 0.0079619065 0.76000005 1.4280659e-38
-0.026710458 0.007940948 0.75800002 1.5111846e-38
-0.025199972 0.007919997 0.7560001 1.5758644e-38
-0.023728548 0.0079095364 0.75500005 1.6316809e-38
-0.022231413 0.0078885779 0.75300002 1.3270072e-38
-0.020769492 0.0078780875 0.75200009 1.0121121e-38
-0.019337127 0.0078781024 0.75200003 9.8599648e-39
-0.017857123 0.0078571364 0.75000006 9.6863635e-39
-0.016384756 0.0078362003 0.74800003 1.1068942e-38
-0.01495999 0.0078361854 0.74800003 1.2562038e-38
-0.013517141 0.0078257173 0.74700004 1.4582111e-38
-0.012061874 0.0078047812 0.74500006 1.6690329e-38
-0.010642801 0.0078047514 0.74500012 1.0879889e-38
-0.0092237778 0.0078047663 0.74500012 5.0662166e-39
-0.0078047258 0.0078047663 0.74500012 4.6876979e-39
-0.0063856733 0.0078047588 0.74500012 4.3168765e-39
-0.0049666492 0.0078047663 0.74500012 1.3838817e-38
-0.003547597 0.0078047737 0.74500012 2.341769e-38
-0.0021199847 0.0077733397 0.74200004 2.341769e-38
-0.00070663943 0.0077733248 0.74200004 2.3417661e-38
0.00070668542 0.0077733397 0.74200004 1.6954349e-38
0.0021200103 0.0077733397 0.74200004 1.0469765e-38
0.0035333342 0.0077733323 0.74200004 1.1305833e-38
0.0049466784 0.0077733323 0.74200004 1.2238232e-38
0.0063600172 0.0077733397 0.74200004 1.2512357e-38
0.0077838204 0.0077838227 0.74300003 1.2784637e-38
0.0091990847 0.0077838153 0.74300003 1.3250991e-38
0.010614315 0.0077838153 0.74300003 1.3715185e-38
0.012029543 0.0077838227 0.74300003 1.3438236e-38
0.013444773 0.0077838227 0.74300003 1.3162022e-38
0.014900039 0.0078047588 0.74500012 1.28876e-38
0.016319091 0.0078047663 0.74500012 1.2613167e-38
0.01773813 0.0078047588 0.74500012 1.2058923e-38
0.019208586 0.0078257173 0.74700004 1.1502593e-38
0.020659061 0.0078361854 0.74800003 1.6026631e-38
0.022083825 0.0078361928 0.74800003 2.0657196e-38
0.023571424 0.0078571439 0.75000006 2.129794e-38
0.025000012 0.0078571513 0.75000006 2.1923523e-38
0.026534321 0.0078885779 0.75300008 1.8142795e-38
0.028042879 0.0079095364 0.75500005 1.4361692e-38
0.029480977 0.0079095364 0.75500005 1.1698041e-38
0.030960025 0.0079200044 0.75600004 9.0365744e-39
0.032485731 0.0079409406 0.75800008 9.3109739e-39
0.033929538 0.007940948 0.75800008 9.4950036e-39
0.035466667 0.0079619139 0.76000005 9.6790333e-39
-0.026710451 0.0093847513 0.75800008 1.4835973e-38
-0.025199965 0.009359993 0.75600004 1.5665728e-38
-0.023728577 0.0093476325 0.75500005 1.640256e-38
-0.022231402 0.0093228668 0.75300008 1.6130279e-38
-0.020797133 0.0093228593 0.75300002 1.5756127e-38
-0.019337105 0.0093104765 0.75200003 1.7244153e-38
-0.017857129 0.0092857182 0.75000006 1.87078e-38
-0.016428554 0.0092857182 0.75000006 1.8169719e-38
-0.014960003 0.0092609525 0.74800003 1.7512544e-38
-0.013517143 0.0092485845 0.74700004 1.5862039e-38
-0.012061856 0.0092238113 0.74500012 1.4190297e-38
-0.010642832 0.0092238113 0.74500012 9.0320342e-39
-0.0092237797 0.0092238188 0.74500012 3.8691378e-39
-0.0078047276 0.0092238113 0.74500006 6.245363e-39
-0.006385704 0.0092238188 0.74500006 8.579e-39
-0.0049666306 0.0092238188 0.74500012 1.607085e-38
-0.0035475784 0.0092238039 0.74500012 2.341769e-38
-0.0021199838 0.0091866702 0.74200004 2.341769e-38
-0.00070759683 0.0091990605 0.74300003 2.340543e-38
0.00070668635 0.0091866702 0.74200004 1.5475228e-38
0.0021228751 0.0091990605 0.74300003 7.5460819e-39
0.003538125 0.0091990605 0.74300003 1.0116674e-38
0.0049533523 0.009199053 0.74300003 1.2604521e-38
0.0063685956 0.009199053 0.74300003 1.269783e-38
0.0077838465 0.009199053 0.74300009 1.278858e-38
0.0091990745 0.0091990456 0.74300003 1.3435368e-38
0.010614305 0.009199053 0.74300003 1.398924e-38
0.012029548 0.009199068 0.74300003 1.3622245e-38
0.013444797 0.0091990456 0.74300009 1.3254921e-38
0.014900038 0.0092238188 0.74500006 1.3072343e-38
0.016362874 0.0092485696 0.7470001 1.2795761e-38
0.017785722 0.0092485771 0.7470001 1.2152911e-38
0.019208582 0.0092485696 0.7470001 1.141973e-38
0.020659061 0.0092609525 0.74800003 1.6207442e-38
0.022083828 0.0092609599 0.74800003 2.0923382e-38
0.02357143 0.0092857257 0.75000006 2.139695e-38
0.025000006 0.0092857108 0.75000006 2.1739133e-38
0.026499067 0.0093104765 0.75200003 1.7859395e-38
0.028042883 0.00934764 0.75500005 1.3907177e-38
0.029402884 0.0093228742 0.75300002 1.169804e-38
0.030960033 0.009359993 0.75600004 9.403915e-39
0.032485735 0.0093847588 0.75800008 9.4942833e-39
0.034019057 0.009409532 0.76000005 9.4942946e-39
0.035466671 0.0094095245 0.76000005 9.8623652e-39
-0.023728559 0.010785729 0.75500005 1.253831e-38
-0.022290463 0.010785729 0.75500005 1.2718409e-38
-0.020797124 0.010757156 0.75300002 1.3008273e-38
-0.019337133 0.010742858 0.75200003 1.4023136e-38
-0.017857134 0.010714293 0.75000006 1.4944732e-38
-0.01642856 0.010714293 0.75000006 1.2634148e-38
-0.014959988 0.010685712 0.74800003 1.0323545e-38
-0.013535222 0.010685705 0.74800003 1.0048749e-38
-0.012094285 0.010671444 0.7470001 9.7584884e-39
-0.010642834 0.010642871 0.74500006 6.2633123e-39
-0.009223762 0.010642856 0.74500012 2.755645e-39
-0.007804709 0.010642864 0.74500012 7.4590024e-39
-0.0063856854 0.010642864 0.74500012 1.2275044e-38
-0.0049666334 0.010642856 0.74500012 1.7808191e-38
-0.0035475802 0.010642864 0.74500012 2.341769e-38
-0.0021228225 0.010614291 0.74300003 2.2222752e-38
-0.00070759311 0.010614298 0.74300003 2.1025924e-38
0.0007076363 0.010614298 0.74300003 1.4733303e-38
0.0021228853 0.010614291 0.74300003 8.5411916e-39
0.0035381147 0.010614298 0.74300003 1.0486924e-38
0.0049533579 0.010614298 0.74300003 1.2425895e-38
0.0063685882 0.010614298 0.74300003 1.2606719e-38
0.0077838362 0.010614291 0.74300003 1.2787144e-38
0.0091990801 0.010614291 0.74300003 1.3251684e-38
0.01061431 0.010614291 0.74300003 1.3714075e-38
0.012029538 0.010614306 0.74300003 1.3438194e-38
0.013481003 0.010642864 0.74500012 1.3254909e-38
0.014900043 0.010642849 0.74500012 1.2886516e-38
0.016362851 0.010671437 0.74700004 1.2609217e-38
0.017785711 0.010671437 0.74700004 1.205964e-38
0.019208575 0.010671444 0.74700004 1.1417225e-38
0.020659063 0.01068572 0.74800009 1.6120997e-38
0.022083828 0.010685705 0.74800009 2.0840519e-38
0.023571426 0.010714285 0.75 2.1296864e-38
0.025000002 0.0107143 0.75000006 2.1644427e-38
0.026499072 0.010742858 0.75200009 1.8143867e-38
0.028042886 0.010785729 0.75500005 1.455684e-38
0.029402884 0.010757148 0.75300002 1.2163673e-38
0.03104192 0.010828555 0.75800008 9.7744828e-39
0.032571424 0.010857143 0.76000005 9.6790277e-39
0.034019049 0.010857157 0.76000005 9.5850623e-39
-0.023759967 0.012239993 0.75600004 8.5613465e-39
-0.022319986 0.01224 0.75600004 9.3796627e-39
-0.020852366 0.012223825 0.75500005 1.0239212e-38
-0.019362843 0.012191437 0.75300002 1.0711332e-38
-0.01785714 0.012142859 0.75000006 1.1161871e-38
-0.016428566 0.012142859 0.75000006 7.0977603e-39
-0.014959973 0.012110464 0.74800003 3.0584376e-39
-0.013535208 0.012110472 0.74800003 4.2501509e-39
-0.01209428 0.012094297 0.74700004 5.3503593e-39
-0.010642816 0.012061909 0.74500012 3.5071684e-39
-0.0092237927 0.012061909 0.74500012 1.5704128e-39
-0.0078047407 0.012061901 0.74500006 8.7429491e-39
-0.0063856882 0.012061909 0.74500006 1.5860595e-38
-0.0049666362 0.012061916 0.74500006 1.9652435e-38
-0.0035475635 0.012061909 0.74500012 2.3417687e-38
-0.0021228308 0.012029544 0.74300003 2.1029961e-38
-0.00070760242 0.012029544 0.74300003 1.8516551e-38
0.00070764747 0.012029521 0.74300009 1.3982401e-38
0.0021228909 0.012029536 0.74300003 9.4770628e-39
0.0035381203 0.012029536 0.74300003 1.0863547e-38
0.0049533476 0.012029536 0.74300003 1.2148565e-38
0.0063685984 0.012029536 0.74300009 1.2515588e-38
0.0077838418 0.012029536 0.74300003 1.2791808e-38
0.0091990698 0.012029529 0.74300003 1.3070539e-38
0.010642896 0.012061909 0.74500012 1.3345686e-38
0.012061949 0.012061909 0.74500012 1.3253851e-38
0.013480987 0.012061901 0.74500012 1.316202e-38
0.014940002 0.012094289 0.74700004 1.2792531e-38
0.016362863 0.012094304 0.74700004 1.2426275e-38
0.017785722 0.012094289 0.74700004 1.1967109e-38
0.019234311 0.012110472 0.74800003 1.1416886e-38
0.020659063 0.012110464 0.74800009 1.6110971e-38
0.02208383 0.012110472 0.74800009 2.0738648e-38
0.023571441 0.012142867 0.75000006 2.1213279e-38
0.024999993 0.012142867 0.75 2.1557967e-38
0.026499072 0.012175247 0.75200003 1.8423308e-38
0.027968604 0.01219143 0.75300002 1.5203632e-38
0.029480968 0.012223825 0.75500005 1.2625727e-38
0.031041918 0.01227238 0.75800002 1.0050707e-38
0.032571439 0.012304753 0.76000005 9.8619729e-39
0.034019053 0.012304768 0.76000005 9.6765278e-39
-0.023822831 0.013716184 0.75800008 9.0922158e-39
-0.022319978 0.013680018 0.75600004 1.1421901e-38
-0.020852348 0.013661914 0.75500005 1.3735414e-38
-0.01941427 0.013661921 0.75500005 1.1900544e-38
-0.017904727 0.013607614 0.75200009 1.0056588e-38
-0.016428571 0.013571426 0.75000006 7.6533667e-39
-0.014959986 0.013535231 0.74800009 5.255256e-39
-0.013517145 0.013517164 0.74700004 4.9840697e-39
-0.012061872 0.013480954 0.74500006 4.8043434e-39
-0.010642847 0.013480969 0.74500006 2.9507702e-39
-0.0092237741 0.013480939 0.74500012 1.1944808e-39
-0.0078047221 0.013480954 0.74500012 1.0145635e-38
-0.0063856705 0.013480954 0.74500012 1.9098536e-38
-0.0049666176 0.013480954 0.74500012 2.1121085e-38
-0.0035475933 0.013480954 0.74500012 2.3234013e-38
-0.0021228411 0.013444781 0.74300003 1.8985897e-38
-0.00070759124 0.013444759 0.74300009 1.4629646e-38
0.00070765213 0.013444766 0.74300003 1.2508296e-38
0.0021228807 0.013444774 0.74300003 1.0398945e-38
0.0035381101 0.013444759 0.74300003 1.1227971e-38
0.0049533737 0.013444766 0.74300003 1.2145665e-38
0.0063686012 0.013444774 0.74300003 1.2515574e-38
0.0077838316 0.013444766 0.74300003 1.2793601e-38
0.0091990605 0.013444774 0.74300003 1.3069116e-38
0.010642893 0.013480969 0.74500012 1.3343922e-38
0.012061931 0.013480961 0.74500006 1.3253896e-38
0.013480984 0.013480969 0.74500006 1.3162761e-38
0.014940012 0.013517164 0.74700004 1.2611014e-38
0.016362859 0.013517149 0.7470001 1.2061098e-38
0.017785721 0.013517156 0.7470001 1.1689829e-38
0.019234313 0.013535231 0.74800009 1.1406502e-38
0.020659065 0.013535231 0.74800009 1.6118881e-38
0.02208381 0.013535246 0.74800003 2.0932731e-38
0.023571433 0.013571434 0.75000006 2.1296864e-38
0.025066683 0.013607614 0.75200003 2.155258e-38
0.026499063 0.013607629 0.75200003 1.8425091e-38
0.027968602 0.013625719 0.75300008 1.5208652e-38
0.029480975 0.013661921 0.75500005 1.2628963e-38
0.031041929 0.013716176 0.75800008 1.0145052e-38
0.032571431 0.013752393 0.76000005 9.8616057e-39
0.034063835 0.013770483 0.7610001 9.5825287e-39
0.035513356 0.013770469 0.7610001 9.4917848e-39
0.037060022 0.013806686 0.76300001 9.4003053e-39
-0.023822842 0.015160002 0.75800008 9.5840701e-39
-0.022379024 0.015160002 0.75800002 1.34807e-38
-0.020879967 0.01512 0.75600004 1.7236984e-38
-0.01941428 0.01510001 0.75500005 1.3099005e-38
-0.017904753 0.015039995 0.75200003 8.8540987e-39
-0.016428577 0.015000008 0.75000006 8.1122135e-39
-0.014959972 0.014959998 0.74800009 7.3739478e-39
-0.013535227 0.014959998 0.74800003 5.8105962e-39
-0.012094285 0.014940009 0.74700004 4.1496287e-39
-0.010642828 0.014899999 0.74500012 2.4800517e-39
-0.0092237769 0.014899999 0.74500012 8.5401995e-40
-0.0078047239 0.014900006 0.74500012 1.1545784e-38
-0.0063856724 0.014900006 0.74500006 2.2217004e-38
-0.0049666478 0.014900006 0.74500006 2.2683006e-38
-0.0035571458 0.014940001 0.7470001 2.3039551e-38
-0.0021285231 0.014899999 0.74500012 1.6957207e-38
-0.00070758752 0.014860004 0.74300003 1.0767168e-38
0.00070764188 0.014860004 0.74300003 1.1022116e-38
0.0021228713 0.014860019 0.74300003 1.1222295e-38
0.0035381147 0.014860004 0.74300003 1.1687576e-38
0.0049533634 0.014859997 0.74300003 1.2146779e-38
0.0063685938 0.014860019 0.74300003 1.2514862e-38
0.0077838372 0.014860004 0.74300003 1.279145e-38
0.0092238598 0.014899999 0.74500012 1.306804e-38
0.010642897 0.014899999 0.74500012 1.3253156e-38
0.012094301 0.014939994 0.7470001 1.3163124e-38
0.013517162 0.014939994 0.7470001 1.3071281e-38
0.014940009 0.014940009 0.7470001 1.2335873e-38
0.016362851 0.014940009 0.74700004 1.1600121e-38
0.017785713 0.014940016 0.74700004 1.1507578e-38
0.019234313 0.014959991 0.74800009 1.1326851e-38
0.020659057 0.014960013 0.74800003 1.6208557e-38
0.022142854 0.015000008 0.75000006 2.1108146e-38
0.023571428 0.015000001 0.75000006 2.1396948e-38
0.025066683 0.01504001 0.75200003 2.1557602e-38
0.026499068 0.015039995 0.75200003 1.8423298e-38
0.027968591 0.015060008 0.75300002 1.5203627e-38
