# .PCD v0.7 - Point Cloud Data file format
VERSION 0.7
FIELDS x y z rgb
SIZE 4 4 4 4
TYPE F F F F
COUNT 1 1 1 1
WIDTH 977
HEIGHT 1
VIEWPOINT 0 0 0 1 0 0 0
POINTS 977
DATA ascii
0.019285729 0.032142855 0.75000006 1.1872758e-38
0.020714279 0.032142848 0.75000006 1.2893728e-38
0.022201901 0.032228574 0.75199997 1.3905364e-38
0.023665717 0.032271422 0.75299996 1.3171048e-38
0.02510001 0.03227143 0.75299996 1.2343444e-38
0.026604736 0.032357141 0.75500005 1.2986643e-38
0.028080011 0.032399997 0.75600004 1.3553509e-38
0.029598091 0.032485694 0.75800002 1.7517931e-38
0.031123798 0.032571405 0.76000005 2.1388307e-38
0.032614283 0.032614276 0.76100004 2.0564311e-38
0.034019023 0.032571428 0.76000005 1.9642362e-38
0.0355133 0.032614276 0.76100004 1.8993408e-38
0.037059978 0.032699995 0.76300001 1.8260519e-38
-0.020935249 0.033929512 0.75800002 1.2525335e-38
-0.019491436 0.033929527 0.75800002 1.410602e-38
-0.018047629 0.033929519 0.75800002 1.5785987e-38
-0.016560016 0.033839986 0.75600004 1.5684847e-38
-0.015100016 0.033795238 0.75500005 1.5592247e-38
-0.013625724 0.033705711 0.75300002 1.3922658e-38
-0.012175257 0.033660941 0.75200003 1.2338161e-38
-0.010742872 0.033660948 0.75200003 1.1155802e-38
-0.0092857052 0.033571437 0.75 1.0066328e-38
-0.007857142 0.033571422 0.75 9.5956687e-39
-0.0064285644 0.033571422 0.75 9.2196695e-39
-0.0049999864 0.03357143 0.75 7.2892814e-39
-0.0035714235 0.033571422 0.75 5.3553592e-39
-0.002137169 0.033481888 0.74800009 4.42768e-39
-0.00071237958 0.033481888 0.74800003 3.5979039e-39
0.00071141426 0.033437125 0.74700004 8.6642522e-39
0.0021342777 0.033437125 0.74700004 1.3829745e-38
0.0035571142 0.033437125 0.74700004 1.8534266e-38
0.0049799778 0.033437133 0.7470001 2.3325854e-38
0.0064028339 0.033437133 0.74700004 2.1764651e-38
0.0078256978 0.033437133 0.74700004 2.0111555e-38
0.0092485612 0.033437118 0.7470001 1.5105745e-38
0.010685689 0.033481881 0.74800003 1.0010578e-38
0.012110458 0.033481888 0.74800009 1.1408467e-38
0.013535246 0.033481888 0.74800003 1.2704962e-38
0.015000005 0.03357143 0.75 1.2704639e-38
0.016428584 0.033571422 0.75 1.2704627e-38
0.01785716 0.033571415 0.75 1.1963115e-38
0.019285738 0.03357143 0.75 1.1315992e-38
0.020769523 0.033660956 0.75200003 1.2430246e-38
0.022231445 0.033705719 0.75300002 1.353838e-38
0.023665709 0.033705711 0.75299996 1.2985941e-38
0.0251 0.033705719 0.75299996 1.2434206e-38
0.026604749 0.033795238 0.75500005 1.2898402e-38
0.028079985 0.033839986 0.75600004 1.3463107e-38
0.029598085 0.033929512 0.75800002 1.6692116e-38
0.031123785 0.034019031 0.76000005 1.9920731e-38
0.03261428 0.034063794 0.76100004 1.9182124e-38
0.034063786 0.034063801 0.76100004 1.8349863e-38
0.03560663 0.034153327 0.76300001 1.7980009e-38
0.03705997 0.03415332 0.76300001 1.7516873e-38
0.038513318 0.03415332 0.76300001 1.7427175e-38
-0.020935256 0.035373308 0.75800002 1.6867481e-38
-0.019491443 0.035373323 0.75800002 1.6698552e-38
-0.018047636 0.035373308 0.75800002 1.6411936e-38
-0.016560009 0.035279997 0.75600004 1.346245e-38
-0.015100005 0.035233341 0.75500005 1.0428271e-38
-0.013625718 0.03514 0.75300002 1.0606902e-38
-0.012191426 0.03514 0.75300002 1.0787711e-38
-0.010742876 0.03509333 0.75200003 1.0517951e-38
-0.0092857173 0.034999989 0.75000006 1.0144503e-38
-0.0078571402 0.035000004 0.75000006 8.7619395e-39
-0.0064285765 0.034999989 0.75000006 7.3811407e-39
-0.0049999976 0.034999989 0.75000006 5.6333572e-39
-0.0035714346 0.034999996 0.75000006 3.8777194e-39
-0.0021371522 0.034906648 0.74800003 2.0216351e-39
-0.00071239728 0.034906648 0.74800009 1.2110722e-40
0.00071237725 0.034906648 0.74800003 1.1349111e-38
0.0021342842 0.034859978 0.74700004 2.2572465e-38
0.0035571198 0.034859985 0.74700004 2.3050348e-38
0.0049799834 0.034859985 0.7470001 2.3417677e-38
0.006411409 0.034906648 0.74800009 2.0111585e-38
0.0078257034 0.034859985 0.74700004 1.6763078e-38
0.0092609376 0.034906648 0.74800003 1.2685983e-38
0.010685706 0.034906656 0.74800003 8.5565933e-39
0.012142867 0.035000004 0.75 1.0865734e-38
0.013571445 0.034999996 0.75000006 1.3071599e-38
0.014999994 0.035000004 0.75 1.2981218e-38
0.016428573 0.034999996 0.75000006 1.2794319e-38
0.017857149 0.034999996 0.75000006 1.177803e-38
0.019285727 0.034999996 0.75000006 1.0677817e-38
0.020769505 0.03509333 0.75200003 1.1972502e-38
0.02220189 0.035093337 0.75200003 1.3168876e-38
0.023665728 0.035140008 0.75300002 1.2892293e-38
0.025100017 0.035139993 0.75299996 1.2525326e-38
0.02660476 0.035233334 0.75500005 1.289304e-38
0.028080003 0.035280012 0.75600004 1.3278006e-38
0.0295981 0.035373323 0.75800002 1.5865948e-38
0.031123796 0.035466649 0.76000005 1.8444895e-38
0.032614276 0.035513327 0.76100004 1.7802066e-38
0.034063812 0.035513319 0.76100004 1.7061999e-38
0.035606645 0.03560666 0.76300001 1.696729e-38
0.037059989 0.035606652 0.76300001 1.6782899e-38
0.038513307 0.035606652 0.76300001 1.6781461e-38
-0.020935241 0.036817141 0.75800002 1.4678905e-38
-0.019568583 0.036962844 0.76100004 1.3374152e-38
-0.018047621 0.036817133 0.75800002 1.2169527e-38
-0.016559986 0.036720008 0.75600004 1.1430896e-38
-0.015100007 0.03667143 0.755 1.0683668e-38
-0.013661928 0.03667143 0.75500005 9.8668438e-39
-0.012191436 0.036574289 0.75300002 8.9535041e-39
-0.010742881 0.036525711 0.75200003 8.8541268e-39
-0.0093104942 0.036525704 0.75200003 8.8440682e-39
-0.0078781098 0.036525704 0.75200003 7.6527039e-39
-0.0064285663 0.036428571 0.75 6.4606081e-39
-0.0049999901 0.036428563 0.75 5.2584664e-39
-0.003580963 0.036525711 0.75199997 4.1532048e-39
-0.0021371504 0.0363314 0.74800003 7.3753309e-39
-0.00071239634 0.0363314 0.74800003 1.0607253e-38
0.00071235863 0.036331408 0.74800009 1.6784728e-38
0.0021371471 0.036331423 0.74800003 2.3050348e-38
0.0035618872 0.036331408 0.74800003 2.2223829e-38
0.0049866564 0.036331423 0.74800003 2.1489118e-38
0.0064114244 0.036331408 0.74800003 1.6949691e-38
0.007836164 0.036331415 0.74800003 1.239831e-38
0.0092609534 0.036331423 0.74800003 1.1123591e-38
0.010714278 0.036428563 0.75000006 9.8472718e-39
0.012142855 0.036428571 0.75000006 1.1323863e-38
0.013571432 0.036428556 0.75000006 1.2887941e-38
0.015000002 0.036428578 0.75 1.2704273e-38
0.016428581 0.036428563 0.75 1.2611732e-38
0.017857159 0.036428571 0.75 1.177805e-38
0.019285737 0.036428578 0.75 1.0950464e-38
0.020769512 0.036525704 0.75200003 1.1873849e-38
0.022201898 0.036525697 0.75200003 1.2803318e-38
0.023665719 0.036574274 0.75299996 1.3446158e-38
0.02510001 0.036574282 0.75299996 1.4085453e-38
0.026604772 0.03667143 0.755 1.4369961e-38
0.028154271 0.036817126 0.75799996 1.456335e-38
0.029598093 0.036817126 0.75800002 1.64148e-38
0.031123785 0.036914282 0.76000005 1.8261572e-38
0.032614272 0.036962844 0.76100004 1.7613716e-38
0.034063809 0.036962837 0.76100004 1.7057318e-38
0.035606641 0.037059985 0.76300007 1.6967272e-38
0.037059955 0.037059993 0.76300007 1.6967281e-38
0.038513321 0.037059993 0.76300001 1.7149884e-38
0.039966665 0.037059993 0.76300001 1.7333182e-38
-0.021073369 0.038513325 0.76300001 1.235428e-38
-0.019568574 0.038412374 0.76100004 1.0132627e-38
-0.018047629 0.038260933 0.75800002 7.9379102e-39
-0.016603833 0.038260929 0.75800002 9.4994794e-39
-0.015119997 0.038160004 0.75600004 1.0966319e-38
-0.013679992 0.038160004 0.75599998 9.0388333e-39
-0.012240008 0.03816 0.75600004 7.1070677e-39
-0.010742867 0.037958097 0.75199997 7.2846487e-39
-0.0093104802 0.037958089 0.75199997 7.4665176e-39
-0.0078781135 0.037958086 0.75200003 6.4523713e-39
-0.0064457287 0.037958093 0.75200003 5.4400144e-39
-0.0050133546 0.037958097 0.75200003 4.9700609e-39
-0.0035809686 0.037958089 0.75200003 4.4398909e-39
-0.0021371476 0.037756171 0.74800003 1.2810947e-38
-0.00071239355 0.037756179 0.74800003 2.1099152e-38
0.00071237446 0.037756182 0.74800003 2.2315664e-38
0.0021371155 0.037756175 0.74800003 2.3417683e-38
0.0035618835 0.037756175 0.74800009 2.1489131e-38
0.0049866731 0.037756171 0.74800003 1.9429201e-38
0.0064114132 0.037756182 0.74800003 1.3707691e-38
0.0078571597 0.037857141 0.75 8.0009238e-39
0.0092857378 0.037857141 0.75 9.5627942e-39
0.010714286 0.037857134 0.75 1.113263e-38
0.012142864 0.037857138 0.75 1.1877381e-38
0.013571441 0.037857141 0.75 1.2611709e-38
0.015039993 0.037958093 0.75199997 1.2519516e-38
0.016472381 0.037958108 0.75199997 1.2424467e-38
0.017928593 0.038008567 0.75299996 1.1863065e-38
0.019362835 0.038008563 0.75300002 1.1221667e-38
0.020797128 0.038008556 0.75300002 1.1768751e-38
0.022290455 0.038109522 0.75500005 1.2343091e-38
0.023728555 0.038109526 0.75500005 1.4003314e-38
0.025166683 0.038109533 0.75500005 1.5659594e-38
0.026640015 0.038160007 0.75600004 1.5753954e-38
0.028154263 0.03826094 0.75800002 1.5854428e-38
0.029676167 0.038361892 0.76000005 1.6968323e-38
0.031164741 0.03841237 0.76100004 1.8072525e-38
0.032614294 0.038412366 0.76100004 1.7517949e-38
0.03424285 0.038614288 0.76499999 1.6968362e-38
0.03560663 0.038513321 0.76300001 1.7061266e-38
0.037157129 0.038614284 0.76499999 1.7060917e-38
-0.021128578 0.040071435 0.76500005 1.0866578e-38
-0.019620022 0.039966647 0.76300001 9.4944221e-39
-0.018095262 0.039809506 0.76000005 8.0318869e-39
-0.01660382 0.039704751 0.75800002 8.2109112e-39
-0.015160029 0.039704751 0.75800002 8.3984834e-39
-0.013680005 0.0396 0.75600004 7.3810734e-39
-0.012240001 0.0396 0.75600004 6.4573627e-39
-0.010757149 0.039442863 0.75300002 5.9063749e-39
-0.0093104858 0.039390482 0.75199997 5.3557165e-39
-0.0078885667 0.03944286 0.75299996 4.9776083e-39
-0.006445711 0.039390482 0.75199997 4.6120614e-39
-0.0050133462 0.03939046 0.75200003 9.0337971e-39
-0.0035809742 0.039390467 0.75200003 1.3549959e-38
-0.0021428529 0.039285708 0.75 1.7886036e-38
-0.00071237772 0.039180949 0.74800003 2.2315664e-38
0.00071237632 0.039180934 0.74800003 2.1672816e-38
0.0021371313 0.039180938 0.74800003 2.1029953e-38
0.0035618993 0.039180927 0.74800003 1.6396909e-38
0.0049866396 0.039180931 0.74800009 1.1847316e-38
0.0064114286 0.039180942 0.74800003 1.0385691e-38
0.0078361966 0.039180931 0.74800003 8.8245285e-39
0.0092857247 0.039285708 0.75000006 9.745794e-39
0.010714275 0.039285697 0.75000006 1.0672037e-38
0.012142851 0.039285704 0.75000006 1.1962034e-38
0.013571429 0.039285704 0.75000006 1.3253472e-38
0.015039975 0.039390478 0.75200003 1.371552e-38
0.016472362 0.039390467 0.75199997 1.4172563e-38
0.017904749 0.039390478 0.75199997 1.4264415e-38
0.019362854 0.039442848 0.75300002 1.4436629e-38
0.020797145 0.039442856 0.75300002 1.5557691e-38
0.022290466 0.039547622 0.75500005 1.6674094e-38
0.023728566 0.039547615 0.755 1.7318764e-38
0.025166644 0.039547611 0.75500005 1.7877661e-38
0.026639989 0.039600007 0.75600004 1.6954634e-38
0.028154258 0.039704747 0.75800002 1.5948417e-38
0.029715233 0.039861888 0.76100004 1.7150556e-38
0.031164739 0.039861888 0.76100004 1.8348037e-38
0.032699965 0.039966647 0.76300001 1.7704504e-38
0.034153309 0.039966639 0.76300007 1.7154554e-38
0.035606645 0.039966654 0.76300001 1.7061989e-38
0.037059993 0.039966658 0.76300001 1.6973034e-38
-0.021128589 0.041528583 0.76500005 9.4033012e-39
-0.019671449 0.041528571 0.76500005 8.762601e-39
-0.01811906 0.041311413 0.76100004 8.1140156e-39
-0.016647641 0.041257143 0.76000005 6.9140585e-39
-0.015160014 0.041148566 0.75800002 5.7216095e-39
-0.013679998 0.041040011 0.75600004 5.7215871e-39
-0.012240012 0.041039996 0.75600004 5.7212382e-39
-0.010799994 0.041039988 0.75600004 4.4362685e-39
-0.0093476288 0.040985722 0.755 3.1401809e-39
-0.007888563 0.040877152 0.75299996 3.3984809e-39
-0.0064543062 0.040877134 0.75300002 3.7077418e-39
-0.0050133304 0.04082286 0.75199997 1.3186563e-38
-0.0035809583 0.04082286 0.75199997 2.2663236e-38
-0.002142865 0.040714275 0.75000006 2.3050348e-38
-0.00071428786 0.040714275 0.75000006 2.3417665e-38
0.00071427622 0.040714283 0.75000006 2.1029917e-38
0.0021428533 0.040714286 0.75000006 1.8509751e-38
0.0035714509 0.040714286 0.75 1.1403908e-38
0.0050000013 0.04071429 0.75 4.324997e-39
0.0064285784 0.040714283 0.75 6.9799293e-39
0.007857156 0.040714294 0.75 9.6521494e-39
0.0092857331 0.040714297 0.75 9.9237323e-39
0.010714282 0.04071429 0.75 1.021288e-38
0.01217521 0.040822845 0.75200003 1.2044578e-38
0.013607597 0.040822849 0.75200003 1.3903898e-38
0.015039983 0.040822856 0.75200003 1.4915893e-38
0.016472369 0.04082286 0.75200003 1.593543e-38
0.017928576 0.040877145 0.75299996 1.6769144e-38
0.019362846 0.040877141 0.75300002 1.758958e-38
0.020797137 0.040877149 0.75300002 1.9350972e-38
0.022290478 0.040985718 0.75500005 2.0996829e-38
0.023728557 0.040985715 0.75500005 2.0535852e-38
0.025166657 0.040985711 0.75500005 2.0076679e-38
0.026640009 0.041040003 0.75600004 1.805415e-38
0.028080015 0.041040014 0.75600004 1.6041331e-38
0.029715227 0.041311417 0.76100004 1.7337459e-38
0.031164734 0.041311417 0.76100004 1.8532057e-38
0.03269998 0.041419983 0.76300001 1.7980705e-38
0.034242846 0.041528583 0.76499999 1.733749e-38
0.035606641 0.041419987 0.76300001 1.7058746e-38
0.037157133 0.041528568 0.76500005 1.6784684e-38
-0.022733334 0.04326665 0.77000004 8.3012753e-39
-0.02121141 0.043154292 0.76800001 7.9364388e-39
-0.019671427 0.042985722 0.76499999 7.3757345e-39
-0.01811905 0.042760953 0.76100004 6.8193293e-39
-0.016647641 0.042704761 0.76000005 5.9892113e-39
-0.01516002 0.042592362 0.75800002 5.1576696e-39
-0.013716213 0.042592365 0.75800002 7.0037051e-39
-0.012240007 0.042480007 0.75600004 8.7496516e-39
-0.0108 0.042479999 0.75600004 8.4773681e-39
-0.0093476363 0.0424238 0.75500005 8.185748e-39
-0.0079095364 0.042423807 0.75500005 1.0690088e-38
-0.0064542801 0.042311426 0.75299996 1.3194467e-38
-0.0050200098 0.042311426 0.75300002 1.807473e-38
-0.003580949 0.042255238 0.75199997 2.3050348e-38
-0.0021428557 0.042142861 0.75 2.2958513e-38
-0.00071427762 0.042142849 0.75 2.2958462e-38
0.0007142846 0.042142857 0.75 2.0541631e-38
0.0021428626 0.042142861 0.75 1.8096026e-38
0.0035714398 0.042142849 0.75 1.4996451e-38
0.0049999892 0.042142857 0.75 1.195661e-38
0.0064285672 0.042142842 0.75 1.3340657e-38
0.0078571439 0.042142849 0.75000006 1.4624565e-38
0.0093104662 0.042255241 0.75199997 1.5185626e-38
0.010714271 0.042142842 0.75000006 1.5742044e-38
0.01217524 0.042255245 0.75199997 1.6760149e-38
0.013607626 0.042255253 0.75199997 1.7880491e-38
0.015039993 0.042255234 0.75200003 1.8425784e-38
0.016472381 0.042255238 0.75200003 1.8986147e-38
0.017928565 0.042311423 0.75299996 1.8511925e-38
0.019362837 0.042311415 0.75300002 1.8148896e-38
0.020797128 0.042311426 0.75300002 2.0080677e-38
0.022290489 0.042423811 0.755 2.191663e-38
0.023728566 0.042423803 0.75500005 2.0811335e-38
0.025166668 0.042423811 0.75500005 1.9797933e-38
0.026640004 0.042480003 0.75599998 1.8055585e-38
0.028154263 0.042592373 0.75800002 1.6315045e-38
0.029715225 0.04276095 0.76100004 1.7335308e-38
0.031246657 0.04287333 0.76300001 1.8441287e-38
0.032699972 0.042873338 0.76300001 1.798104e-38
0.034242865 0.042985722 0.76499999 1.7523295e-38
0.03560663 0.042873316 0.76300001 1.7060526e-38
-0.022733323 0.044733327 0.76999998 7.1945578e-39
-0.021211406 0.044617146 0.76800001 6.3619315e-39
-0.019671438 0.044442859 0.76499999 5.9838177e-39
-0.018119054 0.044210471 0.76100004 5.5278604e-39
-0.016647641 0.044152375 0.76000005 5.0654459e-39
-0.015200024 0.044152364 0.76000005 4.6120348e-39
-0.013716199 0.044036176 0.75800002 8.2026141e-39
-0.012272407 0.04403618 0.75800002 1.1795688e-38
-0.0108 0.043919999 0.75600004 1.2537197e-38
-0.0093599958 0.043919999 0.75600004 1.327299e-38
-0.0079095252 0.043861907 0.75500005 1.7981027e-38
-0.0064542764 0.043745723 0.75299996 2.2578937e-38
-0.0050200052 0.043745715 0.75300002 2.3050348e-38
-0.0035809556 0.043687616 0.75199997 2.3417689e-38
-0.0021428538 0.04357142 0.75000006 2.295851e-38
-0.00071428972 0.043571424 0.75000006 2.2393111e-38
0.00071428739 0.04357142 0.75000006 2.0082479e-38
0.0021428505 0.043571424 0.75000006 1.7686089e-38
0.0035714286 0.043571427 0.75000006 1.8712724e-38
0.0050000255 0.043571427 0.75 1.9612073e-38
0.0064285751 0.043571435 0.75 1.9617821e-38
0.0078571523 0.043571427 0.75 1.9612442e-38
0.0093104756 0.043687627 0.75200003 2.0451877e-38
0.010742861 0.043687616 0.75200003 2.1270148e-38
0.01217522 0.043687623 0.75199997 2.155678e-38
0.013607606 0.043687616 0.75199997 2.1732945e-38
0.015039993 0.043687619 0.75199997 2.1828755e-38
0.016494293 0.043745719 0.75300002 2.1915565e-38
0.017928584 0.043745711 0.75299996 2.0326379e-38
0.01941427 0.043861903 0.75500005 1.8688779e-38
0.02085237 0.043861914 0.755 2.0814281e-38
0.022290451 0.043861896 0.75500005 2.2836797e-38
0.023728579 0.043861903 0.75500005 2.117836e-38
0.025200019 0.043919999 0.75600004 1.9432766e-38
0.026640004 0.043919999 0.75600004 1.7963754e-38
0.028154258 0.044036172 0.75800002 1.6499793e-38
0.029715249 0.044210471 0.76100004 1.7430732e-38
0.031246653 0.044326652 0.76300001 1.82569e-38
0.032699965 0.044326659 0.76300001 1.7979249e-38
0.034242854 0.044442862 0.76500005 1.7612629e-38
0.035606626 0.044326644 0.76300001 1.7062338e-38
-0.021211414 0.046080008 0.76799995 6.1699774e-39
-0.019671449 0.045900002 0.76500005 5.1604918e-39
-0.018166695 0.045779988 0.76300007 4.2421312e-39
-0.016669536 0.045659989 0.76100004 3.6896763e-39
-0.015220015 0.045659997 0.76100004 3.144099e-39
-0.013752388 0.045599997 0.76000005 8.5807432e-39
-0.012272393 0.045479994 0.75799996 1.4020228e-38
-0.010828585 0.045479994 0.75800002 1.4560144e-38
-0.0093600079 0.045359995 0.75600004 1.5214867e-38
-0.007909528 0.045300003 0.755 1.7516529e-38
-0.0064714481 0.045300003 0.75500005 1.9926859e-38
-0.0050200145 0.045179993 0.75300002 2.037815e-38
-0.003585723 0.045180004 0.75300002 2.0754458e-38
-0.0021428445 0.044999994 0.75 2.1476225e-38
-0.00071428134 0.045000002 0.75 2.2103984e-38
0.00071429578 0.044999991 0.75 2.1282104e-38
0.0021428599 0.044999998 0.75 2.0373448e-38
0.003571437 0.044999998 0.75 2.0082887e-38
0.0050000153 0.045000006 0.75 1.9804469e-38
0.006428564 0.044999994 0.75 2.044261e-38
0.0078780679 0.04511999 0.75200003 2.1091914e-38
0.0093104551 0.045120001 0.75200003 2.1369572e-38
0.010742842 0.045119997 0.75200003 2.1727213e-38
0.012175228 0.045120001 0.75200003 2.153061e-38
0.013607615 0.045120008 0.75199997 2.1256934e-38
0.015040001 0.045119997 0.75199997 2.1736594e-38
0.016494283 0.04518 0.75300002 2.2203997e-38
0.017976182 0.045300007 0.75500005 2.0895315e-38
0.019414281 0.045299999 0.755 1.9597438e-38
0.020852363 0.045299999 0.75500005 2.1364929e-38
0.022290463 0.045300007 0.75500005 2.312129e-38
0.023728563 0.045300007 0.755 2.118163e-38
0.025199993 0.045360003 0.75600004 1.9249835e-38
0.026710456 0.045479979 0.75800002 1.7687533e-38
0.028154271 0.045479987 0.75799996 1.6126714e-38
0.029715244 0.045659985 0.76100004 1.7148768e-38
0.03124664 0.045779992 0.76300001 1.825726e-38
0.032785706 0.04590001 0.76499999 1.7704462e-38
0.034242861 0.045900002 0.76499999 1.7059473e-38
0.035606645 0.045779992 0.76300001 1.815936e-38
0.037157118 0.045900006 0.76500005 1.9351426e-38
-0.02121141 0.04754287 0.76799995 5.8973169e-39
-0.019620022 0.047233317 0.76300001 4.4297104e-39
-0.018214289 0.047357146 0.76499999 2.8617219e-39
-0.016713362 0.047233313 0.76300001 2.2156757e-39
-0.015220006 0.047109514 0.76100004 1.5893863e-39
-0.013752401 0.047047615 0.76000005 8.9560138e-39
-0.012304785 0.047047604 0.76000005 1.6212452e-38
-0.010828592 0.046923794 0.75800002 1.6652257e-38
-0.0093847774 0.04692379 0.75800002 1.7033967e-38
-0.007919996 0.046800006 0.75600004 1.7126181e-38
-0.006471436 0.046738096 0.75500005 1.7233094e-38
-0.0050333361 0.046738092 0.75500005 1.7688697e-38
-0.0035857183 0.046614282 0.75300002 1.8066091e-38
-0.0021428575 0.046428569 0.75000006 1.9996078e-38
-0.00071620732 0.046552371 0.75199997 2.1832058e-38
0.00071617984 0.046552382 0.75199997 2.2477046e-38
0.0021428477 0.046428569 0.75000006 2.3023383e-38
0.0035714249 0.046428565 0.75000006 2.1439924e-38
0.0050000022 0.046428565 0.75000006 1.9875133e-38
0.0064285723 0.046428584 0.75 2.1164059e-38
0.0078780977 0.046552379 0.75199997 2.2473082e-38
0.0093104644 0.046552379 0.75200003 2.2391299e-38
0.010757159 0.046614289 0.75299996 2.2181387e-38
0.012175238 0.046552379 0.75200003 2.1490055e-38
0.01362572 0.046614278 0.75300002 2.0800263e-38
0.015059983 0.046614289 0.75300002 2.1656248e-38
0.016494274 0.046614282 0.75300002 2.2384455e-38
0.017976193 0.046738096 0.75500005 2.1453166e-38
0.019414272 0.046738096 0.75500005 2.0436157e-38
0.020852372 0.046738092 0.75500005 2.1927046e-38
0.022290474 0.046738103 0.75500005 2.3391407e-38
0.023760008 0.046799999 0.75600004 2.1177326e-38
0.025200015 0.046799995 0.75600004 1.8973245e-38
0.026710451 0.04692379 0.75800002 1.7318024e-38
0.028228564 0.047047619 0.76000005 1.5671121e-38
0.029715242 0.047109522 0.76100004 1.696439e-38
0.031164749 0.047109514 0.76100004 1.825511e-38
0.032785699 0.047357149 0.76499999 1.7429668e-38
0.034242854 0.047357142 0.76499999 1.6507027e-38
0.035699975 0.047357149 0.76499999 1.934713e-38
0.037157129 0.047357146 0.76499999 2.2210176e-38
-0.021211425 0.049005713 0.76800001 5.2555194e-39
-0.019671438 0.048814282 0.76499999 4.5125328e-39
-0.0182143 0.048814289 0.76499999 3.773254e-39
-0.01671336 0.04868665 0.76300001 6.3637279e-39
-0.015260031 0.048686653 0.76300001 8.9387708e-39
-0.01377049 0.04855904 0.76100004 1.2629829e-38
-0.012304786 0.048495222 0.76000005 1.6312908e-38
-0.010828577 0.048367608 0.75800002 1.620275e-38
-0.009384783 0.048367608 0.75800002 1.6111994e-38
-0.0079409555 0.048367605 0.75800002 1.6576554e-38
-0.0064800042 0.048240002 0.75600004 1.712902e-38
-0.0050333398 0.048176203 0.755 1.7323112e-38
-0.0035952458 0.048176184 0.75500005 1.7590385e-38
-0.0021514359 0.048048571 0.75300002 1.8613865e-38
-0.00071621197 0.047984764 0.75200003 1.9720194e-38
0.00071617332 0.047984757 0.75200003 2.118956e-38
0.0021485605 0.04798476 0.75200003 2.2659606e-38
0.0035809467 0.047984753 0.75200003 2.1159348e-38
0.0050133341 0.04798476 0.75199997 1.9754594e-38
0.0064457208 0.047984771 0.75199997 2.1259518e-38
0.0078780791 0.047984764 0.75199997 2.2764779e-38
0.0093228575 0.048048574 0.75300002 2.2575745e-38
0.010757149 0.048048571 0.75299996 2.2474133e-38
0.01219144 0.048048578 0.75299996 2.16138e-38
0.01362571 0.048048574 0.75300002 2.0909314e-38
0.015060001 0.048048563 0.75300002 2.1560835e-38
0.016494295 0.048048574 0.75300002 2.2204028e-38
0.017976204 0.048176195 0.755 2.1084052e-38
0.019414285 0.048176195 0.75500005 2.0052675e-38
0.020852385 0.048176188 0.75500005 2.1083649e-38
0.022290485 0.048176199 0.755 2.2105343e-38
0.023760002 0.048239999 0.75600004 2.072066e-38
0.025266653 0.048367605 0.75800002 1.9249103e-38
0.026780946 0.048495233 0.76000005 1.7505268e-38
0.028228549 0.048495237 0.76000005 1.5764389e-38
0.029793309 0.048686646 0.76300001 1.7149145e-38
0.031246653 0.04868665 0.76300001 1.8532771e-38
0.032785684 0.048814274 0.76500005 1.7612616e-38
0.034242839 0.048814282 0.76500005 1.6691774e-38
0.035699993 0.048814289 0.76500005 1.8532813e-38
-0.022733331 0.050599989 0.77000004 4.4294134e-39
-0.021211434 0.050468571 0.76800001 4.6080397e-39
-0.019722864 0.050402854 0.76700002 4.6840685e-39
-0.01821431 0.050271429 0.76500005 4.7124869e-39
-0.016713364 0.05013999 0.76300007 1.0527259e-38
-0.015260034 0.050139979 0.76300007 1.6216064e-38
-0.013770494 0.050008558 0.76100004 1.6311155e-38
-0.012304786 0.049942855 0.76000005 1.6306449e-38
-0.010857168 0.049942844 0.76000005 1.5733872e-38
-0.0093847895 0.049811412 0.75800002 1.510541e-38
-0.007940962 0.049811408 0.75800002 1.6123171e-38
-0.0064799967 0.049679998 0.75599998 1.705409e-38
-0.0050399988 0.049679995 0.75600004 1.7068447e-38
-0.0035952486 0.049614277 0.75500005 1.7056975e-38
-0.0021514322 0.049482848 0.75300002 1.7331771e-38
-0.0007171405 0.049482856 0.75300002 1.7607254e-38
0.00071616867 0.049417134 0.75200003 1.9901323e-38
0.0021485679 0.049417138 0.75200003 2.2187871e-38
0.0035809272 0.049417146 0.75200003 2.0966732e-38
0.0050133141 0.049417142 0.75200003 1.9680675e-38
0.0064457008 0.049417146 0.75199997 2.1353803e-38
0.0078780865 0.049417142 0.75199997 2.2936221e-38
0.0093228482 0.049482856 0.75300002 2.2855556e-38
0.010757139 0.04948286 0.75299996 2.2643052e-38
0.012191431 0.049482856 0.75299996 2.1765458e-38
0.013625701 0.049482852 0.75300002 2.0899939e-38
0.015059992 0.049482863 0.75300002 2.1474015e-38
0.016538087 0.04961428 0.755 2.1923851e-38
0.017976167 0.04961428 0.75500005 2.0809614e-38
0.019414267 0.049614288 0.75500005 1.9697896e-38
0.020879986 0.049679987 0.75600004 2.0249619e-38
0.022320019 0.049679995 0.75600004 2.0811046e-38
0.023822851 0.049811408 0.75800002 2.0167133e-38
0.02533331 0.049942836 0.76000005 1.95282e-38
0.026816171 0.050008558 0.76100004 1.7688948e-38
0.028265705 0.050008561 0.76100004 1.5765112e-38
0.029793326 0.050139997 0.76300001 1.7242418e-38
0.031246642 0.050140005 0.76300001 1.8715011e-38
0.032785721 0.05027144 0.76499999 1.7796653e-38
0.034153301 0.050139997 0.76300001 1.6784683e-38
0.035606645 0.05013999 0.76300001 1.7612651e-38
-0.024262872 0.052201893 0.77200001 4.7005786e-39
-0.02273332 0.052066647 0.77000004 6.2679197e-39
-0.021211429 0.05193143 0.76800001 7.8287715e-39
-0.019722847 0.051863823 0.76699996 8.0196241e-39
-0.018214289 0.05172858 0.76499999 8.2223976e-39
-0.01671336 0.051593322 0.76300001 1.1906309e-38
-0.015260031 0.051593311 0.76300001 1.5678731e-38
-0.013806703 0.051593322 0.76300001 1.5856653e-38
-0.012320976 0.051458079 0.76100004 1.6040628e-38
-0.010871455 0.051458083 0.76100004 1.5842911e-38
-0.0093847755 0.051255226 0.75800002 1.5758682e-38
-0.0079409676 0.051255226 0.75800002 1.6959072e-38
-0.0064971545 0.051255234 0.75800002 1.8263421e-38
-0.0050399904 0.051119994 0.75600004 1.8534979e-38
-0.0036000058 0.051119994 0.75600004 1.8900525e-38
-0.0021514406 0.050917126 0.75300002 1.8991281e-38
-0.00071714981 0.050917134 0.75300002 1.9076973e-38
0.0007161845 0.05084952 0.75199997 2.0357244e-38
0.0021485502 0.05084952 0.75200003 2.1734072e-38
0.0035809374 0.050849512 0.75200003 2.1076169e-38
0.0050133229 0.05084952 0.75200003 2.0412471e-38
0.0064457096 0.050849523 0.75200003 2.1261187e-38
0.0078780958 0.050849516 0.75200003 2.2107518e-38
0.0093228677 0.050917149 0.75300002 2.2012894e-38
0.010757159 0.050917141 0.75299996 2.191586e-38
0.012191449 0.050917134 0.75299996 2.1628696e-38
0.013625693 0.05091713 0.75300002 2.1379518e-38
0.015059983 0.050917137 0.75300002 2.1649426e-38
0.016538078 0.05105238 0.75500005 2.1921333e-38
0.017976178 0.051052392 0.75500005 2.1268785e-38
0.01941428 0.051052384 0.755 2.0618051e-38
0.020880008 0.051119998 0.75600004 2.0995086e-38
0.022319993 0.051119983 0.75600004 2.1457132e-38
0.023822865 0.051255219 0.75800002 2.0542363e-38
0.025333324 0.051390454 0.76000005 1.963044e-38
0.026780948 0.051390469 0.76000005 1.7689672e-38
0.028265702 0.051458079 0.76100004 1.5853723e-38
0.029715238 0.051458087 0.76100004 1.7058031e-38
0.031246638 0.051593326 0.76300001 1.8349827e-38
0.03269998 0.051593319 0.76300007 1.7428601e-38
0.034153298 0.051593322 0.76300007 1.6598139e-38
0.035793319 0.051863797 0.76700002 1.6967995e-38
0.037254281 0.051863804 0.76700002 1.7430418e-38
0.038715243 0.051863816 0.76699996 1.8445648e-38
-0.024199998 0.053533327 0.77000004 5.1626554e-39
-0.022733344 0.053533312 0.77000004 8.1132743e-39
-0.021211423 0.053394288 0.76800001 1.0965919e-38
-0.019722853 0.053324766 0.76699996 1.1342592e-38
-0.018214298 0.053185709 0.76499999 1.162174e-38
-0.01675716 0.053185716 0.76499999 1.3380301e-38
-0.01526003 0.053046655 0.76300001 1.5114404e-38
-0.013806685 0.053046659 0.76300001 1.5396359e-38
-0.012320966 0.052907616 0.76100004 1.5663221e-38
-0.010871445 0.052907601 0.76100004 1.6022637e-38
-0.009409545 0.052838091 0.76000005 1.630788e-38
-0.0079619288 0.052838083 0.76000005 1.7874515e-38
-0.006497161 0.052699041 0.75800002 1.9447206e-38
-0.0050533335 0.052699033 0.75800002 2.0090423e-38
-0.0035999992 0.052560002 0.75600004 2.0647186e-38
-0.0021571598 0.052490469 0.75500005 2.0655446e-38
-0.00071905996 0.052490477 0.75500005 2.0548495e-38
0.00071714562 0.052351419 0.75300002 2.0899646e-38
0.0021514234 0.05235143 0.75299996 2.1184485e-38
0.0035857141 0.052351438 0.75299996 2.1190588e-38
0.0050200056 0.05235143 0.75299996 2.1080078e-38
0.0064542769 0.052351426 0.75300002 2.1170456e-38
0.0078885667 0.052351419 0.75300002 2.117516e-38
0.0093228584 0.052351426 0.75300002 2.1171612e-38
0.010757149 0.052351434 0.75300002 2.1179061e-38
0.01219144 0.052351426 0.75299996 2.1454125e-38
0.013661909 0.052490484 0.75500005 2.1735451e-38
0.015099988 0.05249048 0.75500005 2.1822703e-38
0.016538089 0.052490473 0.75500005 2.1920275e-38
0.017999992 0.052559987 0.75600004 2.1726557e-38
0.019439997 0.052560002 0.75600004 2.1554001e-38
0.020935224 0.052699037 0.75800002 2.1839546e-38
0.022379017 0.052699026 0.75800002 2.2015332e-38
0.02388568 0.052838087 0.76000005 2.0823271e-38
0.025366636 0.052907597 0.76100004 1.9622569e-38
0.026816191 0.052907612 0.76100004 1.7769331e-38
0.028265698 0.052907616 0.76100004 1.5852654e-38
0.029793309 0.053046655 0.76300001 1.6878299e-38
0.031246655 0.053046662 0.76300001 1.7889929e-38
0.032785699 0.053185709 0.76500005 1.7153457e-38
0.034242854 0.053185716 0.76500005 1.641555e-38
0.035840012 0.05339428 0.76800001 1.6414481e-38
0.037302878 0.053394295 0.76799995 1.6322296e-38
0.038765725 0.053394277 0.76800001 1.604106e-38
-0.024200007 0.054999977 0.77000004 6.9089956e-39
-0.022733333 0.054999989 0.77000004 8.5767902e-39
-0.021211419 0.054857146 0.76800001 1.0150192e-38
-0.019748565 0.054857139 0.76800001 9.7760354e-39
-0.018214298 0.05464286 0.76500005 9.5001912e-39
-0.016757159 0.05464286 0.76500005 9.8614544e-39
-0.015260034 0.054499991 0.76300007 1.0216232e-38
-0.013806704 0.05449998 0.76300007 1.2713718e-38
-0.012353352 0.054499995 0.76300001 1.5193262e-38
-0.010871449 0.054357119 0.76100004 1.5748924e-38
-0.0094219288 0.054357126 0.76100004 1.6310729e-38
-0.0079619298 0.054285698 0.76000005 1.8062806e-38
-0.0065143122 0.054285701 0.76000005 1.990707e-38
-0.00505334 0.054142851 0.75800002 2.0461333e-38
-0.0036095472 0.054142836 0.75800002 2.1014162e-38
-0.0021571487 0.05392858 0.75500005 2.027914e-38
-0.00071904878 0.053928576 0.755 1.9541895e-38
0.00071903062 0.053928576 0.75500005 2.0262895e-38
0.0021514411 0.053785723 0.75300002 2.1005109e-38
0.0035857048 0.053785715 0.75299996 2.0817131e-38
0.0050199968 0.053785723 0.75299996 2.0536962e-38
0.0064542666 0.053785719 0.75300002 2.1080442e-38
0.0078885583 0.053785712 0.75300002 2.1720778e-38
0.0093475906 0.053928565 0.75500005 2.2006686e-38
0.010785691 0.053928573 0.75500005 2.2286865e-38
0.012223819 0.05392858 0.75500005 2.2378708e-38
0.013661919 0.053928576 0.755 2.2560964e-38
0.015099999 0.053928576 0.75500005 2.247668e-38
0.016560009 0.054000005 0.75600004 2.2486016e-38
0.018000012 0.053999998 0.75600004 2.2204418e-38
0.019439997 0.054000001 0.75600004 2.2032208e-38
0.020935217 0.054142844 0.75800002 2.1378219e-38
0.022379031 0.054142851 0.75800002 2.0727495e-38
0.023885693 0.054285705 0.76000005 1.9165949e-38
0.025366658 0.054357126 0.76100004 1.760436e-38
0.026816187 0.05435713 0.76100004 1.5295531e-38
0.02826572 0.05435713 0.76100004 1.309329e-38
0.029793305 0.054499984 0.76300007 1.5493944e-38
0.031246642 0.054499999 0.76300001 1.7892439e-38
0.032871433 0.054785725 0.76699996 1.7245295e-38
0.034332395 0.054785717 0.76699996 1.6689987e-38
0.035793338 0.054785717 0.76700002 1.6690715e-38
0.037400007 0.054999981 0.77000004 1.6781118e-38
0.038866684 0.054999992 0.77000004 1.6690001e-38
-0.024262872 0.056613319 0.77200001 8.6664228e-39
-0.022733321 0.056466661 0.77000004 9.0427626e-39
-0.021211414 0.056320004 0.76800001 9.3135887e-39
-0.019748559 0.05632 0.76800001 8.2951306e-39
-0.018214289 0.056100003 0.76499999 7.2809927e-39
-0.016757149 0.056100007 0.76499999 6.257169e-39
-0.015300011 0.056100018 0.76499999 5.258486e-39
-0.0138067 0.055953313 0.76300001 9.9571911e-39
-0.012353369 0.05595332 0.76300001 1.4643667e-38
-0.010871438 0.055806655 0.76100004 1.5468747e-38
-0.0094219316 0.055806659 0.76100004 1.6214946e-38
-0.0079723904 0.055806655 0.76100004 1.8250787e-38
-0.0065143122 0.055733319 0.76000011 2.0275498e-38
-0.0050533465 0.055586655 0.75800002 2.0832994e-38
-0.0036095332 0.055586651 0.75800002 2.1379705e-38
-0.0021571524 0.055366661 0.755 1.9905319e-38
-0.00071905809 0.055366658 0.75500005 1.842408e-38
0.0007190418 0.055366669 0.75500005 1.9604636e-38
0.0021571417 0.055366676 0.75500005 2.0813552e-38
0.0035857244 0.055219993 0.75299996 2.0444404e-38
0.0050333221 0.055366658 0.75500005 1.9981629e-38
0.0064542866 0.055219997 0.75300002 2.1077188e-38
0.0078885769 0.055219989 0.75300002 2.2190363e-38
0.0093476018 0.055366661 0.75500005 2.2755394e-38
0.010785702 0.055366669 0.75500005 2.3302105e-38
0.012223803 0.055366665 0.755 2.3303903e-38
0.013661882 0.055366661 0.75500005 2.3303557e-38
0.015099982 0.055366673 0.75500005 2.3128151e-38
0.016560001 0.055440005 0.75600004 2.2942676e-38
0.017999986 0.055440005 0.75600004 2.2755767e-38
0.019491417 0.055586655 0.75800002 2.2478806e-38
0.020935232 0.055586655 0.75800002 2.0913997e-38
0.022438077 0.055733334 0.76000005 1.9346701e-38
0.02391712 0.055806659 0.76100004 1.7416367e-38
0.025366655 0.055806648 0.76100004 1.5476672e-38
0.026816161 0.055806655 0.7610001 1.2899149e-38
0.028265717 0.055806652 0.76100004 1.0242428e-38
0.029793294 0.055953331 0.76300001 1.4112127e-38
0.03132857 0.056100011 0.76500005 1.7887793e-38
0.032914288 0.056319997 0.76800001 1.7428266e-38
0.034377154 0.056320004 0.76800001 1.6876175e-38
0.035840023 0.05632 0.76799995 1.706128e-38
0.037302867 0.05632 0.76800001 1.7152042e-38
-0.024199985 0.057933327 0.77000004 7.014816e-39
-0.022733329 0.057933327 0.77000004 7.6544457e-39
-0.021211421 0.057782859 0.76800001 8.2965431e-39
-0.019748554 0.057782859 0.76799995 7.9237851e-39
-0.018214298 0.057557143 0.76499999 7.5503208e-39
-0.016757147 0.057557151 0.76499999 6.9974904e-39
-0.015300008 0.05755714 0.76499999 6.4494131e-39
-0.013806683 0.057406653 0.76300001 1.0784041e-38
-0.012353353 0.057406656 0.76300001 1.5016013e-38
-0.010871443 0.057256185 0.76100004 1.5840386e-38
-0.0094219213 0.057256177 0.76100004 1.6573677e-38
-0.0079724006 0.057256166 0.7610001 1.8057436e-38
-0.0065143122 0.057180937 0.76000011 1.9540107e-38
-0.0050533325 0.057030465 0.75799996 1.9722729e-38
-0.0036095388 0.057030465 0.75800002 2.0000374e-38
-0.0021600134 0.056879997 0.75600004 1.9158415e-38
-0.00071906089 0.056804769 0.75500005 1.8317533e-38
0.0007190539 0.056804765 0.75500005 1.9796572e-38
0.0021571529 0.056804776 0.755 2.1280986e-38
0.0035952332 0.056804761 0.75500005 2.0999e-38
0.0050333338 0.056804769 0.75500005 2.0714147e-38
0.0064714341 0.056804776 0.755 2.1269802e-38
0.0079095131 0.056804758 0.75500005 2.1922035e-38
0.0093476139 0.056804758 0.75500005 2.1557619e-38
0.010785714 0.056804765 0.755 2.127996e-38
0.012223794 0.056804765 0.75500005 2.1188841e-38
0.013679984 0.056880008 0.75600004 2.1098806e-38
0.015099995 0.056804769 0.755 2.0276957e-38
0.016560003 0.056880001 0.75600004 1.9451487e-38
0.018000009 0.056879997 0.75600004 1.787806e-38
0.019491412 0.057030458 0.75800002 1.6315761e-38
0.020935224 0.057030469 0.75800002 1.5753249e-38
0.02243809 0.057180952 0.76000005 1.5298372e-38
0.023917144 0.057256177 0.76100004 1.4277415e-38
0.025366651 0.057256185 0.76100004 1.3344319e-38
0.026816187 0.05725617 0.7610001 1.1881374e-38
0.028339995 0.05740666 0.76300001 1.0507157e-38
0.02987141 0.057557147 0.76500005 1.374301e-38
0.031328559 0.057557136 0.76500005 1.6975555e-38
0.032914307 0.057782855 0.76800001 1.6786869e-38
0.034377147 0.057782866 0.76800001 1.6600316e-38
0.036073308 0.058159035 0.77300006 1.6508825e-38
0.037545677 0.058159038 0.77300006 1.6509546e-38
-0.024200005 0.059399989 0.77000004 5.3462998e-39
-0.022733331 0.059399989 0.77000004 6.3547204e-39
-0.021211417 0.059245724 0.76800001 7.2780836e-39
-0.01974855 0.059245717 0.76799995 7.5535761e-39
-0.01821431 0.059014287 0.76500005 7.7350652e-39
-0.016757159 0.059014291 0.76500005 7.7332421e-39
-0.01530002 0.059014283 0.76500005 7.6497191e-39
-0.013806702 0.058859993 0.76300001 1.1529831e-38
-0.012353373 0.058859982 0.76300001 1.5385154e-38
-0.010900041 0.058859985 0.76300007 1.6211343e-38
-0.0094466908 0.05886 0.76300001 1.6946766e-38
-0.0079724053 0.058705699 0.76100004 1.7864424e-38
-0.0065228627 0.058705717 0.76100004 1.8703153e-38
-0.0050666905 0.05862857 0.76000005 1.8609535e-38
-0.0036095453 0.058474269 0.75800002 1.851805e-38
-0.002160006 0.058319993 0.75600004 1.8318585e-38
-0.00071904878 0.058242865 0.75500005 1.8141745e-38
0.00071905111 0.058242861 0.755 1.9983491e-38
0.0021571175 0.058242857 0.75500005 2.1740905e-38
0.0035952174 0.058242869 0.75500005 2.155686e-38
0.0050333459 0.058242861 0.75500005 2.1368152e-38
0.0064714253 0.058242857 0.75500005 2.145818e-38
0.0079095252 0.058242857 0.75500005 2.1553272e-38
0.0093476251 0.058242865 0.75500005 2.0455938e-38
0.010800017 0.058320008 0.75600004 1.9256673e-38
0.012240001 0.05831999 0.75600004 1.9071905e-38
0.013680006 0.058320004 0.75600004 1.8891471e-38
0.015119991 0.058320001 0.75600004 1.7428568e-38
0.016559996 0.058320001 0.75600004 1.5846878e-38
0.018000001 0.058320008 0.75600004 1.2989535e-38
0.019491425 0.058474272 0.75800002 1.0131507e-38
0.020935219 0.058474269 0.75800002 1.0668165e-38
0.022438077 0.05862857 0.76000005 1.1144562e-38
0.02391714 0.058705699 0.76100004 1.1234605e-38
0.025366647 0.058705706 0.76100004 1.1234592e-38
0.026816182 0.058705706 0.76100004 1.0959075e-38
0.028339962 0.058859985 0.76300001 1.069653e-38
0.029871417 0.059014298 0.76499999 1.3377028e-38
0.031410471 0.05916857 0.76700002 1.5954189e-38
0.0329143 0.059245713 0.76800001 1.6142553e-38
0.034332395 0.059168573 0.76699996 1.6323353e-38
0.036026645 0.059554271 0.77200001 1.6047128e-38
0.037497129 0.05955429 0.77200001 1.5772702e-38
-0.024199994 0.060866661 0.77000004 4.969939e-39
-0.02273332 0.060866658 0.76999998 6.0780999e-39
-0.021211412 0.060708579 0.76800001 7.1822838e-39
-0.019748567 0.060708564 0.76800001 7.4599483e-39
-0.018285712 0.060708575 0.76800001 7.8276154e-39
-0.016822845 0.060708579 0.76800001 7.8257867e-39
-0.015339999 0.060629524 0.76700002 7.9166034e-39
-0.013842857 0.060471442 0.76499999 9.954261e-39
-0.012353356 0.060313314 0.76300001 1.1987605e-38
-0.010900026 0.060313325 0.76300001 1.3181875e-38
-0.0094466954 0.060313329 0.76300001 1.4382553e-38
-0.007972395 0.06015522 0.76100004 1.4747743e-38
-0.0065142927 0.060076188 0.76000005 1.5125484e-38
-0.0050666905 0.060076188 0.76000005 1.5578557e-38
-0.0036095323 0.059918083 0.75800002 1.6133871e-38
-0.0021599985 0.059760001 0.75600004 1.6589457e-38
-0.00071905158 0.059680961 0.755 1.7049395e-38
0.00071902783 0.059680961 0.75500005 1.788098e-38
0.0021571277 0.059680954 0.75500005 1.8723632e-38
0.0035952285 0.059680965 0.755 1.7610474e-38
0.0050400132 0.059760001 0.75600004 1.6508441e-38
0.0064714085 0.059680957 0.75500005 1.5846212e-38
0.0079200016 0.059760001 0.75600004 1.521305e-38
0.0093600061 0.059760012 0.75600004 1.5203721e-38
0.010799991 0.059760008 0.75600004 1.5300896e-38
0.012239996 0.059760004 0.75600004 1.6592648e-38
0.013679979 0.059759986 0.75600004 1.7874051e-38
0.015120013 0.059759997 0.75600004 1.70479e-38
0.016560018 0.059760012 0.75600004 1.6180792e-38
0.018000003 0.059759993 0.75600004 1.3155191e-38
0.019491417 0.059918087 0.75800002 1.0102744e-38
0.020935232 0.059918083 0.75799996 1.085537e-38
0.02243809 0.060076188 0.76000005 1.1601539e-38
0.023917137 0.060155232 0.76100004 1.1418591e-38
0.025366643 0.060155235 0.76100004 1.13282e-38
0.026886636 0.060313329 0.76300001 1.0136501e-38
0.02833998 0.060313322 0.76300001 8.9530528e-39
0.029949516 0.060629521 0.76700002 1.3094987e-38
0.031410478 0.060629532 0.76700002 1.7320905e-38
0.032914288 0.060708575 0.76800001 1.6960788e-38
0.034377158 0.060708582 0.76799995 1.6687087e-38
0.036026679 0.061024763 0.77200001 1.6135366e-38
0.03749714 0.061024752 0.77200001 1.5678705e-38
-0.022733329 0.062333323 0.77000004 5.8050961e-39
-0.021266652 0.062333323 0.77000004 6.9996792e-39
-0.019748574 0.062171422 0.76800001 7.4595798e-39
-0.018285707 0.062171429 0.76800001 7.8269035e-39
-0.016822839 0.062171426 0.76800001 8.0094801e-39
-0.015340003 0.062090479 0.76700002 8.1946155e-39
-0.01384287 0.06192857 0.76499999 8.3833395e-39
-0.012385731 0.061928574 0.76499999 8.4845301e-39
-0.010900022 0.061766658 0.76300001 1.014513e-38
-0.0094466917 0.061766662 0.76300001 1.1797474e-38
-0.0079723978 0.061604742 0.76100004 1.1618848e-38
-0.0065228776 0.061604742 0.7610001 1.1432642e-38
-0.0050666914 0.061523806 0.76000005 1.2628991e-38
-0.0035999955 0.061200004 0.75600004 1.374538e-38
-0.0021600106 0.061200004 0.75600004 1.485639e-38
-0.00072000618 0.0612 0.75600004 1.5958788e-38
0.00072001223 0.061200008 0.75600004 1.5858359e-38
0.0021599971 0.061199993 0.75600004 1.568618e-38
0.0035952183 0.06111905 0.75500005 1.365254e-38
0.0050399867 0.061200004 0.75600004 1.1628154e-38
0.0064799907 0.0612 0.75600004 1.0204286e-38
0.0079199951 0.061200012 0.75599998 8.7675798e-39
0.0093600079 0.061199993 0.75600004 1.0028541e-38
0.010800011 0.061200004 0.75600004 1.1355498e-38
0.012239996 0.061200004 0.75600004 1.4123484e-38
0.013680002 0.061199997 0.75600004 1.6882866e-38
0.015120006 0.061200012 0.75600004 1.6708178e-38
0.01655999 0.061199993 0.75600004 1.6495406e-38
0.017999995 0.061200004 0.75600004 1.3256009e-38
0.019491412 0.061361883 0.75800002 1.0029928e-38
0.020935224 0.061361887 0.75800002 1.1049447e-38
0.022438075 0.061523803 0.76000005 1.1968171e-38
0.023917133 0.061604753 0.76100004 1.169339e-38
0.025366668 0.061604757 0.76100004 1.1330332e-38
0.026886633 0.061766654 0.76300001 9.214147e-39
0.028339976 0.061766643 0.76300007 7.1145422e-39
0.029949525 0.062090475 0.76700002 1.2912431e-38
0.031410486 0.062090486 0.76700002 1.8616635e-38
0.032914311 0.062171429 0.76800001 1.7784736e-38
0.03437718 0.062171437 0.76799995 1.6963954e-38
0.03602666 0.062495232 0.77200001 1.6311417e-38
0.037497126 0.062495235 0.77200001 1.5581772e-38
-0.022733329 0.063799977 0.77000004 5.5292211e-39
-0.021266675 0.063799977 0.77000004 7.0925825e-39
-0.019748567 0.063634276 0.76800001 7.4599287e-39
-0.018285701 0.063634291 0.76800001 7.9191034e-39
-0.016822848 0.063634299 0.76800001 8.1938896e-39
-0.015340009 0.063551433 0.76700002 8.4690415e-39
-0.013842881 0.063385725 0.76500005 8.6563027e-39
-0.012385727 0.06338571 0.76500005 8.8406981e-39
-0.010928587 0.06338571 0.76499999 9.7633635e-39
-0.0094467103 0.063219987 0.76300007 1.0676382e-38
-0.0079933451 0.063220002 0.76300001 1.0683959e-38
-0.0065228795 0.063054278 0.76100004 1.0673873e-38
-0.0050733383 0.063054293 0.76100004 1.2070374e-38
-0.0036095453 0.062805697 0.75800002 1.3566681e-38
-0.0021600041 0.062640004 0.75600004 1.5600369e-38
-0.00071999873 0.062640011 0.75600004 1.7631858e-38
0.00071998523 0.062639996 0.75600004 1.7349162e-38
0.0021599897 0.062640004 0.75600004 1.7172704e-38
0.0036000025 0.062639982 0.75600004 1.6337253e-38
0.0050400076 0.062639996 0.75600004 1.5605688e-38
0.0064800126 0.062640011 0.75600004 1.4761122e-38
0.007919996 0.062639996 0.75600004 1.3950421e-38
0.0093476092 0.062557146 0.75500005 1.4489271e-38
0.01078571 0.062557146 0.755 1.5152264e-38
0.012223789 0.062557131 0.75500005 1.670886e-38
0.013679994 0.062640011 0.75600004 1.8366578e-38
0.015120007 0.062639996 0.75600004 1.7630474e-38
0.016560012 0.062640004 0.75600004 1.689719e-38
0.018000018 0.062639996 0.75600004 1.2719358e-38
0.019491425 0.062805697 0.75800002 8.6506106e-39
0.020990459 0.062971421 0.76000005 1.003639e-38
0.022438062 0.062971428 0.76000005 1.1507205e-38
0.023917129 0.063054278 0.76100004 1.2437052e-38
0.025366664 0.063054271 0.76100004 1.345257e-38
0.026886648 0.063219994 0.76300001 1.2440533e-38
0.028414277 0.063385725 0.76499999 1.1521563e-38
0.029949509 0.063551433 0.76700002 1.6325092e-38
0.031410467 0.063551426 0.76700002 2.1029819e-38
0.032871429 0.063551441 0.76700002 2.0652023e-38
0.034466676 0.063799992 0.77000004 2.0195341e-38
0.035933334 0.063799985 0.77000004 1.982045e-38
0.037400007 0.063799992 0.77000004 1.9542821e-38
-0.019799987 0.065266654 0.76999998 7.5524732e-39
-0.01828571 0.065097131 0.76800001 7.9198208e-39
-0.016822843 0.065097138 0.76799995 8.3782864e-39
-0.015340014 0.06501238 0.76700002 8.7463529e-39
-0.013842858 0.064842865 0.76499999 9.0243775e-39
-0.012385738 0.06484285 0.76500005 9.2087506e-39
-0.010928598 0.064842865 0.76500005 9.3916873e-39
-0.0094466945 0.064673319 0.76300001 9.4860858e-39
-0.0079933638 0.064673334 0.76300001 9.6748294e-39
-0.0065400326 0.064673319 0.76300001 9.853467e-39
-0.0050733634 0.064503789 0.7610001 1.1595818e-38
-0.0036095313 0.064249516 0.75800002 1.338233e-38
-0.0021599957 0.064080015 0.75600004 1.6346203e-38
-0.0007199978 0.06408 0.75600004 1.9193107e-38
0.00072000665 0.064080007 0.75600004 1.8917605e-38
0.0021599906 0.06408 0.75600004 1.8550285e-38
0.003599996 0.064080015 0.75600004 1.9101321e-38
0.0050400002 0.064080015 0.75600004 1.9559006e-38
0.0064714225 0.063995235 0.75500005 1.9284878e-38
0.0079095224 0.063995242 0.75500005 1.9007596e-38
0.0093476223 0.063995242 0.75500005 1.8917571e-38
0.010785702 0.063995235 0.75500005 1.8825762e-38
0.012223803 0.06399525 0.75500005 1.9376801e-38
0.013679995 0.06408 0.75600004 1.9835985e-38
0.015120001 0.064080007 0.75600004 1.8550295e-38
0.016560005 0.064080015 0.75599998 1.7160899e-38
0.018047625 0.064249516 0.75800002 1.2165525e-38
0.019491419 0.064249516 0.75800002 7.1945634e-39
0.020990474 0.064419039 0.76000005 9.1223857e-39
0.022438077 0.064419046 0.76000005 1.1064562e-38
0.023917133 0.064503796 0.7610001 1.3278657e-38
0.0254333 0.064673319 0.76300007 1.5488087e-38
0.026886664 0.064673319 0.76300001 1.5758211e-38
0.028414266 0.064842865 0.76500005 1.5957362e-38
0.029949516 0.065012395 0.76700002 1.9744197e-38
0.031410478 0.06501238 0.76700002 2.3416872e-38
0.03287144 0.06501238 0.76700002 2.3414693e-38
0.034332372 0.065012395 0.76699996 2.3413971e-38
0.035933346 0.065266654 0.77000004 2.3415402e-38
0.0374 0.065266654 0.77000004 2.3412549e-38
-0.019799996 0.066733316 0.77000004 7.186199e-39
-0.018285705 0.06656 0.76800001 7.5539138e-39
-0.016822839 0.066560015 0.76799995 7.920911e-39
-0.015339984 0.066473335 0.76699996 8.2875468e-39
-0.013879056 0.066473335 0.76700002 8.6574097e-39
-0.012385731 0.06629999 0.76499999 9.0265075e-39
-0.010928576 0.066300005 0.76499999 9.3023335e-39
-0.009471437 0.066300005 0.76499999 9.6711693e-39
-0.0079933601 0.06612666 0.76300001 9.7655733e-39
-0.0065400298 0.066126667 0.76300001 9.9481877e-39
-0.0050867 0.06612666 0.76300001 1.1247176e-38
-0.0036095388 0.065693334 0.75800002 1.2571992e-38
-0.0021657438 0.065693319 0.75800002 1.551756e-38
-0.00071999035 0.065519989 0.75600004 1.8458469e-38
0.00071999361 0.065519989 0.75600004 1.8182984e-38
0.0021571249 0.065433338 0.75500005 1.781565e-38
0.0035952248 0.065433353 0.75500005 1.8182999e-38
0.0050333049 0.065433331 0.75500005 1.8642174e-38
0.0064714053 0.065433323 0.75500005 1.8550334e-38
0.0079095336 0.065433338 0.75500005 1.8550336e-38
0.009347613 0.065433338 0.75500005 1.7999324e-38
0.010785713 0.065433346 0.75500005 1.7356472e-38
0.012223813 0.065433338 0.75500005 1.8366658e-38
0.013679989 0.065519989 0.75600004 1.9468682e-38
0.015120021 0.065520003 0.75600004 1.8458491e-38
0.016560007 0.065520003 0.75600004 1.7448285e-38
0.018047618 0.065693334 0.75800002 1.3374145e-38
0.019491412 0.065693319 0.75800002 9.4000993e-39
0.020935226 0.065693319 0.75800002 1.1438766e-38
0.022438062 0.065866664 0.76000005 1.3563881e-38
0.023885714 0.065866657 0.76000005 1.4123847e-38
0.025366656 0.065953329 0.76100004 1.47793e-38
0.026886633 0.06612666 0.76300001 1.5873483e-38
0.028414277 0.066300005 0.76499999 1.6897314e-38
0.029949548 0.066473335 0.76699996 2.02034e-38
0.031410486 0.066473328 0.76700002 2.3417638e-38
0.032871418 0.066473335 0.76700002 2.3415839e-38
0.034332383 0.066473335 0.76700002 2.3415487e-38
0.035933338 0.066733316 0.77000004 2.3324376e-38
0.037400011 0.06673333 0.77000004 2.3325817e-38
-0.019877169 0.06846571 0.77300012 6.8202808e-39
