# .PCD v0.7 - Point Cloud Data file format
VERSION 0.7
FIELDS x y z rgb
SIZE 4 4 4 4
TYPE F F F F
COUNT 1 1 1 1
WIDTH 973
HEIGHT 1
VIEWPOINT 0 0 0 1 0 0 0
POINTS 973
DATA ascii
-0.0064285574 0.027857147 0.75000006 1.6559562e-38
-0.0049999999 0.027857162 0.75000006 1.6374105e-38
-0.0035714442 0.02785717 0.75000006 1.6194393e-38
-0.0021342672 0.027745716 0.74700004 1.5353894e-38
-0.00071137963 0.027745716 0.74700004 1.4609139e-38
0.00071144471 0.027745716 0.74700004 1.6556312e-38
0.0021343101 0.027745716 0.74700004 1.8493236e-38
0.0035571735 0.027745724 0.74700004 2.016649e-38
0.0049800202 0.027745724 0.74699998 2.1856482e-38
0.0064028855 0.027745716 0.74700004 2.0384966e-38
0.0078257462 0.027745709 0.74700004 1.9009575e-38
0.0092485724 0.027745724 0.74700004 1.6411265e-38
0.010685725 0.027782872 0.74800003 1.3894042e-38
0.012110473 0.027782872 0.74800003 1.1520311e-38
0.013535243 0.027782887 0.74800003 9.2304735e-39
0.014959993 0.02778288 0.74800003 6.4602928e-39
0.016384779 0.027782872 0.74800003 3.6822312e-39
0.017809527 0.02778288 0.74800003 6.3461402e-39
0.019234275 0.02778288 0.74800003 9.0241379e-39
0.020714276 0.027857162 0.75000006 1.6051766e-38
0.022142893 0.027857155 0.75000006 2.3050306e-38
0.023634279 0.027931452 0.75200003 1.8712183e-38
0.025100037 0.027968578 0.75300002 1.4454614e-38
0.026604749 0.028042875 0.755 1.1046163e-38
0.028080042 0.028080031 0.75600004 7.6565743e-39
0.029598126 0.028154291 0.75800002 1.4109167e-38
0.031123839 0.028228581 0.76000005 2.0559562e-38
0.032614283 0.028265722 0.76100004 2.1943221e-38
0.034063838 0.028265715 0.7610001 2.3417617e-38
0.03560666 0.028339997 0.76300001 2.3138888e-38
0.037059989 0.028340004 0.76300001 2.2953751e-38
0.038513351 0.028340004 0.76300007 2.3137391e-38
-0.023917098 0.029715247 0.76100004 1.2878237e-38
-0.022467578 0.029715247 0.76100004 1.2877503e-38
-0.020990411 0.029676184 0.76000005 1.2876436e-38
-0.019542815 0.029676192 0.76000005 1.3150876e-38
-0.018047577 0.029598102 0.75800002 1.3334552e-38
-0.016603749 0.029598102 0.75800002 1.3980274e-38
-0.015119959 0.029520012 0.75600004 1.4625279e-38
-0.013661894 0.029480971 0.75500005 1.5269927e-38
-0.012191391 0.029402852 0.75300008 1.5820218e-38
-0.010742842 0.029363818 0.75200003 1.582165e-38
-0.0092857089 0.029285729 0.75000006 1.5822368e-38
-0.0078571532 0.029285721 0.75000006 1.5732327e-38
-0.0064285742 0.029285729 0.75 1.5636885e-38
-0.0049999794 0.029285736 0.75000006 1.5172666e-38
-0.0035714228 0.029285721 0.75000006 1.46156e-38
-0.0021342561 0.029168569 0.74700004 1.386769e-38
-0.00071143179 0.029168591 0.74700004 1.3073483e-38
0.0007095653 0.029090479 0.74500006 1.8236746e-38
0.0021286048 0.029090494 0.74500006 2.3393946e-38
0.003547661 0.029090479 0.74500006 2.3417686e-38
0.0049800053 0.029168576 0.74700004 2.3415531e-38
0.006402893 0.029168583 0.74700004 1.9000609e-38
0.0078257173 0.029168576 0.74699998 1.4479131e-38
0.0092609785 0.029207632 0.74800003 1.2538016e-38
0.010685725 0.029207624 0.74800003 1.0508295e-38
0.012110475 0.029207632 0.74800003 9.3126274e-39
0.013535222 0.029207639 0.74800003 8.1180065e-39
0.014959993 0.029207632 0.74799997 4.1636557e-39
0.01638478 0.029207632 0.74800003 1.9392149e-40
0.017809531 0.029207639 0.74800003 7.531074e-39
0.019234277 0.029207632 0.74800003 1.492927e-38
0.020714298 0.029285721 0.75000006 1.9193222e-38
0.022142855 0.029285729 0.75000006 2.3315755e-38
0.023634285 0.029363826 0.75200003 1.7323471e-38
0.025100034 0.029402867 0.75300002 1.1330401e-38
0.026604766 0.029480971 0.75500005 1.0038878e-38
0.028080028 0.02952002 0.75600004 8.7622226e-39
0.029598117 0.029598109 0.75800002 1.493644e-38
0.031123852 0.029676192 0.76000005 2.1019124e-38
0.032614287 0.029715247 0.76100004 2.2223765e-38
0.03406385 0.02971524 0.7610001 2.3416198e-38
0.035513368 0.029715233 0.7610001 2.3415846e-38
0.037060007 0.029793337 0.76300001 2.3415461e-38
0.03851334 0.029793344 0.76300001 2.3417586e-38
-0.02397996 0.031246662 0.76300001 1.2418336e-38
-0.022467574 0.031164773 0.76100004 1.2510168e-38
-0.020990459 0.031123817 0.76000005 1.269349e-38
-0.019542823 0.031123817 0.76000005 1.2876093e-38
-0.018047586 0.031041913 0.75800002 1.3150523e-38
-0.016603757 0.03104192 0.75800002 1.3795881e-38
-0.015119951 0.030960009 0.75600004 1.444017e-38
-0.013679933 0.030960009 0.75600004 1.4533445e-38
-0.012223819 0.030919068 0.755 1.4625278e-38
-0.010757108 0.030837148 0.75300008 1.4719263e-38
-0.0093104737 0.0307962 0.75200003 1.48129e-38
-0.0078781098 0.0307962 0.75200003 1.4075712e-38
-0.006445705 0.030796207 0.75200003 1.3337752e-38
-0.0049999943 0.030714311 0.75000006 1.4154178e-38
-0.0035714014 0.030714288 0.75000006 1.4972887e-38
-0.0021342486 0.030591428 0.74700004 1.6571838e-38
-0.00071142433 0.030591428 0.74700004 1.825294e-38
0.00071144098 0.030591436 0.74700004 2.0831229e-38
0.0021343268 0.030591436 0.74700004 2.341769e-38
0.0035571512 0.030591428 0.74699998 2.0932751e-38
0.0049800146 0.030591436 0.74700004 1.85504e-38
0.0064028781 0.030591421 0.74700004 1.5581521e-38
0.0078361677 0.030632392 0.74800003 1.2602589e-38
0.0092609543 0.030632392 0.74800003 1.023135e-38
0.010685726 0.030632399 0.74800003 7.9418927e-39
0.012110474 0.030632399 0.74800003 7.2907667e-39
0.013535222 0.030632399 0.74800003 6.7346951e-39
0.01496001 0.030632399 0.74800003 5.4338949e-39
0.016428551 0.030714296 0.75000006 4.2250018e-39
0.017857166 0.030714303 0.75000006 1.1617434e-38
0.019285725 0.030714311 0.75000006 1.9101366e-38
0.020714281 0.030714303 0.75000006 1.9834312e-38
0.022142874 0.030714296 0.75000006 2.0472072e-38
0.02363429 0.030796207 0.75200003 1.5842923e-38
0.025100045 0.030837148 0.75300008 1.1309942e-38
0.026604783 0.030919053 0.75500005 1.0400516e-38
0.028080041 0.030960016 0.75600004 9.5794515e-39
0.029598147 0.031041913 0.75800002 1.5122657e-38
0.031123867 0.031123817 0.76000011 2.0662569e-38
0.032614291 0.031164758 0.76100004 2.1025972e-38
0.034063812 0.031164773 0.76100004 2.1301487e-38
0.035513368 0.031164758 0.7610001 2.1208223e-38
0.03706 0.03124667 0.76300001 2.10274e-38
0.038614299 0.031328581 0.76500005 2.0839043e-38
-0.023979975 0.03270001 0.76300001 1.1869131e-38
-0.022467595 0.032614276 0.7610001 1.2143194e-38
-0.020990446 0.032571442 0.76000005 1.2417629e-38
-0.019568551 0.032614283 0.76100004 1.2692422e-38
-0.018095214 0.032571435 0.76000005 1.2875377e-38
-0.016603788 0.032485723 0.75800002 1.3520019e-38
-0.015119942 0.032400012 0.75600004 1.4163945e-38
-0.013679961 0.032400012 0.75600004 1.37984e-38
-0.012223802 0.032357164 0.75500005 1.3430682e-38
-0.010785705 0.032357149 0.75500005 1.3616489e-38
-0.0093104681 0.032228589 0.75200003 1.3705481e-38
-0.0078781042 0.032228597 0.75200003 1.2419092e-38
-0.0064457003 0.032228589 0.75200003 1.1036194e-38
-0.0049999962 0.032142878 0.75000006 1.3133001e-38
-0.0035714181 0.03214287 0.75000006 1.5291549e-38
-0.0021371543 0.032057159 0.74800003 1.9376848e-38
-0.0007123836 0.032057159 0.74800003 2.3412268e-38
0.0007114503 0.032014295 0.74700004 2.341769e-38
0.002134297 0.032014295 0.74699998 2.3316162e-38
0.0035571605 0.032014295 0.74700004 1.8529228e-38
0.0049800258 0.032014295 0.74700004 1.3657276e-38
0.0064114183 0.032057166 0.74800003 1.2172833e-38
0.0078362059 0.032057159 0.74800003 1.0689804e-38
0.0092609553 0.032057159 0.74800003 8.0258263e-39
0.010685725 0.032057166 0.74800003 5.2685922e-39
0.012110474 0.032057159 0.74800003 5.264988e-39
0.013535223 0.032057166 0.74800003 5.250982e-39
0.014960011 0.032057159 0.74800003 6.7045489e-39
0.016384782 0.032057159 0.74800003 8.2145041e-39
0.017809531 0.032057166 0.74800003 1.5795288e-38
0.019285746 0.032142878 0.75000006 2.3233988e-38
0.020714303 0.03214287 0.75000006 2.0478947e-38
0.022142859 0.032142878 0.75000006 1.759357e-38
0.023634294 0.032228582 0.75200003 1.4449907e-38
0.025100041 0.03227143 0.75300008 1.1230261e-38
0.02660476 0.032357164 0.755 1.076568e-38
0.028080048 0.032399997 0.75600004 1.0324875e-38
0.029598139 0.032485709 0.75800002 1.5312409e-38
0.031123839 0.03257145 0.76000005 2.0282313e-38
0.032614298 0.032614283 0.76100004 1.973276e-38
0.034063816 0.032614291 0.76100004 1.918282e-38
0.035513375 0.032614283 0.7610001 1.89048e-38
0.037060022 0.032700002 0.76300007 1.8627849e-38
-0.023979988 0.03415335 0.76300001 1.1502879e-38
-0.022526683 0.03415335 0.76300001 1.1776219e-38
-0.020990435 0.034019046 0.76000005 1.2049574e-38
-0.019568549 0.034063809 0.76100004 1.2232168e-38
-0.018095201 0.03401906 0.76000005 1.2505525e-38
-0.016603796 0.033929527 0.75800002 1.2692067e-38
-0.015119934 0.033840008 0.75600004 1.2967931e-38
-0.013679953 0.033840008 0.75600004 1.2509829e-38
-0.012223785 0.033795245 0.75500005 1.2141381e-38
-0.010785689 0.033795245 0.75500005 1.2504387e-38
-0.0093104858 0.033660963 0.75200003 1.2871415e-38
-0.0078780986 0.033660963 0.75200003 1.462853e-38
-0.0064456956 0.033660971 0.75200003 1.6275192e-38
-0.0050133308 0.033660971 0.75200003 1.7866967e-38
-0.0035713967 0.033571437 0.75000006 1.93769e-38
-0.0021371525 0.033481918 0.74800003 2.0019777e-38
-0.00071238173 0.033481926 0.74800003 2.057079e-38
0.00071145961 0.033437148 0.74700004 1.9639879e-38
0.0021342821 0.033437148 0.74700004 1.8807604e-38
0.0035571717 0.03343714 0.74700004 1.5950644e-38
0.0049800333 0.03343714 0.74700004 1.3181942e-38
0.006411422 0.033481926 0.74800003 1.0514401e-38
0.0078362068 0.033481918 0.74800003 7.7539127e-39
0.0092609562 0.033481918 0.74800003 5.4504499e-39
0.010685705 0.033481918 0.74800003 3.1470221e-39
0.012142886 0.033571437 0.75000006 4.1475198e-39
0.013571443 0.033571452 0.75000006 5.2387879e-39
0.014960011 0.033481918 0.74800003 1.0510365e-38
0.016428554 0.033571444 0.75000006 1.5775548e-38
0.017857151 0.033571437 0.75000006 1.9463741e-38
0.019285729 0.033571444 0.75000006 2.3234012e-38
0.020714287 0.033571452 0.75000006 1.8057496e-38
0.022201896 0.033660963 0.75199997 1.2952258e-38
0.023665749 0.033705719 0.75300002 1.2424443e-38
0.025166681 0.033795252 0.75500005 1.197674e-38
0.026640035 0.033840016 0.75600004 1.1328863e-38
0.028080059 0.033840008 0.75600004 1.0693271e-38
0.029676218 0.034019053 0.76000005 1.5031144e-38
0.031123849 0.03401906 0.76000005 1.936037e-38
0.032614298 0.034063816 0.76100004 1.8994864e-38
0.03406382 0.034063816 0.76100004 1.8720421e-38
0.035513338 0.034063824 0.76100004 1.8259436e-38
0.037060011 0.034153342 0.76300001 1.7700894e-38
-0.022585714 0.035700008 0.76500005 1.1317398e-38
-0.021073328 0.035606675 0.76300001 1.1590752e-38
-0.019619999 0.035606675 0.76300001 1.1865184e-38
-0.01809519 0.035466664 0.76000011 1.2139621e-38
-0.016603768 0.03537333 0.75800002 1.1957752e-38
-0.015159978 0.035373338 0.75800002 1.1682216e-38
-0.013679966 0.035280019 0.75600004 1.1223727e-38
-0.012223806 0.035233349 0.755 1.0758476e-38
-0.01078571 0.035233349 0.755 1.1388077e-38
-0.0093228314 0.035140015 0.75300002 1.2063275e-38
-0.0078885434 0.035140015 0.75300002 1.6856362e-38
-0.0064456919 0.035093352 0.75200003 2.1552929e-38
-0.0050133271 0.035093352 0.75200003 2.2499307e-38
-0.0035809614 0.035093352 0.75200003 2.3417659e-38
-0.0021428578 0.035000019 0.75 2.0570756e-38
-0.00071240409 0.034906685 0.74800003 1.7701628e-38
0.00071240583 0.034906685 0.74800003 1.5947082e-38
0.0021371525 0.034906693 0.74800003 1.4207575e-38
0.0035571568 0.034860007 0.74700004 1.3467497e-38
0.0049866512 0.034906685 0.74800003 1.2720941e-38
0.0064114351 0.034906678 0.74800003 8.7644479e-39
0.0078362077 0.034906678 0.74800003 4.8079699e-39
0.0092609562 0.034906693 0.74800003 2.8747414e-39
0.010685704 0.034906685 0.74800003 9.3183265e-40
0.012142845 0.035000019 0.75000006 3.0311207e-39
0.013571425 0.035000019 0.75 5.1796181e-39
0.01500002 0.035000011 0.75000006 1.4230128e-38
0.016428577 0.035000019 0.75000006 2.3228246e-38
0.017857132 0.035000034 0.75000006 2.3234019e-38
0.019285727 0.035000004 0.75000006 2.3123084e-38
0.020714309 0.035000019 0.75000006 1.5748533e-38
0.022201879 0.035093352 0.75200003 8.3840934e-39
0.023665745 0.035140008 0.75300002 1.0502029e-38
0.0251667 0.035233349 0.75500005 1.2616382e-38
0.026640045 0.035280012 0.75600004 1.1788053e-38
0.028154334 0.035373345 0.75800002 1.0973456e-38
0.029676229 0.035466664 0.76000005 1.4666689e-38
0.031123865 0.035466664 0.76000005 1.8348386e-38
0.032614302 0.035513341 0.76100004 1.8349132e-38
0.03406382 0.035513334 0.76100004 1.8259084e-38
0.035513341 0.035513349 0.76100004 1.7527265e-38
0.037059996 0.035606667 0.76300001 1.6783972e-38
0.038513362 0.03560666 0.76300007 1.6599227e-38
-0.022585707 0.037157141 0.76500005 1.0674545e-38
-0.021073341 0.03706 0.76300001 1.0947542e-38
-0.019619975 0.037059993 0.76300007 1.094575e-38
-0.01811902 0.036962867 0.76100004 1.0943611e-38
-0.016603777 0.036817156 0.75800002 1.0852147e-38
-0.015159949 0.036817141 0.75800008 1.0854961e-38
-0.013679959 0.036720015 0.75600004 1.1589229e-38
-0.012239978 0.036720015 0.75600004 1.2320765e-38
-0.010785692 0.036671445 0.75500005 1.5012056e-38
-0.0093228351 0.036574304 0.75300002 1.7697611e-38
-0.0078885471 0.036574289 0.75300002 1.9635566e-38
-0.0064457497 0.036525734 0.75200003 2.1580976e-38
-0.0050133225 0.036525734 0.75200003 2.0013678e-38
-0.0035809577 0.036525719 0.75200003 1.8550375e-38
-0.0021428559 0.036428593 0.75000006 1.7058015e-38
-0.00071236497 0.036331438 0.74800003 1.5554595e-38
0.00071238348 0.036331445 0.74800003 1.4657073e-38
0.0021371543 0.03633146 0.74800003 1.3750187e-38
0.0035619028 0.036331445 0.74800003 1.1166226e-38
0.0049866512 0.036331452 0.74800003 8.4903805e-39
0.0064286031 0.036428601 0.75000006 6.4545139e-39
0.0078571616 0.036428593 0.75000006 4.4298323e-39
0.0092609571 0.03633146 0.74800003 2.4923228e-39
0.010685706 0.036331445 0.74800003 5.5155948e-40
0.012142868 0.036428586 0.75000006 7.1898803e-39
0.013571424 0.036428593 0.75000006 1.3921948e-38
0.015000004 0.036428586 0.75000006 1.86322e-38
0.016428599 0.036428586 0.75000006 2.3325854e-38
0.017904749 0.036525726 0.75200003 1.9363296e-38
0.019337151 0.036525726 0.75200003 1.5489536e-38
0.020769516 0.036525726 0.75200003 1.2338979e-38
0.022231491 0.036574297 0.75300008 9.2101897e-39
0.02366578 0.036574304 0.75300008 1.1327144e-38
0.025166679 0.036671445 0.755 1.3534759e-38
0.026604773 0.036671445 0.755 1.2986232e-38
0.028154323 0.036817156 0.75800002 1.2531804e-38
0.02959813 0.036817148 0.75800002 1.5490355e-38
0.031123837 0.036914296 0.76000005 1.8538157e-38
0.032571472 0.036914296 0.76000005 1.8074327e-38
0.034063827 0.036962859 0.76100004 1.7612642e-38
0.035606693 0.037059993 0.76300007 1.7153108e-38
0.037060026 0.037060007 0.76300001 1.6777873e-38
0.038614292 0.037157148 0.76500005 1.6966923e-38
0.040071465 0.037157141 0.7650001 1.7150593e-38
-0.024105687 0.038715243 0.76700002 9.8501781e-39
-0.022644741 0.038715228 0.76700002 1.0032783e-38
-0.021128559 0.038614288 0.76500005 1.0213211e-38
-0.019619988 0.03851334 0.76300001 9.9351795e-39
-0.018166659 0.038513344 0.76300001 9.6561221e-39
-0.016647566 0.038361907 0.76000005 9.8355247e-39
-0.015159959 0.038260963 0.75800002 9.9381222e-39
-0.013716169 0.038260967 0.75800002 1.1957786e-38
-0.012239969 0.038160011 0.75600004 1.3916519e-38
-0.010785715 0.038109545 0.755 1.8642157e-38
-0.0093228016 0.038008578 0.75300008 2.3227157e-38
-0.0078885509 0.038008578 0.75300002 2.2407494e-38
-0.0064542629 0.038008578 0.75300002 2.1473349e-38
-0.0050199768 0.038008567 0.75300002 1.7607283e-38
-0.003580953 0.037958115 0.75200003 1.3657989e-38
-0.0021428745 0.03785716 0.75000006 1.3555742e-38
-0.00071427791 0.037857153 0.75000006 1.3461031e-38
0.00071430014 0.037857167 0.75000006 1.3376724e-38
0.0021428578 0.037857167 0.75000006 1.3279475e-38
0.0035619028 0.037756208 0.74800003 8.7723302e-39
0.0050000101 0.037857149 0.75000006 4.2504914e-39
0.0064285658 0.037857164 0.75000006 4.1331691e-39
0.0078571439 0.037857171 0.75 4.0466907e-39
0.0092857387 0.037857167 0.75000006 2.1127405e-39
0.010714296 0.037857153 0.75000006 1.153661e-40
0.012142853 0.037857167 0.75000006 1.1438443e-38
0.013571447 0.037857153 0.75000006 2.2663587e-38
0.015000003 0.03785716 0.75000006 2.3050348e-38
0.016428584 0.037857164 0.75000006 2.3411146e-38
0.0179286 0.038008586 0.75300002 1.5586386e-38
0.019337157 0.037958112 0.75200003 7.7462462e-39
0.020797176 0.038008574 0.75300008 8.9084971e-39
0.022290481 0.03810953 0.75500005 1.0034976e-38
0.023728576 0.038109533 0.75500005 1.2245185e-38
0.025166672 0.038109541 0.75500005 1.4369217e-38
0.026640061 0.038160007 0.75600004 1.4182654e-38
0.028080042 0.038160019 0.75600004 1.4009448e-38
0.029676253 0.038361907 0.76000011 1.6407994e-38
0.031123852 0.038361918 0.76000005 1.8715734e-38
0.032614309 0.038412388 0.76100004 1.7796675e-38
0.034063831 0.038412388 0.76100004 1.6877965e-38
0.035606679 0.038513336 0.76300001 1.6878326e-38
0.037060007 0.038513344 0.76300001 1.6785057e-38
-0.024105696 0.040176194 0.76700002 9.8509012e-39
-0.022674283 0.04022859 0.76800001 9.7572846e-39
-0.021128552 0.040071432 0.7650001 9.6618338e-39
-0.019671416 0.040071443 0.76500005 1.0027711e-38
-0.018166672 0.039966673 0.76300001 1.0389733e-38
-0.016647592 0.03980954 0.76000005 1.0679289e-38
-0.015159966 0.039704781 0.75800002 1.1053504e-38
-0.013679942 0.039600007 0.7560001 1.2166707e-38
-0.012239961 0.039600007 0.75600004 1.3296743e-38
-0.010799942 0.039600011 0.7560001 1.5596965e-38
-0.0093476232 0.039547633 0.75500005 1.7906841e-38
-0.0078885173 0.039442856 0.75300008 1.770595e-38
-0.0064542294 0.03944286 0.75300008 1.7594008e-38
-0.0050199805 0.039442867 0.75300002 1.5760869e-38
-0.0035856916 0.039442867 0.75300002 1.3918795e-38
-0.0021428522 0.039285731 0.75000006 1.2360836e-38
-0.00071429653 0.039285731 0.75000006 1.0897528e-38
0.00071430014 0.039285723 0.75000012 1.051795e-38
0.0021428782 0.039285734 0.75000006 1.0239523e-38
0.0035714339 0.039285734 0.75000006 6.9197618e-39
0.0049999896 0.039285727 0.75000006 3.5950564e-39
0.0064285863 0.039285734 0.75000006 2.851072e-39
0.0078571429 0.039285719 0.75000006 2.1134664e-39
0.009285721 0.039285734 0.75000006 6.4504893e-39
0.010714278 0.039285734 0.75 1.0879159e-38
0.012142872 0.039285738 0.75000006 1.6966964e-38
0.01357143 0.039285731 0.75000006 2.3050348e-38
0.014999986 0.039285738 0.75000006 2.2222394e-38
0.016472394 0.039390493 0.75200003 2.1396058e-38
0.017928595 0.039442863 0.75300002 1.6673529e-38
0.019362884 0.03944286 0.75300002 1.193942e-38
0.020797173 0.039442867 0.75300002 1.3157039e-38
0.022290496 0.039547626 0.75500005 1.4459642e-38
0.023728555 0.039547641 0.755 1.5662515e-38
0.025166651 0.039547645 0.755 1.6871422e-38
0.026640069 0.039600004 0.75600004 1.6214921e-38
0.028154321 0.039704774 0.75800002 1.5577851e-38
0.029676229 0.039809529 0.76000005 1.7240614e-38
0.031164797 0.039861906 0.76100004 1.8813313e-38
0.032614317 0.039861906 0.76100004 1.7982506e-38
0.034153339 0.039966661 0.76300001 1.7061284e-38
0.035699993 0.040071446 0.76500005 1.6877974e-38
0.03715717 0.04007142 0.7650001 1.6695026e-38
-0.02264476 0.041637149 0.76700002 9.482881e-39
-0.0211838 0.041637149 0.76700002 9.0258461e-39
-0.019671408 0.041528579 0.76500005 1.0124634e-38
-0.018166646 0.041420005 0.76300001 1.1147423e-38
-0.016647579 0.04125715 0.76000005 1.162243e-38
-0.015159976 0.041148581 0.75800002 1.2077328e-38
-0.013716146 0.041148577 0.75800002 1.2358242e-38
-0.012239953 0.041040011 0.75600004 1.2543366e-38
-0.010799971 0.041040003 0.75600004 1.2542309e-38
-0.0093476065 0.04098573 0.75500005 1.2553804e-38
-0.0079095485 0.04098573 0.755 1.3098375e-38
-0.0064542331 0.040877145 0.75300008 1.3649367e-38
-0.0050199451 0.040877141 0.75300008 1.3923777e-38
-0.0035856962 0.040877156 0.75300002 1.4103134e-38
-0.0021486022 0.040822875 0.75200003 1.1254789e-38
-0.00071427418 0.040714301 0.75000006 8.3067221e-39
0.00071428152 0.040714301 0.75000006 7.741713e-39
0.0021428633 0.040714316 0.75000006 7.1027825e-39
0.0035714563 0.04071429 0.75000006 4.9808509e-39
0.0050000139 0.040714297 0.75000006 2.8643339e-39
0.0064285696 0.040714305 0.75000006 1.4699453e-39
0.0078571253 0.040714312 0.75000006 1.1681644e-40
0.0092857219 0.040714301 0.75000006 1.0879876e-38
0.0107143 0.040714301 0.75000006 2.1556886e-38
0.012142857 0.040714301 0.75000006 2.2499335e-38
0.013607607 0.040822871 0.75200003 2.341661e-38
0.015039972 0.040822882 0.75200003 2.1392639e-38
0.016494341 0.040877149 0.75300008 1.9356741e-38
0.017928628 0.040877152 0.75300008 1.7772846e-38
0.01936288 0.040877152 0.75300002 1.6114449e-38
0.020797169 0.040877156 0.75300002 1.7504559e-38
0.022290474 0.040985733 0.75500005 1.8791342e-38
0.023728574 0.040985737 0.75500005 1.9072958e-38
0.02520006 0.041040018 0.75600004 1.9341638e-38
0.026640078 0.04104 0.75600004 1.8227764e-38
0.028154314 0.041148584 0.75800002 1.7139759e-38
0.02967624 0.041257154 0.76000005 1.8070702e-38
0.031246671 0.041420009 0.76300001 1.8901196e-38
0.032699995 0.041420016 0.76300001 1.8074346e-38
0.034242887 0.041528583 0.76500005 1.7244955e-38
0.035700001 0.041528575 0.76500005 1.6876895e-38
0.0372543 0.041637141 0.76700002 1.6508839e-38
-0.02264473 0.043098096 0.76700002 1.059677e-38
-0.021183809 0.0430981 0.76700002 1.059965e-38
-0.019722864 0.043098103 0.76700002 1.0784406e-38
-0.018166659 0.042873342 0.76300001 1.1075726e-38
-0.016647566 0.042704772 0.76000005 1.1253326e-38
-0.015159946 0.042592388 0.75800002 1.1530622e-38
-0.013716157 0.042592391 0.75800002 1.1985848e-38
-0.012239944 0.042480007 0.75600004 1.2435707e-38
-0.010799963 0.042480018 0.75600004 1.2723777e-38
-0.0093476269 0.042423826 0.75500005 1.2911787e-38
-0.0079095308 0.042423829 0.75500005 1.2362241e-38
-0.0064542368 0.042311441 0.75300002 1.1725825e-38
-0.0050199488 0.042311437 0.75300008 1.1622484e-38
-0.0035856608 0.04231143 0.75300008 1.152918e-38
-0.0021485966 0.04225526 0.75200003 1.0144797e-38
-0.00071619457 0.042255245 0.75200003 8.7504335e-39
0.00071619259 0.04225526 0.75200003 8.751179e-39
0.0021485575 0.042255249 0.75199997 8.8469549e-39
0.0035809614 0.042255249 0.75200003 1.0418196e-38
0.0050133262 0.042255253 0.75200003 1.1972924e-38
0.0064285919 0.042142875 0.75000006 1.1148537e-38
0.0078571485 0.042142868 0.75000006 1.0340745e-38
0.0092857042 0.042142879 0.75000006 1.641631e-38
0.010742846 0.042255253 0.75199997 2.2499335e-38
0.012175249 0.042255253 0.75200003 2.2588659e-38
0.013607612 0.042255256 0.75200003 2.2774835e-38
0.015060049 0.042311434 0.75300002 2.1380433e-38
0.016494337 0.042311441 0.75300002 1.9987827e-38
0.017976204 0.042423818 0.75500005 1.9159148e-38
0.0194143 0.042423826 0.75500005 1.8342278e-38
0.020852396 0.042423822 0.75500005 1.9623632e-38
0.022290492 0.042423829 0.75500005 2.0822494e-38
0.023728589 0.042423837 0.75500005 1.9896583e-38
0.025200045 0.042480014 0.75600004 1.896926e-38
0.026640026 0.042480003 0.75600004 1.8053056e-38
0.028154304 0.042592395 0.75800002 1.7142259e-38
0.029715285 0.04276095 0.7610001 1.7883066e-38
0.031246657 0.042873338 0.76300001 1.8533845e-38
0.032785758 0.042985708 0.7650001 1.7797048e-38
0.034242895 0.042985715 0.76500005 1.7151326e-38
0.035700008 0.042985719 0.76500005 1.6875815e-38
-0.022674259 0.044617165 0.76800001 1.1716015e-38
-0.021211414 0.044617146 0.76800001 1.2165877e-38
-0.019671392 0.044442862 0.7650001 1.152053e-38
-0.018166635 0.044326663 0.76300001 1.0880571e-38
-0.01666948 0.044210482 0.76100004 1.0968121e-38
-0.015199957 0.04415239 0.76000005 1.0974951e-38
-0.013716166 0.044036206 0.75800002 1.1710009e-38
-0.012272337 0.044036195 0.75800002 1.2355728e-38
-0.010799955 0.043920014 0.75600004 1.2821721e-38
-0.0093476102 0.043861926 0.75500005 1.3275525e-38
-0.007909514 0.043861929 0.75500005 1.1528505e-38
-0.0064714197 0.043861911 0.75500005 9.7782313e-39
-0.0050199535 0.043745715 0.75300002 9.310426e-39
-0.0035856655 0.043745723 0.75300002 8.8573427e-39
-0.0021485928 0.043687638 0.75200003 9.0449556e-39
-0.00071618898 0.04368763 0.75200003 9.2164353e-39
0.0007171593 0.043745723 0.75300002 9.8488847e-39
0.002148563 0.043687642 0.75199997 1.051328e-38
0.003580967 0.043687634 0.75200003 1.5871329e-38
0.0050133299 0.043687645 0.75200003 2.108943e-38
0.0064456947 0.043687634 0.75200003 2.0809956e-38
0.0078571308 0.043571446 0.75000006 2.0540952e-38
0.0093104634 0.04368763 0.75200003 2.1944356e-38
0.010742826 0.043687634 0.75200003 2.3310409e-38
0.012175254 0.043687638 0.75200003 2.2672585e-38
0.013625735 0.043745719 0.75300002 2.2017518e-38
0.015060022 0.043745723 0.75300002 2.1365682e-38
0.016538104 0.043861922 0.75500005 2.0624895e-38
0.017976223 0.043861918 0.75500005 2.0624534e-38
0.019414319 0.043861922 0.75500005 2.0532677e-38
0.020852378 0.043861933 0.755 2.1732976e-38
0.022290474 0.043861937 0.755 2.2838951e-38
0.02372857 0.043861922 0.755 2.0721356e-38
0.025200054 0.04392001 0.7560001 1.8606264e-38
0.026640037 0.043920014 0.75600004 1.787301e-38
0.028154332 0.044036195 0.75800002 1.7140491e-38
0.029715249 0.044210486 0.76100004 1.7694028e-38
0.031246683 0.044326667 0.76300001 1.8164714e-38
0.032700006 0.044326674 0.76300001 1.7612654e-38
0.034332391 0.04455905 0.76700002 1.6966922e-38
0.035606664 0.04432667 0.76300001 1.6782518e-38
-0.022674277 0.046080019 0.76800001 1.0792638e-38
-0.021211432 0.046080019 0.76800001 1.1245731e-38
-0.019671421 0.045900006 0.76500005 1.1154269e-38
-0.018166648 0.045780003 0.76300001 1.1151051e-38
-0.016713319 0.045780011 0.76300001 1.1063889e-38
-0.015199945 0.045600016 0.76000005 1.1068588e-38
-0.013752348 0.045600023 0.76000005 1.0611239e-38
-0.012272347 0.045480013 0.75800002 1.0251422e-38
-0.010799946 0.045360014 0.75600004 9.8733094e-39
-0.0093599651 0.045360018 0.75600004 9.5027192e-39
-0.0079095364 0.045300018 0.755 9.0377823e-39
-0.0064714393 0.045300022 0.755 8.4770738e-39
-0.0050333431 0.045300022 0.75500005 8.4817261e-39
-0.0035952488 0.045300014 0.75500005 8.4839051e-39
-0.0021485891 0.045120023 0.75200003 9.1321598e-39
-0.00071709423 0.045180015 0.75300008 9.7728377e-39
0.00071719283 0.045180004 0.75300008 1.1242186e-38
0.0021485686 0.045120023 0.75199997 1.2812408e-38
0.0035857297 0.045180015 0.75300002 1.6873309e-38
0.0050200187 0.045180023 0.75300002 2.0917277e-38
0.0064543299 0.045180012 0.75300002 1.9614698e-38
0.007888617 0.045180015 0.75300002 1.82318e-38
0.0093229059 0.04518 0.75300002 1.9252409e-38
0.010757193 0.045180008 0.75300008 2.0248251e-38
0.012191481 0.045180008 0.75300008 1.9711229e-38
0.01362573 0.045180019 0.75300002 1.9236952e-38
0.015060019 0.045180012 0.75300002 1.9700402e-38
0.016538082 0.045300014 0.75500005 2.0061646e-38
0.017976178 0.045300018 0.75500005 1.9877974e-38
0.019414298 0.045300025 0.755 1.9777167e-38
0.020852394 0.045300029 0.75500005 2.1270567e-38
0.022290489 0.045300018 0.75500005 2.2843637e-38
0.023728585 0.045300022 0.75500005 2.0816467e-38
0.025200063 0.045360006 0.7560001 1.8881454e-38
0.026710538 0.045479998 0.75800002 1.7593952e-38
0.028228641 0.045600004 0.76000005 1.6311127e-38
0.029715251 0.045660011 0.76100004 1.7423916e-38
0.031246668 0.045780011 0.76300001 1.8542822e-38
0.032699995 0.045780018 0.76300001 1.7430054e-38
0.034332383 0.046020005 0.76700002 1.6229351e-38
0.035700027 0.045899998 0.7650001 1.7975277e-38
0.037302885 0.046080016 0.76800001 1.9723773e-38
-0.024262875 0.047790498 0.77200001 9.4086794e-39
-0.022733297 0.047666676 0.77000004 9.8675038e-39
-0.021266643 0.047666676 0.7700001 1.0239155e-38
-0.019800004 0.047666684 0.77000004 1.0883801e-38
-0.018214278 0.047357146 0.76500005 1.1431944e-38
-0.016713295 0.047233328 0.76300001 1.1251143e-38
-0.015219951 0.047109533 0.76100004 1.1064615e-38
-0.013752334 0.047047634 0.76000005 9.5977706e-39
-0.012304721 0.04704763 0.76000011 8.028308e-39
-0.010828528 0.046923827 0.75800002 6.9165892e-39
-0.0093599567 0.046800002 0.75600004 5.7266668e-39
-0.0079199374 0.046800006 0.75600004 6.4591928e-39
-0.0064799562 0.04680001 0.75600004 7.19459e-39
-0.0050333273 0.046738107 0.75500005 7.6559143e-39
-0.0035999548 0.046800017 0.75600004 8.116175e-39
-0.0021513868 0.046614297 0.75300002 9.2264588e-39
-0.00071709795 0.0466143 0.75300002 1.0330674e-38
0.0007171891 0.046614293 0.75300008 1.2718792e-38
0.0021514781 0.046614293 0.75300008 1.5032991e-38
0.0035857651 0.046614297 0.75300008 1.7891389e-38
0.0050200149 0.046614297 0.75300002 2.0722121e-38
0.006454302 0.046614297 0.75300002 1.8316079e-38
0.0078886133 0.046614304 0.75300002 1.5938066e-38
0.0093476195 0.046738125 0.755 1.6584526e-38
0.010785716 0.046738114 0.75500005 1.7143078e-38
0.012223811 0.046738114 0.75500005 1.6870447e-38
0.013661907 0.046738118 0.75500005 1.6496605e-38
0.015100003 0.046738107 0.75500005 1.8045213e-38
0.016538098 0.04673811 0.75500005 1.9514925e-38
0.017976195 0.046738114 0.75500005 1.9232231e-38
0.019414293 0.046738114 0.75500005 1.8960664e-38
0.020852389 0.04673811 0.75500005 2.0912163e-38
0.022290507 0.046738114 0.75500005 2.2841096e-38
0.023760052 0.046800002 0.75600004 2.1002265e-38
0.025200034 0.046800014 0.75600004 1.9062953e-38
0.026710527 0.046923812 0.75800002 1.7310543e-38
0.028228616 0.04704763 0.76000005 1.5483525e-38
0.029715257 0.047109537 0.76100004 1.7239886e-38
0.031328607 0.047357149 0.76500005 1.8901193e-38
0.032871429 0.047480952 0.76700002 1.724279e-38
0.034332376 0.047480959 0.76700002 1.54954e-38
0.03579336 0.047480956 0.76700002 1.9165587e-38
0.03730287 0.047542866 0.76800001 2.2762975e-38
-0.024262851 0.049260966 0.77200001 9.3111126e-39
-0.022733293 0.049133357 0.77000004 9.5923911e-39
-0.021266656 0.049133368 0.77000004 9.8775791e-39
-0.019800002 0.049133364 0.77000004 9.2271917e-39
-0.018261878 0.048941899 0.76700002 8.584332e-39
-0.016757132 0.0488143 0.76500005 8.2087279e-39
-0.015260002 0.048686668 0.76300001 7.7488232e-39
-0.01377045 0.048559044 0.7610001 7.2864073e-39
-0.012304747 0.048495244 0.76000005 6.9082963e-39
-0.010828536 0.048367638 0.75800002 6.6385226e-39
-0.0093847094 0.048367642 0.75800002 6.3651769e-39
-0.0079199281 0.048240002 0.75600004 6.3673363e-39
-0.0064799469 0.04824001 0.75600004 6.4616843e-39
-0.0050399657 0.048240017 0.75600004 5.8098675e-39
-0.0035999464 0.048239999 0.75600004 5.1691602e-39
-0.0021571564 0.048176218 0.755 1.0697214e-38
-0.00071710168 0.048048578 0.75300002 1.6216405e-38
0.00071718538 0.048048582 0.75300002 1.7606225e-38
0.0021514744 0.048048582 0.75300002 1.891343e-38
0.0035857614 0.048048586 0.75300008 1.9727377e-38
0.0050200494 0.048048574 0.75300008 2.05284e-38
0.0064542983 0.048048586 0.75300002 1.8781347e-38
0.0078885872 0.048048574 0.75300002 1.7047625e-38
0.0093476363 0.048176203 0.75500005 1.8159011e-38
0.010785732 0.04817621 0.75500005 1.9277549e-38
0.012223828 0.048176214 0.75500005 1.9179625e-38
0.013661924 0.048176199 0.75500005 1.9088817e-38
0.015100019 0.048176207 0.75500005 1.953216e-38
0.016538115 0.04817621 0.75500005 1.9985212e-38
0.017976174 0.048176222 0.755 1.9607799e-38
0.01941427 0.048176207 0.755 1.931901e-38
0.020852366 0.04817621 0.75500005 2.0347844e-38
0.02232004 0.048240021 0.75600004 2.1463895e-38
0.02376006 0.048240006 0.75600004 2.0353293e-38
0.025266731 0.048367623 0.75800002 1.9240508e-38
0.02678097 0.048495248 0.76000005 1.7311606e-38
0.028265741 0.048559055 0.76100004 1.5481007e-38
0.029793352 0.048686668 0.76300001 1.6872184e-38
0.031246679 0.048686672 0.76300001 1.8354481e-38
0.032871421 0.048941907 0.76700002 1.7245653e-38
0.034332402 0.048941903 0.76700002 1.6231533e-38
0.035793349 0.048941907 0.76700002 1.8532459e-38
0.037302893 0.049005728 0.76800001 2.0938126e-38
-0.024262864 0.05073145 0.77200001 9.1274122e-39
-0.022792378 0.05073145 0.77200001 9.3132482e-39
-0.021321895 0.05073145 0.77200001 9.4050851e-39
-0.019799998 0.050600026 0.77000004 7.5629942e-39
-0.018261889 0.050402872 0.76700002 5.7198187e-39
-0.016757123 0.050271433 0.76500005 5.0672746e-39
-0.015259976 0.050140008 0.76300007 4.4319609e-39
-0.013770444 0.050008569 0.7610001 5.0737346e-39
-0.012304736 0.04994287 0.76000005 5.7169404e-39
-0.0108571 0.04994287 0.76000005 6.3644496e-39
-0.0093847401 0.049811434 0.75800002 7.0065834e-39
-0.0079199579 0.049680009 0.75600004 6.3666076e-39
-0.0064799394 0.049680009 0.75600004 5.6262105e-39
-0.0050399583 0.049680013 0.75600004 3.8612723e-39
-0.003599938 0.049680009 0.75600004 2.1454692e-39
-0.0021571387 0.049614303 0.75500005 1.217636e-38
-0.00071904255 0.049614303 0.75500005 2.2109312e-38
0.00071905361 0.049614295 0.75500005 2.2483839e-38
0.0021571498 0.049614299 0.75500005 2.2768694e-38
0.0035952451 0.049614299 0.75500005 2.1576289e-38
0.0050333412 0.049614299 0.75500005 2.0258642e-38
0.0064714607 0.049614314 0.75500005 1.9233005e-38
0.0079095569 0.049614299 0.75500005 1.8151453e-38
0.0093476139 0.04961431 0.755 1.9725599e-38
0.01078571 0.049614299 0.755 2.1293268e-38
0.012223806 0.049614303 0.755 2.1480894e-38
0.013661901 0.049614307 0.755 2.1569823e-38
0.015099998 0.04961431 0.75500005 2.1009088e-38
0.016538097 0.049614314 0.75500005 2.0446927e-38
0.017976191 0.049614303 0.75500005 2.0078841e-38
0.019414287 0.049614307 0.75500005 1.9608182e-38
0.020880068 0.049680009 0.75600004 1.9880458e-38
0.022320049 0.049680017 0.75600004 2.0077062e-38
0.023760069 0.049680002 0.75600004 1.9798702e-38
0.02526672 0.049811438 0.75800002 1.9428849e-38
0.026816221 0.050008576 0.76100004 1.7398065e-38
0.028265743 0.05000858 0.76100004 1.5392765e-38
0.029793339 0.050140008 0.76300001 1.6596327e-38
0.031328585 0.050271444 0.76500005 1.7704457e-38
0.032871451 0.050402865 0.76700008 1.7337481e-38
0.034332395 0.050402857 0.76700002 1.6876518e-38
0.035840001 0.050468594 0.76800001 1.7977837e-38
0.03730287 0.050468598 0.76800001 1.9090999e-38
-0.024200002 0.052066687 0.77000004 6.3705242e-39
-0.022792393 0.05220193 0.77200001 6.8268248e-39
-0.021266649 0.052066691 0.77000004 7.3767686e-39
-0.019799996 0.052066687 0.77000004 6.1757381e-39
-0.018214254 0.051728569 0.76500005 4.878196e-39
-0.016757116 0.051728576 0.76500005 4.7002577e-39
-0.015300003 0.051728573 0.76500005 4.5212629e-39
-0.013806662 0.051593337 0.76300001 4.704229e-39
-0.012320921 0.051458102 0.7610001 4.9808145e-39
-0.010871401 0.051458091 0.76100004 5.3463656e-39
-0.00940949 0.051390488 0.76000005 5.8073354e-39
-0.007940921 0.051255248 0.75800002 7.7419764e-39
-0.0064971317 0.051255245 0.75800002 9.7645616e-39
-0.0050399499 0.051120013 0.75600004 9.5899094e-39
-0.0035999296 0.051120013 0.75600004 9.5078003e-39
-0.0021571219 0.051052399 0.75500005 1.5129536e-38
-0.00071902579 0.051052399 0.75500005 2.0754391e-38
0.00071903126 0.051052399 0.755 2.0746428e-38
0.0021571275 0.051052403 0.755 2.0846213e-38
0.0035952237 0.051052406 0.75500005 2.0553545e-38
0.0050333189 0.05105241 0.75500005 2.0247171e-38
0.0064714169 0.051052395 0.75500005 1.9705109e-38
0.0079095354 0.051052406 0.755 1.9171339e-38
0.0093476307 0.051052395 0.755 2.0736511e-38
0.010785727 0.051052399 0.75500005 2.2301666e-38
0.012223822 0.051052399 0.75500005 2.239853e-38
0.013661918 0.051052403 0.75500005 2.2496441e-38
0.015100016 0.05105241 0.75500005 2.1190274e-38
0.016538111 0.051052395 0.75500005 1.988769e-38
0.017976208 0.051052395 0.75500005 1.9797262e-38
0.019440057 0.051120009 0.75600004 1.9705433e-38
0.020880077 0.051120009 0.75600004 2.0074933e-38
0.022320058 0.051120013 0.75600004 2.0451245e-38
0.023822924 0.051255241 0.75800002 2.0173229e-38
0.025333358 0.051390495 0.76000005 1.9900948e-38
0.026780995 0.05139048 0.76000005 1.7411341e-38
0.028265746 0.051458105 0.76100004 1.4941845e-38
0.029793363 0.051593326 0.76300007 1.6321188e-38
0.031246694 0.051593333 0.76300001 1.7794142e-38
0.032700017 0.051593337 0.76300001 1.7153443e-38
0.034332387 0.051863808 0.76700002 1.6510596e-38
0.035793331 0.051863816 0.76700002 1.7151652e-38
0.037302893 0.051931441 0.76800001 1.7703767e-38
0.038765699 0.051931448 0.76800001 1.8539997e-38
-0.024199998 0.053533353 0.77000004 3.5078326e-39
-0.022792371 0.053672396 0.77200001 4.4297805e-39
-0.021321885 0.053672403 0.77200001 5.349576e-39
-0.019799991 0.053533349 0.77000004 4.7017123e-39
-0.018261908 0.053324774 0.76700002 4.0563331e-39
-0.016757108 0.053185724 0.76500005 4.3346912e-39
-0.015299994 0.053185724 0.76500005 4.5180147e-39
-0.013806675 0.053046677 0.76300001 4.3325612e-39
-0.012353308 0.053046659 0.76300001 4.1517797e-39
-0.010871396 0.052907612 0.76100004 4.3239895e-39
-0.0094218748 0.052907616 0.76100004 4.5281348e-39
-0.0079618804 0.052838102 0.76000005 9.213564e-39
-0.0064971019 0.052699052 0.75800002 1.3827605e-38
-0.0050533125 0.052699059 0.75800002 1.5408923e-38
-0.0036094859 0.052699059 0.75800002 1.6872579e-38
-0.0021571424 0.052490503 0.755 1.8079385e-38
-0.00071904628 0.052490491 0.755 1.9264232e-38
0.00071904989 0.052490495 0.75500005 1.9085179e-38
0.0021571461 0.052490499 0.75500005 1.8898673e-38
0.0035857484 0.052351434 0.75300002 1.9544068e-38
0.0050200373 0.052351438 0.75300002 2.0168613e-38
0.0064543243 0.052351441 0.75300002 2.0168246e-38
0.0078886133 0.052351445 0.75300002 2.0088268e-38
0.0093476269 0.052490491 0.75500005 2.1746709e-38
0.010785745 0.052490495 0.75500005 2.3314014e-38
0.012223843 0.052490495 0.75500005 2.3406928e-38
0.013661939 0.052490503 0.75500005 2.3403311e-38
0.015099996 0.052490499 0.755 2.1367477e-38
0.016560042 0.052560009 0.75600004 1.9338087e-38
0.018000023 0.052560017 0.75600004 1.9608172e-38
0.019440042 0.052560005 0.75600004 1.9797255e-38
0.020935273 0.052699059 0.75800002 2.0262201e-38
0.022379065 0.052699056 0.75800002 2.0726414e-38
0.023885738 0.052838102 0.76000005 2.0542038e-38
0.02536671 0.05290762 0.76100004 2.0263266e-38
0.02688669 0.053046674 0.76300007 1.7312656e-38
0.028340021 0.053046662 0.76300001 1.4382919e-38
0.029793348 0.05304667 0.76300001 1.6136435e-38
0.031246675 0.053046677 0.76300001 1.7887767e-38
0.032871429 0.053324774 0.76700002 1.7062684e-38
0.034332376 0.053324774 0.76700002 1.6142181e-38
0.035840005 0.05339431 0.76800001 1.6230433e-38
0.037302878 0.053394299 0.76800001 1.6325873e-38
0.038765725 0.053394295 0.76800001 1.5961417e-38
-0.024199994 0.055000011 0.77000004 2.3078671e-39
-0.022733318 0.055000011 0.77000004 3.6003954e-39
-0.021266641 0.055000015 0.77000004 4.8896867e-39
-0.019799987 0.055000015 0.77000004 4.333657e-39
-0.018261878 0.054785721 0.76700002 3.8715803e-39
-0.016757101 0.054642856 0.76500005 5.160475e-39
-0.015299987 0.054642864 0.76500005 6.4451055e-39
-0.013806649 0.054499999 0.76300001 7.5557509e-39
-0.012353322 0.054500002 0.76300001 8.6635516e-39
-0.010871393 0.054357138 0.76100004 9.6827454e-39
-0.0094218729 0.054357141 0.76100004 1.0705546e-38
-0.0079618664 0.054285727 0.76000005 1.2638091e-38
-0.0064971112 0.054142866 0.75800002 1.4586008e-38
-0.0050532827 0.054142863 0.75800008 1.4485561e-38
-0.0036094934 0.054142874 0.75800002 1.439159e-38
-0.0021571256 0.053928584 0.75500005 1.3548943e-38
-0.00071902951 0.053928584 0.75500005 1.2800965e-38
0.00071906665 0.053928595 0.75500005 1.4553711e-38
0.0021571629 0.053928595 0.75500005 1.6211068e-38
0.0035857446 0.053785738 0.75300002 1.8338723e-38
0.0050200336 0.053785726 0.75300002 2.0438742e-38
0.0064543206 0.05378573 0.75300002 2.0257583e-38
0.0078886095 0.053785719 0.75300002 2.0093659e-38
0.0093476055 0.053928591 0.75500005 2.1013107e-38
0.010785701 0.053928595 0.75500005 2.1943659e-38
0.012223821 0.053928602 0.755 2.1933255e-38
0.013661916 0.053928591 0.755 2.1933938e-38
0.015100013 0.053928595 0.75500005 2.0902906e-38
0.01656005 0.054000009 0.75600004 1.9886922e-38
0.018000031 0.054000016 0.75600004 1.9890456e-38
0.019491477 0.05414287 0.75800008 1.9980912e-38
0.020935267 0.054142863 0.75800002 1.9987781e-38
0.02243815 0.054285716 0.76000011 2.008825e-38
0.023885747 0.054285724 0.76000005 1.898266e-38
0.025366692 0.054357141 0.7610001 1.7879129e-38
0.026816212 0.054357145 0.7610001 1.5295827e-38
0.028340008 0.054500006 0.76300001 1.2722327e-38
0.029871473 0.05464286 0.7650001 1.5216638e-38
0.031328607 0.054642867 0.76500005 1.7802386e-38
0.032871421 0.054785725 0.76700002 1.7063041e-38
0.034332406 0.054785717 0.76700002 1.6417688e-38
0.035840031 0.054857157 0.76800001 1.6509172e-38
0.037400011 0.055000015 0.77000004 1.6601375e-38
0.038765702 0.054857165 0.76800001 1.6509189e-38
-0.022733316 0.056466691 0.77000004 2.7735186e-39
-0.021321913 0.05661336 0.77199996 4.428354e-39
-0.019799985 0.056466676 0.77000004 4.0549163e-39
-0.018261887 0.056246672 0.76700002 3.6036268e-39
-0.016757155 0.056100003 0.76500005 5.9906294e-39
-0.01529998 0.056099996 0.7650001 8.3898598e-39
-0.013806663 0.055953339 0.76300001 1.0781917e-38
-0.012353335 0.055953346 0.76300001 1.3184728e-38
-0.010871389 0.055806663 0.7610001 1.5037962e-38
-0.00940949 0.055733353 0.76000005 1.6777465e-38
-0.0079618553 0.055733334 0.76000005 1.6047094e-38
-0.0064971186 0.055586681 0.75800002 1.5305594e-38
-0.005053292 0.055586681 0.75800002 1.3556055e-38
-0.0036095027 0.055586688 0.75800002 1.179285e-38
-0.0021571461 0.055366691 0.755 9.1077029e-39
-0.00071905187 0.055366695 0.755 6.3569695e-39
0.00071904616 0.05536668 0.755 9.9342756e-39
0.0021571424 0.055366687 0.755 1.3551042e-38
0.0035952386 0.055366691 0.75500005 1.7160276e-38
0.0050333338 0.05536668 0.75500005 2.0716003e-38
0.0064543169 0.055220019 0.75300002 2.0421097e-38
0.0078886058 0.055220023 0.75300002 2.0072803e-38
0.0093476214 0.055366691 0.75500005 2.026799e-38
0.010785718 0.055366676 0.75500005 2.045596e-38
0.012223815 0.055366676 0.75500005 2.0448781e-38
0.013661933 0.055366691 0.75500005 2.0443752e-38
0.01512004 0.055440009 0.75600004 2.0423656e-38
0.016560059 0.055440005 0.7560001 2.0351891e-38
0.01800004 0.055440016 0.75600004 2.0269723e-38
0.019491469 0.05558667 0.75800002 2.017035e-38
0.020935258 0.055586681 0.75800002 1.9802647e-38
0.022379085 0.055586677 0.75800002 1.9347425e-38
0.023885762 0.055733349 0.76000005 1.7420683e-38
0.025366696 0.05580667 0.7610001 1.5484569e-38
0.026816217 0.05580667 0.7610001 1.3269004e-38
0.028339995 0.05595335 0.76300001 1.0979965e-38
0.029871441 0.056100015 0.76500005 1.4297197e-38
0.031328615 0.056100003 0.76500005 1.7611544e-38
0.032914311 0.056320015 0.76800001 1.7153463e-38
0.034377139 0.056320027 0.76800001 1.6694284e-38
0.035840008 0.056320027 0.76800001 1.6786478e-38
0.037400015 0.056466691 0.77000004 1.6877247e-38
0.038866691 0.056466691 0.77000004 1.715133e-38
-0.022733312 0.057933353 0.77000004 6.5416452e-39
-0.021266636 0.057933353 0.77000004 8.1993476e-39
-0.019748554 0.057782874 0.76800001 8.4816686e-39
-0.018261896 0.057707623 0.76700002 8.7622198e-39
-0.016757147 0.057557151 0.76500005 1.0146591e-38
-0.015299971 0.057557143 0.7650001 1.153565e-38
-0.013806639 0.057406671 0.76300007 1.2363293e-38
-0.012353308 0.05740666 0.76300001 1.3204889e-38
-0.010871385 0.057256192 0.7610001 1.3379242e-38
-0.0094218636 0.057256196 0.76100004 1.3564313e-38
-0.0079618422 0.05718096 0.76000011 1.3092184e-38
-0.0064970898 0.057030488 0.75800002 1.2716592e-38
-0.0050533004 0.057030499 0.75800002 1.1605955e-38
-0.0036094738 0.057030477 0.75800002 1.0575231e-38
-0.0021599755 0.05688002 0.75600004 9.2926757e-39
-0.00071995525 0.056880016 0.75600004 8.0949425e-39
0.00072002591 0.056880005 0.75600004 1.1417596e-38
0.0021571591 0.05680478 0.75500005 1.4754925e-38
0.0035952553 0.056804776 0.75500005 1.779271e-38
0.0050333505 0.056804776 0.75500005 2.0894613e-38
0.0064543504 0.056654286 0.75300008 2.024848e-38
0.0078886012 0.056654297 0.75300002 1.9691423e-38
0.0093476381 0.056804772 0.75500005 1.9616501e-38
0.010785697 0.056804784 0.755 1.9530037e-38
0.012223793 0.056804787 0.755 1.9436039e-38
0.013661889 0.056804776 0.755 1.9427092e-38
0.01512005 0.05688002 0.75600004 1.9068739e-38
0.016560031 0.056880012 0.75600004 1.8806881e-38
0.01800005 0.056880012 0.75600004 1.7234215e-38
0.019440031 0.05688002 0.75600004 1.5760482e-38
0.020935288 0.057030484 0.75800002 1.5939428e-38
0.022379076 0.057030477 0.75800002 1.6129193e-38
0.023885775 0.05718096 0.76000011 1.6962883e-38
0.025366699 0.057256192 0.7610001 1.7868684e-38
0.026816219 0.057256196 0.7610001 1.4936048e-38
0.028340017 0.057406668 0.76300001 1.2079483e-38
0.029793348 0.057406671 0.76300001 1.3926976e-38
0.031328563 0.05755714 0.76500005 1.5867034e-38
0.03287144 0.057707619 0.76700002 1.6049663e-38
0.034377161 0.057782881 0.76800001 1.623512e-38
0.035840027 0.057782885 0.76800001 1.6601736e-38
0.037400022 0.057933349 0.77000004 1.6877973e-38
0.038866699 0.057933349 0.77000004 1.6969461e-38
-0.02126663 0.059400018 0.77000004 1.198295e-38
-0.019722851 0.059168573 0.76700002 1.3002459e-38
-0.018214252 0.059014302 0.76500005 1.391867e-38
-0.01675714 0.059014283 0.76500005 1.429714e-38
-0.0153 0.059014291 0.76500005 1.46577e-38
-0.01380665 0.058859996 0.76300001 1.3929865e-38
-0.012353322 0.058860008 0.76300001 1.309185e-38
-0.01087142 0.058705725 0.76100004 1.1709635e-38
-0.0094218608 0.058705717 0.76100004 1.0231989e-38
-0.0079723392 0.058705721 0.76100004 1.013295e-38
-0.0065142317 0.058628578 0.76000005 1.0042546e-38
-0.0050666342 0.058628585 0.76000005 9.6680261e-39
-0.0036094831 0.058474299 0.75800002 9.2981254e-39
-0.0021571368 0.05824288 0.75500005 9.5764555e-39
-0.0007199478 0.058320012 0.7560001 9.8498628e-39
0.00072003336 0.058320008 0.75600004 1.288587e-38
0.0021600537 0.058320008 0.7560001 1.5851574e-38
0.0036000349 0.058320012 0.75600004 1.8452447e-38
0.0050333291 0.058242884 0.755 2.0997248e-38
0.0064543243 0.058088586 0.75300008 2.0170682e-38
0.0079095205 0.058242887 0.755 1.9245526e-38
0.0093476186 0.058242876 0.75500005 1.8975774e-38
0.010785714 0.05824288 0.75500005 1.8608075e-38
0.01222381 0.058242872 0.75500005 1.8521622e-38
0.013661905 0.058242872 0.75500005 1.834263e-38
0.015100001 0.058242872 0.75500005 1.7800602e-38
0.016560039 0.058320008 0.75600004 1.7244181e-38
0.018000057 0.058320008 0.75600004 1.4283536e-38
0.019491451 0.058474299 0.75800002 1.1260438e-38
0.020935278 0.058474299 0.75800002 1.2065013e-38
0.022379069 0.058474295 0.75800002 1.2832393e-38
0.023885749 0.058628578 0.76000005 1.6524161e-38
0.025366703 0.058705717 0.7610001 2.019149e-38
0.026816223 0.058705721 0.7610001 1.6710002e-38
0.028340004 0.058860011 0.76300001 1.3105802e-38
0.029793335 0.058860015 0.76300001 1.3647473e-38
0.031246701 0.058860011 0.76300001 1.4113155e-38
0.032914277 0.059245735 0.76800001 1.4942949e-38
0.034377147 0.059245735 0.76800001 1.5770904e-38
0.035840012 0.059245739 0.76800001 1.632371e-38
0.037302881 0.059245724 0.76800001 1.6875812e-38
-0.01972286 0.060629524 0.76700002 1.1071089e-38
-0.018214244 0.060471434 0.76500005 1.088777e-38
-0.016757131 0.060471434 0.76500005 1.0971706e-38
-0.015299993 0.060471442 0.76500005 1.0970649e-38
-0.013842857 0.06047143 0.76500005 1.0689064e-38
-0.012353336 0.060313344 0.76300001 1.0400241e-38
-0.010899968 0.06031334 0.76300001 1.0127201e-38
-0.0094218552 0.060155243 0.76100004 9.7458487e-39
-0.0079723364 0.060155246 0.76100004 1.0035683e-38
-0.0065228147 0.06015525 0.76100004 1.0315846e-38
-0.005066623 0.060076207 0.76000005 1.0129657e-38
-0.0036094906 0.059918113 0.75800002 9.9445444e-39
-0.0021599587 0.059760015 0.75600004 1.0036013e-38
-0.00071994035 0.059760012 0.7560001 1.021936e-38
0.00072004081 0.059760008 0.75600004 1.2062919e-38
0.0021600612 0.059760004 0.7560001 1.3915501e-38
0.0036000423 0.059760015 0.75600004 1.4840398e-38
0.0050333459 0.059680976 0.75500005 1.5838714e-38
0.0064714411 0.059680983 0.75500005 1.5196904e-38
0.0079095392 0.059680972 0.75500005 1.4562282e-38
0.0093476344 0.059680972 0.75500005 1.3634218e-38
0.010785732 0.059680961 0.75500005 1.2721615e-38
0.012240066 0.059760012 0.75600004 1.4755641e-38
0.013680047 0.059760019 0.75600004 1.6702851e-38
0.015120067 0.059760015 0.75600004 1.753225e-38
0.016560046 0.059760012 0.75600004 1.8269018e-38
0.018000064 0.059760012 0.75600004 1.6792047e-38
0.019491481 0.059918091 0.75800002 1.5330511e-38
0.020935273 0.059918098 0.75800002 1.5687747e-38
0.022379098 0.059918098 0.75800002 1.6070622e-38
0.02388576 0.060076199 0.76000005 1.8089676e-38
0.02536667 0.06015525 0.76100004 2.0111508e-38
0.026816228 0.060155246 0.7610001 1.5879558e-38
0.02834003 0.060313329 0.76300001 1.1731126e-38
0.029793359 0.060313333 0.76300001 1.401871e-38
0.031246686 0.06031334 0.76300001 1.6311071e-38
0.032914296 0.060708582 0.76800001 1.6500542e-38
0.034377165 0.060708582 0.76800001 1.6776057e-38
0.035840034 0.060708586 0.76800001 1.631868e-38
0.037302867 0.060708594 0.76800001 1.5861669e-38
