# .PCD v0.7 - Point Cloud Data file format
VERSION 0.7
FIELDS x y z rgb
SIZE 4 4 4 4
TYPE F F F F
COUNT 1 1 1 1
WIDTH 949
HEIGHT 1
VIEWPOINT 0 0 0 1 0 0 0
POINTS 949
DATA ascii
0.014519983 -0.03249713 0.72600001 2.3234015e-38
0.015902856 -0.032497145 0.72600007 2.3220021e-38
0.017285721 -0.03249713 0.72600001 2.1021346e-38
0.018719984 -0.032586657 0.72800004 1.8790359e-38
0.020106649 -0.032586642 0.72800004 1.8139945e-38
0.021493321 -0.032586657 0.72800004 1.7484113e-38
0.022879982 -0.032586657 0.72800004 1.5888045e-38
0.024266643 -0.032586642 0.72800004 1.43279e-38
0.025653316 -0.032586657 0.72800004 1.5428833e-38
0.027039977 -0.032586671 0.72800004 1.6537309e-38
0.028465709 -0.032631405 0.72900003 1.6920788e-38
0.02985429 -0.03263142 0.72900003 1.7292802e-38
0.031328559 -0.032720961 0.73100001 1.7390028e-38
0.03272095 -0.032720946 0.73100001 1.7485472e-38
0.034253322 -0.03285522 0.73400003 1.6287686e-38
0.035748545 -0.032944761 0.73600006 1.5093461e-38
0.037150476 -0.032944761 0.73600006 1.2428077e-38
0.038604766 -0.032989524 0.73700005 9.768055e-39
0.040117119 -0.033079036 0.73900002 1.0413395e-38
0.041693319 -0.033213325 0.74200004 1.0967254e-38
0.043106649 -0.03321334 0.74200004 1.1707295e-38
0.044579983 -0.033258103 0.74300003 1.2345832e-38
0.04630477 -0.033481888 0.74800003 1.1332765e-38
0.047729511 -0.033481888 0.74800003 1.0323296e-38
-0.02350858 -0.032057114 0.74800003 7.5600865e-39
-0.022054292 -0.032014303 0.74699998 7.470416e-39
-0.020576185 -0.031928562 0.74500006 7.38037e-39
-0.019105718 -0.031842835 0.74300003 6.7324936e-39
-0.017619075 -0.031714283 0.74000001 6.0831796e-39
-0.016143821 -0.031585701 0.73700005 4.7956791e-39
-0.014720014 -0.03154286 0.73600006 3.505676e-39
-0.013318103 -0.03154286 0.73600006 3.6900631e-39
-0.011851454 -0.031371422 0.73200005 3.7808392e-39
-0.010457161 -0.031371422 0.73200005 3.7812133e-39
-0.0090628676 -0.031371437 0.73200011 3.784079e-39
-0.0076685948 -0.031371437 0.73200005 3.7808448e-39
-0.006265739 -0.031328566 0.73100001 3.7840776e-39
-0.0048733503 -0.031328566 0.73100001 5.3409804e-39
-0.0034809615 -0.031328566 0.73100001 6.8092708e-39
-0.002080013 -0.031200014 0.72800004 7.9173924e-39
-0.00069335202 -0.031199999 0.72800004 8.9125525e-39
0.00069141755 -0.031114273 0.72600001 9.9475319e-39
0.0020799832 -0.031199984 0.72800004 1.0967431e-38
0.0034666583 -0.031199984 0.72800004 1.1523487e-38
0.0048400061 -0.031114273 0.72600001 1.2173884e-38
0.006222859 -0.031114288 0.72600001 1.3463541e-38
0.0076057101 -0.031114288 0.72600001 1.4762532e-38
0.0089885611 -0.031114273 0.72600001 1.6966246e-38
0.010371427 -0.031114273 0.72600001 1.9191463e-38
0.01175428 -0.031114288 0.72600001 1.9178549e-38
0.013137131 -0.031114288 0.72600001 1.9190383e-38
0.014520003 -0.031114303 0.72600007 1.9158093e-38
0.015902868 -0.031114288 0.72600001 1.9145889e-38
0.017285721 -0.031114273 0.72600001 1.8307524e-38
0.018719999 -0.031199999 0.72800004 1.7541209e-38
0.020106656 -0.031199999 0.72800004 1.7834589e-38
0.021493332 -0.031199999 0.72800004 1.8183895e-38
0.022911424 -0.031242855 0.72900003 1.7267591e-38
0.024300003 -0.031242855 0.72900003 1.6347092e-38
0.025688568 -0.03124287 0.72900009 1.6625836e-38
0.027077125 -0.03124284 0.72900003 1.6901027e-38
0.028465705 -0.03124284 0.72900003 1.7377467e-38
0.029854273 -0.03124284 0.72900003 1.7846323e-38
0.031328574 -0.031328566 0.73100001 1.7760938e-38
0.032765705 -0.031371422 0.73200005 1.767487e-38
0.034253318 -0.031457134 0.73400003 1.6289831e-38
0.035748571 -0.031542875 0.73600006 1.5001979e-38
0.037150461 -0.031542875 0.73600006 1.2247627e-38
0.038604744 -0.031585701 0.73700005 9.4946967e-39
0.04000856 -0.031585716 0.73700011 9.9552909e-39
0.041749526 -0.031842865 0.74300003 1.050663e-38
0.043106645 -0.031799994 0.74200004 1.059915e-38
0.044699997 -0.031928562 0.74500006 1.0600565e-38
0.046304762 -0.032057129 0.74800003 1.0506915e-38
0.047857139 -0.03214284 0.75000006 1.0321117e-38
-0.023508588 -0.030632354 0.74800003 7.6533499e-39
-0.02205429 -0.030591436 0.74700004 7.1948969e-39
-0.020576192 -0.030509524 0.74500006 6.6388589e-39
-0.019080019 -0.030386679 0.74200004 5.8987925e-39
-0.017619053 -0.030304752 0.73999995 5.0715416e-39
-0.016187645 -0.030263789 0.73900002 4.1520964e-39
-0.014740027 -0.030181907 0.73700005 3.2301555e-39
-0.013336204 -0.030181907 0.73700005 3.692563e-39
-0.011916177 -0.030140959 0.73600006 4.0548939e-39
-0.010485719 -0.030059062 0.73400003 3.2283871e-39
-0.0090628676 -0.02997715 0.73200011 2.3993859e-39
-0.0076685939 -0.02997715 0.73200005 2.0256176e-39
-0.0062657278 -0.029936172 0.73100001 1.5771782e-39
-0.00487334 -0.029936172 0.73100001 4.8678068e-39
-0.0034809513 -0.029936202 0.73100001 8.2044189e-39
-0.0020828592 -0.02985429 0.72900003 1.096957e-38
-0.0006933604 -0.029813327 0.72800004 1.373039e-38
0.00069428602 -0.02985429 0.72900003 1.5310981e-38
0.0020828517 -0.029854305 0.72900003 1.6774623e-38
0.0034714313 -0.02985429 0.72900003 1.7150949e-38
0.0048533129 -0.029813327 0.72800004 1.7419274e-38
0.0062399879 -0.029813327 0.72800004 1.7333887e-38
0.0076266471 -0.029813327 0.72800004 1.7226601e-38
0.0089885592 -0.02973143 0.72600001 1.6668386e-38
0.010371425 -0.029731415 0.72600001 1.6114852e-38
0.011754278 -0.029731415 0.72600001 1.5557733e-38
0.013137129 -0.0297314 0.72600001 1.5000972e-38
0.014520001 -0.029731415 0.72600007 1.5061589e-38
0.015902853 -0.02973143 0.72600007 1.5072354e-38
0.017333316 -0.029813327 0.72800004 1.5704443e-38
0.018719992 -0.029813312 0.72800004 1.6265486e-38
0.020106651 -0.029813327 0.72800004 1.7657353e-38
0.021493325 -0.029813327 0.72800004 1.8932945e-38
0.022911418 -0.029854275 0.72900003 1.8651997e-38
0.024299996 -0.02985429 0.72900003 1.8284299e-38
0.025688564 -0.02985429 0.72900003 1.7825842e-38
0.027077144 -0.029854275 0.72900003 1.7279877e-38
0.028465709 -0.02985429 0.72900003 1.7842035e-38
0.029854288 -0.029854275 0.72900003 1.830696e-38
0.031328559 -0.029936157 0.73100001 1.8040429e-38
0.032765705 -0.02997712 0.73200005 1.7762426e-38
0.03425331 -0.030059032 0.73400003 1.6286258e-38
0.03574856 -0.030140944 0.73600006 1.4818308e-38
0.037200928 -0.030181892 0.73700005 1.1973543e-38
0.038604755 -0.030181907 0.73700005 9.1284239e-39
0.040117133 -0.030263819 0.73900002 9.5897412e-39
0.041693334 -0.030386664 0.74200004 1.0046389e-38
0.043106653 -0.030386679 0.74200004 9.4899772e-39
0.04457999 -0.030427627 0.74300003 8.8524858e-39
0.04630477 -0.030632369 0.74800003 9.5892984e-39
0.047857124 -0.030714281 0.75000006 1.0323646e-38
-0.023571452 -0.029285692 0.75000006 7.3771189e-39
-0.02205429 -0.029168554 0.74700004 6.9143541e-39
-0.020576218 -0.029090472 0.745 6.5409151e-39
-0.01910571 -0.02901236 0.74300003 5.1623065e-39
-0.017619057 -0.028895237 0.74000001 3.8765913e-39
-0.01618764 -0.028856181 0.73900002 2.7673711e-39
-0.014780007 -0.02885621 0.73900002 1.6624809e-39
-0.013336205 -0.028778084 0.73700005 3.6825073e-39
-0.011916189 -0.028739043 0.73600006 5.792937e-39
-0.010514298 -0.028739043 0.73600006 6.9032208e-39
-0.0090876091 -0.02866096 0.73400003 8.0899735e-39
-0.0076685944 -0.028582834 0.73200005 8.8469633e-39
-0.0062657176 -0.028543808 0.73100001 9.589489e-39
-0.0048733298 -0.028543808 0.73100007 1.1433322e-38
-0.0034809606 -0.028543793 0.73100001 1.3293076e-38
-0.0020800075 -0.02842667 0.72800004 1.4206494e-38
-0.00069334643 -0.028426655 0.72800004 1.5135964e-38
0.00069426926 -0.028465696 0.72900003 1.5492897e-38
0.002082848 -0.028465696 0.72900003 1.5863118e-38
0.0034714146 -0.028465725 0.72900003 1.6036752e-38
0.0048599932 -0.028465711 0.72900003 1.6314382e-38
0.0062399991 -0.02842667 0.7280001 1.6390044e-38
0.0076371385 -0.028465711 0.72900003 1.6468533e-38
0.0089885583 -0.028348543 0.72600001 1.6368374e-38
0.010371424 -0.028348573 0.72600001 1.6347191e-38
0.011754275 -0.028348573 0.72600001 1.6267532e-38
0.013137129 -0.028348558 0.72600001 1.6255324e-38
0.014500001 -0.028309517 0.72500002 1.6256029e-38
0.015902868 -0.028348573 0.72600001 1.6255324e-38
0.017285718 -0.028348558 0.72600001 1.6993967e-38
0.018719984 -0.028426655 0.72800004 1.7831999e-38
0.020106643 -0.02842664 0.72800004 1.8390221e-38
0.021493318 -0.02842667 0.72800004 1.9033766e-38
0.02291142 -0.028465711 0.72900009 1.8659945e-38
0.0243 -0.028465711 0.72900009 1.838372e-38
0.025688559 -0.028465711 0.72900003 1.7646522e-38
0.027077125 -0.028465711 0.72900003 1.6918302e-38
0.028465705 -0.028465711 0.72900003 1.7475062e-38
0.02985427 -0.028465711 0.72900003 1.8121519e-38
0.031328559 -0.028543808 0.73100001 1.7943609e-38
0.032765705 -0.028582834 0.73200005 1.7762452e-38
0.034253307 -0.028660931 0.73399997 1.6104393e-38
0.035748567 -0.028739043 0.73600006 1.4450249e-38
0.037200939 -0.028778099 0.73700005 1.1881335e-38
0.038709521 -0.028856181 0.73900002 9.403922e-39
0.040171426 -0.028895251 0.74000001 9.8634512e-39
0.041693322 -0.028973334 0.74200004 1.0231867e-38
0.043106657 -0.028973334 0.74200004 1.0230786e-38
0.044579983 -0.029012375 0.74300003 1.0229683e-38
0.046304762 -0.02920761 0.74800003 1.0231092e-38
0.047857113 -0.029285692 0.75000006 1.0324382e-38
-0.023571452 -0.027857132 0.75000006 7.0983825e-39
-0.022083802 -0.02778285 0.74800003 6.7281636e-39
-0.020576196 -0.027671419 0.74500006 6.3557966e-39
-0.019105745 -0.027597152 0.74300003 4.516214e-39
-0.017666671 -0.027560003 0.74200004 2.6734168e-39
-0.016187634 -0.027448572 0.73900002 1.3787628e-39
-0.014780029 -0.027448572 0.73900002 1.0203415e-40
-0.013372396 -0.027448572 0.73900002 3.7657682e-39
-0.011932383 -0.027374275 0.73700005 7.4646903e-39
-0.010528588 -0.02737429 0.73700005 1.0685779e-38
-0.0090876287 -0.027262859 0.73400003 1.3822209e-38
-0.007668566 -0.027188562 0.73200005 1.5773746e-38
-0.0062742727 -0.027188577 0.73200005 1.7604325e-38
-0.0048733391 -0.027151413 0.73100001 1.7983114e-38
-0.0034809504 -0.027151428 0.73100001 1.834225e-38
-0.0020828592 -0.027077131 0.72900003 1.742681e-38
-0.00069429359 -0.027077146 0.72900003 1.6399734e-38
0.00069332024 -0.027039967 0.72800004 1.5661078e-38
0.0020828508 -0.027077131 0.72900003 1.4826297e-38
0.0034714304 -0.027077161 0.72900009 1.5001347e-38
0.0048533175 -0.027039982 0.72800004 1.5092444e-38
0.0062399926 -0.027039982 0.72800004 1.5443622e-38
0.0076371338 -0.027077146 0.72900003 1.5723038e-38
0.0090133287 -0.027039997 0.72800004 1.617357e-38
0.010371423 -0.0269657 0.72600001 1.6540179e-38
0.011754274 -0.0269657 0.72600001 1.7093689e-38
0.013137148 -0.026965715 0.72600007 1.7548187e-38
0.014519999 -0.026965715 0.72600007 1.7544227e-38
0.015902864 -0.026965715 0.72600001 1.7451681e-38
0.017333336 -0.027039997 0.72800004 1.836825e-38
0.018719997 -0.027039997 0.72800004 1.9301722e-38
0.020134272 -0.027077131 0.72900003 1.9221058e-38
0.021522854 -0.027077146 0.72900003 1.9035569e-38
0.022911418 -0.027077131 0.72900003 1.8753939e-38
0.024299996 -0.027077131 0.72900003 1.8474835e-38
0.025688561 -0.027077146 0.72900003 1.7550012e-38
0.02707714 -0.027077146 0.72900003 1.6548444e-38
0.028543791 -0.027151413 0.73100001 1.7201707e-38
0.029936183 -0.027151398 0.73100001 1.7846721e-38
0.03132857 -0.027151428 0.73100001 1.7757411e-38
0.032765705 -0.027188577 0.73200005 1.7667736e-38
0.034346666 -0.027337141 0.73600006 1.5827089e-38
0.035748571 -0.027337141 0.73600006 1.3991777e-38
0.03720095 -0.02737429 0.73700005 1.188132e-38
0.038709525 -0.027448587 0.73900002 9.6779838e-39
0.040171437 -0.027485706 0.74000001 1.0043889e-38
0.041749511 -0.027597152 0.74300003 1.0416598e-38
0.043106645 -0.027559988 0.74200004 1.0971902e-38
0.044579998 -0.027597152 0.74300003 1.1518238e-38
0.046304766 -0.02778285 0.74800003 1.0872864e-38
0.047857132 -0.027857147 0.75000006 1.0231466e-38
-0.023571433 -0.026428558 0.75000006 6.4508677e-39
-0.022083811 -0.02635809 0.74800003 5.9855791e-39
-0.020576203 -0.026252382 0.74500006 5.5249597e-39
-0.019105731 -0.026181914 0.74300003 6.350396e-39
-0.01769048 -0.026181914 0.74300003 7.1665542e-39
-0.016209535 -0.026076205 0.74000001 7.9224455e-39
-0.014780023 -0.026040949 0.73900002 8.6621475e-39
-0.013372391 -0.026040934 0.73900002 1.0785838e-38
-0.011932407 -0.025970466 0.73700005 1.2828157e-38
-0.010528591 -0.025970481 0.73700005 1.383661e-38
-0.0091123898 -0.02593524 0.73600006 1.4862225e-38
-0.0076895389 -0.025864758 0.73400003 1.5495027e-38
-0.0062742922 -0.02579429 0.73200005 1.6234721e-38
-0.004879999 -0.025794275 0.73200005 1.6127806e-38
-0.0034857057 -0.025794275 0.73200005 1.5941269e-38
-0.0020828769 -0.025688566 0.72900003 1.5743253e-38
-0.00069429731 -0.025688566 0.72900003 1.5538014e-38
0.00069428136 -0.025688551 0.72900003 1.5544067e-38
0.0020828471 -0.025688566 0.72900003 1.5534351e-38
0.0034714276 -0.025688566 0.72900003 1.5908476e-38
0.0048599923 -0.025688566 0.72900003 1.6272937e-38
0.0062399842 -0.025653325 0.72800004 1.6732461e-38
0.0076266443 -0.025653325 0.72800004 1.7101957e-38
0.0090133203 -0.025653325 0.72800004 1.7280605e-38
0.010371422 -0.025582857 0.72600001 1.7464624e-38
0.011754273 -0.025582857 0.72600001 1.7645772e-38
0.013137147 -0.025582857 0.72600007 1.7921262e-38
0.014519998 -0.025582857 0.72600001 1.7915863e-38
0.015946653 -0.025653325 0.72800004 1.8005906e-38
0.017333329 -0.025653325 0.72800004 1.8654137e-38
0.018745711 -0.025688551 0.72900003 1.9305305e-38
0.020134289 -0.025688566 0.72900003 1.94051e-38
0.021522854 -0.025688581 0.72900003 1.9500495e-38
0.022911435 -0.025688566 0.72900003 1.8847574e-38
0.024299981 -0.025688566 0.72900003 1.8293314e-38
0.025759051 -0.025759049 0.73100001 1.7642912e-38
0.027077122 -0.025688566 0.72900003 1.7094427e-38
0.028543806 -0.025759034 0.73100001 1.7749131e-38
0.029936178 -0.025759049 0.73100001 1.8489203e-38
0.031371415 -0.025794275 0.73200005 1.7849949e-38
0.032855216 -0.025864758 0.73400003 1.7303972e-38
0.034346666 -0.02593524 0.73600006 1.5554088e-38
0.035748579 -0.02593524 0.73600006 1.3716261e-38
0.037200931 -0.025970466 0.73700005 1.1697274e-38
0.03870951 -0.026040949 0.73900002 9.5864972e-39
0.04017143 -0.026076205 0.74000001 9.9559944e-39
0.041693315 -0.026146658 0.74200004 1.03269e-38
0.043106634 -0.026146658 0.74200004 1.0509828e-38
0.04457999 -0.026181914 0.74300003 1.0783541e-38
0.046428569 -0.026428558 0.75000006 1.0507316e-38
0.047857132 -0.026428558 0.75000006 1.0231462e-38
-0.025066685 -0.025066666 0.75200003 6.7241839e-39
-0.023634294 -0.025066651 0.75200003 5.8051339e-39
-0.0221429 -0.024999984 0.75000006 5.2376403e-39
-0.020576181 -0.024833329 0.74500006 4.7052996e-39
-0.019157141 -0.024833329 0.745 8.1943478e-39
-0.017690487 -0.024766661 0.74300003 1.1703507e-38
-0.01620953 -0.024666667 0.73999995 1.4482289e-38
-0.014800001 -0.024666674 0.74000001 1.7230178e-38
-0.013372385 -0.024633333 0.73900002 1.7703704e-38
-0.011964779 -0.024633326 0.73900002 1.8157158e-38
-0.010557176 -0.024633333 0.73900002 1.6969772e-38
-0.0091247689 -0.024566658 0.73700005 1.5755072e-38
-0.0076895384 -0.024466664 0.73400009 1.5293351e-38
-0.0062742932 -0.024399996 0.73200005 1.4822316e-38
-0.0048799999 -0.024399996 0.73200005 1.4167611e-38
-0.0034857066 -0.024399996 0.73200005 1.3527278e-38
-0.0020828601 -0.024300002 0.72900003 1.4157934e-38
-0.00069428055 -0.024300002 0.72900003 1.4709632e-38
0.00069428416 -0.024300002 0.72900009 1.5533968e-38
0.0020828648 -0.024300002 0.72900009 1.6269724e-38
0.003471408 -0.024299987 0.72900003 1.6916516e-38
0.0048533361 -0.02426666 0.72800004 1.7466808e-38
0.0062399777 -0.02426666 0.72800004 1.8019612e-38
0.0076266518 -0.024266645 0.72800004 1.8477341e-38
0.0090133119 -0.02426666 0.72800004 1.8473382e-38
0.010371421 -0.024199992 0.72600001 1.8380465e-38
0.011754272 -0.024199992 0.72600001 1.8287189e-38
0.013137145 -0.024199992 0.72600007 1.819317e-38
0.014520011 -0.024199992 0.72600001 1.8375375e-38
0.015946643 -0.024266638 0.72800004 1.8560506e-38
0.017333319 -0.024266668 0.72800004 1.8937558e-38
0.018745705 -0.024299972 0.72900003 1.930674e-38
0.020134272 -0.024300002 0.72900003 1.9593412e-38
0.021522852 -0.024300002 0.72900003 1.9863512e-38
0.022911418 -0.024299987 0.72900003 1.8934011e-38
0.024366669 -0.024366662 0.73100001 1.8011347e-38
0.025759036 -0.024366662 0.73100001 1.7816912e-38
0.027151413 -0.024366677 0.73100001 1.7552531e-38
0.028543802 -0.024366662 0.73100001 1.8302648e-38
0.029977137 -0.024399996 0.73200005 1.9040207e-38
0.031457141 -0.024466671 0.73400003 1.8032535e-38
0.032855224 -0.024466656 0.73400003 1.6931964e-38
0.034346674 -0.024533324 0.73600006 1.5184958e-38
0.035797127 -0.024566665 0.73700005 1.3440756e-38
0.037200939 -0.02456668 0.73700005 1.1512523e-38
0.038709499 -0.024633333 0.73900002 9.4950092e-39
0.040279996 -0.024733327 0.74200004 9.8659343e-39
0.041749518 -0.024766676 0.74300003 1.0233252e-38
0.043164756 -0.024766661 0.74300003 1.0140317e-38
0.044699993 -0.024833336 0.74500006 9.9562957e-39
0.046428554 -0.024999999 0.75000006 1.0140694e-38
0.047857113 -0.024999984 0.75000006 1.0231459e-38
-0.025066657 -0.02363427 0.75200003 8.385782e-39
-0.023634287 -0.023634277 0.75200003 9.6751223e-39
-0.022083828 -0.023508556 0.74800003 1.0323408e-38
-0.020576207 -0.023414284 0.74500006 1.0975984e-38
-0.019105723 -0.023351431 0.74300003 1.2450775e-38
-0.017690472 -0.023351438 0.74300003 1.3939911e-38
-0.01627527 -0.023351423 0.74300003 1.448271e-38
-0.014800006 -0.023257151 0.74000001 1.5124126e-38
-0.013372378 -0.023225717 0.73900002 1.5206636e-38
-0.011964774 -0.023225717 0.73900002 1.520805e-38
-0.010557169 -0.02322571 0.73900002 1.4912075e-38
-0.0091247912 -0.023162842 0.73700005 1.4700718e-38
-0.0077104745 -0.02313143 0.73600006 1.4802176e-38
-0.0062742922 -0.023005709 0.73200005 1.4878921e-38
-0.004879999 -0.023005709 0.73200005 1.489181e-38
-0.0034857057 -0.023005702 0.73200011 1.4984368e-38
-0.0020828638 -0.022911422 0.72900003 1.5444265e-38
-0.00069429917 -0.022911429 0.72900003 1.5904501e-38
0.00069428136 -0.022911422 0.72900003 1.6269672e-38
0.0020828471 -0.022911422 0.72900003 1.6727081e-38
0.0034714257 -0.022911429 0.72900003 1.7463943e-38
0.0048599904 -0.022911422 0.72900003 1.819935e-38
0.006248571 -0.022911422 0.72900003 1.8477014e-38
0.0076371506 -0.022911422 0.72900009 1.8661735e-38
0.009013325 -0.022879988 0.72800004 1.8565568e-38
0.010399987 -0.022879995 0.72800004 1.8470145e-38
0.011786662 -0.022879995 0.72800004 1.8375798e-38
0.013173321 -0.022880003 0.72800004 1.8372526e-38
0.014559996 -0.022880003 0.72800004 1.8464317e-38
0.015946658 -0.02288001 0.72800004 1.8647677e-38
0.017333332 -0.022879988 0.7280001 1.892933e-38
0.018745711 -0.022911415 0.72900003 1.9206654e-38
0.020134291 -0.022911422 0.72900003 1.9402185e-38
0.021522868 -0.022911437 0.72900009 1.9680539e-38
0.022974292 -0.022974297 0.73100001 1.8750322e-38
0.024366647 -0.022974283 0.73100001 1.7918793e-38
0.025759036 -0.022974283 0.73100001 1.7731187e-38
0.027151423 -0.022974283 0.73100001 1.7547513e-38
0.028543809 -0.022974275 0.73100001 1.8111795e-38
0.029977139 -0.023005717 0.73200005 1.8673217e-38
0.031457134 -0.023068585 0.73400003 1.7847778e-38
0.032944772 -0.02313143 0.73600006 1.7022722e-38
0.034346666 -0.02313143 0.73600006 1.5000934e-38
0.035748553 -0.023131415 0.73600006 1.2981579e-38
0.037200931 -0.023162849 0.73700005 1.1329924e-38
0.03870951 -0.023225717 0.73900002 9.678669e-39
0.040117126 -0.023225717 0.73900002 9.9563167e-39
0.041749511 -0.023351431 0.74300003 1.0231801e-38
0.043280944 -0.023414284 0.74500006 9.7700883e-39
0.044819996 -0.023477152 0.74700004 9.4038407e-39
0.046428535 -0.023571402 0.75000006 9.8637539e-39
0.047984742 -0.023634262 0.75199997 1.0321498e-38
-0.02208381 -0.022083789 0.74799997 1.5313419e-38
-0.020576185 -0.021995232 0.74500006 1.7143703e-38
-0.019157127 -0.021995246 0.74500006 1.660133e-38
-0.017690478 -0.021936193 0.74300003 1.6038469e-38
-0.016209539 -0.021847606 0.74000001 1.4567298e-38
-0.01480001 -0.021847628 0.74000001 1.2985272e-38
-0.0133724 -0.021818094 0.73900002 1.2606078e-38
-0.011964768 -0.021818101 0.73900002 1.223511e-38
-0.010528579 -0.021759041 0.73700005 1.2952537e-38
-0.0091247633 -0.021759048 0.73700005 1.3599684e-38
-0.0077104857 -0.021729507 0.73600006 1.4336158e-38
-0.0062914388 -0.021670461 0.73400003 1.4980059e-38
-0.0048933374 -0.021670476 0.73400003 1.5719742e-38
-0.0034857253 -0.021611415 0.73200005 1.6363318e-38
-0.0020885682 -0.021581896 0.73100001 1.6729954e-38
-0.0006962 -0.021581888 0.73100001 1.7005456e-38
0.00069428416 -0.021522857 0.72900009 1.7096569e-38
0.0020828424 -0.021522835 0.72900003 1.7187343e-38
0.003471422 -0.021522842 0.72900003 1.8104636e-38
0.0048599876 -0.021522842 0.72900003 1.8932586e-38
0.0062485673 -0.02152285 0.72900003 1.8935095e-38
0.0076371329 -0.021522857 0.72900003 1.8844323e-38
0.0090133185 -0.021493338 0.72800004 1.8656694e-38
0.010399994 -0.021493323 0.72800004 1.846872e-38
0.011786653 -0.021493331 0.72800004 1.8464775e-38
0.013191436 -0.02152285 0.72900003 1.846403e-38
0.01455999 -0.021493323 0.72800004 1.8554045e-38
0.015968561 -0.02152285 0.72900003 1.8647351e-38
0.017357128 -0.021522857 0.72900003 1.8925762e-38
0.018745704 -0.021522842 0.72900003 1.9117345e-38
0.020134272 -0.02152285 0.72900003 1.9311437e-38
0.021581914 -0.021581911 0.73100001 1.9399304e-38
0.022974266 -0.021581888 0.73100001 1.8560208e-38
0.024366654 -0.021581896 0.73100001 1.7732965e-38
0.025794281 -0.021611415 0.73200005 1.7641126e-38
0.027188573 -0.021611422 0.73200011 1.7551458e-38
0.028660946 -0.021670461 0.73400003 1.7924196e-38
0.030140946 -0.021729499 0.73600006 1.8301949e-38
0.031542856 -0.021729521 0.73600006 1.7662693e-38
0.032944761 -0.021729529 0.73600006 1.702058e-38
0.034393322 -0.021759033 0.73700005 1.4814036e-38
0.035797115 -0.021759041 0.73700005 1.2521339e-38
0.037301894 -0.021818094 0.73900002 1.1146281e-38
0.038761888 -0.021847621 0.74000001 9.771243e-39
0.040279973 -0.021906659 0.74200004 9.9574097e-39
0.041749507 -0.021936178 0.74300003 1.0138565e-38
0.043164745 -0.021936208 0.74300003 9.488538e-39
0.044579979 -0.021936186 0.74300003 8.7577903e-39
0.046428557 -0.022142857 0.75000006 9.588246e-39
0.047857121 -0.022142835 0.75000006 1.0415483e-38
0.04928568 -0.022142835 0.75 1.060023e-38
-0.023571443 -0.020714276 0.75000006 1.4214674e-38
-0.022142861 -0.020714276 0.75000006 1.4479768e-38
-0.02063141 -0.020631433 0.74700004 1.4755653e-38
-0.019157153 -0.020576201 0.74500006 1.4097397e-38
-0.017738093 -0.020576186 0.74500006 1.3443372e-38
-0.016253343 -0.020493329 0.74200004 1.2788628e-38
-0.014799985 -0.02043809 0.74000001 1.2214625e-38
-0.013372394 -0.020410493 0.73900002 1.2220693e-38
-0.011964761 -0.020410486 0.73900002 1.2214539e-38
-0.010557157 -0.020410463 0.73900002 1.3230411e-38
-0.0091247866 -0.02035524 0.73700005 1.424532e-38
-0.0077104783 -0.020327605 0.73600006 1.4890733e-38
-0.0062914593 -0.020272367 0.73400003 1.5536787e-38
-0.0048933569 -0.020272382 0.73400003 1.5997736e-38
-0.0034952266 -0.020272382 0.73400003 1.6458367e-38
-0.0020885924 -0.020189509 0.73100001 1.6823575e-38
-0.00069620466 -0.020189516 0.73100001 1.7189131e-38
0.0006942795 -0.020134278 0.72900003 1.7370658e-38
0.0020828582 -0.02013427 0.72900003 1.755541e-38
0.0034714248 -0.020134278 0.72900003 1.8104992e-38
0.0048600035 -0.020134278 0.72900003 1.8746393e-38
0.00624857 -0.02013427 0.72900009 1.875176e-38
0.0076371282 -0.020134278 0.72900003 1.8847546e-38
0.0090256948 -0.020134285 0.72900003 1.865742e-38
0.010414273 -0.020134278 0.72900003 1.8466219e-38
0.011802852 -0.02013427 0.72900003 1.8465861e-38
0.013191419 -0.020134278 0.72900003 1.8464058e-38
0.014579997 -0.020134285 0.72900003 1.8555525e-38
0.015968563 -0.020134285 0.72900003 1.8554112e-38
0.017357143 -0.020134293 0.72900003 1.883574e-38
0.018745707 -0.020134278 0.72900009 1.9025883e-38
0.020134287 -0.02013427 0.72900009 1.9125266e-38
0.021581892 -0.020189509 0.73100001 1.912668e-38
0.022974281 -0.020189516 0.73100001 1.8470179e-38
0.024399986 -0.020217143 0.73200005 1.7914122e-38
0.025864756 -0.020272374 0.73400003 1.7548193e-38
0.027262857 -0.020272382 0.73400003 1.7277026e-38
0.028739044 -0.020327605 0.73600006 1.7561895e-38
0.030140957 -0.02032762 0.73600006 1.7844943e-38
0.03154286 -0.020327613 0.73600006 1.7201743e-38
0.032989502 -0.020355217 0.73700005 1.6654326e-38
0.034393333 -0.020355225 0.73700005 1.4633595e-38
0.035894264 -0.020410471 0.73900002 1.2612831e-38
0.037352361 -0.020438097 0.74000001 1.0962278e-38
0.038866643 -0.020493329 0.74200004 9.3124467e-39
0.040334284 -0.020520948 0.74300003 9.7726779e-39
0.041749518 -0.020520955 0.74300003 1.0233306e-38
0.043280941 -0.020576186 0.745 1.0136463e-38
0.044699997 -0.020576179 0.74500006 1.0040644e-38
0.046304774 -0.020659044 0.74800003 1.0138181e-38
0.047729511 -0.020659029 0.74800003 1.032508e-38
-0.023634309 -0.019337125 0.75200003 1.4840973e-38
-0.022142889 -0.019285701 0.75000006 1.3635609e-38
-0.020659054 -0.01923427 0.74800003 1.2343468e-38
-0.019157158 -0.019157149 0.74500006 1.1589066e-38
-0.017738098 -0.019157149 0.74500006 1.0859019e-38
-0.016253367 -0.019079991 0.74200004 1.1112618e-38
-0.01479999 -0.019028582 0.74000001 1.1391676e-38
-0.013372408 -0.019002862 0.73900002 1.184723e-38
-0.011964755 -0.019002855 0.73900002 1.2222788e-38
-0.010528604 -0.018951416 0.73700005 1.3600644e-38
-0.0091247596 -0.018951423 0.73700005 1.4890687e-38
-0.007720965 -0.018951409 0.73700005 1.5443894e-38
-0.0063085784 -0.018925704 0.73600006 1.599705e-38
-0.0048933486 -0.01887428 0.73400003 1.6275417e-38
-0.0034952471 -0.018874273 0.73400003 1.6548057e-38
-0.0020885812 -0.018797144 0.73100001 1.7007955e-38
-0.00069619255 -0.018797137 0.73100001 1.7370633e-38
0.00069619616 -0.018797129 0.73100001 1.7641835e-38
0.0020885505 -0.018797129 0.73100001 1.792165e-38
0.0034809383 -0.018797137 0.73100001 1.819752e-38
0.004873326 -0.018797137 0.73100001 1.8473745e-38
0.0062485654 -0.018745698 0.72900003 1.8661724e-38
0.007637131 -0.018745713 0.72900003 1.8845042e-38
0.0090257106 -0.01874572 0.72900003 1.8658865e-38
0.010414289 -0.018745713 0.72900003 1.8470521e-38
0.011802856 -0.018745713 0.72900009 1.8468e-38
0.013191435 -0.01874572 0.72900009 1.8467257e-38
0.01457998 -0.018745691 0.72900003 1.8466514e-38
0.015968559 -0.018745698 0.72900003 1.8466918e-38
0.017357124 -0.018745698 0.72900003 1.8744982e-38
0.018745704 -0.018745705 0.72900003 1.8934391e-38
0.020134283 -0.018745698 0.72900003 1.8944434e-38
0.021581899 -0.018797144 0.73100001 1.8846125e-38
0.022974288 -0.018797137 0.73100001 1.8463342e-38
0.024399988 -0.018822849 0.73200005 1.8003416e-38
0.025864752 -0.018874273 0.73400003 1.7452372e-38
0.027262853 -0.01887428 0.73400003 1.6910364e-38
0.028739052 -0.018925719 0.73600006 1.7200615e-38
0.030140957 -0.018925704 0.73600006 1.7384664e-38
0.031542845 -0.018925704 0.73600006 1.6827933e-38
0.032989513 -0.018951423 0.73700005 1.6195493e-38
0.034393311 -0.018951423 0.73700005 1.4452419e-38
0.035894267 -0.019002855 0.73900002 1.2709308e-38
0.037352372 -0.019028574 0.74000001 1.0777504e-38
0.038866658 -0.019079991 0.74200004 8.8511e-39
0.040334266 -0.019105718 0.74300003 9.5868503e-39
0.0417495 -0.01910571 0.74300003 1.0231513e-38
0.043280948 -0.019157134 0.74500006 1.0782905e-38
0.044699989 -0.019157149 0.74500006 1.1239889e-38
-0.023634281 -0.017904744 0.75200003 1.28044e-38
-0.022201909 -0.017904751 0.75200003 1.280257e-38
-0.020714307 -0.017857134 0.75000006 1.2791097e-38
-0.019208586 -0.017785713 0.74700004 1.2798636e-38
-0.017738098 -0.017738089 0.745 1.2801512e-38
-0.016253363 -0.01766666 0.74200004 1.3251368e-38
-0.014800015 -0.017619051 0.73999995 1.3698666e-38
-0.013390485 -0.017619051 0.74000001 1.4166413e-38
-0.01196477 -0.017595224 0.73899996 1.4627011e-38
-0.010557145 -0.017595239 0.73900002 1.554607e-38
-0.0091247819 -0.017547615 0.73700005 1.6548397e-38
-0.0077209654 -0.017547607 0.73700005 1.6554167e-38
-0.0063085626 -0.01752381 0.73600006 1.6640625e-38
-0.0048933411 -0.017476186 0.73400003 1.6916135e-38
-0.0034952378 -0.017476186 0.73400003 1.7185171e-38
-0.0020885719 -0.017404757 0.73100001 1.7184441e-38
-0.00069619721 -0.017404765 0.73100007 1.727591e-38
0.00069617102 -0.017404757 0.73100001 1.7553919e-38
0.0020885607 -0.01740475 0.73100001 1.7832299e-38
0.0034809485 -0.01740475 0.73100001 1.8104581e-38
0.0048733382 -0.017404757 0.73100001 1.8381182e-38
0.0062485477 -0.017357118 0.72900003 1.84777e-38
0.0076371273 -0.017357126 0.72900003 1.8569185e-38
0.0090257078 -0.017357148 0.72900003 1.828938e-38
0.010414272 -0.017357133 0.72900003 1.792094e-38
0.011802851 -0.017357141 0.72900003 1.7916613e-38
0.013191418 -0.017357133 0.72900003 1.8011637e-38
0.014579997 -0.017357133 0.72900003 1.8007292e-38
0.015968578 -0.017357148 0.72900003 1.8102425e-38
0.017357143 -0.017357141 0.72900003 1.8379433e-38
0.018797135 -0.017404757 0.73100001 1.8654923e-38
0.020189524 -0.01740475 0.73100001 1.8570244e-38
0.021581912 -0.017404772 0.73100001 1.8481986e-38
0.023005709 -0.017428555 0.73200005 1.8098849e-38
0.024400001 -0.017428569 0.73200005 1.7816487e-38
0.025864745 -0.017476179 0.73400003 1.7819316e-38
0.02726285 -0.017476186 0.73400003 1.7915853e-38
0.028739041 -0.017523803 0.73600006 1.8305832e-38
0.030140964 -0.017523818 0.73600006 1.8767554e-38
0.031585697 -0.017547607 0.73700005 1.8132272e-38
0.032989509 -0.0175476 0.73700005 1.7489787e-38
0.034486655 -0.017595246 0.73900002 1.5195696e-38
0.035942845 -0.017619051 0.74000001 1.2902643e-38
0.037453312 -0.017666675 0.74200004 1.0966169e-38
0.038919039 -0.017690472 0.74300003 9.1251561e-39
0.040442847 -0.017738089 0.74500006 9.6790403e-39
0.041861892 -0.017738096 0.74500006 1.0139678e-38
0.043397136 -0.017785706 0.74700004 1.0139703e-38
0.044820003 -0.017785728 0.74700004 1.0048542e-38
-0.023634301 -0.016472369 0.75199997 1.0683564e-38
-0.022201911 -0.016472369 0.75200003 1.1979305e-38
-0.020659043 -0.016384743 0.74800003 1.3176407e-38
-0.019208586 -0.016362861 0.74700004 1.4013341e-38
-0.017738104 -0.016319044 0.74500006 1.4740144e-38
-0.016275261 -0.016275242 0.74300003 1.5393049e-38
-0.014840021 -0.016253337 0.74200004 1.6023687e-38
-0.01339046 -0.016209528 0.74000001 1.658509e-38
-0.011980951 -0.01620952 0.74000001 1.7038164e-38
-0.01055716 -0.016187616 0.73899996 1.75924e-38
-0.0091495346 -0.016187616 0.73900002 1.8135183e-38
-0.0077209608 -0.016143791 0.73700005 1.767495e-38
-0.0063085738 -0.016121894 0.73600006 1.7211455e-38
-0.0049066627 -0.016121894 0.73600006 1.7471525e-38
-0.0034952583 -0.016078085 0.73400003 1.7749139e-38
-0.0020914311 -0.01603429 0.73200011 1.7452065e-38
-0.00069620652 -0.016012371 0.73100001 1.7193072e-38
0.00069618219 -0.016012378 0.73100001 1.7465362e-38
0.002088571 -0.016012378 0.73100001 1.7745894e-38
0.0034809588 -0.016012378 0.73100007 1.8007413e-38
0.004873313 -0.016012371 0.73100001 1.8205078e-38
0.0062657027 -0.016012385 0.73100001 1.8298712e-38
0.0076580904 -0.016012378 0.73100001 1.8299065e-38
0.0090504801 -0.016012385 0.73100001 1.7824099e-38
0.010442847 -0.016012371 0.73100001 1.7368867e-38
0.011802855 -0.015968576 0.72900009 1.7449224e-38
0.013191415 -0.015968554 0.72900003 1.7459602e-38
0.014579995 -0.015968561 0.72900003 1.754101e-38
0.015968559 -0.015968554 0.72900003 1.7644712e-38
0.017357139 -0.015968561 0.72900003 1.8014952e-38
0.018797144 -0.016012378 0.73100001 1.8296213e-38
0.020189518 -0.016012385 0.73100001 1.8199371e-38
0.021581888 -0.016012378 0.73100001 1.811397e-38
0.023005707 -0.016034275 0.73200005 1.7816558e-38
0.024466658 -0.016078092 0.73400003 1.7554666e-38
0.025864741 -0.016078077 0.73400003 1.8183864e-38
0.027337136 -0.016121902 0.73600006 1.8859045e-38
0.028739046 -0.016121902 0.73600006 1.9522746e-38
0.030181896 -0.016143799 0.73700005 2.0077374e-38
0.031585712 -0.016143806 0.73700005 1.944424e-38
0.032989506 -0.016143806 0.73700005 1.8788465e-38
0.034486663 -0.016187623 0.73900002 1.5937608e-38
0.036039971 -0.016253337 0.74200004 1.299414e-38
0.037453316 -0.01625333 0.74200004 1.1243458e-38
0.038919035 -0.016275235 0.74300003 9.4045834e-39
0.040442854 -0.016319044 0.74500006 9.7726317e-39
0.041861918 -0.016319051 0.74500006 1.0047449e-38
0.04339714 -0.016362868 0.74700004 9.4950288e-39
0.044820003 -0.016362853 0.74700004 8.8542949e-39
-0.023634301 -0.01503998 0.75200003 1.0951167e-38
-0.02214287 -0.014999978 0.75000006 1.1979689e-38
-0.02065905 -0.014959984 0.74799997 1.3094646e-38
-0.019208584 -0.014940001 0.74700004 1.1157867e-38
-0.017738082 -0.014899999 0.74500006 9.2225239e-39
-0.016275248 -0.014859997 0.74300003 9.956866e-39
-0.014840016 -0.014839992 0.74200004 1.0703402e-38
-0.013390465 -0.014800012 0.74000001 1.1436665e-38
-0.011980956 -0.014800005 0.74000001 1.2092791e-38
-0.010557153 -0.01478 0.73900002 1.3371316e-38
-0.0091495486 -0.014779992 0.73900002 1.4572365e-38
-0.0077209626 -0.014739998 0.73700005 1.5396026e-38
-0.0063171671 -0.014739998 0.73700005 1.6231487e-38
-0.0049066758 -0.014719985 0.73600006 1.6861752e-38
-0.0035047643 -0.014719993 0.73600006 1.7601382e-38
-0.0020971484 -0.014679991 0.73400003 1.7954299e-38
-0.00069715834 -0.014639996 0.73200005 1.8231633e-38
0.00069619337 -0.014619991 0.73100001 1.8413901e-38
0.0020885682 -0.014619999 0.73100007 1.8687974e-38
0.0034809355 -0.014619984 0.73100001 1.9052088e-38
0.0048733251 -0.014619999 0.73100001 1.9510896e-38
0.0062657129 -0.014619984 0.73100001 1.9609538e-38
0.0076581007 -0.014619991 0.73100001 1.9606293e-38
0.0090504549 -0.014619999 0.73100001 1.9232477e-38
0.010442845 -0.014619991 0.73100001 1.8944796e-38
0.011835232 -0.014619991 0.73100001 1.9501569e-38
0.01322762 -0.014620006 0.73100001 2.0050063e-38
0.014579997 -0.014579996 0.72900003 1.9958219e-38
0.015968576 -0.014579996 0.72900009 1.9950316e-38
0.017404752 -0.014619991 0.73100001 2.0057205e-38
0.018797142 -0.014619999 0.73100001 2.0244153e-38
0.020189511 -0.014619984 0.73100001 2.0249222e-38
0.021611417 -0.014639989 0.73200005 2.0162017e-38
0.023068571 -0.014679998 0.73400009 1.9881096e-38
0.024466652 -0.014679991 0.73400003 1.9616354e-38
0.025935235 -0.014719993 0.73600006 1.9701018e-38
0.027337143 -0.01472 0.73600006 1.9905192e-38
0.028739052 -0.01472 0.73600006 2.0179319e-38
0.030181896 -0.01473999 0.73700005 2.0462024e-38
0.031585705 -0.014739998 0.73700005 1.9628352e-38
0.032989517 -0.014739998 0.73700011 1.8792838e-38
0.03448667 -0.01478 0.73900002 1.5477765e-38
0.036039975 -0.014839999 0.74200004 1.2259477e-38
0.037503812 -0.014859997 0.74300003 1.0785344e-38
0.039023817 -0.014900014 0.74500006 9.4059931e-39
0.040442862 -0.014899999 0.74500006 9.7729512e-39
0.041861888 -0.014899999 0.74500006 1.0139608e-38
0.043397136 -0.014940001 0.74700004 9.5879083e-39
0.044820007 -0.014940001 0.74700004 9.1297762e-39
-0.023665721 -0.013625704 0.75300002 1.1234208e-38
-0.022201905 -0.013607606 0.75200003 1.2076543e-38
-0.020714289 -0.013571411 0.75000006 1.2903076e-38
-0.019208582 -0.013517149 0.74700004 8.3009124e-39
-0.017738108 -0.013480946 0.745 3.6976427e-39
-0.016275253 -0.013444759 0.74300003 4.5080052e-39
-0.014840012 -0.013426661 0.74200004 5.3506872e-39
-0.013390469 -0.013390474 0.74000001 6.2726477e-39
-0.01198096 -0.013390474 0.74000001 7.1106592e-39
-0.010557148 -0.013372369 0.73900002 9.0438822e-39
-0.0091495421 -0.013372377 0.73900002 1.0977118e-38
-0.0077209836 -0.013336182 0.73700005 1.3104429e-38
-0.0063171405 -0.013336189 0.73700005 1.5120144e-38
-0.004913345 -0.013336182 0.73700005 1.6325842e-38
-0.0035095494 -0.013336182 0.73700005 1.7419582e-38
-0.002097154 -0.013281897 0.73400003 1.8347946e-38
-0.0006971574 -0.013245709 0.73200005 1.9255559e-38
0.00069713587 -0.013245709 0.73200011 1.9453597e-38
0.0020914078 -0.013245702 0.73200005 1.953323e-38
0.003485702 -0.013245694 0.73200005 2.018576e-38
0.0048733354 -0.013227612 0.73100001 2.0822513e-38
0.0062657231 -0.013227619 0.73100001 2.0930136e-38
0.0076580774 -0.013227604 0.73100001 2.0915774e-38
0.0090504652 -0.013227612 0.73100001 2.0738547e-38
0.010442855 -0.013227619 0.73100001 2.0450492e-38
0.011835243 -0.013227612 0.73100001 2.1561854e-38
0.013227612 -0.013227612 0.73100001 2.2560202e-38
0.014619985 -0.013227612 0.73100001 2.2382625e-38
0.016012374 -0.013227619 0.73100001 2.2192134e-38
0.017404763 -0.013227627 0.73100001 2.2202533e-38
0.018797129 -0.013227612 0.73100001 2.2198962e-38
0.020189522 -0.013227612 0.73100001 2.220759e-38
0.021611413 -0.013245702 0.73200005 2.2201118e-38
0.023068564 -0.013281904 0.73400003 2.1928826e-38
0.02453333 -0.013318077 0.73600006 2.155646e-38
0.02593524 -0.013318092 0.73600006 2.1190553e-38
0.027337147 -0.013318092 0.73600006 2.082575e-38
0.028778078 -0.013336182 0.73700005 2.0827573e-38
0.030181887 -0.013336174 0.73700005 2.0827943e-38
0.031585697 -0.013336189 0.73700005 1.9814178e-38
0.033079036 -0.013372377 0.73900002 1.8698836e-38
0.03453334 -0.013390474 0.74000001 1.5105012e-38
0.036039986 -0.013426669 0.74200004 1.1428641e-38
0.03745332 -0.013426661 0.74200004 1.0415501e-38
0.038919043 -0.013444759 0.74300003 9.4060142e-39
0.040334281 -0.013444766 0.74300003 9.7733435e-39
0.041861895 -0.013480939 0.74500006 1.0139269e-38
0.043280955 -0.013480961 0.74500006 9.7708702e-39
0.044700004 -0.013480946 0.74500006 9.40351e-39
-0.023665702 -0.012191422 0.75300002 1.1049463e-38
-0.022201905 -0.012175225 0.75200003 1.1982549e-38
-0.020714318 -0.012142837 0.75000006 1.2997056e-38
-0.01920858 -0.012094289 0.74700004 7.9299718e-39
-0.017785732 -0.012094274 0.74699998 2.8613954e-39
-0.016275238 -0.012029536 0.74300003 4.5125944e-39
-0.014859988 -0.012029521 0.74300003 6.2546228e-39
-0.013426691 -0.012013331 0.74199998 6.2679197e-39
-0.011980963 -0.011980958 0.74000001 6.2675834e-39
-0.010557169 -0.011964768 0.73900002 6.4545054e-39
-0.0091495365 -0.011964761 0.73900002 6.6367849e-39
-0.0077419318 -0.011964746 0.73900002 9.5856074e-39
-0.006317162 -0.01193238 0.73700005 1.261405e-38
-0.0049133459 -0.011932373 0.73700011 1.3274499e-38
-0.0035095233 -0.01193238 0.73700005 1.4005244e-38
-0.002102863 -0.01191619 0.73600006 1.1797969e-38
-0.00069904333 -0.011883818 0.73400003 9.6925741e-39
0.00069714984 -0.011851422 0.73200011 1.0609498e-38
0.0020914096 -0.011851422 0.73200005 1.1632592e-38
0.003485702 -0.011851422 0.73200005 1.2456589e-38
0.0048799962 -0.01185143 0.73200011 1.3296398e-38
0.006274268 -0.011851408 0.73200005 1.3106286e-38
0.0076580876 -0.01183524 0.73100001 1.3020899e-38
0.0090504773 -0.011835232 0.73100001 1.5033019e-38
0.010442865 -0.01183524 0.73100001 1.7066309e-38
0.011835219 -0.011835217 0.73100001 2.0002168e-38
0.013227607 -0.011835232 0.73100001 2.2940188e-38
0.014619997 -0.011835225 0.73100001 2.2572487e-38
0.016012384 -0.011835232 0.73100007 2.2212324e-38
0.017404752 -0.01183524 0.73100001 2.230201e-38
0.018797128 -0.011835232 0.73100001 2.230415e-38
0.020217139 -0.011851415 0.73200005 2.2486013e-38
0.021611432 -0.011851422 0.73200005 2.2668612e-38
0.023068571 -0.011883803 0.73400003 2.1839585e-38
0.024533337 -0.01191619 0.73600006 2.0917998e-38
0.025935231 -0.01191619 0.73600006 2.0733605e-38
0.027337136 -0.011916183 0.73600006 2.0461689e-38
0.028778089 -0.01193238 0.73700005 2.0087892e-38
0.030181898 -0.011932373 0.73700005 1.9727725e-38
0.031585693 -0.01193238 0.73700005 1.8703903e-38
0.033079028 -0.011964761 0.73900002 1.7685761e-38
0.034533333 -0.011980958 0.74000001 1.4461416e-38
0.036088567 -0.012029529 0.74300003 1.1240297e-38
0.037604753 -0.012061894 0.74500006 1.0231121e-38
0.039128568 -0.012094289 0.74700004 9.2223642e-39
0.040551439 -0.012094304 0.74700004 9.4967931e-39
0.041861907 -0.012061894 0.74500006 9.8627071e-39
0.043280944 -0.012061901 0.745 9.494296e-39
0.044819977 -0.012094289 0.74699998 9.2162727e-39
-0.023760039 -0.010799982 0.75600004 1.086903e-38
-0.022231437 -0.010757126 0.75300002 1.199118e-38
-0.020714298 -0.010714278 0.75000006 1.2993118e-38
-0.019234303 -0.010685697 0.74800003 7.4682776e-39
-0.01778573 -0.010671422 0.74699998 1.9484411e-39
-0.016319033 -0.010642856 0.74500006 4.6102145e-39
-0.014860022 -0.010614291 0.74300003 7.1880824e-39
-0.013426667 -0.010600001 0.74200004 6.2762014e-39
-0.012013349 -0.010599993 0.74200004 5.3539046e-39
-0.010571431 -0.010571428 0.74000001 3.8701916e-39
-0.0091495309 -0.010557137 0.73900002 2.3176468e-39
-0.0077419267 -0.010557145 0.73900002 6.1704819e-39
-0.0063171647 -0.010528579 0.73700005 1.005127e-38
-0.0049133413 -0.010528557 0.73700005 1.0335766e-38
-0.0035095457 -0.010528564 0.73699999 1.0507925e-38
-0.0021028612 -0.010514274 0.73600006 5.3292333e-39
-0.00069904799 -0.010485716 0.73400003 1.0825031e-40
0.00069903297 -0.010485701 0.73400003 1.8427313e-39
0.0020971354 -0.010485709 0.73400003 3.6105562e-39
0.0034952164 -0.010485716 0.73400003 4.6200222e-39
0.0048933337 -0.010485709 0.73400003 5.639911e-39
0.0062742699 -0.010457128 0.73200005 5.3615473e-39
0.0076685613 -0.010457136 0.73200005 5.0914176e-39
0.009062835 -0.010457128 0.73200005 9.3976386e-39
0.010457127 -0.010457136 0.73200005 1.3649352e-38
0.011851422 -0.010457143 0.73200005 1.8440599e-38
0.013227617 -0.010442853 0.73100001 2.3215324e-38
0.014620007 -0.010442868 0.73100007 2.2755066e-38
0.016012361 -0.010442846 0.73100001 2.2207285e-38
0.017404748 -0.010442853 0.73100001 2.2304504e-38
0.018822845 -0.010457143 0.73200005 2.2393817e-38
0.020217137 -0.010457136 0.73200005 2.2763302e-38
0.021611432 -0.010457143 0.73200005 2.3126346e-38
0.023068568 -0.010485709 0.73400003 2.1750614e-38
0.024533328 -0.010514282 0.73600006 2.0265447e-38
0.025935231 -0.010514282 0.73600006 2.0179694e-38
0.027337145 -0.010514282 0.73600006 2.0075658e-38
0.02877808 -0.010528564 0.73700005 1.9334872e-38
0.030181898 -0.010528572 0.73700011 1.8602351e-38
0.031585705 -0.010528572 0.73700005 1.7587867e-38
0.033079032 -0.010557137 0.73900002 1.6580853e-38
0.034533333 -0.010571435 0.74000001 1.3813899e-38
0.03608856 -0.010614291 0.74300003 1.1056981e-38
0.037705701 -0.010671429 0.74700004 1.0045655e-38
0.039180957 -0.010685682 0.74799997 8.9457801e-39
0.040551417 -0.010671422 0.74699998 9.2205691e-39
0.041974273 -0.010671422 0.74700004 9.4953708e-39
0.043397143 -0.010671437 0.74700004 9.3102774e-39
0.044819977 -0.010671422 0.74699998 9.0351171e-39
-0.023760004 -0.009359993 0.75600004 1.0952266e-38
-0.022201927 -0.009310469 0.75200003 1.1981874e-38
-0.0207143 -0.0092856959 0.75000006 1.2903801e-38
-0.019234283 -0.0092609376 0.74799997 8.1121967e-39
-0.01778573 -0.0092485696 0.74699998 3.2312878e-39
-0.016319061 -0.0092238039 0.74500006 5.5379399e-39
-0.014860028 -0.0091990456 0.74300003 7.8460355e-39
-0.013444778 -0.0091990456 0.74300003 8.3062989e-39
-0.012013345 -0.0091866553 0.74200004 8.7672561e-39
-0.010571435 -0.0091619045 0.74000001 7.9335479e-39
-0.0091618979 -0.009161897 0.74000001 7.011303e-39
-0.0077419193 -0.0091495141 0.73900002 8.8573946e-39
-0.0063343141 -0.0091495141 0.73900002 1.0717799e-38
-0.0049266824 -0.0091495141 0.73899996 1.098579e-38
-0.0035095476 -0.0091247633 0.73700005 1.1167599e-38
-0.0021028528 -0.009112373 0.73600006 8.5706651e-39
-0.00070096186 -0.0091123804 0.73600006 5.8844909e-39
0.00069902645 -0.0090876073 0.73400003 7.5518917e-39
0.0020971298 -0.0090876147 0.73400003 9.1112973e-39
0.0034952248 -0.0090876147 0.73399997 9.4908319e-39
0.0048933271 -0.0090876073 0.73400003 9.934235e-39
0.0062914304 -0.0090876222 0.73400003 7.6509117e-39
0.0076685762 -0.0090628564 0.73200005 5.4418403e-39
0.0090628341 -0.009062849 0.73200005 9.0323944e-39
0.010457126 -0.009062849 0.73200005 1.2723791e-38
0.011851421 -0.009062849 0.73200005 1.6863604e-38
0.013227609 -0.0090504661 0.73099995 2.101162e-38
0.014619984 -0.0090504736 0.73100001 2.0718886e-38
0.016012372 -0.0090504661 0.73100001 2.0455578e-38
0.017404759 -0.0090504736 0.73100001 2.0539164e-38
0.018822847 -0.0090628341 0.73200005 2.0733948e-38
0.020217139 -0.009062849 0.73200005 2.0817526e-38
0.021670477 -0.0090876147 0.73400003 2.1006229e-38
0.023068562 -0.0090876073 0.73400003 1.9880894e-38
0.024533315 -0.0091123581 0.73600006 1.8856688e-38
0.025935242 -0.0091123804 0.73600006 1.9605336e-38
0.027374262 -0.0091247484 0.73700005 2.0326019e-38
0.028778095 -0.0091247633 0.73700005 1.9787551e-38
0.030181887 -0.0091247484 0.73700005 1.9319426e-38
0.031671401 -0.0091495216 0.73899996 1.8697764e-38
0.033079039 -0.0091495216 0.73900002 1.8154599e-38
0.034626659 -0.0091866776 0.74200004 1.428204e-38
0.036185708 -0.0092238113 0.74500006 1.0414129e-38
0.037705701 -0.0092485622 0.74700004 9.9552531e-39
0.039180949 -0.0092609301 0.74799997 9.4978693e-39
0.04060572 -0.009260945 0.74800003 9.5889859e-39
0.041974276 -0.0092485622 0.74700004 9.6797648e-39
0.043455236 -0.0092609301 0.74800003 9.4957533e-39
0.044880006 -0.009260945 0.74800003 9.4049744e-39
-0.022201898 -0.0078780949 0.75200003 1.1987618e-38
-0.02071433 -0.0078571364 0.75000006 1.2808738e-38
-0.019285746 -0.0078571364 0.75000006 8.661416e-39
-0.017809518 -0.0078361854 0.74800003 4.5227202e-39
-0.016319038 -0.0078047588 0.74500006 6.555298e-39
-0.014860014 -0.0077838004 0.74300003 8.489614e-39
-0.013444764 -0.0077838153 0.74300003 1.0335324e-38
-0.012013341 -0.0077733323 0.74200004 1.2171313e-38
-0.010600023 -0.0077733323 0.74200004 1.1993736e-38
-0.0091619017 -0.0077523738 0.74000001 1.1707503e-38
-0.0077419132 -0.0077418983 0.73900002 1.1529606e-38
-0.006334309 -0.0077419057 0.73900002 1.1353481e-38
-0.0049266759 -0.0077418983 0.73900002 1.1630077e-38
-0.0035190713 -0.0077419057 0.73900002 1.1810117e-38
-0.002105725 -0.0077209473 0.73700005 1.1809356e-38
-0.00070191553 -0.0077209473 0.73700005 1.1706778e-38
0.00070095243 -0.0077104792 0.73600006 1.3185853e-38
0.0021028435 -0.0077104643 0.73600006 1.4654861e-38
0.003504768 -0.0077104717 0.73600006 1.4481233e-38
0.004906659 -0.0077104643 0.73600006 1.4188482e-38
0.0062914239 -0.0076895282 0.73400003 9.957568e-39
0.0076895049 -0.0076895133 0.73400003 5.7216362e-39
0.0090628499 -0.0076685548 0.73200005 8.7496782e-39
0.010485702 -0.0076895058 0.73400003 1.1693455e-38
0.011883806 -0.0076895207 0.73400003 1.5186091e-38
0.013245694 -0.0076685622 0.73200005 1.8672252e-38
0.014619994 -0.0076580942 0.73100001 1.8653595e-38
0.016034281 -0.0076685697 0.73200005 1.8678377e-38
0.017428553 -0.0076685622 0.73200005 1.8845577e-38
0.018822843 -0.0076685622 0.73200005 1.8968235e-38
0.020272369 -0.0076895133 0.73400003 1.8858078e-38
0.021670474 -0.0076895207 0.73400003 1.8779898e-38
0.02313141 -0.0077104643 0.73600006 1.8093668e-38
0.024533339 -0.0077104717 0.73600006 1.7392345e-38
0.025970465 -0.0077209398 0.73700005 1.896682e-38
0.027374277 -0.0077209473 0.73700005 2.053627e-38
0.028778071 -0.0077209547 0.73700005 2.0261478e-38
0.030263791 -0.0077419057 0.73900002 1.9989932e-38
0.031671409 -0.0077418983 0.73900002 1.9912101e-38
0.033213314 -0.0077733323 0.74200004 1.9717615e-38
0.034673333 -0.0077838153 0.74300003 1.4744814e-38
0.036185715 -0.0078047663 0.74500006 9.6815977e-39
0.037604753 -0.0078047514 0.745 9.8630476e-39
0.039180961 -0.0078361779 0.74800003 9.9559692e-39
0.040605713 -0.0078361779 0.74800003 9.9570552e-39
0.042030487 -0.0078361779 0.74800003 9.8638015e-39
0.043455239 -0.0078361705 0.74800003 9.7709081e-39
0.044999979 -0.0078571364 0.75000006 9.679769e-39
0.046428539 -0.0078571215 0.75000006 9.8641351e-39
-0.02220192 -0.0064456984 0.75200003 1.2165552e-38
-0.020714307 -0.0064285696 0.75000006 1.3090345e-38
-0.019285746 -0.0064285547 0.75000006 7.9209909e-39
-0.017809527 -0.0064114183 0.74800003 2.8567627e-39
-0.016319044 -0.0063857138 0.74500006 5.9063427e-39
-0.014900004 -0.0063857138 0.745 9.0377711e-39
-0.013444771 -0.0063685775 0.74300003 9.963354e-39
-0.012013366 -0.0063600019 0.74199998 1.0884584e-38
-0.010600019 -0.0063599944 0.74199998 1.0975708e-38
-0.0091619063 -0.0063428581 0.74000001 1.1060024e-38
-0.0077523971 -0.0063428581 0.74000001 1.3369557e-38
-0.0063343025 -0.0063342899 0.73900002 1.5669399e-38
-0.0049266703 -0.0063342676 0.73900002 1.5581517e-38
-0.0035190657 -0.0063342825 0.73900002 1.557253e-38
-0.0021057324 -0.0063171312 0.73699999 1.3924137e-38
-0.00070191739 -0.0063171461 0.73700005 1.2273278e-38
0.00070093939 -0.0063085631 0.73600006 1.3747338e-38
0.00210285 -0.0063085631 0.73600006 1.5228545e-38
0.003504755 -0.0063085631 0.73600006 1.4762194e-38
0.0049066665 -0.0063085556 0.73600006 1.4391565e-38
0.0063085724 -0.0063085705 0.73600006 1.0418545e-38
0.0076895002 -0.0062914193 0.73400003 6.4520013e-39
0.0090876156 -0.0062914267 0.73400003 9.2967087e-39
