# .PCD v0.7 - Point Cloud Data file format
VERSION 0.7
FIELDS x y z rgb
SIZE 4 4 4 4
TYPE F F F F
COUNT 1 1 1 1
WIDTH 948
HEIGHT 1
VIEWPOINT 0 0 0 1 0 0 0
POINTS 948
DATA ascii
0.021522874 -0.047905758 0.72900003 2.0569339e-38
0.022974297 -0.048037156 0.73100001 1.9904233e-38
0.024366703 -0.048037142 0.73099995 1.9340614e-38
0.025759062 -0.048037156 0.73100001 1.629923e-38
0.027188592 -0.048102871 0.73200005 1.3246358e-38
0.028660972 -0.048234284 0.73399997 1.1512903e-38
0.030059071 -0.048234299 0.73400003 9.7737555e-39
0.031585746 -0.048431426 0.73700005 1.0233636e-38
0.033123817 -0.048628598 0.74000001 1.0784635e-38
0.034533344 -0.048628584 0.74000001 1.0508396e-38
0.035797156 -0.048431441 0.73700005 1.0324733e-38
-0.033079047 -0.047155261 0.73900002 1.0328175e-38
-0.03154286 -0.046963826 0.73600006 1.0519747e-38
-0.029977135 -0.046708584 0.73200005 1.0974629e-38
-0.028660925 -0.046836197 0.73399997 1.1438107e-38
-0.02718856 -0.046708599 0.73200005 1.2821016e-38
-0.025794264 -0.046708599 0.73199999 1.4194614e-38
-0.02436664 -0.046644762 0.73099995 1.4118931e-38
-0.022974264 -0.046644792 0.73099995 1.4015626e-38
-0.021581894 -0.046644777 0.73100001 1.3381037e-38
-0.020134263 -0.046517164 0.72900003 1.2728138e-38
-0.018745698 -0.046517178 0.72900003 1.1993807e-38
-0.017357117 -0.046517164 0.72900003 1.1156875e-38
-0.015946629 -0.046453357 0.72799999 8.4882547e-39
-0.014519983 -0.046325728 0.72599995 5.8221513e-39
-0.013137135 -0.046325728 0.72600001 3.6984512e-39
-0.011754279 -0.046325728 0.72600001 1.4965489e-39
-0.010371409 -0.046325743 0.72600001 2.3137385e-39
-0.0089885537 -0.046325728 0.72599995 3.140244e-39
-0.007605704 -0.046325743 0.72600001 1.654003e-39
-0.0062228474 -0.046325728 0.72600001 9.8529499e-41
-0.0048333057 -0.046261922 0.72499996 9.242264e-41
-0.0034523748 -0.046261922 0.72500002 9.3138704e-41
-0.0020657054 -0.046134293 0.72300005 1.8425674e-40
-0.00068855041 -0.046134308 0.72300005 1.9396073e-40
0.00068764726 -0.046070486 0.722 4.1332195e-39
0.0020657347 -0.046134308 0.72299999 8.0143384e-39
0.0034428767 -0.046134293 0.72299999 1.18664e-38
0.0048200185 -0.046134308 0.72299999 1.5750413e-38
0.006197141 -0.046134308 0.72300005 1.9084847e-38
0.0075952695 -0.046261907 0.72500002 2.2382332e-38
0.0089886086 -0.046325728 0.72599995 2.2958475e-38
0.010371444 -0.046325758 0.72600001 2.3410119e-38
0.0117543 -0.046325743 0.72600001 2.3417652e-38
0.013137156 -0.046325743 0.72599995 2.3411213e-38
0.01456001 -0.046453372 0.72800004 2.2774481e-38
0.015946701 -0.046453357 0.72800004 2.2109726e-38
0.017357161 -0.046517178 0.72900003 2.0459175e-38
0.01874576 -0.046517164 0.72899997 1.8793213e-38
0.020134307 -0.046517178 0.72900003 1.8418689e-38
0.021522878 -0.046517164 0.72899997 1.795375e-38
0.022974301 -0.046644762 0.73100001 1.6748028e-38
0.024366707 -0.046644762 0.73099995 1.5559519e-38
0.025794294 -0.046708599 0.73200005 1.3803496e-38
0.027188607 -0.046708584 0.73199999 1.2059289e-38
0.028660979 -0.046836182 0.73399997 1.1144831e-38
0.030140966 -0.046963826 0.73600012 1.0231488e-38
0.031585731 -0.047027633 0.73700005 1.023435e-38
0.033123836 -0.047219068 0.74000001 1.0232905e-38
0.034533363 -0.047219053 0.74000001 1.0138907e-38
0.035797145 -0.047027618 0.73700005 1.0048512e-38
-0.033079039 -0.045747623 0.73900002 1.0054437e-38
-0.031585697 -0.045623809 0.73699999 9.6928389e-39
-0.030059025 -0.045438111 0.73399997 9.0471248e-39
-0.028660938 -0.045438096 0.73400003 8.504734e-39
-0.027188547 -0.045314312 0.73200005 8.2166845e-39
-0.025794286 -0.045314312 0.73200005 7.9444248e-39
-0.024366632 -0.045252383 0.73099995 7.9379845e-39
-0.022974262 -0.045252398 0.73099995 7.9322335e-39
-0.02158187 -0.045252383 0.73099995 7.7474737e-39
-0.020134266 -0.045128599 0.72900003 7.5587651e-39
-0.018745681 -0.045128584 0.72899997 7.1853078e-39
-0.017357133 -0.045128599 0.72900003 6.8882578e-39
-0.015946642 -0.045066684 0.72800004 5.2463199e-39
-0.014559964 -0.045066684 0.72799999 3.5821533e-39
-0.013137133 -0.044942886 0.72600001 2.2110696e-39
-0.011754263 -0.044942901 0.72600001 8.2850931e-40
-0.010399962 -0.045066684 0.72799999 1.6582518e-39
-0.0089885574 -0.044942886 0.72600001 2.4800881e-39
-0.0076057012 -0.044942871 0.72600001 4.316777e-39
-0.0062228455 -0.044942871 0.72599995 6.245321e-39
-0.0048399768 -0.044942886 0.72599995 8.5544787e-39
-0.003452372 -0.044880956 0.72500002 1.0839271e-38
-0.0020656923 -0.044757158 0.72300005 1.1328964e-38
-0.00068855041 -0.044757158 0.72300005 1.1793584e-38
0.00068859069 -0.044757172 0.72300005 1.3735463e-38
0.0020657328 -0.044757158 0.72300005 1.5781318e-38
0.0034428749 -0.044757158 0.72300005 1.7702333e-38
0.0048200167 -0.044757143 0.72299999 1.9652419e-38
0.006214309 -0.044880971 0.72500002 2.084235e-38
0.0076057049 -0.044942871 0.72600001 2.2040158e-38
0.008988589 -0.044942901 0.72600001 2.1296864e-38
0.010371444 -0.044942886 0.72600001 2.0662612e-38
0.011754301 -0.044942886 0.72599995 2.0367003e-38
0.013137137 -0.044942871 0.72600001 2.0001107e-38
0.014560032 -0.045066684 0.72799999 1.9423918e-38
0.015946675 -0.045066684 0.72800004 1.8848105e-38
0.017333368 -0.04506667 0.72800004 1.8951372e-38
0.018745743 -0.045128599 0.72900003 1.8937726e-38
0.020134293 -0.045128614 0.72900003 1.8577902e-38
0.021581946 -0.045252398 0.73099995 1.8190443e-38
0.022974305 -0.045252398 0.73100001 1.7753836e-38
0.02436671 -0.045252383 0.73099995 1.7304698e-38
0.025794309 -0.045314312 0.73200005 1.51853e-38
0.027262893 -0.045438096 0.73399997 1.3072685e-38
0.028739054 -0.045561925 0.73600006 1.1605789e-38
0.030140962 -0.045561925 0.73600006 1.0231839e-38
0.031585723 -0.045623824 0.73700005 1.023255e-38
0.03307905 -0.045747653 0.73900008 1.0233264e-38
0.034486674 -0.045747638 0.73900002 1.0048511e-38
-0.032989509 -0.044220001 0.73700005 9.6888845e-39
-0.031585697 -0.044220015 0.73700005 8.763687e-39
-0.030059017 -0.044040009 0.73399997 7.107753e-39
-0.028739048 -0.044160008 0.73600006 5.4482582e-39
-0.027262833 -0.044040009 0.73399997 3.596483e-39
-0.025794271 -0.04392004 0.73200005 1.674043e-39
-0.024399972 -0.043920025 0.73199999 1.7558424e-39
-0.02297426 -0.043860003 0.73099995 1.7612304e-39
-0.021581888 -0.043860003 0.73100001 2.0259819e-39
-0.020189494 -0.043860003 0.73099995 2.3065008e-39
-0.01879712 -0.043860003 0.73100001 2.4840636e-39
-0.017404728 -0.043860003 0.73099995 2.5773284e-39
-0.015946642 -0.043680027 0.72800004 2.0266685e-39
-0.014559976 -0.043680012 0.72800004 1.3795055e-39
-0.013137132 -0.043560013 0.72599995 7.3521226e-40
-0.011754263 -0.043560013 0.72599995 9.5986142e-41
-0.010371428 -0.043560028 0.72600001 9.1895332e-40
-0.0089885565 -0.043560013 0.72600001 1.7608871e-39
-0.0075952136 -0.043500021 0.72499996 7.0719105e-39
-0.0062228325 -0.043560028 0.72599995 1.2433899e-38
-0.0048399973 -0.043560028 0.72600001 1.7041116e-38
-0.0034523655 -0.043500021 0.72499996 2.154896e-38
-0.0020656961 -0.043380007 0.72300005 2.2499255e-38
-0.00068855414 -0.043380007 0.72300005 2.3404366e-38
0.00068763609 -0.043320015 0.722 2.341767e-38
0.0020657319 -0.043380007 0.72300005 2.3414076e-38
0.003442873 -0.043380007 0.72300005 2.3417656e-38
0.0048200157 -0.043380022 0.72300005 2.3411929e-38
0.0062142997 -0.043500021 0.72499996 2.2499327e-38
0.0076057338 -0.043560043 0.72600001 2.1549386e-38
0.0090133585 -0.043680012 0.72799999 1.9709072e-38
0.010400031 -0.043680012 0.72800004 1.7860827e-38
0.011786696 -0.043679997 0.72800004 1.7203214e-38
0.01317336 -0.043680012 0.72799999 1.6556427e-38
0.014560033 -0.043680012 0.72800004 1.6071786e-38
0.015968608 -0.043740034 0.72900003 1.5625527e-38
0.017357176 -0.043740019 0.72899997 1.7376146e-38
0.018745726 -0.043740034 0.72900003 1.9126398e-38
0.020134322 -0.043740034 0.72899997 1.8855911e-38
0.02158195 -0.043860018 0.73099995 1.8486402e-38
0.022974309 -0.043860003 0.73100001 1.8772297e-38
0.024400033 -0.04392001 0.73199999 1.8955231e-38
0.025864778 -0.044039994 0.73400003 1.6560314e-38
0.0272629 -0.044039994 0.73399997 1.4083966e-38
0.028739061 -0.044160008 0.73600006 1.2156839e-38
0.030181926 -0.044220015 0.73700005 1.0138219e-38
0.03158576 -0.044220015 0.73699999 1.0138546e-38
0.033079062 -0.044340014 0.73900008 1.0139974e-38
0.034486685 -0.044340014 0.73900002 1.0048849e-38
-0.033079032 -0.042932406 0.73900002 7.1942551e-39
-0.031585705 -0.042816192 0.73700005 6.6360114e-39
-0.030140955 -0.042758122 0.73600006 5.9005525e-39
-0.028739046 -0.042758107 0.73600006 5.0632613e-39
-0.027262827 -0.042641893 0.73399997 3.5956772e-39
-0.025864739 -0.042641908 0.73399997 2.2149148e-39
-0.024399992 -0.042525738 0.73200005 1.9415593e-39
-0.023005698 -0.042525738 0.73199999 1.6678717e-39
-0.021581881 -0.042467624 0.73100001 1.4756163e-39
-0.02018949 -0.042467624 0.73099995 1.1972372e-39
-0.018797116 -0.042467624 0.73100001 2.301054e-39
-0.017404724 -0.042467624 0.73099995 3.3184275e-39
-0.015968554 -0.042351454 0.72900003 5.5174642e-39
-0.014559975 -0.042293355 0.72800004 7.7146889e-39
-0.013137138 -0.042177171 0.72600001 9.3867281e-39
-0.01178663 -0.04229334 0.72799999 1.112594e-38
-0.010371413 -0.042177156 0.72600001 1.1888681e-38
-0.0089885565 -0.042177156 0.72599995 1.2643093e-38
-0.0076057087 -0.042177171 0.72600001 1.5305963e-38
-0.006222853 -0.042177171 0.72600001 1.7999361e-38
-0.0048399833 -0.042177156 0.72600001 2.0193403e-38
-0.0034571274 -0.042177141 0.72599995 2.2499335e-38
-0.0020656961 -0.042002872 0.72300005 2.1854334e-38
-0.00068855414 -0.042002872 0.72300005 2.1213638e-38
0.0006885879 -0.042002872 0.72300005 2.0650069e-38
0.00206573 -0.042002872 0.72300005 2.0203431e-38
0.0034524014 -0.042119056 0.72499996 1.9807731e-38
0.0048333663 -0.042119056 0.72499996 1.9445778e-38
0.0062143183 -0.042119056 0.72499996 1.9509641e-38
0.0076057347 -0.042177141 0.72599995 1.9561625e-38
0.0090133594 -0.042293355 0.72800004 1.8932733e-38
0.010400024 -0.042293355 0.72799999 1.8367632e-38
0.011786697 -0.04229337 0.72800004 1.8193188e-38
0.013173361 -0.04229337 0.72800004 1.8092029e-38
0.014560026 -0.042293355 0.72799999 1.7914816e-38
0.015968591 -0.042351454 0.72900003 1.7736941e-38
0.017357159 -0.042351454 0.72899997 1.8848709e-38
0.018745737 -0.042351469 0.72900003 1.9958637e-38
0.020134307 -0.042351469 0.72900003 1.9777485e-38
0.021581953 -0.042467624 0.73099995 1.9504848e-38
0.022974312 -0.042467639 0.73100001 1.9140016e-38
0.0244 -0.042525724 0.73200005 1.8775512e-38
0.025864786 -0.042641908 0.73399997 1.6473134e-38
0.02733716 -0.042758107 0.73600006 1.4086851e-38
0.028778121 -0.042816192 0.73699999 1.2065398e-38
0.030181933 -0.042816207 0.73699999 1.0138229e-38
0.03167145 -0.042932406 0.73900002 1.0139245e-38
0.033079073 -0.042932406 0.73900002 1.0231431e-38
0.034486666 -0.042932406 0.73900002 1.004811e-38
-0.033079036 -0.041524768 0.73900002 4.7967918e-39
-0.031671435 -0.041524783 0.73900008 4.5219719e-39
-0.030181866 -0.041412368 0.73699999 4.6119829e-39
-0.028739035 -0.041356206 0.73600006 4.700929e-39
-0.027262839 -0.041243821 0.73400003 3.6917951e-39
-0.025864739 -0.041243821 0.73400003 2.67443e-39
-0.024399996 -0.041131467 0.73200005 2.1270057e-39
-0.023005694 -0.041131452 0.73199999 1.5688461e-39
-0.021611404 -0.041131467 0.73200005 8.2701553e-40
-0.020189499 -0.041075245 0.73099995 9.8472046e-41
-0.018797126 -0.041075259 0.73100001 2.1127965e-39
-0.01740472 -0.041075245 0.73099995 4.0614338e-39
-0.015968535 -0.04096289 0.72899997 9.0094313e-39
-0.014559967 -0.040906683 0.72799999 1.4000126e-38
-0.013137136 -0.040794298 0.72600001 1.8062782e-38
-0.011754267 -0.040794298 0.72600001 2.2105375e-38
-0.01037141 -0.040794298 0.72599995 2.2774808e-38
-0.008988562 -0.040794328 0.72600001 2.3410123e-38
-0.0076057068 -0.040794298 0.72600001 2.3417655e-38
-0.0062228353 -0.040794298 0.72600001 2.3417662e-38
-0.0048333067 -0.040738091 0.72499996 2.3417669e-38
-0.0034523571 -0.040738106 0.72499996 2.3402965e-38
-0.0020656979 -0.040625721 0.72300005 2.1205017e-38
-0.000688556 -0.040625736 0.72300005 1.8972219e-38
0.00068858603 -0.040625736 0.72300005 1.7949425e-38
0.0020714558 -0.040738106 0.72499996 1.6839463e-38
0.003452407 -0.040738106 0.72499996 1.6163567e-38
0.0048333569 -0.040738121 0.72499996 1.5446126e-38
0.0062142885 -0.040738106 0.72500002 1.6530955e-38
0.0076057157 -0.040794313 0.72600001 1.7544369e-38
0.0090133809 -0.040906683 0.72799999 1.827582e-38
0.010414309 -0.040962875 0.72900003 1.8924719e-38
0.01178669 -0.040906668 0.72799999 1.9294166e-38
0.013173362 -0.040906683 0.72800004 1.9571103e-38
0.014560027 -0.040906683 0.72800004 1.9758718e-38
0.015968574 -0.04096289 0.72900003 1.9853103e-38
0.017357171 -0.04096289 0.72900003 2.0322725e-38
0.018745739 -0.04096289 0.72899997 2.0786936e-38
0.020134319 -0.04096289 0.72900003 2.06987e-38
0.021581929 -0.041075245 0.73099995 2.0515388e-38
0.022974316 -0.041075259 0.73100001 1.9598828e-38
0.024400011 -0.041131467 0.73200005 1.8586817e-38
0.025864772 -0.041243821 0.73400003 1.6377356e-38
0.027337138 -0.041356221 0.73600006 1.4085405e-38
0.02877811 -0.041412398 0.73699999 1.2063579e-38
0.030181926 -0.041412383 0.73699999 1.0046033e-38
0.031671431 -0.041524783 0.73900002 1.0231822e-38
0.033079054 -0.041524768 0.73900002 1.0323304e-38
0.034533367 -0.041580975 0.73999995 1.0047805e-38
0.035942893 -0.04158096 0.73999995 9.6811843e-39
-0.034673326 -0.040334299 0.74300003 5.8087325e-39
-0.033123791 -0.040171459 0.74000001 5.0740373e-39
-0.031671427 -0.040117145 0.73900002 4.3393491e-39
-0.030181879 -0.04000859 0.73699999 3.5092367e-39
-0.028778063 -0.040008575 0.73699999 2.6819704e-39
-0.027337145 -0.039954305 0.73600006 3.1317914e-39
-0.025864735 -0.03984572 0.73399997 3.4901678e-39
-0.024466645 -0.039845735 0.73400003 5.4284004e-39
-0.023005702 -0.039737165 0.73200005 7.347651e-39
-0.021611406 -0.03973718 0.73200005 9.0215273e-39
-0.020189494 -0.03968285 0.73099995 1.0675012e-38
-0.018797124 -0.039682865 0.73100001 1.2257826e-38
-0.017404731 -0.03968285 0.73099995 1.3743334e-38
-0.015968539 -0.03957431 0.72900003 1.6226117e-38
-0.01455998 -0.03952001 0.72800004 1.8734047e-38
-0.013173303 -0.03952001 0.72799999 2.0104437e-38
-0.011786623 -0.03952001 0.72799999 2.158098e-38
-0.010399978 -0.039520025 0.72800004 2.0933109e-38
-0.008988562 -0.03941144 0.72600001 2.0295283e-38
-0.0076056919 -0.03941144 0.72599995 2.0188022e-38
-0.0062228353 -0.03941144 0.72599995 2.0110874e-38
-0.004839987 -0.03941144 0.72600001 1.9800908e-38
-0.0034571311 -0.039411455 0.72600001 1.9510703e-38
-0.0020714218 -0.039357141 0.72500002 1.8765983e-38
-0.0006904559 -0.039357141 0.72500002 1.8000353e-38
0.00069049431 -0.039357141 0.72499996 1.7644036e-38
0.0020714595 -0.039357141 0.72499996 1.7357339e-38
0.0034524116 -0.039357156 0.72499996 1.754381e-38
0.004833356 -0.03935717 0.72500002 1.7817919e-38
0.0062143072 -0.039357156 0.72500002 1.8375068e-38
0.0076057161 -0.039411455 0.72600001 1.9023679e-38
0.0090133538 -0.03952001 0.72799999 1.9388891e-38
0.010414294 -0.03957431 0.72900003 1.9761618e-38
0.01180289 -0.03957431 0.72900003 1.9851306e-38
0.013173356 -0.039519995 0.72799999 1.9853089e-38
0.014580009 -0.03957431 0.72900003 1.985021e-38
0.015968606 -0.03957431 0.72900003 1.9849159e-38
0.017357154 -0.03957431 0.72900003 2.0227645e-38
0.018745752 -0.03957431 0.72900003 2.0606839e-38
0.0201343 -0.039574325 0.72900003 2.0606136e-38
0.021581933 -0.039682865 0.73099995 2.0513945e-38
0.023005735 -0.03973715 0.73199999 1.9597027e-38
0.024400026 -0.039737165 0.73200005 1.858574e-38
0.02586478 -0.03984572 0.73399997 1.6104724e-38
0.027337164 -0.03995432 0.73600006 1.3721281e-38
0.028778128 -0.04000859 0.73699999 1.1882393e-38
0.030263819 -0.040117159 0.73900002 1.0046391e-38
0.031671438 -0.040117159 0.73900002 1.0231127e-38
0.033123828 -0.04017143 0.73999995 1.0506654e-38
0.034533359 -0.04017143 0.73999995 1.0139692e-38
0.035942882 -0.04017143 0.73999995 9.8648833e-39
-0.034673322 -0.038919047 0.74299997 6.6370414e-39
-0.033258088 -0.038919061 0.74300003 5.3506158e-39
-0.031714257 -0.038761914 0.73999995 4.0606e-39
-0.030263811 -0.038709536 0.73900002 2.4039611e-39
-0.02877808 -0.038604766 0.73699999 6.5660082e-40
-0.027337151 -0.038552403 0.73600006 2.4800615e-39
-0.025935244 -0.038552403 0.73600006 4.3365129e-39
-0.024466641 -0.038447618 0.73399997 8.7489313e-39
-0.023005702 -0.038342863 0.73200005 1.308425e-38
-0.021611407 -0.038342878 0.73199999 1.7236616e-38
-0.02018949 -0.038290471 0.73099995 2.1281007e-38
-0.01879712 -0.038290486 0.73100001 2.240747e-38
-0.017404728 -0.038290486 0.73099995 2.3409406e-38
-0.015968557 -0.038185745 0.72900003 2.3417652e-38
-0.014559959 -0.038133338 0.72799999 2.3320094e-38
-0.013173317 -0.038133353 0.72800004 2.213199e-38
-0.011786636 -0.038133353 0.72799999 2.0912269e-38
-0.010371416 -0.038028583 0.72600001 1.8988717e-38
-0.0089885453 -0.038028583 0.72599995 1.70379e-38
-0.0076057096 -0.038028613 0.72600001 1.6835906e-38
-0.0062228539 -0.038028598 0.72600001 1.665256e-38
-0.0048399852 -0.038028613 0.72600001 1.6163576e-38
-0.0034571283 -0.038028598 0.72599995 1.5623689e-38
-0.0020714153 -0.037976205 0.72500002 1.6347259e-38
-0.00069045217 -0.03797622 0.72499996 1.6994743e-38
0.0006904999 -0.037976205 0.72499996 1.7452459e-38
0.0020714651 -0.03797619 0.72499996 1.7914825e-38
0.0034523958 -0.037976205 0.72500002 1.9020756e-38
0.0048333467 -0.03797622 0.72500002 2.0122801e-38
0.0062228623 -0.038028598 0.72600001 2.0310797e-38
0.007605745 -0.038028583 0.72599995 2.0401574e-38
0.0089886012 -0.038028598 0.72599995 2.0494147e-38
0.010371436 -0.038028583 0.72600001 2.0586354e-38
0.011786712 -0.038133338 0.72799999 2.0404132e-38
0.013173357 -0.038133353 0.72800004 2.0128611e-38
0.014580021 -0.038185745 0.72900003 2.0031382e-38
0.015968589 -0.038185731 0.72900003 1.9850599e-38
0.017357185 -0.038185731 0.72899997 2.0132224e-38
0.018745735 -0.038185745 0.72900003 2.0417785e-38
0.020189559 -0.038290486 0.73100001 2.0513577e-38
0.021581937 -0.038290486 0.73099995 2.0515735e-38
0.02300575 -0.038342878 0.73199999 1.9597746e-38
0.024466693 -0.038447633 0.73400003 1.858609e-38
0.025935262 -0.038552389 0.73600006 1.5917809e-38
0.027374303 -0.038604766 0.73699999 1.3258153e-38
0.028778117 -0.038604781 0.73699999 1.1698729e-38
0.030263828 -0.038709521 0.73900002 1.0046752e-38
0.031714324 -0.038761899 0.73999995 1.0323681e-38
0.033123851 -0.038761899 0.73999995 1.059846e-38
0.034533359 -0.038761929 0.74000001 1.0322587e-38
0.035942882 -0.038761914 0.74000001 9.9563251e-39
-0.033347614 -0.037604779 0.74500006 6.5441129e-39
-0.031842843 -0.037503824 0.74300003 7.0875715e-39
-0.030386655 -0.037453353 0.74200004 7.8322789e-39
-0.028895216 -0.037352383 0.74000001 8.5602254e-39
-0.027448567 -0.037301913 0.73900002 1.0324191e-38
-0.025935227 -0.037150487 0.73600006 1.2085228e-38
-0.024466652 -0.037049532 0.73400003 1.4296473e-38
-0.0230057 -0.036948591 0.73200005 1.6524603e-38
-0.021611404 -0.036948577 0.73199999 1.7986123e-38
-0.020217128 -0.036948577 0.73200005 1.9468764e-38
-0.018822853 -0.036948606 0.73200005 1.9181418e-38
-0.017404724 -0.036898106 0.73099995 1.9007428e-38
-0.016012352 -0.036898106 0.73100001 1.8895498e-38
-0.014579973 -0.036797151 0.72900003 1.880223e-38
-0.013173293 -0.036746681 0.72799999 1.8225749e-38
-0.011786648 -0.036746696 0.72800004 1.7733149e-38
-0.010399968 -0.036746696 0.72800004 1.7379379e-38
-0.0089885648 -0.03664574 0.72600001 1.6990098e-38
-0.0076057096 -0.036645725 0.72600001 1.7277744e-38
-0.0062228409 -0.03664574 0.72600001 1.7541009e-38
-0.0048399842 -0.03664571 0.72599995 1.7546343e-38
-0.0034571358 -0.036645725 0.72600001 1.745236e-38
-0.0020714125 -0.036595255 0.72499996 1.7916921e-38
-0.00069044658 -0.036595255 0.72499996 1.8291119e-38
0.00069144613 -0.03664574 0.72599995 1.8562362e-38
0.0020742954 -0.03664574 0.72600001 1.8838576e-38
0.0034571511 -0.03664574 0.72600001 1.9481772e-38
0.0048400075 -0.03664574 0.72599995 2.0127133e-38
0.0062228912 -0.036645725 0.72599995 2.0311881e-38
0.0076057254 -0.036645725 0.72600001 2.0400504e-38
0.0090133762 -0.036746681 0.72799999 2.0491636e-38
0.010400021 -0.036746681 0.72800004 2.0582776e-38
0.011786685 -0.036746681 0.72799999 2.040415e-38
0.013173378 -0.036746681 0.72799999 2.0317321e-38
0.014580024 -0.036797151 0.72899997 2.003283e-38
0.0159686 -0.036797151 0.72900003 1.9848095e-38
0.017357171 -0.036797166 0.72900003 2.0134376e-38
0.018745719 -0.036797181 0.72900003 2.0418501e-38
0.020189563 -0.036898106 0.73100001 2.0421378e-38
0.02158194 -0.036898106 0.73099995 2.0427486e-38
0.023005715 -0.036948591 0.73200005 1.9414793e-38
0.024466701 -0.037049517 0.73399997 1.8497476e-38
0.02593524 -0.037150502 0.73600006 1.5826674e-38
0.027337151 -0.037150487 0.73600006 1.3255636e-38
0.028778106 -0.037200958 0.73699999 1.1697658e-38
0.030263837 -0.037301913 0.73900002 1.0138951e-38
0.031671431 -0.037301913 0.73900002 1.0506276e-38
0.033123821 -0.037352383 0.74000001 1.0964698e-38
0.034673344 -0.037503809 0.74299997 1.0598393e-38
0.036088586 -0.037503809 0.74299997 1.023072e-38
-0.033347607 -0.036185741 0.74500006 7.7423422e-39
-0.031842835 -0.036088586 0.74299997 1.0141196e-38
-0.030386664 -0.036040008 0.74200004 1.3276887e-38
-0.028895225 -0.035942867 0.74000001 1.6404712e-38
-0.027448559 -0.03589429 0.73900002 1.817115e-38
-0.025970459 -0.035797149 0.73700005 1.9815584e-38
-0.024533328 -0.035748586 0.73600006 1.991926e-38
-0.023068547 -0.035651445 0.73400003 1.9909598e-38
-0.021611426 -0.035554305 0.73200005 1.880652e-38
-0.020217115 -0.035554305 0.73199999 1.7592893e-38
-0.018822838 -0.03555432 0.73200005 1.602484e-38
-0.01740472 -0.035505727 0.73099995 1.4459315e-38
-0.016012348 -0.035505727 0.73100001 1.4354907e-38
-0.014579976 -0.035408601 0.72900003 1.4166907e-38
-0.013191392 -0.035408601 0.72899997 1.4418714e-38
-0.011802843 -0.035408586 0.72900003 1.4607396e-38
-0.010399982 -0.035360023 0.72800004 1.5805191e-38
-0.0090133045 -0.035360008 0.72800004 1.7001544e-38
-0.0076056966 -0.035262883 0.72599995 1.7744457e-38
-0.0062228409 -0.035262868 0.72599995 1.8473379e-38
-0.0048399898 -0.035262883 0.72600001 1.8936122e-38
-0.0034571339 -0.035262883 0.72600001 1.9298796e-38
-0.002071406 -0.03521429 0.72499996 1.9484975e-38
-0.00069044193 -0.03521429 0.72499996 1.9575398e-38
0.00069144054 -0.035262898 0.72600001 1.9667615e-38
0.0020742964 -0.035262883 0.72600001 1.9756215e-38
0.003457167 -0.035262868 0.72600001 1.9939879e-38
0.0048400364 -0.035262853 0.72599995 2.0126065e-38
0.0062228716 -0.035262868 0.72600001 2.0317632e-38
0.0076266839 -0.035360008 0.72800004 2.040194e-38
0.0090133492 -0.035360008 0.72800004 2.0488759e-38
0.010400042 -0.035360008 0.72799999 2.0493769e-38
0.011802888 -0.035408571 0.72900003 2.0495908e-38
0.013191438 -0.035408601 0.72900003 2.0403019e-38
0.014580036 -0.035408601 0.72900003 2.0118567e-38
0.016012415 -0.035505712 0.73100001 1.9759848e-38
0.017404795 -0.035505712 0.73099995 2.004685e-38
0.01879718 -0.035505727 0.73099995 2.0323804e-38
0.020217154 -0.03555432 0.73200005 2.032597e-38
0.021611437 -0.035554305 0.73200005 2.0239521e-38
0.023068586 -0.03565143 0.73400003 1.9320454e-38
0.024533339 -0.035748586 0.73600006 1.8309511e-38
0.025935248 -0.035748586 0.73600006 1.5819874e-38
0.027374309 -0.035797164 0.73700005 1.3253477e-38
0.028778123 -0.035797164 0.73700005 1.1788748e-38
0.030263819 -0.03589429 0.73900002 1.0230053e-38
0.031799994 -0.036040023 0.74200004 1.0781422e-38
0.033213332 -0.036040023 0.74200004 1.1241314e-38
0.034673348 -0.036088586 0.74300003 1.0875044e-38
-0.033437118 -0.03486003 0.74700004 9.9604463e-39
-0.03184285 -0.034673348 0.74300003 1.2182118e-38
-0.030386651 -0.034626678 0.74200004 1.3378533e-38
-0.028895207 -0.034533337 0.73999995 1.4589972e-38
-0.027448546 -0.034486681 0.73900002 1.4940811e-38
-0.025970455 -0.034393355 0.73700005 1.5402847e-38
-0.024533333 -0.03434667 0.73600006 1.5570721e-38
-0.02306854 -0.034253344 0.73399997 1.5754755e-38
-0.021611411 -0.034160033 0.73200005 1.5276928e-38
-0.020217113 -0.034160018 0.73199999 1.4786113e-38
-0.018822838 -0.034160003 0.73200005 1.47986e-38
-0.017404731 -0.034113333 0.73099995 1.4786017e-38
-0.016012358 -0.034113318 0.73099995 1.5070822e-38
-0.01457998 -0.034020007 0.72900003 1.5336952e-38
-0.01319141 -0.034020007 0.72900003 1.589222e-38
-0.011802847 -0.034020022 0.72900003 1.6441834e-38
-0.010414263 -0.034020022 0.72900003 1.7184806e-38
-0.0090133166 -0.033973336 0.72800004 1.7833052e-38
-0.0076266392 -0.033973336 0.72800004 1.8384439e-38
-0.0062399595 -0.033973351 0.72799999 1.884577e-38
-0.0048533143 -0.033973351 0.72800004 1.9118766e-38
-0.003457119 -0.03388001 0.72599995 1.9393543e-38
-0.0020742624 -0.033880025 0.72599995 1.9482498e-38
-0.00069141423 -0.03388004 0.72600001 1.9663662e-38
0.00069144054 -0.03388001 0.72600001 1.9754067e-38
0.0020743113 -0.03388001 0.72599995 1.9935582e-38
0.003457167 -0.03388001 0.72599995 2.0027772e-38
0.0048400159 -0.03388001 0.72600001 2.0211092e-38
0.0062400135 -0.033973351 0.72800004 2.0308315e-38
0.0076267053 -0.033973366 0.72799999 2.0492342e-38
0.0090133501 -0.033973381 0.72800004 2.0493057e-38
0.010414324 -0.034020007 0.72899997 2.0499108e-38
0.011802873 -0.034020007 0.72900003 2.0588742e-38
0.01319147 -0.034020007 0.72899997 2.0588086e-38
0.014580019 -0.034020022 0.72900003 2.0309054e-38
0.016012419 -0.034113348 0.73100001 2.0036075e-38
0.017404778 -0.034113333 0.73100001 2.0316619e-38
0.018797185 -0.034113333 0.73099995 2.0596091e-38
0.020217169 -0.034160033 0.73200005 2.0420332e-38
0.02167052 -0.034253344 0.73399997 2.0333522e-38
0.023131438 -0.03434667 0.73600006 1.9322256e-38
0.024533339 -0.03434667 0.73600006 1.8406382e-38
0.025970485 -0.03439334 0.73700005 1.5823835e-38
0.027374297 -0.03439334 0.73700005 1.3251677e-38
0.028778112 -0.034393355 0.73700005 1.1696166e-38
0.030263828 -0.034486681 0.73900002 1.0231832e-38
0.031842861 -0.034673348 0.74300003 1.0415155e-38
0.033258133 -0.034673348 0.74300003 1.0690694e-38
0.034766667 -0.034766689 0.74500006 1.0414142e-38
-0.033481903 -0.033481941 0.74800003 1.2081618e-38
-0.031928547 -0.033347651 0.74500006 1.4101294e-38
-0.030427605 -0.03325811 0.74300003 1.3372722e-38
-0.028973322 -0.033213347 0.74200004 1.2625106e-38
-0.02748571 -0.033123821 0.74000001 1.1782426e-38
-0.026040949 -0.033079073 0.73900002 1.0860468e-38
-0.024566632 -0.032989547 0.73699999 1.1205553e-38
-0.023068555 -0.032855257 0.73400003 1.1585811e-38
-0.02167045 -0.032855242 0.73399997 1.1851274e-38
-0.020217134 -0.032765746 0.73200005 1.2035276e-38
-0.018822838 -0.032765746 0.73199999 1.3597888e-38
-0.017404724 -0.032720938 0.73099995 1.5070116e-38
-0.016012352 -0.032720938 0.73099995 1.580515e-38
-0.014619979 -0.032720953 0.73100001 1.6541954e-38
-0.013191413 -0.032631442 0.72900003 1.7463145e-38
-0.011802829 -0.032631442 0.72899997 1.8287888e-38
-0.010414267 -0.032631457 0.72900003 1.8474803e-38
-0.009013297 -0.032586694 0.72799999 1.86567e-38
-0.0076266532 -0.032586694 0.72800004 1.8930434e-38
-0.0062228437 -0.032497168 0.72599995 1.9207029e-38
-0.0048532947 -0.032586679 0.72799999 1.9299595e-38
-0.0034666501 -0.032586679 0.72800004 1.9390334e-38
-0.00207142 -0.032452404 0.72500002 1.9571476e-38
-0.00069141423 -0.032497153 0.72600001 1.9752995e-38
0.0006914424 -0.032497153 0.72599995 1.9933438e-38
0.0020800314 -0.032586694 0.72799999 2.0025983e-38
0.0034666907 -0.032586709 0.72800004 2.0116016e-38
0.0048533692 -0.032586679 0.72800004 2.0210732e-38
0.006240034 -0.032586679 0.72799999 2.039513e-38
0.0076371878 -0.032631442 0.72899997 2.0582032e-38
0.0090133715 -0.032586679 0.72799999 2.0584189e-38
0.010414307 -0.032631442 0.72899997 2.049592e-38
0.011802884 -0.032631442 0.72900003 2.0680287e-38
0.013191453 -0.032631457 0.72900003 2.0770713e-38
0.014580001 -0.032631472 0.72900003 2.0584915e-38
0.016012423 -0.032720953 0.73100001 2.0311575e-38
0.017404782 -0.032720968 0.73100001 2.0587814e-38
0.018822894 -0.032765716 0.73200005 2.078046e-38
0.020272408 -0.032855242 0.73399997 2.0608634e-38
0.021670507 -0.032855242 0.73400003 2.0332782e-38
0.023131438 -0.032944769 0.73600006 1.941193e-38
0.024533344 -0.032944769 0.73600006 1.8399919e-38
0.025970494 -0.032989532 0.73699999 1.581666e-38
0.027374309 -0.032989532 0.73699999 1.3160201e-38
0.028778121 -0.032989517 0.73699999 1.1696528e-38
0.030386681 -0.033213332 0.74200004 1.0230022e-38
0.031928584 -0.033347651 0.74500006 1.0140332e-38
0.033437155 -0.033437178 0.74700004 1.0045669e-38
0.034860041 -0.033437178 0.74700004 9.9492121e-39
0.036282882 -0.033437163 0.74700004 9.7694675e-39
-0.034999985 -0.032142863 0.75 1.014876e-38
-0.033481892 -0.032057151 0.74800003 1.1150694e-38
-0.031928554 -0.031928584 0.74500006 1.2064729e-38
-0.030591412 -0.03201431 0.74700004 1.2059689e-38
-0.02901236 -0.031842887 0.74300003 1.1949166e-38
-0.027485687 -0.03171429 0.74000001 1.1766536e-38
-0.02604096 -0.03167145 0.73900002 1.1571727e-38
-0.024566643 -0.031585723 0.73699999 1.2034472e-38
-0.023131423 -0.031542867 0.73600006 1.2491137e-38
-0.021670446 -0.031457156 0.73399997 1.3138287e-38
-0.020272363 -0.031457141 0.73400003 1.3782943e-38
-0.018874256 -0.031457126 0.73399997 1.4707052e-38
-0.01742856 -0.031371444 0.73200005 1.5723352e-38
-0.016012348 -0.031328574 0.73099995 1.6272581e-38
-0.014619976 -0.031328589 0.73100001 1.691936e-38
-0.013227583 -0.031328574 0.73099995 1.7558963e-38
-0.011802833 -0.031242877 0.72900003 1.8200373e-38
-0.010442819 -0.031328574 0.73099995 1.8381887e-38
-0.0090504475 -0.031328574 0.73100001 1.8562353e-38
-0.0076266299 -0.031200007 0.72799999 1.9204149e-38
-0.0062399697 -0.031200036 0.72800004 1.9752318e-38
-0.0048533049 -0.031200022 0.72800004 1.9664454e-38
-0.0034666269 -0.031200022 0.72799999 1.9663351e-38
-0.0020742679 -0.031114295 0.72599995 1.9752647e-38
-0.00069141237 -0.031114295 0.72599995 1.9843764e-38
0.0006933749 -0.031200007 0.72799999 1.9935955e-38
0.0020800342 -0.031200007 0.72800004 2.0118536e-38
0.003466699 -0.031200007 0.72799999 2.0210357e-38
0.0048533431 -0.031200022 0.72800004 2.030364e-38
0.0062400359 -0.031200007 0.72800004 2.0397282e-38
0.0076371715 -0.031242862 0.72900003 2.0489486e-38
0.0090133445 -0.031200022 0.72800004 2.0493442e-38
0.010414318 -0.031242877 0.72900003 2.049596e-38
0.011802888 -0.031242862 0.72899997 2.0587803e-38
0.013191464 -0.031242877 0.72900003 2.0678192e-38
0.014620041 -0.031328559 0.73099995 2.049451e-38
0.016012399 -0.031328589 0.73099995 2.0404481e-38
0.017404785 -0.031328574 0.73100001 2.0407363e-38
0.018822879 -0.031371459 0.73199999 2.0502422e-38
0.020272393 -0.031457141 0.73400003 2.0328072e-38
0.021729534 -0.031542882 0.73600006 2.0150166e-38
0.023131443 -0.031542867 0.73600006 1.9229683e-38
0.024566699 -0.031585723 0.73699999 1.8311307e-38
0.025970511 -0.031585723 0.73699999 1.5731998e-38
0.027374323 -0.031585723 0.73699999 1.316092e-38
0.028856203 -0.031671464 0.73900008 1.1603617e-38
0.030386675 -0.031800017 0.74200004 1.004526e-38
0.031928577 -0.031928584 0.74500006 9.8626399e-39
0.03343717 -0.032014295 0.74700004 9.7697814e-39
0.034860007 -0.032014295 0.74700004 9.9545805e-39
0.036282897 -0.03201431 0.74700004 1.0136079e-38
-0.035093304 -0.030796215 0.75199997 1.0224758e-38
-0.033571418 -0.030714318 0.75000006 1.0124306e-38
-0.031928562 -0.030509546 0.74500006 1.0032816e-38
-0.030509517 -0.030509546 0.74500012 1.066812e-38
-0.029012375 -0.030427635 0.74300003 1.1308067e-38
-0.027485698 -0.030304775 0.73999995 1.1854385e-38
-0.026040947 -0.030263826 0.73900002 1.2313928e-38
-0.024633326 -0.030263811 0.73900002 1.2869252e-38
-0.023162838 -0.0301819 0.73699999 1.3325562e-38
-0.021729514 -0.030140966 0.73600006 1.4428308e-38
-0.020327605 -0.030140951 0.73600006 1.5439222e-38
-0.018874271 -0.03005904 0.73399997 1.5907372e-38
-0.017428547 -0.029977173 0.73200005 1.6274369e-38
-0.016012345 -0.029936209 0.73099995 1.6826114e-38
-0.014619973 -0.029936194 0.73100001 1.7286363e-38
-0.013227579 -0.029936194 0.73099995 1.7653342e-38
-0.011835206 -0.029936209 0.73100001 1.8017087e-38
-0.010442815 -0.029936209 0.73099995 1.8290431e-38
-0.0090257023 -0.029854313 0.72900003 1.8471961e-38
-0.0076371185 -0.029854313 0.72900003 1.9387097e-38
-0.0062399632 -0.029813349 0.72799999 2.0306543e-38
-0.0048599723 -0.029854313 0.72900003 2.0126113e-38
-0.0034666408 -0.029813334 0.72800004 1.9848787e-38
-0.0020742661 -0.029731438 0.72599995 1.9931272e-38
-0.00069330388 -0.029813349 0.72800004 1.9937747e-38
0.00069336093 -0.029813334 0.72799999 2.0031754e-38
0.0020828897 -0.029854298 0.72900003 2.0119626e-38
0.0034714385 -0.029854313 0.72900003 2.0211445e-38
0.0048533636 -0.029813349 0.72799999 2.0305437e-38
0.006248605 -0.029854313 0.72899997 2.0400507e-38
0.0076371538 -0.029854298 0.72900003 2.0401591e-38
0.0090257516 -0.029854298 0.72899997 2.0496306e-38
0.0104143 -0.029854298 0.72900003 2.0496667e-38
0.011802872 -0.029854298 0.72899997 2.0497028e-38
0.013191448 -0.029854327 0.72900003 2.0494852e-38
0.014620046 -0.029936194 0.73099995 2.0493753e-38
0.016012402 -0.029936209 0.73099995 2.0403741e-38
0.017428581 -0.029977158 0.73200005 2.0318035e-38
0.018822871 -0.029977173 0.73200005 2.0230147e-38
0.0202724 -0.03005904 0.73399997 2.0143335e-38
0.02172954 -0.030140981 0.73600006 1.9963271e-38
0.023131423 -0.030140966 0.73600006 1.9136771e-38
0.02453333 -0.030140966 0.73600006 1.821804e-38
0.0259705 -0.030181915 0.73699999 1.5639456e-38
0.027374312 -0.030181915 0.73699999 1.3069807e-38
0.028778126 -0.030181915 0.73699999 1.1419589e-38
0.030427638 -0.03042762 0.74299997 9.7697758e-39
0.031928573 -0.030509531 0.74500006 9.5871768e-39
0.033437155 -0.030591443 0.74700004 9.4046213e-39
0.034860022 -0.030591443 0.74700004 9.9624908e-39
0.036331411 -0.030632406 0.74800003 1.0506999e-38
-0.035093319 -0.029363811 0.75199997 1.0397972e-38
-0.0335714 -0.029285729 0.75 1.058271e-38
-0.031928554 -0.029090494 0.74500006 1.0764221e-38
-0.030509526 -0.029090494 0.74500012 1.1129402e-38
-0.02901235 -0.029012397 0.74299997 1.1586758e-38
-0.027559988 -0.028973341 0.74200004 1.2043038e-38
-0.026076164 -0.028895229 0.73999995 1.2501171e-38
-0.024633329 -0.028856218 0.73900002 1.3145127e-38
-0.02316284 -0.028778106 0.73699999 1.378906e-38
-0.021759024 -0.028778091 0.73700005 1.4427969e-38
-0.020327613 -0.028739065 0.73600006 1.5157986e-38
-0.018925704 -0.02873905 0.73600006 1.5810874e-38
-0.017476164 -0.028660953 0.73399997 1.6548445e-38
-0.01603427 -0.028582871 0.73200005 1.6917239e-38
-0.014639991 -0.028582871 0.73200005 1.72871e-38
-0.013245695 -0.028582871 0.73199999 1.7652297e-38
-0.011835218 -0.02854383 0.73100001 1.8016396e-38
-0.010442825 -0.028543815 0.73099995 1.8290811e-38
-0.0090504522 -0.028543815 0.73100001 1.8565597e-38
-0.0076580611 -0.028543815 0.73099995 1.9206649e-38
-0.0062399772 -0.028426692 0.72800004 1.9848423e-38
-0.0048599881 -0.028465733 0.72900003 1.9851653e-38
-0.0034666399 -0.028426692 0.72800004 1.9857729e-38
-0.0020742726 -0.028348595 0.72600001 1.9849456e-38
-0.00069141702 -0.02834861 0.72599995 1.99442e-38
0.00069336372 -0.028426692 0.72800004 1.9938141e-38
0.0020828729 -0.028465733 0.72900003 2.0024217e-38
0.0034714562 -0.028465733 0.72899997 2.011926e-38
0.0048600198 -0.028465748 0.72900003 2.0214682e-38
0.0062485891 -0.028465733 0.72899997 2.0122844e-38
0.007637166 -0.028465733 0.72900003 2.0128233e-38
0.0090257358 -0.028465733 0.72900003 2.0311911e-38
0.010414333 -0.028465718 0.72899997 2.0496655e-38
0.011802882 -0.028465733 0.72900003 2.0495576e-38
0.013227643 -0.028543815 0.73099995 2.049339e-38
0.01462005 -0.028543815 0.73099995 2.0308967e-38
0.016034305 -0.028582871 0.73199999 2.0214668e-38
0.017428596 -0.028582871 0.73200005 2.02244e-38
0.018874316 -0.028660938 0.73400003 2.02323e-38
0.020327611 -0.028739065 0.73600006 2.0144419e-38
0.02172952 -0.02873905 0.73600006 2.0054752e-38
0.023131449 -0.02873905 0.73600006 1.9137488e-38
0.024566703 -0.028778091 0.73699999 1.8222709e-38
0.025970489 -0.028778106 0.73699999 1.5732019e-38
0.027374301 -0.028778106 0.73699999 1.3252766e-38
0.028856196 -0.028856203 0.73900002 1.1604338e-38
0.030427642 -0.029012382 0.74299997 9.9552629e-39
0.032014314 -0.029168606 0.74700004 1.0137875e-38
0.03343717 -0.029168591 0.74699998 1.0319778e-38
0.034860011 -0.029168591 0.74700004 1.0323034e-38
0.036331438 -0.029207632 0.74800003 1.0415512e-38
-0.035093311 -0.027931452 0.75200003 1.0492685e-38
-0.033571407 -0.02785717 0.75000006 1.0952582e-38
-0.032057133 -0.027782887 0.74800003 1.1409232e-38
-0.030591398 -0.027745724 0.74699998 1.1590734e-38
-0.029090466 -0.027671456 0.74500006 1.1772233e-38
-0.027597122 -0.027597159 0.74299997 1.2229956e-38
-0.026076175 -0.027485728 0.74000001 1.2685564e-38
-0.024633316 -0.02744858 0.73900002 1.3420268e-38
-0.023162834 -0.027374297 0.73700005 1.4153881e-38
-0.021759037 -0.027374282 0.73700005 1.4519794e-38
-0.020355225 -0.027374282 0.73700005 1.4796738e-38
-0.018925712 -0.027337149 0.73600006 1.581339e-38
-0.017476179 -0.027262852 0.73400003 1.6731043e-38
-0.016034268 -0.027188584 0.73200005 1.7007281e-38
-0.014639993 -0.027188584 0.73200005 1.7192734e-38
-0.013245695 -0.027188599 0.73199999 1.7559706e-38
-0.011851405 -0.027188599 0.73200005 1.7925256e-38
-0.010457127 -0.027188599 0.73200005 1.8290448e-38
-0.0090504494 -0.027151436 0.73099995 1.8565952e-38
-0.0076580583 -0.027151421 0.73099995 1.8933291e-38
-0.0062656854 -0.027151436 0.73099995 1.9299921e-38
-0.0048733125 -0.027151421 0.73100001 1.9574357e-38
-0.0034714083 -0.027077153 0.72900003 1.9850924e-38
-0.0020742707 -0.026965722 0.72599995 1.9848399e-38
-0.00069330854 -0.02704002 0.72800004 1.9846988e-38
0.00069337024 -0.027040005 0.72799999 1.9843426e-38
0.0020828701 -0.027077153 0.72900003 1.9841257e-38
0.0034714534 -0.027077168 0.72900003 1.9935229e-38
0.0048600226 -0.027077168 0.72899997 2.0027411e-38
0.0062486003 -0.027077168 0.72900003 1.9931618e-38
0.0076371692 -0.027077153 0.72899997 1.9755856e-38
0.009025746 -0.027077168 0.72900003 2.0126085e-38
0.010414316 -0.027077153 0.72899997 2.0403382e-38
0.011802864 -0.027077153 0.72900003 2.0403738e-38
0.013227647 -0.027151436 0.73099995 2.0401929e-38
0.014620054 -0.027151436 0.73099995 2.0217884e-38
0.0160343 -0.027188614 0.73200005 1.9941333e-38
0.017476222 -0.027262852 0.73399997 2.0131852e-38
0.018874321 -0.027262852 0.73399997 2.0233018e-38
0.020327637 -0.027337164 0.73600006 2.0238402e-38
0.021729548 -0.027337149 0.73600006 2.0147658e-38
0.023162879 -0.027374312 0.73699999 1.9227525e-38
0.024566691 -0.027374312 0.73699999 1.8213005e-38
0.025970507 -0.027374282 0.73700005 1.5812703e-38
0.02737432 -0.027374282 0.73700005 1.3435713e-38
0.028895274 -0.027485728 0.73999995 1.178946e-38
0.030427642 -0.027597144 0.74300003 1.0138221e-38
0.031928591 -0.027671471 0.74500012 1.0689597e-38
0.033437166 -0.027745724 0.74700004 1.1146993e-38
0.034860026 -0.027745724 0.74700004 1.0685677e-38
0.036331434 -0.027782887 0.74800003 1.0230758e-38
-0.036525697 -0.026499063 0.75199997 1.0219682e-38
-0.035093307 -0.026499063 0.75200003 1.0862187e-38
-0.033571422 -0.026428595 0.75000006 1.1136991e-38
-0.032057144 -0.026358113 0.74800003 1.1502512e-38
-0.03071427 -0.02642858 0.75 1.1683287e-38
-0.029168554 -0.026322886 0.74700004 1.1864437e-38
-0.02767141 -0.026252389 0.74500006 1.2136345e-38
-0.026076172 -0.026076183 0.73999995 1.2499029e-38
-0.024633326 -0.026040971 0.73900002 1.3325554e-38
-0.023225702 -0.026040971 0.73900002 1.4243913e-38
-0.021818079 -0.026040956 0.73900002 1.4522651e-38
-0.020355213 -0.025970474 0.73699999 1.4889647e-38
-0.018925697 -0.025935233 0.73600006 1.5719047e-38
-0.017476171 -0.025864765 0.73399997 1.6637056e-38
-0.016078072 -0.025864765 0.73400003 1.6822892e-38
-0.014639979 -0.025794312 0.73200005 1.7100879e-38
-0.013245702 -0.025794297 0.73200005 1.7467831e-38
-0.011851404 -0.025794297 0.73200005 1.7925594e-38
-0.010457128 -0.025794312 0.73200005 1.8200043e-38
-0.0090628304 -0.025794297 0.73199999 1.8474112e-38
-0.0076580527 -0.025759026 0.73099995 1.8842167e-38
-0.0062656817 -0.025759041 0.73099995 1.9302074e-38
-0.0048733088 -0.025759056 0.73100001 1.9482885e-38
-0.0034809161 -0.025759041 0.73099995 1.9755155e-38
-0.0020799658 -0.025653347 0.72799999 1.9846265e-38
-0.00069425849 -0.025688589 0.72899997 1.9844122e-38
0.00069430436 -0.025688604 0.72900003 1.984198e-38
0.0020828878 -0.025688589 0.72899997 1.9837305e-38
0.0034714516 -0.025688604 0.72900003 2.0027062e-38
0.0048600347 -0.025688604 0.72900003 2.0211429e-38
0.0062485836 -0.025688604 0.72900003 2.030396e-38
0.0076371813 -0.025688589 0.72900003 2.0490169e-38
0.0090257302 -0.025688604 0.72900003 2.049163e-38
0.0104143 -0.025688589 0.72900003 2.0587409e-38
0.011802898 -0.025688589 0.72899997 2.0678883e-38
0.013227651 -0.025759056 0.73099995 2.0767851e-38
0.014620009 -0.025759056 0.73100001 2.0212895e-38
0.016034285 -0.025794312 0.73200005 1.9660465e-38
0.017476207 -0.02586475 0.73400003 1.9856709e-38
0.018874308 -0.02586478 0.73400003 2.005401e-38
0.020327616 -0.025935248 0.73600006 1.9962531e-38
0.021729525 -0.025935248 0.73600006 1.9968286e-38
0.023162868 -0.025970489 0.73699999 1.9135323e-38
0.02456668 -0.025970489 0.73700005 1.8394865e-38
0.025970496 -0.025970489 0.73700005 1.6100734e-38
0.027448591 -0.026040971 0.73900002 1.3898112e-38
0.028895266 -0.026076213 0.73999995 1.1973507e-38
0.030427638 -0.026181892 0.74299997 1.0047466e-38
0.032014314 -0.026322886 0.74699998 1.0414082e-38
0.033437181 -0.026322886 0.74700004 1.0780706e-38
0.034860041 -0.026322871 0.74699998 1.0505557e-38
0.036331411 -0.026358113 0.74800003 1.0323661e-38
-0.036525697 -0.025066689 0.75200003 1.0497331e-38
-0.035093319 -0.025066689 0.75200003 1.1139116e-38
-0.033660941 -0.025066689 0.75200003 1.1414275e-38
-0.032142837 -0.025000021 0.75000006 1.1594692e-38
-0.030714272 -0.025000021 0.75000006 1.1775111e-38
-0.029168541 -0.024900012 0.74699998 1.1864072e-38
-0.027671412 -0.024833351 0.74500006 1.2043793e-38
-0.026181888 -0.024766684 0.74299997 1.2224959e-38
-0.024633314 -0.024633348 0.73900002 1.3230491e-38
-0.023225714 -0.024633363 0.73900008 1.4243554e-38
-0.02181809 -0.024633363 0.73900002 1.4621301e-38
-0.02035521 -0.024566673 0.73699999 1.4893234e-38
-0.018951397 -0.024566673 0.73699999 1.5719407e-38
-0.01752381 -0.024533346 0.73600006 1.6452663e-38
-0.016078064 -0.024466671 0.73399997 1.6729611e-38
-0.014679978 -0.024466671 0.73399997 1.7009405e-38
-0.013281891 -0.024466679 0.73400003 1.7469282e-38
-0.011851405 -0.024400003 0.73199999 1.7834135e-38
-0.010457127 -0.024400026 0.73200005 1.8110021e-38
-0.009050441 -0.024366647 0.73099995 1.8383367e-38
-0.0076685552 -0.024400018 0.73199999 1.8842177e-38
-0.006265677 -0.024366677 0.73099995 1.9209169e-38
-0.004873306 -0.024366669 0.73100001 1.9483609e-38
-0.0034809124 -0.024366669 0.73099995 1.9665094e-38
-0.0020799788 -0.024266683 0.72800004 1.9753309e-38
-0.00069426035 -0.024300009 0.72899997 1.9844089e-38
0.00069430249 -0.024300024 0.72900003 1.9843392e-38
0.0020828859 -0.024300009 0.72900003 1.984518e-38
0.0034714488 -0.024300031 0.72900003 2.0124269e-38
0.0048600179 -0.024300031 0.72900003 2.030578e-38
0.0062486152 -0.024300024 0.72899997 2.0765668e-38
0.0076371641 -0.024300016 0.72900003 2.1223073e-38
0.0090257348 -0.024300002 0.72899997 2.0946511e-38
0.010414311 -0.024300016 0.72900003 2.0677818e-38
0.011835268 -0.024366677 0.73099995 2.0864715e-38
0.013227654 -0.024366654 0.73099995 2.104229e-38
0.014620013 -0.024366662 0.73100001 2.0205729e-38
0.0160343 -0.024400026 0.73200005 1.9294919e-38
0.017476214 -0.024466664 0.73399997 1.9580122e-38
0.018925715 -0.024533354 0.73600006 1.9770969e-38
0.020327622 -0.024533339 0.73600006 1.977348e-38
0.021759072 -0.02456668 0.73700005 1.9686325e-38
0.023162887 -0.024566688 0.73700005 1.9133535e-38
0.024633355 -0.024633363 0.73900002 1.8499285e-38
0.025970485 -0.02456668 0.73700005 1.6389569e-38
0.027448572 -0.024633333 0.73900002 1.4274089e-38
0.028973358 -0.024733357 0.74200004 1.2158967e-38
0.03050955 -0.024833359 0.74500006 9.9545538e-39
0.03201431 -0.024900027 0.74700004 1.0229699e-38
0.033481903 -0.024933353 0.74800003 1.0414446e-38
0.034906693 -0.024933361 0.74800003 1.041588e-38
0.036428604 -0.025000021 0.75 1.0323671e-38
-0.035093315 -0.0236343 0.75200003 1.1139821e-38
-0.033660941 -0.023634315 0.75200003 1.1413901e-38
-0.03214284 -0.023571447 0.75000006 1.1687233e-38
-0.03063238 -0.023508593 0.74800003 1.186801e-38
-0.029168559 -0.023477174 0.74700004 1.2048814e-38
-0.027671415 -0.023414291 0.74500006 1.2229977e-38
-0.026252372 -0.023414314 0.74500006 1.2411501e-38
-0.024766648 -0.023351446 0.74299997 1.3048257e-38
-0.023319995 -0.023319997 0.74200004 1.3684649e-38
-0.021818094 -0.023225747 0.73900002 1.4431171e-38
-0.020355223 -0.023162864 0.73699999 1.5169458e-38
-0.018951409 -0.023162857 0.73699999 1.5717974e-38
-0.017523803 -0.02313146 0.73600006 1.6357594e-38
-0.016121907 -0.023131445 0.73600006 1.6731752e-38
-0.01467997 -0.02306857 0.73399997 1.7196665e-38
-0.013281871 -0.023068577 0.73399997 1.7468221e-38
-0.011851424 -0.023005739 0.73200005 1.7830923e-38
-0.010457127 -0.023005724 0.73200005 1.810753e-38
-0.0090628369 -0.023005731 0.73200005 1.8382306e-38
-0.0076685413 -0.023005724 0.73199999 1.8749993e-38
-0.0062656892 -0.022974297 0.73099995 1.9025148e-38
-0.0048733163 -0.022974305 0.73100001 1.9393573e-38
-0.0034809227 -0.022974305 0.73099995 1.9668662e-38
-0.0020828473 -0.022911459 0.72900003 1.984761e-38
-0.00069426408 -0.022911459 0.72900003 2.0027009e-38
0.00069431926 -0.022911459 0.72899997 1.9847315e-38
0.0020828822 -0.022911452 0.72900003 1.9759427e-38
0.0034714525 -0.022911459 0.72899997 2.0032423e-38
0.0048600291 -0.022911467 0.72900003 2.0305067e-38
0.0062485985 -0.022911437 0.72900003 2.0488028e-38
0.0076581286 -0.02297429 0.73100001 2.0760681e-38
0.009050508 -0.022974283 0.73099995 2.0489495e-38
0.010442894 -0.022974297 0.73100001 2.0220084e-38
0.011835272 -0.022974268 0.73099995 2.0309764e-38
0.013227659 -0.02297429 0.73099995 2.040232e-38
0.014640023 -0.023005724 0.73199999 1.9843059e-38
0.016078129 -0.023068577 0.73399997 1.9202727e-38
0.017476199 -0.02306857 0.73400003 1.9665855e-38
0.018925721 -0.02313146 0.73600006 2.0226558e-38
0.02032763 -0.023131453 0.73600012 2.0700805e-38
0.021759061 -0.023162879 0.73700005 2.1247531e-38
0.023162873 -0.023162879 0.73700005 2.0619768e-38
0.024566708 -0.023162857 0.73699999 2.0078813e-38
0.02604096 -0.023225732 0.73900002 1.7226903e-38
0.027485728 -0.023257166 0.74000001 1.4466036e-38
0.028973348 -0.023320012 0.74200004 1.2068563e-38
0.030427642 -0.023351438 0.74300003 9.6783313e-39
0.031928591 -0.023414299 0.74500006 1.0046392e-38
0.0334819 -0.023508586 0.74800003 1.041481e-38
0.03490667 -0.023508579 0.74800003 1.0507362e-38
0.03652573 -0.023634307 0.75200003 1.0599188e-38
0.037958119 -0.023634307 0.75200003 1.0231476e-38
-0.033660915 -0.022201903 0.75199997 1.1505383e-38
-0.032142833 -0.022142872 0.75 1.1778705e-38
-0.030632369 -0.022083834 0.74800003 1.1960193e-38
-0.029168561 -0.022054307 0.74700004 1.2141361e-38
-0.027745688 -0.0220543 0.74699998 1.2415083e-38
-0.02625238 -0.021995261 0.74500006 1.2595889e-38
-0.024766658 -0.021936208 0.74300003 1.2866381e-38
-0.023351405 -0.021936201 0.74299997 1.3142606e-38
-0.021818085 -0.021818101 0.73900002 1.4340415e-38
-0.020410478 -0.021818116 0.73900002 1.5443534e-38
-0.018951405 -0.021759048 0.73699999 1.5809456e-38
-0.017547607 -0.021759056 0.73699999 1.6178951e-38
-0.016121894 -0.021729529 0.73600006 1.6734627e-38
-0.014679983 -0.021670476 0.73400003 1.7285993e-38
-0.013281884 -0.021670483 0.73400003 1.7560059e-38
-0.011851424 -0.02161146 0.73200005 1.7741219e-38
-0.010457113 -0.021611445 0.73199999 1.810641e-38
-0.0090628378 -0.021611467 0.73200005 1.838264e-38
-0.0076685608 -0.02161146 0.73200005 1.8657794e-38
-0.0062742629 -0.021611445 0.73200005 1.8842902e-38
-0.0048799873 -0.021611452 0.73200005 1.9304593e-38
-0.0034856892 -0.021611445 0.73199999 1.9668671e-38
-0.0020828277 -0.021522865 0.72899997 1.9940914e-38
-0.00069615559 -0.021581903 0.73099995 2.0215003e-38
0.00069431739 -0.02152288 0.72900003 1.9942384e-38
0.0020828664 -0.021522872 0.72900003 1.9573945e-38
0.0034809818 -0.021581903 0.73099995 1.9940549e-38
0.0048733675 -0.021581918 0.73100001 2.0211408e-38
0.006265746 -0.021581911 0.73099995 2.0303978e-38
0.0076581319 -0.021581911 0.73100001 2.0302194e-38
