# .PCD v0.7 - Point Cloud Data file format
VERSION 0.7
FIELDS x y z rgb
SIZE 4 4 4 4
TYPE F F F F
COUNT 1 1 1 1
WIDTH 973
HEIGHT 1
VIEWPOINT 0 0 0 1 0 0 0
POINTS 973
DATA ascii
-0.010757172 0.035139978 0.75300002 1.4472996e-38
-0.0093104886 0.03509333 0.75200003 1.0252875e-38
-0.007878093 0.035093337 0.75200003 1.1075455e-38
-0.0064457268 0.035093315 0.75200003 1.1892278e-38
-0.0050000069 0.034999989 0.75000006 1.0242099e-38
-0.0035714291 0.034999989 0.75000006 8.580435e-39
-0.0021428519 0.034999996 0.75000006 7.9253742e-39
-0.00071237679 0.034906656 0.74800003 7.192837e-39
0.00071235304 0.034906641 0.74800003 7.3808072e-39
0.0021371378 0.034906641 0.74800003 7.4611492e-39
0.0035618984 0.034906641 0.74800003 4.5005166e-39
0.0049866573 0.034906656 0.74799997 1.5940919e-39
0.0064114123 0.034906641 0.74800003 1.256236e-38
0.0078361705 0.034906656 0.74800003 2.3406526e-38
0.0092609571 0.034906663 0.74800003 2.341769e-38
0.010685686 0.034906641 0.74800003 2.3412253e-38
0.012142834 0.034999982 0.75000012 1.7794447e-38
0.013571438 0.034999989 0.75000006 1.2164065e-38
0.015000016 0.034999996 0.75000006 1.1687949e-38
0.016428595 0.034999982 0.75000006 1.1130493e-38
0.017857144 0.034999982 0.75000006 1.149462e-38
0.01928572 0.034999996 0.75000006 1.186772e-38
0.0207143 0.034999996 0.75000006 1.2429873e-38
0.022142846 0.034999996 0.75000006 1.2891929e-38
0.023634287 0.035093322 0.75200003 1.2803331e-38
0.025166664 0.035233326 0.75500005 1.2711848e-38
0.026604746 0.035233319 0.75500005 1.2250154e-38
0.028079974 0.035279967 0.7560001 1.1800371e-38
0.029676175 0.035466649 0.76000005 1.5495741e-38
0.03116476 0.035513304 0.7610001 1.9177427e-38
0.032614294 0.035513312 0.76100004 1.8258012e-38
0.034063809 0.035513312 0.7610001 1.7244948e-38
0.03560663 0.035606638 0.76300007 1.7060915e-38
0.037059989 0.035606638 0.76300007 1.6785051e-38
0.038513292 0.035606638 0.76300007 1.6509548e-38
-0.022585763 0.037157126 0.7650001 1.0593022e-38
-0.021073351 0.037059978 0.76300007 1.178844e-38
-0.019620046 0.037059963 0.76300007 1.373289e-38
-0.018119067 0.03696283 0.7610001 1.5781662e-38
-0.016647626 0.036914267 0.76000011 1.6239096e-38
-0.015160022 0.036817119 0.75800002 1.670257e-38
-0.013716226 0.036817111 0.75800008 1.5768421e-38
-0.012240029 0.036719963 0.7560001 1.4921043e-38
-0.010785729 0.036671422 0.75500005 1.309038e-38
-0.0093228845 0.036574259 0.75300008 1.1345194e-38
-0.00788859 0.036574259 0.75300008 1.0702393e-38
-0.0064457194 0.036525704 0.75200003 1.0056997e-38
-0.0050133527 0.036525704 0.75200003 9.3151021e-39
-0.0035809574 0.036525697 0.75200003 8.6614791e-39
-0.0021428687 0.036428563 0.75000006 6.7329196e-39
-0.00071428972 0.036428571 0.75000006 4.8937042e-39
0.00071237166 0.0363314 0.74800003 6.3559017e-39
0.0021371313 0.036331408 0.74800003 7.8224096e-39
0.0035619161 0.036331415 0.74800003 1.0138753e-38
0.0049866471 0.036331415 0.74800003 1.2455855e-38
0.0064114057 0.0363314 0.74800003 1.7894646e-38
0.0078361901 0.036331408 0.74800003 2.341769e-38
0.0092609189 0.036331408 0.74800003 2.0842709e-38
0.010685706 0.0363314 0.74800003 1.8365549e-38
0.012142847 0.036428571 0.75000006 1.4919095e-38
0.01357145 0.036428563 0.75000006 1.1479904e-38
0.014999999 0.036428556 0.75000012 1.1409568e-38
0.016428577 0.036428563 0.75000006 1.1419979e-38
0.017857155 0.036428563 0.75000006 1.1041164e-38
0.019285733 0.036428563 0.75000006 1.0669188e-38
0.020714279 0.036428563 0.75000006 1.1684789e-38
0.022142859 0.036428578 0.75000006 1.2798661e-38
0.023634264 0.036525689 0.75200003 1.3169956e-38
0.025166653 0.036671408 0.75500005 1.3539088e-38
0.026639955 0.036719963 0.7560001 1.3264653e-38
0.028154248 0.036817119 0.75800002 1.3082483e-38
0.029598044 0.036817111 0.75800008 1.6134284e-38
0.031164749 0.03696283 0.7610001 1.9272125e-38
0.032699976 0.037059963 0.76300007 1.8072531e-38
0.034153309 0.037059978 0.76300001 1.6966199e-38
0.035699964 0.037157141 0.76500005 1.6967632e-38
0.037157115 0.037157141 0.7650001 1.6968362e-38
0.038715225 0.037254252 0.76700008 1.6968374e-38
0.040176194 0.037254266 0.76700002 1.6964035e-38
-0.022644792 0.038715214 0.76700008 1.2262338e-38
-0.021073338 0.038513299 0.76300001 1.5209036e-38
-0.019620033 0.038513299 0.76300007 1.6515608e-38
-0.018119074 0.038412355 0.7610001 1.7791625e-38
-0.016647657 0.038361892 0.76000011 1.4847155e-38
-0.015160046 0.038260918 0.75800008 1.1901969e-38
-0.01371622 0.038260918 0.75800008 1.152459e-38
-0.012240041 0.038159959 0.7560001 1.1159376e-38
-0.01078571 0.038109519 0.75500005 1.1806506e-38
-0.0093228826 0.038008545 0.75300008 1.2353215e-38
-0.0078886198 0.038008545 0.75300008 1.0239925e-38
-0.0064543276 0.038008537 0.75300008 8.1219581e-39
-0.005013322 0.037958089 0.75200003 8.3917123e-39
-0.0035809556 0.037958086 0.75200003 8.6657712e-39
-0.0021428547 0.037857141 0.75000006 5.6341111e-39
-0.00071430835 0.037857138 0.75000012 2.5895463e-39
0.00071236794 0.037756175 0.74800003 5.3270305e-39
0.0021371527 0.037756179 0.74800003 8.1219609e-39
0.0035618816 0.03775616 0.74800003 1.5684446e-38
0.0050000004 0.037857138 0.75000006 2.3221081e-38
0.0064285793 0.037857123 0.75000006 2.3325854e-38
0.0078361863 0.03775616 0.74800003 2.3414077e-38
0.0092609404 0.03775616 0.74800003 1.8352697e-38
0.010714281 0.037857141 0.75000006 1.3176069e-38
0.01214286 0.037857149 0.75000006 1.2036617e-38
0.013571434 0.037857126 0.75000012 1.0853523e-38
0.015000011 0.037857134 0.75000006 1.1234144e-38
0.01642859 0.037857141 0.75000006 1.1599339e-38
0.017904738 0.037958078 0.75200003 1.0488709e-38
0.019337136 0.037958089 0.75200003 9.3831267e-39
0.020797104 0.038008537 0.75300008 1.1024717e-38
0.022290479 0.038109522 0.75500005 1.2612478e-38
0.023728561 0.038109504 0.75500005 1.3538379e-38
0.025199991 0.038159974 0.7560001 1.4372444e-38
0.026639968 0.038159974 0.7560001 1.4370662e-38
0.028154254 0.038260929 0.75800002 1.4285693e-38
0.029715205 0.038412359 0.7610001 1.687077e-38
0.03124666 0.038513303 0.76300001 1.9359301e-38
0.032699987 0.038513303 0.76300007 1.7977827e-38
0.034242816 0.038614269 0.76500005 1.6600657e-38
0.035699964 0.038614266 0.7650001 1.6875092e-38
0.037254278 0.038715221 0.76700008 1.7061641e-38
0.03876571 0.038765691 0.76800007 1.7431144e-38
-0.024262873 0.040438067 0.77200007 9.3204621e-39
-0.022674287 0.040228546 0.76800001 1.0702346e-38
-0.021128604 0.040071409 0.76500005 1.209568e-38
-0.019620022 0.039966635 0.76300007 1.2822848e-38
-0.018119054 0.039861877 0.7610001 1.3643947e-38
-0.016647631 0.03980951 0.76000011 1.2353546e-38
-0.015160041 0.03970474 0.75800008 1.1145e-38
-0.013716214 0.039704733 0.75800002 1.0603696e-38
-0.012240028 0.039599977 0.7560001 1.0150979e-38
-0.01078572 0.039547607 0.75500005 9.9626491e-39
-0.0093228826 0.03944283 0.75300002 9.8682605e-39
-0.0078885937 0.039442826 0.75300008 8.5782153e-39
-0.0064543015 0.039442834 0.75300008 7.3807791e-39
-0.0050133462 0.039390456 0.75200003 6.9223317e-39
-0.0035809481 0.03939046 0.75200003 6.5574897e-39
-0.0021428724 0.039285701 0.75000006 5.8984856e-39
-0.00071429345 0.039285712 0.75000006 5.2484513e-39
0.00071431068 0.039285712 0.75000006 1.0511762e-38
0.002142858 0.039285697 0.75000012 1.5775887e-38
0.0035618779 0.039180931 0.74800003 1.9550913e-38
0.0050000143 0.039285708 0.75000006 2.3325854e-38
0.0064114216 0.039180934 0.74800003 2.0565767e-38
0.0078361779 0.039180931 0.74800003 1.790751e-38
0.0092857163 0.039285701 0.75000006 1.418525e-38
0.010714266 0.039285704 0.75000012 1.0469734e-38
0.012142843 0.039285716 0.75000006 1.1029591e-38
0.013571422 0.039285704 0.75000006 1.1601447e-38
0.015000024 0.039285704 0.75000006 1.2888255e-38
0.016428575 0.039285704 0.75000012 1.4172162e-38
0.017904771 0.039390471 0.75200003 1.3623665e-38
0.019362813 0.039442826 0.75300008 1.3155551e-38
0.020797104 0.039442822 0.75300008 1.4635353e-38
0.02229047 0.039547615 0.75500005 1.6210923e-38
0.023728583 0.039547622 0.75500005 1.6674063e-38
0.025199978 0.039599977 0.7560001 1.7143313e-38
0.026639955 0.039599974 0.7560001 1.6027683e-38
0.02815423 0.039704729 0.75800008 1.5022193e-38
0.029715223 0.039861877 0.7610001 1.7332825e-38
0.031246642 0.039966628 0.76300007 1.9551227e-38
0.032785695 0.040071417 0.7650001 1.8074327e-38
0.03424285 0.040071428 0.76500005 1.6603176e-38
0.035699967 0.040071417 0.7650001 1.6785421e-38
0.037254274 0.040176183 0.76700002 1.6971249e-38
-0.024262901 0.041908551 0.77200007 9.2242952e-39
-0.022733349 0.041799992 0.77000004 9.129978e-39
-0.021183832 0.041637138 0.76700002 8.9517006e-39
-0.019671451 0.04152856 0.7650001 9.2200464e-39
-0.018119061 0.041311413 0.7610001 9.4108809e-39
-0.016647633 0.041257139 0.76000005 9.8700471e-39
-0.015160034 0.04114854 0.75800008 1.0326713e-38
-0.013716208 0.04114854 0.75800002 9.6860174e-39
-0.012272437 0.041148543 0.75800008 9.0402977e-39
-0.010800033 0.041039973 0.75600004 8.208756e-39
-0.0093476465 0.040985703 0.75500005 7.2867983e-39
-0.0078885946 0.040877111 0.75300008 6.9162137e-39
-0.0064543015 0.040877122 0.75300008 6.5492304e-39
-0.0050200368 0.040877115 0.75300008 5.4504317e-39
-0.0035809472 0.040822838 0.75200003 4.3426702e-39
-0.0021428566 0.040714275 0.75000006 6.153557e-39
-0.00071620918 0.040822849 0.75200003 7.9425807e-39
0.00071618729 0.040822849 0.75200003 1.5696248e-38
0.002142872 0.040714283 0.75000006 2.3411191e-38
0.0035714491 0.040714275 0.75000006 2.341769e-38
0.0049999976 0.040714275 0.75000012 2.3412603e-38
0.0064285747 0.040714286 0.75000006 1.7887342e-38
0.0078571532 0.040714271 0.75000006 1.2255243e-38
0.0092857005 0.040714268 0.75000012 1.0010655e-38
0.010714279 0.040714279 0.75000006 7.8154984e-39
0.012142857 0.040714283 0.75000006 1.001051e-38
0.013571406 0.040714279 0.75000012 1.2247248e-38
0.015040009 0.040822841 0.75200003 1.4453851e-38
0.016472375 0.040822838 0.75200003 1.666939e-38
0.01792855 0.040877119 0.75300002 1.6769484e-38
0.019362813 0.040877111 0.75300008 1.6855237e-38
0.02079713 0.040877119 0.75300008 1.8333949e-38
0.022290464 0.040985715 0.75500005 1.9709336e-38
0.023728546 0.040985696 0.75500005 1.9804048e-38
0.025199993 0.041039973 0.7560001 1.979901e-38
0.02663997 0.041039966 0.7560001 1.7758165e-38
0.028154237 0.041148555 0.75800008 1.5757931e-38
0.029793324 0.041419972 0.76300001 1.7795587e-38
0.031246653 0.041419968 0.76300007 1.9728438e-38
0.032871414 0.04163713 0.76700002 1.8164725e-38
0.034332354 0.041637126 0.76700008 1.660209e-38
0.035793327 0.04163713 0.76700002 1.6692492e-38
0.037302855 0.041691404 0.76800001 1.6785047e-38
-0.024262872 0.043379031 0.77200001 8.9455335e-39
-0.022733368 0.043266658 0.7700001 8.8540679e-39
-0.0211286 0.042985704 0.7650001 8.8504904e-39
-0.019671477 0.042985704 0.7650001 8.5778636e-39
-0.018166695 0.042873304 0.76300001 8.3073976e-39
-0.016669529 0.042760927 0.76100004 8.1212323e-39
-0.015200021 0.042704746 0.76000005 7.942201e-39
-0.013716231 0.042592343 0.75800008 7.4736726e-39
-0.012272405 0.04259235 0.75800008 7.1056076e-39
-0.01080002 0.042479984 0.7560001 6.9158325e-39
-0.009347626 0.042423803 0.75500005 6.7246422e-39
-0.0079095457 0.0424238 0.75500005 8.6610937e-39
-0.0064543313 0.042311396 0.75300008 1.067321e-38
-0.0050200378 0.042311408 0.75300008 1.0872651e-38
-0.0035857453 0.042311408 0.75300002 1.1055267e-38
-0.0021485731 0.042255227 0.75200003 1.3368036e-38
-0.00071617751 0.042255234 0.75200003 1.5692326e-38
0.00071616308 0.04225523 0.75200003 1.9555936e-38
0.0021485577 0.042255238 0.75200003 2.341769e-38
0.0035809551 0.042255234 0.75200003 2.3142183e-38
0.005013322 0.042255223 0.75200003 2.2774713e-38
0.0064457175 0.042255234 0.75200003 1.9250755e-38
0.0078571374 0.042142853 0.75000006 1.5704379e-38
0.0093104551 0.042255227 0.75200003 1.4994139e-38
0.010742851 0.042255227 0.75200003 1.4271273e-38
0.012142841 0.042142849 0.75000006 1.5746719e-38
0.013571418 0.042142857 0.75000006 1.7146898e-38
0.015039984 0.042255223 0.75200003 1.7964494e-38
0.016472382 0.042255234 0.75200003 1.8802864e-38
0.017976204 0.042423803 0.75500005 1.8791037e-38
0.019414285 0.042423796 0.75500005 1.8886101e-38
0.020852396 0.042423803 0.75500005 1.9619709e-38
0.022290451 0.042423803 0.75500005 2.0356185e-38
0.023728564 0.042423796 0.75500005 2.0171435e-38
0.025199978 0.042479981 0.75600004 2.0081692e-38
0.026639957 0.042479966 0.7560001 1.7959012e-38
0.028154271 0.042592347 0.75800008 1.5945524e-38
0.029793305 0.042873297 0.76300007 1.7517208e-38
0.031328551 0.0429857 0.76500005 1.9177422e-38
0.032871407 0.04309807 0.76700008 1.8072528e-38
0.034332346 0.04309807 0.76700008 1.6968344e-38
0.035793319 0.043098077 0.76700002 1.6876503e-38
0.037302844 0.043154258 0.76800007 1.6875788e-38
-0.022733357 0.044733334 0.77000004 8.6736353e-39
-0.021128597 0.044442847 0.76500005 8.6696935e-39
-0.019620042 0.044326641 0.76300007 7.93322e-39
-0.018166684 0.044326644 0.76300001 7.1970955e-39
-0.016669534 0.044210464 0.76100004 6.3651909e-39
-0.015220023 0.044210456 0.7610001 5.4461072e-39
-0.013716226 0.044036157 0.75800008 5.3442174e-39
-0.0122724 0.044036161 0.75800002 5.1662862e-39
-0.010800032 0.043919984 0.75600004 5.6236714e-39
-0.0093600284 0.043919977 0.7560001 6.0904173e-39
-0.0079095261 0.043861896 0.75500005 1.0513621e-38
-0.0064714407 0.043861907 0.75500005 1.4833829e-38
-0.0050333603 0.043861892 0.75500005 1.631108e-38
-0.0035857491 0.043745678 0.75300008 1.7696534e-38
-0.0021485982 0.043687608 0.75200003 2.0570369e-38
-0.00071620173 0.043687604 0.75200003 2.3414789e-38
0.00071619474 0.043687601 0.75200003 2.341769e-38
0.0021485595 0.043687601 0.75200003 2.3417321e-38
0.0035809309 0.043687612 0.75200003 2.2774822e-38
0.0050133285 0.043687616 0.75200003 2.2115404e-38
0.0064456942 0.043687612 0.75200003 2.0728118e-38
0.0078780903 0.043687608 0.75200003 1.924478e-38
0.0093104877 0.043687608 0.75200003 1.9990606e-38
0.010742853 0.043687608 0.75200003 2.0717017e-38
0.012175224 0.043687601 0.75200003 2.1374192e-38
0.013607621 0.043687608 0.75200003 2.2011327e-38
0.015039987 0.043687601 0.75200003 2.1453884e-38
0.016472384 0.043687608 0.75200003 2.0805664e-38
0.017976193 0.043861892 0.75500005 2.0889257e-38
0.019414278 0.043861903 0.75500005 2.0901471e-38
0.020852359 0.043861896 0.75500005 2.0902923e-38
0.02229047 0.043861903 0.75500005 2.0906118e-38
0.023728583 0.043861896 0.75500005 2.062735e-38
0.025199991 0.043919977 0.7560001 2.0263943e-38
0.02663997 0.043919973 0.7560001 1.8233865e-38
0.02815425 0.044036172 0.75800002 1.6128508e-38
0.029793318 0.044326633 0.76300007 1.7334251e-38
0.031328525 0.044442844 0.7650001 1.8532063e-38
0.032871403 0.044559028 0.76700008 1.7887785e-38
0.034332372 0.044559035 0.76700002 1.7244216e-38
0.035793316 0.044559035 0.76700008 1.7152738e-38
0.037302863 0.044617116 0.76800007 1.6967997e-38
-0.022644792 0.046019979 0.76700008 7.9350151e-39
-0.021128619 0.045899987 0.7650001 7.8435369e-39
-0.019671442 0.045899991 0.76500005 7.1013168e-39
-0.018166671 0.045779981 0.76300001 6.3666062e-39
-0.016713368 0.045779977 0.76300001 5.9942153e-39
-0.01522003 0.045659978 0.7610001 5.6225714e-39
-0.013752412 0.04559999 0.76000011 4.5205468e-39
-0.012272423 0.045479964 0.75800008 3.4181705e-39
-0.010828623 0.045479972 0.75800002 4.2425446e-39
-0.0093600396 0.045359973 0.7560001 5.0805982e-39
-0.0079200324 0.045359984 0.7560001 1.1256231e-38
-0.0064800284 0.045359977 0.7560001 1.7429656e-38
-0.0050333398 0.045300007 0.75500005 1.7601128e-38
-0.0035952588 0.045299988 0.75500005 1.7889587e-38
-0.0021514546 0.045179974 0.75300008 1.9822833e-38
-0.00071716192 0.045179985 0.75300002 2.1856128e-38
0.00071709999 0.045179978 0.75300008 2.1668511e-38
0.0021514187 0.045179967 0.75300008 2.1395137e-38
0.0035809337 0.045119986 0.75200003 2.0732539e-38
0.0050133304 0.04511999 0.75200003 1.9979194e-38
0.0064457259 0.045119986 0.75200003 2.0264379e-38
0.007878067 0.045119982 0.75200003 2.0556019e-38
0.0093104634 0.045119993 0.75200003 2.0251086e-38
0.010742859 0.045119997 0.75200003 2.0069185e-38
0.012175226 0.045119993 0.75200003 2.1370642e-38
0.013607623 0.045119986 0.75200003 2.2743878e-38
0.015039993 0.04511999 0.75200003 2.2007408e-38
0.016494254 0.045179967 0.75300008 2.1341249e-38
0.017928546 0.045179974 0.75300008 2.1259822e-38
0.019414267 0.045299992 0.75500005 2.1090175e-38
0.020852378 0.045299999 0.75500005 2.1182044e-38
0.022290489 0.045300003 0.75500005 2.1370314e-38
0.02375997 0.045359977 0.7560001 2.0722379e-38
0.025199978 0.045359984 0.75600004 2.0091766e-38
0.026710456 0.045479976 0.75800002 1.7870532e-38
0.028154252 0.045479957 0.75800008 1.5663979e-38
0.02979333 0.045779973 0.76300001 1.7148424e-38
0.031246634 0.045779973 0.76300007 1.8718605e-38
0.032871425 0.046019979 0.76700002 1.7521524e-38
0.034332369 0.046019979 0.76700008 1.6325511e-38
0.035839986 0.046079978 0.76800007 1.8068951e-38
0.037302855 0.046079986 0.76800001 1.981527e-38
-0.024200026 0.047666643 0.7700001 7.3789336e-39
-0.022674311 0.047542822 0.76800007 7.1920397e-39
-0.021183826 0.04748093 0.76700008 7.0062177e-39
-0.019671468 0.047357135 0.7650001 6.2618493e-39
-0.018214315 0.047357142 0.76500005 5.4396262e-39
-0.016713353 0.047233313 0.76300001 5.6229301e-39
-0.015260027 0.04723331 0.76300007 5.8055165e-39
-0.013752414 0.0470476 0.76000011 3.6968804e-39
-0.012304799 0.047047596 0.76000011 1.5757321e-39
-0.010828616 0.046923783 0.75800002 2.8474763e-39
-0.0093848193 0.046923779 0.75800008 4.0768887e-39
-0.0079200212 0.046799973 0.7560001 1.2092801e-38
-0.0064800414 0.046799973 0.7560001 1.9988116e-38
-0.005033351 0.046738081 0.75500005 1.895817e-38
-0.0035952402 0.046738084 0.75500005 1.7963459e-38
-0.0021514546 0.046614259 0.75300002 1.9158452e-38
-0.00071719172 0.046614256 0.75300008 2.0279851e-38
0.00071712513 0.046614263 0.75300008 1.9821392e-38
0.0021514187 0.046614267 0.75300008 1.9355736e-38
0.0035856816 0.046614248 0.75300008 1.8597714e-38
0.0050133052 0.04655236 0.75200003 1.7865884e-38
0.0064542671 0.046614263 0.75300002 1.9794413e-38
0.0078780986 0.046552371 0.75200003 2.171863e-38
0.0093104644 0.046552353 0.75200003 2.0479901e-38
0.010742835 0.046552364 0.75200003 1.9323742e-38
0.012175232 0.046552368 0.75200003 2.1386846e-38
0.013607598 0.046552368 0.75200003 2.3399339e-38
0.01505996 0.046614259 0.75300008 2.2674345e-38
0.016494254 0.046614256 0.75300008 2.1910577e-38
0.017976176 0.046738084 0.75500005 2.1626077e-38
0.019414287 0.046738088 0.75500005 2.1272395e-38
0.020852398 0.046738096 0.75500005 2.1547572e-38
0.022290453 0.046738096 0.75500005 2.1732623e-38
0.023759985 0.046799973 0.7560001 2.0800583e-38
0.025199993 0.04679998 0.75600004 1.9798664e-38
0.026710462 0.046923786 0.75800002 1.7492036e-38
0.028228564 0.047047608 0.76000005 1.5208725e-38
0.029793316 0.04723331 0.76300001 1.7059807e-38
0.031328533 0.04735712 0.7650001 1.8807206e-38
0.032871418 0.047480922 0.76700008 1.7153463e-38
0.034332391 0.04748093 0.76700002 1.5405368e-38
0.035793331 0.04748093 0.76700008 1.8982297e-38
0.03730287 0.047542829 0.76800001 2.2579314e-38
-0.024262898 0.049260933 0.77200007 5.7211989e-39
-0.022733361 0.049133323 0.7700001 6.0871032e-39
-0.021211425 0.049005702 0.76800001 6.5437738e-39
-0.019722862 0.048941877 0.76700008 5.5300002e-39
-0.018214339 0.048814271 0.7650001 4.6087866e-39
-0.016713342 0.048686653 0.76300001 4.4244079e-39
-0.015260016 0.04868665 0.76300007 4.2389251e-39
-0.013770506 0.048559017 0.7610001 5.3394979e-39
-0.012304774 0.048495222 0.76000011 6.4415911e-39
-0.010828585 0.048367601 0.75800002 9.1278466e-39
-0.0093848128 0.048367593 0.75800008 1.1898355e-38
-0.0079200333 0.048239969 0.75600004 1.5859495e-38
-0.0064800535 0.048239969 0.7560001 1.9716537e-38
-0.0050400202 0.048239972 0.7560001 1.88749e-38
-0.0036000123 0.04823998 0.75600004 1.8052041e-38
-0.0021514583 0.048048533 0.75300008 1.9166694e-38
-0.00071716565 0.048048541 0.75300008 2.0374549e-38
0.00071712607 0.048048541 0.75300008 2.0190879e-38
0.0021513889 0.048048541 0.75300008 2.0087902e-38
0.0035856825 0.048048548 0.75300008 1.9160915e-38
0.0050199735 0.048048545 0.75300002 1.8234284e-38
0.0064542373 0.048048541 0.75300008 1.9794386e-38
0.0078780754 0.047984757 0.75200003 2.1360573e-38
0.0093228491 0.048048537 0.75300008 2.0040039e-38
0.010742838 0.047984738 0.75200003 1.8756946e-38
0.012175235 0.047984745 0.75200003 2.0995888e-38
0.01360763 0.047984753 0.75200003 2.3118507e-38
0.015059962 0.048048545 0.75300008 2.2292346e-38
0.016494256 0.048048552 0.75300008 2.1449627e-38
0.017976195 0.048176184 0.75500005 2.1080432e-38
0.019414276 0.048176177 0.75500011 2.073392e-38
0.020852361 0.048176188 0.75500005 2.1092677e-38
0.022290472 0.048176195 0.75500005 2.1466434e-38
0.023759972 0.048239972 0.7560001 2.0536197e-38
0.02519998 0.048239976 0.75600004 1.9708606e-38
0.026710438 0.048367586 0.75800008 1.7774682e-38
0.028265722 0.048559025 0.7610001 1.5854064e-38
0.029793298 0.048686635 0.76300007 1.7332792e-38
0.031328537 0.048814274 0.7650001 1.8806842e-38
0.032871414 0.048941892 0.76700002 1.7519727e-38
0.034332357 0.048941892 0.76700002 1.6231534e-38
0.035793297 0.048941884 0.76700008 1.8532101e-38
0.037302833 0.049005687 0.76800007 2.084629e-38
-0.024200005 0.050599989 0.77000004 4.0631266e-39
-0.022674302 0.050468545 0.76800001 5.0747575e-39
-0.021211438 0.050468538 0.76800007 5.9923964e-39
-0.01972287 0.050402835 0.76700008 4.8885768e-39
-0.01821431 0.050271422 0.76500005 3.7804706e-39
-0.01671336 0.050139975 0.76300007 3.226606e-39
-0.015260028 0.05013999 0.76300001 2.6766875e-39
-0.013770514 0.050008543 0.7610001 6.9800596e-39
-0.012304774 0.049942847 0.76000011 1.124544e-38
-0.010857159 0.049942844 0.76000011 1.5507231e-38
-0.0093848081 0.0498114 0.75800002 1.97227e-38
-0.0079410113 0.049811397 0.75800008 1.9638045e-38
-0.0064800414 0.049679961 0.7560001 1.9437464e-38
-0.0050400342 0.049679972 0.7560001 1.8772325e-38
-0.0036000244 0.04967998 0.75600004 1.8055282e-38
-0.0021571468 0.049614284 0.75500005 1.9264992e-38
-0.00071716565 0.049482822 0.75300008 2.0377064e-38
0.00071712793 0.049482834 0.75300002 2.0570783e-38
0.0021513917 0.049482826 0.75300008 2.0741528e-38
0.0035856843 0.049482834 0.75300008 1.9723434e-38
0.0050199716 0.049482815 0.75300008 1.8607736e-38
0.0064542652 0.049482822 0.75300008 1.9787925e-38
0.0078885583 0.04948283 0.75300008 2.0978164e-38
0.0093228212 0.049482811 0.75300008 1.9562931e-38
0.010757115 0.049482819 0.75300008 1.8207346e-38
0.012175241 0.049417138 0.75200003 2.0536661e-38
0.013607605 0.049417131 0.75200003 2.2842601e-38
0.015059988 0.04948283 0.75300008 2.1926407e-38
0.016494282 0.049482834 0.75300008 2.0898946e-38
0.017976183 0.049614273 0.75500005 2.0511823e-38
0.019414268 0.04961428 0.75500005 2.0164583e-38
0.02085238 0.049614284 0.75500005 2.0621979e-38
0.022290461 0.049614273 0.75500005 2.1091195e-38
0.023759985 0.04967998 0.7560001 2.035256e-38
0.025199993 0.049679972 0.75600004 1.9617516e-38
0.026710445 0.049811397 0.75800008 1.8044473e-38
0.028265717 0.050008547 0.76100004 1.640401e-38
0.029793309 0.050139975 0.76300007 1.7610809e-38
0.03132854 0.050271429 0.76500005 1.8806481e-38
0.032871407 0.050402839 0.76700002 1.788635e-38
0.03433235 0.050402835 0.76700008 1.696657e-38
0.035793319 0.050402839 0.76700002 1.8068606e-38
0.037302852 0.050468545 0.76800007 1.9090286e-38
-0.024200024 0.052066658 0.7700001 4.5219327e-39
-0.022674283 0.051931404 0.76800001 5.0729611e-39
-0.021211447 0.051931404 0.76800007 5.7172417e-39
-0.019722871 0.051863793 0.76700002 5.2533979e-39
-0.01826193 0.05186379 0.76700008 4.7849186e-39
-0.016757181 0.051728558 0.76500005 5.989926e-39
-0.015300035 0.051728554 0.7650001 7.2810599e-39
-0.013806686 0.051593304 0.76300007 1.0417871e-38
-0.012320953 0.051458068 0.7610001 1.3572957e-38
-0.010871468 0.051458068 0.7610001 1.5778838e-38
-0.009409545 0.051390465 0.76000011 1.8071847e-38
-0.0079410048 0.051255208 0.75800008 1.8894771e-38
-0.0064971778 0.051255215 0.75800002 1.9714427e-38
-0.0050533819 0.051255211 0.75800008 1.8878172e-38
-0.003600043 0.051119965 0.7560001 1.8152513e-38
-0.0021571571 0.051052373 0.75500005 1.944795e-38
-0.00071904506 0.051052362 0.75500005 2.0746206e-38
0.00071904087 0.051052373 0.75500005 2.1392285e-38
0.0021571221 0.051052369 0.75500005 2.2124816e-38
0.0035857104 0.050917115 0.75300008 2.1015614e-38
0.0050199726 0.050917115 0.75300008 1.98999e-38
0.0064542652 0.050917108 0.75300008 2.0440095e-38
0.0078885583 0.050917115 0.75300002 2.0905341e-38
0.0093228221 0.050917111 0.75300008 1.9962922e-38
0.010757113 0.050917108 0.75300008 1.9115634e-38
0.012175242 0.050849516 0.75200003 2.0894984e-38
0.013625695 0.050917104 0.75300008 2.2666063e-38
0.015059988 0.050917115 0.75300008 2.1922786e-38
0.016494254 0.050917111 0.75300008 2.1268415e-38
0.017928544 0.050917115 0.75300008 2.0986406e-38
0.019414287 0.051052384 0.75500005 2.0719511e-38
0.020852368 0.051052377 0.75500005 2.0999323e-38
0.022290479 0.051052384 0.75500005 2.1372079e-38
0.023759974 0.051119976 0.7560001 2.0636709e-38
0.025266623 0.0512552 0.75800008 1.990489e-38
0.026780937 0.051390469 0.76000011 1.7592135e-38
0.028265707 0.051458083 0.76100004 1.5300202e-38
0.02971522 0.051458064 0.7610001 1.6780699e-38
0.031246653 0.051593307 0.76300007 1.835053e-38
0.032785695 0.051728558 0.76500005 1.7611201e-38
0.034242816 0.051728558 0.76500005 1.6873651e-38
0.035839975 0.051931396 0.76800007 1.7242074e-38
0.037399981 0.05206665 0.7700001 1.7701264e-38
0.038866665 0.052066654 0.77000004 1.8629676e-38
0.040333319 0.052066654 0.7700001 1.9649196e-38
-0.024262896 0.053672366 0.77200007 4.8813896e-39
-0.022733359 0.053533316 0.7700001 5.1615666e-39
-0.021211429 0.053394265 0.76800001 5.3502682e-39
-0.019748591 0.053394247 0.76800007 5.5314365e-39
-0.018261937 0.053324744 0.76700008 5.7223144e-39
-0.016757181 0.053185698 0.7650001 8.7593752e-39
-0.015300031 0.053185705 0.76500005 1.1801098e-38
-0.013806674 0.05304664 0.76300007 1.3836578e-38
-0.01235337 0.053046636 0.76300007 1.576874e-38
-0.010871449 0.052907586 0.7610001 1.6055038e-38
-0.0094219083 0.052907594 0.7610001 1.6316184e-38
-0.0079619316 0.05283808 0.76000011 1.8154318e-38
-0.0064971712 0.052699026 0.75800002 1.989343e-38
-0.0050533745 0.052699022 0.75800008 1.9056485e-38
-0.003609549 0.052699029 0.75800002 1.8243275e-38
-0.0021571645 0.052490477 0.75500005 1.96273e-38
-0.00071905251 0.05249048 0.75500005 2.1015605e-38
0.00071902876 0.052490477 0.75500005 2.2219162e-38
0.0021571417 0.052490469 0.75500005 2.3411947e-38
0.003595223 0.052490465 0.75500005 2.2314228e-38
0.0050199726 0.0523514 0.75300008 2.1186678e-38
0.0064542661 0.052351408 0.75300002 2.0983943e-38
0.0078885285 0.052351404 0.75300008 2.0809946e-38
0.0093228221 0.052351397 0.75300008 2.0450843e-38
0.010757139 0.052351404 0.75300008 1.9973039e-38
0.012191403 0.052351397 0.75300008 2.1170159e-38
0.013625695 0.052351404 0.75300008 2.2380889e-38
0.015099972 0.052490477 0.75500005 2.2013557e-38
0.016538085 0.052490469 0.75500005 2.154897e-38
0.017976196 0.052490473 0.75500005 2.1445987e-38
0.019414278 0.052490473 0.75500005 2.1275594e-38
0.020879975 0.052559983 0.75600004 2.1467161e-38
0.022319978 0.052559964 0.7560001 2.1560814e-38
0.023822835 0.052699018 0.75800002 2.0825796e-38
0.025333317 0.052838091 0.76000011 2.0082122e-38
0.026816187 0.052907601 0.7610001 1.711933e-38
0.028265728 0.052907605 0.7610001 1.4103829e-38
0.029793333 0.053046644 0.76300001 1.5952742e-38
0.031246638 0.053046647 0.76300007 1.7794501e-38
0.032785669 0.053185705 0.7650001 1.7333915e-38
0.034242846 0.053185694 0.76500005 1.6783617e-38
0.035933334 0.053533331 0.77000004 1.6508467e-38
0.037399989 0.053533327 0.7700001 1.6231886e-38
0.038866643 0.053533323 0.7700001 1.6046066e-38
-0.024262866 0.055142846 0.77200001 6.0687994e-39
-0.022733347 0.055 0.77000004 7.3724316e-39
-0.021211436 0.054857116 0.76800001 8.7553661e-39
-0.019748574 0.054857112 0.76800007 8.8551133e-39
-0.018285735 0.054857105 0.76800007 8.9555976e-39
-0.016757177 0.054642837 0.76500005 1.0243126e-38
-0.015300056 0.054642834 0.7650001 1.1541746e-38
-0.013806689 0.054499976 0.76300001 1.1713946e-38
-0.012353358 0.054499973 0.76300007 1.19884e-38
-0.010871455 0.054357108 0.7610001 1.1889771e-38
-0.0094219139 0.054357115 0.7610001 1.1790029e-38
-0.0079619316 0.054285701 0.76000011 1.5387384e-38
-0.0064971964 0.054142825 0.75800008 1.897543e-38
-0.0050533698 0.054142833 0.75800002 1.8512669e-38
-0.0036095732 0.054142829 0.75800008 1.8064629e-38
-0.0021600348 0.053999975 0.7560001 1.9629435e-38
-0.00071906461 0.053928554 0.75500005 2.1194244e-38
0.00071904738 0.053928562 0.75500005 2.2214856e-38
0.0021571296 0.053928562 0.75500005 2.3131779e-38
0.0035952416 0.053928565 0.75500005 2.1750302e-38
0.0050333268 0.053928576 0.75500005 2.0354785e-38
0.006471409 0.053928569 0.75500005 2.0436168e-38
0.0078885546 0.053785685 0.75300008 2.0531955e-38
0.0093228482 0.053785693 0.75300008 1.9792972e-38
0.010785713 0.053928562 0.75500005 1.906333e-38
0.012191403 0.053785682 0.75300008 2.0996916e-38
0.013661879 0.053928569 0.75500005 2.2939455e-38
0.01509999 0.053928565 0.75500005 2.2386291e-38
0.016538104 0.053928569 0.75500005 2.1927102e-38
0.017976185 0.053928562 0.75500005 2.1922786e-38
0.01943998 0.053999972 0.7560001 2.1929252e-38
0.020879988 0.053999975 0.75600004 2.147044e-38
0.022319965 0.053999972 0.7560001 2.101666e-38
0.023885695 0.054285705 0.76000011 1.9541209e-38
0.02533331 0.054285701 0.76000011 1.7978535e-38
0.02681618 0.054357123 0.7610001 1.5018596e-38
0.02826572 0.054357126 0.76100004 1.2174925e-38
0.02979329 0.054499976 0.76300007 1.4940036e-38
0.031246649 0.054499969 0.76300001 1.7703746e-38
0.032871418 0.054785691 0.76700008 1.7152409e-38
0.034332361 0.054785687 0.76700008 1.6693583e-38
0.036026619 0.055142839 0.77200007 1.6693216e-38
0.037497122 0.055142842 0.77200001 1.6692131e-38
0.038967598 0.055142842 0.77200001 1.6507374e-38
-0.024262894 0.056613315 0.77200001 7.192034e-39
-0.022674287 0.056319971 0.76800007 9.6870291e-39
-0.021211449 0.056319967 0.76800007 1.207619e-38
-0.019748582 0.056319974 0.76800001 1.2177355e-38
-0.018285718 0.056319971 0.76800007 1.2171269e-38
-0.016757201 0.056099981 0.7650001 1.1714974e-38
-0.015340009 0.056246657 0.76700008 1.1153191e-38
-0.013806707 0.055953305 0.76300007 9.6723351e-39
-0.012320973 0.055806648 0.7610001 8.1082646e-39
-0.010871463 0.055806629 0.7610001 7.7258601e-39
-0.0094095534 0.055733327 0.76000011 7.2857291e-39
-0.0079619382 0.055733316 0.76000011 1.2630158e-38
-0.0064971899 0.055586636 0.75800008 1.79602e-38
-0.0050533642 0.055586644 0.75800002 1.7861544e-38
-0.0036095676 0.05558664 0.75800008 1.7782295e-38
-0.0021600209 0.055439983 0.7560001 1.9630874e-38
-0.00071904506 0.055366658 0.75500005 2.1381505e-38
0.00071903714 0.05536665 0.75500005 2.2130198e-38
0.0021571482 0.055366658 0.75500005 2.2855897e-38
0.0035952341 0.055366665 0.755 2.1200689e-38
0.0050333156 0.05536665 0.75500005 1.9520348e-38
0.0064714267 0.055366654 0.75500005 1.9873663e-38
0.0079095084 0.055366646 0.75500005 2.0154527e-38
0.0093476195 0.055366658 0.75500005 1.9125301e-38
0.010785705 0.055366665 0.75500005 1.804808e-38
0.012223787 0.055366665 0.75500005 2.0722483e-38
0.013661898 0.055366669 0.75500005 2.3397913e-38
0.015100009 0.055366658 0.75500005 2.2848341e-38
0.016538091 0.055366658 0.75500005 2.2204045e-38
0.017999962 0.055439975 0.7560001 2.2388421e-38
0.019439969 0.055439983 0.7560001 2.247667e-38
0.020879976 0.055439971 0.75600004 2.1468276e-38
0.022378989 0.055586636 0.75800008 2.0454862e-38
0.023885692 0.055733323 0.76000011 1.8160055e-38
0.025366662 0.055806644 0.76100004 1.5846526e-38
0.026816173 0.055806644 0.7610001 1.2985572e-38
0.028265717 0.055806652 0.76100004 1.0149843e-38
0.029793303 0.055953313 0.76300007 1.3836229e-38
0.031328551 0.056099985 0.76500005 1.751936e-38
0.032871414 0.056246646 0.76700008 1.706236e-38
0.034332383 0.056246657 0.76700008 1.6602818e-38
0.036026645 0.056613315 0.77200001 1.6878319e-38
0.037497122 0.056613311 0.77200001 1.7060552e-38
0.038967568 0.056613311 0.77200007 1.6968715e-38
-0.022674294 0.057782833 0.76800001 8.9498887e-39
-0.02121143 0.057782829 0.76800007 9.9704684e-39
-0.019748563 0.05778284 0.76800001 9.8700079e-39
-0.018285727 0.057782833 0.76800007 9.7752899e-39
-0.016822888 0.057782833 0.76800007 9.4925962e-39
-0.015340041 0.057707604 0.76700008 9.1115971e-39
-0.013842897 0.057557136 0.7650001 8.6541867e-39
-0.012353336 0.057406645 0.76300001 8.2803721e-39
-0.010900031 0.057406634 0.76300007 8.469766e-39
-0.0094219279 0.057256173 0.7610001 8.7510935e-39
-0.0079724155 0.05725617 0.7610001 1.3640697e-38
-0.0065142945 0.057180934 0.76000005 1.8608411e-38
-0.0050533875 0.057030443 0.75800008 1.8511541e-38
-0.0036095611 0.057030451 0.75800008 1.8418675e-38
-0.002160033 0.056879979 0.7560001 1.962191e-38
-0.00072002481 0.056879986 0.75600004 2.0826192e-38
0.00071902969 0.056804754 0.75500005 2.1288972e-38
0.0021599869 0.056879971 0.7560001 2.1745962e-38
0.003595223 0.056804754 0.75500005 2.081681e-38
0.0050333343 0.056804761 0.75500005 1.9957978e-38
0.0064714155 0.056804761 0.75500005 2.0343589e-38
0.007909527 0.056804765 0.75500005 2.0811324e-38
0.009347612 0.056804761 0.755 1.9705659e-38
0.010785694 0.056804758 0.75500005 1.8698784e-38
0.012223805 0.056804765 0.75500005 1.9900264e-38
0.013661887 0.056804758 0.75500005 2.1203189e-38
0.015099998 0.056804746 0.75500005 2.0091485e-38
0.01653811 0.056804754 0.75500005 1.9081281e-38
0.017999975 0.056879967 0.7560001 1.8337613e-38
0.019439982 0.056879975 0.7560001 1.7508221e-38
0.020879989 0.056879982 0.75600004 1.6216063e-38
0.022378996 0.057030447 0.75800008 1.4928924e-38
0.023917139 0.057256162 0.7610001 1.4187417e-38
0.025366651 0.057256151 0.7610001 1.352762e-38
0.026816191 0.057256162 0.7610001 1.1973142e-38
0.02834001 0.057406653 0.76300001 1.0418856e-38
0.029871404 0.057557132 0.7650001 1.355894e-38
0.031328525 0.057557132 0.7650001 1.6700018e-38
0.032871436 0.057707597 0.76700002 1.6512775e-38
0.034332376 0.0577076 0.76700008 1.64195e-38
0.036073316 0.058159027 0.77300012 1.6693568e-38
0.037545685 0.05815902 0.77300012 1.6968721e-38
-0.021183841 0.059168551 0.76700008 7.8395418e-39
-0.019748576 0.059245676 0.76800007 7.6490395e-39
-0.018285709 0.059245683 0.76800001 7.3742449e-39
-0.016800988 0.059168547 0.76700008 7.2759452e-39
-0.015300046 0.059014268 0.7650001 7.0922546e-39
-0.013842867 0.059014272 0.76500005 7.7365184e-39
-0.012385744 0.059014272 0.7650001 8.3800843e-39
-0.01090002 0.058859963 0.76300001 9.3059727e-39
-0.009446715 0.058859967 0.76300007 1.0231935e-38
-0.0079723969 0.058705673 0.7610001 1.4755985e-38
-0.0065143253 0.058628559 0.76000011 1.9161211e-38
-0.0050666803 0.058628559 0.76000011 1.9065422e-38
-0.0036095565 0.058474261 0.75800002 1.8971831e-38
-0.002160019 0.058319971 0.7560001 1.9611849e-38
-0.00072001177 0.058319982 0.75600004 2.0265829e-38
0.00071996567 0.058319978 0.7560001 2.0452739e-38
0.0021599729 0.058319986 0.7560001 2.0549219e-38
0.0035952416 0.058242857 0.75500005 2.0454496e-38
0.0050333231 0.058242854 0.75500005 2.035439e-38
0.0064714341 0.058242846 0.75500005 2.0915069e-38
0.007919969 0.058319978 0.7560001 2.137099e-38
0.0093599781 0.058319971 0.7560001 2.0370816e-38
0.010799957 0.058319967 0.7560001 1.9252329e-38
0.012239964 0.058319971 0.7560001 1.9068699e-38
0.013679997 0.058319978 0.7560001 1.8888598e-38
0.015119975 0.058319975 0.7560001 1.7417062e-38
0.016559983 0.058319982 0.7560001 1.5942675e-38
0.01799996 0.058319978 0.7560001 1.4280672e-38
0.019439969 0.058319971 0.7560001 1.2541153e-38
0.020879976 0.058319982 0.75600004 1.0958758e-38
0.022379002 0.058474258 0.75800008 9.3146915e-39
0.023917133 0.058705699 0.7610001 1.0224441e-38
0.025366643 0.058705691 0.7610001 1.1143109e-38
0.026816186 0.058705684 0.7610001 1.0960826e-38
0.028265696 0.05870568 0.7610001 1.0693978e-38
0.02987138 0.059014276 0.7650001 1.3280131e-38
0.031328533 0.059014283 0.76500005 1.5769776e-38
0.032871403 0.059168559 0.76700008 1.60525e-38
0.034466658 0.059399985 0.77000004 1.6232588e-38
0.036073312 0.0596314 0.77300006 1.6508099e-38
0.037545685 0.0596314 0.77300006 1.6783971e-38
-0.021183847 0.060629509 0.76700008 7.2751997e-39
-0.019748585 0.060708541 0.76800007 7.3691722e-39
-0.018285716 0.060708545 0.76800001 7.5514082e-39
-0.016800964 0.060629517 0.76700002 7.551767e-39
-0.015340024 0.060629517 0.76700008 7.6432297e-39
-0.013842892 0.060471416 0.7650001 8.1038281e-39
-0.012385739 0.060471419 0.76500005 8.4729806e-39
-0.010900008 0.060313303 0.76300001 9.3048979e-39
-0.0094467029 0.060313299 0.76300007 1.0042879e-38
-0.0079933433 0.060313307 0.76300001 1.2535778e-38
-0.0065228627 0.06015522 0.7610001 1.5031118e-38
-0.005066711 0.060076181 0.76000011 1.5207252e-38
-0.0036190662 0.060076181 0.76000011 1.5393108e-38
-0.0021600311 0.059759971 0.7560001 1.5295922e-38
-0.00072002388 0.059759978 0.75600004 1.5213778e-38
0.00071995356 0.059759971 0.7560001 1.6039585e-38
0.0021599859 0.059759982 0.7560001 1.6971929e-38
0.0035952313 0.059680946 0.75500005 1.7798088e-38
0.0050399737 0.059759986 0.7560001 1.8620649e-38
0.0064799809 0.059759989 0.75600004 1.8158587e-38
0.0079199597 0.059759974 0.7560001 1.7784067e-38
0.009359993 0.059759978 0.7560001 1.6865707e-38
0.010799971 0.059759974 0.7560001 1.593264e-38
0.012239979 0.059759982 0.7560001 1.6031645e-38
0.013679986 0.059759971 0.75600004 1.612057e-38
0.015119963 0.059759971 0.7560001 1.6677641e-38
0.016559971 0.059759982 0.75600004 1.721612e-38
0.017999975 0.059759971 0.7560001 1.6960367e-38
0.019439982 0.059759982 0.7560001 1.6692705e-38
0.020935208 0.059918061 0.75800008 1.4108706e-38
0.022379007 0.059918068 0.75800002 1.1524054e-38
0.023917127 0.06015522 0.7610001 1.1051618e-38
0.025366638 0.060155213 0.7610001 1.0685349e-38
0.02681618 0.060155209 0.7610001 9.7666327e-39
0.028339976 0.060313303 0.76300001 8.9422642e-39
0.029871384 0.060471416 0.76500005 1.3181762e-38
0.031328563 0.060471419 0.76500005 1.7413799e-38
0.032999981 0.060866658 0.77000004 1.7238447e-38
0.034779977 0.061419986 0.77700001 1.7052636e-38
0.036166664 0.061261889 0.77500004 1.6409442e-38
0.037642851 0.061261889 0.7750001 1.5861667e-38
0.039119069 0.061261892 0.77500004 1.5952436e-38
-0.021183824 0.06209046 0.76700002 6.7241769e-39
-0.019722883 0.06209046 0.76700008 7.1847781e-39
-0.018285729 0.0621714 0.76800007 7.6439598e-39
-0.016800972 0.062090456 0.76700008 7.9194705e-39
-0.015340032 0.06209046 0.76700008 8.1949742e-39
-0.01387906 0.062090464 0.76700008 8.3786438e-39
-0.012385764 0.061928563 0.7650001 8.5655532e-39
-0.010928587 0.06192857 0.76500005 9.2145099e-39
-0.0094466908 0.061766639 0.76300001 9.8566787e-39
-0.0079933619 0.061766636 0.76300007 1.0313383e-38
-0.0065228683 0.061604731 0.7610001 1.0784756e-38
-0.0050666858 0.061523803 0.76000011 1.1339356e-38
-0.0036190709 0.061523784 0.76000011 1.1795318e-38
-0.0021600171 0.061199978 0.7560001 1.0965224e-38
-0.00072000991 0.061199971 0.75600004 1.0045079e-38
0.00071996753 0.061199967 0.7560001 1.1703863e-38
0.0021599748 0.061199978 0.75600004 1.3384174e-38
0.0035999522 0.061199974 0.7560001 1.5144841e-38
0.0050399858 0.061199978 0.7560001 1.679284e-38
0.0064799632 0.061199971 0.7560001 1.5497799e-38
0.0079199728 0.061199985 0.7560001 1.4212438e-38
0.00935998 0.061199974 0.7560001 1.3375135e-38
0.010799957 0.061199971 0.7560001 1.255255e-38
0.012239966 0.061199978 0.7560001 1.300454e-38
0.013679999 0.061199982 0.75600004 1.3382671e-38
0.015119976 0.061199967 0.7560001 1.5956963e-38
0.016559985 0.061199974 0.7560001 1.8440862e-38
0.017999962 0.061199967 0.7560001 1.9652339e-38
0.019439969 0.061199978 0.7560001 2.0747831e-38
0.020935215 0.061361868 0.75800008 1.72598e-38
0.022379015 0.061361883 0.75800002 1.3732393e-38
0.023917144 0.061604738 0.7610001 1.1956677e-38
0.025366655 0.061604735 0.7610001 1.0131805e-38
0.026816171 0.061604746 0.7610001 8.6620788e-39
0.028339989 0.061766636 0.76300001 7.2023868e-39
0.029871413 0.061928563 0.76500005 1.3090968e-38
0.031328533 0.061928559 0.7650001 1.8984636e-38
0.032999989 0.062333323 0.7700001 1.8434751e-38
0.034466673 0.062333334 0.77000004 1.779014e-38
0.036026649 0.062495232 0.77200007 1.6307531e-38
0.037642863 0.062738076 0.77500004 1.4846757e-38
0.039119054 0.062738076 0.7750001 1.5021087e-38
-0.021073358 0.063219979 0.76300001 6.6330491e-39
-0.019748574 0.063634269 0.76800001 7.1851298e-39
-0.018285738 0.063634261 0.76800001 7.7361526e-39
-0.016800977 0.063551404 0.76700008 7.9201908e-39
-0.015340009 0.063551411 0.76700008 8.1949896e-39
-0.013842887 0.063385695 0.7650001 8.1957155e-39
-0.012385734 0.063385703 0.76500005 8.2882712e-39
-0.010928612 0.063385695 0.7650001 9.3949635e-39
-0.0094466787 0.063219979 0.76300001 1.0406597e-38
-0.007993374 0.063219972 0.76300007 1.0681752e-38
-0.0065228757 0.063054264 0.7610001 1.0955109e-38
-0.0050733644 0.063054264 0.7610001 1.1143445e-38
-0.0036190727 0.062971413 0.76000011 1.1320652e-38
-0.002160032 0.062639982 0.7560001 1.0307943e-38
-0.00072005275 0.062639967 0.7560001 9.276593e-39
0.00071997964 0.062639982 0.7560001 1.1329264e-38
0.0021599869 0.062639967 0.7560001 1.3480602e-38
0.0035999652 0.062639967 0.7560001 1.5605033e-38
0.0050399727 0.062639974 0.7560001 1.7723685e-38
0.006479952 0.062639967 0.7560001 1.6983597e-38
0.0079199597 0.062639982 0.7560001 1.616242e-38
0.009359993 0.062639982 0.7560001 1.587898e-38
0.01079997 0.062639967 0.7560001 1.5519512e-38
0.012239978 0.062639974 0.7560001 1.560236e-38
0.013679986 0.062639982 0.75600004 1.5703259e-38
0.015119963 0.062639982 0.7560001 1.6799998e-38
0.016559971 0.062639967 0.75600004 1.7999292e-38
0.017999975 0.062639967 0.7560001 1.9009534e-38
0.019491391 0.06280569 0.75800008 2.0111457e-38
0.020935219 0.062805682 0.75800002 1.6792718e-38
0.02237899 0.062805682 0.75800008 1.3545476e-38
0.023917139 0.063054278 0.7610001 1.2155751e-38
0.025366651 0.063054271 0.7610001 1.0876156e-38
0.026816191 0.063054264 0.7610001 1.106521e-38
0.028340001 0.063219979 0.76300001 1.1247068e-38
0.029871391 0.06338571 0.7650001 1.6140159e-38
0.031451412 0.063634261 0.76800007 2.1121553e-38
0.033 0.063799992 0.77000004 2.0837113e-38
0.034466658 0.063799985 0.7700001 2.065134e-38
0.036166664 0.064214274 0.7750001 1.9910966e-38
0.037642851 0.064214274 0.7750001 1.9175527e-38
0.039119046 0.064214282 0.77500004 1.9174411e-38
-0.021073377 0.06467329 0.76300007 6.5411996e-39
-0.019800028 0.065266654 0.7700001 7.1861976e-39
-0.01828572 0.065097123 0.76800001 7.7365184e-39
-0.016800953 0.065012366 0.76700008 7.9220083e-39
-0.015340014 0.065012366 0.76700008 8.1049562e-39
-0.013842883 0.064842865 0.7650001 8.1045918e-39
-0.01238576 0.064842857 0.7650001 8.0141997e-39
-0.010928607 0.06484285 0.76500005 9.4860872e-39
-0.0094466964 0.064673305 0.76300007 1.0957969e-38
-0.0079933628 0.064673305 0.76300001 1.1051961e-38
-0.0065228571 0.064503789 0.7610001 1.105053e-38
-0.0050733457 0.064503781 0.7610001 1.095834e-38
-0.0036190476 0.064419053 0.76000011 1.086506e-38
-0.0021600181 0.064079985 0.7560001 9.7612307e-39
-0.00072004064 0.064079985 0.7560001 8.5559206e-39
0.0007199666 0.064079985 0.7560001 1.1039099e-38
0.0021599738 0.064079985 0.75600004 1.3475619e-38
0.0035999522 0.064079985 0.7560001 1.6070698e-38
0.0050399858 0.064079985 0.7560001 1.8642096e-38
0.0064799651 0.06407997 0.7560001 1.8366595e-38
0.0079199718 0.06407997 0.7560001 1.8091073e-38
0.0093599791 0.064079985 0.75600004 1.827473e-38
0.010799957 0.064079978 0.7560001 1.8458385e-38
0.012239965 0.064079985 0.7560001 1.8182862e-38
0.013679968 0.064079985 0.7560001 1.7907392e-38
0.015119975 0.064079985 0.7560001 1.7723758e-38
0.016559985 0.064079992 0.7560001 1.7448282e-38
0.017999962 0.064079978 0.7560001 1.8458503e-38
0.019491401 0.064249501 0.75800008 1.9468624e-38
0.020935226 0.064249508 0.75800002 1.6437982e-38
0.022438059 0.064419039 0.76000011 1.3284357e-38
0.023917131 0.064503789 0.76100004 1.242877e-38
0.025366643 0.064503774 0.7610001 1.1626656e-38
0.026886655 0.064673305 0.76300001 1.3474857e-38
0.028339984 0.064673305 0.76300007 1.5224769e-38
0.029871395 0.06484285 0.76500005 1.9284917e-38
0.031410467 0.065012373 0.76700008 2.3233503e-38
0.03291427 0.065097108 0.76800007 2.3323923e-38
0.034377135 0.065097116 0.76800001 2.3414353e-38
0.036026653 0.065436184 0.77200001 2.3417613e-38
0.037497099 0.065436184 0.77200007 2.341329e-38
-0.019748596 0.066559985 0.76800007 6.7252167e-39
-0.018261902 0.06647332 0.76700008 7.4592252e-39
-0.016800987 0.06647332 0.76700008 7.552895e-39
-0.015340017 0.06647332 0.76700002 7.647222e-39
-0.013842908 0.06629999 0.7650001 8.1063799e-39
-0.012385755 0.066300005 0.76500005 8.4737359e-39
-0.010928608 0.06629999 0.7650001 9.6708399e-39
-0.0094714547 0.066299997 0.76500005 1.0866852e-38
-0.0079933507 0.066126645 0.76300001 1.0776809e-38
-0.0065400195 0.066126645 0.76300007 1.0777175e-38
-0.0050866879 0.066126645 0.76300001 1.0684988e-38
-0.0036238122 0.065953314 0.7610001 1.0684616e-38
-0.0021657578 0.065693319 0.75800008 9.3906545e-39
-0.00072193216 0.065693319 0.75800002 8.0960481e-39
0.0007199815 0.065519981 0.7560001 1.0786959e-38
0.0021599887 0.065519974 0.7560001 1.3496106e-38
0.0035999662 0.065519974 0.7560001 1.607001e-38
0.0050399755 0.065519989 0.7560001 1.8642153e-38
0.0064799539 0.065519959 0.7560001 1.8274842e-38
0.0079199607 0.065519974 0.7560001 1.7999347e-38
0.009359994 0.065519974 0.7560001 1.83667e-38
0.010799971 0.065519974 0.7560001 1.8734029e-38
0.012239979 0.065519981 0.7560001 1.8183002e-38
0.013679957 0.065519974 0.7560001 1.7723804e-38
0.015119964 0.065519981 0.7560001 1.7356439e-38
0.016559973 0.065519989 0.75600004 1.7080943e-38
0.018047579 0.065693319 0.75800008 1.7540129e-38
0.019491406 0.065693326 0.75800002 1.7999271e-38
0.020935202 0.065693304 0.75800008 1.5881639e-38
0.022438081 0.065866649 0.76000011 1.375505e-38
0.023885697 0.065866649 0.76000011 1.292241e-38
0.025366636 0.065953299 0.7610001 1.2114923e-38
0.026886666 0.06612666 0.76300001 1.2292156e-38
0.028339969 0.066126652 0.76300007 1.2484488e-38
0.029871395 0.06629999 0.7650001 1.7539078e-38
0.031451423 0.066559978 0.76800001 2.2682943e-38
0.032999989 0.066733316 0.7700001 2.3049569e-38
0.034466647 0.066733316 0.7700001 2.3416922e-38
0.036026623 0.066906653 0.77200007 2.3417291e-38
0.037497129 0.066906661 0.77200001 2.3417652e-38
-0.019748578 0.068022847 0.76800007 6.2660322e-39
-0.018261934 0.06793426 0.76700008 7.1829831e-39
-0.016800994 0.06793426 0.76700008 7.1826552e-39
-0.015340024 0.067934267 0.76700002 7.1862327e-39
-0.013879084 0.06793426 0.76700008 8.1074477e-39
-0.012385754 0.067757122 0.7650001 8.9354203e-39
-0.010928601 0.06775713 0.76500005 9.8563046e-39
-0.0094714798 0.06775713 0.7650001 1.0684978e-38
-0.0080143269 0.06775713 0.76500005 1.0595298e-38
-0.0065571791 0.06775713 0.7650001 1.0411638e-38
-0.0050867046 0.067579977 0.76300007 1.0411292e-38
-0.0036333471 0.067579985 0.76300007 1.0408377e-38
-0.002171464 0.067314267 0.76000011 9.0211139e-39
-0.00072476524 0.067402832 0.7610001 7.5550404e-39
0.00072376919 0.067314267 0.76000011 1.0515725e-38
0.0021714142 0.067314267 0.76000011 1.3395645e-38
0.0036190024 0.067314267 0.76000011 1.607073e-38
0.0050666477 0.067314282 0.76000011 1.8642155e-38
0.0064970911 0.067137122 0.75800008 1.8274843e-38
0.0079409163 0.067137115 0.75800008 1.7815659e-38
0.0093847439 0.067137122 0.75800002 1.8458502e-38
0.010799958 0.066959962 0.7560001 1.9009503e-38
0.012239966 0.066959977 0.75600004 1.827481e-38
0.013679969 0.06695997 0.7560001 1.7448224e-38
0.015119976 0.066959977 0.7560001 1.7080818e-38
0.016603759 0.067137107 0.75800008 1.6711741e-38
0.018047588 0.067137115 0.75800008 1.6621758e-38
0.019491414 0.067137122 0.75800002 1.6433745e-38
0.020990463 0.067314267 0.76000011 1.5333833e-38
0.022438077 0.067314267 0.76000011 1.4125967e-38
0.023885697 0.067314275 0.76000011 1.3299434e-38
0.025366655 0.067402825 0.7610001 1.247509e-38
0.026886648 0.067579985 0.76300007 1.1093996e-38
0.028414248 0.06775713 0.7650001 9.728715e-39
0.029871399 0.067757145 0.76500005 1.5887127e-38
0.031451438 0.068022832 0.76800001 2.2040096e-38
0.032914277 0.068022832 0.76800001 2.2774771e-38
0.034466658 0.0682 0.77000004 2.3417275e-38
0.035933312 0.068199992 0.7700001 2.3416214e-38
0.0374 0.0682 0.77000004 2.332402e-38
0.038866658 0.0682 0.7700001 2.3322945e-38
0.040333312 0.068199992 0.7700001 2.332401e-38
