# .PCD v0.7 - Point Cloud Data file format
VERSION 0.7
FIELDS x y z rgb
SIZE 4 4 4 4
TYPE F F F F
COUNT 1 1 1 1
WIDTH 967
HEIGHT 1
VIEWPOINT 0 0 0 1 0 0 0
POINTS 967
DATA ascii
-0.0063856868 0.0035476312 0.74500006 1.1964204e-38
-0.0049666306 0.0035476312 0.74500006 1.2517016e-38
-0.0035380975 0.0035381168 0.74300003 1.2978351e-38
-0.002120008 0.003533341 0.74200004 1.3160592e-38
-0.00070668122 0.003533341 0.74200004 1.334571e-38
0.00070664549 0.0035333335 0.74200004 1.3716293e-38
0.0021200094 0.003533341 0.74199998 1.4080394e-38
0.0035333361 0.003533341 0.74199998 1.3711606e-38
0.0049466593 0.003533341 0.74200004 1.3250269e-38
0.006359987 0.003533341 0.74200004 1.2234691e-38
0.0077838227 0.0035381094 0.74300003 1.1211633e-38
0.0091990726 0.0035381094 0.74299997 1.4878644e-38
0.010614322 0.0035381168 0.74299997 1.8520205e-38
0.012029533 0.0035381094 0.74300003 2.1029967e-38
0.013444782 0.0035381168 0.74300003 2.3416612e-38
0.014900014 0.0035476238 0.74500006 2.2586145e-38
0.016362853 0.0035571605 0.74699998 2.1640766e-38
0.017738126 0.0035476238 0.745 2.1398146e-38
0.019208584 0.0035571605 0.74699998 2.1172963e-38
0.020659052 0.003561914 0.74800003 2.1366063e-38
0.022083804 0.0035619065 0.74800003 2.1466505e-38
0.023508593 0.0035619065 0.74800003 2.118669e-38
0.024999999 0.0035714284 0.75000006 2.0914416e-38
0.026428556 0.0035714284 0.75000012 1.9794815e-38
0.02785713 0.0035714284 0.75000006 1.8614901e-38
0.0293638 0.0035809651 0.75199997 1.565962e-38
0.030919068 0.0035952404 0.75500005 1.2615718e-38
0.032357145 0.0035952404 0.75500005 1.0767471e-38
0.033929549 0.003609553 0.75799996 8.8453546e-39
0.035466671 0.0036190674 0.75999999 9.3077327e-39
0.036914311 0.0036190674 0.75999999 9.6768627e-39
0.038412355 0.0036238208 0.76100004 9.5860978e-39
0.03986194 0.0036238208 0.76100004 9.4942469e-39
-0.025266627 0.0050533637 0.75799996 1.0329187e-38
-0.023759987 0.0050400123 0.75599998 8.0203346e-39
-0.022319965 0.0050400123 0.75599998 5.0593054e-39
-0.020879965 0.0050400198 0.75599998 2.0209695e-39
-0.019414265 0.0050333291 0.75500005 1.1717274e-38
-0.017928571 0.0050200149 0.75300002 2.1489145e-38
-0.016472394 0.0050133467 0.75200003 2.1396592e-38
-0.015000002 0.0050000101 0.75000006 2.1302549e-38
-0.013571444 0.0050000101 0.75000006 1.4277796e-38
-0.012110461 0.0049866736 0.74800003 7.2555157e-39
-0.010685711 0.0049866661 0.74800003 9.3819875e-39
-0.0092485752 0.0049800053 0.74700004 1.1600057e-38
-0.007825708 0.0049800128 0.74700004 1.1781602e-38
-0.0063856822 0.0049666837 0.745 1.1871645e-38
-0.0049666632 0.0049666613 0.74500006 1.2610635e-38
-0.0035476063 0.0049666613 0.74500006 1.334748e-38
-0.0021200303 0.0049466714 0.74200004 1.3438248e-38
-0.00070666446 0.0049466789 0.74199998 1.343754e-38
0.00070666039 0.0049466789 0.74199998 1.4083626e-38
0.0021228741 0.0049533397 0.74300003 1.4728259e-38
0.0035333137 0.0049466714 0.74200004 1.4079661e-38
0.0049466407 0.0049466714 0.74200004 1.3433577e-38
0.0063686213 0.0049533471 0.74299997 1.2322935e-38
0.007783832 0.0049533397 0.74300003 1.1296649e-38
0.0091990819 0.0049533546 0.74300003 1.5176745e-38
0.010614332 0.0049533546 0.74300003 1.9180271e-38
0.012029579 0.0049533546 0.74299997 2.1302245e-38
0.013444792 0.0049533546 0.74300003 2.341769e-38
0.014900042 0.0049666688 0.74500006 2.2677625e-38
0.016362838 0.0049800128 0.74700004 2.1934872e-38
0.017785704 0.0049800202 0.74700004 2.1996755e-38
0.019208569 0.0049800202 0.74700004 2.2115996e-38
0.02065907 0.0049866661 0.74800003 2.2295861e-38
0.022083798 0.0049866736 0.74800003 2.2466969e-38
0.023508588 0.0049866736 0.74800003 2.2294053e-38
0.024999972 0.0050000027 0.75000006 2.2197202e-38
0.026428569 0.0049999952 0.75000006 2.1559025e-38
0.027857166 0.0050000101 0.75000006 2.1010143e-38
0.029363817 0.0050133392 0.75200003 1.7140833e-38
0.030919049 0.0050333366 0.75500005 1.3179652e-38
0.032357164 0.005033344 0.755 1.1053028e-38
0.03384003 0.0050400048 0.75600004 8.9375222e-39
0.035373352 0.0050533488 0.75799996 9.3065962e-39
0.036914296 0.0050666779 0.76000005 9.6757487e-39
0.038412396 0.0050733387 0.76100004 9.677199e-39
0.039861936 0.0050733462 0.76100004 9.677185e-39
-0.023759972 0.0064800158 0.75600004 7.7372961e-39
-0.022319974 0.0064800158 0.75599998 5.7868344e-39
-0.020879975 0.0064800233 0.75599998 3.8863878e-39
-0.019414285 0.0064714327 0.75500005 1.293517e-38
-0.017928571 0.0064542964 0.75300002 2.1945089e-38
-0.016472403 0.0064457282 0.75200003 2.0846289e-38
-0.015040019 0.0064457357 0.75200003 1.9719415e-38
-0.013571432 0.0064285845 0.75000006 1.3620153e-38
-0.012142873 0.0064285621 0.75000006 7.4531506e-39
-0.010714277 0.0064285696 0.75000006 9.4799551e-39
-0.0092609264 0.0064114481 0.74800003 1.1505014e-38
-0.0078361761 0.0064114407 0.74800003 1.1690851e-38
-0.0063856924 0.0063857064 0.74500006 1.1783041e-38
-0.0049666585 0.0063857213 0.74500006 1.2797891e-38
-0.0035476007 0.0063857213 0.745 1.3716255e-38
-0.0021228485 0.0063685849 0.74300003 1.3622995e-38
-0.0007066626 0.0063600093 0.74200004 1.3531165e-38
0.00070764945 0.0063685775 0.74299997 1.4452395e-38
0.0021229002 0.0063685849 0.74299997 1.5275678e-38
0.0035381101 0.0063685775 0.74300003 1.4445564e-38
0.0049533593 0.0063685775 0.74300003 1.361724e-38
0.0063686082 0.0063685924 0.74299997 1.2510899e-38
0.007783819 0.0063685849 0.74300003 1.1305267e-38
0.0091990689 0.0063685924 0.74300003 1.5535149e-38
0.010614319 0.0063685924 0.74299997 1.9720178e-38
0.012029569 0.0063685924 0.74299997 2.158098e-38
0.013480989 0.0063857213 0.745 2.3416971e-38
0.014900009 0.0063857138 0.74500006 2.2863806e-38
0.016319066 0.0063857138 0.74500006 2.2201839e-38
0.01778575 0.0064028725 0.74699998 2.2538227e-38
0.019208554 0.0064028725 0.74700004 2.2940453e-38
0.020631419 0.0064028725 0.74700004 2.3233983e-38
0.022083815 0.0064114332 0.74800003 2.3409759e-38
0.023508582 0.0064114407 0.74800003 2.3417647e-38
0.025000006 0.0064285621 0.75000006 2.3411194e-38
0.026428543 0.0064285621 0.75000006 2.3417654e-38
0.02785714 0.0064285696 0.75000006 2.3405049e-38
0.029402854 0.0064543039 0.75300002 1.8622378e-38
0.030837182 0.0064543113 0.75299996 1.3731368e-38
0.032357141 0.0064714327 0.75500005 1.1419644e-38
0.03384006 0.0064800084 0.75599998 9.0315368e-39
0.03537336 0.0064971671 0.75799996 9.3970599e-39
0.036817189 0.0064971596 0.75799996 9.6761481e-39
0.038261019 0.0064971596 0.75799996 9.7701289e-39
0.039861932 0.0065228641 0.76100004 9.8612372e-39
-0.023759983 0.0079200119 0.75600004 5.8001439e-39
-0.022319984 0.0079200193 0.75599998 6.5344523e-39
-0.020879963 0.0079200193 0.75599998 7.2914856e-39
-0.019414265 0.0079095215 0.75500005 1.4676457e-38
-0.017928548 0.0078885779 0.75300002 2.2040151e-38
-0.016472412 0.0078780949 0.75200003 1.9090286e-38
-0.015040005 0.0078780949 0.75200003 1.6129532e-38
-0.013607622 0.0078781098 0.75199997 1.1964156e-38
-0.012142859 0.0078571439 0.75000006 7.8143675e-39
-0.010714301 0.0078571364 0.75000006 9.570748e-39
-0.0092857042 0.0078571513 0.75000006 1.1320646e-38
-0.0078361817 0.0078362003 0.74800003 1.1505752e-38
-0.0064114314 0.0078362003 0.74800003 1.1689772e-38
-0.0049800072 0.0078257248 0.74700004 1.2704616e-38
-0.0035475728 0.0078047663 0.745 1.3719483e-38
-0.0021228001 0.0077838302 0.74299997 1.3439683e-38
-0.00070761255 0.0077838302 0.74300003 1.3162025e-38
0.00070763828 0.0077838153 0.74299997 1.3805592e-38
0.0021228872 0.0077838302 0.74299997 1.4538118e-38
0.0035380989 0.0077838227 0.74300003 1.3987459e-38
0.0049533481 0.0077838227 0.74299997 1.3527908e-38
0.0063685961 0.0077838302 0.74299997 1.2323987e-38
0.007783846 0.0077838302 0.74299997 1.1112996e-38
0.0091990558 0.0077838227 0.74300003 1.5641722e-38
0.010614306 0.0077838227 0.74299997 2.019659e-38
0.012029556 0.0077838302 0.74299997 2.1854693e-38
0.013480956 0.0078047737 0.74500006 2.341733e-38
0.014900015 0.0078047737 0.74500006 2.2859857e-38
0.01636287 0.0078257397 0.74699998 2.2204781e-38
0.017785735 0.0078257322 0.74699998 2.2558817e-38
0.019208601 0.0078257322 0.74699998 2.3047086e-38
0.020659059 0.0078362003 0.74800003 2.3233302e-38
0.02208381 0.0078362003 0.74800003 2.341769e-38
0.023571422 0.0078571439 0.75000006 2.2956719e-38
0.025000019 0.0078571439 0.75000006 2.2499335e-38
0.026428577 0.0078571439 0.75000006 2.1569501e-38
0.027931416 0.0078780949 0.75200003 2.0651786e-38
0.029402876 0.0078885853 0.75300002 1.6863493e-38
0.030919047 0.0079095364 0.75500005 1.3172808e-38
0.032357145 0.0079095289 0.75500005 1.1148434e-38
0.033840045 0.0079200119 0.75599998 9.1266289e-39
0.035373364 0.0079409629 0.75799996 9.3095922e-39
0.036817156 0.0079409555 0.75800002 9.5865056e-39
0.038260985 0.0079409555 0.75800002 9.5861174e-39
-0.023822814 0.0093847811 0.75799996 3.7776176e-39
-0.022319995 0.0093600154 0.75599998 7.2587653e-39
-0.020879973 0.0093600154 0.75599998 1.0700894e-38
-0.019439975 0.0093600079 0.75599998 1.6438192e-38
-0.017976187 0.0093476251 0.75500005 2.203511e-38
-0.016494278 0.0093228817 0.75300002 1.7345376e-38
-0.015040014 0.0093104914 0.75200003 1.2526403e-38
-0.013607607 0.0093104914 0.75200003 1.038465e-38
-0.012142863 0.0092857108 0.75000012 8.1895932e-39
-0.010714289 0.0092857182 0.75000006 9.6679561e-39
-0.0092857303 0.0092857033 0.75000006 1.1137328e-38
-0.0078571336 0.0092857108 0.75000006 1.1321364e-38
-0.0064114379 0.0092609674 0.74800003 1.1506823e-38
-0.0049866484 0.0092609525 0.74800003 1.2610635e-38
-0.0035618984 0.0092609525 0.74800003 1.3622628e-38
-0.0021285464 0.0092238262 0.74500006 1.3254217e-38
-0.00070949009 0.0092238188 0.74500006 1.2794685e-38
0.00070764759 0.009199068 0.74300003 1.3253149e-38
0.0021228984 0.0091990605 0.74299997 1.3713394e-38
0.0035476226 0.0092238113 0.74500006 1.3530432e-38
0.0049666781 0.0092238113 0.74500006 1.3343872e-38
0.0063857352 0.0092238188 0.745 1.2144249e-38
0.0078047924 0.0092238188 0.745 1.0847167e-38
0.0091990661 0.0091990605 0.74300003 1.5722077e-38
0.010614316 0.0091990605 0.74300003 2.0642134e-38
0.012061927 0.0092238262 0.74500006 2.2040158e-38
0.013480984 0.0092238262 0.74500006 2.3416254e-38
0.014900041 0.0092238113 0.74500006 2.2860934e-38
0.016362855 0.0092485845 0.74699998 2.2200105e-38
0.017785721 0.0092485845 0.74699998 2.2628027e-38
0.019234287 0.0092609599 0.74800003 2.3028778e-38
0.020659076 0.0092609674 0.74800003 2.3234019e-38
0.022142861 0.0092857182 0.75000006 2.3407269e-38
0.023571419 0.0092857108 0.75000012 2.2492123e-38
0.024999993 0.0092857182 0.75000006 2.145788e-38
0.02642859 0.0092857257 0.75000006 1.9709041e-38
0.027968587 0.0093228668 0.75299996 1.7864396e-38
0.029402878 0.0093228593 0.75300002 1.5191079e-38
0.030919068 0.0093476325 0.755 1.2530316e-38
0.032485761 0.0093847886 0.75799996 1.0874005e-38
0.034019068 0.0094095394 0.75999999 9.1284197e-39
0.035466705 0.009409532 0.75999999 9.3110229e-39
0.036914341 0.0094095245 0.76000005 9.402815e-39
0.038361933 0.009409532 0.75999999 9.4024142e-39
0.03996671 0.009446688 0.76300001 9.3105871e-39
-0.023822822 0.010828584 0.75800002 3.9587859e-39
-0.022319984 0.010800019 0.75600004 8.3852173e-39
-0.020879986 0.010800004 0.75599998 1.2917518e-38
-0.019439962 0.010800011 0.75599998 1.6701502e-38
-0.017976169 0.010785721 0.75500005 2.0562138e-38
-0.016494256 0.010757148 0.75300002 1.5481367e-38
-0.015040022 0.010742866 0.75200003 1.0470487e-38
-0.013607617 0.010742866 0.75200003 9.8386524e-39
-0.012175273 0.010742866 0.75200003 9.2995029e-39
-0.010714293 0.010714278 0.75000012 1.0217883e-38
-0.0092857182 0.010714285 0.75000006 1.1228801e-38
-0.0078571597 0.010714278 0.75000012 1.1505393e-38
-0.006428563 0.010714293 0.75000006 1.1782332e-38
-0.004986655 0.01068572 0.74800003 1.2518089e-38
-0.0035619049 0.01068572 0.74800003 1.334533e-38
-0.0021285445 0.010642864 0.745 1.3162021e-38
-0.00070948451 0.010642871 0.745 1.3070551e-38
0.00070953259 0.010642864 0.74500006 1.3254588e-38
0.0021285906 0.010642864 0.74500006 1.3531518e-38
0.0035476487 0.010642871 0.74500006 1.3438954e-38
0.004966707 0.010642864 0.74500006 1.3254899e-38
0.0063857641 0.010642864 0.745 1.2049173e-38
0.0077838432 0.010614298 0.74299997 1.0837115e-38
0.0092238188 0.010642871 0.74500006 1.6013724e-38
0.010642876 0.010642856 0.745 2.1211801e-38
0.012061933 0.010642864 0.745 2.2315305e-38
0.01348099 0.010642864 0.745 2.341769e-38
0.01490001 0.010642856 0.74500006 2.2768742e-38
0.016362863 0.010671444 0.74700004 2.2024672e-38
0.017809531 0.010685734 0.74800003 2.1996632e-38
0.019234281 0.010685727 0.74800003 2.2012476e-38
0.02065907 0.010685734 0.74800003 2.201397e-38
0.022142833 0.010714285 0.75000006 2.2005681e-38
0.02357143 0.010714278 0.75000006 2.0611609e-38
0.025066651 0.010742858 0.75200003 1.9201756e-38
0.026499055 0.010742873 0.75200003 1.876622e-38
0.028042857 0.010785714 0.75500005 1.8385595e-38
0.029480971 0.010785721 0.755 1.6018669e-38
0.030960007 0.010800011 0.75600004 1.3729915e-38
0.032400005 0.010800011 0.75599998 1.1338206e-38
0.034019053 0.01085715 0.75999999 9.0387352e-39
0.035466693 0.01085715 0.76000005 9.2195406e-39
0.03691433 0.010857143 0.76000005 9.402438e-39
0.038412381 0.01087144 0.76100004 9.3105451e-39
0.039861921 0.01087144 0.76100004 9.3109276e-39
-0.023822814 0.012272403 0.75799996 4.1564502e-39
-0.022319956 0.012240015 0.75599998 9.5894988e-39
-0.020879995 0.012240008 0.75599998 1.5033688e-38
-0.019439975 0.012240015 0.75599998 1.7071355e-38
-0.017928543 0.012191445 0.75299996 1.8987633e-38
-0.016494254 0.012191445 0.75300002 1.3731418e-38
-0.015040008 0.01217524 0.75200003 8.4655145e-39
-0.013607626 0.012175247 0.75199997 9.383442e-39
-0.012175259 0.012175247 0.75200003 1.0307544e-38
-0.01071428 0.012142859 0.75000006 1.0767446e-38
-0.0092857219 0.012142852 0.75000012 1.1228434e-38
-0.0078571476 0.012142859 0.75000006 1.1689064e-38
-0.0064285891 0.012142859 0.75000012 1.2057481e-38
-0.0049999924 0.012142867 0.75000006 1.2517735e-38
-0.0035619105 0.012110487 0.74800003 1.2979063e-38
-0.0021342833 0.012094289 0.74699998 1.3162017e-38
-0.00070951803 0.012061916 0.74500006 1.3254579e-38
0.00070953817 0.012061916 0.745 1.3346782e-38
0.0021285962 0.012061916 0.745 1.3347131e-38
0.0035476524 0.012061916 0.745 1.3254928e-38
0.0049666734 0.012061916 0.74500006 1.3160921e-38
0.0063857306 0.012061909 0.74500006 1.2051702e-38
0.0077838302 0.012029536 0.74299997 1.085004e-38
0.0092238449 0.012061901 0.745 1.6284211e-38
0.010642904 0.012061909 0.745 2.1656989e-38
0.0120619 0.012061901 0.74500006 2.2591171e-38
0.013517155 0.012094304 0.74699998 2.341697e-38
0.014940022 0.012094304 0.74699998 2.2680129e-38
0.016384758 0.012110487 0.74800003 2.1827673e-38
0.017809547 0.012110494 0.74800003 2.1321035e-38
0.019234275 0.012110487 0.74800003 2.0897839e-38
0.020714272 0.012142852 0.75000012 2.08036e-38
0.022142868 0.012142859 0.75000006 2.0618076e-38
0.023571443 0.012142867 0.75000006 1.8838705e-38
0.025100017 0.012191437 0.75300002 1.7014555e-38
0.026534284 0.012191437 0.75300002 1.7951569e-38
0.028042875 0.01222381 0.75500005 1.8873513e-38
0.029480953 0.01222381 0.75500005 1.6859232e-38
0.030960057 0.012240015 0.75599998 1.4836999e-38
0.032400016 0.012240015 0.75600004 1.1893542e-38
0.034019038 0.012304775 0.76000005 8.9479787e-39
0.035466678 0.012304775 0.76000005 9.1259002e-39
0.036914315 0.012304768 0.76000005 9.3098977e-39
0.038412377 0.012320958 0.76100004 9.3105843e-39
0.039861917 0.012320958 0.76100004 9.2187642e-39
-0.022379039 0.013716206 0.75800002 1.088956e-38
-0.020935209 0.013716206 0.75800002 1.6791126e-38
-0.019491404 0.013716206 0.75800002 1.6605003e-38
-0.01797617 0.013661921 0.755 1.6504102e-38
-0.016494254 0.013625734 0.75299996 1.2432034e-38
-0.015040016 0.013607629 0.75200003 8.4493561e-39
-0.013607633 0.013607629 0.75199997 9.4742224e-39
-0.012175268 0.013607629 0.75200003 1.0493729e-38
-0.010714306 0.013571426 0.75000006 1.0860342e-38
-0.0092857098 0.013571426 0.75000006 1.1228785e-38
-0.0078571737 0.013571419 0.75000006 1.1597586e-38
-0.006428577 0.013571426 0.75000006 1.2057124e-38
-0.0049866438 0.013535254 0.74800003 1.2427696e-38
-0.0035618937 0.013535239 0.74800003 1.2891532e-38
-0.0021342759 0.013517164 0.74699998 1.3164524e-38
-0.00071140862 0.013517164 0.74699998 1.3438248e-38
0.00070956611 0.013480961 0.745 1.33475e-38
0.002128585 0.013480946 0.74500006 1.3347493e-38
0.0035476207 0.013480946 0.74500006 1.3163813e-38
0.00496668 0.013480961 0.745 1.3071608e-38
0.0063857371 0.013480961 0.745 1.1774777e-38
0.0078047942 0.013480961 0.745 1.0471229e-38
0.0092238141 0.013480954 0.74500006 1.6200987e-38
0.010671432 0.013517156 0.74699998 2.1948281e-38
0.012094297 0.013517156 0.74699998 2.2683006e-38
0.013517163 0.013517156 0.74699998 2.3417684e-38
0.01494003 0.013517156 0.74699998 2.2583266e-38
0.016384752 0.013535246 0.74800003 2.1744034e-38
0.017809542 0.013535254 0.74800003 2.1818133e-38
0.019234292 0.013535246 0.74800003 2.2025279e-38
0.020714285 0.013571434 0.75000006 2.2020413e-38
0.022142842 0.013571426 0.75000012 2.2018181e-38
0.023571417 0.013571441 0.75000006 2.0988179e-38
0.025100017 0.013625734 0.75300002 1.9872209e-38
0.026534308 0.013625734 0.75300002 2.0172513e-38
0.028042857 0.013661906 0.75500005 2.0460229e-38
0.029480955 0.013661906 0.75500005 1.7508232e-38
0.030960046 0.013680018 0.75599998 1.4660539e-38
0.032485742 0.013716221 0.75799996 1.1893559e-38
0.034019113 0.013752393 0.76000005 9.1309351e-39
0.035466705 0.013752401 0.75999999 9.3099173e-39
0.036914341 0.013752393 0.75999999 9.4925065e-39
0.038361933 0.013752401 0.75999999 9.309546e-39
0.03986191 0.013770483 0.76100004 9.218079e-39
-0.02543335 0.015260018 0.76300001 6.8120958e-39
-0.02391714 0.015220016 0.76099998 6.0082451e-39
-0.022467619 0.015220001 0.76100004 1.2287566e-38
-0.020990465 0.015200019 0.76000005 1.8442006e-38
-0.019542851 0.015200019 0.76000005 1.6236903e-38
-0.017999973 0.015120015 0.75600004 1.3914721e-38
-0.016538091 0.015100002 0.75500005 1.1134437e-38
-0.015059961 0.01506003 0.75299996 8.3714831e-39
-0.013607617 0.01504001 0.75200003 9.4778153e-39
-0.012175273 0.01504001 0.75200003 1.0583423e-38
-0.010742868 0.01504001 0.75200003 1.0951478e-38
-0.0092857359 0.015000001 0.75000006 1.122951e-38
-0.0078571392 0.015000008 0.75000006 1.159902e-38
-0.0064285649 0.015000008 0.75000006 1.1967082e-38
-0.0050000064 0.015000001 0.75000006 1.2428057e-38
-0.00357141 0.015000001 0.75000006 1.279755e-38
-0.0021342908 0.014940016 0.74699998 1.3165967e-38
-0.00071142352 0.014940016 0.74699998 1.3531889e-38
0.0007114418 0.014940016 0.74699998 1.3440428e-38
0.0021285906 0.014899999 0.74500006 1.3256384e-38
0.0035571491 0.014940016 0.74699998 1.3073058e-38
0.0049800156 0.014940016 0.74699998 1.2886865e-38
0.006385765 0.014900006 0.745 1.1503942e-38
0.0078047607 0.014900006 0.74500006 1.0116091e-38
0.0092485743 0.014940009 0.74700004 1.6192386e-38
0.010671417 0.014940023 0.74699998 2.2208365e-38
0.012094282 0.014940009 0.74699998 2.2866677e-38
0.013517149 0.014940009 0.74699998 2.3415531e-38
0.014960021 0.014960013 0.74800003 2.2582547e-38
0.016384769 0.014960013 0.74800003 2.1650826e-38
0.017809534 0.014960021 0.74800003 2.2366048e-38
0.019234285 0.014960013 0.74800003 2.3036255e-38
0.020714259 0.014999993 0.75000006 2.3234012e-38
0.022142855 0.014999993 0.75000006 2.340975e-38
0.023571452 0.015000001 0.75000006 2.3132052e-38
0.025100019 0.015060022 0.75300002 2.2757917e-38
0.026534308 0.015060008 0.75300002 2.2405305e-38
0.027968576 0.015060008 0.75300002 2.1929601e-38
0.029480975 0.015100002 0.75500005 1.8144588e-38
0.031041928 0.015160024 0.75800002 1.4379983e-38
0.032571461 0.015200019 0.75999999 1.1889597e-38
0.034063831 0.015220009 0.76100004 9.3127998e-39
0.035513334 0.015220001 0.76100004 9.4903499e-39
0.036962871 0.015220009 0.76100004 9.5836133e-39
0.038361922 0.015200026 0.75999999 9.3999353e-39
0.039861906 0.015220016 0.76099998 9.1254952e-39
-0.025433313 0.016713344 0.76300001 7.6475906e-39
-0.023979966 0.016713344 0.76300001 8.7676316e-39
-0.022526659 0.016713344 0.76300001 1.3567907e-38
-0.021018082 0.016669549 0.76100004 1.8350162e-38
-0.019568583 0.016669542 0.76100004 1.4567322e-38
-0.017999984 0.016560018 0.75600004 1.0864727e-38
-0.01653811 0.016538106 0.75500005 1.0027686e-38
-0.015099972 0.016538106 0.75500005 9.1997682e-39
-0.013625671 0.016494296 0.75299996 9.9384333e-39
-0.012175259 0.016472384 0.75200003 1.0583794e-38
-0.010742877 0.016472384 0.75200003 1.095293e-38
-0.0093104718 0.016472384 0.75200003 1.1413548e-38
-0.0078571271 0.016428582 0.75000006 1.1690852e-38
-0.0064285686 0.016428582 0.75000006 1.2059994e-38
-0.0049999943 0.01642859 0.75000006 1.2428059e-38
-0.003571436 0.016428582 0.75000006 1.2796838e-38
-0.0021371555 0.016384773 0.74800003 1.3072346e-38
-0.00071143842 0.016362876 0.74700004 1.3347872e-38
0.0007114269 0.016362876 0.74699998 1.3347891e-38
0.0021285962 0.016319059 0.745 1.334823e-38
0.0035619016 0.016384773 0.74800003 1.3163461e-38
0.0049866913 0.016384773 0.74800003 1.2979782e-38
0.0063857315 0.016319051 0.74500006 1.1591121e-38
0.0078047886 0.016319051 0.74500006 1.0102466e-38
0.0092485985 0.016362876 0.74699998 1.6293556e-38
0.010671426 0.016362868 0.74700004 2.2499301e-38
0.01209429 0.016362868 0.74700004 2.2958513e-38
0.013535225 0.016384766 0.74800003 2.3416966e-38
0.014960015 0.01638478 0.74800003 2.2583263e-38
0.016428564 0.016428567 0.75000012 2.1746672e-38
0.017809551 0.01638478 0.74800003 2.2012825e-38
0.019285696 0.016428567 0.75000006 2.231563e-38
0.020714292 0.016428567 0.75000006 2.2864525e-38
0.022142867 0.016428575 0.75000006 2.341769e-38
0.023634274 0.016472399 0.75200003 2.3231508e-38
0.025100041 0.016494296 0.75300002 2.3142183e-38
0.026534308 0.016494296 0.75300002 2.2678701e-38
0.028042879 0.016538106 0.75500005 2.2300533e-38
0.029480953 0.016538106 0.75500005 1.8338986e-38
0.03112381 0.016647629 0.75999999 1.4478609e-38
0.03257145 0.016647629 0.76000005 1.1617302e-38
0.034063827 0.016669542 0.76100004 8.7603393e-39
0.035513327 0.016669534 0.76100004 8.6648968e-39
0.036962867 0.016669542 0.76100004 8.5741305e-39
0.038412362 0.016669542 0.76100004 8.2957458e-39
0.039809547 0.016647637 0.75999999 8.0237986e-39
-0.025433337 0.018166684 0.76300001 8.4655691e-39
-0.02397999 0.018166684 0.76300001 1.143987e-38
-0.022467624 0.01811906 0.76100004 1.4865458e-38
-0.021018088 0.018119074 0.76100004 1.8160015e-38
-0.019568589 0.01811906 0.76100004 1.3000326e-38
-0.017999995 0.018000022 0.75600004 7.7351241e-39
-0.016538069 0.017976187 0.75500005 8.9116795e-39
-0.015059999 0.017928585 0.75300002 1.0025933e-38
-0.013625708 0.017928578 0.75300002 1.0308286e-38
-0.012175267 0.017904773 0.75200003 1.0584515e-38
-0.010742885 0.017904781 0.75200003 1.1045849e-38
-0.0093104802 0.017904781 0.75200003 1.150503e-38
-0.0078571532 0.017857142 0.75000006 1.187417e-38
-0.0064285565 0.017857149 0.75000006 1.2151114e-38
-0.004999998 0.017857142 0.75000006 1.2427701e-38
-0.0035714239 0.017857149 0.75000006 1.2703569e-38
-0.0021371611 0.01780954 0.74800003 1.2979079e-38
-0.00071139372 0.017785728 0.74699998 1.3163836e-38
0.00071141199 0.017785728 0.74700004 1.3347158e-38
0.0021342773 0.017785728 0.74700004 1.3438618e-38
0.0035571426 0.017785728 0.74699998 1.3253136e-38
0.004980009 0.017785728 0.74700004 1.3068735e-38
0.006385738 0.017738119 0.745 1.1595051e-38
0.0078047952 0.017738104 0.745 1.0116453e-38
0.0092238151 0.017738096 0.74500006 1.6379301e-38
0.010685702 0.017809533 0.74800003 2.2668269e-38
0.012094314 0.017785735 0.74699998 2.3050348e-38
0.013535243 0.01780954 0.74800003 2.3415528e-38
0.014960007 0.017809547 0.74800003 2.2586489e-38
0.016428575 0.017857149 0.75000006 2.1740197e-38
0.017857134 0.017857149 0.75000012 2.1622849e-38
0.019285709 0.017857157 0.75000006 2.1564069e-38
0.020714266 0.017857142 0.75000012 2.2491084e-38
0.022201883 0.017904766 0.75200003 2.3415538e-38
0.023665715 0.017928585 0.75300002 2.341769e-38
0.025100043 0.017928593 0.75299996 2.341769e-38
0.02653431 0.017928593 0.75299996 2.3050348e-38
0.02804286 0.017976195 0.75500005 2.2579625e-38
0.029480973 0.017976202 0.755 1.8615208e-38
0.031123843 0.018095233 0.76000005 1.4564702e-38
0.032571435 0.01809524 0.76000005 1.1340357e-38
0.034063824 0.018119067 0.76100004 8.1146013e-39
0.035513323 0.01811906 0.76100004 7.8340389e-39
0.036962859 0.018119074 0.76100004 7.5585268e-39
0.038412362 0.018119052 0.76100004 7.1843647e-39
0.039809532 0.018095247 0.75999999 6.8252582e-39
-0.025433324 0.019620016 0.76300001 1.0143428e-38
-0.023979977 0.019620016 0.76300001 1.4486985e-38
-0.022526668 0.019620016 0.76300001 1.5408594e-38
-0.021018092 0.019568585 0.76099998 1.6229658e-38
-0.019568568 0.019568577 0.76100004 1.1789912e-38
-0.017999968 0.01944001 0.75599998 7.4391488e-39
-0.016538087 0.019414291 0.75500005 8.7348342e-39
-0.015059976 0.019362874 0.75300002 1.0122078e-38
-0.013625707 0.019362874 0.75300002 1.0398686e-38
-0.012175237 0.019337162 0.75199997 1.0675994e-38
-0.01074287 0.019337147 0.75200003 1.1135896e-38
-0.0093104877 0.019337155 0.75200003 1.1594719e-38
-0.0078571187 0.019285724 0.75000006 1.1872739e-38
-0.0064457394 0.019337155 0.75200003 1.21504e-38
-0.0049999859 0.019285724 0.75000006 1.2518461e-38
-0.0035714277 0.019285724 0.75000006 1.2794689e-38
-0.0021371443 0.019234285 0.74800003 1.3071276e-38
-0.00071140862 0.019208588 0.74699998 1.3348218e-38
0.00071145856 0.019208588 0.74699998 1.3531172e-38
0.002134322 0.019208588 0.74699998 1.3713394e-38
0.0035571277 0.019208573 0.74699998 1.3437156e-38
0.0049799941 0.019208573 0.74699998 1.3253111e-38
0.0063857269 0.019157141 0.74500006 1.1682206e-38
0.007804784 0.019157149 0.74500006 1.0194295e-38
0.009248591 0.01920858 0.74699998 1.6479037e-38
0.010685696 0.0192343 0.74800003 2.2774816e-38
0.012110486 0.019234285 0.74800003 2.3141466e-38
0.013535237 0.019234285 0.74800003 2.3414809e-38
0.014960025 0.019234292 0.74800003 2.2487116e-38
0.016428549 0.019285716 0.75000006 2.1647985e-38
0.017857146 0.019285731 0.75000006 2.2010247e-38
0.019285742 0.019285731 0.75000006 2.2490299e-38
0.020769531 0.019337155 0.75200003 2.2954208e-38
0.022201875 0.019337147 0.75200003 2.341769e-38
0.023634281 0.019337155 0.75200003 2.341769e-38
0.025100004 0.019362874 0.75300002 2.341769e-38
0.026604764 0.019414291 0.75500005 2.2314588e-38
0.028042879 0.019414298 0.755 2.1209266e-38
0.029520005 0.01944001 0.75600004 1.8153875e-38
0.031123869 0.019542865 0.75999999 1.5109613e-38
0.032614283 0.01956857 0.76100004 1.3818476e-38
0.03406382 0.019568577 0.76100004 1.2512641e-38
0.035513319 0.01956857 0.76100004 1.2983966e-38
0.036962856 0.019568585 0.76099998 1.3437403e-38
0.038412359 0.019568585 0.76100004 1.3260904e-38
0.03986194 0.019568585 0.76100004 1.3073645e-38
0.041311443 0.019568577 0.76100004 1.3262697e-38
-0.022526655 0.021073356 0.76300001 1.5959579e-38
-0.021073325 0.021073349 0.76300001 1.4282409e-38
-0.019568572 0.021018103 0.76100004 1.0674542e-38
-0.017999955 0.020880014 0.75599998 7.0850519e-39
-0.016538069 0.020852394 0.755 8.6498287e-39
-0.015059974 0.020797171 0.75300002 1.0213199e-38
-0.013625708 0.020797171 0.75300002 1.048836e-38
-0.012175247 0.020769544 0.75199997 1.0675267e-38
-0.010742879 0.020769522 0.75200003 1.1226647e-38
-0.0093104737 0.020769529 0.75200003 1.1686905e-38
-0.0078571448 0.020714283 0.75000006 1.1963134e-38
-0.0064285481 0.020714283 0.75000006 1.2149321e-38
-0.005000012 0.020714283 0.75000006 1.2517743e-38
-0.0035714156 0.02071429 0.75000006 1.2885814e-38
-0.0021371499 0.020659044 0.74800003 1.3162766e-38
-0.00071142352 0.02063144 0.74699998 1.3438986e-38
0.00071144366 0.02063144 0.74699998 1.3716281e-38
0.0021343071 0.02063144 0.74699998 1.3897428e-38
0.0035571742 0.020631447 0.74699998 1.3620834e-38
0.0049799792 0.020631447 0.74700004 1.3343877e-38
0.0064028455 0.020631447 0.74700004 1.1869832e-38
0.0078257099 0.020631447 0.74700004 1.0301211e-38
0.0092485761 0.020631447 0.74700004 1.6567307e-38
0.010685714 0.020659044 0.74800003 2.2853031e-38
0.012110503 0.020659059 0.74800003 2.3142183e-38
0.013535231 0.020659059 0.74800003 2.3411582e-38
0.014960019 0.020659059 0.74800003 2.2483171e-38
0.016428584 0.020714283 0.75000006 2.1463628e-38
0.017857119 0.020714283 0.75000006 2.2463389e-38
0.019285716 0.02071429 0.75000006 2.3406533e-38
0.020769523 0.020769544 0.75200003 2.341769e-38
0.022201888 0.020769529 0.75200003 2.341769e-38
0.023665739 0.020797163 0.75300002 2.341769e-38
0.025100006 0.020797171 0.75300002 2.3415477e-38
0.026604783 0.020852402 0.75500005 2.1580502e-38
0.028042883 0.020852394 0.75500005 1.9719048e-38
0.029480956 0.02085238 0.75500005 1.7681457e-38
0.031164777 0.021018103 0.76100004 1.5577442e-38
0.032614276 0.021018103 0.76100004 1.6310642e-38
0.034063816 0.021018118 0.76099998 1.6953471e-38
0.035513315 0.02101811 0.76100004 1.8151977e-38
0.037060015 0.021073349 0.76300001 1.9254715e-38
0.0384124 0.021018103 0.76100004 1.9348698e-38
0.039861936 0.02101811 0.76100004 1.9347968e-38
-0.021018075 0.022467643 0.76100004 1.1143811e-38
-0.019542813 0.022438109 0.75999999 9.4788158e-39
-0.01804758 0.022379071 0.75800002 7.8211414e-39
-0.016559966 0.022320017 0.75599998 9.1108124e-39
-0.015119982 0.02232001 0.75600004 1.0398306e-38
-0.013661914 0.022290483 0.75500005 1.0582338e-38
-0.012223777 0.022290491 0.75500005 1.0860723e-38
-0.010742888 0.022201918 0.75200003 1.1228072e-38
-0.0093104821 0.022201926 0.75200003 1.1595421e-38
-0.0078781378 0.022201918 0.75200003 1.1872368e-38
-0.0064285742 0.022142857 0.75000006 1.2240793e-38
-0.0049999775 0.022142865 0.75000006 1.2517383e-38
-0.003580984 0.022201903 0.75200003 1.2792909e-38
-0.0021371555 0.022083811 0.74800003 1.3069869e-38
-0.00071236602 0.022083811 0.74800003 1.3345365e-38
0.0007123843 0.022083819 0.74800003 1.3437907e-38
0.0021342922 0.022054307 0.74699998 1.3620492e-38
0.0035571593 0.022054307 0.74699998 1.3253498e-38
0.0049866894 0.022083826 0.74800003 1.2977977e-38
0.0064114397 0.022083826 0.74800003 1.1497833e-38
0.0078361677 0.022083826 0.74800003 1.0103205e-38
0.0092609571 0.022083826 0.74800003 1.6483384e-38
0.010685708 0.022083811 0.74800003 2.2958508e-38
0.012110496 0.022083819 0.74800003 2.3232584e-38
0.013535246 0.022083811 0.74800003 2.3412299e-38
0.015 0.022142857 0.75000006 2.2670431e-38
0.016428558 0.022142857 0.75000012 2.183172e-38
0.017857132 0.022142865 0.75000006 2.2012167e-38
0.019285729 0.022142872 0.75000006 2.231566e-38
0.020769514 0.022201918 0.75200003 2.2309924e-38
0.022231448 0.022231452 0.75299996 2.2315664e-38
0.02372859 0.022290483 0.755 2.1746356e-38
0.025166688 0.022290483 0.75500005 2.1204551e-38
0.026604764 0.022290483 0.75500005 2.0732338e-38
0.02804286 0.022290476 0.75500005 2.0241676e-38
0.029520044 0.022320017 0.75599998 1.9068347e-38
0.030960042 0.022320025 0.75599998 1.7800189e-38
0.032614272 0.022467628 0.76100004 1.8994728e-38
0.034063812 0.022467643 0.76099998 2.0195777e-38
0.035513312 0.022467643 0.76100004 2.0743573e-38
0.037059989 0.022526689 0.76300001 2.1397175e-38
0.038513336 0.022526681 0.76300001 2.1390349e-38
0.039966684 0.022526689 0.76299995 2.1397138e-38
0.04141999 0.022526681 0.76300001 2.1481772e-38
0.042873338 0.022526681 0.76299995 2.1580798e-38
-0.021073334 0.023980007 0.76300001 8.0142165e-39
-0.019568581 0.023917146 0.76100004 8.2763756e-39
-0.018047575 0.023822874 0.75799996 8.4661577e-39
-0.016603766 0.023822874 0.75799996 9.5735786e-39
-0.015119954 0.023760021 0.75599998 1.0582336e-38
-0.013661895 0.023728579 0.755 1.0765649e-38
-0.012223796 0.023728572 0.75500005 1.0950757e-38
-0.010742896 0.023634292 0.75200003 1.1228776e-38
-0.0093104914 0.023634292 0.75200003 1.1413537e-38
-0.0078780847 0.0236343 0.75200003 1.1873446e-38
-0.0064457413 0.0236343 0.75200003 1.2241149e-38
-0.0050000036 0.023571424 0.75000006 1.2425542e-38
-0.0035809923 0.0236343 0.75200003 1.2610306e-38
-0.0021371611 0.023508579 0.74800003 1.2886547e-38
-0.00071237161 0.023508579 0.74800003 1.3162046e-38
0.00071237871 0.023508579 0.74800003 1.3253517e-38
0.0021371681 0.023508593 0.74800003 1.3253149e-38
0.0035571444 0.023477159 0.74699998 1.2977991e-38
0.0049866838 0.023508593 0.74800003 1.2607771e-38
0.0064114342 0.023508579 0.74800003 1.1223414e-38
0.0078361854 0.023508571 0.74800003 9.844203e-39
0.0092609748 0.023508571 0.74800003 1.6488043e-38
0.010685703 0.023508571 0.74800003 2.3039939e-38
0.01211049 0.023508586 0.74800003 2.3234019e-38
0.013535241 0.023508579 0.74800003 2.3412662e-38
0.014999973 0.023571424 0.75000006 2.2862718e-38
0.016428569 0.023571424 0.75000006 2.2194717e-38
0.017857166 0.023571424 0.75000006 2.1620703e-38
0.019285703 0.023571424 0.75000006 2.1085128e-38
0.020769529 0.023634292 0.75200003 2.1098056e-38
0.022231473 0.023665726 0.75299996 2.1077233e-38
0.023728592 0.023728579 0.75500005 2.0047655e-38
0.02516667 0.023728579 0.75500005 1.8974671e-38
0.026604805 0.023728572 0.75500005 1.9903414e-38
0.028080013 0.023760013 0.75599998 2.0821444e-38
0.029520033 0.023760013 0.75599998 2.0457724e-38
0.031164769 0.023917146 0.76099998 2.000714e-38
0.032614268 0.023917146 0.76100004 2.1763478e-38
0.034063809 0.023917153 0.76099998 2.3412935e-38
0.035606656 0.023980014 0.76300001 2.3413301e-38
0.037060004 0.023980014 0.76300001 2.3416158e-38
0.03851331 0.023980014 0.76300001 2.3417582e-38
0.039966658 0.023980021 0.76300001 2.3416852e-38
0.041420005 0.023980021 0.76299995 2.3417558e-38
-0.021073321 0.025433347 0.76300001 7.9015633e-39
-0.019542839 0.025333345 0.75999999 8.0030509e-39
-0.018047567 0.025266699 0.75799996 8.1931777e-39
-0.0166038 0.025266677 0.75800002 9.1126075e-39
-0.015119964 0.025200024 0.75599998 1.0122441e-38
-0.013679966 0.025200024 0.75599998 1.0489424e-38
-0.012223816 0.025166683 0.75500005 1.0856044e-38
-0.010757124 0.02510003 0.75299996 1.1136926e-38
-0.0093104998 0.025066689 0.75200003 1.1507876e-38
-0.0078780949 0.025066681 0.75199997 1.1874163e-38
-0.0064457264 0.025066674 0.75200003 1.2333341e-38
-0.0050133439 0.025066681 0.75200003 1.2426611e-38
-0.0035809784 0.025066666 0.75200003 1.2611015e-38
-0.0021428366 0.025000006 0.75000006 1.2886535e-38
-0.00071235298 0.024933353 0.74800003 1.3162041e-38
0.00071237312 0.024933353 0.74800003 1.3161322e-38
0.0021371625 0.024933361 0.74800003 1.3160594e-38
0.0035714309 0.025000006 0.75000006 1.325242e-38
0.0049867015 0.024933346 0.74800003 1.3343894e-38
0.0064114286 0.024933338 0.74800003 1.1494267e-38
0.0078361798 0.024933331 0.74800003 9.7351525e-39
0.0092609674 0.024933338 0.74800003 1.6396563e-38
0.010685718 0.024933331 0.74800003 2.3142175e-38
0.012110485 0.024933346 0.74800003 2.3231508e-38
0.013535235 0.024933346 0.74800003 2.3406925e-38
0.015000009 0.025000006 0.75000006 2.2852681e-38
0.016428543 0.025000006 0.75000006 2.237225e-38
0.01785714 0.025000006 0.75000006 2.1062069e-38
0.019337116 0.025066674 0.75200003 1.9857467e-38
0.020797145 0.025100015 0.75300002 1.9862869e-38
0.022231435 0.025100015 0.75300002 1.9928845e-38
0.023728574 0.025166668 0.75500005 2.0043248e-38
0.025166688 0.025166683 0.755 2.016136e-38
0.026640002 0.025200009 0.75600004 2.1105273e-38
0.028080026 0.025200009 0.75600004 2.2131591e-38
0.029520024 0.025200009 0.75599998 2.1108829e-38
0.031123854 0.025333352 0.75999999 2.0191199e-38
0.032614265 0.025366679 0.76100004 2.1666314e-38
0.034063805 0.025366679 0.76099998 2.3228595e-38
0.035606671 0.025433347 0.76300001 2.3229671e-38
0.037059978 0.025433339 0.76300001 2.3140332e-38
0.038614318 0.025500014 0.76500005 2.3138883e-38
0.040071473 0.025500007 0.76500005 2.3047768e-38
-0.01954283 0.026780948 0.76000005 7.8240519e-39
-0.018047599 0.026710503 0.75800002 7.8262001e-39
-0.01660379 0.026710503 0.75799996 8.7452669e-39
-0.015119976 0.026640028 0.75599998 9.6639778e-39
-0.013661873 0.026604764 0.755 1.0213912e-38
-0.012223798 0.026604772 0.755 1.076708e-38
-0.010757101 0.026534289 0.75300002 1.113873e-38
-0.009310483 0.026499055 0.75200003 1.1506086e-38
-0.0078781014 0.026499063 0.75200003 1.1965994e-38
-0.0064457329 0.026499055 0.75200003 1.2334413e-38
-0.0050133504 0.02649907 0.75200003 1.2520237e-38
-0.003580984 0.026499048 0.75200003 1.2611009e-38
-0.0021428608 0.026428573 0.75000006 1.288617e-38
-0.00071426405 0.026428588 0.75000006 1.3069844e-38
0.00071427115 0.026428588 0.75000006 1.3068769e-38
0.0021428696 0.026428573 0.75000006 1.3068403e-38
0.0035714272 0.026428573 0.75000006 1.3527215e-38
0.0049866559 0.026358098 0.74800003 1.3982799e-38
0.0064114463 0.026358098 0.74800003 1.1858022e-38
0.0078361733 0.026358098 0.74800003 9.6601775e-39
0.0092609618 0.026358105 0.74800003 1.6403739e-38
0.010685712 0.026358098 0.74800003 2.3133566e-38
0.012110502 0.026358113 0.74800003 2.3325854e-38
0.013535229 0.026358113 0.74800003 2.3412306e-38
0.014999982 0.02642858 0.75000012 2.2952767e-38
0.016428579 0.02642858 0.75000006 2.2462285e-38
0.017857153 0.026428573 0.75000006 2.0581357e-38
0.019337108 0.026499055 0.75200003 1.865676e-38
0.020797169 0.026534304 0.75300002 1.875111e-38
0.022231435 0.026534304 0.75300002 1.8748977e-38
0.023728592 0.026604772 0.75500005 2.0034693e-38
0.02516669 0.026604772 0.75500005 2.127167e-38
0.026640052 0.02664002 0.75599998 2.2407486e-38
0.028080013 0.02664002 0.75600004 2.3412997e-38
0.029598128 0.026710503 0.75799996 2.1838505e-38
0.031123841 0.026780978 0.75999999 2.0284478e-38
0.032614261 0.026816204 0.76100004 2.1665958e-38
0.034063846 0.026816204 0.76100004 2.3044922e-38
0.035606645 0.026886687 0.76300001 2.2952366e-38
0.037059993 0.026886694 0.76300001 2.2861599e-38
0.038513385 0.026886687 0.76300001 2.2766167e-38
0.039966691 0.026886687 0.76300001 2.2677919e-38
-0.019542841 0.028228588 0.76000005 8.4690612e-39
-0.017999982 0.028080016 0.75600004 8.4701289e-39
-0.01660376 0.028154306 0.75799996 8.83818e-39
-0.015119985 0.028080024 0.75599998 9.2991441e-39
-0.013661894 0.028042868 0.75500005 1.030861e-38
-0.012191429 0.027968585 0.75300002 1.1226976e-38
-0.010757138 0.027968578 0.75300002 1.1412093e-38
-0.0093104914 0.027931437 0.75200003 1.1595413e-38
-0.0078781089 0.027931444 0.75199997 1.196563e-38
-0.0064457431 0.027931437 0.75200003 1.2334767e-38
-0.0050133364 0.027931437 0.75200003 1.2517722e-38
-0.0035809542 0.027931444 0.75199997 1.2701763e-38
-0.0021428477 0.02785714 0.75000006 1.2980151e-38
-0.00071236788 0.02778288 0.74800003 1.3254587e-38
0.0007123843 0.027782872 0.74800003 1.3161322e-38
0.0021371737 0.027782865 0.74800003 1.3068047e-38
0.0035714384 0.027857155 0.75000006 1.3344267e-38
0.0049866503 0.027782857 0.74800003 1.3528647e-38
0.0064114407 0.027782865 0.74800003 1.1216967e-38
0.007836191 0.027782865 0.74800003 9.0004686e-39
0.0092609785 0.027782865 0.74800003 1.6125362e-38
0.010685707 0.027782865 0.74800003 2.3234012e-38
0.012110496 0.02778288 0.74800003 2.3140749e-38
0.013571419 0.027857147 0.75000012 2.3044964e-38
0.014999993 0.027857147 0.75000006 2.1935401e-38
0.01642859 0.027857147 0.75000006 2.0727808e-38
0.017857149 0.02785714 0.75000006 1.8396306e-38
0.019337123 0.027931437 0.75200003 1.617215e-38
0.020769505 0.027931444 0.75200003 1.590452e-38
0.02223146 0.027968578 0.75300002 1.5729529e-38
0.023728574 0.02804286 0.75500005 1.7392683e-38
0.025166672 0.02804286 0.75500005 1.9085231e-38
0.026640043 0.028080016 0.75599998 2.1209692e-38
0.028080041 0.028080024 0.75599998 2.3417675e-38
0.029676214 0.028228581 0.75999999 2.249213e-38
0.031123828 0.028228588 0.75999999 2.1574488e-38
0.032614302 0.028265722 0.76100004 2.2403156e-38
0.034063838 0.02826573 0.76100004 2.3230744e-38
0.03560666 0.028340012 0.76300001 2.3230737e-38
0.037060052 0.028340012 0.76300001 2.3138899e-38
0.038513362 0.028340004 0.76300001 2.3139255e-38
0.040071458 0.028414302 0.76500005 2.3050289e-38
-0.019542817 0.029676206 0.75999999 9.114055e-39
-0.01804756 0.029598117 0.75799996 9.0211279e-39
-0.01660379 0.029598117 0.75800002 9.0211125e-39
-0.015119973 0.029520005 0.75600004 8.9292868e-39
-0.013661913 0.029480949 0.75500005 1.0311134e-38
-0.012223776 0.029480964 0.755 1.1687599e-38
-0.010757137 0.029402874 0.75300002 1.1687248e-38
-0.0093104998 0.029363826 0.75200003 1.1688693e-38
-0.0078780949 0.029363826 0.75200003 1.1966362e-38
-0.0064457506 0.029363826 0.75200003 1.2240791e-38
-0.0050133457 0.029363811 0.75200003 1.2514503e-38
-0.0035809393 0.029363818 0.75200003 1.2796112e-38
-0.0021371369 0.029207617 0.74800003 1.3169557e-38
-0.00071237347 0.029207632 0.74800003 1.343969e-38
0.00071237871 0.029207624 0.74800003 1.3253515e-38
0.0021371681 0.029207632 0.74800003 1.3069479e-38
0.0035619184 0.029207624 0.74800003 1.3069475e-38
0.004986668 0.029207624 0.74800003 1.3065153e-38
0.0064114332 0.029207632 0.74800003 1.0664859e-38
0.0078361835 0.029207632 0.74800003 8.2851393e-39
0.0092857005 0.029285714 0.75000006 1.577056e-38
0.010714298 0.029285714 0.75000006 2.3227905e-38
0.012142835 0.029285707 0.75000006 2.2958513e-38
0.013571432 0.029285714 0.75000006 2.2670446e-38
0.014999989 0.029285707 0.75000012 2.083158e-38
0.016428564 0.029285714 0.75000006 1.8966433e-38
0.01785716 0.029285721 0.75000006 1.6287682e-38
0.019337114 0.029363811 0.75200003 1.3611186e-38
0.020797171 0.029402874 0.75299996 1.3149506e-38
0.022231461 0.029402867 0.75300002 1.2602844e-38
0.023728615 0.029480956 0.75500005 1.4720848e-38
0.025166688 0.029480956 0.75500005 1.6870777e-38
0.026640033 0.02952002 0.75599998 2.0111612e-38
0.028154297 0.029598109 0.75800002 2.3324051e-38
0.029676201 0.029676199 0.76000005 2.3138216e-38
0.031123839 0.029676192 0.76000005 2.2864139e-38
0.032614298 0.029715247 0.76100004 2.3141793e-38
0.034063838 0.029715255 0.76100004 2.341693e-38
0.035606682 0.029793344 0.76300001 2.3417637e-38
0.03706003 0.029793352 0.76300001 2.3415844e-38
0.038614299 0.029871427 0.76500005 2.3417638e-38
-0.019568576 0.031164765 0.76100004 9.0214937e-39
-0.018047592 0.031041913 0.75800002 9.20335e-39
-0.016647577 0.031123839 0.75999999 9.2937281e-39
-0.015159976 0.03104192 0.75799996 9.4727622e-39
-0.013679986 0.030960016 0.75599998 1.0399393e-38
-0.012223795 0.03091906 0.75500005 1.1321343e-38
-0.010785699 0.03091906 0.75500005 1.150466e-38
-0.0093105072 0.0307962 0.75200003 1.1689061e-38
-0.0078781024 0.030796207 0.75200003 1.1964581e-38
-0.0064457366 0.0307962 0.75200003 1.2239009e-38
-0.0050133541 0.030796207 0.75200003 1.2516666e-38
-0.0035809495 0.030796215 0.75200003 1.2890462e-38
-0.0021428403 0.030714296 0.75000006 1.3165248e-38
-0.00071430317 0.030714296 0.75000006 1.352937e-38
0.00071429351 0.030714296 0.75000006 1.3162036e-38
0.002142851 0.030714273 0.75000006 1.279433e-38
0.0035714253 0.030714288 0.75000006 1.2886159e-38
0.0049999841 0.030714288 0.75000006 1.3069447e-38
0.00641145 0.030632392 0.74800003 1.1124017e-38
0.0078361779 0.030632392 0.74800003 9.1841045e-39
0.0092857145 0.030714296 0.75000006 1.6222546e-38
0.010714273 0.030714288 0.75000012 2.3325831e-38
0.012142846 0.030714296 0.75000006 2.0930598e-38
0.013571407 0.030714296 0.75000006 1.852027e-38
0.015000003 0.030714288 0.75000006 1.3998442e-38
0.016428601 0.030714288 0.75000006 9.5690805e-39
0.017857134 0.030714273 0.75000006 8.7417496e-39
0.019337106 0.030796207 0.75200003 7.9163372e-39
0.02076951 0.030796193 0.75200003 7.5490246e-39
0.02223146 0.030837163 0.75299996 7.2699546e-39
0.023728594 0.030919053 0.75500005 1.1144647e-38
0.02516667 0.030919053 0.75500005 1.5126622e-38
0.026640022 0.030960023 0.75599998 1.8449605e-38
0.028154304 0.031041935 0.75799996 2.166994e-38
0.029676249 0.031123824 0.75999999 2.1946158e-38
0.031123826 0.031123817 0.76000005 2.222381e-38
0.032614294 0.031164765 0.76100004 2.1762115e-38
0.034063835 0.031164773 0.76100004 2.139727e-38
0.035606697 0.031246677 0.76300001 2.1208563e-38
0.037157137 0.031328581 0.7650001 2.1025613e-38
0.038614292 0.031328581 0.76500005 2.0838359e-38
0.04017619 0.0314105 0.76700002 2.0561422e-38
-0.021073302 0.032700017 0.76300001 8.4726401e-39
-0.019619994 0.032700002 0.76300001 8.9296694e-39
-0.018095206 0.032571442 0.76000005 9.3870406e-39
-0.01664759 0.03257145 0.76000005 9.6607408e-39
-0.015159947 0.032485738 0.75799996 9.9373389e-39
-0.013679974 0.032400005 0.75600004 1.0491597e-38
-0.012239976 0.032400012 0.75599998 1.0952574e-38
-0.010785677 0.032357156 0.755 1.1320996e-38
-0.0093228444 0.032271437 0.75300002 1.168834e-38
-0.0078885537 0.032271437 0.75300002 1.196349e-38
-0.006454288 0.032271437 0.75300002 1.2147166e-38
-0.0050133625 0.032228574 0.75200003 1.2514512e-38
-0.0035809579 0.032228589 0.75200003 1.2886159e-38
-0.0021428664 0.032142863 0.75000006 1.3254935e-38
-0.00071426964 0.032142863 0.75000006 1.3529738e-38
0.00071426743 0.032142855 0.75000006 1.2979456e-38
0.002142864 0.032142855 0.75000006 1.2427704e-38
0.0035714216 0.032142855 0.75000012 1.2794668e-38
0.0049999962 0.032142863 0.75000006 1.3063693e-38
0.0064114453 0.032057151 0.74800003 1.1577441e-38
0.0078361956 0.032057151 0.74800003 1.0031429e-38
0.0092856884 0.03214287 0.75000006 1.6792585e-38
0.010714285 0.03214287 0.75000006 2.3414443e-38
0.012142844 0.032142855 0.75000012 1.8917751e-38
0.013571418 0.032142855 0.75000006 1.4366102e-38
0.015000015 0.032142863 0.75000006 7.2556166e-39
0.016472347 0.032228582 0.75200003 9.9230148e-41
0.017857147 0.032142863 0.75000006 1.1025711e-39
0.019337121 0.032228574 0.75200003 2.129636e-39
0.020769503 0.032228582 0.75200003 2.0431955e-39
0.022231461 0.032271452 0.75299996 1.8559764e-39
0.023728576 0.032357149 0.75500005 7.6448805e-39
0.025166688 0.032357164 0.755 1.3377807e-38
0.026640013 0.032400005 0.75599998 1.6706867e-38
0.028154334 0.032485731 0.75799996 2.0012588e-38
0.029676236 0.032571435 0.75999999 2.0752654e-38
0.031164767 0.032614298 0.76100004 2.1484103e-38
0.032614291 0.032614291 0.76100004 2.037669e-38
0.034063831 0.032614298 0.76100004 1.9273224e-38
0.035606712 0.032700017 0.76300001 1.8993049e-38
0.037060019 0.032700017 0.76300001 1.8628212e-38
0.038614284 0.032785729 0.76500005 1.816544e-38
0.040176198 0.03287144 0.76699996 1.7707344e-38
-0.021073328 0.03415335 0.76300001 8.748155e-39
-0.019619981 0.03415335 0.76300001 9.0215147e-39
-0.018119022 0.034063838 0.76100004 9.2952247e-39
-0.016647603 0.03401906 0.76000005 9.4788915e-39
-0.015159976 0.033929549 0.75800002 9.6643631e-39
-0.01371617 0.033929549 0.75800002 1.0215742e-38
-0.012239986 0.033840016 0.75599998 1.0859312e-38
-0.010785697 0.033795252 0.75500005 1.1228092e-38
-0.0093228435 0.033705734 0.75300002 1.168762e-38
-0.0078885546 0.033705734 0.75300002 1.2055669e-38
-0.0064542647 0.033705726 0.75300002 1.2423022e-38
-0.0050133476 0.033660971 0.75200003 1.2699975e-38
-0.0035809653 0.033660971 0.75200003 1.2976919e-38
-0.0021428533 0.03357143 0.75000006 1.3436458e-38
-0.00071429572 0.033571422 0.75000006 1.3987848e-38
0.00071430096 0.033571422 0.75000006 1.3437571e-38
0.002142838 0.033571422 0.75000006 1.288724e-38
0.0035714346 0.033571422 0.75000006 1.3069083e-38
0.0049999934 0.033571415 0.75000012 1.3159818e-38
0.0064114397 0.033481918 0.74800003 1.1763608e-38
0.0078361901 0.033481918 0.74800003 1.0469799e-38
0.0092857219 0.03357143 0.75000006 1.6962635e-38
0.010714259 0.03357143 0.75000006 2.3417679e-38
0.012142856 0.03357143 0.75000006 1.8161901e-38
0.013571414 0.03357143 0.75000012 1.2954804e-38
0.014999988 0.033571437 0.75000006 7.7186476e-39
0.016472362 0.033660948 0.75200003 2.4901494e-39
0.017857144 0.033571437 0.75000006 5.0748416e-39
0.019337151 0.033660963 0.75200003 7.7416569e-39
0.020769496 0.033660963 0.75200003 7.6516137e-39
0.022231448 0.033705726 0.75300002 7.5472772e-39
0.023728594 0.033795252 0.755 1.2255335e-38
0.025166692 0.033795245 0.75500005 1.6970875e-38
0.026640024 0.033840008 0.75600004 1.9182463e-38
0.028154343 0.033929542 0.75799996 2.1471543e-38
0.029715227 0.034063824 0.76100004 2.1112819e-38
0.031164788 0.034063824 0.76100004 2.0746908e-38
0.032614287 0.034063824 0.76100004 1.9454748e-38
0.034153379 0.034153365 0.76300001 1.8162239e-38
0.035606686 0.034153357 0.76300001 1.7980723e-38
0.037157163 0.034242868 0.76500005 1.7705916e-38
0.038614281 0.034242868 0.76500005 1.7336404e-38
0.040176176 0.034332402 0.76700002 1.7060547e-38
-0.019568566 0.035513334 0.76100004 9.0207986e-39
-0.018095192 0.035466678 0.75999999 9.1115299e-39
-0.016647577 0.035466678 0.75999999 9.2944568e-39
-0.01515997 0.035373352 0.75800002 9.3881084e-39
-0.013716161 0.035373352 0.75799996 1.0031339e-38
-0.012239994 0.035280019 0.75599998 1.0675986e-38
