# .PCD v0.7 - Point Cloud Data file format
VERSION 0.7
FIELDS x y z rgb
SIZE 4 4 4 4
TYPE F F F F
COUNT 1 1 1 1
WIDTH 949
HEIGHT 1
VIEWPOINT 0 0 0 1 0 0 0
POINTS 949
DATA ascii
-0.01337235 -0.031671464 0.73900008 1.8064913e-38
-0.011964717 -0.03167145 0.73900008 1.3900289e-38
-0.010528547 -0.031585738 0.73700005 1.2508307e-38
-0.0091247456 -0.031585738 0.73700011 1.1225181e-38
-0.0077209207 -0.031585738 0.73700011 1.2059293e-38
-0.0063171345 -0.031585738 0.73700005 1.298305e-38
-0.0049133119 -0.031585738 0.73700005 1.3998284e-38
-0.0035094884 -0.031585738 0.73700011 1.4921662e-38
-0.0021028393 -0.031542853 0.73600006 1.4918792e-38
-0.00070093799 -0.031542853 0.73600006 1.4998044e-38
0.00070100051 -0.031542882 0.73600006 1.3708373e-38
0.0021029017 -0.031542882 0.73600006 1.2514501e-38
0.0035047787 -0.031542882 0.73600006 1.2974384e-38
0.00490668 -0.031542853 0.73600006 1.3434651e-38
0.0063085812 -0.031542867 0.73600006 1.3711962e-38
0.0077105188 -0.031542882 0.73600006 1.3987475e-38
0.0091124214 -0.031542867 0.73600006 1.3804529e-38
0.010514299 -0.031542882 0.73600006 1.362121e-38
0.0119162 -0.031542867 0.73600006 1.2510926e-38
0.013336217 -0.031585738 0.73700005 1.1480033e-38
0.014740017 -0.031585723 0.73700011 1.7122996e-38
0.016187651 -0.031671464 0.73900008 2.2866669e-38
0.017595282 -0.031671464 0.73900008 2.3141825e-38
0.019028572 -0.031714305 0.74000001 2.3416591e-38
0.020438129 -0.031714305 0.74000001 2.2388799e-38
0.021847643 -0.03171432 0.74000001 2.1268093e-38
0.023320043 -0.031800017 0.7420001 2.2193235e-38
0.024733407 -0.031800017 0.7420001 2.3207015e-38
0.026181942 -0.031842873 0.74300009 2.2202205e-38
0.027597167 -0.031842873 0.74300009 2.1269111e-38
0.029090554 -0.031928584 0.74500012 1.7777537e-38
0.030591479 -0.032014281 0.7470001 1.4266901e-38
0.0321429 -0.032142863 0.75000012 1.1603949e-38
0.033660959 -0.032228589 0.75200009 8.9446633e-39
0.035140019 -0.03227146 0.75300002 9.5857139e-39
0.036574326 -0.032271445 0.75300002 1.0318635e-38
0.038159996 -0.032400012 0.75600004 9.9527588e-39
0.039599996 -0.032400012 0.75600004 9.678683e-39
0.041311488 -0.032614306 0.7610001 1.0047454e-38
-0.032399993 -0.030960023 0.75600004 1.6039561e-38
-0.030919015 -0.03091906 0.75500005 1.7331039e-38
-0.029402863 -0.030837163 0.75300002 1.8627152e-38
-0.027968535 -0.030837163 0.75300002 1.992757e-38
-0.026499031 -0.030796215 0.75200009 2.1099079e-38
-0.024999972 -0.030714303 0.75000012 1.6380562e-38
-0.023477132 -0.030591443 0.74700004 1.1709602e-38
-0.021995192 -0.030509546 0.74500012 1.6034932e-38
-0.020576136 -0.030509561 0.74500012 2.0282705e-38
-0.019105712 -0.03042762 0.74300003 2.1764651e-38
-0.017666588 -0.030386701 0.7420001 2.3234019e-38
-0.016253261 -0.030386701 0.7420001 2.3234019e-38
-0.014799995 -0.03030479 0.74000001 2.3233269e-38
-0.013390439 -0.03030479 0.74000001 2.0567497e-38
-0.011964725 -0.030263826 0.73900008 1.7778232e-38
-0.010557093 -0.030263841 0.73900008 1.4619832e-38
-0.0091494843 -0.030263856 0.73900008 1.1501065e-38
-0.0077209282 -0.030181929 0.73700005 1.2242259e-38
-0.006317127 -0.030181915 0.73700011 1.2981621e-38
-0.0049133017 -0.030181929 0.73700011 1.3718831e-38
-0.0035094791 -0.030181929 0.73700011 1.4367416e-38
-0.0021056929 -0.030181915 0.73700005 1.4921657e-38
-0.0007009175 -0.030140966 0.73600012 1.5369688e-38
0.00070098188 -0.030140966 0.73600006 1.3615103e-38
0.0021028812 -0.030140966 0.73600006 1.1778749e-38
0.0035047843 -0.030140966 0.73600006 1.2513071e-38
0.0049067228 -0.030140966 0.73600006 1.3250989e-38
0.0063085998 -0.030140981 0.73600006 1.3621208e-38
0.0077105002 -0.030140966 0.73600006 1.3988187e-38
0.0091124028 -0.030140966 0.73600006 1.3528648e-38
0.010514303 -0.030140981 0.73600006 1.3069472e-38
0.011916242 -0.030140951 0.73600006 1.2148247e-38
0.013336227 -0.030181915 0.73700011 1.1224611e-38
0.014740014 -0.030181929 0.73700005 1.712263e-38
0.016187668 -0.030263841 0.73900008 2.2945946e-38
0.01761906 -0.030304775 0.74000001 2.3234019e-38
0.019028617 -0.030304775 0.74000001 2.3410138e-38
0.020438133 -0.030304775 0.74000001 2.2012499e-38
0.021906743 -0.030386686 0.7420001 2.0626347e-38
0.023320068 -0.030386686 0.7420001 2.1995619e-38
0.02473337 -0.030386686 0.7420001 2.33997e-38
0.026181938 -0.030427635 0.74300009 2.3417641e-38
0.027597185 -0.03042762 0.74300009 2.3406499e-38
0.029090529 -0.030509546 0.74500012 1.9644094e-38
0.030632408 -0.030632406 0.74800009 1.5749221e-38
0.03214287 -0.030714303 0.75000012 1.251908e-38
0.033660971 -0.03079623 0.75200009 9.3109403e-39
0.03514 -0.030837148 0.75300002 9.9580991e-39
0.036671463 -0.03091906 0.75500005 1.0597374e-38
0.038160011 -0.030960023 0.75600004 1.0041713e-38
0.039704785 -0.03104192 0.75800008 9.4031751e-39
0.041311495 -0.03116478 0.7610001 9.8659469e-39
-0.032400001 -0.02952002 0.7560001 1.5482459e-38
-0.030919014 -0.029480964 0.75500005 1.6868642e-38
-0.029480964 -0.029480964 0.75500005 1.8349863e-38
-0.027968556 -0.029402867 0.75300002 1.9736378e-38
-0.026499057 -0.029363826 0.75200003 2.1112054e-38
-0.025000004 -0.029285744 0.75000012 1.7785465e-38
-0.023477113 -0.029168591 0.74700004 1.4466857e-38
-0.021995194 -0.029090479 0.74500012 1.611741e-38
-0.020576159 -0.029090494 0.74500012 1.7895325e-38
-0.019105716 -0.029012382 0.74300003 2.056792e-38
-0.017690469 -0.029012367 0.74300003 2.3325854e-38
-0.016253259 -0.028973356 0.7420001 2.3325854e-38
-0.014839934 -0.028973341 0.7420001 2.3325854e-38
-0.013390457 -0.028895259 0.74000001 2.1944017e-38
-0.01198094 -0.028895259 0.74000001 2.0555943e-38
-0.010557099 -0.028856218 0.73900008 1.5931743e-38
-0.0091494685 -0.028856233 0.73900008 1.140602e-38
-0.0077209179 -0.028778121 0.73700011 1.1867395e-38
-0.0063170926 -0.028778121 0.73700011 1.2247302e-38
-0.0049133296 -0.028778106 0.73700011 1.3076341e-38
-0.003509507 -0.028778121 0.73700011 1.3907519e-38
-0.0021056836 -0.028778136 0.73700011 1.427342e-38
-0.00070091564 -0.028739065 0.73600006 1.4729707e-38
0.00070096325 -0.02873905 0.73600006 1.3619408e-38
0.0021028626 -0.028739065 0.73600006 1.2512724e-38
0.0035048029 -0.02873905 0.73600012 1.2790388e-38
0.0049067042 -0.02873905 0.73600006 1.3159524e-38
0.0063086036 -0.02873908 0.73600006 1.3528659e-38
0.0077104834 -0.02873905 0.73600006 1.3897424e-38
0.0091124224 -0.02873905 0.73600012 1.3622262e-38
0.010514323 -0.02873905 0.73600006 1.3255287e-38
0.011916223 -0.028739065 0.73600006 1.2239007e-38
0.013336199 -0.028778106 0.73700011 1.1219227e-38
0.014740024 -0.028778121 0.73700011 1.712908e-38
0.016187659 -0.028856233 0.73900008 2.3050333e-38
0.017619066 -0.028895259 0.74000001 2.323366e-38
0.019028598 -0.028895274 0.74000001 2.34166e-38
0.020438118 -0.028895259 0.74000001 2.2384513e-38
0.021906732 -0.028973341 0.7420001 2.145361e-38
0.023320073 -0.028973371 0.7420001 2.2387398e-38
0.024733398 -0.028973371 0.7420001 2.3417684e-38
0.026181916 -0.029012397 0.74300003 2.2773407e-38
0.027597142 -0.029012397 0.74300003 2.2040149e-38
0.029090529 -0.029090494 0.74500012 1.7787725e-38
0.030714327 -0.029285729 0.75000012 1.3536239e-38
0.0321429 -0.029285744 0.75000012 1.1421004e-38
0.033660982 -0.029363826 0.75200009 9.4038646e-39
0.035233352 -0.029480964 0.75500005 9.8630547e-39
0.036671426 -0.029480964 0.75500005 1.0325819e-38
0.038160026 -0.02952002 0.75600004 9.9556062e-39
0.039704822 -0.029598117 0.75800008 9.6797578e-39
0.041311465 -0.029715255 0.76100004 1.0140028e-38
-0.032485683 -0.028154299 0.75800008 1.4838861e-38
-0.030959966 -0.028080001 0.75600004 1.6494453e-38
-0.029519966 -0.028080001 0.75600004 1.8070746e-38
-0.02796855 -0.0279686 0.75300002 1.964704e-38
-0.026499067 -0.027931452 0.75200003 2.1111719e-38
-0.024999972 -0.027857155 0.75000012 1.9182429e-38
-0.023477115 -0.027745724 0.7470001 1.7222289e-38
-0.022054251 -0.027745724 0.74700004 1.625548e-38
-0.020576121 -0.027671456 0.74500012 1.5394222e-38
-0.019105701 -0.027597159 0.74300003 1.9376928e-38
-0.017690474 -0.027597144 0.74300003 2.3325854e-38
-0.01625327 -0.027560025 0.7420001 2.341769e-38
-0.01483993 -0.027560025 0.7420001 2.341769e-38
-0.013426605 -0.027560025 0.7420001 2.3325854e-38
-0.011980916 -0.027485728 0.74000007 2.3223526e-38
-0.010557083 -0.027448595 0.73900008 1.7329103e-38
-0.009149476 -0.027448609 0.73900008 1.132389e-38
-0.007720944 -0.027374282 0.73700011 1.1389507e-38
-0.0063171205 -0.027374312 0.73700011 1.1503974e-38
-0.004913297 -0.027374312 0.73700011 1.2522806e-38
-0.0035094717 -0.027374312 0.73700011 1.3442955e-38
-0.0021057115 -0.027374312 0.73700011 1.3718463e-38
-0.00070093427 -0.027337149 0.73600006 1.3991081e-38
0.00070096698 -0.027337149 0.73600006 1.3619776e-38
0.0021057609 -0.027374297 0.73700011 1.3159521e-38
0.0035095247 -0.027374312 0.73700011 1.3068402e-38
0.0049066856 -0.027337134 0.73600006 1.2976206e-38
0.0063085868 -0.027337134 0.73600006 1.3436817e-38
0.0077105253 -0.027337164 0.73600006 1.3806306e-38
0.0091124261 -0.027337164 0.73600006 1.3623707e-38
0.010528583 -0.027374312 0.73700011 1.3438961e-38
0.011932408 -0.027374297 0.73700011 1.2333349e-38
0.013336232 -0.027374312 0.73700011 1.1226046e-38
0.014740055 -0.027374312 0.73700011 1.7216263e-38
0.016187673 -0.027448609 0.73900008 2.3129977e-38
0.017619088 -0.027485728 0.74000007 2.3325854e-38
0.019028604 -0.027485728 0.74000001 2.340942e-38
0.020438099 -0.027485728 0.74000001 2.2839374e-38
0.021906735 -0.027560025 0.7420001 2.2203358e-38
0.023320058 -0.027560011 0.7420001 2.2866671e-38
0.024766684 -0.027597159 0.74300003 2.3416205e-38
0.02618191 -0.027597144 0.74300003 2.2033964e-38
0.027597159 -0.027597144 0.74300003 2.0632377e-38
0.029090542 -0.027671441 0.74500012 1.5929377e-38
0.030714296 -0.027857155 0.75000012 1.1237785e-38
0.03214287 -0.027857184 0.75000012 1.0409024e-38
0.033660933 -0.027931452 0.75200003 9.4935561e-39
0.035233337 -0.028042868 0.75500005 9.7644159e-39
0.036671452 -0.028042883 0.75500005 1.0047089e-38
0.038160019 -0.028080016 0.7560001 9.9581145e-39
0.039704818 -0.028154314 0.75800008 9.8644952e-39
0.041257184 -0.028228581 0.76000011 1.0506996e-38
-0.03248566 -0.026710495 0.75800008 1.5484547e-38
-0.030919006 -0.026604787 0.75500005 1.6407608e-38
-0.029480955 -0.026604772 0.75500005 1.7332093e-38
-0.028042817 -0.026604772 0.75500005 1.8808668e-38
-0.026534244 -0.026534319 0.75300008 2.0189082e-38
-0.02499998 -0.026428595 0.75000006 1.9455485e-38
-0.023508562 -0.026358128 0.74800009 1.8708527e-38
-0.022054255 -0.026322871 0.7470001 1.582711e-38
-0.020576145 -0.026252404 0.74500012 1.3099749e-38
-0.019157087 -0.026252404 0.74500012 1.8264858e-38
-0.017690456 -0.026181921 0.74300003 2.341769e-38
-0.016275231 -0.026181921 0.74300009 2.341769e-38
-0.014859984 -0.026181906 0.74300003 2.341769e-38
-0.013426602 -0.026146695 0.7420001 2.341769e-38
-0.01198091 -0.026076213 0.74000001 2.3325812e-38
-0.010557095 -0.026040986 0.73900008 1.8986543e-38
-0.009149462 -0.026041001 0.73900008 1.4629272e-38
-0.0077418522 -0.026041001 0.73900008 1.296572e-38
-0.0063342578 -0.026040971 0.73900008 1.1326009e-38
-0.004926627 -0.026040971 0.73900008 1.215294e-38
-0.0035094996 -0.025970504 0.73700011 1.3071302e-38
-0.0021056761 -0.025970489 0.73700011 1.3347174e-38
-0.00070091378 -0.025935248 0.73600012 1.3620875e-38
0.00070098747 -0.025935248 0.73600006 1.325316e-38
0.0021057329 -0.025970489 0.73700011 1.2885811e-38
0.0035095583 -0.025970489 0.73700011 1.2792173e-38
0.0049066893 -0.025935248 0.73600006 1.2791094e-38
0.0063086054 -0.025935248 0.73600012 1.3437169e-38
0.0077105067 -0.025935262 0.73600006 1.4174725e-38
0.0091124075 -0.025935248 0.73600006 1.353188e-38
0.010528618 -0.025970504 0.73700011 1.2981939e-38
0.011932418 -0.025970504 0.73700011 1.2052457e-38
0.013336204 -0.025970489 0.73700011 1.120596e-38
0.014740027 -0.025970489 0.73700011 1.7128025e-38
0.016187666 -0.026040986 0.73900008 2.3142179e-38
0.017619072 -0.026076213 0.74000007 2.3232584e-38
0.019028589 -0.026076198 0.74000001 2.3412284e-38
0.020438144 -0.026076213 0.74000007 2.2755059e-38
0.021906722 -0.026146665 0.74200004 2.2112955e-38
0.023320064 -0.02614668 0.7420001 2.2770178e-38
0.024766678 -0.026181921 0.74300003 2.3417595e-38
0.026181927 -0.026181921 0.74300003 2.220283e-38
0.027671486 -0.026252404 0.74500012 2.0964817e-38
0.029168608 -0.026322886 0.7470001 1.6570674e-38
0.030714327 -0.026428595 0.75000012 1.2240028e-38
0.0321429 -0.026428595 0.75000012 1.0867847e-38
0.033660948 -0.026499063 0.75200003 9.5904222e-39
0.03523336 -0.026604772 0.75500005 9.9549154e-39
0.036671437 -0.026604772 0.75500005 1.0324034e-38
0.03816003 -0.026640013 0.7560001 1.0048511e-38
0.039704788 -0.02671051 0.75800008 9.7722912e-39
-0.030919043 -0.025166675 0.75500005 1.6319715e-38
-0.02948091 -0.025166661 0.75500005 1.6595261e-38
-0.027968567 -0.025100023 0.75300002 1.7974985e-38
-0.026534239 -0.025100008 0.75300002 1.9272886e-38
-0.024999972 -0.025000021 0.75000012 1.9741397e-38
-0.023508552 -0.024933353 0.74800009 2.0169633e-38
-0.022054236 -0.024900012 0.7470001 1.5428894e-38
-0.020576145 -0.024833344 0.74500012 1.0700175e-38
-0.019157112 -0.024833344 0.74500012 1.7072789e-38
-0.017738016 -0.024833359 0.74500012 2.3415538e-38
-0.016275214 -0.024766684 0.74300003 2.341769e-38
-0.014859987 -0.024766669 0.74300009 2.341769e-38
-0.013426612 -0.024733357 0.74200004 2.341769e-38
-0.012013272 -0.024733372 0.7420001 2.341731e-38
-0.010571411 -0.024666667 0.74000001 2.0753342e-38
-0.0091494685 -0.024633378 0.73900008 1.7957239e-38
-0.0077418364 -0.02463337 0.73900008 1.4517571e-38
-0.0063342652 -0.024633355 0.73900008 1.1132638e-38
-0.0049266345 -0.024633363 0.73900008 1.1874923e-38
-0.0035094903 -0.02456668 0.73700011 1.2611044e-38
-0.002105704 -0.024566688 0.73700005 1.2978389e-38
-0.00070090819 -0.024533331 0.73600006 1.3253527e-38
0.00070096884 -0.024533346 0.73600006 1.2885817e-38
0.002105746 -0.024566703 0.73700011 1.2517021e-38
0.0035095303 -0.024566688 0.73700005 1.251521e-38
0.0049133538 -0.024566695 0.73700005 1.2516659e-38
0.0063171773 -0.02456668 0.73700011 1.3529374e-38
0.007710488 -0.024533346 0.73600006 1.4540635e-38
0.0091123879 -0.024533339 0.73600006 1.3530439e-38
0.010528591 -0.02456668 0.73700011 1.2427329e-38
0.011932414 -0.024566695 0.73700011 1.1780527e-38
0.013336216 -0.024566695 0.73700011 1.1133842e-38
0.014740039 -0.024566695 0.73700011 1.7130881e-38
0.016187659 -0.024633378 0.73900008 2.3039932e-38
0.017619079 -0.024666697 0.74000001 2.3234019e-38
0.019028595 -0.024666689 0.74000001 2.3408698e-38
0.020438129 -0.024666682 0.74000001 2.2654977e-38
0.021906728 -0.02473335 0.7420001 2.1931438e-38
0.023320053 -0.02473335 0.74200004 2.2683006e-38
0.024766697 -0.024766654 0.74300003 2.3414414e-38
0.026181921 -0.024766684 0.74300003 2.239449e-38
0.027671486 -0.024833344 0.74500012 2.1279887e-38
0.029168628 -0.024900012 0.7470001 1.7240899e-38
0.030714296 -0.025000021 0.75000012 1.317316e-38
0.032142892 -0.025000021 0.75000012 1.1415297e-38
0.033660959 -0.025066674 0.75200003 9.5857713e-39
0.035233364 -0.02516669 0.75500011 1.0048546e-38
0.03667146 -0.02516669 0.75500005 1.0507338e-38
0.038160011 -0.025200024 0.75600004 1.0047058e-38
0.039704788 -0.025266692 0.75800008 9.5886202e-39
-0.027968565 -0.023665741 0.75300002 1.5220649e-38
-0.026639987 -0.023760013 0.75600004 1.9552704e-38
-0.025199989 -0.023759998 0.75600004 2.010372e-38
-0.023571407 -0.023571447 0.75000012 2.0738573e-38
-0.022083776 -0.023508593 0.74800009 1.5918182e-38
-0.020631375 -0.023477152 0.7470001 1.1157905e-38
-0.019157076 -0.023414291 0.74500012 1.7247131e-38
-0.017738041 -0.023414299 0.74500012 2.3417689e-38
-0.016318984 -0.023414306 0.74500012 2.3050348e-38
-0.01489995 -0.023414306 0.74500012 2.2774842e-38
-0.013444724 -0.023351453 0.74300003 2.3050348e-38
-0.012013247 -0.023320042 0.7420001 2.341769e-38
-0.01057139 -0.023257166 0.74000007 2.2034777e-38
-0.0091618728 -0.023257159 0.74000001 2.064236e-38
-0.007741882 -0.023225732 0.73900008 1.5645041e-38
-0.0063342494 -0.023225725 0.73900008 1.0669143e-38
-0.0049266187 -0.023225732 0.73900008 1.1596186e-38
-0.0035190084 -0.023225747 0.73900008 1.2519563e-38
-0.0021113777 -0.023225754 0.73900008 1.2978739e-38
-0.00070092682 -0.023131445 0.73600006 1.3529387e-38
0.00070097257 -0.023131438 0.73600006 1.2791467e-38
0.0021057404 -0.023162887 0.73700011 1.2148949e-38
0.0035095415 -0.023162879 0.73700011 1.2516622e-38
0.0049133669 -0.023162879 0.73700011 1.2792518e-38
0.0063171494 -0.023162872 0.73700005 1.3344997e-38
0.0077209747 -0.023162872 0.73700005 1.3988549e-38
0.0091247987 -0.023162879 0.73700011 1.3529356e-38
0.010528601 -0.023162901 0.73700011 1.306981e-38
0.011932425 -0.023162887 0.73700011 1.2145347e-38
0.013336211 -0.023162864 0.73700005 1.1305303e-38
0.014740035 -0.023162879 0.73700011 1.7130865e-38
0.016143836 -0.023162887 0.73700011 2.3050328e-38
0.01761906 -0.023257151 0.74000001 2.3233302e-38
0.019028617 -0.023257174 0.74000007 2.3415156e-38
0.020493388 -0.023320019 0.7420001 2.2483147e-38
0.02190673 -0.023320019 0.7420001 2.1651628e-38
0.023320055 -0.023320019 0.7420001 2.2491802e-38
0.024766689 -0.023351446 0.74300009 2.341769e-38
0.02618194 -0.023351438 0.74300003 2.2771613e-38
0.027671462 -0.023414306 0.74500012 2.2223817e-38
0.029168585 -0.023477152 0.7470001 1.7423608e-38
0.030591449 -0.023477145 0.74700004 1.2623292e-38
0.032142859 -0.023571454 0.75000006 1.0959013e-38
0.033660948 -0.023634329 0.75200003 9.4010367e-39
0.035140034 -0.023665719 0.75300002 1.0138948e-38
0.0365743 -0.023665719 0.75300002 1.0874313e-38
0.038109537 -0.023728587 0.75500005 1.0322903e-38
0.039547648 -0.023728594 0.75500011 9.8637665e-39
-0.028079996 -0.02232001 0.7560001 1.2549864e-38
-0.026604736 -0.022290491 0.75500005 1.9820666e-38
-0.025066659 -0.02220194 0.75200009 2.0566126e-38
-0.023571415 -0.02214288 0.75000006 2.1180898e-38
-0.022083765 -0.022083841 0.74800009 1.6347244e-38
-0.020631416 -0.022054307 0.74700004 1.160812e-38
-0.019208513 -0.022054307 0.7470001 1.7524067e-38
-0.017738042 -0.021995261 0.74500012 2.3321904e-38
-0.016319009 -0.021995246 0.74500012 2.2683006e-38
-0.014899952 -0.021995246 0.74500012 2.2039081e-38
-0.01344473 -0.021936201 0.74300009 2.2774842e-38
-0.012029479 -0.021936208 0.74300009 2.341769e-38
-0.010599918 -0.021906696 0.7420001 2.341769e-38
-0.0091618886 -0.021847643 0.74000001 2.3307422e-38
-0.0077523724 -0.021847643 0.74000001 1.675145e-38
-0.0063342559 -0.021818116 0.73900008 1.0122106e-38
-0.0049266252 -0.021818124 0.73900008 1.1228827e-38
-0.0035189916 -0.021818131 0.73900008 1.2334802e-38
-0.0021113832 -0.021818131 0.73900008 1.3071641e-38
-0.0007018749 -0.02175907 0.73700005 1.37109e-38
0.00070099119 -0.021729536 0.73600012 1.278465e-38
0.0021057515 -0.021759093 0.73700011 1.1779463e-38
0.0035095359 -0.021759078 0.73700005 1.2425522e-38
0.0049133613 -0.021759056 0.73700005 1.306839e-38
0.0063171624 -0.021759078 0.73700011 1.3252798e-38
0.0077209859 -0.021759078 0.73700011 1.3344626e-38
0.009124808 -0.021759085 0.73700011 1.3529006e-38
0.010528594 -0.02175907 0.73700005 1.3712667e-38
0.011932396 -0.021759078 0.73700011 1.2609196e-38
0.01333622 -0.021759085 0.73700011 1.1408629e-38
0.014740044 -0.02175907 0.73700011 1.7219846e-38
0.01620955 -0.021847636 0.74000001 2.3039216e-38
0.017619066 -0.021847628 0.74000001 2.3234019e-38
0.019080052 -0.021906704 0.74200004 2.3412644e-38
0.020493394 -0.021906704 0.7420001 2.2394896e-38
0.021906719 -0.021906666 0.7420001 2.1286427e-38
0.023351459 -0.021936208 0.74300009 2.2397796e-38
0.024766708 -0.021936201 0.74300003 2.3409071e-38
0.026181933 -0.021936201 0.74300009 2.3234019e-38
0.027671499 -0.021995261 0.74500012 2.3031997e-38
0.029168604 -0.022054292 0.7470001 1.751392e-38
0.030632427 -0.022083849 0.74800009 1.1973944e-38
0.032142892 -0.022142872 0.75000012 1.0580556e-38
0.033660959 -0.022201933 0.75200003 9.1233807e-39
0.035233371 -0.022290513 0.75500005 1.0140024e-38
0.036671448 -0.022290498 0.75500005 1.1149476e-38
0.038160015 -0.022320017 0.7560001 1.0598082e-38
0.039600015 -0.022320025 0.7560001 1.0047821e-38
-0.028154263 -0.02093526 0.75800008 1.1806905e-38
-0.026604732 -0.020852394 0.75500011 1.889943e-38
-0.025099985 -0.020797163 0.75300002 1.9638803e-38
-0.023634264 -0.020769566 0.75200009 2.0366944e-38
-0.02208378 -0.020659082 0.74800009 1.5914271e-38
-0.02065899 -0.020659074 0.74800009 1.1505529e-38
-0.019208554 -0.020631455 0.74700004 1.742541e-38
-0.017738065 -0.020576209 0.74500012 2.3325847e-38
-0.016318969 -0.020576216 0.74500012 2.1576675e-38
-0.014899936 -0.020576224 0.74500012 1.983216e-38
-0.013444749 -0.020520948 0.74300003 2.1579904e-38
-0.012029523 -0.020520963 0.74300003 2.341769e-38
-0.010599952 -0.020493351 0.7420001 2.341769e-38
-0.0091618821 -0.020438097 0.74000001 2.3417592e-38
-0.007752351 -0.020438112 0.74000007 1.7496973e-38
-0.0063342438 -0.020410493 0.73900008 1.1664686e-38
-0.0049266345 -0.020410508 0.73900008 1.1863767e-38
-0.003519001 -0.020410515 0.73900008 1.2151835e-38
-0.0021113702 -0.020410508 0.73900008 1.2795047e-38
-0.00070186373 -0.020355269 0.73700011 1.3437539e-38
0.00070192065 -0.020355254 0.73700005 1.2882222e-38
0.0021057217 -0.020355254 0.73700011 1.242196e-38
0.0035095452 -0.020355269 0.73700011 1.2791087e-38
0.0049133687 -0.020355254 0.73700011 1.3068037e-38
0.006317155 -0.020355254 0.73700005 1.3252075e-38
0.0077209561 -0.020355262 0.73700011 1.3435027e-38
0.0091247829 -0.020355269 0.73700011 1.3528655e-38
0.010528606 -0.020355269 0.73700011 1.3622275e-38
0.011964808 -0.020410493 0.73900008 1.2509475e-38
0.013372418 -0.020410515 0.73900008 1.1296357e-38
0.01478005 -0.020410508 0.73900008 1.7220938e-38
0.016209533 -0.020438112 0.74000001 2.3142179e-38
0.017666753 -0.020493358 0.7420001 2.3232943e-38
0.019080056 -0.020493366 0.7420001 2.3321166e-38
0.020493418 -0.020493366 0.7420001 2.2385565e-38
0.021936227 -0.020520955 0.74300009 2.1456455e-38
0.023351477 -0.020520963 0.74300009 2.2203343e-38
0.024833385 -0.020576209 0.74500012 2.3025935e-38
0.026322877 -0.02063144 0.74700004 2.1179557e-38
0.027782882 -0.020659067 0.74800003 1.9329475e-38
0.029207647 -0.020659074 0.74800009 1.5740257e-38
0.030714327 -0.020714328 0.75000012 1.2137125e-38
0.032142881 -0.020714305 0.75000006 1.0677777e-38
0.033660971 -0.020769551 0.75200003 9.3110005e-39
0.035233356 -0.020852394 0.75500005 9.7708885e-39
0.036671471 -0.020852394 0.75500005 1.0230778e-38
-0.028154287 -0.019491449 0.75800008 1.1070409e-38
-0.026639966 -0.019440018 0.7560001 1.7976391e-38
-0.025099969 -0.019362874 0.75300008 1.8813696e-38
-0.02363429 -0.019337162 0.75200003 1.95257e-38
-0.022142841 -0.019285746 0.75000012 1.5437863e-38
-0.020659003 -0.019234307 0.74800009 1.1330465e-38
-0.019208536 -0.019208588 0.74700004 1.734542e-38
-0.017785694 -0.01920858 0.7470001 2.3319746e-38
-0.01636285 -0.019208588 0.74700004 2.0465668e-38
-0.014899936 -0.019157149 0.74500012 1.7530167e-38
-0.013444755 -0.019105718 0.74300003 2.0478954e-38
-0.012029507 -0.019105725 0.74300003 2.341769e-38
-0.010599949 -0.019080028 0.7420001 2.341769e-38
-0.0091618989 -0.019028574 0.74000001 2.3410454e-38
-0.0077523445 -0.019028589 0.74000001 1.8337197e-38
-0.0063428502 -0.019028582 0.74000001 1.3249224e-38
-0.0049332944 -0.019028597 0.74000007 1.259375e-38
-0.0035190084 -0.0190029 0.73900008 1.1870928e-38
-0.0021113777 -0.0190029 0.73900008 1.2518465e-38
-0.00070189167 -0.018951446 0.73700011 1.306912e-38
0.00070193183 -0.018951453 0.73700011 1.3068404e-38
0.0021057553 -0.018951453 0.73700011 1.3065886e-38
0.0035095415 -0.018951453 0.73700005 1.3065162e-38
0.0049133408 -0.018951438 0.73700011 1.3067317e-38
0.0063171661 -0.018951461 0.73700011 1.325171e-38
0.0077419649 -0.019002892 0.73900008 1.3435741e-38
0.0091495588 -0.01900287 0.73900008 1.3528297e-38
0.010557168 -0.019002885 0.73900008 1.3527211e-38
0.0119648 -0.019002885 0.73900008 1.2418718e-38
0.013372432 -0.019002892 0.73900008 1.1223536e-38
0.014800023 -0.019028597 0.74000001 1.7224528e-38
0.016209541 -0.019028589 0.74000001 2.3223972e-38
0.017666718 -0.01908002 0.7420001 2.3234019e-38
0.019080082 -0.01908002 0.7420001 2.3222153e-38
0.020493384 -0.019080028 0.7420001 2.2369775e-38
0.021936184 -0.019105725 0.74300003 2.1553677e-38
0.023414327 -0.019157164 0.74500012 2.2116188e-38
0.024900032 -0.019208573 0.7470001 2.2564902e-38
0.026322875 -0.01920858 0.7470001 1.9128185e-38
0.02778287 -0.019234307 0.74800009 1.5646285e-38
0.029207656 -0.019234322 0.74800009 1.398029e-38
0.03071432 -0.019285738 0.75000012 1.2242218e-38
0.032142889 -0.019285738 0.75000012 1.086575e-38
0.033660963 -0.019337162 0.75200009 9.4006794e-39
0.035140019 -0.019362859 0.75300002 9.4021087e-39
0.03667143 -0.019414306 0.75500005 9.3116956e-39
0.038160007 -0.01944001 0.75600004 9.5875496e-39
-0.032614257 -0.018119082 0.7610001 8.389438e-39
-0.031123761 -0.018095247 0.76000011 7.744084e-39
-0.029598037 -0.018047646 0.75800008 7.1823791e-39
-0.02815423 -0.018047638 0.75800008 1.207771e-38
-0.026639992 -0.018000014 0.75600004 1.6969049e-38
-0.025199993 -0.017999999 0.75600004 1.8256562e-38
-0.023665696 -0.017928593 0.75300002 1.9626487e-38
-0.022142848 -0.017857172 0.75000006 1.5452918e-38
-0.020714276 -0.017857157 0.75000012 1.1409743e-38
-0.019234266 -0.017809555 0.74800009 1.7428294e-38
-0.017785674 -0.017785721 0.7470001 2.3325842e-38
-0.016362831 -0.017785735 0.7470001 1.8903016e-38
-0.014939988 -0.017785728 0.7470001 1.4485958e-38
-0.013480905 -0.017738111 0.74500012 1.8910935e-38
-0.012029512 -0.017690487 0.74300003 2.341769e-38
-0.010599922 -0.017666698 0.7420001 2.341769e-38
-0.0091865975 -0.017666683 0.7420001 2.3417665e-38
-0.0077732964 -0.01766669 0.7420001 1.8983706e-38
-0.0063428455 -0.017619066 0.74000001 1.4533504e-38
-0.0049333121 -0.017619066 0.74000007 1.2688774e-38
-0.0035189916 -0.017595276 0.73900008 1.0862513e-38
-0.0021113832 -0.017595276 0.73900008 1.187454e-38
-0.00070186 -0.017547637 0.73700011 1.2885091e-38
0.00070190389 -0.017547645 0.73700005 1.3067686e-38
0.0021057273 -0.017547637 0.73700011 1.3249199e-38
0.0035095527 -0.017547652 0.73700011 1.2974404e-38
0.0049133762 -0.017547645 0.73700011 1.2699974e-38
0.0063171755 -0.017547637 0.73700011 1.3159508e-38
0.0077209617 -0.017547645 0.73700011 1.361905e-38
0.0091247866 -0.017547637 0.73700011 1.3620131e-38
0.010557182 -0.017595269 0.73900008 1.3529363e-38
0.011964791 -0.017595261 0.73900008 1.2233612e-38
0.013372425 -0.017595276 0.73900008 1.0842206e-38
0.014800028 -0.017619058 0.74000001 1.7040501e-38
0.016209561 -0.017619066 0.74000007 2.3234018e-38
0.017666744 -0.017666683 0.7420001 2.332442e-38
0.019080048 -0.017666683 0.7420001 2.3320443e-38
0.020520953 -0.017690487 0.74300003 2.2567072e-38
0.021936202 -0.01769048 0.74300003 2.1833494e-38
0.023414327 -0.017738096 0.74500012 2.239781e-38
0.024900028 -0.017785743 0.7470001 2.3050205e-38
0.026322894 -0.017785728 0.7470001 2.1185375e-38
0.02778288 -0.017809547 0.74800009 1.9421861e-38
0.029207645 -0.01780954 0.74800009 1.5931407e-38
0.03071429 -0.017857172 0.75000012 1.2444887e-38
0.032142881 -0.017857164 0.75000012 1.0964756e-38
0.033660974 -0.017904781 0.75200009 9.4928708e-39
0.03514 -0.017928578 0.75300002 9.7694465e-39
0.036671456 -0.01797621 0.75500005 1.0046012e-38
0.038160022 -0.018000022 0.75600004 9.9545174e-39
-0.032571424 -0.016647637 0.76000011 1.0969479e-38
-0.031123804 -0.016647637 0.76000011 1.061042e-38
-0.029598061 -0.016603827 0.75800008 1.0234495e-38
-0.028079974 -0.016560011 0.75600004 1.3088956e-38
-0.026639976 -0.016559996 0.75600004 1.595275e-38
-0.025099961 -0.016494296 0.75300002 1.7800975e-38
-0.023634287 -0.016472399 0.75200003 1.9611762e-38
-0.022201907 -0.016472414 0.75200003 1.5520684e-38
-0.020714246 -0.01642859 0.75000012 1.1511964e-38
-0.019234255 -0.016384795 0.74800009 1.7448383e-38
-0.017785676 -0.016362868 0.7470001 2.3320458e-38
-0.016362812 -0.016362868 0.7470001 1.7334991e-38
-0.014939969 -0.016362868 0.7470001 1.136139e-38
-0.013480891 -0.016319074 0.74500012 1.7444784e-38
-0.012029517 -0.016275257 0.74300009 2.3416967e-38
-0.010599959 -0.016253345 0.7420001 2.341769e-38
-0.0091865947 -0.01625336 0.7420001 2.3415877e-38
-0.0077732704 -0.01625336 0.7420001 1.9645578e-38
-0.0063428222 -0.016209543 0.74000007 1.5829956e-38
-0.0049333056 -0.016209535 0.74000001 1.2765519e-38
-0.0035237879 -0.016209528 0.74000001 9.7543756e-39
-0.0021142573 -0.01620955 0.74000001 1.1232409e-38
-0.00070188794 -0.016143829 0.73700011 1.2609234e-38
0.00070193742 -0.016143836 0.73700011 1.3068421e-38
0.0021057609 -0.016143836 0.73700011 1.3433944e-38
0.0035095247 -0.016143829 0.73700005 1.2882905e-38
0.0049267071 -0.016187645 0.73900008 1.223935e-38
0.0063343379 -0.01618766 0.73900008 1.3067674e-38
0.0077419733 -0.016187653 0.73900008 1.3803081e-38
0.0091495449 -0.016187638 0.73900008 1.3711969e-38
0.010557177 -0.016187645 0.73900008 1.3527571e-38
0.011964808 -0.016187645 0.73900008 1.2052452e-38
0.01337244 -0.016187645 0.73900008 1.0489931e-38
0.014800012 -0.016209535 0.74000001 1.6860418e-38
0.016253384 -0.016253352 0.7420001 2.3224691e-38
0.017666711 -0.01625336 0.7420001 2.3325854e-38
0.019105721 -0.016275249 0.74300003 2.3405459e-38
0.02052097 -0.016275257 0.74300003 2.2743922e-38
0.021995308 -0.016319074 0.74500012 2.211151e-38
0.023414342 -0.016319059 0.74500012 2.277484e-38
0.024900049 -0.016362876 0.7470001 2.3417619e-38
0.026358141 -0.016384795 0.74800009 2.3325714e-38
0.027782867 -0.016384788 0.74800009 2.3215207e-38
0.029207654 -0.01638478 0.74800009 1.7879044e-38
0.03071432 -0.016428605 0.75000012 1.2535313e-38
0.032228582 -0.016472407 0.75200009 1.1055129e-38
0.033705737 -0.016494304 0.75300002 9.493933e-39
0.035233367 -0.016538106 0.75500005 1.0137147e-38
0.036671441 -0.016538106 0.75500005 1.0688864e-38
0.038160011 -0.016560018 0.7560001 1.0412624e-38
-0.032614242 -0.015220031 0.7610001 1.0241289e-38
-0.031041849 -0.015160024 0.75800008 1.0057677e-38
-0.029598044 -0.015160009 0.75800008 9.871838e-39
-0.028154237 -0.015160017 0.75800008 1.2170937e-38
-0.026639985 -0.015120015 0.7560001 1.439082e-38
-0.02509998 -0.015060015 0.75300008 1.6598505e-38
-0.023665691 -0.015060015 0.75300002 1.8794553e-38
-0.022201892 -0.015040025 0.75200003 1.535599e-38
-0.020714253 -0.015000023 0.75000012 1.1954982e-38
-0.019234268 -0.014960028 0.74800009 1.76134e-38
-0.017785657 -0.014940009 0.7470001 2.3325836e-38
-0.016362814 -0.014940016 0.7470001 1.576589e-38
-0.014899945 -0.014900021 0.74500012 8.3013944e-39
-0.013444749 -0.014860012 0.74300009 1.5867068e-38
-0.012029501 -0.014860004 0.74300003 2.3417679e-38
-0.010599932 -0.014840037 0.7420001 2.341769e-38
-0.0091866273 -0.014840022 0.7420001 2.3417676e-38
-0.0077523724 -0.014800012 0.74000001 2.0002528e-38
-0.0063428157 -0.014800012 0.74000001 1.6467058e-38
-0.0049333214 -0.01480002 0.74000001 1.351381e-38
-0.0035237675 -0.01480002 0.74000007 1.049371e-38
-0.0021113777 -0.01478003 0.73900008 1.1505763e-38
-0.00070378411 -0.01478003 0.73900008 1.2516332e-38
0.00070385035 -0.01478003 0.73900008 1.2791857e-38
0.0021057329 -0.01474002 0.73700005 1.3158076e-38
0.0035190913 -0.01478003 0.73900008 1.2790329e-38
0.004926722 -0.01478003 0.73900008 1.2511258e-38
0.0063343323 -0.014780045 0.73900008 1.2974404e-38
0.007741964 -0.01478003 0.73900008 1.3436458e-38
0.0091495579 -0.01478003 0.73900008 1.3437183e-38
0.010557191 -0.01478003 0.73900008 1.3438248e-38
0.011980983 -0.01480002 0.74000001 1.1589687e-38
0.013390499 -0.014800005 0.74000001 9.7355169e-39
0.014800033 -0.014800027 0.74000007 1.6490564e-38
0.016253412 -0.014840022 0.7420001 2.3234018e-38
0.017666714 -0.014840029 0.7420001 2.323079e-38
0.019105738 -0.014860012 0.74300003 2.3221068e-38
0.020520965 -0.014860004 0.74300009 2.2195414e-38
0.021936214 -0.014860019 0.74300003 2.1185621e-38
0.023414342 -0.014900006 0.74500012 2.2305978e-38
0.02490003 -0.014940009 0.74700004 2.341769e-38
0.026322911 -0.014940009 0.7470001 2.341769e-38
0.027782878 -0.014960021 0.74800009 2.3325805e-38
0.029207643 -0.014960028 0.74800009 1.7698321e-38
0.030714313 -0.01500003 0.75000006 1.2160462e-38
0.032228597 -0.015040025 0.75200009 1.0779236e-38
0.033705719 -0.015060022 0.75300002 9.4942777e-39
0.035233352 -0.015100002 0.75500005 1.0046388e-38
0.036671441 -0.015100017 0.75500005 1.0505913e-38
0.038160026 -0.015120007 0.7560001 1.0230753e-38
0.039600026 -0.015120022 0.7560001 1.0047463e-38
-0.032614212 -0.013770491 0.7610001 9.4072109e-39
-0.031041877 -0.013716206 0.75800008 9.506647e-39
-0.029519988 -0.013680018 0.7560001 9.5037673e-39
-0.02807997 -0.013680011 0.7560001 1.1148188e-38
-0.026604753 -0.013661914 0.75500005 1.28228e-38
-0.025099976 -0.013625734 0.75300002 1.5407875e-38
-0.023665711 -0.013625734 0.75300002 1.7858963e-38
-0.022201883 -0.013607636 0.75200003 1.5061436e-38
-0.020714246 -0.013571456 0.75000012 1.2342394e-38
-0.019234257 -0.013535261 0.74800009 1.7815725e-38
-0.017809492 -0.013535261 0.74800009 2.32236e-38
-0.016362833 -0.013517149 0.74700004 1.4192497e-38
-0.014899947 -0.013480976 0.74500012 5.1836539e-39
-0.01344473 -0.013444766 0.74300009 1.4303712e-38
-0.012029505 -0.013444781 0.74300009 2.3412298e-38
-0.010599966 -0.013426676 0.7420001 2.341769e-38
-0.0091866022 -0.013426691 0.7420001 2.3417683e-38
-0.007752351 -0.013390496 0.74000007 2.0295269e-38
-0.0063428343 -0.013390496 0.74000001 1.7123926e-38
-0.0049333167 -0.013390481 0.74000001 1.4145581e-38
-0.0035237824 -0.013390496 0.74000007 1.1221605e-38
-0.0021142666 -0.013390489 0.74000001 1.1780921e-38
-0.0007037897 -0.013372414 0.73900008 1.233266e-38
0.0007038429 -0.013372406 0.73900008 1.2607816e-38
0.0021114736 -0.013372421 0.73900008 1.2791815e-38
0.0035190838 -0.013372414 0.73900008 1.2792501e-38
0.0049267146 -0.013372414 0.73900008 1.2791083e-38
0.0063343472 -0.013372414 0.73900008 1.2974414e-38
0.0077419407 -0.013372399 0.73900008 1.3068053e-38
0.0091495505 -0.013372414 0.73900008 1.316205e-38
0.010557183 -0.013372406 0.73900008 1.3252429e-38
0.01198099 -0.013390496 0.74000001 1.113194e-38
0.013390485 -0.013390489 0.74000001 9.0202017e-39
0.014840075 -0.013426691 0.7420001 1.6131473e-38
0.016253376 -0.013426676 0.7420001 2.3226125e-38
0.01766674 -0.013426699 0.7420001 2.3142183e-38
0.019105732 -0.013444766 0.74300009 2.294162e-38
0.020520983 -0.013444774 0.74300003 2.1631498e-38
0.021995284 -0.013480976 0.74500012 2.0267987e-38
0.023414316 -0.013480969 0.74500012 2.1845725e-38
0.024900028 -0.013517164 0.7470001 2.3415179e-38
0.026358137 -0.013535276 0.74800009 2.341769e-38
0.027782863 -0.013535261 0.74800009 2.3412271e-38
0.029207652 -0.013535269 0.74800009 1.7610813e-38
0.030714318 -0.013571464 0.75000012 1.1706324e-38
0.032228585 -0.013607651 0.75200009 1.0591272e-38
0.033660952 -0.013607636 0.75200003 9.4935645e-39
0.035233352 -0.013661928 0.75500005 9.9559846e-39
0.036671426 -0.013661914 0.75500005 1.0323314e-38
0.038160045 -0.013680018 0.7560001 1.0140348e-38
0.039704788 -0.013716213 0.75800008 9.956688e-39
-0.031041902 -0.012272403 0.75800008 1.0423908e-38
-0.029519988 -0.012240008 0.75600004 1.1345848e-38
-0.02807999 -0.012240008 0.75600004 1.1987619e-38
-0.026604731 -0.012223817 0.75500005 1.254837e-38
-0.025099974 -0.012191445 0.75300002 1.4475532e-38
-0.023665668 -0.012191467 0.75300008 1.638635e-38
-0.022201892 -0.012175269 0.75200009 1.4896743e-38
-0.020714253 -0.012142882 0.75000012 1.3352927e-38
-0.01923427 -0.012110502 0.74800009 1.826127e-38
-0.01780948 -0.012110494 0.74800009 2.3142171e-38
-0.016362837 -0.012094297 0.7470001 1.2895685e-38
-0.014899973 -0.012061924 0.74500012 2.6710949e-39
-0.013444737 -0.012029536 0.74300009 1.3006534e-38
-0.012029489 -0.012029544 0.74300009 2.3417679e-38
-0.010599939 -0.012013346 0.7420001 2.341769e-38
-0.0091865975 -0.012013361 0.7420001 2.341769e-38
-0.0077523445 -0.011980966 0.74000001 2.0559669e-38
-0.0063428269 -0.011980973 0.74000001 1.7679632e-38
-0.0049332934 -0.011980973 0.74000007 1.4159615e-38
-0.0035237768 -0.011980966 0.74000001 1.0669901e-38
-0.0021199421 -0.012013353 0.7420001 1.1228123e-38
-0.00070472847 -0.011980966 0.74000007 1.1782363e-38
0.00070383359 -0.011964783 0.73900008 1.2149702e-38
0.0021114643 -0.011964798 0.73900008 1.2608864e-38
0.0035190969 -0.011964798 0.73900008 1.2701402e-38
0.0049267295 -0.011964783 0.73900008 1.2886161e-38
0.0063428893 -0.011980981 0.74000007 1.2975498e-38
0.0077419342 -0.011964783 0.73900008 1.3066629e-38
0.0091495663 -0.011964791 0.73900008 1.3254259e-38
0.010557176 -0.011964783 0.73900008 1.3440769e-38
0.011980974 -0.011980951 0.74000001 1.1681514e-38
0.013390528 -0.011980973 0.74000001 9.9188235e-39
0.014840039 -0.012013353 0.7420001 1.6584192e-38
0.016253402 -0.012013361 0.7420001 2.3325853e-38
0.017666707 -0.012013361 0.7420001 2.323079e-38
0.019105749 -0.012029536 0.74300009 2.3221078e-38
0.020520976 -0.012029529 0.74300009 2.228763e-38
0.021995297 -0.012061916 0.74500012 2.1368584e-38
0.023477182 -0.012094289 0.7470001 2.2397812e-38
0.024900047 -0.012094297 0.7470001 2.341769e-38
0.026358148 -0.012110502 0.74800009 2.3234019e-38
0.027782874 -0.012110502 0.74800009 2.3142157e-38
0.029207641 -0.012110502 0.74800009 1.7236317e-38
0.030714314 -0.012142889 0.75000012 1.1330388e-38
0.032228559 -0.012175255 0.75200003 1.0409763e-38
0.033705726 -0.012191437 0.75300002 9.4935687e-39
0.035233378 -0.012223832 0.75500011 9.8634288e-39
0.036671448 -0.012223817 0.75500005 1.0231834e-38
0.038159996 -0.012240015 0.75600004 1.0047791e-38
0.039704785 -0.012272395 0.75800008 9.8641196e-39
-0.031123778 -0.010857157 0.76000011 1.1348703e-38
-0.029598039 -0.010828584 0.75800008 1.3185064e-38
-0.028154232 -0.010828584 0.75800008 1.2724103e-38
-0.026640004 -0.010800004 0.75600004 1.2268184e-38
-0.025166631 -0.010785729 0.75500005 1.3650413e-38
-0.023665665 -0.010757163 0.75300008 1.4909799e-38
-0.022201879 -0.01074288 0.75200009 1.4602242e-38
-0.020714283 -0.0107143 0.75000006 1.4373529e-38
-0.019234259 -0.010685742 0.74800009 1.873408e-38
-0.017809493 -0.010685742 0.74800009 2.2936969e-38
-0.016362818 -0.010671437 0.7470001 1.1484776e-38
-0.014899934 -0.010642886 0.74500012 1.1081608e-40
-0.013444719 -0.010614306 0.74300009 1.1724789e-38
-0.012029493 -0.010614306 0.74300009 2.3318313e-38
-0.010614245 -0.010614306 0.74300009 2.341769e-38
-0.0091866115 -0.010600023 0.7420001 2.341769e-38
-0.0077523622 -0.01057145 0.74000001 2.0846296e-38
-0.0063599455 -0.010600016 0.7420001 1.8138441e-38
-0.0049465816 -0.010600023 0.7420001 1.4051258e-38
-0.0035237954 -0.010571435 0.74000001 1.0025604e-38
-0.002119916 -0.010600016 0.7420001 1.0679256e-38
-0.00070472289 -0.01057145 0.74000001 1.1231703e-38
0.00070477236 -0.01057145 0.74000001 1.1783073e-38
0.002114329 -0.01057145 0.74000001 1.2334431e-38
0.0035238466 -0.010571435 0.74000001 1.2609566e-38
0.0049333419 -0.010571443 0.74000001 1.2885082e-38
0.0063428949 -0.010571435 0.74000001 1.2975134e-38
0.0077523892 -0.01057145 0.74000001 1.3067331e-38
0.0091619454 -0.01057145 0.74000007 1.3347504e-38
0.010571461 -0.01057145 0.74000001 1.3528976e-38
0.011980956 -0.010571443 0.74000001 1.2143148e-38
0.01342674 -0.010600023 0.7420001 1.0767915e-38
0.014840066 -0.010600023 0.7420001 1.7143455e-38
0.016253406 -0.010600023 0.7420001 2.3410513e-38
0.017666731 -0.010600023 0.7420001 2.341769e-38
0.019105745 -0.010614291 0.74300009 2.3404753e-38
0.020520993 -0.010614298 0.74300009 2.292941e-38
0.021995297 -0.010642864 0.74500012 2.247743e-38
0.023477163 -0.010671452 0.74700004 2.2958513e-38
0.02493337 -0.010685749 0.74800009 2.341768e-38
0.026358137 -0.010685742 0.74800009 2.3142165e-38
0.027782885 -0.010685742 0.74800009 2.2754318e-38
0.029285746 -0.010714307 0.75000012 1.6861005e-38
0.030714344 -0.010714322 0.75000012 1.0963724e-38
0.03222857 -0.010742866 0.75200003 1.0223581e-38
0.033705767 -0.010757156 0.75300002 9.4013745e-39
0.035280015 -0.010800004 0.75600004 9.7715947e-39
0.036720011 -0.010800011 0.75600004 1.0138924e-38
0.038160011 -0.010800019 0.75600004 9.954523e-39
0.039600011 -0.010800004 0.75600004 9.7719128e-39
-0.032699965 -0.009446688 0.76300001 8.8389549e-39
-0.031123783 -0.009409532 0.76000011 1.0788705e-38
-0.029598063 -0.0093847737 0.75800008 1.2729468e-38
-0.028154258 -0.0093847737 0.75800008 1.2080901e-38
-0.026710451 -0.0093847886 0.75800008 1.1526671e-38
-0.025166629 -0.0093476325 0.75500011 1.2903854e-38
-0.023728557 -0.00934764 0.75500005 1.4357701e-38
-0.022231417 -0.0093228817 0.75300002 1.5086908e-38
-0.020769525 -0.0093104988 0.75200003 1.5855104e-38
-0.019285681 -0.009285748 0.75000012 1.8909859e-38
-0.017809482 -0.0092609823 0.74800009 2.1948295e-38
-0.016362822 -0.0092485845 0.7470001 1.0953119e-38
-0.014899958 -0.0092238188 0.74500012 9.2516527e-41
-0.013480903 -0.0092238188 0.74500012 1.1716902e-38
-0.012029515 -0.0091990605 0.74300003 2.3325849e-38
-0.010614289 -0.009199053 0.74300003 2.3325854e-38
-0.0091866069 -0.0091866925 0.7420001 2.341769e-38
-0.0077732825 -0.0091866851 0.7420001 2.0651863e-38
-0.0063599409 -0.0091867 0.7420001 1.7864001e-38
-0.004946616 -0.0091866851 0.7420001 1.4067382e-38
-0.003533252 -0.0091866925 0.7420001 1.0395086e-38
-0.0021199496 -0.0091866851 0.7420001 1.1228827e-38
-0.00070658553 -0.0091867 0.7420001 1.2059652e-38
0.00070477795 -0.0091619119 0.74000001 1.2242964e-38
0.0021143123 -0.0091619268 0.74000001 1.2427341e-38
0.003523828 -0.0091619119 0.74000001 1.2609923e-38
0.0049333829 -0.0091619268 0.74000001 1.2885437e-38
0.0063428781 -0.0091619194 0.74000001 1.3066962e-38
0.0077523938 -0.0091619119 0.74000001 1.3247398e-38
0.0091619501 -0.0091619268 0.74000001 1.3436802e-38
0.010571445 -0.0091619194 0.74000001 1.371476e-38
0.011980999 -0.0091619343 0.74000007 1.223457e-38
0.013390495 -0.0091619194 0.74000001 1.0845373e-38
0.014840068 -0.0091866925 0.7420001 1.7136996e-38
0.016253393 -0.0091866851 0.7420001 2.3417687e-38
0.017666735 -0.0091867074 0.7420001 2.3323343e-38
0.019105723 -0.009199053 0.74300003 2.3223598e-38
0.02052095 -0.0091990456 0.74300003 2.2287646e-38
0.021995274 -0.0092238188 0.74500012 2.1366799e-38
0.023414331 -0.0092238337 0.74500012 2.1842855e-38
0.024933381 -0.0092609748 0.74800009 2.2315646e-38
0.026358146 -0.0092609823 0.74800009 2.0914778e-38
0.027782872 -0.0092609748 0.74800009 1.9422721e-38
0.029285738 -0.0092857331 0.75000012 1.5374338e-38
0.030714314 -0.0092857406 0.75000012 1.1225201e-38
0.032228559 -0.0093104988 0.75200003 1.0406534e-38
0.033705745 -0.0093228742 0.75300008 9.4942861e-39
0.03523336 -0.0093476325 0.75500011 9.7708772e-39
0.036671437 -0.0093476325 0.75500005 1.0046731e-38
0.038160022 -0.0093600079 0.7560001 9.9552419e-39
0.039547645 -0.0093476325 0.75500005 9.8637371e-39
0.040985763 -0.0093476325 0.75500005 9.8640664e-39
-0.032699961 -0.0079933554 0.76300007 8.1064289e-39
-0.03112378 -0.0079619214 0.76000005 1.0238059e-38
-0.029598044 -0.0079409555 0.75800002 1.2263835e-38
-0.028154239 -0.0079409629 0.75800002 1.1526296e-38
-0.026710456 -0.0079409629 0.75800008 1.0700153e-38
-0.025199974 -0.0079200193 0.7560001 1.2264244e-38
-0.023728531 -0.0079095438 0.75500011 1.3810683e-38
-0.022231415 -0.0078885928 0.75300002 1.5532543e-38
-0.020769535 -0.0078781173 0.75200003 1.7232681e-38
-0.019285688 -0.0078571662 0.75000012 1.9101422e-38
-0.017809497 -0.0078362226 0.74800009 2.0816479e-38
-0.016362842 -0.0078257322 0.74700004 1.0469877e-38
-0.014899956 -0.0078047737 0.74500012 1.1259433e-40
-0.013480887 -0.0078047886 0.74500012 1.1723725e-38
-0.012029521 -0.0077838227 0.74300003 2.3226483e-38
-0.010614272 -0.0077838227 0.74300003 2.3325854e-38
-0.0091990475 -0.0077838153 0.74300003 2.341769e-38
-0.007783799 -0.0077838227 0.74300003 2.0478954e-38
-0.0063685724 -0.0077838153 0.74300003 1.7495571e-38
-0.0049466141 -0.0077733472 0.7420001 1.4143053e-38
-0.0035332893 -0.0077733546 0.7420001 1.0760256e-38
-0.0021199253 -0.0077733546 0.7420001 1.1873451e-38
-0.00070662092 -0.0077733621 0.7420001 1.2885085e-38
0.00070674118 -0.0077733546 0.7420001 1.2702141e-38
0.0021200455 -0.0077733472 0.7420001 1.2426266e-38
0.0035334076 -0.0077733546 0.7420001 1.2701404e-38
0.0049467343 -0.0077733397 0.7420001 1.2884718e-38
0.0063600731 -0.0077733621 0.7420001 1.3159869e-38
0.0077524181 -0.0077524036 0.74000007 1.3435012e-38
0.00918674 -0.0077733696 0.7420001 1.362119e-38
0.010571452 -0.0077523887 0.74000001 1.3804094e-38
0.011980985 -0.0077523887 0.74000007 1.2419338e-38
0.013426731 -0.0077733546 0.7420001 1.0951205e-38
0.014840057 -0.0077733472 0.74200004 1.7233485e-38
0.016253399 -0.0077733546 0.7420001 2.3409789e-38
0.017666724 -0.0077733621 0.7420001 2.323366e-38
0.019080063 -0.0077733621 0.7420001 2.2942699e-38
0.020520968 -0.0077838078 0.74300003 2.1630786e-38
0.021995312 -0.0078047812 0.74500012 2.0265109e-38
0.023477178 -0.0078257248 0.7470001 2.0729686e-38
0.024900021 -0.0078257173 0.7470001 2.1192061e-38
0.026358135 -0.0078362301 0.74800009 1.8686643e-38
0.027782883 -0.0078362077 0.74800009 1.6108725e-38
0.029207649 -0.0078362226 0.74800009 1.3804159e-38
0.030714305 -0.0078571588 0.75000006 1.1509673e-38
0.032271449 -0.0078885779 0.75300002 1.0590567e-38
0.033795271 -0.0079095438 0.75500005 9.5850483e-39
0.035233345 -0.0079095289 0.75500005 9.7705199e-39
0.036671463 -0.0079095438 0.75500005 9.9552671e-39
0.038109533 -0.0079095364 0.75500005 9.955986e-39
0.039547648 -0.0079095364 0.75500011 9.8641252e-39
0.040985744 -0.0079095289 0.75500005 9.8655364e-39
0.042423837 -0.0079095438 0.75500011 9.7722799e-39
-0.028154226 -0.0064971596 0.75800008 1.2080174e-38
-0.026710421 -0.0064971671 0.75800008 1.1707117e-38
-0.025199961 -0.0064800084 0.7560001 1.2720561e-38
-0.023728548 -0.0064714402 0.75500005 1.3822572e-38
-0.022231411 -0.0064543039 0.75300002 1.630606e-38
-0.02076952 -0.0064457282 0.75200003 1.8808637e-38
-0.019285681 -0.0064286068 0.75000012 1.8170152e-38
-0.017809486 -0.0064114556 0.74800009 1.7419987e-38
-0.016362844 -0.00640288 0.7470001 8.7457798e-39
-0.014899943 -0.0063857287 0.74500012 1.1258312e-40
-0.013480887 -0.0063857436 0.74500012 1.1723014e-38
-0.012029503 -0.0063685849 0.74300003 2.3234019e-38
-0.010614277 -0.0063685775 0.74300003 2.3325854e-38
-0.0091990288 -0.0063685775 0.74300003 2.341769e-38
-0.0077838018 -0.0063685849 0.74300003 2.0375998e-38
-0.0063685537 -0.0063685924 0.74300003 1.7220054e-38
-0.004953329 -0.0063685775 0.74300009 1.4067338e-38
-0.00353808 -0.0063685849 0.74300003 1.0946059e-38
-0.002119957 -0.0063600168 0.7420001 1.1963475e-38
-0.00070659298 -0.0063600093 0.7420001 1.2976912e-38
0.00070670765 -0.0063600242 0.7420001 1.3160959e-38
0.0021200716 -0.0063600168 0.7420001 1.3343905e-38
0.0035333741 -0.0063600242 0.7420001 1.3160226e-38
0.004946738 -0.0063600242 0.7420001 1.2976195e-38
0.0063600619 -0.0063600168 0.7420001 1.3160222e-38
0.0077734026 -0.0063600168 0.7420001 1.3436444e-38
0.0091867289 -0.0063600242 0.7420001 1.3621907e-38
0.01060007 -0.0063600317 0.7420001 1.3807333e-38
0.012013395 -0.0063600242 0.7420001 1.2415053e-38
0.013426734 -0.0063600242 0.7420001 1.1020805e-38
0.01484006 -0.0063600317 0.7420001 1.7229171e-38
0.016253384 -0.0063600093 0.74200004 2.3417677e-38
0.017690489 -0.0063685924 0.74300003 2.3139672e-38
0.019105738 -0.0063685775 0.74300003 2.2856593e-38
0.020576254 -0.0063857287 0.74500012 2.1919185e-38
0.021995286 -0.0063857362 0.74500012 2.1006586e-38
0.023508592 -0.0064114481 0.74800009 2.1657344e-38
0.024933377 -0.006411463 0.74800009 2.2301226e-38
0.026358144 -0.0064114556 0.74800009 1.9340206e-38
0.02778287 -0.0064114556 0.74800009 1.6469581e-38
0.029285738 -0.0064285994 0.75000012 1.3808098e-38
0.030837161 -0.0064543039 0.75300002 1.1153091e-38
0.032357182 -0.0064714402 0.75500005 1.0596309e-38
0.033839997 -0.0064800084 0.75600004 1.0045662e-38
0.035279997 -0.0064800158 0.75600004 9.954551e-39
0.036719996 -0.0064799935 0.75600004 9.8634456e-39
0.038160034 -0.0064800158 0.7560001 9.6794285e-39
0.039547633 -0.0064714327 0.75500005 9.5872147e-39
-0.028154252 -0.0050533488 0.75800008 1.2638018e-38
-0.026710423 -0.0050533488 0.75800008 1.2630499e-38
-0.025200007 -0.0050400048 0.75600004 1.3180451e-38
-0.023728548 -0.005033344 0.75500011 1.3738638e-38
-0.022290472 -0.0050333589 0.75500005 1.7059784e-38
-0.02076951 -0.0050133467 0.75200003 2.0374504e-38
-0.019337127 -0.0050133541 0.75200003 1.7258587e-38
-0.017857116 -0.005000025 0.75000012 1.400302e-38
-0.016362825 -0.0049800202 0.7470001 7.0718811e-39
