# .PCD v0.7 - Point Cloud Data file format
VERSION 0.7
FIELDS x y z rgb
SIZE 4 4 4 4
TYPE F F F F
COUNT 1 1 1 1
WIDTH 986
HEIGHT 1
VIEWPOINT 0 0 0 1 0 0 0
POINTS 986
DATA ascii
0.026534295 0.019362859 0.75299996 2.1941496e-38
0.028042873 0.019414291 0.75500005 2.0555297e-38
0.029480964 0.019414283 0.75500005 1.7129702e-38
0.031041941 0.019491449 0.75799996 1.3822136e-38
0.032571457 0.019542858 0.75999999 1.3545142e-38
0.034063835 0.01956857 0.76099998 1.334742e-38
0.035466678 0.019542858 0.75999999 1.3352022e-38
0.036962878 0.019568563 0.76099998 1.3437759e-38
0.038412396 0.019568555 0.76099998 1.3169068e-38
0.039861917 0.019568577 0.76100004 1.2884235e-38
0.041311439 0.019568563 0.76099998 1.3261262e-38
-0.021128565 0.021128573 0.76500005 9.2959295e-39
-0.019568561 0.021018088 0.76100004 9.2048031e-39
-0.018047601 0.020935252 0.75799996 9.1104355e-39
-0.016559981 0.020879999 0.75599998 9.5699521e-39
-0.015099989 0.02085238 0.75500005 9.9391101e-39
-0.013661899 0.02085238 0.75500005 1.0490147e-38
-0.012191418 0.020797163 0.75299996 1.1044044e-38
-0.01074285 0.020769529 0.75199997 1.141427e-38
-0.009310443 0.020769536 0.75199997 1.1690139e-38
-0.007878067 0.020769529 0.75199997 1.1966366e-38
-0.0064456905 0.020769529 0.75199997 1.215004e-38
-0.0050133145 0.020769522 0.75199997 1.2517742e-38
-0.0035714128 0.020714298 0.75 1.2796481e-38
-0.0021371192 0.020659037 0.74799997 1.3163829e-38
-0.00071235036 0.020659052 0.74799997 1.3440054e-38
0.00071241299 0.020659052 0.74799997 1.3257102e-38
0.0021371522 0.020659037 0.74799997 1.2971915e-38
0.0035619482 0.020659052 0.74799997 1.4332952e-38
0.0049866871 0.020659052 0.74799997 1.5663948e-38
0.0064114523 0.020659044 0.74800003 1.9560599e-38
0.0078362208 0.020659052 0.74799997 2.3416247e-38
0.009260986 0.020659037 0.74799997 2.3043874e-38
0.010685725 0.020659037 0.74799997 2.2658552e-38
0.012110522 0.020659052 0.74799997 2.1494782e-38
0.013535261 0.020659052 0.74799997 2.0432982e-38
0.014960055 0.020659052 0.74799997 2.1948314e-38
0.016384795 0.020659037 0.74799997 2.3417686e-38
0.017809559 0.020659052 0.74799997 2.341769e-38
0.01928574 0.020714298 0.75 2.341769e-38
0.020714298 0.020714298 0.75 2.341769e-38
0.022142857 0.020714298 0.75 2.341769e-38
0.023634315 0.020769536 0.75199997 2.341769e-38
0.025066692 0.020769536 0.75199997 2.3417666e-38
0.026534308 0.020797148 0.75300002 2.2131947e-38
0.028042877 0.02085238 0.75500005 2.0727093e-38
0.029480968 0.02085238 0.75500005 1.6921245e-38
0.031041931 0.020935245 0.75799996 1.3088869e-38
0.032571465 0.020990476 0.75999999 1.5208222e-38
0.034063835 0.021018088 0.76100004 1.7322574e-38
0.035513356 0.021018095 0.76100004 1.8240195e-38
0.036962878 0.021018088 0.76100004 1.9069225e-38
0.038513351 0.021073341 0.76299995 1.9345092e-38
0.039861921 0.021018088 0.76100004 1.9529838e-38
0.041311439 0.02101808 0.76100004 1.9901483e-38
-0.021128578 0.02258572 0.76499999 9.3906307e-39
-0.019619985 0.022526667 0.76300001 9.206238e-39
-0.018047612 0.022379048 0.75799996 9.1126089e-39
-0.016603803 0.022379071 0.75799996 9.571785e-39
-0.015159996 0.022379063 0.75799996 1.0032397e-38
-0.013680008 0.022320002 0.75599998 1.0492651e-38
-0.012223774 0.022290491 0.755 1.0953996e-38
-0.010757132 0.022231422 0.75300002 1.1321354e-38
-0.0093104802 0.022201903 0.75199997 1.1688701e-38
-0.0078780735 0.022201911 0.75199997 1.187417e-38
-0.006445698 0.022201918 0.75199997 1.2150394e-38
-0.0050133211 0.022201911 0.75199997 1.2518811e-38
-0.0035809448 0.022201911 0.75199997 1.2886875e-38
-0.002137108 0.022083819 0.74799997 1.3163461e-38
-0.00071429496 0.022142872 0.75 1.3438243e-38
0.0007123953 0.022083811 0.74799997 1.316273e-38
0.0021428752 0.022142865 0.75 1.2791463e-38
0.0035714337 0.022142865 0.75 1.4350175e-38
0.0049866955 0.022083797 0.74799997 1.604062e-38
0.0064114644 0.022083804 0.74799997 1.9736737e-38
0.0078362301 0.022083811 0.74799997 2.3417679e-38
0.0092609692 0.022083804 0.74799997 2.3138932e-38
0.010685766 0.022083811 0.74799997 2.2958092e-38
0.012110505 0.022083819 0.74799997 2.1718272e-38
0.01353527 0.022083811 0.74800003 2.0619885e-38
0.014960038 0.022083811 0.74799997 2.2029396e-38
0.016384803 0.022083804 0.74799997 2.341769e-38
0.017809542 0.022083804 0.74800003 2.3048913e-38
0.01928574 0.02214288 0.75 2.2774842e-38
0.020714298 0.022142872 0.75 2.2490008e-38
0.022201927 0.022201911 0.75199997 2.2315664e-38
0.023634305 0.022201911 0.75199997 2.2215219e-38
0.025100021 0.022231437 0.75300002 2.2131951e-38
0.026534293 0.022231422 0.75300002 2.1477222e-38
0.028042883 0.022290476 0.75500005 2.081997e-38
0.029520033 0.02232001 0.75599998 1.8793793e-38
0.031123847 0.022438101 0.75999999 1.6689089e-38
0.032571446 0.022438101 0.75999999 1.8532593e-38
0.034063812 0.022467598 0.76100004 2.0382602e-38
0.03551336 0.022467613 0.76099998 2.0836425e-38
0.036962882 0.022467613 0.76099998 2.130529e-38
0.038513344 0.022526667 0.76300001 2.1389235e-38
0.039966661 0.022526667 0.76300001 2.1488961e-38
0.041419998 0.022526674 0.76300001 2.1666172e-38
-0.021128569 0.024042852 0.76500005 9.3917139e-39
-0.019568579 0.023917131 0.76100004 9.2998714e-39
-0.01804762 0.023822874 0.75799996 9.1140494e-39
-0.016603786 0.023822866 0.75799996 9.6643449e-39
-0.015119994 0.023760013 0.75599998 1.0124599e-38
-0.01367998 0.023760013 0.75599998 1.0493734e-38
-0.012223794 0.023728579 0.755 1.0860727e-38
-0.010757145 0.023665719 0.75300002 1.1228081e-38
-0.0093104616 0.023634292 0.75199997 1.1597941e-38
-0.0078780549 0.023634292 0.75199997 1.187453e-38
-0.0064456793 0.023634292 0.75199997 1.2151472e-38
-0.0050133024 0.023634292 0.75199997 1.2520249e-38
-0.0035809523 0.023634292 0.75199997 1.2888322e-38
-0.0021428543 0.023571439 0.75 1.3164561e-38
-0.00071426423 0.023571439 0.75 1.3439329e-38
0.00071429333 0.023571439 0.75 1.3071608e-38
0.0021428519 0.023571432 0.75 1.2600264e-38
0.0035714346 0.023571447 0.75 1.4418708e-38
0.0049867085 0.023508579 0.74799997 1.6310394e-38
0.0064114477 0.023508571 0.74799997 1.9927941e-38
0.0078362124 0.023508564 0.74799997 2.3416247e-38
0.0092609813 0.023508579 0.74799997 2.3320098e-38
0.010685748 0.023508579 0.74799997 2.3124908e-38
0.012110488 0.023508571 0.74799997 2.198374e-38
0.013535282 0.023508564 0.74799997 2.080607e-38
0.014960021 0.023508579 0.74799997 2.2131993e-38
0.016428571 0.023571447 0.75 2.3408001e-38
0.017857129 0.023571439 0.75 2.2768737e-38
0.019285742 0.023571439 0.75 2.2006396e-38
0.020714302 0.023571447 0.75 2.1634714e-38
0.02220192 0.023634292 0.75199997 2.1173051e-38
0.023634298 0.023634285 0.75199997 2.0994786e-38
0.025100008 0.023665719 0.75300002 2.0739349e-38
0.026604768 0.023728579 0.75500005 2.0824349e-38
0.02804286 0.023728579 0.75500005 2.09219e-38
0.029520005 0.023760006 0.75599998 2.065247e-38
0.03112383 0.023885719 0.75999999 2.0282603e-38
0.032614298 0.023917146 0.76100004 2.1850249e-38
0.034063816 0.023917146 0.76100004 2.3413967e-38
0.03560666 0.023979999 0.76300001 2.3417558e-38
0.03706 0.023980007 0.76300001 2.3416846e-38
0.038614299 0.024042867 0.76499999 2.3417569e-38
0.040071458 0.024042875 0.76499999 2.3416856e-38
0.041528594 0.024042875 0.76499999 2.3417578e-38
-0.02112858 0.0255 0.76500005 9.3006043e-39
-0.019620026 0.025433339 0.76300001 9.0229342e-39
-0.01809521 0.025333345 0.75999999 8.8385485e-39
-0.016603768 0.025266685 0.75799996 9.3895629e-39
-0.015159963 0.02526667 0.75799996 1.0032411e-38
-0.013680008 0.025199994 0.75599998 1.0491948e-38
-0.012223788 0.025166668 0.755 1.0858219e-38
-0.01075713 0.025100015 0.75299996 1.1138034e-38
-0.0093228305 0.025100015 0.75300002 1.1508256e-38
-0.0078780921 0.025066674 0.75199997 1.1875249e-38
-0.0064456859 0.025066689 0.75199997 1.2243667e-38
-0.0050133099 0.025066681 0.75199997 1.2428415e-38
-0.0035809327 0.025066674 0.75199997 1.2705381e-38
-0.0021428496 0.025000021 0.75 1.3072748e-38
-0.00071426423 0.025000028 0.75 1.3440057e-38
0.00071429333 0.025000021 0.75 1.2701033e-38
0.0021428519 0.025000013 0.75 1.2047104e-38
0.0035714346 0.025000006 0.75 1.4440248e-38
0.0050000218 0.025000021 0.75 1.6966883e-38
0.006411456 0.024933338 0.74799997 2.0198067e-38
0.0078361956 0.024933323 0.74799997 2.3417684e-38
0.0092609925 0.024933338 0.74799997 2.332118e-38
0.010685732 0.024933338 0.74799997 2.3318988e-38
0.012110526 0.024933338 0.74799997 2.1907335e-38
0.013535265 0.024933338 0.74799997 2.060052e-38
0.015000014 0.025000021 0.75 2.0895084e-38
0.016428571 0.025000013 0.75 2.1180629e-38
0.017857129 0.025000013 0.75 2.0515532e-38
0.019285742 0.025000021 0.75 1.9928936e-38
0.020769563 0.025066681 0.75199997 2.0952688e-38
0.02220194 0.025066674 0.75199997 2.1951091e-38
0.023665722 0.0251 0.75300002 2.2008179e-38
0.025100024 0.025100008 0.75299996 2.2128357e-38
0.026604773 0.025166668 0.75500005 2.1571607e-38
0.02807999 0.025200009 0.75599998 2.111495e-38
0.029520033 0.025200009 0.75599998 2.065363e-38
0.031123837 0.025333352 0.75999999 2.0194087e-38
0.032614298 0.025366656 0.76100004 2.1666318e-38
0.03406382 0.025366649 0.76100004 2.3229297e-38
0.035606686 0.025433354 0.76299995 2.3138518e-38
0.037060026 0.025433339 0.76299995 2.3047409e-38
0.038513336 0.025433354 0.76299995 2.3139612e-38
0.039966676 0.025433339 0.76299995 2.3138906e-38
-0.021128571 0.026957147 0.76500005 9.1158571e-39
-0.019620001 0.026886672 0.76299995 8.8367577e-39
-0.018095227 0.026780963 0.75999999 8.470852e-39
-0.016647603 0.02678097 0.75999999 9.2058975e-39
-0.015159969 0.026710495 0.75799996 9.9409332e-39
-0.013679979 0.026640005 0.75599998 1.0399746e-38
-0.012239993 0.026640005 0.75599998 1.0861442e-38
-0.010757117 0.026534297 0.75300002 1.1141618e-38
-0.0093228435 0.026534297 0.75300002 1.1324221e-38
-0.0078780754 0.026499055 0.75199997 1.1782691e-38
-0.0064456989 0.026499048 0.75200003 1.2243307e-38
-0.0050133192 0.026499063 0.75199997 1.2428419e-38
-0.0035809421 0.026499055 0.75199997 1.2520984e-38
-0.0021428496 0.02642858 0.75 1.2980892e-38
-0.0007142633 0.026428595 0.75 1.3348573e-38
0.00071429519 0.026428588 0.75 1.2429124e-38
0.0021428529 0.02642858 0.75 1.1496461e-38
0.0035714356 0.026428588 0.75000006 1.4511648e-38
0.0050000227 0.026428588 0.75 1.7508574e-38
0.0064114393 0.02635809 0.74799997 2.0478954e-38
0.0078362357 0.026358098 0.74799997 2.3416252e-38
0.0092609748 0.02635809 0.74799997 2.3411945e-38
0.01068574 0.02635809 0.74800003 2.3404008e-38
0.012110509 0.02635809 0.74799997 2.1910201e-38
0.013535274 0.026358098 0.74799997 2.0320289e-38
0.015000015 0.02642858 0.75 1.9667028e-38
0.016428573 0.026428588 0.75 1.8942016e-38
0.01785716 0.026428595 0.75 1.8367672e-38
0.019285744 0.026428588 0.75 1.781882e-38
0.020769525 0.026499048 0.75199997 2.0296235e-38
0.022201933 0.026499055 0.75199997 2.2728489e-38
0.023665737 0.026534304 0.75299996 2.3142158e-38
0.025100011 0.026534304 0.75299996 2.3415512e-38
0.026604777 0.026604764 0.75500005 2.2310975e-38
0.028080018 0.026639998 0.75599998 2.1206431e-38
0.029598115 0.02671048 0.75799996 2.0652183e-38
0.031123819 0.026780963 0.75999999 2.0009686e-38
0.032614306 0.026816197 0.76100004 2.1482633e-38
0.034063827 0.026816189 0.76100004 2.2953066e-38
0.035606679 0.026886679 0.76299995 2.2859424e-38
0.037060019 0.026886679 0.76300001 2.2678988e-38
0.038513333 0.026886679 0.76299995 2.2771191e-38
0.039966673 0.026886679 0.76299995 2.2863388e-38
-0.021128584 0.028414294 0.76500005 9.3002469e-39
-0.019620005 0.028340004 0.76299995 9.2980918e-39
-0.018119019 0.028265715 0.76100004 9.3892126e-39
-0.016647596 0.028228581 0.76000005 9.6647205e-39
-0.01515998 0.028154291 0.75799996 1.0033486e-38
-0.013716174 0.028154291 0.75799996 1.0401174e-38
-0.012239994 0.028079994 0.75600004 1.0862513e-38
-0.010757129 0.027968578 0.75300002 1.1138744e-38
-0.0093228566 0.027968563 0.75300002 1.1414976e-38
-0.0078780819 0.027931437 0.75199997 1.2058549e-38
-0.0064457064 0.027931437 0.75199997 1.2701766e-38
-0.0050132996 0.027931437 0.75199997 1.2611016e-38
-0.0035809234 0.027931452 0.75199997 1.2612451e-38
-0.0021428496 0.027857147 0.75 1.2982304e-38
-0.00071426237 0.027857177 0.75 1.3257808e-38
0.00071429519 0.027857162 0.75 1.2058563e-38
0.0021428529 0.027857162 0.75 1.08547e-38
0.0035714402 0.027857162 0.75 1.4534619e-38
0.0050000246 0.027857155 0.75 1.8260484e-38
0.0064114775 0.02778285 0.74799997 2.0842709e-38
0.0078362189 0.027782857 0.74799997 2.341769e-38
0.0092609841 0.027782857 0.74800003 2.3229714e-38
0.010685752 0.027782857 0.74799997 2.3138187e-38
0.012110518 0.027782857 0.74799997 2.1079371e-38
0.013571458 0.02785717 0.75 1.9102691e-38
0.015000015 0.027857155 0.75 1.8567397e-38
0.016428573 0.027857162 0.75 1.7930627e-38
0.01785716 0.027857162 0.75 1.7002567e-38
0.019337168 0.027931429 0.75199997 1.6172188e-38
0.020769544 0.027931444 0.75199997 1.9224728e-38
0.022231452 0.027968578 0.75299996 2.2309875e-38
0.023665724 0.027968585 0.75299996 2.2865242e-38
0.02516669 0.02804286 0.75500005 2.3417689e-38
0.026604783 0.028042853 0.75500005 2.2588296e-38
0.02807999 0.028080001 0.75599998 2.1849643e-38
0.029676203 0.028228574 0.75999999 2.1019512e-38
0.031164786 0.028265707 0.76100004 2.0281591e-38
0.032614306 0.0282657 0.76100004 2.1758843e-38
0.034063827 0.028265707 0.76100004 2.3230718e-38
0.035606671 0.028340012 0.76300001 2.3138876e-38
0.037060011 0.028340004 0.76300001 2.3047764e-38
0.038513321 0.028340004 0.76300001 2.3139964e-38
0.039966665 0.028340012 0.76300001 2.3139601e-38
-0.021128573 0.029871434 0.76500005 9.3917153e-39
-0.019620012 0.02979333 0.76300001 9.8491005e-39
-0.018119043 0.029715225 0.76100004 1.0306843e-38
-0.016669519 0.029715233 0.76100004 1.021429e-38
-0.015159991 0.029598117 0.75800002 1.0032051e-38
-0.013716156 0.029598102 0.75799996 1.0400827e-38
-0.01223999 0.029520005 0.75599998 1.0769252e-38
-0.010785711 0.029480949 0.75500005 1.1135526e-38
-0.0093228398 0.029402874 0.75299996 1.1505744e-38
-0.0078780632 0.029363818 0.75199997 1.2334062e-38
-0.0064457138 0.029363811 0.75199997 1.3069108e-38
-0.0050133369 0.029363811 0.75199997 1.2884724e-38
-0.0035809309 0.029363826 0.75199997 1.2703918e-38
-0.0021428496 0.029285729 0.75 1.298552e-38
-0.00071426143 0.029285736 0.75 1.3164888e-38
0.00071429613 0.029285721 0.75 1.1692294e-38
0.0021428538 0.029285729 0.75 1.0206831e-38
0.0035714412 0.029285729 0.75 1.4603144e-38
0.0050000264 0.029285729 0.75 1.8981898e-38
0.0064114626 0.029207624 0.74799997 2.1213638e-38
0.0078571411 0.029285714 0.75 2.3415518e-38
0.0092857284 0.029285729 0.75 2.3133895e-38
0.010714288 0.029285721 0.75 2.275431e-38
0.012142845 0.029285729 0.75 2.0349323e-38
0.013571458 0.029285729 0.75 1.7928922e-38
0.015000015 0.029285729 0.75 1.7477242e-38
0.016472403 0.029363818 0.75199997 1.6919761e-38
0.017904785 0.029363818 0.75199997 1.5723019e-38
0.019337159 0.029363818 0.75199997 1.4432735e-38
0.020769536 0.029363804 0.75199997 1.8120942e-38
0.022231439 0.029402874 0.75299996 2.1839594e-38
0.023665737 0.029402867 0.75300002 2.2683006e-38
0.025166668 0.029480949 0.75500005 2.3417689e-38
0.026640031 0.029519998 0.75599998 2.2958511e-38
0.028154319 0.029598109 0.75799996 2.2403181e-38
0.02967621 0.029676192 0.75999999 2.1478357e-38
0.031123836 0.029676199 0.76000005 2.0564652e-38
0.032614313 0.029715233 0.76099998 2.2039747e-38
0.034063835 0.02971524 0.76100004 2.3416556e-38
0.035606664 0.02979333 0.76300001 2.3416909e-38
0.037059981 0.02979333 0.76300001 2.3415484e-38
0.038513321 0.029793337 0.76300001 2.3417647e-38
0.040071454 0.029871419 0.76500005 2.3415128e-38
-0.022526672 0.031246677 0.76300001 9.3013049e-39
-0.021073356 0.031246677 0.76300001 9.3906321e-39
-0.019619988 0.031246684 0.76299995 9.756542e-39
-0.018119037 0.031164765 0.76099998 1.0029536e-38
-0.016669516 0.031164758 0.76099998 9.8469397e-39
-0.01519998 0.031123817 0.76000005 9.571799e-39
-0.013752352 0.031123824 0.75999999 1.0124971e-38
-0.012272357 0.03104192 0.75799996 1.0677428e-38
-0.010785707 0.030919045 0.75500005 1.1044777e-38
-0.0093104765 0.030796193 0.75199997 1.1322081e-38
-0.0078885555 0.030837156 0.75300002 1.2057844e-38
-0.0064542829 0.030837148 0.75300002 1.2702125e-38
-0.0050133183 0.0307962 0.75199997 1.2701763e-38
-0.0035809113 0.0307962 0.75199997 1.2608844e-38
-0.0021428468 0.030714296 0.75 1.2795737e-38
-0.00071425957 0.030714296 0.75 1.3070174e-38
0.00071429613 0.030714311 0.75 1.1960263e-38
0.0021428538 0.030714303 0.75 1.0839995e-38
0.003571443 0.030714303 0.75 1.5271827e-38
0.0050000004 0.030714303 0.75 1.9738109e-38
0.006428584 0.030714288 0.75 2.148771e-38
0.0078571709 0.030714311 0.75 2.3141787e-38
0.0092857284 0.030714311 0.75 1.7332076e-38
0.010714289 0.030714296 0.75 1.153815e-38
0.012142846 0.030714303 0.75 1.1691647e-38
0.013571459 0.030714303 0.75 1.1847334e-38
0.015000016 0.030714303 0.75 1.1954949e-38
0.016472396 0.030796193 0.75199997 1.2139335e-38
0.017904771 0.030796193 0.75199997 9.656904e-39
0.019337179 0.030796207 0.75199997 7.255618e-39
0.020769555 0.030796207 0.75199997 1.2983567e-38
0.02223145 0.030837148 0.75300002 1.8733706e-38
0.023665724 0.030837148 0.75300002 2.0938132e-38
0.025166675 0.03091906 0.75500005 2.3142183e-38
0.026640004 0.030960001 0.75599998 2.3050348e-38
0.02815431 0.031041935 0.75799996 2.2958513e-38
0.029676218 0.031123817 0.76000005 2.2313153e-38
0.031123817 0.031123817 0.76000005 2.1672797e-38
0.032614287 0.031164758 0.76100004 2.1394044e-38
0.034063809 0.031164758 0.76100004 2.1213596e-38
0.03560669 0.03124667 0.76299995 2.102382e-38
0.037060004 0.031246677 0.76299995 2.084088e-38
0.038513344 0.03124667 0.76299995 2.0746906e-38
0.040071439 0.031328566 0.76500005 2.0656499e-38
-0.02252665 0.03270001 0.76299995 9.3016693e-39
-0.021073338 0.03270001 0.76299995 9.391351e-39
-0.019619996 0.03270001 0.76299995 9.5728696e-39
-0.018119033 0.032614283 0.76100004 9.7547231e-39
-0.016669514 0.032614283 0.76100004 9.4795515e-39
-0.015199969 0.032571435 0.75999999 9.1125921e-39
-0.013752344 0.032571442 0.75999999 9.8490935e-39
-0.012272368 0.032485723 0.75799996 1.0584871e-38
-0.010785703 0.032357149 0.75500005 1.0859676e-38
-0.0093228407 0.032271437 0.75300002 1.1137334e-38
-0.0078885686 0.03227143 0.75300002 1.1781258e-38
-0.0064542661 0.032271437 0.75299996 1.2334781e-38
-0.0050133257 0.032228589 0.75199997 1.2427333e-38
-0.0035856946 0.03227143 0.75300002 1.251881e-38
-0.0021428729 0.032142885 0.75 1.2702479e-38
-0.00071425957 0.032142878 0.75 1.2885074e-38
0.00071429706 0.03214287 0.75 1.2238997e-38
0.0021428566 0.03214287 0.75 1.1495771e-38
0.003571444 0.03214287 0.75 1.5998288e-38
0.0050000013 0.032142885 0.75 2.0458457e-38
0.0064285849 0.032142878 0.75 2.1672816e-38
0.0078571727 0.032142885 0.75 2.285191e-38
0.0092857312 0.03214287 0.75 1.1514114e-38
0.010714289 0.03214287 0.75 2.0756173e-40
0.012142846 0.032142878 0.75 3.0318381e-39
0.013571434 0.032142878 0.75 5.7965958e-39
0.015000017 0.032142878 0.75 6.5388216e-39
0.016472388 0.032228597 0.75199997 7.2724223e-39
0.017904764 0.032228589 0.75199997 3.6929848e-39
0.019337172 0.032228597 0.75199997 1.0213784e-40
0.020769548 0.032228589 0.75199997 7.8239188e-39
0.022231437 0.032271437 0.75300002 1.5590131e-38
0.023728587 0.032357149 0.75500005 1.9285088e-38
0.025166679 0.032357149 0.75500005 2.2863803e-38
0.026640031 0.032400012 0.75599998 2.3142181e-38
0.028154299 0.032485723 0.75799996 2.3417689e-38
0.029676199 0.032571442 0.76000005 2.3050348e-38
0.031123854 0.032571442 0.75999999 2.2679403e-38
0.032614321 0.032614291 0.76100004 2.083407e-38
0.034063842 0.032614276 0.76100004 1.8997716e-38
0.03551336 0.032614283 0.76100004 1.8624273e-38
0.037059996 0.032700002 0.76299995 1.8167966e-38
0.038513336 0.03270001 0.76300001 1.7980351e-38
0.040071446 0.032785714 0.76500005 1.7799905e-38
-0.021128559 0.034242868 0.76499999 9.0240118e-39
-0.019620003 0.034153335 0.76300001 9.2970015e-39
-0.018166661 0.034153342 0.76300001 9.6617876e-39
-0.016669508 0.034063816 0.76099998 9.6617413e-39
-0.015199959 0.03401906 0.75999999 9.661782e-39
-0.013752361 0.03401906 0.75999999 1.0399376e-38
-0.012272349 0.033929542 0.75799996 1.1044403e-38
-0.010785697 0.033795238 0.75500005 1.132101e-38
-0.0093228538 0.033705711 0.75300002 1.1596871e-38
-0.0078885509 0.033705734 0.75299996 1.2057838e-38
-0.0064542792 0.033705734 0.75299996 1.2519527e-38
-0.0050133062 0.033660963 0.75199997 1.2611362e-38
-0.0035857076 0.033705711 0.75300002 1.2703562e-38
-0.0021428729 0.033571444 0.75 1.2886163e-38
-0.00071425957 0.033571444 0.75 1.3069109e-38
0.00071429706 0.033571444 0.75 1.2239712e-38
0.0021428566 0.03357143 0.75 1.1405741e-38
0.0035714449 0.033571437 0.75 1.6199564e-38
0.0050000022 0.033571444 0.75 2.1026703e-38
0.0064285598 0.033571437 0.75 2.1855052e-38
0.0078571737 0.033571444 0.75 2.2772251e-38
0.0092857322 0.033571437 0.75 1.1418649e-38
0.01071429 0.03357143 0.75 1.842189e-40
0.012142847 0.033571444 0.75 3.4960295e-39
0.013571434 0.033571437 0.75 6.9104627e-39
0.015040031 0.033660963 0.75199997 7.4593415e-39
0.016472407 0.033660948 0.75199997 8.0964419e-39
0.017904785 0.033660963 0.75199997 5.987803e-39
0.01936288 0.033705726 0.75300002 3.859864e-39
0.020797152 0.033705726 0.75300002 1.0875295e-38
0.0222905 0.033795245 0.75500005 1.7894625e-38
0.023728592 0.033795238 0.75500005 2.0196622e-38
0.025166683 0.033795238 0.75500005 2.248749e-38
0.026640004 0.033840001 0.75599998 2.2955278e-38
0.028154291 0.033929534 0.75799996 2.3325852e-38
0.02967621 0.034019046 0.76000005 2.2958154e-38
0.031123864 0.03401906 0.75999999 2.2681201e-38
0.032614294 0.034063801 0.76100004 2.0375615e-38
0.034063816 0.034063809 0.76100004 1.8073272e-38
0.035513338 0.034063801 0.76100004 1.7797408e-38
0.037059993 0.03415335 0.76300001 1.7613726e-38
0.038513329 0.034153342 0.76300001 1.7429326e-38
0.040071435 0.034242861 0.76500005 1.7249246e-38
0.041691471 0.034377158 0.76800001 1.7060195e-38
-0.021128548 0.035700016 0.76499999 8.5648511e-39
-0.019671416 0.035700016 0.76499999 9.0215119e-39
-0.018166693 0.035606667 0.76300001 9.4788635e-39
-0.016713355 0.035606675 0.76300001 9.8440208e-39
-0.015219986 0.035513319 0.76100004 1.0213539e-38
-0.013752353 0.035466678 0.75999999 1.0858205e-38
-0.012272358 0.035373352 0.75799996 1.1504309e-38
-0.010785719 0.035233334 0.75500005 1.1782354e-38
-0.009322837 0.035140008 0.75299996 1.1964941e-38
-0.0078885639 0.035140015 0.75299996 1.2333711e-38
-0.0064542661 0.035140015 0.75300002 1.2610295e-38
-0.0050133136 0.035093345 0.75199997 1.2795402e-38
-0.0035857207 0.035140008 0.75300002 1.2886523e-38
-0.0021428431 0.035000019 0.75 1.3069122e-38
-0.00071428472 0.035000019 0.75 1.3162382e-38
0.00071429985 0.035000019 0.75 1.2245094e-38
0.0021428575 0.035000019 0.75 1.1313556e-38
0.0035714449 0.035000011 0.75 1.6458944e-38
0.0050000022 0.035000011 0.75 2.1562299e-38
0.0064285598 0.035000019 0.75 2.2131993e-38
0.0078571755 0.035000019 0.75 2.2565629e-38
0.0092857331 0.035000019 0.75 1.1296336e-38
0.010714291 0.035000011 0.75 9.2404423e-41
0.012142878 0.035000011 0.75 4.0413308e-39
0.013571436 0.035000026 0.75 8.0164586e-39
0.01504002 0.03509333 0.75200003 8.4756515e-39
0.01653811 0.035233341 0.75500005 8.8530366e-39
0.017976202 0.035233341 0.75500005 8.3023823e-39
0.019414322 0.035233349 0.755 7.6610164e-39
0.020852413 0.035233341 0.755 1.3922381e-38
0.022290504 0.035233334 0.75500005 2.0098685e-38
0.023728596 0.035233326 0.75500005 2.111857e-38
0.025200015 0.035280004 0.75599998 2.2128043e-38
0.026640004 0.035280004 0.75599998 2.2681568e-38
0.02815431 0.03537336 0.75799996 2.3233657e-38
0.029676221 0.035466678 0.75999999 2.295851e-38
0.031123845 0.035466678 0.75999999 2.2582896e-38
0.032614302 0.035513327 0.76099998 1.982207e-38
0.03406385 0.035513327 0.76100004 1.7061996e-38
0.035513345 0.035513319 0.76099998 1.7061651e-38
0.037060011 0.035606682 0.76299995 1.705948e-38
0.038513351 0.035606682 0.76299995 1.6873637e-38
0.040071446 0.035699993 0.76500005 1.6691761e-38
-0.024262825 0.037497155 0.77199996 9.5790016e-39
-0.022674261 0.037302867 0.76799995 9.1176802e-39
-0.021183798 0.037254289 0.76700002 8.6581384e-39
-0.019671407 0.037157156 0.76500005 8.9300505e-39
-0.018214272 0.037157156 0.76499999 9.2044626e-39
-0.016713331 0.03706 0.76299995 9.4774397e-39
-0.01521998 0.036962859 0.76099998 9.7551056e-39
-0.013752345 0.036914304 0.75999999 1.0306842e-38
-0.012272367 0.036817148 0.75799996 1.0863266e-38
-0.010800003 0.036720008 0.75599998 1.1044456e-38
-0.0093599865 0.036720015 0.75599992 1.1228116e-38
-0.0079095028 0.036671437 0.755 1.1595445e-38
-0.0064714127 0.036671437 0.75500005 1.2057854e-38
-0.005020008 0.036574289 0.75300002 1.2333004e-38
-0.003585703 0.036574297 0.75299996 1.2702502e-38
-0.0021485698 0.036525734 0.75199997 1.3070562e-38
-0.00071619207 0.036525726 0.75199997 1.3347851e-38
0.00071621465 0.036525734 0.75199997 1.2236844e-38
0.0021428585 0.036428578 0.75 1.1205946e-38
0.0035714458 0.036428601 0.75 1.6659851e-38
0.0050000031 0.036428586 0.75 2.2131975e-38
0.0064285607 0.036428586 0.75 2.2221676e-38
0.0078571765 0.036428593 0.75 2.2398825e-38
0.009285734 0.036428578 0.75 1.1224964e-38
0.010714292 0.036428593 0.75 9.2426844e-41
0.012142878 0.036428601 0.75 6.3645084e-39
0.013607636 0.036525719 0.75199997 1.2638033e-38
0.015060009 0.036574304 0.75299996 1.2822074e-38
0.016494308 0.036574289 0.75300002 1.301759e-38
0.017976206 0.036671437 0.75500005 1.1721139e-38
0.019362882 0.036574297 0.75299996 1.0437272e-38
0.020852417 0.036671445 0.75500005 1.6052547e-38
0.022290509 0.03667143 0.75500005 2.1764647e-38
0.023728576 0.036671437 0.75500005 2.2314947e-38
0.025200017 0.036720015 0.75599998 2.2774842e-38
0.026640005 0.036720015 0.75599998 2.1578469e-38
0.028154327 0.036817156 0.75799996 2.0387116e-38
0.029598106 0.036817156 0.75799996 2.0009368e-38
0.031164784 0.036962859 0.76100004 1.9726297e-38
0.032614302 0.036962852 0.76100004 1.8438776e-38
0.034063824 0.036962852 0.76100004 1.7148083e-38
0.035606671 0.037060007 0.76299995 1.7151337e-38
0.037060007 0.037060015 0.76299995 1.714844e-38
0.038765755 0.037302874 0.76799995 1.7058372e-38
0.040228624 0.037302867 0.76799995 1.705658e-38
0.041691471 0.037302874 0.76799995 1.6782508e-38
0.043154348 0.037302859 0.76799995 1.6505214e-38
-0.025733303 0.038967624 0.77199996 7.0990705e-39
-0.024262851 0.038967613 0.77200001 8.6595607e-39
-0.022733329 0.038866676 0.76999998 8.6570538e-39
-0.021183796 0.038715228 0.76699996 8.655609e-39
-0.019671418 0.038614303 0.76499999 8.8356829e-39
-0.018214287 0.038614303 0.76499999 8.9242604e-39
-0.016713336 0.038513344 0.76300001 9.1057495e-39
-0.015220003 0.038412381 0.76100004 9.1972403e-39
-0.013752364 0.038361922 0.75999999 9.7511357e-39
-0.012304739 0.038361907 0.75999999 1.021608e-38
-0.01082857 0.038260967 0.75799996 1.0304354e-38
-0.0093599884 0.038159996 0.75599998 1.0396539e-38
-0.0079200007 0.03816 0.75599998 1.0946108e-38
-0.0064714071 0.038109533 0.75500005 1.1412826e-38
-0.0050333156 0.038109522 0.75500005 1.19599e-38
-0.0035952248 0.03810953 0.75500005 1.251487e-38
-0.0021514196 0.038008586 0.75300002 1.3070201e-38
-0.00071714667 0.038008574 0.75300002 1.3529006e-38
0.00071623235 0.037958108 0.75199997 1.2331544e-38
0.0021486084 0.0379581 0.75199997 1.103948e-38
0.0035809611 0.037958115 0.75199997 1.6841706e-38
0.005013336 0.037958089 0.75199997 2.2668986e-38
0.0064457417 0.037958115 0.75199997 2.24075e-38
0.0078781182 0.037958104 0.75199997 2.2103942e-38
0.0093104942 0.037958097 0.75199997 1.1112668e-38
0.010742873 0.037958093 0.75199997 1.0571396e-40
0.012175279 0.037958104 0.75199997 8.6866268e-39
0.013607655 0.037958115 0.75199997 1.7145551e-38
0.015040005 0.037958108 0.75199997 1.7157403e-38
0.016538119 0.038109522 0.75500005 1.7057675e-38
0.017976183 0.038109522 0.75500005 1.5126978e-38
0.019414304 0.038109545 0.755 1.3104824e-38
0.020852394 0.038109541 0.755 1.8269516e-38
0.022320015 0.038160011 0.75599998 2.3416252e-38
0.023760002 0.038160004 0.75599998 2.341769e-38
0.025200017 0.03816 0.75599998 2.3414097e-38
0.02671051 0.038260959 0.75799996 2.0470691e-38
0.028154317 0.038260959 0.75799996 1.7431137e-38
0.029715236 0.038412385 0.76100004 1.7148801e-38
0.031164788 0.038412377 0.76099998 1.6876525e-38
0.032614309 0.038412388 0.76099998 1.7059123e-38
0.034063831 0.038412381 0.76099998 1.7244233e-38
0.035606664 0.038513344 0.76299995 1.724639e-38
0.037060004 0.038513333 0.76300001 1.7244945e-38
0.038765747 0.038765721 0.76800001 1.7338206e-38
0.040228624 0.038765728 0.76800001 1.7337128e-38
0.041691471 0.038765714 0.76799995 1.715453e-38
-0.025733298 0.040438104 0.77199996 9.3985396e-39
-0.024262844 0.040438097 0.77200001 1.1139827e-38
-0.02273334 0.040333338 0.77000004 1.1140902e-38
-0.021211389 0.040228583 0.76799995 1.113479e-38
-0.01972284 0.04017619 0.76699996 1.113406e-38
-0.018214274 0.040071443 0.76500005 1.1122899e-38
-0.016713344 0.039966676 0.76300001 1.1496299e-38
-0.015219972 0.039861899 0.76099998 1.1758195e-38
-0.01377045 0.039861895 0.76100004 1.2238198e-38
-0.012304732 0.039809525 0.75999999 1.2792462e-38
-0.010828552 0.039704781 0.75799996 1.2976156e-38
-0.0093600154 0.039600007 0.75599998 1.3148341e-38
-0.0079199728 0.039600011 0.75599998 1.3991714e-38
-0.0064799855 0.0396 0.75599998 1.4911517e-38
-0.0050333361 0.039547633 0.75500005 1.4634587e-38
-0.0035952444 0.039547626 0.75500005 1.4346904e-38
-0.0021514317 0.039442852 0.75300002 1.3803087e-38
-0.00071713084 0.039442878 0.75299996 1.3254212e-38
0.00071619509 0.039390475 0.75199997 1.2053521e-38
0.0021514406 0.039442871 0.75300002 1.0849338e-38
0.0035809788 0.039390475 0.75199997 1.675774e-38
0.0050133546 0.039390489 0.75199997 2.2682965e-38
0.0064457306 0.039390482 0.75199997 2.1853258e-38
0.0078781368 0.039390489 0.75199997 2.1108452e-38
0.0093104886 0.039390486 0.75199997 1.0581014e-38
0.010742865 0.039390478 0.75199997 9.2456271e-41
0.012175241 0.039390493 0.75199997 7.8475937e-39
0.013607646 0.039390493 0.75199997 1.5589415e-38
0.015040024 0.039390493 0.75199997 1.5496161e-38
0.016538097 0.039547611 0.75500005 1.5305667e-38
0.017976187 0.039547633 0.75500005 1.3370657e-38
0.019414309 0.039547633 0.755 1.1524267e-38
0.020852402 0.03954763 0.75500005 1.7435466e-38
0.022320013 0.039599996 0.75599998 2.3417689e-38
0.02376 0.039600007 0.75599998 2.2406065e-38
0.025200019 0.039600018 0.75599998 2.1483392e-38
0.026710501 0.039704766 0.75799996 1.8527425e-38
0.028154306 0.039704781 0.75800002 1.5666508e-38
0.02971527 0.03986191 0.76100004 1.6503046e-38
0.031164791 0.039861906 0.76100004 1.7337494e-38
0.032700002 0.039966665 0.76300001 1.7337889e-38
0.034153316 0.039966669 0.76300001 1.7340025e-38
0.035606656 0.039966669 0.76300001 1.7153826e-38
0.037059996 0.039966661 0.76300001 1.7062715e-38
0.038765747 0.040228579 0.76800001 1.7062722e-38
0.040228594 0.040228579 0.76800001 1.7156347e-38
-0.02573332 0.041908566 0.77200001 1.1796349e-38
-0.024294231 0.041962884 0.773 1.3537636e-38
-0.022792351 0.041908573 0.77199996 1.3539789e-38
-0.021211391 0.041691437 0.76799995 1.3535124e-38
-0.019671421 0.041528583 0.76500005 1.3442928e-38
-0.018214289 0.041528575 0.76500005 1.3350353e-38
-0.016713319 0.041420013 0.76299995 1.3906365e-38
-0.015219996 0.041311428 0.76100004 1.4363051e-38
-0.013752374 0.041257158 0.75999999 1.4834088e-38
-0.01230475 0.041257158 0.75999999 1.5290407e-38
-0.01082856 0.041148592 0.75799996 1.5567718e-38
-0.009384755 0.041148596 0.75799996 1.5842157e-38
-0.0079199998 0.041040014 0.75599998 1.7144364e-38
-0.0064799874 0.041040007 0.75599998 1.8420744e-38
-0.0050399997 0.041040003 0.75599998 1.7320521e-38
-0.0035952127 0.040985722 0.755 1.6114791e-38
-0.002151415 0.040877156 0.75299996 1.4541e-38
-0.00071714388 0.040877149 0.75299996 1.2976546e-38
0.00071715529 0.040877149 0.75300002 1.1779075e-38
0.0021514276 0.040877137 0.75300002 1.0579216e-38
0.0035857304 0.040877167 0.75299996 1.6656243e-38
0.0050200024 0.040877156 0.75299996 2.2668627e-38
0.0064543006 0.040877152 0.75300002 2.1397309e-38
0.0078885751 0.040877149 0.75300002 1.998812e-38
0.009322877 0.040877152 0.75299996 1.0010607e-38
0.01075715 0.040877163 0.75299996 1.0786075e-40
0.012191448 0.040877137 0.75300002 7.1128915e-39
0.013625722 0.040877156 0.75300002 1.4019233e-38
0.015060024 0.040877163 0.75299996 1.3840611e-38
0.016538102 0.040985722 0.75500005 1.355792e-38
0.017976223 0.04098573 0.755 1.1709003e-38
0.019414313 0.040985722 0.755 9.8862924e-39
0.020852406 0.040985726 0.75500005 1.6713697e-38
0.022320015 0.041040007 0.75599998 2.341769e-38
0.023760004 0.041040003 0.75599998 2.1489145e-38
0.025200017 0.041039996 0.75599998 1.9450442e-38
0.026781004 0.04125715 0.75999999 1.667275e-38
0.028228601 0.04125715 0.75999999 1.3924134e-38
0.029715246 0.041311421 0.76100004 1.5859128e-38
0.031246657 0.04141999 0.76300001 1.7703037e-38
0.032700025 0.04142002 0.76299995 1.7522977e-38
0.034153339 0.041420005 0.76299995 1.7336789e-38
0.035606679 0.041420013 0.76299995 1.7149524e-38
0.037060019 0.041420005 0.76299995 1.6876165e-38
-0.02435714 0.043547634 0.77499998 1.3909685e-38
-0.022821851 0.043435253 0.773 1.372422e-38
-0.021266669 0.043266665 0.77000004 1.3634547e-38
-0.019722864 0.043098081 0.76700002 1.4277045e-38
-0.018214278 0.04298573 0.76500005 1.5021411e-38
-0.016713325 0.042873338 0.76299995 1.5108579e-38
-0.01521999 0.042760953 0.76099998 1.5208686e-38
-0.013752366 0.042704776 0.75999999 1.5843305e-38
-0.012304742 0.042704768 0.75999999 1.6497991e-38
-0.01082857 0.042592399 0.75799996 1.7323435e-38
-0.0093847634 0.042592391 0.75799996 1.8243248e-38
-0.0079200016 0.042479996 0.75600004 1.8602721e-38
-0.0064799855 0.042480018 0.75599998 1.8979757e-38
-0.0050399979 0.042479999 0.75599998 1.8891516e-38
-0.003599982 0.042480014 0.75599998 1.8801031e-38
-0.0021514299 0.042311449 0.75299996 1.546904e-38
-0.0007171327 0.042311445 0.75300002 1.2239702e-38
0.00071714132 0.04231143 0.75300002 1.1130113e-38
0.0021514443 0.042311445 0.75299996 1.0012065e-38
0.0035857165 0.042311434 0.75299996 1.6390805e-38
0.0050200145 0.042311437 0.75300002 2.2682989e-38
0.0064542885 0.042311426 0.75300002 2.1116422e-38
0.0078885918 0.042311452 0.75299996 1.9538258e-38
0.009322864 0.042311441 0.75299996 9.8491552e-39
0.010757161 0.042311437 0.75300002 1.1322211e-40
0.012191436 0.042311434 0.75300002 6.840594e-39
0.013625738 0.042311441 0.75299996 1.3565069e-38
0.015100015 0.042423818 0.75500005 1.4757531e-38
0.016538106 0.042423811 0.75500005 1.5947792e-38
0.018000025 0.042480007 0.75599998 1.4108916e-38
0.019414319 0.042423815 0.75500005 1.2270785e-38
0.020852409 0.042423815 0.75500005 1.7807115e-38
0.022320013 0.042480007 0.75599998 2.341769e-38
0.023760002 0.042480011 0.75599998 2.1114987e-38
0.025266705 0.042592395 0.75799996 1.8890446e-38
0.02671051 0.042592399 0.75799996 1.6771373e-38
0.028154317 0.042592391 0.75799996 1.4661318e-38
0.029715251 0.042760957 0.76099998 1.6044598e-38
0.031246681 0.042873349 0.76299995 1.7521154e-38
0.032700021 0.042873345 0.76299995 1.7337135e-38
0.034242876 0.042985726 0.76499999 1.7242793e-38
0.035606671 0.042873345 0.76299995 1.6966932e-38
0.0373029 0.043154299 0.76800001 1.6689975e-38
-0.025899975 0.045140002 0.77699995 1.2250901e-38
-0.024357146 0.045023818 0.77499998 1.42763e-38
-0.022821877 0.044907633 0.773 1.3996844e-38
-0.021211397 0.044617143 0.76800001 1.3630226e-38
-0.01972286 0.044559047 0.76700002 1.519287e-38
-0.018214293 0.044442855 0.76500005 1.6667274e-38
-0.016713332 0.044326682 0.76300001 1.6298152e-38
-0.015259991 0.044326663 0.76300001 1.5927925e-38
-0.013770468 0.044210479 0.76100004 1.6831915e-38
-0.012304733 0.04415239 0.76000005 1.7681448e-38
-0.010828581 0.044036198 0.75799996 1.9167733e-38
-0.0093847448 0.044036221 0.75799996 2.0533037e-38
-0.0079199979 0.04392001 0.75599998 2.0043694e-38
-0.0064799846 0.043920007 0.75599998 1.9518186e-38
-0.0050399979 0.043920003 0.75599998 2.0464557e-38
-0.0036000099 0.043919995 0.75599998 2.1365962e-38
-0.0021571119 0.043861918 0.75500005 1.638595e-38
-0.00071904564 0.043861918 0.75500005 1.1411757e-38
0.00071715808 0.043745723 0.75299996 1.0489805e-38
0.0021514313 0.04374573 0.75299996 9.4807888e-39
0.0035857295 0.043745726 0.75300002 1.6119232e-38
0.0050200014 0.043745719 0.75300002 2.267222e-38
0.0064543053 0.043745734 0.75299996 2.0938132e-38
0.0078885779 0.043745723 0.75299996 1.9064692e-38
0.0093228761 0.043745734 0.75300002 9.5513302e-39
0.010785745 0.043861922 0.755 1.22168e-40
0.012191452 0.043745734 0.75299996 6.6630565e-39
0.013661928 0.043861911 0.75500005 1.3102319e-38
0.015100019 0.043861907 0.75500005 1.5768792e-38
0.01653811 0.043861903 0.75500005 1.8346998e-38
0.017999997 0.043920003 0.75599998 1.6508491e-38
0.019414296 0.043861903 0.755 1.4584974e-38
0.020852387 0.043861918 0.75500005 1.9009586e-38
0.022320017 0.043920003 0.75599998 2.341769e-38
0.02376003 0.043920014 0.75599998 2.0846296e-38
0.025266694 0.04403621 0.75799996 1.8252261e-38
0.026780993 0.044152398 0.75999999 1.6768504e-38
0.028154308 0.044036206 0.75799996 1.5305241e-38
0.029715251 0.044210467 0.76100004 1.6320821e-38
0.031246673 0.044326674 0.76300001 1.7243495e-38
0.032699987 0.044326678 0.76300001 1.7244586e-38
0.034153327 0.044326674 0.76300001 1.7152031e-38
0.035606664 0.04432667 0.76300001 1.6784687e-38
0.037302893 0.044617146 0.76800001 1.6415551e-38
-0.025899962 0.046620015 0.77699995 1.243923e-38
-0.024294255 0.04638001 0.773 1.4926673e-38
-0.022733327 0.046200015 0.76999998 1.4368479e-38
-0.021211395 0.046080008 0.76799995 1.3900693e-38
-0.019722857 0.046020001 0.76700002 1.5286478e-38
-0.01821428 0.045899998 0.76500005 1.675803e-38
-0.016757149 0.045900002 0.76500005 1.6941733e-38
-0.015260023 0.045780014 0.76300001 1.7117819e-38
-0.013770461 0.04566 0.76099998 1.7383947e-38
-0.012304751 0.045600008 0.75999999 1.7677143e-38
-0.010857125 0.045600004 0.76000005 1.9164917e-38
-0.0093847541 0.04548002 0.75799996 2.0728188e-38
-0.0079409201 0.045480017 0.75799996 2.0058347e-38
-0.0064971414 0.045480013 0.75799996 1.9410897e-38
-0.0050399969 0.045360014 0.75599998 2.0354425e-38
-0.0035999839 0.045360006 0.75599998 2.127161e-38
-0.0021571324 0.045300014 0.75500005 1.6384146e-38
-0.00071904191 0.045300007 0.75500005 1.1490688e-38
0.00071714504 0.045180012 0.75299996 1.0761036e-38
0.0021514434 0.045180008 0.75300002 1.0118265e-38
0.0035857155 0.045180019 0.75300002 1.639867e-38
0.0050200191 0.045180012 0.75299996 2.2682975e-38
0.0064542922 0.045180023 0.75299996 2.0470703e-38
0.00788859 0.045180015 0.75300002 1.8241722e-38
0.0093476288 0.045299999 0.75500005 1.2336809e-38
0.010785749 0.045300011 0.755 6.5689271e-39
0.012191439 0.045180012 0.75299996 1.006818e-38
0.013625711 0.045180023 0.75300002 1.3565816e-38
0.015060009 0.045180015 0.75300002 1.7157081e-38
0.016538087 0.045300007 0.75500005 2.084629e-38
0.01797621 0.045300003 0.755 1.9828214e-38
0.019414302 0.045300011 0.75500005 1.8908065e-38
0.020852393 0.045300007 0.75500005 2.1118574e-38
0.022320015 0.045360006 0.75599998 2.341769e-38
0.023822879 0.04548002 0.75799996 2.0748003e-38
0.025266685 0.045480013 0.75799996 1.8064644e-38
0.026780974 0.045600019 0.75999999 1.6404389e-38
0.0282286 0.045600016 0.75999999 1.4755662e-38
0.029715259 0.045660004 0.76100004 1.6046029e-38
0.03124667 0.045780003 0.76300001 1.7427885e-38
0.032699984 0.045780007 0.76300001 1.6968724e-38
0.03415332 0.045779999 0.76300001 1.6508821e-38
0.035793349 0.046019994 0.76700002 1.8068222e-38
0.037302893 0.046080016 0.76799995 1.9722355e-38
0.038866695 0.046200022 0.76999998 1.9727394e-38
-0.02429425 0.047852401 0.773 1.5567367e-38
-0.022792349 0.047790483 0.77199996 1.483339e-38
-0.021211399 0.047542866 0.76799995 1.4092996e-38
-0.019722851 0.047480959 0.76700002 1.5478093e-38
-0.018214297 0.047357142 0.76500005 1.6764508e-38
-0.016757134 0.047357142 0.76500005 1.7592107e-38
-0.015260002 0.047233343 0.76299995 1.831059e-38
-0.013806662 0.047233343 0.76299995 1.7908394e-38
-0.012320937 0.047109522 0.76100004 1.7583863e-38
-0.010857143 0.047047623 0.76000005 1.9269308e-38
-0.0093847364 0.04692382 0.75799996 2.0813209e-38
-0.0079409312 0.046923816 0.75799996 2.0050101e-38
-0.0064971256 0.046923812 0.75800002 1.9325865e-38
-0.0050399969 0.046799999 0.75599998 2.0270811e-38
-0.0036000099 0.04680001 0.75599998 2.1179416e-38
-0.0021571296 0.046738103 0.75500005 1.638848e-38
-0.00071903726 0.046738096 0.75500005 1.149859e-38
0.00071715808 0.046614289 0.75300002 1.112873e-38
0.0021514304 0.046614286 0.75300002 1.0674664e-38
0.0035952672 0.046738096 0.755 1.6674553e-38
0.0050333575 0.046738107 0.75500005 2.2581464e-38
0.0064714481 0.046738103 0.75500005 2.0019777e-38
0.0079095419 0.046738099 0.75500005 1.7412406e-38
0.0093476363 0.046738107 0.755 1.5169867e-38
0.010785727 0.046738103 0.755 1.2908162e-38
0.012223819 0.046738099 0.755 1.3474345e-38
0.013661911 0.046738096 0.75500005 1.4027149e-38
0.015060026 0.046614304 0.75299996 1.86304e-38
0.016538123 0.04673811 0.755 2.3231146e-38
0.017976215 0.046738107 0.755 2.3234019e-38
0.019414306 0.046738103 0.75500005 2.3138955e-38
0.020852396 0.046738099 0.75500005 2.3322985e-38
0.022320017 0.046800017 0.75599998 2.341697e-38
0.023822868 0.046923824 0.75799996 2.0662621e-38
0.025333358 0.047047637 0.75999999 1.7790563e-38
0.026780982 0.047047634 0.75999999 1.5937305e-38
0.028228607 0.047047634 0.75999999 1.4112089e-38
0.029715259 0.047109518 0.76100004 1.5863434e-38
0.031164756 0.047109518 0.76100004 1.7519001e-38
0.032700006 0.047233336 0.76299995 1.6693576e-38
0.034153346 0.047233339 0.76299995 1.5864187e-38
0.035840046 0.047542866 0.76800001 1.9440033e-38
0.037400018 0.047666673 0.76999998 2.2945937e-38
0.038866684 0.047666673 0.76999998 2.3234012e-38
-0.02429425 0.049324781 0.773 1.4833037e-38
-0.022733323 0.049133338 0.76999998 1.4369544e-38
-0.021266658 0.049133349 0.76999998 1.3905044e-38
-0.019722849 0.048941903 0.76700002 1.5196538e-38
-0.018214284 0.048814286 0.76500005 1.6494763e-38
-0.016757151 0.048814286 0.76500005 1.704216e-38
-0.015260007 0.048686676 0.76299995 1.7501635e-38
-0.013806668 0.048686672 0.76299995 1.7482559e-38
-0.012320931 0.048559044 0.76099998 1.7409151e-38
-0.010857105 0.048495252 0.75999999 1.8886541e-38
-0.0093847476 0.048367634 0.75800002 2.0449457e-38
-0.0079409126 0.048367642 0.75799996 1.9691014e-38
-0.006497107 0.048367642 0.75799996 1.9040301e-38
-0.0050399969 0.048240013 0.75599998 2.0444048e-38
-0.0035999829 0.048240006 0.75599998 2.1735091e-38
-0.002157124 0.048176207 0.75500005 1.6662579e-38
-0.00071903353 0.048176203 0.75500005 1.1578599e-38
0.00071714318 0.048048578 0.75300002 1.1120471e-38
0.0021514453 0.048048586 0.75299996 1.0654222e-38
0.0035952709 0.048176199 0.75500005 1.6675648e-38
0.0050333352 0.048176203 0.75500005 2.2774829e-38
0.0064714286 0.048176195 0.75500005 1.9826779e-38
0.0079095196 0.048176207 0.75500005 1.6860391e-38
0.00934764 0.048176199 0.755 1.3260482e-38
0.010785731 0.048176207 0.755 9.807353e-39
0.012223824 0.048176207 0.75500005 1.1636559e-38
0.013661915 0.048176199 0.75500005 1.3559723e-38
0.015100005 0.048176199 0.75500005 1.7891059e-38
0.016538128 0.048176203 0.755 2.2315664e-38
0.017976219 0.048176195 0.75500005 2.2131993e-38
0.019414309 0.048176195 0.75500005 2.1856487e-38
0.0208524 0.048176203 0.75500005 2.2682289e-38
0.022320015 0.048240002 0.75599998 2.3417686e-38
0.023822889 0.048367649 0.75799996 2.0376706e-38
0.025333365 0.048495255 0.75999999 1.7324201e-38
0.026780989 0.048495252 0.75999999 1.649763e-38
0.028265744 0.04855904 0.76099998 1.567723e-38
0.029715266 0.048559055 0.76100004 1.6692105e-38
0.031246684 0.048686679 0.76300001 1.7703748e-38
0.032785736 0.048814297 0.76500005 1.7060917e-38
0.034332402 0.048941895 0.76700002 1.6508121e-38
0.035840016 0.049005721 0.76800001 1.8625011e-38
0.037400011 0.049133345 0.76999998 2.0846289e-38
0.038967635 0.049260959 0.77199996 2.2131634e-38
-0.022733334 0.050600007 0.76999998 1.390643e-38
-0.021266641 0.050600003 0.76999998 1.3718835e-38
-0.019799978 0.050600011 0.76999998 1.4999175e-38
-0.018261895 0.050402861 0.76699996 1.6206653e-38
-0.016757138 0.050271425 0.76500005 1.6487885e-38
-0.015260013 0.050140005 0.76300001 1.666507e-38
-0.013806674 0.050140001 0.76300001 1.6927273e-38
-0.012320957 0.050008576 0.76100004 1.7219723e-38
-0.010857098 0.049942866 0.75999999 1.8602003e-38
-0.0094094994 0.049942881 0.75999999 1.9978057e-38
-0.007940921 0.049811445 0.75799996 1.9407272e-38
-0.0064971144 0.049811441 0.75799996 1.8780593e-38
-0.0050533083 0.049811441 0.75799996 2.054594e-38
-0.003600009 0.049680009 0.75599998 2.2284674e-38
-0.0021571184 0.049614284 0.75500005 1.7039606e-38
-0.00071902794 0.049614292 0.75500005 1.1680099e-38
0.00071903749 0.049614292 0.75500005 1.1212627e-38
0.0021571589 0.049614295 0.755 1.0674642e-38
0.0035952495 0.049614295 0.755 1.6781817e-38
0.0050333398 0.049614295 0.75500005 2.2860916e-38
0.0064714332 0.049614288 0.75500005 1.9652435e-38
0.0079095243 0.04961428 0.75500005 1.6301821e-38
0.0093476446 0.049614303 0.755 1.138821e-38
0.010785737 0.049614299 0.75500005 6.5618757e-39
0.012223828 0.049614295 0.75500005 9.7969778e-39
0.013661919 0.049614292 0.75500005 1.3010859e-38
0.01510001 0.049614288 0.75500005 1.7241389e-38
0.016538132 0.049614292 0.755 2.1388338e-38
0.017976223 0.049614288 0.75500005 2.1029967e-38
0.019414313 0.049614295 0.75500005 2.0561821e-38
0.020880001 0.049680009 0.75599998 2.2040158e-38
0.022320017 0.049680017 0.75599992 2.3415173e-38
0.023822878 0.049811453 0.75799996 2.0193749e-38
0.025333373 0.049942873 0.75999999 1.687652e-38
0.0268162 0.050008573 0.76100004 1.7051909e-38
0.028265722 0.050008569 0.76100004 1.7245283e-38
0.029793341 0.050140008 0.76300001 1.7523317e-38
0.031246655 0.050140012 0.76300001 1.7797392e-38
0.032871455 0.050402869 0.76700002 1.7429335e-38
0.034377199 0.050468579 0.76799995 1.7060562e-38
0.035933334 0.050600007 0.76999998 1.7889238e-38
0.037400022 0.050600007 0.77000004 1.8724736e-38
0.038967643 0.050731447 0.77199996 2.1121796e-38
-0.021266652 0.052066673 0.76999998 1.4452418e-38
-0.019748529 0.051931433 0.76799995 1.5281437e-38
-0.018261891 0.051863823 0.76699996 1.6201226e-38
-0.016757125 0.051728584 0.76499999 1.6390275e-38
-0.015299992 0.051728584 0.76499999 1.6662198e-38
-0.013806649 0.051593337 0.76299995 1.7308278e-38
-0.012353336 0.051593356 0.76299995 1.7960849e-38
-0.010899995 0.051593352 0.76299995 1.9063627e-38
-0.0094094919 0.051390499 0.75999999 2.0258921e-38
-0.0079618674 0.051390491 0.75999999 1.9701807e-38
-0.0064971247 0.051255245 0.75799996 1.9250905e-38
-0.0050533195 0.05125526 0.75799996 2.0542007e-38
-0.0035999811 0.051120002 0.75599998 2.1828372e-38
-0.0021571426 0.051052388 0.75500005 1.6939518e-38
-0.00071904936 0.051052388 0.75500005 1.2123472e-38
0.00071904215 0.05105238 0.75500005 1.1300836e-38
0.0021571626 0.051052388 0.755 1.0478747e-38
0.0035952532 0.051052388 0.75500005 1.6774267e-38
0.0050333454 0.051052395 0.75500005 2.305032e-38
0.0064714369 0.05105238 0.75500005 1.9639879e-38
0.0079095578 0.051052395 0.755 1.6112745e-38
0.0093476484 0.051052392 0.755 9.752701e-39
0.010785742 0.051052392 0.75500005 3.3357714e-39
0.012223832 0.051052384 0.75500005 8.314334e-39
0.013661923 0.051052384 0.75500005 1.3282058e-38
0.015100015 0.051052377 0.75500005 1.5588344e-38
0.016538136 0.05105238 0.75500005 1.7802446e-38
0.017976202 0.051052395 0.755 1.6232278e-38
0.019414293 0.051052392 0.75500005 1.4749639e-38
0.020880029 0.051120002 0.75599998 1.9091377e-38
0.022379063 0.051255256 0.75799996 2.3417683e-38
0.023885731 0.051390495 0.75999999 2.1758896e-38
0.025333356 0.051390488 0.75999999 2.0190507e-38
0.026816232 0.051458091 0.76099998 1.982423e-38
0.028265756 0.051458091 0.76099998 1.9463357e-38
0.029715275 0.051458087 0.76099998 1.8722229e-38
0.031328578 0.051728584 0.76500005 1.7982153e-38
0.032785706 0.051728584 0.76500005 1.7335346e-38
0.034377169 0.051931452 0.76799995 1.6782538e-38
0.035840042 0.051931437 0.76799995 1.6968717e-38
0.037497167 0.052201912 0.77199996 1.724603e-38
0.03896765 0.052201912 0.77199996 1.835596e-38
0.040438134 0.052201919 0.77199996 1.9558796e-38
0.041908588 0.052201912 0.77200001 1.8904113e-38
-0.021266663 0.053533342 0.76999998 1.5197537e-38
-0.019748531 0.053394288 0.76799995 1.565672e-38
-0.018261889 0.053324763 0.76699996 1.6116971e-38
-0.016757138 0.053185727 0.76499999 1.6393911e-38
-0.015299981 0.053185724 0.76499999 1.6576507e-38
