# .PCD v0.7 - Point Cloud Data file format
VERSION 0.7
FIELDS x y z rgb
SIZE 4 4 4 4
TYPE F F F F
COUNT 1 1 1 1
WIDTH 950
HEIGHT 1
VIEWPOINT 0 0 0 1 0 0 0
POINTS 950
DATA ascii
-0.017690478 -0.031842835 0.74300003 6.361228e-39
-0.016253324 -0.031799994 0.7420001 5.9967671e-39
-0.014800005 -0.031714283 0.74000001 5.6369683e-39
-0.013372377 -0.031671427 0.73900008 5.8145507e-39
-0.011932378 -0.031585731 0.73700011 6.0911109e-39
-0.010528567 -0.031585701 0.73700005 6.0889347e-39
-0.0090628583 -0.031371407 0.73200005 6.1811359e-39
-0.0076685585 -0.031371422 0.73200011 5.4432304e-39
-0.0062742741 -0.031371407 0.73200011 4.7917569e-39
-0.0048799994 -0.031371422 0.73200011 3.8758963e-39
-0.0034857001 -0.031371422 0.73200011 2.9611609e-39
-0.0020828596 -0.031242855 0.72900009 3.6011703e-39
-0.0006942834 -0.03124287 0.72900009 4.244016e-39
0.00069333881 -0.031199999 0.7280001 4.2386322e-39
0.0020799963 -0.031199984 0.72800004 4.2350294e-39
0.0034666718 -0.031200014 0.7280001 6.5380761e-39
0.0048400066 -0.031114273 0.72600007 8.9250801e-39
0.0062228595 -0.031114288 0.72600007 9.6730358e-39
0.0076057236 -0.031114273 0.72600007 1.040416e-38
0.0089885769 -0.031114273 0.72600007 1.0873409e-38
0.010371431 -0.031114273 0.72600001 1.1350534e-38
0.011754294 -0.031114288 0.72600007 1.2726643e-38
0.013137147 -0.031114258 0.72600007 1.4123577e-38
0.014520001 -0.031114273 0.72600001 1.5214869e-38
0.015902866 -0.031114273 0.72600007 1.6337725e-38
0.017333338 -0.031199999 0.72800004 1.7704159e-38
0.018719997 -0.031199999 0.72800004 1.9094247e-38
0.020106673 -0.031200014 0.7280001 1.934249e-38
0.021493331 -0.031199999 0.72800004 1.9607911e-38
0.022911428 -0.03124287 0.72900009 1.821563e-38
0.024299998 -0.03124284 0.72900009 1.6898267e-38
0.025688574 -0.031242855 0.72900009 1.6073443e-38
0.027077142 -0.031242855 0.72900009 1.5153331e-38
0.0285438 -0.031328551 0.73100001 1.5625457e-38
0.02993618 -0.031328566 0.73100001 1.6100423e-38
0.031371433 -0.031371437 0.73200011 1.665395e-38
0.032855235 -0.031457119 0.73400003 1.7205335e-38
0.034346677 -0.03154286 0.73600012 1.638062e-38
0.035748575 -0.03154286 0.73600012 1.5648051e-38
0.037200958 -0.031585701 0.73700005 1.2981553e-38
0.038604766 -0.031585716 0.73700005 1.0319396e-38
0.040117148 -0.031671427 0.73900008 1.0413019e-38
0.041693337 -0.03179998 0.7420001 1.0506302e-38
0.043106671 -0.03179998 0.7420001 1.0414837e-38
0.044700015 -0.031928577 0.74500012 1.0328715e-38
0.046304766 -0.032057144 0.74800009 1.0323664e-38
0.047857154 -0.03214284 0.75000012 1.0320796e-38
-0.025066655 -0.030796193 0.75200009 1.2537178e-38
-0.023634279 -0.030796193 0.75200009 9.1259941e-39
-0.022083797 -0.030632369 0.74800009 6.9990724e-39
-0.020631433 -0.030591421 0.7470001 4.8900692e-39
-0.01915713 -0.030509524 0.74500012 5.9070602e-39
-0.017690469 -0.030427597 0.74300003 6.8221935e-39
-0.01625333 -0.030386649 0.7420001 6.1772011e-39
-0.014800004 -0.030304752 0.74000001 5.4425115e-39
-0.013372373 -0.030263789 0.73900008 4.6095307e-39
-0.011964765 -0.030263789 0.73900008 3.7862384e-39
-0.010528563 -0.030181892 0.73700011 4.4269317e-39
-0.0090876138 -0.030059017 0.73400009 5.0704962e-39
-0.0076895165 -0.030059047 0.73400009 4.7946282e-39
-0.0062742834 -0.02997715 0.73200011 4.4276379e-39
-0.0048799841 -0.029977135 0.73200011 2.9571868e-39
-0.0034857099 -0.02997712 0.73200011 1.3942051e-39
-0.0020828503 -0.02985429 0.72900009 1.6657809e-39
-0.00069427362 -0.029854305 0.72900009 1.9441825e-39
0.00069428782 -0.029854275 0.72900009 2.2964844e-39
0.0020828648 -0.02985429 0.72900009 2.6864153e-39
0.0034666695 -0.029813327 0.7280001 7.826322e-39
0.0048400019 -0.02973143 0.72600007 1.299352e-38
0.0062400009 -0.029813327 0.72800004 1.5120822e-38
0.007626669 -0.029813327 0.7280001 1.7136553e-38
0.0089885723 -0.029731415 0.72600007 1.7422478e-38
0.010371435 -0.02973143 0.72600007 1.7604705e-38
0.011754291 -0.0297314 0.72600007 1.7428557e-38
0.013137144 -0.029731415 0.72600007 1.7231253e-38
0.014520007 -0.029731415 0.72600007 1.6308951e-38
0.015946668 -0.029813312 0.72800004 1.5286195e-38
0.017333336 -0.029813327 0.72800004 1.5089241e-38
0.018720003 -0.029813342 0.72800004 1.4907e-38
0.020134291 -0.02985429 0.72900009 1.5342139e-38
0.021522861 -0.02985429 0.72900009 1.5724159e-38
0.022911429 -0.02985429 0.72900009 1.5986363e-38
0.024300005 -0.02985429 0.72900009 1.616891e-38
0.025688574 -0.029854275 0.72900009 1.6438988e-38
0.027077146 -0.029854275 0.72900009 1.6725648e-38
0.028543804 -0.029936187 0.73100007 1.7196697e-38
0.029936183 -0.029936172 0.73100007 1.7660553e-38
0.031371441 -0.029977135 0.73200011 1.7573039e-38
0.032855235 -0.030059017 0.73400003 1.7482287e-38
0.034346681 -0.030140974 0.73600018 1.6472462e-38
0.035748579 -0.030140944 0.73600012 1.5370033e-38
0.037200965 -0.030181892 0.73700011 1.2703171e-38
0.038604774 -0.030181907 0.73700005 1.0043166e-38
0.040117148 -0.030263789 0.73900008 1.0136433e-38
0.04158096 -0.030304752 0.74000007 1.0136441e-38
0.04299048 -0.030304767 0.74000007 9.5818505e-39
0.044580009 -0.030427612 0.74300003 8.9440004e-39
0.046304766 -0.030632369 0.74800009 9.6790179e-39
0.047729526 -0.030632369 0.74800003 1.0322945e-38
-0.02649904 -0.029363818 0.75200009 1.4378183e-38
-0.025066664 -0.029363804 0.75200009 1.1055557e-38
-0.023634281 -0.029363804 0.75200015 7.7236713e-39
-0.0220838 -0.02920761 0.74800009 6.817893e-39
-0.020631433 -0.029168554 0.74700004 5.9999761e-39
-0.019157128 -0.029090472 0.74500012 6.1804115e-39
-0.017738085 -0.029090457 0.74500012 6.3637279e-39
-0.016253334 -0.028973334 0.7420001 5.9006086e-39
-0.014799993 -0.028895237 0.74000001 5.4378256e-39
-0.013390475 -0.028895222 0.74000007 4.0584798e-39
-0.011964751 -0.028856181 0.73900008 2.5891315e-39
-0.010528568 -0.028778099 0.73700005 2.7681572e-39
-0.0091123693 -0.028739043 0.73600012 3.042935e-39
-0.007689517 -0.028660931 0.73400009 3.5035362e-39
-0.0062742787 -0.028582834 0.73200005 4.0642378e-39
-0.0048799939 -0.028582849 0.73200011 5.4392605e-39
-0.003485709 -0.028582849 0.73200011 6.9003776e-39
-0.0020828657 -0.028465711 0.72900003 8.3862458e-39
-0.00069428899 -0.028465711 0.72900003 9.7634742e-39
0.00069427944 -0.028465711 0.72900009 1.0511485e-38
0.0020828564 -0.028465696 0.72900009 1.1264457e-38
0.0034714257 -0.028465711 0.72900009 1.346886e-38
0.0048533333 -0.028426655 0.72800004 1.5693038e-38
0.0062399986 -0.028426655 0.72800004 1.6139696e-38
0.0076266667 -0.02842667 0.7280001 1.6598876e-38
0.0089885788 -0.028348573 0.72600007 1.6498434e-38
0.010371433 -0.028348558 0.72600007 1.6503067e-38
0.011754286 -0.028348558 0.72600007 1.6389316e-38
0.01313715 -0.028348573 0.72600007 1.6288482e-38
0.014520003 -0.028348543 0.72600007 1.6093658e-38
0.015946666 -0.028426655 0.72800004 1.5796227e-38
0.01733334 -0.028426655 0.7280001 1.6081018e-38
0.018745717 -0.028465725 0.72900009 1.6347189e-38
0.020134285 -0.028465711 0.72900009 1.6818912e-38
0.021522863 -0.028465711 0.72900009 1.7286324e-38
0.022911431 -0.028465711 0.72900009 1.7372402e-38
0.024300002 -0.028465711 0.72900009 1.7372046e-38
0.025688577 -0.028465711 0.72900009 1.7278418e-38
0.027151423 -0.028543793 0.73100001 1.7287058e-38
0.028543796 -0.028543793 0.73100001 1.7656223e-38
0.029936185 -0.028543808 0.73100001 1.8119018e-38
0.031457148 -0.028660931 0.73400003 1.7756726e-38
0.032855242 -0.028660931 0.73400009 1.7391898e-38
0.034346681 -0.028739028 0.73600012 1.610405e-38
0.035797149 -0.028778084 0.73700005 1.4911573e-38
0.037200958 -0.028778084 0.73700005 1.2429812e-38
0.038604777 -0.028778084 0.73700011 1.0043519e-38
0.040117145 -0.028856181 0.73900008 1.0320815e-38
0.041580956 -0.028895222 0.74000001 1.0596329e-38
0.04299048 -0.028895222 0.74000001 1.05045e-38
0.044580009 -0.029012375 0.74300009 1.0410133e-38
0.046428576 -0.029285677 0.75000006 1.0413698e-38
0.047857147 -0.029285692 0.75000006 1.0508767e-38
-0.02649905 -0.027931415 0.75200009 1.2813756e-38
-0.024999997 -0.027857132 0.75000006 9.5833219e-39
-0.02363429 -0.027931429 0.75200009 6.2700862e-39
-0.022083802 -0.027782865 0.74800009 6.6406721e-39
-0.020631421 -0.027745716 0.7470001 7.0054946e-39
-0.019157138 -0.027671434 0.74500012 6.4508859e-39
-0.017738085 -0.027671419 0.74500012 5.89951e-39
-0.016253324 -0.027559988 0.7420001 5.7151159e-39
-0.014800006 -0.027485706 0.74000001 5.4338473e-39
-0.013390473 -0.027485706 0.74000001 3.4141628e-39
-0.011964763 -0.027448572 0.73900008 1.3873527e-39
-0.010528563 -0.02737426 0.73700005 1.1972526e-39
-0.009124768 -0.02737429 0.73700005 9.2858304e-40
-0.0076895175 -0.027262844 0.73400009 2.2964521e-39
-0.0062742778 -0.027188562 0.73200011 3.6090554e-39
-0.0048800032 -0.027188562 0.73200011 8.0189543e-39
-0.0034857043 -0.027188577 0.73200011 1.2443225e-38
-0.0020828564 -0.027077131 0.72900009 1.5031863e-38
-0.00069428014 -0.027077131 0.72900009 1.7604e-38
0.00069428131 -0.027077131 0.72900009 1.8721476e-38
0.0020828582 -0.027077131 0.72900009 1.9816311e-38
0.0034714276 -0.027077146 0.72900009 1.9090937e-38
0.004853338 -0.027039982 0.72800004 1.8249718e-38
0.0062399963 -0.027039997 0.72800004 1.7145191e-38
0.0076266713 -0.027039997 0.7280001 1.5934446e-38
0.0090257181 -0.027077146 0.72900009 1.5652819e-38
0.010414287 -0.027077131 0.72900009 1.5272871e-38
0.011754283 -0.026965685 0.72600001 1.5337034e-38
0.013173339 -0.027039982 0.7280001 1.5345994e-38
0.014560004 -0.027039997 0.72800004 1.5889466e-38
0.015946662 -0.027039982 0.72800004 1.6352209e-38
0.017357148 -0.027077146 0.72900009 1.7091534e-38
0.018745719 -0.027077146 0.72900009 1.7829116e-38
0.020134294 -0.027077131 0.72900009 1.8391279e-38
0.021522865 -0.027077146 0.72900009 1.8850071e-38
0.022911433 -0.027077146 0.72900009 1.8753547e-38
0.024300009 -0.027077146 0.72900009 1.856626e-38
0.025759045 -0.027151428 0.73100007 1.8198531e-38
0.027151426 -0.027151398 0.73100007 1.7742995e-38
0.028543808 -0.027151428 0.73100007 1.8205813e-38
0.029977147 -0.027188562 0.73200011 1.8579268e-38
0.031457145 -0.027262844 0.73400003 1.7942534e-38
0.032944761 -0.027337126 0.73600012 1.7298978e-38
0.03434667 -0.027337141 0.73600012 1.582424e-38
0.035797153 -0.02737429 0.73700011 1.4358768e-38
0.037200961 -0.027374275 0.73700005 1.2153232e-38
0.038709525 -0.027448557 0.73900008 9.951684e-39
0.040171422 -0.027485706 0.74000001 1.0506279e-38
0.041693341 -0.027559988 0.7420001 1.0966527e-38
0.043106671 -0.027559988 0.7420001 1.1428926e-38
0.044580005 -0.027597137 0.74300003 1.1791946e-38
0.046304759 -0.02778285 0.74800003 1.1240558e-38
0.047857143 -0.027857132 0.75000006 1.0598804e-38
-0.02649905 -0.02649904 0.75200009 1.3093932e-38
-0.024999991 -0.026428573 0.75000012 9.7730941e-39
-0.023634275 -0.026499055 0.75200009 6.4591353e-39
-0.022142865 -0.026428543 0.75000006 6.638154e-39
-0.020659041 -0.026358075 0.74800009 6.8175104e-39
-0.019208584 -0.026322849 0.74700004 5.437457e-39
-0.017738095 -0.026252367 0.74500012 4.1499524e-39
-0.016275235 -0.026181899 0.74300003 3.409156e-39
-0.01484 -0.026146658 0.7420001 2.7605426e-39
-0.013390473 -0.026076175 0.74000001 4.1384085e-39
-0.011964749 -0.026040964 0.73900008 5.511674e-39
-0.010528572 -0.025970452 0.73700011 7.2755977e-39
-0.0091123777 -0.02593524 0.73600012 9.0244728e-39
-0.0076895184 -0.025864743 0.73400009 1.0419279e-38
-0.0062742876 -0.025794275 0.73200011 1.1811521e-38
-0.0048933355 -0.025864758 0.73400003 1.3836924e-38
-0.0034952387 -0.025864728 0.73400009 1.587314e-38
-0.0020885752 -0.025759034 0.73100007 1.6603927e-38
-0.00069618609 -0.025759049 0.73100007 1.7348294e-38
0.00069428363 -0.025688566 0.72900009 1.7241389e-38
0.0020828606 -0.025688566 0.72900009 1.7147733e-38
0.0034714299 -0.025688581 0.72900009 1.6761709e-38
0.0048600067 -0.025688566 0.72900009 1.6478292e-38
0.0062485747 -0.025688566 0.72900009 1.6562934e-38
0.0076371441 -0.025688566 0.72900009 1.6637144e-38
0.0090257209 -0.025688551 0.72900009 1.6456296e-38
0.010414289 -0.025688581 0.72900009 1.6169241e-38
0.011786669 -0.02565334 0.72800004 1.6442884e-38
0.013173333 -0.02565331 0.72800004 1.6715896e-38
0.014560001 -0.02565334 0.7280001 1.7086841e-38
0.015946668 -0.02565331 0.72800004 1.7458486e-38
0.01735715 -0.025688566 0.72900009 1.8010214e-38
0.01874572 -0.025688566 0.72900009 1.8567391e-38
0.02013428 -0.025688551 0.72900003 1.9126003e-38
0.021581896 -0.025759034 0.73100001 1.9683081e-38
0.022974279 -0.025759049 0.73100001 1.9029077e-38
0.024366658 -0.025759034 0.73100001 1.847119e-38
0.025759038 -0.025759019 0.73100001 1.7918685e-38
0.027151419 -0.025759034 0.73100001 1.7372053e-38
0.028543811 -0.025759034 0.73100007 1.7746286e-38
0.029977147 -0.025794275 0.73200011 1.8213e-38
0.031457148 -0.025864743 0.73400003 1.7849605e-38
0.032944772 -0.02593524 0.73600012 1.7486229e-38
0.034346681 -0.02593524 0.73600012 1.5921099e-38
0.035797153 -0.025970466 0.73700011 1.4361999e-38
0.037200954 -0.025970466 0.73700011 1.2063191e-38
0.038709525 -0.026040964 0.73900008 9.7669382e-39
0.04017143 -0.026076175 0.74000007 1.0138577e-38
0.041580949 -0.026076175 0.74000001 1.0600246e-38
0.042990472 -0.02607619 0.74000001 1.050839e-38
0.044579994 -0.026181884 0.74300003 1.0506943e-38
0.04642858 -0.026428558 0.75000012 1.0506572e-38
0.047857143 -0.026428558 0.75000012 1.0505886e-38
-0.025 -0.024999984 0.75000012 9.9556777e-39
-0.023634287 -0.025066666 0.75200009 6.5488072e-39
-0.022142859 -0.024999984 0.75000006 6.5430801e-39
-0.020659043 -0.024933323 0.74800003 6.5409165e-39
-0.019208573 -0.024899989 0.7470001 4.4233079e-39
-0.017738078 -0.024833336 0.74500012 2.3053476e-39
-0.016275227 -0.024766654 0.74300003 1.1943505e-39
-0.014839991 -0.024733312 0.7420001 1.02739e-40
-0.013390486 -0.024666645 0.74000001 4.8677942e-39
-0.01196476 -0.024633333 0.73900008 9.6734211e-39
-0.010528577 -0.02456665 0.73700005 1.3460608e-38
-0.0091247568 -0.02456665 0.73700011 1.7143731e-38
-0.007710461 -0.024533346 0.73600012 1.854388e-38
-0.0062914221 -0.024466641 0.73400009 1.9911005e-38
-0.0049066688 -0.024533331 0.73600012 1.9643744e-38
-0.0034952394 -0.024466649 0.73400009 1.9263153e-38
-0.0020885817 -0.024366662 0.73100001 1.8161508e-38
-0.00069619354 -0.024366654 0.73100001 1.6947158e-38
0.00069618027 -0.024366647 0.73100001 1.5655679e-38
0.0020885617 -0.024366654 0.73100001 1.4355253e-38
0.0034714323 -0.024299987 0.72900009 1.4513792e-38
0.0048600012 -0.024300016 0.72900009 1.4711452e-38
0.006248577 -0.024299987 0.72900009 1.6083243e-38
0.0076371464 -0.024299994 0.72900009 1.7369988e-38
0.0090257227 -0.024300009 0.72900009 1.7273822e-38
0.010400007 -0.02426666 0.7280001 1.7090459e-38
0.011786667 -0.024266653 0.7280001 1.7549946e-38
0.013173331 -0.02426666 0.72800004 1.8006975e-38
0.014579997 -0.024299979 0.72900003 1.8283561e-38
0.015968567 -0.024299994 0.72900003 1.8557631e-38
0.017357143 -0.024300009 0.72900009 1.8923537e-38
0.018745713 -0.024299972 0.72900009 1.9301e-38
0.020189527 -0.02436664 0.73100007 1.9862135e-38
0.021581899 -0.024366662 0.73100007 2.0412385e-38
0.02297429 -0.024366654 0.73100007 1.9392464e-38
0.024366662 -0.024366662 0.73100007 1.8376862e-38
0.025759041 -0.024366669 0.73100007 1.7724656e-38
0.027151423 -0.024366654 0.73100007 1.6999707e-38
0.028582867 -0.024400003 0.73200011 1.7377502e-38
0.030059054 -0.024466671 0.73400009 1.7752379e-38
0.031542864 -0.024533324 0.73600012 1.7664851e-38
0.032944772 -0.024533331 0.73600012 1.7573746e-38
0.034393348 -0.024566658 0.73700005 1.601112e-38
0.035797149 -0.024566658 0.73700005 1.4358405e-38
0.03720095 -0.024566658 0.73700005 1.1971007e-38
0.038709525 -0.024633341 0.73900008 9.493947e-39
0.040171426 -0.02466666 0.74000001 9.8641463e-39
0.041693337 -0.02473332 0.7420001 1.0140356e-38
0.043106668 -0.02473332 0.7420001 9.6804486e-39
0.044580001 -0.024766661 0.74300003 9.1301587e-39
0.04642858 -0.024999984 0.75000012 9.7733716e-39
0.047857147 -0.024999984 0.75000012 1.0415867e-38
-0.024999995 -0.023571417 0.75000012 9.39999e-39
-0.023571432 -0.023571417 0.75000012 5.440673e-39
-0.022083811 -0.023508564 0.74800009 5.1597967e-39
-0.020659046 -0.023508564 0.74800003 4.8896586e-39
-0.019208573 -0.023477137 0.74700004 6.077409e-39
-0.017738076 -0.023414291 0.74500012 7.3519923e-39
-0.016319035 -0.023414277 0.74500012 8.2936718e-39
-0.014839995 -0.023319975 0.7420001 9.3121622e-39
-0.013390475 -0.023257121 0.74000007 1.1892573e-38
-0.01196477 -0.023225695 0.73900008 1.4578463e-38
-0.010557138 -0.02322571 0.73900008 1.5866014e-38
-0.0091247624 -0.023162834 0.73700005 1.7260386e-38
-0.0077104671 -0.023131423 0.73600012 1.7153463e-38
-0.0063085589 -0.023131438 0.73600018 1.6971934e-38
-0.0049066604 -0.023131423 0.73600012 1.6679556e-38
-0.0034952397 -0.023068562 0.73400003 1.6486555e-38
-0.002088578 -0.022974283 0.73100007 1.6561885e-38
-0.00069618982 -0.022974283 0.73100007 1.662279e-38
0.00069619145 -0.022974283 0.73100007 1.6176447e-38
0.0020885724 -0.022974275 0.73100007 1.5705058e-38
0.0034714337 -0.022911429 0.72900009 1.5989159e-38
0.004860003 -0.022911422 0.72900009 1.6270062e-38
0.0062485687 -0.022911422 0.72900003 1.7004761e-38
0.0076371385 -0.022911422 0.72900003 1.783235e-38
0.0090257144 -0.022911407 0.72900009 1.7828395e-38
0.010414283 -0.022911415 0.72900009 1.7827648e-38
0.01178667 -0.022879988 0.72800004 1.8010931e-38
0.013191429 -0.022911407 0.72900009 1.8284636e-38
0.014579999 -0.022911437 0.72900009 1.8465068e-38
0.015968569 -0.022911407 0.72900009 1.8738064e-38
0.017357145 -0.022911429 0.72900009 1.9017515e-38
0.018745715 -0.022911429 0.72900009 1.9391043e-38
0.02018952 -0.022974268 0.73100001 1.9769593e-38
0.021581901 -0.022974275 0.73100001 2.013975e-38
0.022974283 -0.02297426 0.73100001 1.9117667e-38
0.024366654 -0.022974283 0.73100001 1.8194285e-38
0.025759036 -0.02297426 0.73100001 1.7728288e-38
0.027188582 -0.023005702 0.73200011 1.7268776e-38
0.02858286 -0.023005702 0.73200005 1.7651565e-38
0.030059053 -0.023068555 0.73400009 1.8029313e-38
0.031542864 -0.023131423 0.73600012 1.784708e-38
0.032944772 -0.023131438 0.73600012 1.7663774e-38
0.034346681 -0.023131438 0.73600012 1.5825634e-38
0.035797149 -0.023162842 0.73700011 1.3987829e-38
0.037200958 -0.023162849 0.73700005 1.1788421e-38
0.038709525 -0.02322571 0.73900008 9.6790572e-39
0.040117148 -0.023225717 0.73900008 9.8641449e-39
0.041693341 -0.023319975 0.7420001 1.0140363e-38
0.043106668 -0.023319975 0.7420001 9.864491e-39
0.044580001 -0.023351431 0.74300003 9.5897258e-39
0.046428576 -0.023571409 0.75000012 9.9574503e-39
0.047857154 -0.023571394 0.75000012 1.0416964e-38
-0.023571426 -0.022142842 0.75000012 4.3332605e-39
-0.022083815 -0.022083789 0.74800003 3.765743e-39
-0.020631429 -0.02205427 0.7470001 3.1448024e-39
-0.019208573 -0.022054277 0.74700004 7.7369598e-39
-0.017738085 -0.021995232 0.74500012 1.2350649e-38
-0.016275227 -0.021936193 0.74300003 1.5407801e-38
-0.014859998 -0.021936186 0.74300003 1.8431218e-38
-0.013426657 -0.021906666 0.7420001 1.8904049e-38
-0.011980956 -0.021847598 0.74000001 1.9355703e-38
-0.010557135 -0.021818087 0.73900008 1.8347676e-38
-0.0091247568 -0.021759041 0.73700005 1.7316284e-38
-0.0077209468 -0.021759026 0.73700005 1.565424e-38
-0.0063085607 -0.021729521 0.73600012 1.3994357e-38
-0.004906652 -0.021729514 0.73600012 1.3799895e-38
-0.0035047582 -0.021729514 0.73600012 1.3613725e-38
-0.0020914176 -0.021611415 0.73200011 1.497692e-38
-0.0006961968 -0.021581903 0.73100001 1.6354773e-38
0.00069618446 -0.021581896 0.73100001 1.6722077e-38
0.0020885658 -0.021581888 0.73100001 1.7092636e-38
0.0034809476 -0.021581896 0.73100001 1.7467143e-38
0.0048599951 -0.02152285 0.72900009 1.7833059e-38
0.0062657087 -0.021581888 0.73100001 1.8016381e-38
0.0076371399 -0.021522857 0.72900009 1.8198607e-38
0.0090257162 -0.021522857 0.72900009 1.8380117e-38
0.010414285 -0.02152285 0.72900009 1.8563057e-38
0.011802855 -0.021522865 0.72900009 1.8564838e-38
0.013191431 -0.02152285 0.72900009 1.8466541e-38
0.014580001 -0.021522842 0.72900009 1.8645903e-38
0.01596857 -0.021522857 0.72900009 1.8829931e-38
0.017404761 -0.021581896 0.73100007 1.92005e-38
0.018797142 -0.021581896 0.73100007 1.948718e-38
0.020189524 -0.021581888 0.73100007 1.9685612e-38
0.021581905 -0.021581888 0.73100007 1.9861008e-38
0.023005726 -0.021611422 0.73200011 1.8927204e-38
0.024400007 -0.021611415 0.73200011 1.7914463e-38
0.025794301 -0.021611422 0.73200011 1.7724656e-38
0.027262861 -0.021670453 0.73400009 1.7547851e-38
0.028660953 -0.021670476 0.73400003 1.7930669e-38
0.030140962 -0.021729521 0.73600012 1.821227e-38
0.031542864 -0.021729529 0.73600012 1.8030388e-38
0.032989528 -0.021759026 0.73700005 1.7756326e-38
0.03439334 -0.021759026 0.73700005 1.5731651e-38
0.035894286 -0.021818079 0.73900008 1.3623363e-38
0.037301909 -0.021818079 0.73900008 1.1698747e-38
0.038709525 -0.021818094 0.73900008 9.7708969e-39
0.040171426 -0.021847591 0.74000001 9.9559804e-39
0.041580949 -0.021847606 0.74000001 1.0047807e-38
0.043106671 -0.021906644 0.7420001 1.004744e-38
0.044520006 -0.021906644 0.7420001 9.9563195e-39
0.04593334 -0.021906659 0.7420001 1.0141065e-38
0.04785715 -0.022142835 0.75000012 1.0325804e-38
0.049285725 -0.02214285 0.75000012 1.0417991e-38
-0.02357142 -0.020714283 0.75000012 7.8291036e-39
-0.022083793 -0.020659044 0.74800009 9.3092153e-39
-0.020631429 -0.020631418 0.7470001 1.0789048e-38
-0.019208578 -0.020631418 0.7470001 1.3096477e-38
-0.017738085 -0.020576194 0.74500012 1.5415382e-38
-0.016275235 -0.020520948 0.74300009 1.5682336e-38
-0.014860005 -0.02052094 0.74300003 1.6049312e-38
-0.013426661 -0.020493306 0.7420001 1.5762319e-38
-0.011980955 -0.02043809 0.74000001 1.5582196e-38
-0.010557135 -0.020410486 0.73900008 1.5003881e-38
-0.0091247512 -0.02035524 0.73700011 1.4512726e-38
-0.0077209417 -0.020355217 0.73700005 1.4430524e-38
-0.0063085672 -0.020327605 0.73600012 1.441864e-38
-0.0049066585 -0.020327613 0.73600012 1.4704143e-38
-0.0035047501 -0.02032762 0.73600012 1.4976808e-38
-0.0020914269 -0.020217121 0.73200005 1.5806223e-38
-0.00069619308 -0.020189516 0.73100007 1.6637411e-38
0.00069618865 -0.020189516 0.73100007 1.6819292e-38
0.00208857 -0.020189509 0.73100007 1.709802e-38
0.0034809508 -0.020189524 0.73100007 1.7558984e-38
0.0048733312 -0.020189501 0.73100007 1.8017807e-38
0.0062657124 -0.020189524 0.73100001 1.8291882e-38
0.0076580937 -0.020189516 0.73100001 1.8565942e-38
0.0090257181 -0.020134278 0.72900009 1.8564855e-38
0.010414287 -0.020134278 0.72900009 1.8653464e-38
0.011802857 -0.02013427 0.72900009 1.8558762e-38
0.01322761 -0.020189524 0.73100001 1.8554458e-38
0.014580003 -0.020134278 0.72900009 1.864486e-38
0.015968572 -0.020134285 0.72900009 1.8826736e-38
0.017404754 -0.020189516 0.73100001 1.911085e-38
0.018797135 -0.020189509 0.73100001 1.9395341e-38
0.020189516 -0.020189501 0.73100001 1.9587997e-38
0.021611432 -0.020217136 0.73200005 1.977311e-38
0.023005724 -0.020217128 0.73200011 1.8745708e-38
0.024466667 -0.020272352 0.73400003 1.78219e-38
0.025864763 -0.020272367 0.73400003 1.7543451e-38
0.027262859 -0.020272367 0.73400009 1.7358422e-38
0.028739054 -0.020327613 0.73600012 1.7467554e-38
0.030140964 -0.02032762 0.73600012 1.757337e-38
0.031585727 -0.02035524 0.73700011 1.7482241e-38
0.032989528 -0.020355232 0.73700011 1.7395083e-38
0.03448667 -0.020410463 0.73900008 1.5368976e-38
0.03594286 -0.02043809 0.74000001 1.3350734e-38
0.037352383 -0.02043809 0.74000001 1.1422174e-38
0.03876191 -0.020438083 0.74000001 9.5868727e-39
0.040279999 -0.020493314 0.7420001 9.7712332e-39
0.041693337 -0.020493321 0.7420001 9.9552517e-39
0.04316476 -0.02052094 0.74300003 9.8637637e-39
0.044580009 -0.02052094 0.74300003 9.8626595e-39
-0.025066666 -0.01933714 0.75200009 1.1880311e-38
-0.023634283 -0.019337155 0.75200009 1.1251114e-38
-0.022083797 -0.019234277 0.74800009 1.4852448e-38
-0.020631429 -0.019208558 0.74700004 1.8432618e-38
-0.019208578 -0.019208558 0.7470001 1.8444838e-38
-0.017738078 -0.019157127 0.74500012 1.8341524e-38
-0.016275238 -0.019105695 0.74300003 1.6040259e-38
-0.01486 -0.01910571 0.74300003 1.3633876e-38
-0.013426666 -0.019079983 0.7420001 1.2696863e-38
-0.011980955 -0.019028552 0.74000001 1.1689143e-38
-0.010557146 -0.019002862 0.73900008 1.1663992e-38
-0.0091495244 -0.019002855 0.73900008 1.1668639e-38
-0.007720951 -0.018951423 0.73700011 1.3228033e-38
-0.0063085593 -0.018925719 0.73600012 1.4794218e-38
-0.0048933285 -0.018874273 0.73400009 1.5529939e-38
-0.003495242 -0.018874258 0.73400003 1.6267514e-38
-0.0020914264 -0.018822841 0.73200011 1.6542326e-38
-0.0006961996 -0.018797114 0.73100001 1.6816754e-38
0.00069618167 -0.018797129 0.73100001 1.7002576e-38
0.0020885631 -0.018797122 0.73100001 1.7097631e-38
0.0034809443 -0.018797114 0.73100001 1.7652579e-38
0.0048733247 -0.018797129 0.73100001 1.8107462e-38
0.0062657162 -0.018797137 0.73100007 1.8475535e-38
0.007658097 -0.018797144 0.73100007 1.8843946e-38
0.0090504773 -0.018797144 0.73100007 1.8751746e-38
0.010442859 -0.018797122 0.73100007 1.8653457e-38
0.01183524 -0.018797152 0.73100007 1.8646287e-38
0.013227621 -0.018797129 0.73100007 1.864592e-38
0.014619994 -0.018797137 0.73100007 1.8735953e-38
0.016012384 -0.018797137 0.73100007 1.873775e-38
0.017404757 -0.018797137 0.73100007 1.9020073e-38
0.018797139 -0.018797114 0.73100007 1.9301338e-38
0.02018952 -0.018797144 0.73100007 1.9497581e-38
0.021611439 -0.018822849 0.73200011 1.9672651e-38
0.02300572 -0.018822841 0.73200011 1.8644531e-38
0.024466665 -0.018874265 0.73400003 1.7635725e-38
0.025864761 -0.018874265 0.73400003 1.745308e-38
0.027262857 -0.018874265 0.73400009 1.7179425e-38
0.028739057 -0.018925719 0.73600012 1.700729e-38
0.030140966 -0.018925719 0.73600012 1.6835449e-38
0.031542875 -0.018925704 0.73600012 1.6929789e-38
0.032989521 -0.018951416 0.73700005 1.6931594e-38
0.034393344 -0.018951416 0.73700011 1.499768e-38
0.03594286 -0.019028552 0.74000001 1.2982299e-38
0.037453339 -0.019079991 0.7420001 1.1144132e-38
0.038866673 -0.019079991 0.7420001 9.3106306e-39
0.040280003 -0.019079983 0.7420001 9.5868335e-39
0.041749533 -0.019105718 0.74300009 9.7715709e-39
0.04328097 -0.019157141 0.74500012 9.7726387e-39
0.044700015 -0.019157134 0.74500012 9.6800801e-39
-0.025066668 -0.017904773 0.75200009 1.4105553e-38
-0.023571433 -0.017857112 0.75000006 1.4115295e-38
-0.0220838 -0.017809518 0.74800009 1.50355e-38
-0.020659048 -0.01780951 0.74800009 1.5960293e-38
-0.019208578 -0.017785698 0.74700004 1.5204785e-38
-0.017785715 -0.017785706 0.7470001 1.4556861e-38
-0.016319035 -0.017738096 0.74500012 1.4452774e-38
-0.014859991 -0.01769048 0.74300003 1.4341205e-38
-0.013426655 -0.017666653 0.7420001 1.4080763e-38
-0.012013326 -0.017666645 0.7420001 1.3884854e-38
-0.010557142 -0.017595224 0.73900008 1.4349013e-38
-0.0091495244 -0.017595232 0.73900008 1.4799601e-38
-0.0077209566 -0.0175476 0.73700005 1.6004601e-38
-0.0063171368 -0.017547607 0.73700011 1.7285602e-38
-0.0049066567 -0.01752381 0.73600018 1.7566456e-38
-0.0035047585 -0.01752381 0.73600012 1.7837675e-38
-0.0020914217 -0.017428562 0.73200011 1.783518e-38
-0.00069619587 -0.017404757 0.73100007 1.7911583e-38
0.00069618539 -0.01740475 0.73100007 1.8015967e-38
0.0020885668 -0.017404743 0.73100007 1.8107071e-38
0.0034809466 -0.017404757 0.73100007 1.8106699e-38
0.0048733279 -0.01740475 0.73100007 1.8191738e-38
0.0062657096 -0.017404757 0.73100007 1.8562328e-38
0.0076580909 -0.01740475 0.73100001 1.8938997e-38
0.0090504708 -0.017404743 0.73100001 1.8655238e-38
0.010442852 -0.01740475 0.73100001 1.837902e-38
0.011835233 -0.01740475 0.73100001 1.8372208e-38
0.013227615 -0.017404743 0.73100001 1.8371115e-38
0.014619996 -0.01740475 0.73100001 1.8368586e-38
0.016012378 -0.01740475 0.73100001 1.8459352e-38
0.01740475 -0.017404735 0.73100001 1.8646975e-38
0.018797141 -0.017404743 0.73100001 1.8924293e-38
0.020189514 -0.017404735 0.73100001 1.9119462e-38
0.021611437 -0.017428562 0.73200011 1.9397847e-38
0.023005724 -0.017428555 0.73200011 1.8372957e-38
0.024466675 -0.017476179 0.73400009 1.7357356e-38
0.025935251 -0.01752381 0.73600012 1.7358403e-38
0.027337151 -0.01752381 0.73600012 1.7449201e-38
0.028739056 -0.017523818 0.73600012 1.7748063e-38
0.030140964 -0.017523795 0.73600012 1.8034685e-38
0.031585716 -0.017547607 0.73700011 1.8132613e-38
0.032989528 -0.017547615 0.73700005 1.8220512e-38
0.034486674 -0.017595232 0.73900008 1.5744192e-38
0.036039997 -0.017666653 0.7420001 1.3171693e-38
0.037453339 -0.01766666 0.7420001 1.1331723e-38
0.038866669 -0.01766666 0.7420001 9.4046002e-39
0.040334288 -0.017690472 0.74300003 9.6808102e-39
0.041749526 -0.017690465 0.74300003 9.9552335e-39
0.043280963 -0.017738096 0.74500012 9.6797186e-39
0.044580001 -0.017690465 0.74300003 9.404589e-39
-0.025066663 -0.016472384 0.75200009 1.6416181e-38
-0.023571428 -0.016428553 0.75000006 1.6868558e-38
-0.022083802 -0.016384758 0.74800009 1.5122264e-38
-0.020659052 -0.016384766 0.74800009 1.3352243e-38
-0.019208569 -0.016362846 0.7470001 1.2040325e-38
-0.017785713 -0.016362853 0.74700004 1.0671761e-38
-0.016319035 -0.016319036 0.74500012 1.2872943e-38
-0.01486 -0.016275242 0.74300009 1.5100326e-38
-0.013444754 -0.01627522 0.74300003 1.5583912e-38
-0.01201333 -0.016253322 0.7420001 1.6026929e-38
-0.010571425 -0.016209505 0.74000001 1.695639e-38
-0.0091495207 -0.016187616 0.73900008 1.7866862e-38
-0.0077419141 -0.016187608 0.73900008 1.8889261e-38
-0.006317141 -0.016143799 0.73700005 1.9796477e-38
-0.0049066595 -0.016121894 0.73600006 1.9613146e-38
-0.0035047506 -0.016121909 0.73600012 1.9333327e-38
-0.0020971466 -0.016078077 0.73400003 1.9141038e-38
-0.00069714629 -0.016034268 0.73200011 1.8955928e-38
0.00069618586 -0.016012371 0.73100001 1.9042378e-38
0.0020885598 -0.016012371 0.73100001 1.9043091e-38
0.0034809504 -0.016012378 0.73100007 1.8659602e-38
0.0048733321 -0.016012385 0.73100007 1.8204745e-38
0.0062657134 -0.016012385 0.73100007 1.8551654e-38
0.0076580946 -0.016012371 0.73100007 1.8939036e-38
0.0090504745 -0.016012371 0.73100007 1.8551198e-38
0.010442856 -0.016012378 0.73100007 1.8107109e-38
0.011835237 -0.016012378 0.73100007 1.8092065e-38
0.013227618 -0.016012371 0.73100007 1.8013126e-38
0.014619999 -0.016012371 0.73100007 1.8092029e-38
0.016012382 -0.016012371 0.73100007 1.819429e-38
0.017404756 -0.016012371 0.73100007 1.8367578e-38
0.018797144 -0.016012371 0.73100007 1.8476635e-38
0.020217154 -0.016034283 0.73200011 1.8749631e-38
0.021611428 -0.01603426 0.73200005 1.903304e-38
0.023068577 -0.01607807 0.73400003 1.8092093e-38
0.024466675 -0.016078085 0.73400009 1.7096227e-38
0.02593524 -0.016121909 0.73600012 1.735736e-38
0.027337149 -0.016121909 0.73600012 1.7660179e-38
0.028739057 -0.016121894 0.73600012 1.8409261e-38
0.030140966 -0.016121909 0.73600012 1.9153997e-38
0.031585723 -0.016143799 0.73700011 1.9344851e-38
0.033079047 -0.016187616 0.73900008 1.9523496e-38
0.034533337 -0.016209513 0.74000001 1.6494355e-38
0.036040004 -0.016253322 0.7420001 1.3357548e-38
0.037453335 -0.016253307 0.7420001 1.1422497e-38
0.038919047 -0.016275227 0.74300003 9.49717e-39
0.040334288 -0.016275235 0.74300003 9.7766128e-39
0.04186191 -0.016319044 0.74500012 1.0048163e-38
0.043397147 -0.016362846 0.7470001 9.5864664e-39
0.044819999 -0.016362846 0.74700004 9.1280288e-39
-0.025066663 -0.015040003 0.75200009 1.4662011e-38
-0.023634288 -0.015039995 0.75200009 1.4198145e-38
-0.022054289 -0.014940009 0.7470001 1.3257881e-38
-0.020631434 -0.014939979 0.74700004 1.2306472e-38
-0.019208569 -0.014939994 0.7470001 1.1667519e-38
-0.017785715 -0.014939979 0.74700004 1.1022214e-38
-0.016319033 -0.014900006 0.74500012 1.3166052e-38
-0.014860002 -0.014859982 0.74300003 1.5307357e-38
-0.013444762 -0.014860004 0.74300003 1.2728819e-38
-0.012013321 -0.014839984 0.7420001 1.0243888e-38
-0.010571438 -0.014799975 0.74000001 1.0976787e-38
-0.0091495318 -0.01478 0.73900008 1.1821963e-38
-0.0077419002 -0.014779992 0.73900008 1.3285236e-38
-0.0063342783 -0.014779985 0.73900008 1.4673885e-38
-0.0049133264 -0.014739983 0.73700005 1.5401031e-38
-0.0035095213 -0.01473999 0.73700011 1.6149672e-38
-0.0020971475 -0.014679983 0.73400003 1.6687019e-38
-0.00069713092 -0.014639996 0.73200011 1.7249153e-38
0.00069714373 -0.014639996 0.73200011 1.7694697e-38
0.0020914357 -0.014639996 0.73200011 1.8250379e-38
0.0034857173 -0.014639981 0.73200005 1.8420783e-38
0.0048800022 -0.014639996 0.73200011 1.8610205e-38
0.0062742941 -0.014639996 0.73200011 1.9336648e-38
0.0076685771 -0.014639996 0.73200011 2.0080921e-38
0.0090504671 -0.014619991 0.73100001 1.9792043e-38
0.010457142 -0.014639989 0.73200011 1.9518371e-38
0.011851436 -0.014639996 0.73200011 1.9421913e-38
0.013227611 -0.014619991 0.73100001 1.9425123e-38
0.014619992 -0.014619991 0.73100001 1.9235693e-38
0.016012374 -0.014619991 0.73100001 1.9143178e-38
0.017428577 -0.014639989 0.73200011 1.9786421e-38
0.018822869 -0.014639996 0.73200011 2.043607e-38
0.020217143 -0.014639989 0.73200011 2.0529325e-38
0.021611437 -0.014639989 0.73200011 2.0719104e-38
0.02306857 -0.014679983 0.73400003 1.9975462e-38
0.024466673 -0.014679991 0.73400009 1.9250803e-38
0.025935248 -0.01472 0.73600012 1.9334008e-38
0.027337158 -0.014719993 0.73600012 1.9445275e-38
0.0287781 -0.01473999 0.73700011 1.9808373e-38
0.030181909 -0.01473999 0.73700005 2.0276539e-38
0.031585719 -0.01473999 0.73700005 1.9811283e-38
0.033079054 -0.014779992 0.73900008 1.944177e-38
0.034533333 -0.014799982 0.74000001 1.6124195e-38
0.036040001 -0.01483997 0.7420001 1.2800471e-38
0.037453335 -0.014839977 0.7420001 1.1147003e-38
0.038919047 -0.014859997 0.74300003 9.4046339e-39
0.040334295 -0.014859989 0.74300009 9.6812096e-39
0.041749526 -0.014859997 0.74300003 9.95563e-39
0.043397147 -0.014939986 0.74700004 9.5868433e-39
0.044820003 -0.014939994 0.7470001 9.3110061e-39
-0.023634288 -0.013607621 0.75200009 1.1511895e-38
-0.02208381 -0.013535231 0.74800009 1.1404249e-38
-0.020631433 -0.013517119 0.74700004 1.1215168e-38
-0.019208569 -0.013517141 0.74700004 1.1300877e-38
-0.017785719 -0.013517134 0.7470001 1.1314564e-38
-0.016319042 -0.013480939 0.74500012 1.33698e-38
-0.014859996 -0.013444752 0.74300003 1.5389839e-38
-0.013444754 -0.013444752 0.74300003 9.8718352e-39
-0.012013326 -0.013426647 0.7420001 4.3459156e-39
-0.010571437 -0.013390467 0.74000001 5.0687558e-39
-0.0091495179 -0.013372369 0.73900008 5.7270466e-39
-0.0077419104 -0.013372369 0.73900008 7.6635023e-39
-0.0063342787 -0.013372384 0.73900008 9.5045142e-39
-0.0049133361 -0.013336182 0.73700005 1.1167236e-38
-0.0035095264 -0.013336174 0.73700005 1.2819916e-38
-0.0021028402 -0.013318092 0.73600018 1.4207495e-38
-0.00069905177 -0.013281882 0.73400003 1.548997e-38
0.00069905294 -0.013281889 0.73400009 1.6420172e-38
0.0020971391 -0.013281874 0.73400003 1.7329562e-38
0.0034952359 -0.013281882 0.73400003 1.8162902e-38
0.0048933397 -0.013281889 0.73400009 1.8985488e-38
0.0062742922 -0.013245702 0.73200011 2.0103311e-38
0.0076685748 -0.013245694 0.73200005 2.119201e-38
0.0090628592 -0.013245702 0.73200011 2.1018331e-38
0.010457152 -0.013245709 0.73200011 2.0822487e-38
0.011851433 -0.013245694 0.73200011 2.0836144e-38
0.013245725 -0.013245702 0.73200011 2.0729945e-38
0.01464 -0.013245694 0.73200011 2.0374068e-38
0.016034292 -0.013245709 0.73200011 1.9992399e-38
0.017428584 -0.013245702 0.73200011 2.1198123e-38
0.01882286 -0.013245694 0.73200011 2.2296187e-38
0.020272378 -0.013281889 0.73400009 2.23959e-38
0.021670481 -0.013281889 0.73400009 2.2387652e-38
0.023068568 -0.013281889 0.73400003 2.1932063e-38
0.024533341 -0.013318099 0.73600012 2.1373151e-38
0.025935244 -0.013318084 0.73600012 2.1282745e-38
0.027337153 -0.013318092 0.73600012 2.1192724e-38
0.028778095 -0.013336182 0.73700005 2.1286375e-38
0.030181913 -0.013336182 0.73700011 2.1285307e-38
0.031671438 -0.013372377 0.73900008 2.0364809e-38
0.03312381 -0.013390467 0.74000007 1.9348475e-38
0.034533326 -0.013390452 0.74000001 1.5852224e-38
0.036039993 -0.013426647 0.7420001 1.2250511e-38
0.037453339 -0.013426654 0.7420001 1.0777157e-38
0.038919047 -0.013444766 0.74300003 9.3110131e-39
0.040334288 -0.013444752 0.74300003 9.5879503e-39
0.041749533 -0.013444752 0.74300003 9.7708702e-39
0.04328097 -0.013480939 0.74500012 9.678285e-39
0.044700012 -0.013480939 0.74500006 9.4942932e-39
-0.025100004 -0.012191422 0.75300002 1.2801147e-38
-0.023634274 -0.012175247 0.75200009 1.1396323e-38
-0.022142863 -0.01214283 0.75000006 1.1588574e-38
-0.020659035 -0.012110479 0.74800009 1.1685425e-38
-0.01923427 -0.012110472 0.74800009 1.1309467e-38
-0.017785721 -0.012094274 0.7470001 1.103402e-38
-0.01631904 -0.012061901 0.74500012 1.2900564e-38
-0.014860003 -0.012029521 0.74300003 1.4744454e-38
-0.013444762 -0.012029521 0.74300009 9.5837338e-39
-0.01201333 -0.012013324 0.7420001 4.4129453e-39
-0.010571426 -0.011980943 0.74000007 5.611808e-39
-0.0091619082 -0.011980943 0.74000007 6.8943086e-39
-0.0077418969 -0.011964761 0.73900008 7.6480376e-39
-0.0063342899 -0.011964761 0.73900008 8.462e-39
-0.0049266685 -0.011964761 0.73900008 7.7366417e-39
-0.003509521 -0.011932373 0.73700005 6.9998418e-39
-0.002102857 -0.011916183 0.73600012 8.8459138e-39
-0.00070094841 -0.011916183 0.73600012 1.0776986e-38
0.00069905201 -0.011883795 0.73400009 1.3002577e-38
0.0020971484 -0.011883803 0.73400009 1.5290935e-38
0.0034952355 -0.011883795 0.73400003 1.3367056e-38
0.0048933397 -0.011883795 0.73400009 1.1442829e-38
0.0062914356 -0.011883803 0.73400009 1.1714404e-38
0.0076895221 -0.01188378 0.73400003 1.1994207e-38
0.0090628555 -0.0118514 0.73200005 1.1714027e-38
0.010485713 -0.01188378 0.73400003 1.1448216e-38
0.011851441 -0.011851415 0.73200011 1.0887167e-38
0.013245714 -0.01185143 0.73200011 1.0436948e-38
0.014640007 -0.011851422 0.73200011 1.1990608e-38
0.01603429 -0.011851415 0.73200011 1.3560072e-38
0.017428577 -0.01185143 0.73200011 1.7979307e-38
0.018822856 -0.011851415 0.73200005 2.2491427e-38
0.020272376 -0.011883788 0.73400003 2.2488542e-38
0.021670483 -0.011883795 0.73400009 2.2482797e-38
0.023068568 -0.011883788 0.73400003 2.1562643e-38
0.024533341 -0.011916175 0.73600012 2.0731108e-38
0.025935249 -0.01191619 0.73600012 2.0733626e-38
0.027337158 -0.01191619 0.73600012 2.0827597e-38
0.028778102 -0.011932358 0.73700005 2.0455575e-38
0.030263809 -0.011964753 0.73900008 2.00911e-38
0.031671431 -0.011964753 0.73900008 1.8978309e-38
0.033123806 -0.011980936 0.74000001 1.7878005e-38
0.034533337 -0.011980936 0.74000007 1.4552843e-38
0.036040004 -0.012013324 0.7420001 1.1316708e-38
0.037453335 -0.012013316 0.7420001 1.0499146e-38
0.038919054 -0.012029514 0.74300003 9.7705591e-39
0.040334284 -0.012029514 0.74300003 9.7705563e-39
0.041749533 -0.012029529 0.74300003 9.8616183e-39
0.043280963 -0.012061886 0.74500006 9.6775311e-39
0.044819996 -0.012094267 0.74700004 9.4924757e-39
-0.025100008 -0.010757141 0.75300002 1.2802609e-38
-0.023665722 -0.010757141 0.75300008 1.1318494e-38
-0.022142857 -0.01071427 0.75000012 1.1775838e-38
-0.020714279 -0.01071427 0.75000006 1.2142457e-38
-0.019234288 -0.010685712 0.74800009 1.1401671e-38
-0.017785721 -0.010671414 0.74700004 1.0678521e-38
-0.016319036 -0.010642841 0.74500012 1.2453583e-38
-0.014859996 -0.010614283 0.74300003 1.4098378e-38
-0.013444765 -0.010614261 0.74300003 9.3060806e-39
-0.012029525 -0.010614276 0.74300003 4.4215717e-39
-0.01059999 -0.010599978 0.7420001 6.2543286e-39
-0.0091619072 -0.010571405 0.74000007 8.0146523e-39
-0.0077419071 -0.010557137 0.73900008 7.7556727e-39
-0.0063342857 -0.010557137 0.73900008 7.3728996e-39
-0.004926654 -0.010557137 0.73900008 4.3168527e-39
-0.0035095159 -0.010528572 0.73700011 1.2091748e-39
-0.0021028491 -0.010514274 0.73600012 3.5822121e-39
-0.00070094003 -0.010514289 0.73600012 6.0072768e-39
0.00070096168 -0.010514297 0.73600012 9.61329e-39
0.0021028593 -0.010514282 0.73600012 1.3183015e-38
0.0035047685 -0.010514289 0.73600012 8.570773e-39
0.0049066767 -0.010514297 0.73600012 3.8875158e-39
0.0062914351 -0.010485701 0.73400009 3.3171257e-39
0.0076895221 -0.010485694 0.73400003 2.7779439e-39
0.0090876175 -0.010485694 0.73400009 2.3948107e-39
0.010485714 -0.010485701 0.73400009 1.9499839e-39
0.011883807 -0.010485694 0.73400003 1.0108252e-39
0.013245723 -0.010457136 0.73200011 1.0967823e-40
0.014640006 -0.010457136 0.73200011 3.5904476e-39
0.01603429 -0.010457143 0.73200011 7.0160183e-39
0.017428573 -0.010457128 0.73200011 1.4850409e-38
0.01887428 -0.010485694 0.73400003 2.2576419e-38
0.020272378 -0.010485701 0.73400003 2.2583584e-38
0.021670481 -0.010485701 0.73400009 2.2480258e-38
0.023131434 -0.010514274 0.73600012 2.128782e-38
0.024533343 -0.010514282 0.73600012 2.008142e-38
0.025935251 -0.010514289 0.73600012 2.0276946e-38
0.027337149 -0.010514282 0.73600006 2.0352983e-38
0.028778106 -0.010528572 0.73700011 1.9616851e-38
0.030304756 -0.010571413 0.74000001 1.8783851e-38
0.031714279 -0.010571413 0.74000001 1.7578488e-38
0.033123806 -0.010571413 0.74000001 1.6301014e-38
0.03462667 -0.010599978 0.7420001 1.3348616e-38
0.036040004 -0.010599986 0.7420001 1.0407329e-38
0.037503812 -0.010614283 0.74300003 1.0315095e-38
0.038919054 -0.010614283 0.74300009 1.0136452e-38
0.040442869 -0.010642849 0.74500012 1.0046057e-38
0.041974284 -0.010671407 0.74700004 9.8627183e-39
0.043455243 -0.010685712 0.74800009 9.6783047e-39
0.044880003 -0.010685697 0.74800009 9.4024577e-39
-0.023665719 -0.0093228444 0.75300002 1.1870598e-38
-0.022201911 -0.0093104765 0.75200009 1.2053143e-38
-0.020714289 -0.0092856884 0.75000006 1.223753e-38
-0.019234277 -0.009260945 0.74800009 1.1680057e-38
-0.017785709 -0.0092485696 0.7470001 1.1130529e-38
-0.016319035 -0.0092238113 0.74500012 1.2719404e-38
-0.014899992 -0.009223789 0.74500012 1.4287433e-38
-0.013444759 -0.0091990456 0.74300003 8.5681722e-39
-0.012029518 -0.009199053 0.74300003 2.9475585e-39
-0.010599996 -0.0091866553 0.7420001 6.0832426e-39
-0.0091619063 -0.0091618896 0.74000001 9.2261141e-39
-0.0077419034 -0.0091495067 0.73900008 9.7818074e-39
-0.0063342866 -0.0091495067 0.73900008 1.0334247e-38
-0.0049266652 -0.0091495141 0.73900008 8.7619129e-39
-0.0035190438 -0.0091495141 0.73900002 7.2943457e-39
-0.0021057017 -0.0091247559 0.73700011 8.2116314e-39
-0.00070094655 -0.0091123879 0.73600012 9.1479763e-39
0.00070095889 -0.009112373 0.73600006 1.1080162e-38
0.0021028602 -0.0091123879 0.73600012 1.3011893e-38
0.0035047685 -0.0091123879 0.73600012 1.0788425e-38
0.0049066776 -0.0091123953 0.73600012 8.5656947e-39
0.0063085756 -0.0091123655 0.73600012 8.4749102e-39
0.0076895203 -0.0090875998 0.73400003 8.2822667e-39
0.0090876156 -0.0090876073 0.73400003 8.2887183e-39
0.010485714 -0.0090876073 0.73400009 8.2818967e-39
0.011883807 -0.0090875998 0.73400003 5.2495261e-39
0.01324572 -0.009062849 0.73200011 2.2975059e-39
0.014640006 -0.0090628415 0.73200011 4.7817152e-39
0.016078096 -0.0090875998 0.73400003 7.3592664e-39
0.017428581 -0.009062849 0.73200011 1.3819737e-38
0.018874289 -0.0090875998 0.73400009 2.0369469e-38
0.020272376 -0.0090875998 0.73400003 2.0353322e-38
0.021670479 -0.0090875924 0.73400009 2.0444782e-38
0.023131434 -0.0091123804 0.73600012 1.9979489e-38
0.024533343 -0.0091123804 0.73600012 1.9590291e-38
0.025935253 -0.0091123879 0.73600012 1.9880531e-38
0.027337153 -0.009112373 0.73600012 2.0230644e-38
0.02885619 -0.0091495141 0.73900008 1.97876e-38
0.030304765 -0.0091618896 0.74000007 1.9317618e-38
0.031714287 -0.009161897 0.74000007 1.8508274e-38
0.033213347 -0.0091866553 0.7420001 1.7683921e-38
0.034626666 -0.0091866478 0.7420001 1.4277412e-38
0.036088582 -0.0091990456 0.74300009 1.0873331e-38
0.037503812 -0.0091990456 0.74300003 1.0411572e-38
0.039128572 -0.0092485547 0.74700004 9.9552783e-39
0.040551431 -0.0092485547 0.7470001 9.8638142e-39
0.04203048 -0.0092609525 0.74800009 9.7727017e-39
0.043455239 -0.009260945 0.74800009 9.7716311e-39
0.044879999 -0.0092609376 0.74800009 9.6797816e-39
-0.02372857 -0.0079095215 0.75500011 1.2333729e-38
-0.022290474 -0.007909514 0.75500011 1.2328656e-38
-0.020852374 -0.0079095066 0.75500011 1.2326145e-38
-0.01928572 -0.0078571141 0.75000006 1.1949833e-38
-0.017785709 -0.0078257024 0.7470001 1.1596894e-38
-0.016319044 -0.0078047514 0.74500012 1.3097166e-38
-0.014899992 -0.0078047588 0.74500012 1.4462859e-38
-0.013444767 -0.0077837929 0.74300003 7.9149149e-39
-0.012029511 -0.0077838004 0.74300009 1.3917276e-39
-0.010599987 -0.0077733248 0.7420001 5.9053015e-39
-0.0091866562 -0.0077733248 0.7420001 1.0422501e-38
-0.0077523864 -0.0077523664 0.74000001 1.1811196e-38
-0.0063428544 -0.0077523664 0.74000001 1.3188007e-38
-0.0049266662 -0.0077418983 0.73900008 1.3286295e-38
-0.0035190445 -0.0077418983 0.73900008 1.327804e-38
-0.0021057059 -0.0077209249 0.73700005 1.2730251e-38
-0.00070190115 -0.0077209473 0.73700011 1.217856e-38
0.00070095982 -0.0077104792 0.73600012 1.2454823e-38
0.002105718 -0.0077209398 0.73700005 1.2733895e-38
0.0035095271 -0.0077209398 0.73700005 1.3005793e-38
0.0049066688 -0.0077104643 0.73600006 1.3273753e-38
0.006308577 -0.0077104717 0.73600012 1.3551041e-38
0.0076895203 -0.0076894984 0.73400003 1.3822959e-38
0.0090876175 -0.0076894984 0.73400003 1.4287517e-38
0.010485713 -0.0076895133 0.73400009 1.4647654e-38
0.011883806 -0.0076894984 0.73400003 9.5909323e-39
0.013281903 -0.0076894984 0.73400003 4.4208542e-39
0.014640004 -0.0076685697 0.73200011 6.0627472e-39
0.016078096 -0.0076894909 0.73400003 7.6365399e-39
0.017476192 -0.0076895058 0.73400003 1.2882676e-38
0.018874288 -0.0076895058 0.73400009 1.8035506e-38
0.020272376 -0.0076895058 0.73400003 1.8198728e-38
0.021729534 -0.0077104717 0.73600012 1.8319281e-38
0.023131434 -0.0077104717 0.73600012 1.8778839e-38
0.024533343 -0.0077104867 0.73600012 1.9152648e-38
0.025970485 -0.0077209473 0.73700011 1.9608249e-38
0.027374297 -0.0077209473 0.73700005 2.0075318e-38
0.028895237 -0.0077523664 0.74000001 1.9984918e-38
0.03030476 -0.0077523664 0.74000001 1.9897013e-38
0.031800013 -0.0077733248 0.7420001 1.9544365e-38
0.033213336 -0.0077733174 0.74200004 1.9071532e-38
0.034626678 -0.0077733174 0.7420001 1.5203297e-38
0.036088571 -0.0077837929 0.74300003 1.1334281e-38
0.03750382 -0.0077838004 0.74300003 1.0594845e-38
0.039128575 -0.0078257099 0.7470001 9.7708632e-39
0.040605728 -0.0078361928 0.74800009 9.773401e-39
0.042030487 -0.0078361779 0.74800009 9.6804879e-39
0.043455243 -0.0078361854 0.74800009 9.8641589e-39
0.045000006 -0.0078571364 0.75000012 9.9552573e-39
0.04642858 -0.0078571215 0.75000012 9.8637623e-39
-0.023728564 -0.0064714253 0.75500011 1.2511308e-38
-0.022290466 -0.0064714253 0.75500011 1.2419422e-38
-0.02079715 -0.0064542815 0.75300008 1.2237188e-38
-0.019337147 -0.0064457133 0.75200009 1.1954507e-38
-0.017809508 -0.0064114332 0.74800009 1.1587938e-38
-0.016319042 -0.0063857138 0.74500012 1.2902748e-38
-0.014900001 -0.0063857138 0.74500006 1.4194533e-38
-0.013480948 -0.0063857064 0.74500012 7.5486435e-39
-0.012029519 -0.00636857 0.74300009 8.2994424e-40
-0.010614288 -0.0063685626 0.74300003 5.8116612e-39
-0.0091866609 -0.006359987 0.7420001 1.0798109e-38
-0.0077523859 -0.0063428283 0.74000001 1.1442817e-38
-0.0063428683 -0.0063428357 0.74000001 1.217786e-38
-0.0049333358 -0.0063428432 0.74000001 1.1901994e-38
-0.003519055 -0.0063342676 0.73900008 1.162755e-38
-0.0021057157 -0.0063171387 0.73700005 1.4107811e-38
-0.00070190628 -0.0063171312 0.73700005 1.6584883e-38
0.00070191396 -0.0063171461 0.73700011 1.7240311e-38
0.0021057236 -0.0063171461 0.73700011 1.7881008e-38
0.0035047783 -0.0063085631 0.73600012 1.6321241e-38
0.0049066688 -0.0063085631 0.73600012 1.484972e-38
0.006308578 -0.0063085631 0.73600012 1.4480583e-38
0.0077104862 -0.006308578 0.73600012 1.4211179e-38
0.0091123944 -0.0063085705 0.73600018 1.4484536e-38
0.010514292 -0.0063085705 0.73600012 1.485864e-38
0.011916202 -0.0063085705 0.73600012 9.1328576e-39
0.013281903 -0.0062914044 0.73400003 3.4056541e-39
0.014720001 -0.0063085705 0.73600012 5.8866068e-39
0.016078103 -0.0062914193 0.73400009 8.46626e-39
0.01752382 -0.0063085631 0.73600012 1.3431125e-38
0.018925728 -0.0063085705 0.73600012 1.8486742e-38
0.020327626 -0.0063085631 0.73600012 1.9411554e-38
0.021729534 -0.0063085705 0.73600012 2.0354719e-38
0.023162862 -0.0063171387 0.73700011 2.0823997e-38
0.024566673 -0.0063171387 0.73700005 2.1296085e-38
0.026040949 -0.006334275 0.73900008 2.1382894e-38
0.027485704 -0.0063428283 0.74000001 2.1486936e-38
0.028895235 -0.0063428432 0.74000001 2.0550296e-38
0.030386677 -0.006359987 0.7420001 1.9730605e-38
