# .PCD v0.7 - Point Cloud Data file format
VERSION 0.7
FIELDS x y z rgb
SIZE 4 4 4 4
TYPE F F F F
COUNT 1 1 1 1
WIDTH 971
HEIGHT 1
VIEWPOINT 0 0 0 1 0 0 0
POINTS 971
DATA ascii
0.0092857629 0.039285719 0.75000006 2.341769e-38
0.01071431 0.039285723 0.75000006 2.341769e-38
0.012142899 0.039285723 0.75000012 2.341769e-38
0.013571449 0.039285719 0.75000006 2.3417659e-38
0.015000036 0.039285727 0.75000012 2.155473e-38
0.016428584 0.039285731 0.75000006 1.9668791e-38
0.017857172 0.039285727 0.75000012 1.8194318e-38
0.019337159 0.039390478 0.75200009 1.672566e-38
0.020769518 0.039390482 0.75200003 1.6819281e-38
0.022290453 0.039547622 0.75500005 1.6827554e-38
0.023728579 0.039547618 0.75500011 1.683188e-38
0.02516667 0.039547615 0.75500005 1.6742882e-38
0.026639998 0.039600011 0.75600004 1.5091245e-38
0.028154297 0.039704785 0.75800002 1.3439711e-38
0.029715238 0.039861914 0.76100004 1.4371767e-38
0.031164791 0.039861917 0.76100004 1.5312406e-38
0.032700032 0.039966665 0.76300007 1.6511689e-38
0.03415335 0.039966676 0.76300001 1.7706641e-38
0.035699997 0.040071439 0.76500005 1.7429353e-38
0.037254319 0.040176198 0.76700008 1.7152765e-38
0.038765728 0.040228583 0.76800001 1.7245311e-38
0.04022859 0.040228587 0.76800001 1.7338585e-38
0.041691452 0.040228598 0.76800001 1.7062007e-38
-0.025899999 0.042180005 0.77700007 9.1310093e-39
-0.024294272 0.041962858 0.77300012 7.1995814e-39
-0.022733293 0.041800007 0.7700001 8.3026724e-39
-0.021211401 0.041691437 0.76800007 9.3154174e-39
-0.019748539 0.041691426 0.76800007 7.9386473e-39
-0.01821428 0.041528597 0.76500005 6.5564821e-39
-0.016757134 0.041528583 0.76500005 1.2990737e-38
-0.015259976 0.04141999 0.76300007 1.9454396e-38
-0.013770474 0.041311447 0.76100004 2.1121803e-38
-0.01232096 0.041311454 0.76100004 2.267868e-38
-0.010828566 0.041148577 0.75800002 2.1474037e-38
-0.0093847457 0.041148592 0.75800008 2.0283778e-38
-0.0079199774 0.041039996 0.75600004 2.1486984e-38
-0.0064714449 0.040985726 0.75500005 2.2678696e-38
-0.0050199758 0.040877156 0.75300002 2.3050345e-38
-0.0035856569 0.040877149 0.75300008 2.3324054e-38
-0.0021428091 0.040714294 0.75000012 2.3417679e-38
-0.00071425899 0.040714305 0.75000006 2.3416967e-38
0.00071432837 0.04071429 0.75000012 2.341769e-38
0.0021428766 0.040714294 0.75000006 2.341769e-38
0.0035714658 0.040714297 0.75000012 2.341769e-38
0.0050000139 0.040714294 0.75000006 2.341769e-38
0.0064286254 0.040714286 0.75000012 2.341769e-38
0.0078571727 0.040714312 0.75000006 2.341769e-38
0.009285761 0.04071429 0.75000012 2.341769e-38
0.01071431 0.040714301 0.75000006 2.341769e-38
0.012142897 0.040714301 0.75000012 2.341769e-38
0.013571447 0.040714301 0.75000006 2.3414069e-38
0.015000034 0.040714294 0.75000012 2.1198504e-38
0.016428607 0.040714305 0.75000006 1.8850875e-38
0.017857194 0.040714294 0.75000012 1.7729036e-38
0.019337162 0.040822856 0.75200003 1.6540914e-38
0.020769559 0.04082286 0.75200009 1.6456255e-38
0.022231456 0.04087716 0.75300008 1.6277615e-38
0.023728596 0.040985718 0.75500005 1.6192962e-38
0.025166687 0.040985715 0.75500005 1.6009992e-38
0.026640004 0.041040018 0.75600004 1.4448414e-38
0.028154325 0.041148584 0.75800008 1.2891576e-38
0.02971524 0.041311447 0.76100004 1.4188454e-38
0.03124669 0.041420009 0.76300001 1.5492848e-38
0.032700032 0.041419987 0.76300007 1.6515638e-38
0.03415335 0.041420005 0.76300007 1.7522248e-38
0.035793364 0.041637141 0.76700008 1.724388e-38
0.037302881 0.041691426 0.76800001 1.6876537e-38
0.038765743 0.041691434 0.76800001 1.6876893e-38
0.040333364 0.041800015 0.77000004 1.6784341e-38
-0.025900006 0.043660015 0.77700001 9.4068647e-39
-0.02429428 0.043435246 0.77300006 8.302685e-39
-0.022733297 0.043266673 0.7700001 8.7636533e-39
-0.02126665 0.043266665 0.7700001 9.3161349e-39
-0.019722825 0.043098088 0.76700008 9.1296277e-39
-0.0182143 0.042985737 0.76500005 8.9363143e-39
-0.016757132 0.042985737 0.76500005 1.4010268e-38
-0.015259957 0.042873334 0.76300007 1.91893e-38
-0.013770472 0.042760968 0.76100004 2.0844502e-38
-0.01232096 0.042760979 0.76100004 2.258826e-38
-0.010857132 0.042704761 0.76000011 1.9538993e-38
-0.0093847588 0.042592391 0.75800002 1.6500561e-38
-0.0079199933 0.042480011 0.7560001 1.7888888e-38
-0.006471429 0.042423815 0.75500005 1.9362208e-38
-0.0050333412 0.042423815 0.75500005 1.9551265e-38
-0.0035952514 0.042423811 0.75500005 1.9829274e-38
-0.0021428464 0.042142879 0.75000006 2.0006838e-38
-0.00071426085 0.042142868 0.75000012 2.0108731e-38
0.00071428926 0.042142872 0.75000006 2.1672098e-38
0.0021428766 0.042142872 0.75000012 2.3325854e-38
0.0035714491 0.042142875 0.75000006 2.157811e-38
0.0050000343 0.042142864 0.75000006 1.9836106e-38
0.0064285845 0.042142872 0.75000006 1.9646336e-38
0.0078571727 0.042142864 0.75000006 1.9560599e-38
0.009285721 0.042142879 0.75000006 2.1488427e-38
0.010714308 0.042142861 0.75000012 2.341769e-38
0.012142881 0.042142879 0.75000006 2.341769e-38
0.013571469 0.042142872 0.75000006 2.3417654e-38
0.015000016 0.042142883 0.75000006 2.0353684e-38
0.016428605 0.042142872 0.75000006 1.7173795e-38
0.017857155 0.042142872 0.75000006 1.6074914e-38
0.019337144 0.042255245 0.75200003 1.5069397e-38
0.02076954 0.042255234 0.75200009 1.4984386e-38
0.022290459 0.042423811 0.75500005 1.499048e-38
0.023728549 0.042423822 0.75500005 1.4814337e-38
0.025166675 0.042423796 0.75500011 1.4726449e-38
0.026640026 0.042479999 0.7560001 1.3531152e-38
0.028154287 0.042592391 0.75800002 1.2427742e-38
0.029715255 0.042760961 0.76100004 1.4006574e-38
0.03124669 0.042873323 0.76300007 1.5679389e-38
0.032700013 0.04287333 0.76300007 1.6511693e-38
0.03433241 0.043098092 0.76700008 1.7429333e-38
0.035793386 0.043098088 0.76700008 1.7060559e-38
0.037302896 0.043154292 0.76800007 1.6692144e-38
0.038765755 0.043154296 0.76800001 1.6507398e-38
-0.024294296 0.044907629 0.77300006 9.3161209e-39
-0.022733325 0.044733338 0.7700001 9.316488e-39
-0.021266656 0.044733342 0.77000004 9.2250379e-39
-0.019748552 0.044617157 0.76800001 1.0235256e-38
-0.018214261 0.044442866 0.76500005 1.125014e-38
-0.016757131 0.044442873 0.76500005 1.5108336e-38
-0.015259976 0.044326678 0.76300007 1.8905896e-38
-0.013770474 0.044210497 0.76100004 2.0662625e-38
-0.012320945 0.044210494 0.76100004 2.2394898e-38
-0.010857124 0.044152386 0.76000011 1.7592859e-38
-0.0093847541 0.044036198 0.75800002 1.2732771e-38
-0.0079199867 0.04392001 0.75600004 1.4388699e-38
-0.0064799758 0.043920007 0.75600004 1.5958529e-38
-0.0050333487 0.043861907 0.75500005 1.6147239e-38
-0.0035952607 0.043861914 0.75500005 1.6323705e-38
-0.0021485647 0.043687619 0.75200003 1.657945e-38
-0.0007142385 0.043571442 0.75000006 1.6791143e-38
0.00071618916 0.043687619 0.75200003 2.0019777e-38
0.0021485838 0.043687616 0.75200009 2.3139298e-38
0.0035809411 0.043687623 0.75200003 1.9640207e-38
0.0050133392 0.04368763 0.75200009 1.6144713e-38
0.0064285826 0.043571439 0.75000006 1.5954938e-38
0.0078781135 0.043687634 0.75200003 1.5688419e-38
0.0093105081 0.043687612 0.75200009 1.955701e-38
0.010742867 0.04368763 0.75200003 2.3416971e-38
0.012142879 0.043571435 0.75000006 2.341769e-38
0.013571467 0.043571446 0.75000012 2.3410838e-38
0.015000015 0.043571431 0.75000006 1.9532904e-38
0.016472371 0.04368763 0.75200003 1.5536535e-38
0.01790477 0.043687623 0.75200009 1.4510471e-38
0.019337164 0.043687616 0.75200009 1.3507098e-38
0.020797178 0.043745708 0.75300008 1.3604674e-38
0.022290476 0.043861907 0.75500005 1.3613295e-38
0.023728564 0.043861922 0.75500005 1.3531515e-38
0.02516669 0.043861903 0.75500005 1.3348558e-38
0.026640031 0.043920003 0.7560001 1.2704987e-38
0.028154317 0.044036202 0.75800008 1.1974304e-38
0.029715253 0.044210486 0.76100004 1.3914384e-38
0.031246709 0.044326659 0.76300007 1.5768358e-38
0.032700032 0.044326667 0.76300007 1.6514206e-38
0.034332432 0.044559039 0.76700008 1.7244938e-38
0.035793368 0.044559043 0.76700008 1.6876513e-38
0.037302908 0.044617154 0.76800007 1.6508458e-38
0.038765769 0.044617146 0.76800001 1.6229725e-38
-0.025833309 0.046500016 0.77500004 9.5927035e-39
-0.024294291 0.046380006 0.77300006 9.3172153e-39
-0.022792354 0.046319999 0.77200007 9.2250379e-39
-0.021266662 0.046200007 0.77000004 9.1346583e-39
-0.019722819 0.046019994 0.76700008 1.1624282e-38
-0.018214259 0.045900021 0.76500005 1.4118207e-38
-0.016757153 0.045900021 0.76500005 1.7427889e-38
-0.015259979 0.045779996 0.76300007 2.0754438e-38
-0.013806657 0.045780003 0.76300007 2.1303321e-38
-0.012320947 0.045660019 0.76100004 2.1847825e-38
-0.010857115 0.045599997 0.76000011 1.7786922e-38
-0.0093847299 0.045480005 0.75800008 1.3745091e-38
-0.0079409471 0.045480013 0.75800002 1.5034381e-38
-0.0064799916 0.045360006 0.7560001 1.6323694e-38
-0.0050399806 0.045359999 0.7560001 1.6325874e-38
-0.0035952448 0.045300014 0.75500005 1.6411917e-38
-0.0021513996 0.045180004 0.75300008 1.7143317e-38
-0.00071709766 0.045180012 0.75300002 1.7895651e-38
0.00071620592 0.045119997 0.75200009 2.056792e-38
0.0021485875 0.045120008 0.75200003 2.3233988e-38
0.0035809821 0.045119997 0.75200009 1.9728423e-38
0.0050133392 0.045120005 0.75200003 1.6218575e-38
0.0064457366 0.045120001 0.75200009 1.585732e-38
0.007878093 0.045120005 0.75200003 1.5578626e-38
0.0093104886 0.045120001 0.75200009 1.9550909e-38
0.010742846 0.045120016 0.75200003 2.3417689e-38
0.012142877 0.045000017 0.75000012 2.341769e-38
0.013607636 0.045120008 0.75200009 2.3417654e-38
0.015039995 0.045119997 0.75200009 1.8236085e-38
0.01647239 0.045120008 0.75200009 1.3041186e-38
0.01790477 0.045120012 0.75200003 1.2491871e-38
0.019362893 0.045180004 0.75300002 1.1945516e-38
0.020797212 0.045180008 0.75300008 1.1765066e-38
0.022290468 0.045300003 0.75500005 1.1499633e-38
0.023728555 0.045300003 0.75500005 1.1966013e-38
0.025200002 0.045360006 0.75600004 1.2339802e-38
0.026640015 0.045360003 0.7560001 1.1512197e-38
0.028228588 0.045600001 0.76000011 1.077829e-38
0.029715253 0.045660019 0.76100004 1.3274051e-38
0.031246692 0.045780007 0.76300001 1.5863783e-38
0.032785743 0.04590001 0.76500005 1.6234396e-38
0.034332417 0.046019994 0.76700008 1.6690329e-38
0.035700019 0.045900017 0.76500005 1.8252235e-38
0.037302881 0.046080012 0.76800001 1.9816672e-38
0.038866702 0.046200003 0.7700001 1.9728428e-38
-0.025833342 0.047976203 0.77500004 9.4093955e-39
-0.024357133 0.047976196 0.77500004 9.3150671e-39
-0.022821881 0.047852386 0.77300006 9.1321318e-39
-0.021266628 0.047666665 0.7700001 8.9542327e-39
-0.019799981 0.047666665 0.7700001 1.2916825e-38
-0.018214282 0.047357157 0.76500005 1.6875449e-38
-0.016757149 0.047357164 0.76500005 1.9729894e-38
-0.015299982 0.047357161 0.76500005 2.2587571e-38
-0.013806637 0.047233336 0.76300007 2.1948322e-38
-0.012320946 0.047109548 0.76100004 2.1290354e-38
-0.010871395 0.047109544 0.76100004 1.8053817e-38
-0.0094095003 0.047047619 0.76000011 1.4755282e-38
-0.0079409434 0.046923816 0.75800002 1.5679385e-38
-0.0064799869 0.046800006 0.75600004 1.6599922e-38
-0.0050399741 0.046800002 0.75600004 1.6512062e-38
-0.0035999629 0.046799999 0.7560001 1.6412647e-38
-0.002151368 0.046614289 0.75300008 1.7686818e-38
-0.00071708648 0.046614293 0.75300008 1.8995893e-38
0.00071621151 0.04655239 0.75200009 2.1121803e-38
0.002148567 0.046552375 0.75200003 2.3230402e-38
0.0035809653 0.04655239 0.75200009 1.9729503e-38
0.0050200354 0.046614289 0.75300008 1.6228628e-38
0.0064457171 0.046552386 0.75200009 1.5860563e-38
0.0078781117 0.046552382 0.75200009 1.5495766e-38
0.009310469 0.046552382 0.75200009 1.9465892e-38
0.010742865 0.046552379 0.75200009 2.3416971e-38
0.012175245 0.04655239 0.75200003 2.341769e-38
0.013607641 0.046552382 0.75200009 2.3408674e-38
0.015039997 0.046552386 0.75200003 1.7044353e-38
0.016472396 0.046552379 0.75200009 1.0575225e-38
0.017928623 0.046614286 0.75300008 1.0469652e-38
0.0193629 0.046614297 0.75300008 1.0381046e-38
0.020797182 0.046614286 0.75300008 9.91864e-39
0.022290483 0.046738099 0.75500005 9.3856141e-39
0.023728572 0.046738103 0.75500005 1.0400877e-38
0.025200007 0.046800006 0.75600004 1.1329994e-38
0.026710488 0.046923827 0.75800002 1.0409847e-38
0.028228598 0.047047626 0.76000005 9.5008652e-39
0.029715229 0.047109541 0.76100004 1.2722687e-38
0.031246688 0.047233324 0.76300007 1.5860559e-38
0.032785725 0.047357161 0.76500005 1.5960327e-38
0.034332413 0.047480952 0.76700008 1.6047855e-38
0.035793353 0.047480959 0.76700008 1.9625132e-38
0.03725433 0.047480945 0.76700008 2.313067e-38
0.038866695 0.047666673 0.7700001 2.3325826e-38
-0.025833376 0.049452394 0.77500004 9.0391864e-39
-0.024357166 0.049452398 0.77500004 8.5753651e-39
-0.022821875 0.049324773 0.77300006 8.4867764e-39
-0.021321883 0.049260978 0.77200001 8.4907687e-39
-0.019799985 0.049133345 0.7700001 1.1811241e-38
-0.018261898 0.048941903 0.76700008 1.5134903e-38
-0.016800923 0.048941899 0.76700008 1.890734e-38
-0.01529998 0.0488143 0.76500005 2.2774839e-38
-0.013806641 0.048686653 0.76300007 2.1669228e-38
-0.012353318 0.048686672 0.76300007 2.0647504e-38
-0.010871418 0.048559066 0.76100004 1.7693646e-38
-0.0094094928 0.048495248 0.76000011 1.4756717e-38
-0.0079409163 0.048367631 0.75800008 1.5585041e-38
-0.0064971363 0.048367638 0.75800002 1.6506656e-38
-0.0050399927 0.048239999 0.7560001 1.6418078e-38
-0.0035999788 0.048239999 0.7560001 1.632477e-38
-0.0021513959 0.048048574 0.75300008 1.7882347e-38
-0.00071711629 0.048048574 0.75300008 1.9462256e-38
0.00071619288 0.04798476 0.75200009 2.1395874e-38
0.002151469 0.048048582 0.75300002 2.3233992e-38
0.0035857505 0.048048578 0.75300002 1.9637313e-38
0.0050200671 0.048048571 0.75300008 1.6136442e-38
0.0064543476 0.048048571 0.75300008 1.5858065e-38
0.0078781163 0.047984757 0.75200009 1.5577206e-38
0.0093104737 0.047984775 0.75200003 1.9551272e-38
0.010742868 0.047984771 0.75200003 2.341769e-38
0.012175264 0.047984764 0.75200009 2.341769e-38
0.013607623 0.047984771 0.75200003 2.3417631e-38
0.015040018 0.047984768 0.75200009 1.9436359e-38
0.016472375 0.047984768 0.75200003 1.5428841e-38
0.017928593 0.048048586 0.75300002 1.4713052e-38
0.019362874 0.048048571 0.75300002 1.3965104e-38
0.020797193 0.048048571 0.75300008 1.3984841e-38
0.022290472 0.048176199 0.75500005 1.4079619e-38
0.023728563 0.048176199 0.75500005 1.4737965e-38
0.025200032 0.048240006 0.7560001 1.5474812e-38
0.026640005 0.048239999 0.75600004 1.3640983e-38
0.028228583 0.048495248 0.76000011 1.1898295e-38
0.029793346 0.048686665 0.76300007 1.4015566e-38
0.031246707 0.048686661 0.76300007 1.6140734e-38
0.032785725 0.048814304 0.76500005 1.6325878e-38
0.034332398 0.048941903 0.76700008 1.6599242e-38
0.035793375 0.048941907 0.76700008 1.8808683e-38
0.037302885 0.049005717 0.76800001 2.1029961e-38
0.038866695 0.049133334 0.7700001 2.2223829e-38
-0.02282187 0.050797146 0.77300006 7.932511e-39
-0.021349529 0.050797157 0.77300006 7.9375655e-39
-0.019851414 0.050731454 0.77200001 1.0609795e-38
-0.018285684 0.050468575 0.76800007 1.3287766e-38
-0.016800899 0.050402857 0.76700008 1.8081182e-38
-0.015300002 0.050271451 0.76500005 2.2864164e-38
-0.013842834 0.050271444 0.76500005 2.1489145e-38
-0.012353299 0.050139993 0.76300007 2.0001415e-38
-0.010899977 0.050140001 0.76300001 1.7316598e-38
-0.0094219055 0.050008584 0.76100004 1.466128e-38
-0.0079618795 0.049942851 0.76000011 1.558145e-38
-0.0064971317 0.049811441 0.75800008 1.641517e-38
-0.0050399862 0.049680013 0.75600004 1.6328742e-38
-0.0035999722 0.049679995 0.7560001 1.6136798e-38
-0.0021571571 0.049614288 0.75500005 1.8055637e-38
-0.00071708276 0.04948286 0.75300008 1.991678e-38
0.00071719871 0.04948286 0.75300008 2.158098e-38
0.0021514783 0.04948286 0.75300008 2.3228977e-38
0.0035857598 0.049482856 0.75300008 1.9632306e-38
0.005020041 0.04948286 0.75300008 1.5953133e-38
0.0064543206 0.049482856 0.75300008 1.5857697e-38
0.0078886012 0.04948286 0.75300008 1.5680158e-38
0.0093228817 0.04948286 0.75300002 1.9560599e-38
0.010757163 0.04948286 0.75300002 2.341769e-38
0.012175246 0.049417149 0.75200009 2.341769e-38
0.013607625 0.049417146 0.75200003 2.3417302e-38
0.015060065 0.049482852 0.75300008 2.1854634e-38
0.016494345 0.049482867 0.75300008 2.0266823e-38
0.017928626 0.049482852 0.75300008 1.898824e-38
0.019362908 0.049482863 0.75300008 1.7597437e-38
0.020852402 0.04961428 0.75500005 1.8159215e-38
0.022290489 0.049614295 0.75500005 1.8708832e-38
0.023760024 0.049680013 0.75600004 1.9179887e-38
0.025200035 0.049680009 0.7560001 1.9536452e-38
0.02671048 0.049811453 0.75800002 1.6872132e-38
0.028228592 0.049942862 0.76000005 1.4199939e-38
0.029715244 0.050008584 0.76100004 1.5300894e-38
0.031246688 0.050140008 0.76300001 1.6413364e-38
0.032871444 0.050402854 0.76700008 1.6787205e-38
0.034332421 0.050402857 0.76700008 1.7060918e-38
0.035840038 0.050468579 0.76800007 1.7980349e-38
0.037302896 0.050468586 0.76800001 1.8908764e-38
0.038866688 0.050600003 0.77000004 2.1213635e-38
-0.021349523 0.05226953 0.77300006 8.4824436e-39
-0.019799955 0.052066665 0.7700001 8.9520425e-39
-0.018261854 0.051863808 0.76700008 9.4163025e-39
-0.016800938 0.051863816 0.76700008 1.5498671e-38
-0.015339963 0.051863812 0.76700008 2.1672816e-38
-0.013842831 0.051728584 0.76500005 2.0289902e-38
-0.012385703 0.051728591 0.76500005 1.8990856e-38
-0.010928558 0.051728588 0.76500005 1.7418096e-38
-0.0094218897 0.051458098 0.76100004 1.5857281e-38
-0.0079618692 0.051390477 0.76000011 1.6411911e-38
-0.0064971447 0.05125526 0.75800002 1.6968687e-38
-0.0050533246 0.051255256 0.75800002 1.6233308e-38
-0.0035999909 0.051120009 0.7560001 1.5582921e-38
-0.0021571422 0.051052392 0.75500005 1.8066061e-38
-0.00071905344 0.051052388 0.75500005 2.0660085e-38
0.00071717263 0.050917149 0.75300008 2.1947605e-38
0.0021514522 0.050917145 0.75300002 2.3234006e-38
0.0035857318 0.050917149 0.75300002 1.9912132e-38
0.0050200354 0.050917149 0.75300002 1.6502356e-38
0.0064543551 0.050917141 0.75300008 1.6134989e-38
0.0078781014 0.050849535 0.75200003 1.5674056e-38
0.009310496 0.050849527 0.75200003 1.9553424e-38
0.010757195 0.050917141 0.75300008 2.341769e-38
0.012175249 0.050849531 0.75200003 2.341769e-38
0.013625756 0.050917141 0.75300008 2.341769e-38
0.015060036 0.050917156 0.75300008 2.1027097e-38
0.016494317 0.050917141 0.75300002 1.8550404e-38
0.017928597 0.050917152 0.75300002 1.7801726e-38
0.019414265 0.051052403 0.75500005 1.7072421e-38
0.020852393 0.05105238 0.75500005 1.7434738e-38
0.022290479 0.051052392 0.75500005 1.7722449e-38
0.023760006 0.051119991 0.75600004 1.7526228e-38
0.025200019 0.051120009 0.7560001 1.7342876e-38
0.026710505 0.05125526 0.75800002 1.6225743e-38
0.02826573 0.051458109 0.76100004 1.511616e-38
0.029715246 0.051458113 0.76100004 1.6226054e-38
0.031246684 0.051593326 0.76300007 1.7333147e-38
0.032700043 0.051593333 0.76300007 1.7152032e-38
0.034332402 0.051863808 0.76700002 1.6877235e-38
0.035793357 0.051863804 0.76700008 1.715309e-38
0.03730287 0.051931456 0.76800001 1.7430774e-38
0.038866684 0.052066669 0.77000004 1.8538564e-38
0.040333364 0.052066661 0.7700001 1.9649915e-38
-0.021404769 0.053880967 0.77500004 9.0370537e-39
-0.019799961 0.053533349 0.7700001 7.2993875e-39
-0.018285695 0.053394295 0.76800001 5.5545509e-39
-0.016800916 0.053324759 0.76700008 1.3007613e-38
-0.015339979 0.053324766 0.76700008 2.0377422e-38
-0.013842852 0.053185731 0.76500005 1.9190746e-38
-0.012385723 0.053185727 0.76500005 1.7892446e-38
-0.010899961 0.053046651 0.76300007 1.7508194e-38
-0.0094466386 0.053046674 0.76300007 1.7057992e-38
-0.0079723774 0.052907649 0.76100004 1.7240594e-38
-0.0065142959 0.052838095 0.76000005 1.7429301e-38
-0.00505332 0.052699059 0.75800008 1.6236531e-38
-0.0035999853 0.052560013 0.75600004 1.4942232e-38
-0.0021571496 0.052490484 0.75500005 1.8148589e-38
-0.00071707903 0.05235143 0.75300008 2.1296127e-38
0.00071720243 0.05235143 0.75300008 2.2315664e-38
0.002151482 0.05235143 0.75300008 2.3229702e-38
0.0035857635 0.05235143 0.75300008 2.018764e-38
0.0050200429 0.052351445 0.75300008 1.7060908e-38
0.0064543243 0.052351434 0.75300008 1.6413737e-38
0.0078886049 0.052351441 0.75300008 1.56859e-38
0.0093228854 0.05235143 0.75300002 1.9560599e-38
0.010757166 0.052351445 0.75300002 2.341769e-38
0.012191446 0.05235143 0.75300002 2.341769e-38
0.013661926 0.052490484 0.75500005 2.3415532e-38
0.015100015 0.05249048 0.75500005 2.0102275e-38
0.016538102 0.052490484 0.75500005 1.6786152e-38
0.017976193 0.052490484 0.75500005 1.6687499e-38
0.01941428 0.052490484 0.75500005 1.651172e-38
0.020880029 0.052560005 0.75600004 1.6601044e-38
0.02232004 0.052560005 0.7560001 1.6696468e-38
0.023822868 0.052699067 0.75800008 1.5858831e-38
0.025333367 0.052838106 0.76000011 1.5037302e-38
0.026816215 0.052907631 0.76100004 1.5480304e-38
0.02826573 0.052907635 0.76100004 1.5954897e-38
0.029793346 0.053046666 0.76300001 1.7153411e-38
0.031328578 0.053185739 0.76500005 1.8256541e-38
0.032871451 0.05332477 0.76700002 1.7517938e-38
0.034377165 0.053394292 0.76800001 1.6691768e-38
0.035933338 0.053533338 0.77000004 1.6323342e-38
0.037400048 0.053533334 0.7700001 1.5865616e-38
0.03896765 0.053672396 0.77200001 1.5860252e-38
0.040490512 0.053741921 0.77300012 1.5774871e-38
-0.021404779 0.055357162 0.77500004 9.7699552e-39
-0.019851405 0.055142868 0.77200001 8.2098756e-39
-0.01833332 0.055 0.77000004 6.7297611e-39
-0.016800933 0.054785717 0.76700008 1.2452633e-38
-0.015339979 0.054785714 0.76700008 1.8087623e-38
-0.013842851 0.054642871 0.76500005 1.93737e-38
-0.01238572 0.054642882 0.76500005 2.0655431e-38
-0.01089998 0.054499999 0.76300001 2.0375957e-38
-0.0094466414 0.054499991 0.76300007 2.0197293e-38
-0.0079724006 0.054357171 0.76100004 2.028445e-38
-0.0065142876 0.05428572 0.76000005 2.0373421e-38
-0.005053333 0.054142881 0.75800002 1.9728784e-38
-0.0036000011 0.054000005 0.75600004 1.9075911e-38
-0.0021571347 0.05392858 0.75500005 2.0739373e-38
-0.00071710511 0.053785715 0.75300008 2.240749e-38
0.00071717449 0.053785715 0.75300002 2.2866318e-38
0.002151456 0.053785715 0.75300002 2.332405e-38
0.0035857356 0.053785719 0.75300002 2.1757094e-38
0.0050200168 0.053785715 0.75300002 2.0281974e-38
0.0064543579 0.053785726 0.75300008 1.9914259e-38
0.0078886384 0.053785712 0.75300008 1.9543714e-38
0.009322919 0.053785726 0.75300008 2.148484e-38
0.010757199 0.053785712 0.75300008 2.341769e-38
0.012191481 0.053785723 0.75300008 2.341769e-38
0.013661919 0.05392858 0.75500005 2.341768e-38
0.015100007 0.05392858 0.75500005 1.8892618e-38
0.016538097 0.053928576 0.75500005 1.4468016e-38
0.017976183 0.05392858 0.75500005 1.5766987e-38
0.019439997 0.054000005 0.75600004 1.7063806e-38
0.02088001 0.054000001 0.7560001 1.7342184e-38
0.022320021 0.054000005 0.7560001 1.7613025e-38
0.023822894 0.054142866 0.75800008 1.7433656e-38
0.025333375 0.054285713 0.76000011 1.7344308e-38
0.026816193 0.054357156 0.76100004 1.7618715e-38
0.028265705 0.054357164 0.76100004 1.7906421e-38
0.029793367 0.054500002 0.76300007 1.808292e-38
0.031328581 0.054642878 0.76500005 1.8265883e-38
0.032871451 0.054785714 0.76700008 1.7522958e-38
0.034377176 0.054857161 0.76800001 1.6783245e-38
0.035933372 0.055000011 0.7700001 1.6692836e-38
0.037497189 0.055142865 0.77200007 1.6694281e-38
0.038967647 0.055142865 0.77200007 1.6506672e-38
0.040490482 0.055214301 0.77300006 1.6412322e-38
-0.019851411 0.056613352 0.77200007 9.223659e-39
-0.018333325 0.05646668 0.77000004 7.9372404e-39
-0.016822832 0.056320008 0.76800001 1.189298e-38
-0.015339995 0.056246668 0.76700008 1.5774497e-38
-0.013842849 0.056100029 0.76500005 1.9652428e-38
-0.012385681 0.056100026 0.76500005 2.3414447e-38
-0.010899982 0.055953331 0.76300007 2.3325835e-38
-0.0094219148 0.055806678 0.76100004 2.3232556e-38
-0.0079723634 0.055806693 0.76100004 2.3233984e-38
-0.0065143006 0.055733345 0.76000005 2.3229323e-38
-0.0050533284 0.055586673 0.75800002 2.3229326e-38
-0.003609509 0.055586673 0.75800008 2.3226466e-38
-0.0021571422 0.05536668 0.75500005 2.3325845e-38
-0.00071905344 0.055366661 0.75500005 2.3417684e-38
0.00071720802 0.05522 0.75300008 2.341769e-38
0.0021514876 0.055219997 0.75300008 2.3417326e-38
0.0035857691 0.05522 0.75300008 2.3417679e-38
0.0050200485 0.055220012 0.75300008 2.3414443e-38
0.0064543299 0.05522 0.75300008 2.3417665e-38
0.0078886095 0.055220015 0.75300008 2.3413373e-38
0.009322891 0.05522 0.75300002 2.341769e-38
0.010757172 0.055220012 0.75300002 2.341769e-38
0.012223783 0.055366684 0.75500005 2.341769e-38
0.013661933 0.055366676 0.75500005 2.3312552e-38
0.015100021 0.05536668 0.75500005 1.7766518e-38
0.01653811 0.05536668 0.75500005 1.2174966e-38
0.018000031 0.055440001 0.7560001 1.4848608e-38
0.019440003 0.055440009 0.75600004 1.7528702e-38
0.020880017 0.055440005 0.75600004 1.7998646e-38
0.022379039 0.055586677 0.75800002 1.845352e-38
0.023885733 0.055733338 0.76000011 1.9101392e-38
0.025366679 0.055806682 0.76100004 1.9649523e-38
0.026816193 0.055806682 0.76100004 1.9744215e-38
0.028340025 0.055953339 0.76300001 1.9742789e-38
0.029793363 0.055953331 0.76300007 1.9005244e-38
0.031328585 0.056100018 0.76500005 1.8171196e-38
0.032914329 0.056320015 0.76800007 1.7524407e-38
0.034377191 0.056320008 0.76800001 1.6879038e-38
0.03602669 0.056613341 0.77200001 1.7154176e-38
0.03749717 0.056613345 0.77200001 1.7428619e-38
0.039018128 0.056686666 0.77300006 1.7242807e-38
-0.019851396 0.05808381 0.77200007 9.0421446e-39
-0.018333292 0.057933338 0.7700001 8.5865334e-39
-0.016822817 0.05778287 0.76800007 1.0331746e-38
-0.015339974 0.057707615 0.76700008 1.2178904e-38
-0.013842871 0.057557166 0.76500005 1.3935301e-38
-0.012385704 0.057557158 0.76500005 1.5697762e-38
-0.010928573 0.057557166 0.76500005 1.6886249e-38
-0.0094466405 0.057406671 0.76300007 1.7999396e-38
-0.0079723643 0.057256214 0.76100004 1.8819099e-38
-0.006514254 0.057180952 0.76000011 1.9652435e-38
-0.005066664 0.057180971 0.76000005 1.9647771e-38
-0.003609522 0.057030488 0.75800002 1.9652435e-38
-0.0021571273 0.056804765 0.75500005 2.0385325e-38
-0.00071903667 0.056804765 0.75500005 2.1029967e-38
0.00071905018 0.056804765 0.75500005 2.1027097e-38
0.0021571408 0.056804769 0.75500005 2.1029967e-38
0.0035952276 0.056804769 0.75500005 2.1485199e-38
0.0050333561 0.056804761 0.75500005 2.1948322e-38
0.0064543001 0.056654301 0.75300002 2.24075e-38
0.0078886198 0.056654289 0.75300008 2.2866677e-38
0.0093476214 0.056804765 0.75500005 2.2957795e-38
0.010785709 0.056804765 0.75500005 2.2958513e-38
0.012223799 0.05680478 0.75500005 2.3141107e-38
0.013661925 0.056804758 0.75500005 2.3321859e-38
0.015100014 0.056804772 0.75500005 1.9443553e-38
0.016560003 0.056880001 0.75600004 1.557536e-38
0.018000014 0.056880012 0.7560001 1.6512744e-38
0.019440025 0.056879997 0.7560001 1.7540161e-38
0.020935245 0.057030492 0.75800002 1.7632003e-38
0.022379067 0.057030492 0.75800002 1.7815678e-38
0.02388574 0.057180949 0.76000011 1.7723847e-38
0.025366679 0.057256207 0.76100004 1.7723846e-38
0.02681623 0.057256203 0.76100004 1.7264667e-38
0.028340023 0.057406671 0.76300007 1.6805505e-38
0.029793344 0.057406679 0.76300001 1.642885e-38
0.031328559 0.057557162 0.76500005 1.6144376e-38
0.032914307 0.057782874 0.76800001 1.6235496e-38
0.03437718 0.057782866 0.76800007 1.6421308e-38
0.036026705 0.058083829 0.77200007 1.6786485e-38
0.037545733 0.05815905 0.77300006 1.7153484e-38
0.039018132 0.058159057 0.77300012 1.7062021e-38
-0.01833332 0.0594 0.7700001 9.2214519e-39
-0.016822843 0.059245728 0.76800001 8.8515946e-39
-0.015339951 0.059168562 0.76700008 8.4885742e-39
-0.013842869 0.059014317 0.76500005 8.2112909e-39
-0.012385701 0.059014298 0.76500005 7.9469247e-39
-0.010928569 0.05901432 0.76500005 1.0337537e-38
-0.0094466452 0.058859989 0.76300007 1.2729214e-38
-0.0079933247 0.058860011 0.76300007 1.4390153e-38
-0.0065228371 0.058705721 0.76100004 1.5954587e-38
-0.0050733229 0.05870574 0.76100004 1.6057189e-38
-0.0036190504 0.058628578 0.76000011 1.6048218e-38
-0.0021599939 0.058320004 0.75600004 1.734898e-38
-0.00071904785 0.058242861 0.75500005 1.8617828e-38
0.00071904273 0.058242865 0.75500005 1.8630752e-38
0.0021571296 0.058242861 0.75500005 1.8531018e-38
0.0035952202 0.058242861 0.75500005 1.9545147e-38
0.0050333459 0.058242857 0.75500011 2.0470326e-38
0.0064714355 0.058242861 0.75500005 2.1397301e-38
0.0079095233 0.058242857 0.75500005 2.2308121e-38
0.009347613 0.058242857 0.75500005 2.2404258e-38
0.010785701 0.058242861 0.75500005 2.2497177e-38
0.012240011 0.058320001 0.75600004 2.2866677e-38
0.013680022 0.058320016 0.75600004 2.3230048e-38
0.015120034 0.058319993 0.7560001 2.1110274e-38
0.016560009 0.058320016 0.75600004 1.8904772e-38
0.018000022 0.058320001 0.75600004 1.8178325e-38
0.019491453 0.058474302 0.75800002 1.7447224e-38
0.020935273 0.058474302 0.75800002 1.7356462e-38
0.022438098 0.058628574 0.76000011 1.7172791e-38
0.023917142 0.058705725 0.76100004 1.6438107e-38
0.025366655 0.058705732 0.76100004 1.5703416e-38
0.026816206 0.058705725 0.76100004 1.4785055e-38
0.028340042 0.058859993 0.76300007 1.3770929e-38
0.029871434 0.059014313 0.76500005 1.394313e-38
0.031328563 0.059014317 0.76500005 1.4027446e-38
0.032871477 0.059168577 0.76700008 1.4943305e-38
0.034377158 0.059245724 0.76800001 1.5863814e-38
0.036026683 0.059554294 0.77200001 1.6416262e-38
0.037642874 0.059785731 0.77500004 1.6876534e-38
0.039119061 0.059785735 0.7750001 1.6878703e-38
-0.018333321 0.060866676 0.7700001 6.4559446e-39
-0.016866654 0.060866665 0.77000004 5.7194796e-39
-0.015359991 0.060708594 0.76800001 4.8954614e-39
-0.013879014 0.060629528 0.76700008 5.2584874e-39
-0.012385698 0.060471453 0.76500005 5.6222743e-39
-0.010928593 0.060471453 0.76500005 7.0977729e-39
-0.0094466247 0.060313329 0.76300007 8.6489472e-39
-0.0079933023 0.060313333 0.76300007 9.8607607e-39
-0.0065228362 0.06015525 0.76100004 1.1147182e-38
-0.0050733238 0.060155265 0.76100004 1.0966745e-38
-0.0036094913 0.059918102 0.75800008 1.0858405e-38
-0.0021599734 0.059760008 0.7560001 1.2437182e-38
-0.00071903109 0.059680961 0.75500005 1.3972219e-38
0.00071905763 0.059680961 0.75500005 1.3359526e-38
0.0021571463 0.059680965 0.75500005 1.2805629e-38
0.0035952351 0.059680961 0.75500005 1.677714e-38
0.0050400104 0.059760012 0.7560001 2.0735413e-38
0.0064714514 0.059680961 0.75500005 2.0100116e-38
0.0079095392 0.059680961 0.75500005 1.9442196e-38
0.0093476269 0.059680957 0.75500005 1.9538691e-38
0.010785717 0.059680961 0.75500005 1.9646682e-38
0.012239994 0.059760015 0.75600004 2.1304039e-38
0.013680005 0.059760008 0.75600004 2.3050348e-38
0.015120016 0.059760008 0.7560001 2.1669946e-38
0.016560029 0.059760004 0.7560001 2.0387072e-38
0.018000003 0.059760012 0.75600004 1.9008416e-38
0.019491456 0.059918106 0.75800008 1.7723424e-38
0.020935237 0.059918117 0.75800002 1.7356427e-38
0.022438109 0.060076203 0.76000011 1.6989081e-38
0.02391714 0.06015525 0.76100004 1.6346226e-38
0.025366692 0.06015525 0.76100004 1.5703368e-38
0.026886702 0.060313333 0.76300007 1.4968673e-38
0.028340025 0.06031334 0.76300001 1.4233635e-38
0.029871436 0.060471449 0.76500005 1.5689734e-38
0.0313286 0.060471445 0.76500005 1.7140118e-38
0.032914307 0.060708582 0.76800001 1.6867151e-38
0.034377169 0.060708586 0.76800001 1.6500899e-38
0.036026698 0.061024785 0.77200001 1.6319393e-38
0.037642863 0.061261926 0.77500004 1.6047495e-38
0.03911905 0.061261911 0.77500004 1.6047514e-38
-0.019851387 0.062495258 0.77200007 4.8860965e-39
-0.018333327 0.062333342 0.77000004 3.6915232e-39
-0.016822839 0.062171433 0.76800001 2.4904941e-39
-0.015299994 0.061928604 0.76500005 1.2984221e-39
-0.01387903 0.062090483 0.76700008 2.3043036e-39
-0.01238572 0.061928585 0.76500005 3.2276948e-39
-0.010928553 0.061928585 0.76500005 3.9663389e-39
-0.0094466424 0.061766673 0.76300007 4.6099188e-39
-0.0079932828 0.061766669 0.76300007 5.4400396e-39
-0.0065228594 0.061604775 0.76100004 6.268364e-39
-0.0050733471 0.061604779 0.76100004 5.987845e-39
-0.0036190327 0.061523817 0.76000005 5.7213265e-39
-0.0021599696 0.061200008 0.7560001 7.568818e-39
-0.00071999407 0.061200012 0.75600004 9.4026637e-39
0.00072001875 0.061200015 0.75600004 8.2127539e-39
0.0021600297 0.061200012 0.7560001 7.0242916e-39
0.0036000034 0.061200012 0.75600004 1.402246e-38
0.005040016 0.061200012 0.75600004 2.1018111e-38
0.006480027 0.061200008 0.7560001 1.8825907e-38
0.0079200389 0.061200008 0.7560001 1.6591993e-38
0.0093600126 0.061200012 0.75600004 1.6661859e-38
0.010800024 0.061200008 0.75600004 1.6779254e-38
0.012240037 0.061200004 0.7560001 1.9836103e-38
0.01368001 0.061200012 0.75600004 2.2768383e-38
0.015120022 0.061200012 0.75600004 2.2315664e-38
0.016560033 0.061200004 0.7560001 2.1850715e-38
0.018000009 0.061200012 0.75600004 1.9927877e-38
0.019491442 0.061361928 0.75800002 1.7907473e-38
0.020990487 0.061523825 0.76000005 1.7356439e-38
0.022438116 0.061523829 0.76000011 1.6805403e-38
0.02391718 0.061604772 0.76100004 1.6254367e-38
0.025433339 0.061766669 0.76300007 1.5611159e-38
0.026886698 0.061766662 0.76300007 1.5151981e-38
0.028414307 0.061928585 0.76500005 1.4689948e-38
0.029871436 0.0619286 0.76500005 1.7533635e-38
0.031410486 0.062090483 0.76700008 2.027687e-38
0.032914322 0.062171444 0.76800001 1.870025e-38
0.034466695 0.062333331 0.7700001 1.7146571e-38
0.036026716 0.062495261 0.77200001 1.6221033e-38
0.037545756 0.06257619 0.77300012 1.5218042e-38
0.039018095 0.062576205 0.77300006 1.5215557e-38
-0.019851411 0.063965723 0.77200001 9.0315844e-39
-0.018333295 0.063800007 0.7700001 8.6480995e-39
-0.016822824 0.063634299 0.76800001 7.6414963e-39
-0.015339984 0.063551433 0.76700008 6.614807e-39
-0.013879007 0.063551433 0.76700008 6.6248543e-39
-0.012385719 0.06338574 0.76500005 6.7113046e-39
-0.010928551 0.063385732 0.76500005 6.5351614e-39
-0.0094714202 0.06338574 0.76500005 6.4451336e-39
-0.0079933247 0.063220009 0.76300007 6.4451462e-39
-0.006539965 0.063219994 0.76300007 6.354761e-39
-0.0050866446 0.063219994 0.76300007 5.8030446e-39
-0.0036190476 0.062971443 0.76000005 5.1735127e-39
-0.0021599845 0.062640011 0.7560001 7.5677348e-39
-0.00071997172 0.062640004 0.7560001 9.9683622e-39
0.00072000199 0.062640011 0.75600004 8.0254577e-39
0.0021600148 0.062640004 0.7560001 6.1880808e-39
0.0036000258 0.062640004 0.7560001 1.4024639e-38
0.0050399983 0.062640011 0.75600004 2.1856487e-38
0.0064800121 0.062640004 0.7560001 1.9183213e-38
0.007920024 0.062639996 0.7560001 1.6488963e-38
0.0093599968 0.062640011 0.75600004 1.3717227e-38
0.010800009 0.062640004 0.75600004 1.0972732e-38
0.01224002 0.062640004 0.7560001 1.3002964e-38
0.013679995 0.062640011 0.75600004 1.4942993e-38
0.015120006 0.062640004 0.75600004 1.3833436e-38
0.016560018 0.062640004 0.7560001 1.2649242e-38
0.018047625 0.062805727 0.75800002 1.5143849e-38
0.019491445 0.062805735 0.75800008 1.7631988e-38
0.020990472 0.06297145 0.76000011 1.6897273e-38
0.022467604 0.063054323 0.76100004 1.6254384e-38
0.023980036 0.063220002 0.76300007 1.5886641e-38
0.02543336 0.063220009 0.76300007 1.5518592e-38
0.026886679 0.063220009 0.76300001 1.5242377e-38
0.028414311 0.063385732 0.76500005 1.5054786e-38
0.029871417 0.06338574 0.76500005 1.8455593e-38
0.031410508 0.063551426 0.76700008 2.1856365e-38
0.032914333 0.063634306 0.76800001 2.1111265e-38
0.034600981 0.064048581 0.77300006 2.028651e-38
0.036166668 0.064214304 0.77500004 1.9820845e-38
0.037642855 0.064214297 0.7750001 1.9357753e-38
0.039119065 0.064214289 0.7750001 1.9357423e-38
-0.019851418 0.065436207 0.77200007 1.3191157e-38
-0.018333299 0.065266669 0.77000004 1.3637063e-38
-0.016822813 0.065097168 0.76800001 1.2812697e-38
-0.015339962 0.065012395 0.76700008 1.1976842e-38
-0.013879046 0.06501238 0.76700008 1.105238e-38
-0.012385716 0.06484288 0.76500005 1.0133664e-38
-0.010928548 0.06484288 0.76500005 9.201674e-39
-0.0094714416 0.06484288 0.76500005 8.2944482e-39
-0.0079933051 0.064673334 0.76300007 7.3570874e-39
-0.0065399846 0.064673334 0.76300001 6.4538076e-39
-0.0050866473 0.064673334 0.76300007 5.5125022e-39
-0.0036238197 0.064503834 0.76100004 4.6250108e-39
-0.0021714119 0.064419046 0.76000005 7.5594531e-39
-0.00072187162 0.064249545 0.75800002 1.0513249e-38
0.00072000758 0.064080022 0.75600004 7.916738e-39
0.0021600185 0.064080007 0.75600004 5.2851387e-39
0.0036000314 0.064080015 0.7560001 1.3939621e-38
0.005040003 0.064080007 0.75600004 2.2586501e-38
0.0064800149 0.064080022 0.75600004 1.9560588e-38
0.0079200286 0.06408 0.7560001 1.6393533e-38
0.0093600024 0.06408003 0.75600004 1.0745127e-38
0.010800013 0.064080007 0.75600004 5.1579498e-39
0.012240025 0.064080015 0.75600004 6.1682202e-39
0.013680038 0.06408 0.7560001 7.0948274e-39
0.015120012 0.064080022 0.75600004 5.242336e-39
0.016603835 0.064249545 0.75800002 3.4451231e-39
0.018047653 0.064249545 0.75800008 1.0365825e-38
0.019491434 0.064249545 0.75800002 1.7261741e-38
0.020990482 0.064419061 0.76000005 1.6438096e-38
0.022467641 0.064503819 0.76100004 1.5611544e-38
0.023917153 0.064503826 0.76100004 1.5519678e-38
0.025433378 0.064673319 0.76300007 1.5335641e-38
0.026886702 0.064673327 0.76300007 1.5335993e-38
0.028340038 0.064673319 0.76300007 1.53346e-38
0.029871419 0.06484288 0.76500005 1.937684e-38
0.03141053 0.065012388 0.76700008 2.3417612e-38
0.032914288 0.065097161 0.76800001 2.341762e-38
0.034600988 0.065520957 0.77300006 2.3415455e-38
0.036166657 0.065690488 0.77500004 2.3417593e-38
0.037642844 0.065690488 0.77500004 2.3412574e-38
0.039119054 0.065690488 0.77500004 2.3415804e-38
-0.018285697 0.066560015 0.76800001 1.0987894e-38
-0.016866658 0.066733345 0.77000004 1.1627875e-38
-0.015339962 0.066473335 0.76700008 1.2376531e-38
-0.013842843 0.06630002 0.76500005 1.2733092e-38
-0.012385698 0.06630002 0.7650001 1.3201596e-38
-0.010928569 0.066300012 0.76500005 1.3467416e-38
-0.0094714025 0.06630002 0.76500005 1.3755481e-38
-0.0079933088 0.066126674 0.76300007 1.3651091e-38
-0.0065399865 0.066126674 0.76300007 1.3570379e-38
-0.0050866269 0.066126682 0.76300007 1.3281959e-38
-0.0036237824 0.065953344 0.76100004 1.301899e-38
-0.0021714268 0.065866672 0.76000011 1.4760975e-38
-0.00072379853 0.065866672 0.76000011 1.6516968e-38
0.00072191493 0.065693356 0.75800002 1.5310905e-38
0.002165735 0.065693349 0.75800002 1.4126446e-38
0.0036095541 0.065693349 0.75800008 1.8541799e-38
0.0050400272 0.065519996 0.7560001 2.2958501e-38
0.00648 0.065520003 0.75600004 2.0283781e-38
0.0079200119 0.065520003 0.7560001 1.7677789e-38
0.0093600247 0.065519996 0.7560001 1.2601923e-38
0.010799998 0.065520003 0.75600004 7.4393997e-39
0.012240009 0.065520003 0.75600004 8.0919283e-39
0.01371622 0.065693356 0.75800002 8.637919e-39
0.015160039 0.065693356 0.75800002 7.2693549e-39
0.016603798 0.065693356 0.75800002 5.910569e-39
0.01804762 0.065693364 0.75800002 1.1920863e-38
0.019542862 0.065866694 0.76000005 1.7907426e-38
0.020990489 0.065866672 0.76000005 1.6989107e-38
0.022467641 0.065953352 0.76100004 1.6162567e-38
0.023917131 0.065953344 0.76100004 1.5244189e-38
0.025433337 0.06612666 0.76300007 1.4325811e-38
0.026886698 0.066126674 0.76300007 1.4140681e-38
0.02841429 0.06630002 0.76500005 1.3958506e-38
0.029949578 0.06647332 0.76700008 1.6529603e-38
0.031451441 0.066560023 0.76800001 1.9101387e-38
0.03308573 0.066906683 0.77200001 2.0754096e-38
0.034600973 0.066993341 0.77300006 2.2499332e-38
0.036166687 0.067166671 0.77500004 2.2958513e-38
0.037642833 0.067166686 0.77500004 2.3417665e-38
0.039119042 0.067166671 0.77500004 2.3417279e-38
0.040595222 0.067166686 0.77500004 2.3417649e-38
-0.019877132 0.068465717 0.77300006 8.4795078e-39
-0.018380908 0.068377152 0.77200007 8.3012627e-39
-0.016866624 0.068200007 0.7700001 1.0517558e-38
-0.015399978 0.068200007 0.7700001 1.2632651e-38
-0.013897125 0.068022877 0.76800001 1.4392958e-38
-0.012418065 0.067934297 0.76700008 1.6134974e-38
-0.010928567 0.067757167 0.76500005 1.7619062e-38
-0.0094713988 0.067757145 0.76500005 1.9080531e-38
-0.0080142915 0.067757159 0.76500005 1.9828841e-38
-0.0065399669 0.067580007 0.76300007 2.0556725e-38
-0.0050866464 0.067580014 0.76300007 2.1026321e-38
-0.0036332866 0.06758 0.76300007 2.1387916e-38
-0.0021714175 0.067314297 0.76000005 2.1948249e-38
-0.00072378828 0.067314282 0.76000011 2.2404197e-38
0.000721941 0.067137152 0.75800002 2.2682932e-38
0.0021657611 0.067137167 0.75800008 2.2954529e-38
0.0036095188 0.067137152 0.75800002 2.3142183e-38
0.0050533395 0.067137167 0.75800002 2.3234013e-38
0.0064971605 0.067137152 0.75800008 2.1121791e-38
0.0079409806 0.067137167 0.75800008 1.8983982e-38
0.0093847616 0.067137152 0.75800002 1.436159e-38
0.010828582 0.067137167 0.75800002 9.7651207e-39
0.012272403 0.067137152 0.75800008 1.0030192e-38
0.013716221 0.067137159 0.75800008 1.0218885e-38
0.015160004 0.067137152 0.75800002 9.2865394e-39
0.016603824 0.067137167 0.75800002 8.4051984e-39
0.018095257 0.06731429 0.76000011 1.3499264e-38
0.019568553 0.067402884 0.76100004 1.8550235e-38
0.021018105 0.067402869 0.76100004 1.76319e-38
0.022467617 0.067402869 0.76100004 1.6618136e-38
0.023917168 0.067402869 0.76100004 1.4968698e-38
0.025433358 0.06758 0.76300007 1.3305936e-38
0.026957162 0.067757152 0.76500005 1.2942859e-38
0.02841429 0.067757159 0.76500005 1.2480864e-38
0.029949537 0.06793429 0.76700008 1.3590116e-38
0.031451453 0.06802287 0.76800001 1.4688586e-38
0.033000045 0.068200007 0.7700001 1.8181954e-38
0.034556199 0.06837716 0.77200001 2.1580603e-38
0.036073342 0.068465725 0.77300006 2.2499335e-38
0.037545718 0.06846571 0.77300006 2.3417668e-38
0.039119069 0.06864287 0.77500004 2.3417647e-38
0.040438123 0.06837716 0.77200001 2.3416942e-38
0.041800056 0.068200007 0.7700001 2.3416597e-38
0.043379094 0.068377145 0.77200007 2.3417298e-38
0.044849548 0.06837716 0.77200007 2.3417641e-38
-0.019877125 0.069938108 0.77300006 7.2779855e-39
-0.018380933 0.069847643 0.77200001 5.3315917e-39
-0.016910439 0.069847628 0.77200007 5.8963248e-39
-0.015399982 0.069666654 0.7700001 6.4477302e-39
-0.013933314 0.069666669 0.77000004 7.2868375e-39
-0.012466643 0.069666669 0.77000004 8.121633e-39
-0.010928565 0.069214314 0.76500005 8.8588519e-39
-0.0094714193 0.069214299 0.76500005 9.5985442e-39
-0.0080142906 0.069214314 0.76500005 9.9705356e-39
-0.0065399474 0.06903334 0.76300007 1.0352972e-38
-0.0050866473 0.069033332 0.76300007 1.2642072e-38
-0.0036238057 0.068852395 0.76100004 1.4864784e-38
-0.0021714324 0.068761908 0.76000011 1.863937e-38
-0.00072380318 0.068761908 0.76000011 2.2407498e-38
0.00072190561 0.06858097 0.75800002 2.2774842e-38
0.0021657257 0.068580978 0.75800002 2.3050348e-38
0.0036095439 0.068580963 0.75800002 2.2958513e-38
0.0050533647 0.06858097 0.75800008 2.2866677e-38
0.0064971475 0.068580963 0.75800002 2.0019777e-38
0.0079409676 0.068580985 0.75800002 1.7264625e-38
0.0093847867 0.06858097 0.75800002 1.4026618e-38
0.010800026 0.06840001 0.7560001 1.0810166e-38
0.01227239 0.06858097 0.75800002 1.1075211e-38
0.013716211 0.068580985 0.75800002 1.1359328e-38
0.015160029 0.06858097 0.75800002 1.0334788e-38
0.016647637 0.0687619 0.76000011 9.332886e-39
0.018095264 0.068761915 0.76000011 1.1371241e-38
0.01956859 0.06885241 0.76100004 1.3407409e-38
0.021018103 0.068852395 0.76100004 1.2016246e-38
0.022526694 0.06903334 0.76300007 1.0638406e-38
0.023980018 0.069033332 0.76300001 8.8824596e-39
0.025499998 0.069214307 0.76500005 7.1289224e-39
0.026957165 0.069214307 0.76500005 7.9611283e-39
0.028488606 0.069395244 0.76700008 8.7884073e-39
0.029988606 0.069485724 0.76800007 9.9902015e-39
0.031451467 0.069485717 0.76800001 1.1278802e-38
0.033085737 0.069847628 0.77200007 1.6525656e-38
0.034556217 0.069847621 0.77200001 2.1856453e-38
0.036073346 0.069938108 0.77300006 2.2591171e-38
0.037642848 0.070119061 0.77500004 2.3417672e-38
0.039119057 0.070119061 0.77500004 2.3416936e-38
0.040333379 0.069666654 0.7700001 2.3415877e-38
0.041800048 0.069666676 0.7700001 2.3416968e-38
0.043266695 0.069666661 0.7700001 2.3417677e-38
-0.019877119 0.071410477 0.77300006 6.0855786e-39
-0.018380938 0.071318105 0.77200007 2.3106823e-39
-0.01691046 0.071318105 0.77200001 1.2876223e-39
-0.015399988 0.07113333 0.77000004 1.9062143e-40
-0.013933317 0.071133345 0.77000004 1.8416565e-40
-0.012466671 0.071133345 0.77000004 1.0310614e-40
-0.010971399 0.070948601 0.76800001 9.5586772e-41
-0.0094714193 0.070671447 0.76500005 1.0741513e-40
-0.0080352146 0.070856184 0.76700008 1.0130687e-40
-0.0065571209 0.070671454 0.76500005 1.132039e-40
-0.0051000146 0.070671447 0.76500005 4.2325856e-39
-0.0036238066 0.07030192 0.76100004 8.3289972e-39
-0.002171424 0.070209526 0.76000005 1.5428e-38
-0.00072476524 0.07030192 0.76100004 2.2407498e-38
0.00072193169 0.070024773 0.75800002 2.2774842e-38
0.0021657536 0.070024788 0.75800002 2.3142183e-38
0.0036095364 0.070024773 0.75800002 2.2866677e-38
0.0050533321 0.070024788 0.75800002 2.2499269e-38
0.0064971521 0.070024773 0.75800002 1.9009456e-38
0.0079409732 0.070024788 0.75800008 1.5414568e-38
0.0093600182 0.069840014 0.75600004 1.3577468e-38
0.010800007 0.069840007 0.7560001 1.173104e-38
0.012272395 0.070024773 0.75800002 1.2100504e-38
0.013752389 0.070209526 0.76000005 1.2369549e-38
0.015200016 0.070209526 0.76000005 1.1268955e-38
0.016647644 0.070209533 0.76000011 1.0160497e-38
0.018095249 0.070209526 0.76000011 9.2450372e-39
0.01956859 0.070301935 0.76100004 8.2319502e-39
0.02101808 0.07030192 0.76100004 6.4787984e-39
0.022526715 0.070486672 0.76300007 4.6403326e-39
0.023980014 0.07048668 0.76300007 2.7928985e-39
0.025500037 0.070671454 0.76500005 9.6405831e-40
0.026957143 0.070671439 0.76500005 2.9836979e-39
0.028414311 0.070671439 0.76500005 5.020596e-39
0.029988579 0.070948601 0.76800001 6.4871081e-39
0.031533368 0.071133338 0.7700001 7.8851709e-39
0.033000011 0.071133338 0.7700001 1.4968785e-38
0.034466684 0.071133345 0.77000004 2.2040131e-38
0.035700012 0.070671454 0.76500005 2.2774829e-38
0.037254326 0.070856199 0.76700008 2.3417309e-38
0.038715277 0.070856184 0.76700008 2.3416583e-38
0.040176213 0.070856199 0.76700008 2.3416224e-38
0.04169146 0.070948586 0.76800001 2.3416943e-38
0.043154299 0.070948601 0.76800001 2.341731e-38
0.04473336 0.071133345 0.77000004 2.3417319e-38
-0.019877113 0.072882853 0.77300006 5.5381726e-39
-0.018380923 0.072788589 0.77200007 3.2419278e-39
-0.016910445 0.072788581 0.77200001 2.0312073e-39
-0.015439969 0.072788581 0.77200001 8.3193689e-40
-0.013933307 0.072599992 0.7700001 7.3756084e-40
-0.012466636 0.072600015 0.7700001 6.4321701e-40
-0.010999968 0.072600007 0.7700001 3.6986572e-40
-0.0095085483 0.072411448 0.76800001 9.2920101e-41
-0.0080456873 0.07241144 0.76800001 9.5425623e-41
-0.0065571414 0.072128609 0.76500005 9.2285313e-41
-0.0050999736 0.072128586 0.76500005 5.2581203e-39
-0.0036237908 0.071751438 0.76100004 1.045373e-38
-0.0021714147 0.071657166 0.76000005 1.6618276e-38
-0.00072476431 0.071751446 0.76100004 2.2683006e-38
0.00072189816 0.071468592 0.75800002 2.2499335e-38
0.0021657182 0.071468607 0.75800002 2.2223829e-38
0.0036095383 0.071468584 0.75800002 1.9101422e-38
0.0050533572 0.071468592 0.75800008 1.5887049e-38
0.0064800177 0.071280003 0.7560001 1.1826066e-38
0.0079200296 0.071280003 0.7560001 7.8574364e-39
0.0093600024 0.07128001 0.75600004 8.0468738e-39
0.010800014 0.07128001 0.7560001 8.3234508e-39
0.012240028 0.071280003 0.7560001 7.3064375e-39
0.013716202 0.071468607 0.75800002 6.3001874e-39
0.015200001 0.071657151 0.76000011 6.2919296e-39
0.016647629 0.071657151 0.76000011 6.3862888e-39
0.018095259 0.071657151 0.76000011 7.0223326e-39
0.019568566 0.07175146 0.76100004 7.7454825e-39
0.021018118 0.071751438 0.76100004 7.2937837e-39
0.022526674 0.071940012 0.76300007 6.8242296e-39
0.023980035 0.071939997 0.76300007 6.4673161e-39
0.025500016 0.072128601 0.76500005 6.195404e-39
0.026957145 0.072128594 0.76500005 8.0500575e-39
0.028488591 0.072317138 0.76700008 9.9039754e-39
0.029988592 0.072411433 0.76800001 1.1834661e-38
0.03153336 0.0726 0.77000004 1.3774819e-38
0.033000007 0.072600022 0.77000004 1.6897357e-38
0.03446668 0.072600007 0.77000004 2.0019758e-38
0.035700016 0.072128609 0.76500005 2.1213613e-38
0.037157185 0.072128586 0.76500005 2.2315639e-38
0.038614292 0.072128609 0.76500005 2.2865574e-38
0.040176235 0.072317153 0.76700008 2.332402e-38
0.041691449 0.07241144 0.76800001 2.3325082e-38
0.04315431 0.072411433 0.76800001 2.3325825e-38
0.044733334 0.072600007 0.77000004 2.332585e-38
-0.019877104 0.074355245 0.77300006 5.0736113e-39
