# .PCD v0.7 - Point Cloud Data file format
VERSION 0.7
FIELDS x y z rgb
SIZE 4 4 4 4
TYPE F F F F
COUNT 1 1 1 1
WIDTH 949
HEIGHT 1
VIEWPOINT 0 0 0 1 0 0 0
POINTS 949
DATA ascii
-0.017404756 -0.050821923 0.73100007 1.1479831e-38
-0.016012384 -0.050821908 0.73100001 1.0476836e-38
-0.014620001 -0.050821908 0.73100007 9.5635481e-39
-0.013227616 -0.050821923 0.73100007 1.1505051e-38
-0.011802857 -0.050682865 0.72900009 1.3534785e-38
-0.010414287 -0.050682865 0.72900009 1.3533734e-38
-0.0090257134 -0.050682865 0.72900009 1.3625929e-38
-0.0076266625 -0.050613336 0.72800004 1.4093359e-38
-0.0062400149 -0.050613321 0.72800004 1.4649016e-38
-0.0048533417 -0.050613336 0.72800004 1.3719519e-38
-0.0034571432 -0.050474294 0.72600001 1.2882923e-38
-0.0020742824 -0.050474294 0.72600001 1.1776919e-38
-0.00069047819 -0.050404765 0.72500002 1.0675628e-38
0.00069047156 -0.050404765 0.72500002 1.2238284e-38
0.0020799993 -0.050613336 0.72800004 1.3892369e-38
0.0034571344 -0.050474279 0.72600001 1.2973985e-38
0.0048399954 -0.050474279 0.72600001 1.2147849e-38
0.00624 -0.050613351 0.72800004 1.3068022e-38
0.0076371445 -0.05068285 0.72900009 1.3986394e-38
0.0090504792 -0.050821923 0.73100007 1.3619784e-38
0.010442857 -0.050821908 0.73100007 1.3252071e-38
0.011835237 -0.050821908 0.73100001 1.3069104e-38
0.013227624 -0.050821923 0.73100007 1.2886498e-38
0.014639993 -0.050891437 0.73200005 1.3068005e-38
0.016078094 -0.051030494 0.73400003 1.3344627e-38
0.01747619 -0.051030494 0.73400009 1.3813171e-38
0.018925715 -0.051169537 0.73600006 1.4367782e-38
0.02032762 -0.051169537 0.73600006 1.4182686e-38
0.021729527 -0.051169522 0.73600006 1.3996514e-38
0.023131425 -0.051169537 0.73600006 1.556777e-38
0.024566667 -0.051239066 0.73700005 1.7149814e-38
0.025970483 -0.051239066 0.73700005 1.6414087e-38
0.027448563 -0.051378079 0.73900002 1.5758923e-38
0.028895244 -0.051447637 0.74000001 1.2621689e-38
0.030386675 -0.051586665 0.7420001 9.587195e-39
0.031842873 -0.051656209 0.74300009 1.0415531e-38
0.033347622 -0.051795237 0.74500006 1.1242779e-38
0.034766663 -0.051795237 0.74500006 1.1058401e-38
-0.033213332 -0.050173335 0.7420001 8.9592382e-39
-0.031799994 -0.050173335 0.7420001 1.2459787e-38
-0.030304777 -0.050038092 0.74000001 1.6241224e-38
-0.028856205 -0.04997047 0.73900002 2.0008276e-38
-0.027448576 -0.049970485 0.73900002 2.1303304e-38
-0.025970466 -0.049835227 0.73700011 2.2586818e-38
-0.024566675 -0.049835242 0.73700005 2.2682929e-38
-0.023162859 -0.049835242 0.73700005 2.2765401e-38
-0.021611437 -0.04949715 0.73200005 2.0561314e-38
-0.020217154 -0.04949715 0.73200011 1.8338228e-38
-0.018797142 -0.049429528 0.73100007 1.5754259e-38
-0.017404759 -0.049429528 0.73100007 1.3071253e-38
-0.016012376 -0.049429543 0.73100007 1.0745187e-38
-0.014620005 -0.049429543 0.73100007 8.4668765e-39
-0.013227619 -0.049429528 0.73100007 1.1043291e-38
-0.011835237 -0.049429528 0.73100007 1.3528634e-38
-0.010414285 -0.0492943 0.72900009 1.3529755e-38
-0.0090257106 -0.0492943 0.72900009 1.3534067e-38
-0.0076266704 -0.049226664 0.72800004 1.4091186e-38
-0.0062399972 -0.049226649 0.72800004 1.4642177e-38
-0.0048533389 -0.049226649 0.72800004 1.3352155e-38
-0.0034571483 -0.049091436 0.72600001 1.2053532e-38
-0.0020742875 -0.049091436 0.72600007 1.1036156e-38
-0.00069047959 -0.049023814 0.72500002 1.0031006e-38
0.00069142383 -0.049091421 0.72600001 1.2145752e-38
0.0020828668 -0.049294285 0.72900009 1.4257941e-38
0.0034714334 -0.0492943 0.72900009 1.2881459e-38
0.0048599998 -0.049294285 0.72900009 1.1505372e-38
0.0062657152 -0.049429528 0.73100007 1.2976544e-38
0.0076581044 -0.049429528 0.73100007 1.4445921e-38
0.0090628611 -0.04949715 0.73200011 1.3895634e-38
0.010442854 -0.049429528 0.73100007 1.3344602e-38
0.011835243 -0.049429543 0.73100007 1.3253465e-38
0.01322762 -0.049429543 0.73100007 1.3068355e-38
0.014680003 -0.049632393 0.73400009 1.3155523e-38
0.016078096 -0.049632393 0.73400009 1.325494e-38
0.01747619 -0.049632393 0.73400009 1.3908238e-38
0.018925717 -0.049767636 0.73600012 1.4459256e-38
0.020327624 -0.049767636 0.73600012 1.4273797e-38
0.021729529 -0.049767621 0.73600012 1.3998305e-38
0.023162862 -0.049835242 0.73700005 1.5748217e-38
0.024566671 -0.049835257 0.73700011 1.7421015e-38
0.02604094 -0.04997047 0.73900002 1.642054e-38
0.027448567 -0.049970485 0.73900002 1.5389074e-38
0.028895242 -0.050038107 0.74000007 1.2339379e-38
0.030386681 -0.050173335 0.7420001 9.311334e-39
0.031842869 -0.050240956 0.74300009 1.0140021e-38
0.033258114 -0.050240956 0.74300009 1.0967264e-38
0.034766678 -0.050376199 0.74500012 1.0876151e-38
-0.031671431 -0.048562862 0.73900002 1.3717455e-38
-0.030263819 -0.048562862 0.73900008 1.5116214e-38
-0.028856201 -0.048562847 0.73900002 1.6501657e-38
-0.027448587 -0.048562862 0.73900002 1.8075433e-38
-0.025970472 -0.048431434 0.73700005 1.9647764e-38
-0.024566669 -0.048431434 0.73700011 2.074908e-38
-0.023131425 -0.04836572 0.73600006 2.1856487e-38
-0.02172952 -0.048365705 0.73600006 2.1302604e-38
-0.020217147 -0.048102863 0.73200011 2.0844125e-38
-0.018822866 -0.048102863 0.73200011 1.9544777e-38
-0.017428583 -0.048102863 0.73200011 1.8254663e-38
-0.01601238 -0.048037149 0.73100007 1.6303047e-38
-0.014620008 -0.048037149 0.73100007 1.4453376e-38
-0.013227612 -0.048037149 0.73100007 1.4268583e-38
-0.011835241 -0.048037134 0.73100007 1.407816e-38
-0.010442855 -0.048037149 0.73100007 1.3065881e-38
-0.0090257116 -0.047905721 0.72900009 1.2154714e-38
-0.007637138 -0.047905706 0.72900009 1.3536564e-38
-0.0062399949 -0.047840007 0.7280001 1.4915152e-38
-0.0048533464 -0.047840007 0.72800004 1.353114e-38
-0.0034571544 -0.047708564 0.72600001 1.2228951e-38
-0.0020742931 -0.047708564 0.72600007 1.1771934e-38
-0.00069048145 -0.047642864 0.72500002 1.1409634e-38
0.00069428951 -0.047905721 0.72900009 1.2419127e-38
0.0020828636 -0.047905721 0.72900009 1.352077e-38
0.0034714302 -0.047905721 0.72900009 1.2696379e-38
0.0048600067 -0.047905736 0.72900009 1.1964562e-38
0.0062485798 -0.047905736 0.72900009 1.3344243e-38
0.0076581007 -0.048037164 0.73100007 1.4813255e-38
0.0090504801 -0.048037164 0.73100007 1.4078214e-38
0.010442858 -0.048037149 0.73100001 1.3435699e-38
0.011835247 -0.048037149 0.73100007 1.3436391e-38
0.013227617 -0.048037149 0.73100007 1.3528948e-38
0.014720007 -0.048365705 0.73600012 1.3435681e-38
0.016121903 -0.04836572 0.73600012 1.3345335e-38
0.01752381 -0.048365705 0.73600006 1.40894e-38
0.018925715 -0.04836572 0.73600006 1.482839e-38
0.020327622 -0.04836572 0.73600006 1.4457461e-38
0.02175905 -0.048431449 0.73700005 1.4086193e-38
0.023162868 -0.048431434 0.73700011 1.5936554e-38
0.024566667 -0.048431434 0.73700005 1.7793738e-38
0.026040953 -0.048562862 0.73900008 1.6597032e-38
0.027485712 -0.048628576 0.74000001 1.5383697e-38
0.028895233 -0.048628576 0.74000001 1.2434813e-38
0.030386681 -0.048760004 0.7420001 9.495368e-39
0.03192858 -0.048957162 0.74500012 1.0140018e-38
0.033347629 -0.048957147 0.74500012 1.0782867e-38
0.034766678 -0.048957147 0.74500012 1.0507002e-38
-0.031671446 -0.047155254 0.73900002 1.4932881e-38
-0.030263815 -0.047155254 0.73900008 1.4004859e-38
-0.028856197 -0.047155239 0.73900002 1.3011891e-38
-0.027448583 -0.047155239 0.73900002 1.4849323e-38
-0.025970476 -0.047027625 0.73700005 1.6604976e-38
-0.024566673 -0.04702761 0.73700005 1.8809046e-38
-0.023162857 -0.047027625 0.73700011 2.0932746e-38
-0.02175905 -0.047027625 0.73700005 2.2131993e-38
-0.020272383 -0.046836205 0.73400009 2.323365e-38
-0.018822856 -0.046708591 0.73200011 2.3325836e-38
-0.017428575 -0.046708576 0.73200011 2.3319323e-38
-0.016034292 -0.046708576 0.73200011 2.1942452e-38
-0.014619997 -0.046644755 0.73100007 2.0453296e-38
-0.013227615 -0.046644785 0.73100007 1.7591632e-38
-0.011835244 -0.04664477 0.73100007 1.4642469e-38
-0.010442859 -0.04664477 0.73100007 1.2684126e-38
-0.0090257218 -0.046517141 0.72900009 1.0682046e-38
-0.0076371385 -0.046517156 0.72900009 1.2985115e-38
-0.0062400028 -0.046453334 0.72800004 1.5190985e-38
-0.0048733247 -0.04664477 0.73100007 1.38124e-38
-0.0034666709 -0.046453334 0.72800004 1.2327951e-38
-0.0020800082 -0.046453334 0.72800004 1.2504434e-38
-0.0006914328 -0.046325721 0.72600001 1.2692432e-38
0.00069428579 -0.046517156 0.72900009 1.2692454e-38
0.0020828524 -0.046517141 0.72900009 1.2693865e-38
0.0034714367 -0.046517156 0.72900009 1.2510531e-38
0.004860003 -0.046517141 0.72900009 1.2331529e-38
0.0062657185 -0.046644785 0.73100007 1.3714807e-38
0.007658097 -0.046644755 0.73100007 1.5090195e-38
0.0090504764 -0.046644755 0.73100007 1.4260455e-38
0.010442864 -0.04664477 0.73100007 1.3434637e-38
0.011851435 -0.046708591 0.73200011 1.3710844e-38
0.0132819 -0.046836205 0.73400003 1.3987428e-38
0.014679995 -0.046836205 0.73400003 1.3712642e-38
0.016121902 -0.046963818 0.73600006 1.3349652e-38
0.017523808 -0.046963818 0.73600006 1.4275231e-38
0.018925713 -0.046963818 0.73600006 1.510211e-38
0.020327624 -0.046963833 0.73600012 1.4640782e-38
0.021729531 -0.046963818 0.73600012 1.4181974e-38
0.023162862 -0.047027625 0.73700011 1.6209901e-38
0.024566671 -0.04702761 0.73700005 1.8156773e-38
0.026040956 -0.047155239 0.73900008 1.6789316e-38
0.02748571 -0.047219045 0.74000001 1.5293652e-38
0.028973345 -0.047346689 0.7420001 1.2428349e-38
0.030427627 -0.047410496 0.74300009 9.5864734e-39
0.031928573 -0.047538094 0.74500012 1.0050319e-38
0.033347622 -0.047538109 0.74500012 1.0507716e-38
0.034766674 -0.047538094 0.74500012 1.0139314e-38
-0.031842858 -0.045995228 0.74300003 1.5140268e-38
-0.030263813 -0.04574763 0.73900002 1.5314586e-38
-0.028856209 -0.045747615 0.73900002 1.5600129e-38
-0.027485721 -0.04580953 0.74000001 1.7063749e-38
-0.02597047 -0.045623817 0.73700005 1.8532427e-38
-0.024566678 -0.045623817 0.73700005 2.028522e-38
-0.023162862 -0.045623817 0.73700005 2.2035844e-38
-0.021759044 -0.045623831 0.73700011 2.268193e-38
-0.020272383 -0.045438118 0.73400009 2.3325854e-38
-0.018874289 -0.045438103 0.73400009 2.3325854e-38
-0.017476195 -0.045438103 0.73400009 2.341769e-38
-0.016034285 -0.045314305 0.73200011 2.2681571e-38
-0.014619989 -0.04525239 0.73100007 2.1948255e-38
-0.013227618 -0.045252375 0.73100007 2.046447e-38
-0.011835233 -0.04525239 0.73100007 1.9083241e-38
-0.010442851 -0.04525239 0.73100007 1.6857555e-38
-0.0090504801 -0.045252375 0.73100007 1.4730989e-38
-0.0076580951 -0.045252375 0.73100007 1.4364723e-38
-0.0062485756 -0.045128576 0.72900009 1.3908843e-38
-0.0048733274 -0.04525239 0.73100007 1.2793971e-38
-0.003466679 -0.045066662 0.72800004 1.1684376e-38
-0.0020800058 -0.045066662 0.72800004 1.1956976e-38
-0.00069143838 -0.044942848 0.72600001 1.2233942e-38
0.00069333025 -0.045066662 0.72800004 1.2418356e-38
0.0020885777 -0.04525239 0.73100007 1.2602005e-38
0.0034714325 -0.045128576 0.72900009 1.2694892e-38
0.0048599988 -0.045128576 0.72900009 1.2788537e-38
0.0062657162 -0.045252375 0.73100007 1.3621529e-38
0.0076580946 -0.045252375 0.73100007 1.4449856e-38
0.0090628564 -0.045314305 0.73200011 1.371124e-38
0.010457146 -0.045314305 0.73200011 1.2974395e-38
0.011883807 -0.045438118 0.73400003 1.3252046e-38
0.013281902 -0.045438118 0.73400003 1.3527195e-38
0.014679997 -0.045438103 0.73400003 1.3254201e-38
0.01607809 -0.045438103 0.73400003 1.3075953e-38
0.01752381 -0.045561917 0.73600006 1.409013e-38
0.018925717 -0.045561917 0.73600006 1.5194311e-38
0.020327622 -0.045561917 0.73600006 1.4733342e-38
0.02172952 -0.045561902 0.73600006 1.4362058e-38
0.023162859 -0.045623817 0.73700005 1.5937256e-38
0.024566676 -0.045623802 0.73700011 1.7518226e-38
0.026040953 -0.04574763 0.73900002 1.6411931e-38
0.027485712 -0.04580953 0.74000001 1.5379745e-38
0.028973345 -0.045933343 0.7420001 1.2430853e-38
0.030386683 -0.045933343 0.7420001 9.4935505e-39
0.031842873 -0.045995243 0.74300009 9.955595e-39
0.033258121 -0.045995258 0.74300009 1.0507714e-38
-0.031842839 -0.044580005 0.74300009 1.5209438e-38
-0.030386666 -0.044520013 0.7420001 1.6696038e-38
-0.028973322 -0.044519998 0.7420001 1.8065701e-38
-0.027559996 -0.044520013 0.7420001 1.9273575e-38
-0.026076192 -0.044399999 0.74000001 2.0465297e-38
-0.024566658 -0.044220023 0.73700011 2.1763922e-38
-0.023162866 -0.044220008 0.73700005 2.3048549e-38
-0.021759048 -0.044220008 0.73700005 2.3234019e-38
-0.020327611 -0.044160016 0.73600012 2.341769e-38
-0.018925706 -0.044160016 0.73600012 2.341769e-38
-0.017523799 -0.044160001 0.73600012 2.341769e-38
-0.016034292 -0.043920018 0.73200011 2.341769e-38
-0.014639993 -0.043920018 0.73200011 2.3417656e-38
-0.013245711 -0.043920018 0.73200011 2.3417623e-38
-0.011851429 -0.043920033 0.73200011 2.341147e-38
-0.010442855 -0.043860011 0.73100007 2.1115528e-38
-0.0090504689 -0.043859996 0.73100007 1.8797721e-38
-0.0076580979 -0.043859996 0.73100001 1.5742719e-38
-0.0062657166 -0.043860011 0.73100007 1.2617783e-38
-0.0048733312 -0.043860011 0.73100007 1.1861557e-38
-0.0034809492 -0.043859996 0.73100007 1.1040072e-38
-0.0020885637 -0.043859996 0.73100007 1.1404556e-38
-0.00069334015 -0.04367999 0.72800004 1.1683664e-38
0.00069333258 -0.04367999 0.72800004 1.2144647e-38
0.0020885745 -0.043859996 0.73100007 1.2511618e-38
0.003471432 -0.043740012 0.72900009 1.2877871e-38
0.0048600049 -0.043739997 0.72900009 1.3159485e-38
0.0062657199 -0.043859996 0.73100007 1.3532575e-38
0.0076580909 -0.043860011 0.73100001 1.3806655e-38
0.0090504801 -0.043860011 0.73100007 1.3160587e-38
0.010457147 -0.043920018 0.73200011 1.2518448e-38
0.011883809 -0.044040002 0.73400009 1.2795021e-38
0.013281904 -0.044040002 0.73400009 1.3068736e-38
0.014679997 -0.044040002 0.73400009 1.2884349e-38
0.016121903 -0.044160001 0.73600006 1.2707176e-38
0.017523801 -0.044160016 0.73600006 1.3997938e-38
0.018925706 -0.044160001 0.73600006 1.519431e-38
0.020327626 -0.044160016 0.73600012 1.4828404e-38
0.021759054 -0.044220008 0.73700005 1.445856e-38
0.023162864 -0.044220008 0.73700011 1.5658169e-38
0.024566671 -0.044220008 0.73700005 1.6778519e-38
0.026040947 -0.044340022 0.73900002 1.6143233e-38
0.027485712 -0.044399999 0.74000001 1.5475525e-38
0.028973339 -0.044520013 0.7420001 1.2421171e-38
0.030386683 -0.044520028 0.7420001 9.3077355e-39
0.031842869 -0.044580005 0.74300009 9.8630575e-39
0.03325811 -0.044580005 0.74300009 1.0415161e-38
-0.031842846 -0.043164752 0.74300003 1.4527424e-38
-0.030386666 -0.043106683 0.7420001 1.4915264e-38
-0.02897333 -0.043106683 0.7420001 1.5275126e-38
-0.027485721 -0.042990483 0.74000007 1.5568979e-38
-0.026040958 -0.042932384 0.73900002 1.5954258e-38
-0.024633344 -0.042932399 0.73900008 1.7242825e-38
-0.02316286 -0.042816184 0.73700011 1.8548614e-38
-0.021759054 -0.042816199 0.73700005 2.0288826e-38
-0.020355236 -0.042816199 0.73700005 2.2040158e-38
-0.01895142 -0.042816184 0.73700011 2.2774842e-38
-0.017523816 -0.042758085 0.73600006 2.341769e-38
-0.016078094 -0.0426419 0.73400003 2.341769e-38
-0.01464 -0.042525716 0.73200011 2.341769e-38
-0.013245718 -0.042525731 0.73200011 2.341769e-38
-0.011851421 -0.042525731 0.73200011 2.341769e-38
-0.010457139 -0.042525716 0.73200011 2.2314229e-38
-0.0090504717 -0.042467616 0.73100007 2.112173e-38
-0.0076580914 -0.042467631 0.73100007 1.9353106e-38
-0.0062657199 -0.042467616 0.73100007 1.7589833e-38
-0.004873334 -0.042467616 0.73100007 1.4821748e-38
-0.0034809527 -0.042467631 0.73100007 1.2057058e-38
-0.0020828561 -0.042351432 0.72900009 1.2050661e-38
-0.00069428218 -0.042351417 0.72900009 1.1961697e-38
0.00069429463 -0.042351432 0.72900009 1.232904e-38
0.0020828613 -0.042351432 0.72900009 1.2789292e-38
0.0034714278 -0.042351432 0.72900009 1.3066948e-38
0.0048733382 -0.042467631 0.73100007 1.334712e-38
0.0062657166 -0.042467631 0.73100007 1.362442e-38
0.0076581053 -0.042467631 0.73100007 1.3991768e-38
0.0090628574 -0.042525716 0.73200011 1.3714113e-38
0.010457139 -0.042525731 0.73200011 1.3531867e-38
0.011883809 -0.042641915 0.73400009 1.3345675e-38
0.013281913 -0.04264193 0.73400009 1.3159855e-38
0.014680007 -0.04264193 0.73400009 1.3253845e-38
0.016121905 -0.0427581 0.73600012 1.3349309e-38
0.017523812 -0.042758115 0.73600006 1.4366356e-38
0.018925717 -0.0427581 0.73600006 1.5379416e-38
0.020327622 -0.0427581 0.73600006 1.464258e-38
0.02175905 -0.042816184 0.73700005 1.3903603e-38
0.02316286 -0.042816199 0.73700005 1.5385181e-38
0.024566678 -0.042816184 0.73700011 1.6875376e-38
0.026040951 -0.042932384 0.73900002 1.6043856e-38
0.02748571 -0.042990483 0.74000001 1.5294363e-38
0.028973347 -0.043106683 0.7420001 1.2341177e-38
0.030386671 -0.043106668 0.7420001 9.4020919e-39
0.03184288 -0.043164767 0.74300009 9.8630729e-39
0.033258114 -0.043164767 0.74300009 1.0322966e-38
0.034673344 -0.043164767 0.74300003 1.0507353e-38
-0.031842839 -0.04174953 0.74300009 1.3900336e-38
-0.030304762 -0.041580968 0.74000001 1.3162436e-38
-0.028973332 -0.041693337 0.7420001 1.243172e-38
-0.027485732 -0.041580953 0.74000001 1.1864945e-38
-0.026040956 -0.041524775 0.73900002 1.1337616e-38
-0.024633342 -0.04152476 0.73900002 1.2704752e-38
-0.023162851 -0.041412391 0.73700005 1.4016304e-38
-0.021759048 -0.041412391 0.73700011 1.7332452e-38
-0.020355241 -0.041412376 0.73700005 2.0646447e-38
-0.018925713 -0.041356213 0.73600012 2.2040149e-38
-0.017523807 -0.041356198 0.73600012 2.341661e-38
-0.016078092 -0.041243829 0.73400009 2.341769e-38
-0.014640006 -0.041131444 0.73200011 2.341769e-38
-0.01324571 -0.041131459 0.73200011 2.341769e-38
-0.011851427 -0.041131444 0.73200011 2.341769e-38
-0.010457146 -0.041131444 0.73200011 2.341769e-38
-0.0090628481 -0.041131459 0.73200011 2.3417654e-38
-0.0076580942 -0.041075252 0.73100007 2.295844e-38
-0.0062657231 -0.041075237 0.73100007 2.2479822e-38
-0.0048733274 -0.041075252 0.73100007 1.7779281e-38
-0.003471426 -0.040962853 0.72900009 1.3078052e-38
-0.0020828566 -0.040962867 0.72900009 1.2687351e-38
-0.00069428264 -0.040962867 0.72900009 1.2233589e-38
0.00069429091 -0.040962853 0.72900009 1.2604554e-38
0.0020828575 -0.040962867 0.72900009 1.2973332e-38
0.0034809571 -0.041075252 0.73100007 1.3252787e-38
0.0048733344 -0.041075237 0.73100007 1.3531527e-38
0.0062657129 -0.041075237 0.73100001 1.3810266e-38
0.0076581021 -0.041075252 0.73100007 1.4082894e-38
0.0090628574 -0.041131444 0.73200011 1.4355881e-38
0.01045714 -0.041131444 0.73200011 1.4539534e-38
0.011883812 -0.041243844 0.73400009 1.3895232e-38
0.013281914 -0.041243829 0.73400009 1.3252752e-38
0.014680007 -0.041243829 0.73400009 1.3621898e-38
0.016121903 -0.041356198 0.73600006 1.3996816e-38
0.017523808 -0.041356213 0.73600006 1.4738719e-38
0.018925715 -0.041356198 0.73600006 1.547053e-38
0.020327624 -0.041356213 0.73600012 1.4366709e-38
0.021759056 -0.041412376 0.73700011 1.3263993e-38
0.023162862 -0.041412391 0.73700005 1.5103961e-38
0.024633326 -0.04152476 0.73900002 1.6868217e-38
0.026076196 -0.041580968 0.74000001 1.5954177e-38
0.027560009 -0.041693337 0.7420001 1.5020654e-38
0.028973354 -0.041693352 0.7420001 1.2246477e-38
0.030386679 -0.041693337 0.7420001 9.4942946e-39
0.031842873 -0.041749515 0.74300009 9.8645204e-39
0.03325811 -0.041749515 0.74300009 1.0231854e-38
0.034673348 -0.04174953 0.74300009 1.0325475e-38
-0.031842846 -0.040334307 0.74300003 1.4932026e-38
-0.030386651 -0.040280037 0.7420001 1.5203919e-38
-0.029012371 -0.040334307 0.74300009 1.5485875e-38
-0.027559998 -0.040280007 0.7420001 1.5661287e-38
-0.026040968 -0.040117152 0.73900002 1.5938244e-38
-0.024633339 -0.040117137 0.73900002 1.6488912e-38
-0.02316287 -0.040008567 0.73700005 1.7121408e-38
-0.021759052 -0.040008567 0.73700005 1.7683591e-38
-0.020355234 -0.040008567 0.73700011 1.8325774e-38
-0.018951429 -0.040008567 0.73700005 1.8619985e-38
-0.017523808 -0.039954267 0.73600006 1.9005632e-38
-0.016078092 -0.039845727 0.73400009 2.0748362e-38
-0.014679997 -0.039845727 0.73400009 2.2499335e-38
-0.013281903 -0.039845727 0.73400009 2.2958513e-38
-0.011851435 -0.039737158 0.73200011 2.341769e-38
-0.010457138 -0.039737172 0.73200011 2.341769e-38
-0.0090628555 -0.039737158 0.73200011 2.341769e-38
-0.0076580979 -0.039682873 0.73100007 2.3234019e-38
-0.006265712 -0.039682858 0.73100001 2.2958479e-38
-0.0048733302 -0.039682858 0.73100007 2.0368396e-38
-0.0034809592 -0.039682858 0.73100007 1.7777487e-38
-0.0020885735 -0.039682858 0.73100001 1.5186579e-38
-0.00069427938 -0.039574303 0.72900009 1.2691305e-38
0.00069429044 -0.039574303 0.72900009 1.2138567e-38
0.0020885749 -0.039682887 0.73100007 1.1685494e-38
0.0034809534 -0.039682873 0.73100007 1.2607442e-38
0.0048733321 -0.039682873 0.73100007 1.3532621e-38
0.0062657208 -0.039682873 0.73100007 1.3807418e-38
0.0076580984 -0.039682843 0.73100007 1.4081109e-38
0.0090628518 -0.039737158 0.73200011 1.4171846e-38
0.01045714 -0.039737143 0.73200011 1.426258e-38
0.011883804 -0.039845712 0.73400003 1.3344198e-38
0.013281904 -0.039845712 0.73400003 1.2517695e-38
0.014679999 -0.039845712 0.73400003 1.3165224e-38
0.01607809 -0.039845712 0.73400003 1.3818522e-38
0.017523812 -0.039954297 0.73600006 1.4368863e-38
0.018925717 -0.039954282 0.73600006 1.4917002e-38
0.020327616 -0.039954282 0.73600006 1.4365984e-38
0.021759052 -0.040008582 0.73700005 1.3814659e-38
0.02316287 -0.040008582 0.73700011 1.5479222e-38
0.024633327 -0.040117152 0.73900002 1.7150914e-38
0.026040951 -0.040117137 0.73900002 1.6045656e-38
0.027560009 -0.040280007 0.7420001 1.5026039e-38
0.028973343 -0.040279992 0.7420001 1.2254373e-38
0.030427637 -0.040334307 0.74300009 9.5857797e-39
0.03184288 -0.040334292 0.74300009 9.8630967e-39
0.033258114 -0.040334307 0.74300009 1.013823e-38
-0.031928569 -0.039023809 0.74500012 1.5848977e-38
-0.030427605 -0.038919039 0.74300009 1.7143286e-38
-0.029012367 -0.038919054 0.74300009 1.8431157e-38
-0.027559988 -0.038866691 0.7420001 1.9447468e-38
-0.026040964 -0.038709514 0.73900002 2.0458026e-38
-0.024633335 -0.038709529 0.73900002 2.0374808e-38
-0.023162849 -0.038604759 0.73700011 2.0176442e-38
-0.021759057 -0.038604774 0.73700005 1.8047019e-38
-0.02035524 -0.038604759 0.73700005 1.5943378e-38
-0.018951422 -0.038604774 0.73700011 1.5292245e-38
-0.017523812 -0.038552381 0.73600012 1.4571583e-38
-0.016121907 -0.038552396 0.73600012 1.8069974e-38
-0.014679995 -0.038447626 0.73400009 2.1475464e-38
-0.013281911 -0.038447641 0.73400003 2.2499329e-38
-0.011851426 -0.038342886 0.73200011 2.3417687e-38
-0.010457144 -0.038342871 0.73200011 2.341769e-38
-0.009062862 -0.038342886 0.73200011 2.341769e-38
-0.007668565 -0.038342886 0.73200011 2.341769e-38
-0.006265705 -0.038290463 0.73100007 2.3417673e-38
-0.004873334 -0.038290478 0.73100007 2.2958479e-38
-0.0034809476 -0.038290478 0.73100007 2.247912e-38
-0.0020885665 -0.038290478 0.73100007 1.7773536e-38
-0.00069619558 -0.038290478 0.73100007 1.3071954e-38
0.00069619034 -0.038290478 0.73100007 1.1664972e-38
0.0020885791 -0.038290478 0.73100007 1.0298959e-38
0.0034809576 -0.038290493 0.73100007 1.1866659e-38
0.0048733284 -0.038290463 0.73100007 1.343576e-38
0.0062657171 -0.038290478 0.73100007 1.3713426e-38
0.007658096 -0.038290478 0.73100007 1.3988559e-38
0.0090504745 -0.038290463 0.73100001 1.398711e-38
0.010457142 -0.038342871 0.73200005 1.3895256e-38
0.011883811 -0.038447656 0.73400003 1.2885049e-38
0.013245712 -0.038342856 0.73200011 1.1784106e-38
0.014679999 -0.038447641 0.73400009 1.2703185e-38
0.016078092 -0.038447641 0.73400009 1.3536204e-38
0.017523803 -0.038552396 0.73600006 1.4001163e-38
0.018925708 -0.038552381 0.73600006 1.4366707e-38
0.020327624 -0.038552381 0.73600012 1.4365628e-38
0.021759046 -0.038604759 0.73700005 1.4277419e-38
0.023162864 -0.038604774 0.73700005 1.5847273e-38
0.024633324 -0.038709514 0.73900002 1.7421395e-38
0.026146678 -0.038866691 0.7420001 1.623543e-38
0.027560016 -0.038866691 0.7420001 1.4928821e-38
0.028973343 -0.038866676 0.7420001 1.2343332e-38
0.030427633 -0.038919054 0.74300003 9.6794033e-39
0.031928565 -0.039023824 0.74500006 9.8630939e-39
0.033347625 -0.039023809 0.74500006 9.9549224e-39
0.034766674 -0.039023809 0.74500006 9.6776166e-39
-0.03192858 -0.037604757 0.74500006 1.5657446e-38
-0.030509533 -0.037604757 0.74500006 1.6678428e-38
-0.029090483 -0.037604757 0.74500006 1.7790909e-38
-0.027597135 -0.037503816 0.74300009 1.8805455e-38
-0.026076203 -0.037352391 0.74000001 1.9917887e-38
-0.024633346 -0.037301905 0.73900002 2.0838037e-38
-0.023225717 -0.03730192 0.73900002 2.1764619e-38
-0.02175905 -0.037200965 0.73700011 2.0740054e-38
-0.020355245 -0.03720095 0.73700005 1.9730463e-38
-0.018951427 -0.03720095 0.73700005 1.9166058e-38
-0.017523814 -0.037150465 0.73600006 1.8592141e-38
-0.016121907 -0.03715048 0.73600006 1.8698021e-38
-0.014680005 -0.037049524 0.73400003 1.8791738e-38
-0.013281911 -0.037049524 0.73400003 1.9628028e-38
-0.011883817 -0.03704951 0.73400003 2.0570784e-38
-0.010457136 -0.036948584 0.73200011 2.1948322e-38
-0.0090628536 -0.036948599 0.73200011 2.341769e-38
-0.007668572 -0.036948599 0.73200011 2.341769e-38
-0.006274275 -0.036948599 0.73200011 2.341769e-38
-0.0048800032 -0.036948569 0.73200005 2.3234019e-38
-0.0034857208 -0.036948569 0.73200005 2.2958472e-38
-0.0020914243 -0.036948584 0.73200011 2.0459501e-38
-0.00069618394 -0.036898099 0.73100007 1.7964023e-38
0.00069619733 -0.036898129 0.73100007 1.4262484e-38
0.0020885754 -0.036898084 0.73100007 1.066232e-38
0.0034809539 -0.036898069 0.73100007 1.2231849e-38
0.0048800013 -0.036948584 0.73200011 1.3894936e-38
0.0062742908 -0.036948599 0.73200011 1.4173674e-38
0.0076685799 -0.036948584 0.73200011 1.4539574e-38
0.0090628527 -0.036948569 0.73200005 1.3987119e-38
0.010485719 -0.037049554 0.73400009 1.3435739e-38
0.011883813 -0.037049539 0.73400009 1.2886152e-38
0.013281907 -0.037049539 0.73400009 1.2336571e-38
0.014680001 -0.037049539 0.73400009 1.2886863e-38
0.016078094 -0.037049524 0.73400009 1.3346439e-38
0.017523812 -0.037150495 0.73600006 1.3905023e-38
0.018925719 -0.037150495 0.73600006 1.436671e-38
0.020327624 -0.03715048 0.73600006 1.436599e-38
0.021759054 -0.037200965 0.73700011 1.43671e-38
0.02316286 -0.03720098 0.73700005 1.5754352e-38
0.024633327 -0.037301891 0.73900002 1.7145527e-38
0.026076185 -0.037352361 0.74000001 1.5856972e-38
0.027560005 -0.037453346 0.7420001 1.4548564e-38
0.02897335 -0.037453361 0.7420001 1.21575e-38
0.030427637 -0.037503816 0.74300009 9.7719506e-39
0.031842876 -0.037503801 0.74300009 9.9560014e-39
0.033347629 -0.037604772 0.74500012 1.0140034e-38
0.034766678 -0.037604772 0.74500012 9.9552881e-39
-0.031928569 -0.036185719 0.74500012 1.5381218e-38
-0.030509522 -0.036185719 0.74500012 1.6213156e-38
-0.029012367 -0.036088578 0.74300009 1.7048675e-38
-0.027597129 -0.036088578 0.74300009 1.8249024e-38
-0.026146671 -0.036040001 0.7420001 1.9358602e-38
-0.024633342 -0.035894297 0.73900002 2.1293982e-38
-0.023225714 -0.035894312 0.73900002 2.3230411e-38
-0.021759041 -0.035797141 0.73700005 2.3325826e-38
-0.020355238 -0.035797141 0.73700011 2.3414373e-38
-0.018951431 -0.035797141 0.73700005 2.3050201e-38
-0.017547615 -0.035797141 0.73700005 2.2569149e-38
-0.0161219 -0.035748579 0.73600012 1.9338412e-38
-0.014719992 -0.035748594 0.73600012 1.603195e-38
-0.013318101 -0.035748579 0.73600012 1.6833332e-38
-0.011883815 -0.035651423 0.73400009 1.7604333e-38
-0.010457142 -0.035554312 0.73200011 2.0570778e-38
-0.0090628602 -0.035554297 0.73200011 2.3417684e-38
-0.0076685641 -0.035554297 0.73200011 2.341769e-38
-0.006274282 -0.035554282 0.73200011 2.341769e-38
-0.0048799994 -0.035554297 0.73200011 2.341769e-38
-0.0034857129 -0.035554297 0.73200005 2.341767e-38
-0.0020914304 -0.035554282 0.73200011 2.3142143e-38
-0.0006961872 -0.035505705 0.73100007 2.2754593e-38
0.00069619453 -0.035505705 0.73100007 1.694301e-38
0.0020914304 -0.035554297 0.73200011 1.1045826e-38
0.0034857129 -0.035554297 0.73200011 1.2687405e-38
0.0048800022 -0.035554312 0.73200011 1.4259745e-38
0.0062742913 -0.035554297 0.73200011 1.4638223e-38
0.0076895235 -0.035651438 0.73400009 1.5000536e-38
0.0090876194 -0.035651438 0.73400009 1.3985675e-38
0.010485719 -0.035651438 0.73400009 1.2976911e-38
0.011916188 -0.035748594 0.73600006 1.2978337e-38
0.013318094 -0.035748579 0.73600006 1.2886126e-38
0.014719999 -0.035748579 0.73600006 1.3068706e-38
0.016121905 -0.035748579 0.73600006 1.3163466e-38
0.017523803 -0.035748594 0.73600006 1.3813186e-38
0.01892571 -0.035748594 0.73600006 1.4365634e-38
0.020355238 -0.035797141 0.73700005 1.4364917e-38
0.021759048 -0.035797156 0.73700005 1.4367451e-38
0.023225712 -0.035894297 0.73900002 1.5565642e-38
0.024633324 -0.035894267 0.73900002 1.6775298e-38
0.026076185 -0.03594286 0.74000001 1.5497505e-38
0.027560012 -0.03604003 0.7420001 1.409476e-38
0.029012391 -0.036088578 0.74300003 1.19663e-38
0.030427631 -0.036088593 0.74300003 9.8616337e-39
0.032014303 -0.036282875 0.7470001 1.0141103e-38
0.033481911 -0.036331423 0.74800003 1.0324422e-38
0.035140011 -0.036574297 0.75300002 1.023367e-38
-0.031928565 -0.034766667 0.74500012 1.5100326e-38
-0.030509533 -0.034766667 0.74500012 1.5932989e-38
-0.029012373 -0.034673326 0.74300009 1.6859606e-38
-0.027597135 -0.034673341 0.74300009 1.7969177e-38
-0.026146663 -0.03462667 0.7420001 1.90759e-38
-0.024666661 -0.034533329 0.74000001 2.083157e-38
-0.023225725 -0.034486674 0.73900002 2.2587934e-38
-0.021818096 -0.034486674 0.73900008 2.2956719e-38
-0.020355243 -0.034393348 0.73700005 2.341769e-38
-0.018951425 -0.034393348 0.73700011 2.3234019e-38
-0.01754762 -0.034393333 0.73700005 2.3050309e-38
-0.016143803 -0.034393333 0.73700011 2.1382881e-38
-0.014720008 -0.034346677 0.73600006 1.97254e-38
-0.013318102 -0.034346662 0.73600006 1.888224e-38
-0.011883813 -0.034253351 0.73400009 1.8044407e-38
-0.01048572 -0.034253366 0.73400009 1.9435019e-38
-0.0090628518 -0.034160011 0.73200011 2.0754449e-38
-0.0076685706 -0.034159996 0.73200011 2.2131993e-38
-0.0062742881 -0.034160011 0.73200011 2.341769e-38
-0.0048799915 -0.034160011 0.73200011 2.341769e-38
-0.0034857197 -0.034160011 0.73200005 2.341769e-38
-0.0020914373 -0.034160011 0.73200005 2.3234019e-38
-0.00069618021 -0.034113325 0.73100007 2.3142083e-38
0.00069619081 -0.03411334 0.73100007 1.9350898e-38
0.0020914318 -0.034160025 0.73200011 1.5645157e-38
0.0034857134 -0.034160025 0.73200011 1.379729e-38
0.0048800027 -0.034160011 0.73200011 1.1960965e-38
0.0062742918 -0.034160025 0.73200011 1.3160593e-38
0.0076895254 -0.034253336 0.73400009 1.4267636e-38
0.0090876166 -0.034253336 0.73400003 1.3713028e-38
0.010485711 -0.034253336 0.73400003 1.3069455e-38
0.011883806 -0.034253351 0.73400003 1.3161641e-38
0.013318102 -0.034346662 0.73600012 1.325273e-38
0.014720011 -0.034346662 0.73600012 1.2976116e-38
0.016121907 -0.034346662 0.73600012 1.2792159e-38
0.017523814 -0.034346677 0.73600012 1.381175e-38
0.018925719 -0.034346677 0.73600006 1.4825889e-38
0.020355245 -0.034393348 0.73700011 1.4549667e-38
0.021759044 -0.034393333 0.73700005 1.4182697e-38
0.023225708 -0.034486674 0.73900002 1.5571004e-38
0.024666669 -0.034533329 0.74000001 1.6964334e-38
0.026146676 -0.034626685 0.7420001 1.5579996e-38
0.027560012 -0.034626685 0.7420001 1.418336e-38
0.029012397 -0.034673356 0.74300009 1.1970966e-38
0.030427637 -0.034673341 0.74300009 9.8623498e-39
0.032014292 -0.034860007 0.74700004 1.0047468e-38
0.033571426 -0.035000004 0.75000012 1.0231152e-38
0.035140004 -0.03514 0.75300002 1.0139688e-38
-0.032014284 -0.03343714 0.74700004 1.4731178e-38
-0.030591423 -0.033437155 0.74700004 1.5742816e-38
-0.029090481 -0.033347614 0.74500012 1.6673388e-38
-0.027597131 -0.033258103 0.74300009 1.7691491e-38
-0.026146656 -0.033213355 0.7420001 1.8706027e-38
-0.024666673 -0.033123799 0.74000001 2.02766e-38
-0.023225723 -0.03307905 0.73900002 2.1845705e-38
-0.021818092 -0.033079065 0.73900008 2.2586497e-38
-0.020410489 -0.033079036 0.73900002 2.3323698e-38
-0.018951429 -0.032989539 0.73700005 2.341769e-38
-0.017547613 -0.032989524 0.73700011 2.341767e-38
-0.016121905 -0.032944776 0.73600012 2.3417651e-38
-0.014719998 -0.032944791 0.73600012 2.3410049e-38
-0.013318093 -0.032944776 0.73600006 2.101867e-38
-0.011883812 -0.03285525 0.73400009 1.8510765e-38
-0.010485704 -0.032855235 0.73400009 1.8277583e-38
-0.0090628592 -0.032765739 0.73200011 1.8059567e-38
-0.0076685771 -0.032765724 0.73200011 2.0754461e-38
-0.0062742801 -0.032765724 0.73200011 2.341769e-38
-0.0048799985 -0.032765724 0.73200011 2.341769e-38
-0.0034857157 -0.032765724 0.73200011 2.341769e-38
-0.0020914294 -0.032765739 0.73200005 2.341769e-38
-0.00069618347 -0.032720961 0.73100007 2.341764e-38
0.00069714262 -0.032765724 0.73200011 2.1856386e-38
0.0020914248 -0.032765739 0.73200011 2.0169183e-38
0.0034857143 -0.032765724 0.73200011 1.4895375e-38
0.0048933276 -0.032855235 0.73400003 9.6614639e-39
0.0062914216 -0.032855235 0.73400003 1.1592156e-38
0.007689524 -0.03285525 0.73400003 1.3527181e-38
0.0090876175 -0.03285525 0.73400003 1.3345684e-38
0.010485713 -0.032855265 0.73400003 1.316165e-38
0.011916189 -0.032944776 0.73600006 1.3345318e-38
0.013318094 -0.032944761 0.73600006 1.3528247e-38
0.01472 -0.032944761 0.73600006 1.297506e-38
0.016121898 -0.032944776 0.73600006 1.2428768e-38
0.017523805 -0.032944776 0.73600006 1.3907879e-38
0.01895144 -0.032989539 0.73700011 1.5285048e-38
0.02035524 -0.032989524 0.73700005 1.4641118e-38
0.021759057 -0.032989524 0.73700011 1.4001885e-38
0.023225712 -0.03307905 0.73900002 1.5571009e-38
0.024666669 -0.033123799 0.74000001 1.7141536e-38
0.026146678 -0.03321334 0.7420001 1.5674678e-38
0.027560012 -0.033213325 0.7420001 1.4185141e-38
0.029012391 -0.033258088 0.74300003 1.1963433e-38
0.030427627 -0.033258088 0.74300003 9.767643e-39
0.032142848 -0.03357143 0.75000006 9.954914e-39
0.033660956 -0.033660956 0.75200003 1.0046375e-38
0.035140008 -0.033705719 0.75300002 9.9534482e-39
-0.032014288 -0.032014288 0.74700004 1.4542472e-38
-0.030591426 -0.032014288 0.74700004 1.5378298e-38
-0.029090479 -0.031928577 0.74500006 1.6307446e-38
-0.027597137 -0.03184288 0.74300009 1.7318383e-38
-0.026181899 -0.031842865 0.74300009 1.8331492e-38
-0.024733322 -0.031800009 0.7420001 1.9535446e-38
-0.023257146 -0.031714298 0.74000001 2.0738287e-38
-0.021818103 -0.031671442 0.73900008 2.1754228e-38
-0.020410486 -0.031671427 0.73900002 2.2771244e-38
-0.019002872 -0.031671427 0.73900002 2.3049631e-38
-0.017547619 -0.031585716 0.73700005 2.341769e-38
-0.016143801 -0.031585731 0.73700011 2.341769e-38
-0.014739993 -0.031585731 0.73700005 2.341769e-38
-0.013318093 -0.03154286 0.73600006 2.2218448e-38
-0.011916188 -0.03154286 0.73600006 2.101867e-38
-0.010485712 -0.031457148 0.73400003 1.9428949e-38
-0.0090876184 -0.031457148 0.73400003 1.7869357e-38
-0.0076895249 -0.031457163 0.73400003 1.9908568e-38
-0.0062742871 -0.031371437 0.73200011 2.1948322e-38
-0.0048799901 -0.031371437 0.73200011 2.2683006e-38
-0.0034857078 -0.031371437 0.73200011 2.341769e-38
-0.0020914359 -0.031371437 0.73200005 2.341769e-38
-0.00069713901 -0.031371452 0.73200005 2.341769e-38
0.00069714308 -0.031371452 0.73200011 2.2590094e-38
0.0020914257 -0.031371437 0.73200011 2.1851691e-38
0.0034952352 -0.031457163 0.73400009 1.7037371e-38
0.004893329 -0.031457163 0.73400009 1.2227809e-38
0.0062914304 -0.031457148 0.73400009 1.2784882e-38
0.0076895249 -0.031457148 0.73400003 1.3434239e-38
0.0090876194 -0.031457148 0.73400009 1.3344605e-38
0.010514281 -0.031542845 0.73600006 1.3253486e-38
0.011916197 -0.031542875 0.73600012 1.3253486e-38
0.013318104 -0.03154286 0.73600012 1.3254189e-38
0.014720003 -0.03154286 0.73600012 1.2701366e-38
0.016121907 -0.031542875 0.73600012 1.2059995e-38
0.017523814 -0.031542875 0.73600006 1.3354702e-38
0.018951435 -0.031585716 0.73700005 1.4734735e-38
0.020355234 -0.031585716 0.73700005 1.4275545e-38
0.021818087 -0.031671427 0.73900002 1.381605e-38
0.023257148 -0.031714283 0.74000001 1.5570294e-38
0.024666671 -0.031714298 0.74000001 1.7325556e-38
0.026146686 -0.031800009 0.7420001 1.5760391e-38
0.027560012 -0.031800009 0.7420001 1.4184054e-38
0.029012395 -0.031842865 0.74300009 1.1880206e-38
0.03050953 -0.031928577 0.74500012 9.5857643e-39
0.032142855 -0.032142855 0.75000006 9.8616407e-39
0.033660963 -0.032228582 0.75200009 1.0137105e-38
0.035140008 -0.032271437 0.75300002 1.0045944e-38
-0.030591432 -0.030591436 0.74700004 1.5103513e-38
-0.029090481 -0.030509539 0.74500012 1.5931858e-38
-0.027597133 -0.030427627 0.74300009 1.6943516e-38
-0.026181893 -0.030427627 0.74300009 1.7870508e-38
-0.024733337 -0.030386679 0.7420001 1.8795707e-38
-0.023319986 -0.030386679 0.7420001 1.9630864e-38
-0.021847617 -0.030304767 0.74000001 2.0921254e-38
-0.020410482 -0.030263804 0.73900002 2.212481e-38
-0.019002868 -0.030263804 0.73900002 2.2774842e-38
-0.017595239 -0.030263789 0.73900002 2.341769e-38
-0.016143804 -0.030181907 0.73700005 2.341769e-38
-0.014739987 -0.030181922 0.73700011 2.341769e-38
-0.013336195 -0.030181907 0.73700005 2.341769e-38
-0.011916193 -0.030140959 0.73600012 2.3410068e-38
-0.010528571 -0.030181892 0.73700005 2.0550883e-38
-0.0090876175 -0.030059062 0.73400009 1.7600361e-38
-0.0076895235 -0.030059062 0.73400003 1.9061531e-38
-0.006291429 -0.030059062 0.73400009 2.0464211e-38
-0.0048799966 -0.029977165 0.73200011 2.1948322e-38
-0.0034857143 -0.029977165 0.73200011 2.341769e-38
-0.0020914173 -0.029977165 0.73200011 2.341769e-38
-0.00069618999 -0.029936202 0.73100007 2.341769e-38
0.00069713657 -0.029977165 0.73200011 2.341769e-38
0.0020971431 -0.030059047 0.73400009 2.3411882e-38
0.0034952366 -0.030059062 0.73400009 1.9174466e-38
0.0048933304 -0.030059062 0.73400009 1.4827261e-38
0.0062914318 -0.030059062 0.73400009 1.4069174e-38
0.0077104778 -0.030140959 0.73600012 1.325023e-38
0.0091123842 -0.030140974 0.73600006 1.3344261e-38
0.010514284 -0.030140959 0.73600006 1.3344616e-38
0.011916189 -0.030140974 0.73600006 1.3161301e-38
0.013318095 -0.030140959 0.73600006 1.2976901e-38
0.014720001 -0.030140959 0.73600006 1.2332606e-38
0.016143816 -0.030181892 0.73700005 1.1694456e-38
0.017547624 -0.030181907 0.73700011 1.2899834e-38
0.018951431 -0.030181907 0.73700005 1.4093687e-38
0.020355249 -0.030181907 0.73700005 1.3818532e-38
0.02181809 -0.030263804 0.73900002 1.354271e-38
0.023257148 -0.030304767 0.74000001 1.5568874e-38
0.024666669 -0.030304767 0.74000001 1.7508178e-38
0.026146675 -0.030386664 0.7420001 1.5857287e-38
0.027560012 -0.030386664 0.7420001 1.4096178e-38
0.029012401 -0.030427612 0.74300009 1.1695807e-38
0.030632384 -0.030632369 0.74800003 9.3098935e-39
0.032142859 -0.030714296 0.75000012 9.7680102e-39
0.033660959 -0.030796193 0.75200003 1.0137477e-38
0.03514 -0.030837141 0.75300002 1.01396e-38
0.036574293 -0.030837156 0.75300002 1.0139602e-38
-0.030632379 -0.02920761 0.74800009 1.4452059e-38
-0.029090481 -0.029090486 0.74500012 1.5556271e-38
-0.02767143 -0.029090486 0.74500012 1.6574387e-38
-0.026181901 -0.029012389 0.74300009 1.7595348e-38
-0.024766661 -0.029012389 0.74300009 1.8241073e-38
-0.023320004 -0.028973334 0.7420001 1.889473e-38
-0.021847617 -0.028895222 0.74000001 2.0370243e-38
-0.020410493 -0.028856181 0.73900002 2.184787e-38
-0.019002864 -0.028856181 0.73900002 2.2586866e-38
-0.01759525 -0.028856181 0.73900002 2.3325854e-38
-0.01614381 -0.028778084 0.73700005 2.3325854e-38
-0.014739991 -0.028778099 0.73700005 2.341769e-38
-0.013336189 -0.028778099 0.73700011 2.341769e-38
-0.011932382 -0.028778084 0.73700005 2.341769e-38
-0.010528565 -0.028778099 0.73700011 2.184429e-38
-0.0091123721 -0.028739057 0.73600012 2.0266156e-38
-0.0076895226 -0.028660946 0.73400009 1.9608169e-38
-0.0062914286 -0.028660975 0.73400009 1.8990503e-38
-0.0048800032 -0.028582864 0.73200011 2.1208975e-38
-0.0034857059 -0.028582878 0.73200011 2.341769e-38
-0.0020914238 -0.028582893 0.73200011 2.341769e-38
-0.00069619325 -0.028543793 0.73100007 2.341769e-38
0.0006971375 -0.028582864 0.73200005 2.341769e-38
0.0021028614 -0.028739057 0.73600006 2.3417684e-38
0.0035047599 -0.028739043 0.73600006 2.120143e-38
0.0049066651 -0.028739057 0.73600006 1.8979667e-38
0.0062914332 -0.028660975 0.73400009 1.5557943e-38
0.0077104769 -0.028739043 0.73600006 1.2245443e-38
0.0091123758 -0.028739057 0.73600006 1.2701427e-38
0.010514282 -0.028739028 0.73600006 1.3252434e-38
0.011916198 -0.028739057 0.73600012 1.3068756e-38
0.013318104 -0.028739057 0.73600012 1.2884361e-38
0.014720004 -0.028739043 0.73600012 1.260777e-38
0.016143812 -0.028778084 0.73700005 1.2424488e-38
0.017547619 -0.028778113 0.73700005 1.3446187e-38
0.018951437 -0.028778099 0.73700011 1.4553949e-38
0.020355243 -0.028778084 0.73700005 1.418445e-38
0.021818087 -0.028856196 0.73900002 1.3814283e-38
0.023257136 -0.028895237 0.74000001 1.5386652e-38
0.024666669 -0.028895251 0.74000001 1.7056919e-38
0.026146684 -0.028973348 0.7420001 1.5487472e-38
0.027560011 -0.028973334 0.7420001 1.4003998e-38
0.029012395 -0.029012389 0.74300009 1.1791579e-38
0.03063238 -0.02920761 0.74800003 9.5882642e-39
0.032142852 -0.029285707 0.75000006 9.9545496e-39
0.033660959 -0.029363804 0.75200003 1.0412996e-38
0.035140011 -0.029402874 0.75300002 1.0322221e-38
-0.03071429 -0.027857162 0.75000012 1.3894935e-38
-0.029090477 -0.027671404 0.74500012 1.5095275e-38
-0.027671428 -0.027671434 0.74500012 1.6202704e-38
-0.026181897 -0.027597167 0.74300009 1.7218299e-38
-0.024766669 -0.027597152 0.74300003 1.7678217e-38
-0.023319995 -0.027560003 0.7420001 1.8153572e-38
-0.021906668 -0.027560003 0.7420001 1.9908883e-38
-0.020438103 -0.027485706 0.74000001 2.1566601e-38
-0.019002875 -0.027448572 0.73900002 2.2398876e-38
-0.017595246 -0.027448572 0.73900002 2.3138948e-38
-0.016187618 -0.027448572 0.73900002 2.3325854e-38
-0.014780012 -0.027448587 0.73900002 2.341769e-38
-0.013372383 -0.027448587 0.73900002 2.341769e-38
-0.011932387 -0.02737429 0.73700005 2.341769e-38
-0.010528569 -0.02737429 0.73700005 2.3234019e-38
-0.0091123739 -0.027337141 0.73600006 2.2928986e-38
-0.0077104829 -0.027337156 0.73600006 2.0206455e-38
-0.0062914272 -0.027262889 0.73400009 1.7507822e-38
-0.0048933332 -0.027262874 0.73400009 2.0478954e-38
-0.0034857127 -0.027188592 0.73200011 2.341769e-38
-0.0020914308 -0.027188592 0.73200011 2.341769e-38
-0.00069618534 -0.027151443 0.73100007 2.341769e-38
0.00069713796 -0.027188577 0.73200005 2.341769e-38
0.0021028628 -0.027337141 0.73600012 2.3417687e-38
0.0035047687 -0.027337156 0.73600012 2.3234013e-38
0.0048933295 -0.027262874 0.73400003 2.3030143e-38
0.0063085728 -0.027337156 0.73600012 1.7121708e-38
0.0077104787 -0.027337141 0.73600012 1.1138054e-38
0.0091123851 -0.027337156 0.73600006 1.2146811e-38
0.010514292 -0.027337141 0.73600006 1.3160227e-38
0.011916189 -0.027337156 0.73600006 1.2976555e-38
0.013318096 -0.027337156 0.73600006 1.2700684e-38
0.014720001 -0.027337141 0.73600006 1.288184e-38
0.016143816 -0.02737429 0.73700011 1.3070205e-38
0.017547622 -0.02737429 0.73700005 1.3998635e-38
0.019002849 -0.027448557 0.73900002 1.4918787e-38
0.020410476 -0.027448557 0.73900002 1.4550373e-38
0.021847615 -0.027485721 0.74000001 1.4091226e-38
0.023257136 -0.027485706 0.74000001 1.5290142e-38
0.02473334 -0.027560003 0.7420001 1.6498363e-38
0.026146673 -0.027560003 0.7420001 1.5214469e-38
0.027560009 -0.027560003 0.7420001 1.3913605e-38
0.029012397 -0.027597152 0.74300009 1.1878056e-38
0.030591438 -0.027745731 0.74700004 9.7701528e-39
0.032142855 -0.027857162 0.75000012 1.023185e-38
0.033660952 -0.027931429 0.75200003 1.0688861e-38
0.035140015 -0.027968578 0.75300002 1.0499795e-38
0.036574297 -0.027968548 0.75300002 1.0323659e-38
-0.030837139 -0.026534297 0.75300002 1.3713044e-38
-0.02916857 -0.026322864 0.7470001 1.4819386e-38
-0.02767144 -0.026252367 0.74500012 1.5831738e-38
-0.026252391 -0.026252382 0.74500012 1.6845197e-38
-0.024766663 -0.026181899 0.74300009 1.7496692e-38
-0.02335141 -0.026181914 0.74300009 1.8152478e-38
-0.021906661 -0.026146673 0.7420001 1.9351025e-38
-0.020438103 -0.026076205 0.74000001 2.0640692e-38
-0.019028572 -0.02607619 0.74000001 2.1659514e-38
-0.017595245 -0.026040934 0.73900002 2.2679046e-38
-0.016187629 -0.026040949 0.73900002 2.3048554e-38
-0.014780009 -0.026040949 0.73900002 2.341769e-38
-0.013372394 -0.026040964 0.73900002 2.341769e-38
-0.011932381 -0.025970496 0.73700011 2.341769e-38
-0.010528575 -0.025970466 0.73700005 2.3325854e-38
-0.0091123888 -0.025935225 0.73600006 2.3233869e-38
-0.0077104731 -0.025935255 0.73600012 2.0446367e-38
-0.006291436 -0.025864772 0.73400003 1.779441e-38
-0.0048933425 -0.025864772 0.73400003 2.0650787e-38
-0.0034952478 -0.025864758 0.73400003 2.341769e-38
-0.0020971533 -0.025864772 0.73400003 2.341769e-38
-0.00069714041 -0.02579432 0.73200011 2.341769e-38
0.00069713843 -0.02579429 0.73200005 2.341769e-38
0.0021028544 -0.02593524 0.73600006 2.341769e-38
0.0035047603 -0.02593524 0.73600006 2.3325854e-38
0.0048933309 -0.025864772 0.73400003 2.3233931e-38
0.0063085719 -0.02593524 0.73600006 1.7960833e-38
0.0077104778 -0.025935225 0.73600006 1.268062e-38
0.0091123767 -0.02593524 0.73600006 1.2783546e-38
0.010514283 -0.02593524 0.73600006 1.2886862e-38
0.011916199 -0.025935255 0.73600012 1.2516652e-38
0.013318097 -0.025935255 0.73600012 1.2151102e-38
0.014720003 -0.02593524 0.73600012 1.2608843e-38
0.01614381 -0.025970466 0.73700005 1.2976216e-38
0.017595232 -0.026040949 0.73900002 1.3812093e-38
0.019002853 -0.026040949 0.73900002 1.4643287e-38
0.020438099 -0.02607619 0.74000001 1.4274163e-38
0.021847613 -0.02607619 0.74000001 1.3903253e-38
0.023320002 -0.026146658 0.7420001 1.5477748e-38
0.024733348 -0.026146673 0.7420001 1.7146582e-38
0.026146673 -0.026146673 0.7420001 1.5580009e-38
0.027597154 -0.026181929 0.74300009 1.4007241e-38
0.029012391 -0.026181914 0.74300009 1.1792699e-38
0.030591432 -0.026322864 0.7470001 9.6786872e-39
0.032057147 -0.02635809 0.74800003 1.0139297e-38
0.033571422 -0.026428588 0.75000012 1.0600255e-38
0.035140008 -0.026534297 0.75300002 1.0413342e-38
-0.03083713 -0.025100015 0.75300002 1.3527576e-38
-0.029363811 -0.025066681 0.75200003 1.4445921e-38
-0.027745713 -0.024899997 0.7470001 1.5460048e-38
-0.026252389 -0.024833322 0.74500006 1.6474206e-38
-0.024766656 -0.024766669 0.74300003 1.7310432e-38
-0.023351418 -0.024766661 0.74300009 1.8144902e-38
-0.021906653 -0.02473335 0.7420001 1.8885026e-38
-0.020438103 -0.024666689 0.74000001 1.9626548e-38
-0.019028572 -0.024666674 0.74000001 2.0919442e-38
-0.017595241 -0.024633333 0.73900002 2.2123724e-38
-0.016187625 -0.024633341 0.73900002 2.2771612e-38
-0.014780006 -0.024633326 0.73900002 2.3416971e-38
-0.013372392 -0.024633341 0.73900002 2.341769e-38
-0.011932385 -0.024566673 0.73700005 2.341769e-38
-0.010528569 -0.02456668 0.73700011 2.341769e-38
-0.0091247624 -0.024566665 0.73700005 2.3412592e-38
-0.0077209454 -0.024566688 0.73700005 2.0734222e-38
-0.0063085686 -0.024533331 0.73600006 1.8069979e-38
-0.0049066627 -0.024533324 0.73600006 2.0728251e-38
-0.003504771 -0.024533339 0.73600006 2.3411222e-38
-0.002097138 -0.024466671 0.73400009 2.341769e-38
-0.00069713249 -0.024400018 0.73200011 2.341769e-38
0.0006971496 -0.024400033 0.73200011 2.341769e-38
0.0021028623 -0.024533331 0.73600012 2.341769e-38
0.0035047692 -0.024533339 0.73600012 2.341769e-38
0.0049066674 -0.024533354 0.73600012 2.341297e-38
0.0063085733 -0.024533346 0.73600012 1.8898983e-38
0.0077104792 -0.024533346 0.73600012 1.4265158e-38
0.0091123851 -0.024533354 0.73600006 1.3420265e-38
0.010514284 -0.024533346 0.73600006 1.2604887e-38
0.011916191 -0.024533354 0.73600006 1.2143578e-38
0.013318096 -0.024533331 0.73600006 1.1597586e-38
0.014720003 -0.024533331 0.73600006 1.224187e-38
0.016143806 -0.024566658 0.73700005 1.2887249e-38
0.017547624 -0.02456668 0.73700005 1.3630205e-38
0.019002857 -0.024633326 0.73900002 1.4274499e-38
0.020493338 -0.024733335 0.74200004 1.3999004e-38
0.021906676 -0.024733335 0.7420001 1.3633482e-38
0.02332001 -0.024733335 0.7420001 1.5753977e-38
0.024733337 -0.024733335 0.7420001 1.7785485e-38
0.02618192 -0.024766676 0.74300009 1.5950933e-38
0.027597159 -0.024766684 0.74300009 1.4098342e-38
0.029090477 -0.024833344 0.74500012 1.1789804e-38
0.030591432 -0.024900004 0.7470001 9.4957211e-39
0.032142859 -0.025000006 0.75000012 9.9549098e-39
0.033660959 -0.025066666 0.75200003 1.0414795e-38
0.035233341 -0.025166653 0.75500011 1.0230755e-38
-0.032485712 -0.023822851 0.75800002 1.1872742e-38
-0.030837135 -0.023665726 0.75300002 1.2877908e-38
-0.029363813 -0.023634292 0.75200003 1.388484e-38
-0.027931433 -0.023634292 0.75200003 1.5085488e-38
