# .PCD v0.7 - Point Cloud Data file format
VERSION 0.7
FIELDS x y z rgb
SIZE 4 4 4 4
TYPE F F F F
COUNT 1 1 1 1
WIDTH 960
HEIGHT 1
VIEWPOINT 0 0 0 1 0 0 0
POINTS 960
DATA ascii
0.034766655 -0.034766652 0.745 9.0334383e-39
0.03628286 -0.034860007 0.7470001 8.3909107e-39
0.037756186 -0.034906648 0.74800003 9.035515e-39
0.039285704 -0.034999974 0.75 9.6808648e-39
0.040822856 -0.035093345 0.75200009 1.0048196e-38
0.042311426 -0.035139985 0.75300002 1.041519e-38
0.043861896 -0.035233326 0.755 1.0784694e-38
0.045299988 -0.035233326 0.755 1.1150219e-38
0.046799991 -0.035279997 0.75600004 1.0416946e-38
-0.028265733 -0.034063809 0.76100004 9.7641342e-39
-0.026780948 -0.034019046 0.76000011 9.8559487e-39
-0.025266683 -0.033929519 0.75800002 9.9477631e-39
-0.023760019 -0.033839963 0.75600004 9.9459681e-39
-0.022320021 -0.033839993 0.75600004 9.853055e-39
-0.020852391 -0.03379523 0.75500005 9.6679505e-39
-0.019362867 -0.033705704 0.75300002 9.8491117e-39
-0.017904762 -0.033660941 0.75200003 9.9347927e-39
-0.016384775 -0.033481903 0.74799997 9.0002388e-39
-0.014939992 -0.03343714 0.7470001 8.1096842e-39
-0.013480959 -0.033347599 0.745 1.5698486e-38
-0.012061917 -0.033347614 0.74500006 2.3227171e-38
-0.010614306 -0.033258103 0.74300003 2.2571017e-38
-0.0091990698 -0.033258088 0.74300003 2.1922052e-38
-0.007773343 -0.03321334 0.7420001 1.9778609e-38
-0.0063600074 -0.033213325 0.7420001 1.7574602e-38
-0.0049333484 -0.033123784 0.74000001 2.0556432e-38
-0.0035238108 -0.033123799 0.74000001 2.3414098e-38
-0.0021057327 -0.032989509 0.73700005 2.341769e-38
-0.00070190791 -0.032989509 0.73700011 2.341769e-38
0.00070189184 -0.032989524 0.73700011 2.341769e-38
0.0021057071 -0.032989524 0.73700011 2.341769e-38
0.0035095138 -0.032989524 0.73700011 2.341769e-38
0.0049133203 -0.032989509 0.73700005 2.341769e-38
0.0063085626 -0.032944761 0.73600006 2.341769e-38
0.0077104662 -0.032944746 0.73600006 2.341769e-38
0.009112373 -0.032944776 0.73600006 2.341769e-38
0.010528558 -0.032989509 0.73700005 2.341769e-38
0.011932375 -0.032989524 0.73700011 2.341769e-38
0.013336182 -0.032989524 0.73700011 2.341769e-38
0.014739996 -0.032989524 0.73700011 2.2866677e-38
0.016143803 -0.032989524 0.73700011 2.2296592e-38
0.017547611 -0.032989524 0.73700005 2.2452582e-38
0.018951418 -0.032989509 0.73700005 2.2670392e-38
0.020355225 -0.032989524 0.73700005 2.295636e-38
0.02181809 -0.033079036 0.73900002 2.3140749e-38
0.023225702 -0.03307905 0.73900002 2.3325854e-38
0.02463332 -0.033079036 0.73900002 2.3417687e-38
0.026040949 -0.03307905 0.73900008 2.2499329e-38
0.027485702 -0.033123799 0.73999995 2.1467958e-38
0.028895225 -0.033123784 0.74000001 1.5028698e-38
0.03038667 -0.033213325 0.74200004 8.4990055e-39
0.031842843 -0.033258088 0.74300003 8.7705211e-39
0.033347618 -0.033347614 0.74500006 8.9462818e-39
0.034860007 -0.033437155 0.74700004 8.6653775e-39
0.036282849 -0.033437125 0.74700004 8.2997941e-39
0.037756182 -0.033481903 0.74799997 8.9443998e-39
0.039390471 -0.033660941 0.75200003 9.4968337e-39
0.040877134 -0.033705704 0.75300002 1.004819e-38
0.042311426 -0.033705704 0.75300002 1.0508787e-38
0.0438619 -0.03379523 0.755 1.1158077e-38
0.045299988 -0.033795245 0.755 1.1705148e-38
0.046799991 -0.033839993 0.75600004 1.0416587e-38
-0.028265726 -0.032614283 0.76100004 9.766302e-39
-0.026710495 -0.032485716 0.75800002 9.9485142e-39
-0.025266681 -0.032485701 0.75799996 1.0131085e-38
-0.023760015 -0.032400005 0.75600004 1.031403e-38
-0.022320027 -0.032400005 0.75600004 9.8534095e-39
-0.020852393 -0.032357119 0.755 9.3013217e-39
-0.019362867 -0.032271422 0.75300002 9.4821243e-39
-0.017904773 -0.032228582 0.75200003 9.6621547e-39
-0.016428579 -0.03214284 0.75000006 9.4701782e-39
-0.014960021 -0.032057129 0.74800003 9.2999583e-39
-0.013517145 -0.032014288 0.74700004 1.6328061e-38
-0.012061918 -0.031928547 0.745 2.3324389e-38
-0.01064286 -0.031928547 0.745 2.2668236e-38
-0.009199068 -0.03184285 0.74299997 2.1934612e-38
-0.007773337 -0.031799994 0.74200004 1.9697181e-38
-0.0063600023 -0.031799994 0.74200004 1.7373359e-38
-0.0049333507 -0.031714253 0.73999995 1.9336747e-38
-0.0035238278 -0.031714268 0.73999995 2.1213637e-38
-0.0021114426 -0.031671442 0.73900002 2.2123742e-38
-0.00070191862 -0.031585716 0.73700011 2.2958513e-38
0.00070189557 -0.031585716 0.73700011 2.2949544e-38
0.0021057024 -0.031585701 0.73700011 2.2958513e-38
0.0035095101 -0.031585701 0.73700011 2.2949544e-38
0.004913324 -0.031585716 0.73700005 2.2866677e-38
0.0063171317 -0.031585701 0.73700005 2.285448e-38
0.0077209384 -0.031585716 0.73700005 2.2866677e-38
0.0091247456 -0.031585701 0.73700005 2.2670092e-38
0.010528564 -0.031585731 0.73700011 2.2591171e-38
0.011932378 -0.031585701 0.73700011 2.2768384e-38
0.013336184 -0.031585716 0.73700011 2.3050348e-38
0.014739993 -0.031585716 0.73700011 2.239602e-38
0.016187605 -0.031671412 0.73900002 2.1841368e-38
0.017595228 -0.031671427 0.73900002 2.2288655e-38
0.019002846 -0.031671427 0.73900002 2.2772637e-38
0.020410474 -0.031671427 0.73900008 2.3049272e-38
0.021818087 -0.031671442 0.73900002 2.3325854e-38
0.023225706 -0.031671427 0.73900002 2.2958513e-38
0.024633326 -0.031671427 0.73900002 2.2683e-38
0.026040936 -0.031671427 0.73900002 1.8065749e-38
0.027485713 -0.031714283 0.74000001 1.35378e-38
0.028895235 -0.031714268 0.74000001 1.1523848e-38
0.030386657 -0.031800009 0.74200004 9.4966207e-39
0.031842835 -0.03184282 0.74300003 9.3157888e-39
0.033347614 -0.031928547 0.74500006 9.1321023e-39
0.034860007 -0.032014288 0.7470001 8.9448286e-39
0.036282852 -0.032014288 0.74700004 8.7596891e-39
0.03785713 -0.03214284 0.75 9.2199091e-39
0.039390467 -0.032228567 0.75200003 9.7723388e-39
0.040877137 -0.032271422 0.75300002 1.0047826e-38
0.042423796 -0.032357134 0.755 1.0322214e-38
0.043861888 -0.032357134 0.755 1.0693819e-38
0.045359988 -0.032399975 0.75599998 1.1156977e-38
0.046799988 -0.03239999 0.75600004 1.0416228e-38
-0.026710493 -0.031041898 0.75800002 1.004034e-38
-0.025200009 -0.030960001 0.75600004 1.0405876e-38
-0.023760021 -0.030960001 0.75600004 1.0680648e-38
-0.022290489 -0.030919038 0.75500005 9.8530368e-39
-0.020797145 -0.030837126 0.75300002 8.9339798e-39
-0.019337159 -0.030796163 0.75200003 9.1158725e-39
-0.01790477 -0.030796178 0.75200003 9.2916121e-39
-0.016428582 -0.030714266 0.75000006 9.9186386e-39
-0.014960007 -0.030632384 0.74800003 1.0506755e-38
-0.013517153 -0.030591421 0.74700004 1.6989205e-38
-0.012094283 -0.030591421 0.74700004 2.3411205e-38
-0.010642866 -0.030509509 0.74500006 2.2659632e-38
-0.0091990707 -0.030427612 0.74300003 2.192528e-38
-0.007773336 -0.030386664 0.7420001 1.9609996e-38
-0.0063600121 -0.030386664 0.74200004 1.719468e-38
-0.0049333423 -0.030304752 0.73999995 1.8111631e-38
-0.0035190575 -0.030263819 0.73900002 1.8971888e-38
-0.0021057145 -0.030181892 0.73700011 2.0720727e-38
-0.00070191489 -0.030181907 0.73700011 2.248175e-38
0.00070189976 -0.030181907 0.73700011 2.2463103e-38
0.0021057061 -0.030181907 0.73700011 2.2481398e-38
0.0035095138 -0.030181907 0.73700005 2.2371268e-38
0.0049133203 -0.030181907 0.73700005 2.2294132e-38
0.0063085626 -0.030140944 0.73600006 2.2266142e-38
0.007710469 -0.030140974 0.73600006 2.2198342e-38
0.0091123655 -0.030140944 0.73600006 2.1896646e-38
0.010528566 -0.030181907 0.73700011 2.1651276e-38
0.011932375 -0.030181892 0.73700011 2.2197271e-38
0.013336182 -0.030181907 0.73700011 2.2665001e-38
0.014739988 -0.030181892 0.73700005 2.2009182e-38
0.016187612 -0.030263819 0.73900002 2.1275947e-38
0.017595228 -0.030263804 0.73900002 2.208813e-38
0.019002849 -0.030263804 0.73900002 2.2853355e-38
0.020410459 -0.030263789 0.73900002 2.3142183e-38
0.02181809 -0.030263819 0.73900008 2.341769e-38
0.023225712 -0.030263804 0.73900002 2.2683006e-38
0.024633322 -0.030263819 0.73900002 2.1928206e-38
0.026076181 -0.030304752 0.74000001 1.3726121e-38
0.027485713 -0.030304752 0.74000001 5.5502321e-39
0.028895224 -0.030304752 0.73999995 8.0326422e-39
0.030427611 -0.030427612 0.74300003 1.0506082e-38
0.031842846 -0.030427612 0.74300003 9.8635731e-39
0.033347614 -0.030509494 0.74500006 9.2217925e-39
0.034860004 -0.030591421 0.74700004 9.2214253e-39
0.036331415 -0.030632369 0.74799997 9.1288233e-39
0.037857134 -0.030714281 0.75000006 9.5872329e-39
0.039390467 -0.030796178 0.75200003 1.0047473e-38
0.040877137 -0.030837141 0.75300002 1.0047817e-38
0.04231143 -0.030837141 0.75300002 1.0047082e-38
0.043861888 -0.030919053 0.755 1.0321134e-38
0.045359991 -0.030960001 0.75600004 1.0506963e-38
0.04679998 -0.030959986 0.75600004 1.0414058e-38
-0.026710493 -0.029598095 0.75800002 9.8563004e-39
-0.025266692 -0.02959808 0.75799996 1.0038534e-38
-0.023760017 -0.029519998 0.75600004 1.0312224e-38
-0.022290489 -0.029480942 0.755 9.7611873e-39
-0.020797154 -0.02940283 0.75299996 9.209845e-39
-0.019337155 -0.029363804 0.75200003 9.2070031e-39
-0.017904766 -0.029363804 0.75200003 9.1126341e-39
-0.016428588 -0.029285692 0.75 9.9319551e-39
-0.015000019 -0.029285692 0.75 1.0686502e-38
-0.013535248 -0.02920761 0.74799997 1.7066333e-38
-0.012094281 -0.029168569 0.7470001 2.3416947e-38
-0.010642871 -0.029090457 0.74500006 2.2669322e-38
-0.0091990689 -0.029012375 0.74300003 2.1934963e-38
-0.0077838339 -0.02901236 0.74300003 1.9690698e-38
-0.0063600107 -0.028973334 0.7420001 1.7357517e-38
-0.0049466761 -0.028973334 0.7420001 1.9314774e-38
-0.0035238117 -0.028895222 0.74000001 2.1168378e-38
-0.0021057252 -0.028778113 0.73700011 2.2112236e-38
-0.0007019107 -0.028778084 0.73700011 2.29585e-38
0.00070188905 -0.028778084 0.73700011 2.2949544e-38
0.0021057038 -0.028778084 0.73700005 2.2958513e-38
0.0035095115 -0.028778084 0.73700005 2.2949185e-38
0.004913318 -0.028778084 0.73700005 2.2865943e-38
0.0063171322 -0.028778084 0.73700005 2.2853729e-38
0.0077104699 -0.028739043 0.73600006 2.2865566e-38
0.0091123767 -0.028739057 0.73600006 2.2667903e-38
0.010528564 -0.028778099 0.73700011 2.258289e-38
0.011932371 -0.028778099 0.73700011 2.2762621e-38
0.013336178 -0.028778084 0.73700011 2.3036222e-38
0.014739992 -0.028778099 0.73700005 2.2202773e-38
0.016187605 -0.028856181 0.73900002 2.136844e-38
0.017595235 -0.028856196 0.73900002 2.2010649e-38
0.019002844 -0.028856181 0.73900002 2.2676144e-38
0.020410465 -0.028856196 0.73900002 2.3047478e-38
0.021818083 -0.028856196 0.73900002 2.341769e-38
0.023257136 -0.028895222 0.74000001 2.1573088e-38
0.024666667 -0.028895237 0.74000001 1.980449e-38
0.02607619 -0.028895237 0.74000001 1.1882553e-38
0.027485706 -0.028895207 0.73999995 3.9850504e-39
0.02897333 -0.028973334 0.74200004 6.6457603e-39
0.030427603 -0.02901236 0.74299997 9.3965119e-39
0.031842839 -0.029012375 0.74300003 1.0599333e-38
0.033347618 -0.029090457 0.74500006 1.1792476e-38
0.034860004 -0.029168569 0.74700004 1.1523066e-38
0.036331423 -0.029207624 0.74800003 1.1150636e-38
0.037857126 -0.029285692 0.75000006 1.0506646e-38
0.039390471 -0.029363789 0.75200003 9.8641477e-39
0.040877134 -0.02940283 0.75299996 1.0047809e-38
0.042311419 -0.02940286 0.75299996 1.0231125e-38
0.0438619 -0.029480927 0.75500005 1.0415159e-38
0.045359988 -0.029519998 0.75600004 1.0594503e-38
0.046799995 -0.029519968 0.75600004 1.0415114e-38
-0.02671049 -0.028154276 0.75800002 9.58151e-39
-0.025266679 -0.028154276 0.75800002 9.7633873e-39
-0.023760023 -0.028079994 0.75600004 9.8537809e-39
-0.022290479 -0.028042845 0.75500005 9.6690281e-39
-0.020797152 -0.027968578 0.75299996 9.4842963e-39
-0.019337151 -0.027931429 0.75200003 9.2059354e-39
-0.017904777 -0.027931429 0.75200009 8.9217885e-39
-0.016428592 -0.027857117 0.75 9.9186764e-39
-0.015000014 -0.027857117 0.75000006 1.0876269e-38
-0.013535249 -0.02778285 0.74800003 1.7172518e-38
-0.012094289 -0.027745701 0.74700004 2.3412285e-38
-0.010642861 -0.027671419 0.74500006 2.2665739e-38
-0.0092238281 -0.027671404 0.745 2.1919902e-38
-0.007783832 -0.027597122 0.74299997 1.9768195e-38
-0.0063600056 -0.027559988 0.74200004 1.7565606e-38
-0.0049466705 -0.027560003 0.74200004 2.0529122e-38
-0.0035238285 -0.027485676 0.73999995 2.3396132e-38
-0.0021114375 -0.027448572 0.73900008 2.3417677e-38
-0.00070192141 -0.027374275 0.73700011 2.3417683e-38
0.00070189277 -0.02737429 0.73700005 2.341769e-38
0.0021057001 -0.027374275 0.73700005 2.341769e-38
0.0035095068 -0.02737429 0.73700005 2.341769e-38
0.0049133217 -0.027374275 0.73700005 2.3417682e-38
0.0063171284 -0.02737426 0.73700005 2.3417673e-38
0.0077209468 -0.027374275 0.73700011 2.3417314e-38
0.009124754 -0.02737429 0.73700011 2.3417672e-38
0.01052856 -0.02737429 0.73700011 2.3415522e-38
0.011932374 -0.027374275 0.73700011 2.3417679e-38
0.013336183 -0.027374275 0.73700005 2.3411882e-38
0.014739989 -0.027374275 0.73700005 2.2489525e-38
0.016187608 -0.027448557 0.73900002 2.1460697e-38
0.01759523 -0.027448572 0.73900008 2.2001322e-38
0.019002851 -0.027448572 0.73900002 2.2486374e-38
0.020410469 -0.027448572 0.73900002 2.2954208e-38
0.021847615 -0.027485706 0.74000001 2.3416614e-38
0.023257136 -0.027485706 0.74000001 2.057079e-38
0.024666658 -0.027485691 0.73999995 1.7592522e-38
0.026076179 -0.027485691 0.73999995 1.0013868e-38
0.027559999 -0.027559988 0.7420001 2.4094584e-39
0.028973334 -0.027559988 0.7420001 5.3524977e-39
0.030427605 -0.027597137 0.74300003 8.2098265e-39
0.031842839 -0.027597137 0.74300003 1.1344456e-38
0.033347618 -0.027671419 0.74500006 1.4381832e-38
0.034860004 -0.027745701 0.7470001 1.3835472e-38
0.036331411 -0.02778285 0.74799997 1.3177113e-38
0.037857126 -0.027857132 0.75 1.1424261e-38
0.039390471 -0.027931429 0.75200003 9.5878999e-39
0.040877137 -0.027968548 0.75299996 1.0047785e-38
0.042311419 -0.027968563 0.75299996 1.0417306e-38
0.043861896 -0.028042845 0.755 1.0604951e-38
0.045299985 -0.028042845 0.755 1.0691735e-38
0.046799988 -0.028079994 0.75600004 1.0414404e-38
-0.025266677 -0.026710473 0.75800002 9.6715532e-39
-0.023728587 -0.026604764 0.755 9.7623223e-39
-0.022290498 -0.026604764 0.755 9.4861082e-39
-0.020797152 -0.026534282 0.75300002 9.1176928e-39
-0.019362861 -0.026534267 0.75300002 9.1119559e-39
-0.017904773 -0.026499026 0.75200009 9.0107555e-39
-0.016428584 -0.026428558 0.75000006 1.0113102e-38
-0.015000017 -0.026428558 0.75000006 1.1145674e-38
-0.013535261 -0.026358075 0.74799997 1.7248928e-38
-0.012094285 -0.026322849 0.74700004 2.3321887e-38
-0.010642866 -0.026252382 0.74500006 2.2669331e-38
-0.0092238188 -0.026252367 0.745 2.2025377e-38
-0.0077838204 -0.026181884 0.74300003 2.0143796e-38
-0.0063685994 -0.026181884 0.74300003 1.830139e-38
-0.0049466798 -0.026146643 0.74200004 2.0819733e-38
-0.0035238208 -0.026076175 0.74000001 2.3417682e-38
-0.0021114505 -0.026040964 0.73900002 2.3142183e-38
-0.00070191768 -0.025970481 0.73700005 2.2774842e-38
0.00070189696 -0.025970466 0.73700005 2.2764438e-38
0.0021057043 -0.025970466 0.73700005 2.2774842e-38
0.003509511 -0.025970481 0.73700005 2.285735e-38
0.0049133184 -0.025970452 0.73700005 2.3050348e-38
0.0063171354 -0.025970481 0.73700011 2.2948109e-38
0.0077209421 -0.025970466 0.73700011 2.2866677e-38
0.0091247577 -0.025970481 0.73700011 2.2950262e-38
0.010528566 -0.025970466 0.73700011 2.3050348e-38
0.011932373 -0.025970481 0.73700005 2.3234019e-38
0.01333618 -0.025970466 0.73700005 2.341769e-38
0.014739987 -0.025970466 0.73700005 2.2855198e-38
0.016187605 -0.026040949 0.73900002 2.218755e-38
0.017595224 -0.026040949 0.73900002 2.2468392e-38
0.019002855 -0.026040964 0.73900008 2.2680807e-38
0.020410463 -0.026040949 0.73900002 2.3048913e-38
0.021847615 -0.026076175 0.74000001 2.341769e-38
0.023320002 -0.026146658 0.7420001 1.982642e-38
0.024733325 -0.026146673 0.74200004 1.6215324e-38
0.026146661 -0.026146643 0.74200004 8.7435489e-39
0.027559994 -0.026146673 0.74200004 1.3059569e-39
0.02897333 -0.026146658 0.74200004 7.1041558e-39
0.030427609 -0.026181899 0.74300003 1.2991013e-38
0.031842835 -0.026181899 0.74300003 1.5217006e-38
0.033347622 -0.026252367 0.74500006 1.7432877e-38
0.03486 -0.026322849 0.74700004 1.4660215e-38
0.036331411 -0.02635809 0.74800003 1.1889978e-38
0.037857126 -0.026428558 0.75 1.0780671e-38
0.039390467 -0.02649904 0.75200003 9.5867999e-39
0.040877134 -0.026534282 0.75299996 9.9570005e-39
0.042311419 -0.026534267 0.75300002 1.0326547e-38
0.043861896 -0.026604749 0.75500005 1.0326956e-38
0.045299992 -0.026604764 0.75500005 1.0417677e-38
0.046799991 -0.026639991 0.75600004 1.0324369e-38
-0.02526669 -0.025266655 0.75800002 9.6704798e-39
-0.023760024 -0.025199987 0.75600004 9.6704854e-39
-0.022290491 -0.025166668 0.755 9.2109534e-39
-0.020797152 -0.0251 0.75300002 8.7496179e-39
-0.019337159 -0.025066666 0.75200003 8.9300547e-39
-0.017904768 -0.025066651 0.75200009 9.1050811e-39
-0.016428588 -0.024999969 0.75000006 1.0285995e-38
-0.015000021 -0.024999984 0.75 1.1427628e-38
-0.013535247 -0.024933338 0.74800003 1.735583e-38
-0.012094283 -0.024899989 0.74700004 2.3226102e-38
-0.010642871 -0.024833307 0.74500006 2.2663585e-38
-0.0092238234 -0.024833307 0.745 2.2005998e-38
-0.0077838325 -0.024766646 0.74300003 2.047992e-38
-0.0063685975 -0.024766639 0.74299997 1.8954999e-38
-0.004946664 -0.024733327 0.7420001 2.121363e-38
-0.0035238124 -0.024666667 0.74000001 2.3417686e-38
-0.0021114394 -0.024633326 0.73900002 2.2774842e-38
-0.00070191396 -0.024566658 0.73700005 2.2117267e-38
0.00070188579 -0.024566658 0.73700005 2.2090344e-38
0.0021057006 -0.024566658 0.73700005 2.2102538e-38
0.0035095073 -0.024566658 0.73700005 2.2370149e-38
0.0049133138 -0.024566665 0.73700005 2.2562066e-38
0.0063171391 -0.02456668 0.73700011 2.2458026e-38
0.0077209459 -0.024566665 0.73700011 2.2285119e-38
0.009124754 -0.024566665 0.73700011 2.2465561e-38
0.010528562 -0.024566673 0.73700011 2.2573207e-38
0.011932368 -0.024566673 0.73700005 2.3050348e-38
0.013336183 -0.024566658 0.73700005 2.341769e-38
0.014739992 -0.024566665 0.73700005 2.3234019e-38
0.016187608 -0.024633333 0.73900002 2.2934433e-38
0.01759523 -0.024633326 0.73900002 2.2911789e-38
0.01900284 -0.024633333 0.73900002 2.2853718e-38
0.020438083 -0.024666652 0.73999995 2.3142183e-38
0.021906666 -0.02473332 0.74200004 2.3417687e-38
0.023320001 -0.024733335 0.74200004 1.9101416e-38
0.024733335 -0.024733327 0.74200004 1.4733357e-38
0.026146669 -0.024733342 0.7420001 7.4391166e-39
0.027560003 -0.02473335 0.7420001 1.1782958e-40
0.028973328 -0.024733335 0.74200004 8.951339e-39
0.030427601 -0.024766646 0.74300003 1.7790902e-38
0.031842828 -0.024766639 0.74299997 1.9191074e-38
0.033347618 -0.024833329 0.74500006 2.0459866e-38
0.03486 -0.024899982 0.74700004 1.5574244e-38
0.03633143 -0.024933353 0.74800003 1.0594226e-38
0.03785713 -0.024999984 0.75000006 1.0129573e-38
0.039390467 -0.025066651 0.75200003 9.5864524e-39
0.040877145 -0.0251 0.75300002 9.9580991e-39
0.042311426 -0.02509997 0.75300002 1.0233634e-38
0.043861892 -0.025166653 0.755 1.0141467e-38
0.045299996 -0.025166653 0.755 1.0048895e-38
0.046799995 -0.025200002 0.75600004 1.0232906e-38
-0.028154299 -0.023822837 0.75800002 9.398548e-39
-0.026710499 -0.023822829 0.75799996 9.6722693e-39
-0.025200019 -0.023760013 0.75600004 9.7633943e-39
-0.02376003 -0.023759983 0.75600004 9.9459891e-39
-0.022290483 -0.023728579 0.75500005 9.6690477e-39
-0.020852394 -0.023728564 0.75500005 9.3002568e-39
-0.019337155 -0.02363427 0.75200003 9.4817599e-39
-0.017904766 -0.023634292 0.75200009 9.6625302e-39
-0.016472399 -0.023634292 0.75200003 1.0207773e-38
-0.015000025 -0.023571409 0.75 1.0780108e-38
-0.013535248 -0.023508579 0.74800003 1.7065257e-38
-0.012110492 -0.023508579 0.74800003 2.3226816e-38
-0.010671437 -0.02347713 0.74700004 2.2576765e-38
-0.0092485668 -0.02347713 0.7470001 2.2028231e-38
-0.0078047714 -0.023414262 0.74500006 1.9955802e-38
-0.0063685854 -0.023351409 0.74300003 1.8028393e-38
-0.0049466738 -0.023319982 0.74200004 2.0736165e-38
-0.0035238294 -0.023257136 0.73999995 2.341769e-38
-0.0021114422 -0.02322571 0.73900002 2.3137879e-38
-0.00070192467 -0.023162857 0.73700005 2.2757945e-38
0.00070188951 -0.023162857 0.73700005 2.2750375e-38
0.0021056968 -0.023162842 0.73700005 2.273602e-38
0.003509511 -0.023162849 0.73700005 2.2838253e-38
0.0049133282 -0.023162857 0.73700011 2.3012226e-38
0.0063171359 -0.023162849 0.73700011 2.2926835e-38
0.0077209426 -0.023162849 0.73700011 2.2819575e-38
0.0091247503 -0.023162849 0.73700011 2.292899e-38
0.010528557 -0.023162857 0.73700005 2.3012628e-38
0.011932373 -0.023162857 0.73700005 2.3224692e-38
0.01333618 -0.023162857 0.73700005 2.341769e-38
0.014739987 -0.023162849 0.73700005 2.3138596e-38
0.016143793 -0.023162849 0.73700005 2.2852644e-38
0.017595224 -0.023225702 0.73900002 2.284148e-38
0.019028561 -0.023257129 0.73999995 2.2955959e-38
0.02043809 -0.023257129 0.73999995 2.3141466e-38
0.021847615 -0.023257114 0.74000001 2.3417684e-38
0.023319991 -0.023319997 0.74200004 1.8435603e-38
0.024733325 -0.023319982 0.74200004 1.3331029e-38
0.026146661 -0.023319989 0.74200004 1.1403028e-38
0.027559996 -0.023319982 0.74200004 9.4064822e-39
0.02897333 -0.023319997 0.7420001 1.5035509e-38
0.030427594 -0.023351416 0.74299997 2.0662605e-38
0.031842843 -0.023351416 0.74300003 1.9918255e-38
0.033347618 -0.023414269 0.74500006 1.9263139e-38
0.034860011 -0.023477145 0.7470001 1.4645105e-38
0.036282856 -0.02347713 0.74700004 1.0017733e-38
0.037756182 -0.023508564 0.74800003 9.944826e-39
0.039285693 -0.023571409 0.75 9.9566754e-39
0.040714279 -0.023571402 0.75000006 1.0049956e-38
0.042311426 -0.023665696 0.75300002 1.0141079e-38
0.0438619 -0.023728572 0.75500005 1.0048172e-38
0.045299996 -0.023728572 0.75500005 1.0046738e-38
0.046799995 -0.023759998 0.75600004 1.0231127e-38
-0.028154299 -0.022379041 0.75800002 9.3063622e-39
-0.026710488 -0.022379041 0.75800002 9.6729867e-39
-0.025200022 -0.022319995 0.75600004 9.9477758e-39
-0.023760008 -0.022320002 0.75600004 1.0221131e-38
-0.022320021 -0.022320002 0.75600004 1.0034592e-38
-0.020852398 -0.022290476 0.755 9.8505523e-39
-0.019414295 -0.022290476 0.755 1.0034215e-38
-0.017928571 -0.022231415 0.75300002 1.0209238e-38
-0.016428595 -0.022142828 0.75 1.0194135e-38
-0.015000017 -0.022142842 0.75000006 1.0141561e-38
-0.013535259 -0.022083811 0.74800003 1.6713699e-38
-0.012094289 -0.022054285 0.74700004 2.3226818e-38
-0.010642868 -0.021995209 0.74500006 2.2571744e-38
-0.0092238197 -0.021995209 0.745 2.1915233e-38
-0.007804777 -0.021995224 0.74500006 1.947044e-38
-0.0063857292 -0.021995209 0.745 1.7109313e-38
-0.0049533625 -0.021936171 0.74300003 2.0284146e-38
-0.0035381163 -0.021936171 0.74300003 2.3414812e-38
-0.0021142985 -0.021847606 0.74000001 2.341769e-38
-0.00070381945 -0.021818101 0.73900002 2.3413367e-38
0.0007018937 -0.021759026 0.73700005 2.3417654e-38
0.002105701 -0.021759041 0.73700005 2.3407965e-38
0.0035095189 -0.021759041 0.73700011 2.3417648e-38
0.0049133254 -0.021759056 0.73700011 2.3408315e-38
0.0063171331 -0.021759048 0.73700011 2.3417635e-38
0.0077209398 -0.021759063 0.73700011 2.3405799e-38
0.009124754 -0.021759033 0.73700011 2.3417637e-38
0.010528563 -0.021759041 0.73700005 2.3408336e-38
0.011932369 -0.021759041 0.73700005 2.341769e-38
0.01337237 -0.021818094 0.73900002 2.3417682e-38
0.01473999 -0.021759033 0.73700005 2.3050331e-38
0.01618761 -0.021818094 0.73900008 2.2647451e-38
0.01761904 -0.021847606 0.73999995 2.2829665e-38
0.019028563 -0.021847606 0.74000001 2.2948794e-38
0.020438092 -0.021847613 0.74000001 2.3234019e-38
0.021906663 -0.021906666 0.74200004 2.3413736e-38
0.023319997 -0.021906644 0.7420001 1.7708448e-38
0.024766654 -0.021936163 0.74300003 1.1974741e-38
0.026181884 -0.021936171 0.74299997 1.5344588e-38
0.027597129 -0.021936178 0.74300003 1.8700255e-38
0.029012363 -0.021936171 0.74300003 2.1121783e-38
0.030427609 -0.021936171 0.74300003 2.3410828e-38
0.031928562 -0.021995224 0.745 2.0739681e-38
0.033437151 -0.022054277 0.7470001 1.8059196e-38
0.034906659 -0.022083811 0.74799997 1.3724597e-38
0.036331423 -0.022083804 0.74800003 9.3974929e-39
0.037756186 -0.022083811 0.74800003 9.8583911e-39
0.039180938 -0.022083811 0.74800003 1.0230413e-38
0.040822841 -0.022201896 0.75200003 1.0143618e-38
0.042255234 -0.022201903 0.75200009 9.9574139e-39
0.043745715 -0.022231415 0.75300002 9.9548803e-39
0.045299985 -0.022290461 0.755 9.9545328e-39
0.046738088 -0.022290461 0.755 1.0321527e-38
-0.028265737 -0.021018073 0.76099998 9.306728e-39
-0.026780955 -0.020990483 0.76000005 9.4896745e-39
-0.025266685 -0.020935223 0.75799996 9.7644565e-39
-0.023822874 -0.020935223 0.75800002 1.0129649e-38
-0.022320015 -0.020879999 0.75600004 9.9434682e-39
-0.020852391 -0.02085238 0.75500005 9.757642e-39
-0.019362871 -0.020797133 0.75299996 9.756563e-39
-0.017928578 -0.020797141 0.75299996 9.7525735e-39
-0.01642859 -0.020714283 0.75000006 1.0298161e-38
-0.015000022 -0.020714261 0.75000006 1.0960186e-38
-0.013535246 -0.020659052 0.74800003 1.6973421e-38
-0.012094286 -0.02063141 0.74700004 2.2955616e-38
-0.010642872 -0.020576172 0.74500006 2.2395249e-38
-0.0092238244 -0.020576172 0.745 2.1754164e-38
-0.0078047677 -0.020576186 0.74500006 1.9310089e-38
-0.0063857199 -0.020576186 0.745 1.6898372e-38
-0.0049533504 -0.020520926 0.74300003 1.9610429e-38
-0.0035381147 -0.020520933 0.74300003 2.2407483e-38
-0.0021143008 -0.020438068 0.73999995 2.2864883e-38
-0.00070382224 -0.020410463 0.73900002 2.341769e-38
0.00070380385 -0.020410471 0.73900002 2.341769e-38
0.0021114156 -0.020410471 0.73900002 2.341769e-38
0.0035190347 -0.020410478 0.73900002 2.341769e-38
0.0049266568 -0.020410471 0.73900008 2.341769e-38
0.0063342759 -0.020410493 0.73900002 2.341769e-38
0.0077418946 -0.020410471 0.73900002 2.341769e-38
0.0091495141 -0.020410478 0.73900002 2.341769e-38
0.010557125 -0.020410471 0.73900002 2.341769e-38
0.011964753 -0.020410463 0.73900008 2.341769e-38
0.013336181 -0.020355247 0.73700005 2.3417673e-38
0.014779986 -0.020410471 0.73900002 2.2646023e-38
0.016209509 -0.020438083 0.73999995 2.1765689e-38
0.01761904 -0.020438083 0.74000001 2.2276161e-38
0.019028571 -0.020438083 0.74000001 2.2866656e-38
0.020438083 -0.020438075 0.73999995 2.3139672e-38
0.021906661 -0.020493329 0.74200004 2.341768e-38
0.023319997 -0.020493329 0.74200004 2.0555702e-38
0.024766648 -0.020520926 0.74300003 1.7678309e-38
0.026181893 -0.020520933 0.74300003 1.9344621e-38
0.027597129 -0.02052094 0.74300003 2.1121793e-38
0.029012356 -0.020520933 0.74299997 2.0746927e-38
0.030509515 -0.020576157 0.745 2.0374492e-38
0.031928562 -0.020576172 0.74500006 1.8062747e-38
0.033437144 -0.02063141 0.74700004 1.5754663e-38
0.034906659 -0.020659044 0.74800003 1.2532169e-38
0.036428552 -0.020714261 0.75 9.3149942e-39
0.03785713 -0.020714268 0.75000006 9.494296e-39
0.039390467 -0.020769499 0.75200003 9.6776334e-39
0.040822845 -0.020769499 0.75200003 9.7723626e-39
0.042311419 -0.020797148 0.75299996 9.956702e-39
0.043745711 -0.020797148 0.75299996 9.9555754e-39
0.045179993 -0.020797133 0.75299996 9.9538041e-39
-0.028228557 -0.019542865 0.76000011 9.4003529e-39
-0.026780944 -0.019542851 0.76000005 9.3070797e-39
-0.025266686 -0.019491427 0.75800002 9.6740587e-39
-0.023822872 -0.019491419 0.75799996 9.9474114e-39
-0.022320021 -0.019439995 0.75600004 9.7597944e-39
-0.020880008 -0.019439988 0.75600004 9.5746786e-39
-0.019362871 -0.019362852 0.75299996 9.4813984e-39
-0.017928578 -0.019362852 0.75299996 9.290536e-39
-0.016428594 -0.019285694 0.75000006 1.0469673e-38
-0.015000025 -0.019285694 0.75 1.1704574e-38
-0.013535257 -0.01923427 0.74800003 1.7264353e-38
-0.012094283 -0.019208565 0.7470001 2.2675806e-38
-0.010642862 -0.019157134 0.74500006 2.2115441e-38
-0.0092238151 -0.019157119 0.745 2.1552195e-38
-0.0078047724 -0.019157127 0.74500006 1.91178e-38
-0.0063685947 -0.019105688 0.74299997 1.6727607e-38
-0.0049533485 -0.019105695 0.74300003 1.9034657e-38
-0.0035381126 -0.019105688 0.74300003 2.1283901e-38
-0.0021142934 -0.019028552 0.74000001 2.2400626e-38
-0.0007038106 -0.019002862 0.73900008 2.3403662e-38
0.00070380105 -0.019002855 0.73900002 2.3417672e-38
0.0021114203 -0.019002847 0.73900002 2.3402249e-38
0.0035190315 -0.019002847 0.73900002 2.3417679e-38
0.0049266503 -0.01900284 0.73900002 2.3402252e-38
0.0063342801 -0.019002862 0.73900008 2.3417676e-38
0.0077418918 -0.019002855 0.73900002 2.3403684e-38
0.0091495113 -0.019002862 0.73900002 2.3417672e-38
0.010557129 -0.019002855 0.73900002 2.3406915e-38
0.01196475 -0.019002847 0.73900002 2.3417683e-38
0.013372369 -0.01900287 0.73900002 2.3402246e-38
0.01477999 -0.019002862 0.73900002 2.2167121e-38
0.016209519 -0.019028559 0.74000001 2.096895e-38
0.01759522 -0.019002855 0.73900002 2.1825598e-38
0.019002851 -0.019002862 0.73900008 2.2672224e-38
0.02043809 -0.019028544 0.73999995 2.3040301e-38
0.021906663 -0.019079983 0.7420001 2.3415172e-38
0.023319999 -0.019079991 0.7420001 2.341768e-38
0.02476665 -0.019105688 0.74299997 2.3406201e-38
0.026181888 -0.019105695 0.74300003 2.341768e-38
0.027597126 -0.019105688 0.74300003 2.3409037e-38
0.029012375 -0.019105703 0.74300003 2.0368746e-38
0.030509509 -0.019157112 0.745 1.7224787e-38
0.031928569 -0.019157119 0.74500006 1.538267e-38
0.033437148 -0.019208573 0.74700004 1.3454819e-38
0.034906663 -0.019234285 0.74800003 1.133433e-38
0.03642856 -0.019285701 0.75000006 9.1277163e-39
0.037857126 -0.019285701 0.75000006 9.1262309e-39
0.039390471 -0.019337133 0.75200003 9.0354842e-39
0.040877137 -0.019362852 0.75299996 9.495033e-39
0.04231143 -0.019362845 0.75299996 9.9559748e-39
0.043745715 -0.019362845 0.75299996 9.9566642e-39
0.045299999 -0.019414283 0.75500005 9.8634106e-39
-0.028265726 -0.018119037 0.76100004 9.0322893e-39
-0.026780952 -0.01809524 0.76000005 9.123766e-39
-0.025266685 -0.018047616 0.75800002 9.6744203e-39
-0.023822885 -0.018047601 0.75799996 1.0225788e-38
-0.022379057 -0.018047608 0.75800002 9.7619426e-39
-0.020880014 -0.017999984 0.75600004 9.2995197e-39
-0.019414296 -0.017976172 0.75500005 9.2062324e-39
-0.017928578 -0.017928556 0.75300002 9.0189853e-39
-0.016428597 -0.017857112 0.75 1.0484777e-38
-0.015000029 -0.017857112 0.75 1.1888623e-38
-0.013535243 -0.017809533 0.74800003 1.7341839e-38
-0.012094292 -0.017785698 0.74700004 2.2673655e-38
-0.010671422 -0.017785698 0.74700004 2.2118312e-38
-0.0092238206 -0.017738074 0.745 2.1567616e-38
-0.007804763 -0.017738074 0.74500006 1.9404417e-38
-0.0063857306 -0.017738074 0.745 1.7278254e-38
-0.0049533467 -0.017690457 0.74300003 1.9796239e-38
-0.0035381254 -0.01769045 0.74299997 2.2394145e-38
-0.0021200164 -0.017666653 0.74200004 2.2757507e-38
-0.00070477265 -0.017619029 0.73999995 2.309332e-38
0.00070379779 -0.017595232 0.73900008 2.2086037e-38
0.002111417 -0.017595246 0.73900002 2.1060429e-38
0.0035238031 -0.017619044 0.74000001 2.0701703e-38
0.0049333158 -0.017619029 0.73999995 2.0325391e-38
0.0063342662 -0.017595224 0.73900002 2.1161594e-38
0.0077418964 -0.017595232 0.73900008 2.2075999e-38
0.009149516 -0.017595239 0.73900002 2.2468806e-38
0.010557133 -0.017595232 0.73900002 2.2823604e-38
0.011964745 -0.017595224 0.73900002 2.313033e-38
0.013372365 -0.017595224 0.73900002 2.3413008e-38
0.014779993 -0.017595232 0.73900002 2.2559221e-38
0.016209509 -0.017619036 0.73999995 2.1698975e-38
0.017619038 -0.017619021 0.73999995 2.2376256e-38
0.019028559 -0.017619036 0.74000001 2.3047459e-38
0.020438092 -0.017619029 0.74000001 2.3230785e-38
0.021906663 -0.017666668 0.74200004 2.3417687e-38
0.023319995 -0.017666668 0.74200004 2.341769e-38
0.024766656 -0.017690457 0.74300003 2.341769e-38
0.026181892 -0.01769045 0.74300003 2.1752813e-38
0.027597118 -0.01769045 0.74299997 2.0095392e-38
0.029012367 -0.017690457 0.74300003 1.8228111e-38
0.030509513 -0.017738067 0.745 1.6446306e-38
0.031928562 -0.017738082 0.74500006 1.5007447e-38
0.033437148 -0.017785706 0.7470001 1.3552025e-38
0.034906659 -0.017809518 0.74800003 1.1242461e-38
0.036428563 -0.017857119 0.75000006 8.8478854e-39
0.037857126 -0.017857112 0.75 9.1262239e-39
0.039390475 -0.017904758 0.75200003 9.4960784e-39
0.040877134 -0.017928556 0.75299996 9.6804669e-39
0.042311426 -0.017928563 0.75300002 9.8637721e-39
0.043745719 -0.017928556 0.75300002 9.6800927e-39
-0.029871432 -0.016757153 0.7650001 8.6645955e-39
-0.02826572 -0.016669512 0.76100004 8.7571443e-39
-0.026780957 -0.016647629 0.76000005 8.8482707e-39
-0.025266685 -0.016603813 0.75800002 9.6737224e-39
-0.023822883 -0.016603798 0.75799996 1.0499152e-38
-0.022379071 -0.016603805 0.75800002 9.761944e-39
-0.02088001 -0.016560003 0.75600004 9.0254579e-39
-0.019414311 -0.016538084 0.755 8.9325392e-39
-0.01797621 -0.016538084 0.755 8.7377447e-39
-0.016472396 -0.016472369 0.75200003 1.0377868e-38
-0.015000022 -0.016428553 0.75000006 1.207516e-38
-0.013571454 -0.016428553 0.75000006 1.7448024e-38
-0.012110499 -0.016384758 0.74799997 2.2675091e-38
-0.010671419 -0.016362853 0.7470001 2.2116163e-38
-0.0092485752 -0.016362853 0.74700004 2.1547156e-38
-0.0078047686 -0.016319022 0.74500006 1.965335e-38
-0.0063857208 -0.016319029 0.745 1.7850071e-38
-0.0049666776 -0.016319036 0.74500006 2.0661884e-38
-0.0035381133 -0.01627522 0.74300003 2.3414062e-38
-0.0021200005 -0.016253322 0.7420001 2.3142126e-38
-0.00070477917 -0.016209513 0.74000001 2.2836132e-38
0.00070475845 -0.016209513 0.74000001 2.0773066e-38
0.0021142808 -0.01620952 0.74000001 1.8763819e-38
0.0035237938 -0.016209505 0.73999995 1.8003322e-38
0.0049333232 -0.016209513 0.74000001 1.728441e-38
0.0063428464 -0.016209513 0.74000001 1.9010618e-38
0.0077418895 -0.016187616 0.73900002 2.0712099e-38
0.0091618896 -0.016209513 0.73999995 2.1558362e-38
0.01055713 -0.016187616 0.73900002 2.229915e-38
0.011964749 -0.016187616 0.73900002 2.286667e-38
0.013372369 -0.016187616 0.73900002 2.3416603e-38
0.014779991 -0.016187631 0.73900008 2.295814e-38
0.016209517 -0.016209505 0.73999995 2.2462003e-38
0.01761904 -0.016209498 0.74000001 2.2932293e-38
0.019028569 -0.01620952 0.74000001 2.341014e-38
0.020438081 -0.016209498 0.73999995 2.3417687e-38
0.021906659 -0.016253315 0.74200004 2.3417689e-38
0.023319993 -0.016253322 0.74200004 2.341769e-38
0.02476665 -0.01627522 0.74300003 2.3403664e-38
0.026181886 -0.01627522 0.74300003 2.0080334e-38
0.027597131 -0.01627522 0.74300003 1.6753758e-38
0.029012367 -0.01627522 0.74300003 1.6185475e-38
0.030509515 -0.016319022 0.745 1.5642024e-38
0.031928565 -0.016319029 0.74500006 1.464908e-38
0.033481892 -0.016384758 0.74799997 1.3636683e-38
0.034999985 -0.016428553 0.75000006 1.1143797e-38
0.036428556 -0.01642856 0.75 8.573811e-39
0.037958093 -0.016472377 0.75200009 9.2184265e-39
0.039442845 -0.016494267 0.75300002 9.8637847e-39
0.040877137 -0.016494289 0.75300002 9.8666518e-39
0.042423803 -0.016538084 0.75500005 9.7723038e-39
0.043861903 -0.016538098 0.75500005 9.4028094e-39
-0.029871438 -0.015300013 0.76500005 8.6635137e-39
-0.028265739 -0.015219986 0.76099998 8.8486225e-39
-0.026780946 -0.015200011 0.76000005 9.1245045e-39
-0.025266681 -0.015159994 0.75800002 9.6740994e-39
-0.02382287 -0.015159994 0.75800002 1.0131103e-38
-0.022379071 -0.015159979 0.75799996 9.6704686e-39
-0.020880014 -0.015119992 0.75600004 9.3013344e-39
-0.019414304 -0.015100002 0.755 8.9289701e-39
-0.0179762 -0.015099995 0.755 8.5497746e-39
-0.01647239 -0.015039988 0.75200003 1.0299297e-38
-0.015000026 -0.014999978 0.75000006 1.2075156e-38
-0.013535256 -0.014960006 0.74800003 1.7343274e-38
-0.012094287 -0.014939994 0.7470001 2.2676528e-38
-0.010671427 -0.014940001 0.74700004 2.2118676e-38
-0.0092485724 -0.014939986 0.74700004 2.1657991e-38
-0.0078047733 -0.014899991 0.74500006 1.9496556e-38
-0.0063857259 -0.014899984 0.745 1.7388739e-38
-0.0049666683 -0.014899984 0.74500006 2.0459224e-38
-0.0035476354 -0.014899977 0.745 2.341769e-38
-0.0021200101 -0.014839992 0.74200004 2.3325854e-38
-0.00070667535 -0.014839999 0.74200004 2.3142153e-38
0.00070665928 -0.014839999 0.74200004 2.2107179e-38
0.002114272 -0.014799982 0.73999995 2.1095936e-38
0.0035238022 -0.014799982 0.74000001 2.0713908e-38
0.0049333242 -0.014799982 0.74000001 2.0338293e-38
0.0063428446 -0.014799975 0.73999995 2.1178779e-38
0.0077418941 -0.014779985 0.73900002 2.2131962e-38
0.0091495058 -0.014779985 0.73900002 2.2493595e-38
0.010557134 -0.014779992 0.73900008 2.2866677e-38
0.011964754 -0.014779992 0.73900002 2.3142183e-38
0.013372364 -0.01478 0.73900002 2.3417687e-38
0.014779985 -0.014779985 0.73900002 2.2290546e-38
0.016187616 -0.01478 0.73900008 2.1248058e-38
0.017595224 -0.01478 0.73900002 2.2288728e-38
0.019028557 -0.014799982 0.73999995 2.3416598e-38
0.020438088 -0.01479999 0.73999995 2.3417331e-38
0.021906668 -0.014839999 0.7420001 2.341769e-38
0.023351416 -0.014859989 0.74300003 2.2217013e-38
0.024766654 -0.014859974 0.74300003 2.1005146e-38
0.026181899 -0.014859982 0.74300003 1.9133928e-38
0.027671419 -0.014899977 0.745 1.7173791e-38
0.029090477 -0.014899977 0.74500006 1.6738626e-38
0.03059143 -0.014939994 0.74700004 1.6297784e-38
0.032014295 -0.014939994 0.7470001 1.4651598e-38
0.033481896 -0.014959991 0.74800003 1.2998136e-38
0.034999985 -0.014999978 0.75 1.0874017e-38
0.036525704 -0.015039988 0.75200003 8.7581981e-39
0.037958086 -0.015039988 0.75200009 9.4028234e-39
0.039442856 -0.015059993 0.75300002 9.9559846e-39
0.040877134 -0.015059993 0.75300002 9.8645022e-39
0.042311426 -0.015059993 0.75300002 9.6801193e-39
0.043745719 -0.01506 0.75300002 9.403901e-39
-0.028265731 -0.013770461 0.76100004 9.0326522e-39
-0.026780952 -0.013752379 0.76000011 9.4000012e-39
-0.02533333 -0.013752379 0.76000011 9.5826044e-39
-0.023822868 -0.013716191 0.75800002 9.7644677e-39
-0.022379067 -0.013716176 0.75799996 9.6708245e-39
-0.020880021 -0.013679989 0.75600004 9.4857242e-39
-0.019414296 -0.013661899 0.75500005 8.9322043e-39
-0.017976195 -0.013661899 0.75500005 8.3686301e-39
-0.016472386 -0.013607621 0.75200003 1.0194214e-38
-0.01500003 -0.013571411 0.75 1.2076244e-38
-0.013535252 -0.013535231 0.74799997 1.7356189e-38
-0.012094295 -0.013517134 0.74700004 2.2582899e-38
-0.010671426 -0.013517134 0.74700004 2.2116165e-38
-0.0092238206 -0.013480932 0.745 2.1638262e-38
-0.007804764 -0.013480939 0.74500006 1.9285981e-38
-0.006385731 -0.013480924 0.745 1.6924886e-38
-0.0049666734 -0.013480932 0.74500006 2.0184768e-38
-0.0035476261 -0.013480932 0.745 2.3413014e-38
-0.0021228783 -0.013444752 0.74300003 2.341769e-38
-0.00070667022 -0.013426647 0.74200004 2.3417316e-38
0.0007066644 -0.013426654 0.74200004 2.3417659e-38
0.0021142804 -0.013390459 0.74000001 2.3411213e-38
0.0035238026 -0.013390459 0.74000001 2.3417683e-38
0.0049333223 -0.013390452 0.73999995 2.3405473e-38
0.0063428446 -0.013390467 0.73999995 2.3417659e-38
0.0077523752 -0.013390459 0.74000001 2.3417675e-38
0.0091618989 -0.013390459 0.74000001 2.341769e-38
0.01055713 -0.013372377 0.73900002 2.341769e-38
0.01196475 -0.013372377 0.73900002 2.341769e-38
0.01337237 -0.013372377 0.73900002 2.3405843e-38
0.014799993 -0.013390467 0.74000001 2.1721228e-38
0.016209505 -0.013390459 0.73999995 1.9971683e-38
0.017619036 -0.013390459 0.73999995 2.1741661e-38
0.019028559 -0.013390467 0.74000001 2.3411576e-38
0.020493321 -0.013426654 0.74200004 2.341769e-38
0.021906665 -0.013426654 0.74200004 2.3417314e-38
0.023351416 -0.013444744 0.74300003 2.1027781e-38
0.024766646 -0.013444737 0.74299997 1.8590119e-38
0.026181892 -0.013444744 0.74300003 1.8092121e-38
0.027671421 -0.013480924 0.745 1.7649807e-38
0.029090472 -0.013480932 0.74500006 1.7297176e-38
0.030632369 -0.013535239 0.74799997 1.6942786e-38
0.032057133 -0.013535224 0.74799997 1.4660928e-38
0.0334819 -0.013535231 0.74800003 1.2349187e-38
0.034999993 -0.013571396 0.75 1.0687111e-38
0.036525704 -0.013607614 0.75200003 8.9429369e-39
0.037958093 -0.013607614 0.75200009 9.4950092e-39
0.039442852 -0.013625711 0.75300002 1.0047103e-38
0.040877137 -0.013625704 0.75300002 9.8637959e-39
0.04231143 -0.013625704 0.75300002 9.5882726e-39
0.043745715 -0.013625704 0.75300002 9.4946281e-39
-0.02533333 -0.012304761 0.76000005 9.4907493e-39
-0.023822881 -0.012272365 0.75800002 9.6729797e-39
-0.022379056 -0.012272373 0.75800002 9.5800624e-39
-0.020880017 -0.012239985 0.75600004 9.5793548e-39
-0.019414298 -0.012223795 0.755 8.930775e-39
-0.01797621 -0.012223795 0.755 8.2775275e-39
-0.016472397 -0.012175225 0.75200003 1.0300781e-38
-0.015000008 -0.01214283 0.75000006 1.2444675e-38
-0.013535253 -0.012110472 0.74800003 1.7434033e-38
-0.012094293 -0.012094282 0.74700004 2.2397434e-38
-0.010671422 -0.012094289 0.7470001 2.21176e-38
-0.009248578 -0.012094282 0.74700004 2.1931705e-38
-0.0078047686 -0.012061879 0.74500006 1.9489025e-38
-0.0063857217 -0.012061872 0.745 1.7085228e-38
-0.004966679 -0.012061886 0.74500006 2.0268686e-38
-0.0035476307 -0.012061879 0.74500006 2.3417665e-38
-0.0021228769 -0.012029506 0.74300003 2.3417331e-38
-0.00070666883 -0.012013339 0.7420001 2.3415538e-38
0.0007066658 -0.012013339 0.7420001 2.3417331e-38
0.0021200001 -0.012013339 0.7420001 2.341769e-38
0.0035333245 -0.012013331 0.74200004 2.341769e-38
0.0049466593 -0.012013331 0.74200004 2.341769e-38
0.006342846 -0.011980936 0.74000001 2.341769e-38
0.0077523766 -0.011980943 0.74000001 2.341769e-38
0.0091618886 -0.011980928 0.73999995 2.341769e-38
0.010571418 -0.011980936 0.74000001 2.341769e-38
0.011980948 -0.011980928 0.74000001 2.3416614e-38
0.01339047 -0.011980943 0.74000001 2.3413371e-38
0.014799984 -0.011980936 0.73999995 2.1914573e-38
0.016209513 -0.011980936 0.73999995 2.0410048e-38
0.017666662 -0.012013324 0.74200004 2.1918875e-38
0.019079996 -0.012013324 0.7420001 2.3417675e-38
0.020493332 -0.012013324 0.7420001 2.341769e-38
0.021906666 -0.012013331 0.7420001 2.3417656e-38
0.023351412 -0.012029499 0.74300003 2.1186307e-38
0.02476665 -0.012029506 0.74300003 1.8826841e-38
0.026252376 -0.012061894 0.74500006 1.8560219e-38
0.027671423 -0.012061879 0.745 1.8219451e-38
0.029168576 -0.012094282 0.7470001 1.7579142e-38
0.030632371 -0.012110472 0.74800003 1.6943147e-38
0.032057129 -0.012110472 0.74800003 1.4189555e-38
0.033571411 -0.012142837 0.75 1.1509751e-38
0.034999996 -0.012142844 0.75000006 1.0502715e-38
0.036574278 -0.012191415 0.75300002 9.4950176e-39
0.038008571 -0.012191415 0.75300002 9.6786704e-39
0.039442856 -0.01219143 0.75300002 9.9552685e-39
0.0409857 -0.012223795 0.755 9.772329e-39
0.042311426 -0.01219143 0.75300002 9.6811731e-39
0.043745708 -0.012191422 0.75299996 9.5875061e-39
-0.025333334 -0.010857143 0.76000005 9.4903905e-39
-0.023822878 -0.01082857 0.75800002 9.581147e-39
-0.022379069 -0.010828562 0.75800002 9.5807869e-39
-0.020880023 -0.010799997 0.75600004 9.5789862e-39
-0.019414289 -0.010785699 0.75500005 8.8421443e-39
-0.017976202 -0.010785714 0.75500005 8.0942026e-39
-0.016472392 -0.010742843 0.75200003 1.0469745e-38
-0.015000012 -0.01071427 0.75000006 1.2813811e-38
-0.013571444 -0.01071427 0.75 1.7537348e-38
-0.012110485 -0.010685712 0.74800003 2.2121925e-38
-0.01067143 -0.010671414 0.74700004 2.211652e-38
-0.0092238169 -0.010642841 0.74500006 2.2098159e-38
-0.0078047705 -0.010642841 0.745 1.9653331e-38
-0.0063857269 -0.010642841 0.745 1.7299765e-38
-0.0049666795 -0.010642841 0.745 2.0387093e-38
-0.0035476361 -0.010642834 0.745 2.3417677e-38
-0.0021200131 -0.010599986 0.74200004 2.341769e-38
-0.00070667814 -0.010599993 0.74200004 2.3417331e-38
0.00070665649 -0.010600001 0.74200004 2.341769e-38
0.0021199991 -0.010599993 0.74200004 2.341769e-38
0.0035333333 -0.010600001 0.7420001 2.341769e-38
0.0049466677 -0.010600001 0.7420001 2.341769e-38
0.0063600028 -0.010600001 0.7420001 2.341769e-38
0.0077523664 -0.010571398 0.73999995 2.341769e-38
0.009161897 -0.010571405 0.74000001 2.341769e-38
0.010571419 -0.010571405 0.74000001 2.341769e-38
0.011980949 -0.01057142 0.74000001 2.341769e-38
0.013390461 -0.010571413 0.73999995 2.3411938e-38
0.014799993 -0.010571413 0.74000001 2.2112956e-38
0.016209515 -0.010571413 0.74000001 2.0803222e-38
0.01766666 -0.010599986 0.74200004 2.2106495e-38
0.019079994 -0.010599986 0.74200004 2.3319383e-38
0.02049333 -0.010600001 0.74200004 2.341769e-38
0.021936173 -0.010614261 0.74300003 2.3413354e-38
0.023351407 -0.010614268 0.74299997 2.1288551e-38
0.024766652 -0.010614261 0.74300003 1.9123512e-38
0.026252378 -0.010642834 0.74500006 1.8919305e-38
0.02774572 -0.010671422 0.7470001 1.8762569e-38
0.029168574 -0.010671422 0.74700004 1.7857161e-38
0.030632367 -0.010685697 0.74799997 1.6945283e-38
0.032057125 -0.010685697 0.74799997 1.3828278e-38
0.033481896 -0.010685705 0.74800003 1.0600005e-38
0.034999993 -0.010714263 0.75000006 1.0318719e-38
0.036574285 -0.010757141 0.75300002 1.0044954e-38
0.038109515 -0.010785714 0.755 9.9527083e-39
0.039547607 -0.010785714 0.755 9.7715709e-39
0.040985707 -0.010785714 0.755 9.7723122e-39
0.0424238 -0.010785714 0.755 9.7715779e-39
0.0438619 -0.010785706 0.755 9.6793682e-39
-0.023822878 -0.0093847439 0.75799996 9.5797163e-39
-0.022379065 -0.0093847513 0.75800002 9.5797163e-39
-0.020880019 -0.009359993 0.75600004 9.5786191e-39
-0.019440014 -0.009359993 0.75600004 8.8388904e-39
-0.017976204 -0.0093476102 0.755 8.0019972e-39
-0.01647239 -0.009310469 0.75200003 1.0670996e-38
-0.015000015 -0.0092856959 0.75 1.3466705e-38
-0.013571448 -0.0092856884 0.75 1.7618781e-38
-0.012142871 -0.0092856884 0.75000006 2.1843906e-38
-0.010685725 -0.009260945 0.74799997 2.193428e-38
-0.0092485733 -0.0092485696 0.7470001 2.202749e-38
-0.0078047751 -0.0092237815 0.745 1.9499801e-38
-0.0063857171 -0.009223789 0.74500006 1.7032526e-38
-0.0049666846 -0.0092237815 0.745 2.0191251e-38
-0.0035476265 -0.009223789 0.74500006 2.341769e-38
-0.0021228734 -0.0091990158 0.74300003 2.341769e-38
-0.00070764206 -0.0091990307 0.74300003 2.341769e-38
0.00070759386 -0.0091990232 0.74300003 2.341769e-38
0.0021199894 -0.0091866553 0.74200004 2.341769e-38
0.0035333245 -0.0091866478 0.74200004 2.341769e-38
0.0049466589 -0.0091866478 0.74200004 2.341769e-38
0.006359993 -0.0091866553 0.74200004 2.341769e-38
0.0077733286 -0.0091866553 0.7420001 2.341769e-38
0.0091866702 -0.0091866627 0.7420001 2.341769e-38
0.010571418 -0.0091618821 0.73999995 2.341769e-38
0.01198094 -0.0091618821 0.73999995 2.341769e-38
0.013390469 -0.0091618821 0.74000001 2.341768e-38
0.014799992 -0.0091618821 0.74000001 2.2106143e-38
0.016253334 -0.0091866627 0.74200004 2.0787081e-38
0.017666668 -0.0091866553 0.7420001 2.2105779e-38
0.019080004 -0.0091866553 0.7420001 2.3417677e-38
0.02049334 -0.0091866627 0.7420001 2.341769e-38
0.021936174 -0.0091990232 0.74300003 2.3417662e-38
0.02335142 -0.0091990307 0.74300003 2.1368194e-38
0.024766648 -0.0091990158 0.74300003 1.9296062e-38
0.026252378 -0.009223789 0.74500006 1.9117677e-38
0.027745711 -0.0092485473 0.74700004 1.8860502e-38
0.029168574 -0.0092485547 0.74700004 1.7674926e-38
0.030632373 -0.009260945 0.74800003 1.6581513e-38
0.032057129 -0.0092609599 0.74800003 1.345552e-38
0.033571411 -0.0092856959 0.75000006 1.0324139e-38
0.035140008 -0.0093228593 0.75300002 1.0137234e-38
0.036671411 -0.0093475953 0.755 1.0045672e-38
0.038109507 -0.0093475953 0.755 9.9541082e-39
0.039547604 -0.0093475953 0.755 9.8644574e-39
0.040985707 -0.0093476176 0.75500005 1.0139277e-38
0.042423792 -0.0093475953 0.755 1.032116e-38
0.0438619 -0.0093476251 0.75500005 1.0137495e-38
-0.023822876 -0.0079409406 0.75799996 9.4878864e-39
-0.022379065 -0.007940948 0.75800002 9.5790002e-39
-0.020935252 -0.007940948 0.75800002 9.5779072e-39
-0.01944001 -0.0079199895 0.75600004 8.7488598e-39
-0.017976195 -0.0079095215 0.75500005 7.9087366e-39
-0.016472384 -0.00787808 0.75200003 1.0928934e-38
-0.015040021 -0.00787808 0.75200003 1.400983e-38
-0.013571441 -0.007857129 0.75000006 1.7809985e-38
-0.012142873 -0.0078571215 0.75000006 2.1477997e-38
-0.010714306 -0.0078571215 0.75 2.1656977e-38
-0.0092609702 -0.0078361854 0.74800003 2.1823007e-38
-0.0078362003 -0.0078361854 0.74800003 1.9194153e-38
-0.0064114449 -0.0078361854 0.74799997 1.6661227e-38
-0.0049666748 -0.0078047365 0.745 2.0111601e-38
-0.0035571421 -0.0078257099 0.7470001 2.3413729e-38
-0.0021228753 -0.0077837929 0.74300003 2.3417672e-38
-0.0007076402 -0.0077837855 0.74300003 2.3409068e-38
0.00070759526 -0.0077837855 0.74299997 2.3417683e-38
0.0021228411 -0.0077837855 0.74300003 2.3407283e-38
0.0035333319 -0.0077733397 0.7420001 2.3417689e-38
0.0049466565 -0.0077733248 0.74200004 2.3410155e-38
0.0063599912 -0.0077733248 0.74200004 2.3417689e-38
0.0077733253 -0.0077733323 0.74200004 2.3409789e-38
0.0091866609 -0.0077733323 0.74200004 2.3417675e-38
0.010599997 -0.0077733323 0.74200004 2.3410148e-38
