# .PCD v0.7 - Point Cloud Data file format
VERSION 0.7
FIELDS x y z rgb
SIZE 4 4 4 4
TYPE F F F F
COUNT 1 1 1 1
WIDTH 948
HEIGHT 1
VIEWPOINT 0 0 0 1 0 0 0
POINTS 948
DATA ascii
0.013191436 -0.032631435 0.72900003 5.0683676e-39
0.014560009 -0.032586686 0.72800004 4.3354507e-39
0.015946671 -0.032586657 0.72800004 3.5046348e-39
0.01735715 -0.03263142 0.72900003 3.5979123e-39
0.018745713 -0.032631435 0.72900003 3.5950536e-39
0.020134291 -0.032631435 0.72900009 3.4924674e-39
0.021522852 -0.032631449 0.72900009 3.3249548e-39
0.022911429 -0.032631435 0.72900009 7.3650145e-39
0.024300002 -0.03263142 0.72900003 1.1336891e-38
0.025688579 -0.032631435 0.72900009 1.3276548e-38
0.027151423 -0.032720946 0.73100007 1.5115082e-38
0.028543822 -0.032720946 0.73100001 1.6873618e-38
0.029936196 -0.032720931 0.73100001 1.8529919e-38
0.031457148 -0.032855235 0.73400009 1.9463373e-38
0.032855246 -0.03285525 0.73400009 2.0266185e-38
0.034346685 -0.032944761 0.73600006 1.796381e-38
0.035748594 -0.032944761 0.73600006 1.556419e-38
0.037150487 -0.032944776 0.73600006 1.4354485e-38
0.038604774 -0.032989524 0.73700005 1.3065174e-38
0.040117137 -0.033079065 0.73900008 1.1418925e-38
0.041580968 -0.033123799 0.73999995 9.7712556e-39
0.04310666 -0.033213325 0.7420001 1.087937e-38
0.04458002 -0.033258088 0.74300003 1.1978165e-38
0.046242863 -0.033437125 0.74700004 1.105622e-38
0.047729541 -0.033481918 0.74800003 1.0138575e-38
0.049285725 -0.03357143 0.75000012 1.0230045e-38
-0.022142855 -0.032142855 0.75000012 1.4460391e-38
-0.020714276 -0.032142855 0.75000006 1.3715276e-38
-0.01923427 -0.032057129 0.74800003 1.5015294e-38
-0.017785713 -0.032014288 0.74700004 1.6402221e-38
-0.016275223 -0.031842835 0.74300003 1.8901936e-38
-0.014840002 -0.031800009 0.7420001 2.1304382e-38
-0.013390465 -0.031714283 0.74000001 2.0384249e-38
-0.011980935 -0.031714283 0.73999995 1.9376928e-38
-0.010557134 -0.031671412 0.73900002 1.6697556e-38
-0.0091495272 -0.031671427 0.73900008 1.4031436e-38
-0.0077209487 -0.031585716 0.73700005 1.2165647e-38
-0.0063171461 -0.031585701 0.73700011 1.0286205e-38
-0.004906659 -0.03154286 0.73600012 9.2085278e-39
-0.0035047571 -0.03154286 0.73600012 8.1108276e-39
-0.0020914145 -0.031371422 0.73200005 8.0254689e-39
-0.00069618947 -0.031328566 0.73100001 7.9440353e-39
0.00069618481 -0.031328566 0.73100007 7.9365005e-39
0.0020885842 -0.031328566 0.73100001 8.0294304e-39
0.003471425 -0.03124287 0.72900009 7.8421889e-39
0.0048599979 -0.031242855 0.72900003 7.7420633e-39
0.0062485752 -0.031242855 0.72900009 7.2846389e-39
0.0076371375 -0.031242855 0.72900009 6.9115515e-39
0.0090257144 -0.031242855 0.72900009 5.6283587e-39
0.010414287 -0.03124287 0.72900003 4.4348504e-39
0.011802864 -0.03124287 0.72900009 3.5075215e-39
0.013191427 -0.031242855 0.72900009 2.5866386e-39
0.014560011 -0.031199999 0.72800004 3.8676538e-39
0.015946673 -0.031199984 0.72800004 5.1497761e-39
0.017357141 -0.031242855 0.72900009 7.0901723e-39
0.018745719 -0.03124287 0.72900009 9.0147856e-39
0.02013428 -0.031242885 0.72900009 9.9514486e-39
0.021522868 -0.031242855 0.72900003 1.0786615e-38
0.022911431 -0.03124284 0.72900003 1.3000032e-38
0.024300009 -0.031242855 0.72900009 1.5316712e-38
0.025759047 -0.031328581 0.73100007 1.5125852e-38
0.02715143 -0.031328566 0.73100001 1.494865e-38
0.028543806 -0.031328551 0.73100007 1.5756526e-38
0.029936206 -0.031328551 0.73100001 1.6494467e-38
0.031457137 -0.031457134 0.73400009 1.7127656e-38
0.032855235 -0.031457148 0.73400009 1.7650985e-38
0.034346677 -0.03154286 0.73600006 1.6834447e-38
0.035748586 -0.03154286 0.73600012 1.599211e-38
0.037200954 -0.031585716 0.73700011 1.4720011e-38
0.038604774 -0.031585731 0.73700011 1.3438255e-38
0.040117141 -0.031671427 0.73900002 1.1512931e-38
0.041524772 -0.031671427 0.73900002 9.5897398e-39
0.042990498 -0.031714298 0.73999995 9.8655784e-39
0.044580005 -0.031842835 0.74300003 1.0236878e-38
0.046242867 -0.032014273 0.74700004 1.0323342e-38
0.047729541 -0.032057159 0.74800003 1.0412664e-38
0.049285717 -0.032142855 0.75000012 1.0322978e-38
-0.022142854 -0.030714281 0.75000012 1.4077248e-38
-0.020714279 -0.030714281 0.75000012 1.3259324e-38
-0.019234268 -0.030632369 0.74799997 1.4925981e-38
-0.017785715 -0.030591436 0.74700004 1.6592358e-38
-0.01631905 -0.030509524 0.74500006 1.9464076e-38
-0.014859986 -0.030427597 0.74300003 2.2308477e-38
-0.01342667 -0.030386664 0.74200004 1.9094604e-38
-0.011980939 -0.030304767 0.74000001 1.5853414e-38
-0.010571412 -0.030304752 0.74000001 1.042288e-38
-0.0091495235 -0.030263804 0.73900008 4.9920305e-39
-0.0077209491 -0.030181922 0.73700011 5.2481668e-39
-0.0063171354 -0.030181907 0.73700005 5.4375565e-39
-0.0049066511 -0.030140959 0.73600006 6.9176654e-39
-0.0035047492 -0.030140959 0.73600006 8.2977132e-39
-0.0020914169 -0.029977135 0.73200005 7.6580975e-39
-0.00069618062 -0.029936187 0.73100001 6.9209024e-39
0.00069619319 -0.029936187 0.73100001 6.2715982e-39
0.0020885675 -0.029936187 0.73100007 5.6312706e-39
0.0034809525 -0.029936157 0.73100001 5.7202461e-39
0.004860003 -0.02985429 0.72900009 5.7202152e-39
0.0062485654 -0.02985429 0.72900009 5.996051e-39
0.0076371431 -0.029854305 0.72900009 6.2679674e-39
0.0090257162 -0.02985429 0.72900003 4.4316134e-39
0.010414293 -0.02985429 0.72900009 2.5877218e-39
0.011802855 -0.02985429 0.72900009 1.3838089e-39
0.013191418 -0.029854305 0.72900009 1.0530898e-40
0.014580005 -0.029854275 0.72900003 3.3984963e-39
0.015968569 -0.02985429 0.72900009 6.7311358e-39
0.017357146 -0.02985429 0.72900009 1.059757e-38
0.018745707 -0.029854305 0.72900009 1.447009e-38
0.020134296 -0.02985429 0.72900003 1.642016e-38
0.021522859 -0.02985429 0.72900003 1.8248995e-38
0.022911435 -0.02985429 0.72900009 1.8715724e-38
0.0243 -0.02985429 0.72900009 1.9168042e-38
0.025759054 -0.029936187 0.73100001 1.6961436e-38
0.027151428 -0.029936187 0.73100007 1.4731549e-38
0.028543813 -0.029936172 0.73100001 1.4617466e-38
0.029977156 -0.02997715 0.73200005 1.4444219e-38
0.031457141 -0.030059047 0.73400009 1.4810146e-38
0.032944765 -0.030140974 0.73600012 1.5085634e-38
0.034346677 -0.030140974 0.73600012 1.5822452e-38
0.035797145 -0.030181922 0.73700011 1.6464923e-38
0.03720095 -0.030181907 0.73700005 1.5094906e-38
0.038604762 -0.030181907 0.73700011 1.3715548e-38
0.040117145 -0.030263789 0.73900002 1.1605093e-38
0.041524764 -0.030263819 0.73900008 9.4020919e-39
0.042990491 -0.030304752 0.74000001 8.9396606e-39
0.04458002 -0.030427597 0.74300003 8.3940483e-39
0.046242852 -0.030591436 0.7470001 9.4960938e-39
0.047665711 -0.030591421 0.74700004 1.0599915e-38
0.049285736 -0.030714266 0.75000006 1.041804e-38
-0.020714277 -0.029285707 0.75000012 1.3074216e-38
-0.019234274 -0.02920761 0.74799997 1.4741604e-38
-0.017809512 -0.02920761 0.74800003 1.6495868e-38
-0.016319053 -0.029090472 0.74500012 1.8073635e-38
-0.014859992 -0.029012375 0.74300003 1.9636639e-38
-0.01342667 -0.028973348 0.74200004 1.3824105e-38
-0.011980939 -0.028895251 0.74000001 7.9992829e-39
-0.010571404 -0.028895237 0.73999995 6.5387977e-39
-0.0091495207 -0.028856181 0.73900002 5.1433511e-39
-0.0077209556 -0.028778099 0.73700011 5.5286507e-39
-0.0063171419 -0.028778099 0.73700011 5.9107035e-39
-0.0049133291 -0.028778099 0.73700005 6.3662951e-39
-0.0035047529 -0.028739057 0.73600006 6.9223191e-39
-0.0020914127 -0.028582864 0.73199999 6.36663e-39
-0.00069619087 -0.028543808 0.73100007 5.8091627e-39
0.0006961904 -0.028543822 0.73100007 5.1670345e-39
0.0020885754 -0.028543793 0.73100001 4.6156655e-39
0.0034809499 -0.028543808 0.73100001 4.2465313e-39
0.0048733242 -0.028543822 0.73100007 3.9731576e-39
0.0062657241 -0.028543808 0.73100001 4.4254995e-39
0.0076371436 -0.028465725 0.72900003 4.8850357e-39
0.0090257209 -0.028465711 0.72900009 6.5384334e-39
0.010414283 -0.028465725 0.72900009 8.1817782e-39
0.011802846 -0.028465725 0.72900009 8.8461422e-39
0.013191435 -0.028465711 0.72900003 9.5823255e-39
0.014579996 -0.028465725 0.72900009 1.1522055e-38
0.015968574 -0.028465725 0.72900009 1.3563981e-38
0.017357137 -0.028465725 0.72900009 1.4850056e-38
0.018745711 -0.028465711 0.72900003 1.6245875e-38
0.020134287 -0.028465725 0.72900009 1.6782888e-38
0.021522863 -0.028465725 0.72900009 1.7339279e-38
0.022911428 -0.028465725 0.72900009 1.7600432e-38
0.024366662 -0.028543793 0.73100007 1.7964115e-38
0.025759062 -0.028543793 0.73100001 1.6745787e-38
0.027151437 -0.028543808 0.73100001 1.5520692e-38
0.028543809 -0.028543808 0.73100007 1.5620037e-38
0.029977156 -0.028582849 0.73200005 1.5803363e-38
0.031457145 -0.02866096 0.73400009 1.6092873e-38
0.032944772 -0.028739043 0.73600006 1.6375579e-38
0.034393333 -0.028778084 0.73700005 1.6560352e-38
0.035797156 -0.028778084 0.73700005 1.6746174e-38
0.03720095 -0.028778099 0.73700011 1.500022e-38
0.038709529 -0.028856181 0.73900002 1.3254928e-38
0.040117137 -0.028856196 0.73900008 1.1512506e-38
0.041580968 -0.028895237 0.74000001 9.7690443e-39
0.04310666 -0.028973334 0.7420001 9.8612148e-39
0.044580005 -0.02901236 0.74300003 9.9537971e-39
0.046242848 -0.029168583 0.7470001 1.0232202e-38
0.047729529 -0.029207624 0.74799997 1.0603855e-38
0.0491543 -0.029207639 0.74800003 1.0418038e-38
-0.022142848 -0.027857132 0.75000006 1.4341264e-38
-0.020714283 -0.027857147 0.75000012 1.2798715e-38
-0.019285709 -0.027857162 0.75000012 1.4653361e-38
-0.017857136 -0.027857147 0.75000012 1.6406547e-38
-0.016362865 -0.027745716 0.7470001 1.6698258e-38
-0.014900001 -0.027671419 0.74500006 1.6958301e-38
-0.013426671 -0.027559988 0.74200004 8.5650011e-39
-0.011980942 -0.027485706 0.74000001 1.0928727e-40
-0.010571416 -0.027485721 0.74000001 2.6820853e-39
-0.0091495272 -0.027448587 0.73900008 5.2527687e-39
-0.007741902 -0.027448572 0.73900008 5.8120395e-39
-0.0063171494 -0.02737429 0.73700011 6.3619721e-39
-0.0049133357 -0.02737429 0.73700011 5.8981269e-39
-0.0035047487 -0.027337156 0.73600006 5.4439661e-39
-0.0020971436 -0.027262844 0.73400009 5.0773373e-39
-0.0006971329 -0.027188562 0.73200005 4.6124229e-39
0.00069619925 -0.027151428 0.73100001 4.0635652e-39
0.0020885735 -0.027151428 0.73100007 3.5050118e-39
0.0034809581 -0.027151428 0.73100001 2.8603627e-39
0.0048733326 -0.027151428 0.73100001 2.2182611e-39
0.0062657068 -0.027151443 0.73100007 2.8475057e-39
0.0076581063 -0.027151413 0.73100001 3.4229097e-39
0.0090257116 -0.027077146 0.72900009 8.5635437e-39
0.010414285 -0.027077131 0.72900003 1.3732167e-38
0.011802861 -0.027077146 0.72900003 1.6419799e-38
0.013191423 -0.027077161 0.72900009 1.8982257e-38
0.014580001 -0.027077146 0.72900009 1.9634823e-38
0.015968565 -0.027077161 0.72900009 2.0275502e-38
0.017357152 -0.027077131 0.72900003 1.9176329e-38
0.018745715 -0.027077146 0.72900009 1.7963786e-38
0.020189522 -0.027151428 0.73100001 1.7125759e-38
0.021581912 -0.027151428 0.73100007 1.6297439e-38
0.022974297 -0.027151428 0.73100001 1.6474644e-38
0.024366671 -0.027151428 0.73100001 1.6653254e-38
0.025759047 -0.027151443 0.73100007 1.6537344e-38
0.027151445 -0.027151413 0.73100001 1.6353283e-38
0.02858288 -0.027188562 0.73200005 1.6721671e-38
0.029977165 -0.027188577 0.73200005 1.7094427e-38
0.031457148 -0.027262859 0.73400009 1.7382883e-38
0.032944772 -0.027337141 0.73600006 1.766236e-38
0.034393333 -0.027374305 0.73700011 1.7388672e-38
0.035797141 -0.02737429 0.73700011 1.7021679e-38
0.037200961 -0.027374275 0.73700005 1.4904073e-38
0.038709525 -0.027448572 0.73900008 1.2795754e-38
0.040171452 -0.027485706 0.73999995 1.1513236e-38
0.041693326 -0.027560003 0.74200004 1.0137834e-38
0.04310666 -0.027560003 0.7420001 1.0782814e-38
0.044580013 -0.027597137 0.74300003 1.1424957e-38
0.04630477 -0.027782865 0.74799997 1.0966511e-38
0.047729522 -0.02778285 0.74800003 1.0509135e-38
0.049154297 -0.027782865 0.74800003 1.0416946e-38
-0.022142854 -0.026428558 0.75000006 1.464081e-38
-0.020714272 -0.026428573 0.75000006 1.3166062e-38
-0.019285714 -0.026428588 0.75000012 1.4832733e-38
-0.017857144 -0.026428573 0.75000012 1.6492288e-38
-0.016362866 -0.026322849 0.7470001 1.6874038e-38
-0.014900007 -0.026252367 0.74500012 1.7330982e-38
-0.013444749 -0.026181899 0.74300003 9.1245367e-39
-0.012013341 -0.026146673 0.7420001 9.3505564e-40
-0.010571416 -0.026076205 0.74000001 3.1419984e-39
-0.0091495244 -0.026040964 0.73900008 5.260665e-39
-0.0077418988 -0.026040949 0.73900002 4.9833565e-39
-0.0063171382 -0.025970466 0.73700005 4.7968058e-39
-0.0049133357 -0.025970496 0.73700011 3.8766474e-39
-0.0035095222 -0.025970481 0.73700011 3.0512055e-39
-0.0021028391 -0.02593524 0.73600006 2.6777665e-39
-0.00069712871 -0.025794275 0.73200005 2.397958e-39
0.00069715711 -0.025794275 0.73200005 4.967561e-39
0.0020885819 -0.025759034 0.73100001 7.5310474e-39
0.0034809562 -0.025759049 0.73100007 9.1126831e-39
0.0048733409 -0.025759034 0.73100001 1.0579258e-38
0.0062657152 -0.025759049 0.73100001 1.1703603e-38
0.0076580895 -0.025759049 0.73100007 1.2915038e-38
0.0090257125 -0.025688566 0.72900003 1.5310289e-38
0.01041429 -0.025688566 0.72900003 1.7814266e-38
0.011802852 -0.025688581 0.72900009 1.7895722e-38
0.013191429 -0.025688581 0.72900009 1.7985764e-38
0.014580003 -0.025688581 0.72900003 1.797285e-38
0.015968582 -0.025688566 0.72900003 1.8073241e-38
0.017357143 -0.025688566 0.72900009 1.7399487e-38
0.018745705 -0.025688581 0.72900009 1.6827263e-38
0.020189522 -0.025759034 0.73100007 1.7011964e-38
0.021581905 -0.025759049 0.73100001 1.7280284e-38
0.022974296 -0.025759049 0.73100007 1.747327e-38
0.024366669 -0.025759049 0.73100007 1.7656934e-38
0.025759054 -0.025759049 0.73100001 1.73703e-38
0.02718859 -0.025794275 0.73200005 1.700005e-38
0.028582877 -0.02579426 0.73199999 1.7180813e-38
0.029977163 -0.025794275 0.73199999 1.7367051e-38
0.031542871 -0.02593524 0.73600006 1.7657321e-38
0.032944769 -0.025935255 0.73600006 1.8032939e-38
0.034393348 -0.025970466 0.73700005 1.7482667e-38
0.035797141 -0.025970481 0.73700011 1.6843389e-38
0.037301909 -0.026040934 0.73900002 1.4356639e-38
0.038709529 -0.026040934 0.73900002 1.1969236e-38
0.040171437 -0.02607619 0.74000001 1.1146623e-38
0.041580983 -0.026076175 0.73999995 1.0414072e-38
0.04310666 -0.026146673 0.7420001 1.0690275e-38
0.044580013 -0.026181884 0.74300003 1.0966497e-38
0.046304777 -0.02635809 0.74799997 1.0691707e-38
0.047729526 -0.026358105 0.74800003 1.0508043e-38
-0.022201898 -0.025066666 0.75200003 1.5012834e-38
-0.020769512 -0.025066681 0.75200003 1.354023e-38
-0.019285703 -0.024999991 0.75000006 1.5018561e-38
-0.01785714 -0.025000021 0.75000012 1.6496954e-38
-0.016362859 -0.024900004 0.74700004 1.7065603e-38
-0.0149 -0.024833322 0.74500006 1.7599314e-38
-0.013444746 -0.024766639 0.74300003 9.6676576e-39
-0.012013331 -0.02473332 0.74200004 1.7597618e-39
-0.010571408 -0.024666667 0.74000001 3.5064327e-39
-0.0091495207 -0.024633326 0.73900002 5.2545329e-39
-0.007741896 -0.024633326 0.73900002 4.2475683e-39
-0.0063171447 -0.024566665 0.73700011 3.1376418e-39
-0.0049133319 -0.024566673 0.73700005 1.9434146e-39
-0.0035095287 -0.024566665 0.73700011 6.5236329e-40
-0.0021028428 -0.024533331 0.73600006 3.6791652e-40
-0.00069712359 -0.024399981 0.73199999 1.0605167e-40
0.00069715432 -0.024399988 0.73199999 5.8780673e-39
0.0020914434 -0.024400011 0.73200005 1.1604524e-38
0.0034857297 -0.024400003 0.73200005 1.529625e-38
0.0048733382 -0.024366669 0.73100007 1.8979395e-38
0.0062657231 -0.024366662 0.73100001 2.0655431e-38
0.0076580974 -0.024366654 0.73100001 2.2305234e-38
0.0090504717 -0.024366662 0.73100007 2.2131958e-38
0.010442857 -0.024366647 0.73100001 2.1843167e-38
0.011802858 -0.024300009 0.72900009 1.9454717e-38
0.013191431 -0.024300002 0.72900003 1.6945349e-38
0.014580009 -0.024300002 0.72900003 1.6381386e-38
0.01596857 -0.024300009 0.72900009 1.5731311e-38
0.01740477 -0.024366654 0.73100007 1.5704353e-38
0.018797154 -0.024366647 0.73100001 1.5622568e-38
0.020189529 -0.024366669 0.73100001 1.6998672e-38
0.021581903 -0.024366677 0.73100007 1.8292975e-38
0.022974288 -0.024366662 0.73100001 1.8481664e-38
0.024400018 -0.024399996 0.73199999 1.8663896e-38
0.025794303 -0.024399981 0.73199999 1.8194309e-38
0.027188588 -0.024399996 0.73199999 1.7641112e-38
0.028660949 -0.024466671 0.73400009 1.7634264e-38
0.030059049 -0.024466671 0.73400009 1.7555752e-38
0.031542867 -0.024533331 0.73600006 1.8029327e-38
0.03294478 -0.024533339 0.73600012 1.8397764e-38
0.034393348 -0.024566673 0.73700011 1.7573775e-38
0.035797153 -0.024566673 0.73700005 1.6655402e-38
0.037301913 -0.024633318 0.73900002 1.3893863e-38
0.038761925 -0.02466666 0.73999995 1.105196e-38
0.040171444 -0.024666674 0.74000001 1.0873644e-38
0.041693326 -0.024733342 0.7420001 1.0689955e-38
0.04316476 -0.024766661 0.74300003 1.0598103e-38
0.044580001 -0.024766669 0.74300003 1.0415858e-38
0.046304777 -0.024933331 0.74799997 1.0416926e-38
0.047729529 -0.024933338 0.74800003 1.0416926e-38
-0.022201886 -0.023634285 0.75200003 1.4830257e-38
-0.02076952 -0.023634277 0.75200009 1.2800535e-38
-0.019285701 -0.023571424 0.75000006 1.483274e-38
-0.017857127 -0.023571424 0.75000006 1.6860712e-38
-0.016428566 -0.023571432 0.75000012 1.7149906e-38
-0.014900005 -0.023414299 0.74500012 1.7516448e-38
-0.013444749 -0.023351416 0.74300003 9.209915e-39
-0.012013332 -0.023320004 0.74200004 9.1887484e-40
-0.010571408 -0.023257151 0.74000001 1.8443862e-39
-0.0091618896 -0.023257144 0.74000001 2.6766482e-39
-0.007741903 -0.023225717 0.73900008 3.4077463e-39
-0.0063342857 -0.023225717 0.73900002 4.0423397e-39
-0.0049133315 -0.023162872 0.73700011 6.1638775e-39
-0.0035095189 -0.023162872 0.73700005 8.3593731e-39
-0.0021028456 -0.023131438 0.73600006 9.7681671e-39
-0.00069904816 -0.023068577 0.73400009 1.1156838e-38
0.00069715525 -0.023005717 0.73200005 1.4103843e-38
0.0020914406 -0.023005717 0.73200005 1.7069882e-38
0.0034857262 -0.023005702 0.73200005 1.8629689e-38
0.0048733316 -0.02297429 0.73100001 2.0295283e-38
0.0062657213 -0.02297429 0.73100001 1.9826779e-38
0.0076580951 -0.022974275 0.73100007 1.9468036e-38
0.0090504801 -0.022974268 0.73100001 1.8983019e-38
0.010442855 -0.022974275 0.73100007 1.8603793e-38
0.01183523 -0.022974297 0.73100007 1.7573467e-38
0.013227629 -0.022974275 0.73100001 1.6530922e-38
0.014579997 -0.022911444 0.72900009 1.6450137e-38
0.016012389 -0.022974268 0.73100001 1.634713e-38
0.017404763 -0.022974275 0.73100001 1.6626531e-38
0.018797154 -0.022974283 0.73100007 1.6816718e-38
0.020189537 -0.022974275 0.73100001 1.774087e-38
0.021611443 -0.023005694 0.73199999 1.8666045e-38
0.02300573 -0.023005709 0.73199999 1.8667843e-38
0.024400018 -0.023005731 0.73200005 1.8761828e-38
0.025864759 -0.02306857 0.73400009 1.8197898e-38
0.027262857 -0.02306857 0.73400009 1.7735465e-38
0.028739063 -0.023131438 0.73600012 1.7643244e-38
0.030140959 -0.023131445 0.73600012 1.7558987e-38
0.031542867 -0.023131438 0.73600012 1.7842071e-38
0.032989521 -0.023162857 0.73700005 1.8026113e-38
0.034393333 -0.023162872 0.73700011 1.7204628e-38
0.035894297 -0.023225717 0.73900002 1.6474231e-38
0.037301905 -0.023225725 0.73900008 1.3529737e-38
0.038761918 -0.023257144 0.73999995 1.0684619e-38
0.040280007 -0.023319997 0.74200004 1.0504524e-38
0.041693326 -0.023320004 0.7420001 1.0415186e-38
0.043164775 -0.023351416 0.74300003 1.0414812e-38
0.044699997 -0.023414284 0.74500012 1.0508067e-38
0.04630477 -0.023508586 0.74800003 1.0416575e-38
0.047857162 -0.023571424 0.75000006 1.0416929e-38
-0.017809512 -0.022083804 0.74800003 1.71398e-38
-0.016362855 -0.022054262 0.74700004 1.7340743e-38
-0.014900005 -0.021995224 0.74500006 1.7411669e-38
-0.013480953 -0.021995232 0.74500006 8.7366994e-39
-0.012029513 -0.021936201 0.74300003 9.5197211e-41
-0.010600002 -0.021906666 0.7420001 9.2331556e-41
-0.0091866599 -0.021906659 0.74200004 9.7388842e-41
-0.0077523645 -0.021847621 0.74000001 2.57196e-39
-0.006334282 -0.021818079 0.73900002 4.981567e-39
-0.0049266675 -0.021818101 0.73900008 1.0493492e-38
-0.0035095254 -0.021759056 0.73700011 1.6030571e-38
-0.0021057127 -0.021759041 0.73700011 1.9188179e-38
-0.00069904397 -0.021670468 0.73400009 2.2208355e-38
0.00069905375 -0.021670476 0.73400009 2.2401722e-38
0.0020971505 -0.021670483 0.73400009 2.2493576e-38
0.0034857234 -0.021611422 0.73199999 2.2040158e-38
0.0048800232 -0.021611422 0.73199999 2.1461121e-38
0.0062657148 -0.021581888 0.73100001 1.907192e-38
0.0076581039 -0.021581896 0.73100007 1.657476e-38
0.0090504782 -0.021581903 0.73100007 1.5911799e-38
0.010442863 -0.021581903 0.73100001 1.5265321e-38
0.011835238 -0.021581911 0.73100001 1.5704369e-38
0.013227612 -0.021581903 0.73100007 1.6169266e-38
0.014620011 -0.021581896 0.73100001 1.6632372e-38
0.016012387 -0.021581903 0.73100007 1.699503e-38
0.017428584 -0.021611422 0.73199999 1.7546741e-38
0.018822869 -0.021611422 0.73199999 1.8012405e-38
0.02021716 -0.021611437 0.73200005 1.8481658e-38
0.021670487 -0.021670468 0.73400009 1.8941934e-38
0.02306857 -0.021670476 0.73400009 1.8852992e-38
0.024466667 -0.021670483 0.73400009 1.8755749e-38
0.025935242 -0.021729551 0.73600006 1.8283272e-38
0.027337153 -0.021729536 0.73600012 1.7827311e-38
0.028739072 -0.021729514 0.73600006 1.7735464e-38
0.030181907 -0.021759048 0.73700011 1.7560433e-38
0.031585727 -0.021759041 0.73700005 1.7662346e-38
0.03307905 -0.021818087 0.73900002 1.7661649e-38
0.034486681 -0.021818094 0.73900002 1.6928062e-38
0.035942879 -0.021847628 0.74000001 1.6194066e-38
0.037352394 -0.021847613 0.74000001 1.3249203e-38
0.038761914 -0.021847613 0.74000001 1.0224364e-38
0.040280007 -0.021906674 0.74200004 1.0228662e-38
0.041749537 -0.021936178 0.74300003 1.0137887e-38
0.043164779 -0.021936186 0.74300003 1.0321184e-38
0.044699993 -0.021995239 0.74500012 1.0506632e-38
0.046242863 -0.022054277 0.74700004 1.0508051e-38
0.047729529 -0.022083804 0.74800003 1.0416224e-38
0.049154293 -0.022083811 0.74800003 1.0599186e-38
-0.017809508 -0.020659037 0.74800003 1.6952536e-38
-0.016362868 -0.020631425 0.7470001 1.6872948e-38
-0.01494 -0.02063141 0.74700004 1.6776684e-38
-0.013480957 -0.020576194 0.74500012 1.0396505e-38
-0.012029505 -0.020520933 0.74300003 3.9493916e-39
-0.010600003 -0.020493336 0.7420001 6.3471828e-39
-0.0091866618 -0.020493314 0.74200004 8.6399103e-39
-0.007752365 -0.020438105 0.74000001 1.133657e-38
-0.006334289 -0.020410471 0.73900008 1.4114603e-38
-0.0049266638 -0.020410463 0.73900008 1.6781785e-38
-0.0035190459 -0.020410478 0.73900002 1.9560563e-38
-0.0021057192 -0.020355254 0.73700011 2.0013678e-38
-0.00070093223 -0.020327628 0.73600006 2.0382814e-38
0.00069904304 -0.020272382 0.73400009 1.9540869e-38
0.0020971408 -0.020272389 0.73400009 1.8727981e-38
0.003485725 -0.02021715 0.73200005 1.8230061e-38
0.0048800102 -0.020217136 0.73200005 1.7733131e-38
0.006274296 -0.020217143 0.73200005 1.7099524e-38
0.007658097 -0.020189516 0.73100001 1.643906e-38
0.0090504857 -0.020189509 0.73100001 1.6450143e-38
0.01044286 -0.020189531 0.73100007 1.6535126e-38
0.011835245 -0.020189509 0.73100001 1.6811672e-38
0.01322762 -0.020189524 0.73100001 1.7187297e-38
0.014619994 -0.020189524 0.73100007 1.7456379e-38
0.01601238 -0.020189509 0.73100001 1.7637191e-38
0.017428586 -0.02021715 0.73200005 1.8006338e-38
0.018822871 -0.020217136 0.73200005 1.8286511e-38
0.020272395 -0.020272374 0.73400009 1.8658876e-38
0.021670476 -0.020272382 0.73400009 1.9032719e-38
0.023131434 -0.02032762 0.73600012 1.8850166e-38
0.024533354 -0.02032762 0.73600006 1.866501e-38
0.025935249 -0.02032762 0.73600006 1.8286495e-38
0.027337158 -0.020327628 0.73600006 1.7829833e-38
0.028778097 -0.020355232 0.73700005 1.7554329e-38
0.030181909 -0.020355262 0.73700011 1.7284581e-38
0.031671435 -0.020410471 0.73900002 1.7291056e-38
0.033079054 -0.020410471 0.73900002 1.7295749e-38
0.03453334 -0.02043809 0.74000001 1.6377065e-38
0.035942886 -0.02043809 0.73999995 1.5460822e-38
0.037453339 -0.020493336 0.7420001 1.2794323e-38
0.038866665 -0.020493336 0.74200004 1.022472e-38
0.040334295 -0.020520955 0.74300003 1.0227946e-38
0.041749541 -0.02052094 0.74300003 1.0321201e-38
0.043280959 -0.020576201 0.74500006 1.0597049e-38
0.044699997 -0.020576186 0.74500012 1.0872899e-38
0.046304774 -0.020659052 0.74800003 1.0598452e-38
0.04785715 -0.020714298 0.75000006 1.0324401e-38
-0.017809507 -0.019234285 0.74799997 1.668168e-38
-0.016384756 -0.019234292 0.74800003 1.6421997e-38
-0.014940004 -0.019208573 0.7470001 1.6121965e-38
-0.013480951 -0.019157141 0.74500006 1.1939015e-38
-0.012029511 -0.019105688 0.74300003 7.8291176e-39
-0.010600003 -0.019079998 0.7420001 1.2522872e-38
-0.0091866618 -0.019079998 0.74200004 1.7229113e-38
-0.007752365 -0.019028567 0.74000001 2.0203394e-38
-0.0063342853 -0.019002855 0.73900002 2.3135319e-38
-0.0049266606 -0.019002862 0.73900002 2.3142139e-38
-0.0035190426 -0.019002847 0.73900002 2.3037743e-38
-0.002105708 -0.018951416 0.73700005 2.0830816e-38
-0.00070093595 -0.018925712 0.73600006 1.8514471e-38
0.00070095924 -0.018925712 0.73600006 1.6743041e-38
0.0020971454 -0.01887428 0.73400009 1.4910961e-38
0.0034952429 -0.018874273 0.73400009 1.4418746e-38
0.0048933397 -0.018874295 0.73400009 1.3969945e-38
0.0062742932 -0.018822841 0.73200005 1.5153375e-38
0.007668593 -0.018822841 0.73200005 1.6266858e-38
0.0090628788 -0.018822849 0.73199999 1.7005825e-38
0.010457165 -0.018822864 0.73199999 1.7731509e-38
0.011851449 -0.018822849 0.73199999 1.8003039e-38
0.013245725 -0.018822864 0.73200005 1.8190662e-38
0.014620003 -0.018797129 0.73100001 1.8277122e-38
0.016034298 -0.018822849 0.73200005 1.8278208e-38
0.017428583 -0.018822856 0.73200005 1.8463322e-38
0.018874286 -0.01887428 0.73400009 1.855695e-38
0.020272383 -0.018874288 0.73400009 1.8834968e-38
0.021670481 -0.018874288 0.73400009 1.9027648e-38
0.023131443 -0.018925719 0.73600006 1.8849039e-38
0.024533352 -0.018925726 0.73600006 1.8564878e-38
0.025970483 -0.018951431 0.73700005 1.8183858e-38
0.027374279 -0.018951431 0.73700011 1.7822609e-38
0.028778097 -0.018951431 0.73700011 1.7459566e-38
0.030181918 -0.018951416 0.73700005 1.7005456e-38
0.031585712 -0.018951423 0.73700011 1.692084e-38
0.033079047 -0.019002847 0.73900008 1.6835484e-38
0.034486681 -0.019002855 0.73900002 1.5823523e-38
0.035942864 -0.019028582 0.74000001 1.472505e-38
0.037453339 -0.019079991 0.7420001 1.2426259e-38
0.038919058 -0.019105703 0.74300003 1.0133959e-38
0.040334299 -0.019105718 0.74300003 1.0320859e-38
0.041749526 -0.01910571 0.74300003 1.0505586e-38
0.043280941 -0.019157156 0.74500012 1.0873268e-38
0.044819996 -0.019208573 0.7470001 1.1239875e-38
0.046304777 -0.019234285 0.74800003 1.0780324e-38
0.047857158 -0.019285716 0.75000012 1.0230042e-38
-0.017857134 -0.017857142 0.75000012 1.6496921e-38
-0.016384754 -0.017809525 0.74800003 1.7423555e-38
-0.014940007 -0.017785706 0.74700004 1.8340336e-38
-0.013480955 -0.017738096 0.74500012 1.6490571e-38
-0.012029515 -0.017690465 0.74300003 1.4660494e-38
-0.010614273 -0.017690472 0.74300003 1.7058435e-38
-0.0091866618 -0.01766666 0.74200004 1.9468751e-38
-0.0077733393 -0.017666668 0.7420001 1.9371169e-38
-0.0063342825 -0.017595239 0.73900002 1.9376551e-38
-0.0049266671 -0.017595239 0.73900008 1.8612811e-38
-0.0035190496 -0.017595232 0.73900008 1.7963818e-38
-0.0021057155 -0.01754763 0.73700011 1.8695586e-38
-0.00070093828 -0.01752381 0.73600006 1.9499127e-38
0.00070095598 -0.017523818 0.73600006 1.8590078e-38
0.0021028656 -0.01752381 0.73600012 1.7744121e-38
0.0034952469 -0.017476201 0.73400009 1.7664057e-38
0.0048933295 -0.017476186 0.73400009 1.7665522e-38
0.0062914272 -0.017476194 0.73400009 1.8310554e-38
0.0076685902 -0.017428562 0.73199999 1.8948373e-38
0.0090628657 -0.017428577 0.73200005 1.9407544e-38
0.010457152 -0.017428577 0.73200005 1.9841585e-38
0.011851436 -0.017428562 0.73200005 1.9946308e-38
0.013245721 -0.017428562 0.73200005 2.0029156e-38
0.014640006 -0.017428555 0.73200005 1.9943756e-38
0.016034294 -0.017428569 0.73200005 1.9836861e-38
0.017476192 -0.017476194 0.73400009 1.9664318e-38
0.018874289 -0.017476194 0.73400009 1.9561357e-38
0.020272387 -0.017476201 0.73400009 1.9670049e-38
0.021670485 -0.017476186 0.73400009 1.9852324e-38
0.023131439 -0.017523818 0.73600006 1.9673715e-38
0.024533348 -0.017523818 0.73600006 1.9571437e-38
0.025970483 -0.017547622 0.73700011 1.8835277e-38
0.027374288 -0.017547622 0.73700005 1.8183805e-38
0.0287781 -0.017547615 0.73700011 1.819778e-38
0.030181903 -0.017547637 0.73700011 1.819283e-38
0.031585708 -0.017547615 0.73700005 1.8306978e-38
0.03307905 -0.017595232 0.73900002 1.840421e-38
0.034533355 -0.017619051 0.74000001 1.6937727e-38
0.036039989 -0.01766666 0.74200004 1.5556939e-38
0.037453335 -0.017666675 0.7420001 1.2800412e-38
0.038919058 -0.017690465 0.74300003 1.0042838e-38
0.040334295 -0.017690465 0.74300003 1.0137547e-38
0.041861892 -0.017738096 0.74500006 1.0323706e-38
0.043397143 -0.017785713 0.74700004 1.0412291e-38
0.044819996 -0.017785713 0.7470001 1.0596662e-38
0.046304777 -0.017809533 0.74800003 1.0413333e-38
-0.017857129 -0.016428567 0.75000006 1.6221427e-38
-0.016384752 -0.016384758 0.74800003 1.8343379e-38
-0.01494 -0.016362853 0.74700004 2.0464489e-38
-0.01348095 -0.016319051 0.74500006 2.0930408e-38
-0.012061902 -0.016319044 0.74500006 2.1386082e-38
-0.010614279 -0.016275227 0.74300003 2.1580959e-38
-0.0091990372 -0.01627522 0.74300003 2.1655922e-38
-0.0077733402 -0.01625333 0.7420001 1.8619957e-38
-0.0063428408 -0.016209528 0.74000001 1.5470933e-38
-0.0049266648 -0.016187623 0.73900008 1.4152164e-38
-0.0035190464 -0.016187608 0.73900002 1.2886961e-38
-0.0021114212 -0.016187616 0.73900002 1.6672711e-38
-0.00070094154 -0.016121916 0.73600012 2.0449088e-38
0.00070096296 -0.016121894 0.73600006 2.0558146e-38
0.0021028721 -0.016121902 0.73600006 2.06313e-38
0.0034952364 -0.0160781 0.73400009 2.1012248e-38
0.0048933337 -0.0160781 0.73400009 2.1279877e-38
0.0062742913 -0.01603429 0.73200005 2.1474326e-38
0.0076685767 -0.016034275 0.73200005 2.164651e-38
0.009062862 -0.01603429 0.73200005 2.1834122e-38
0.010457163 -0.01603429 0.73200005 2.1999835e-38
0.011851448 -0.016034275 0.73200005 2.2003762e-38
0.013245733 -0.01603429 0.73200005 2.1905812e-38
0.014640019 -0.016034275 0.73200005 2.1631727e-38
0.016034305 -0.016034275 0.73199999 2.1349039e-38
0.017476197 -0.016078092 0.73400009 2.0978821e-38
0.018874295 -0.016078107 0.73400009 2.0521087e-38
0.020272393 -0.0160781 0.73400009 2.0614726e-38
0.021670489 -0.016078092 0.73400009 2.0615815e-38
0.023131436 -0.016121894 0.73600006 2.0606143e-38
0.024533344 -0.016121909 0.73600012 2.0608265e-38
0.025970479 -0.016143799 0.73700005 1.9585846e-38
0.027374288 -0.016143821 0.73700011 1.8492064e-38
0.028778095 -0.016143806 0.73700011 1.8954822e-38
0.030263819 -0.016187608 0.73900002 1.9329389e-38
0.031671435 -0.016187616 0.73900002 1.9618221e-38
0.033123817 -0.01620952 0.74000001 1.9890854e-38
0.034626674 -0.01625333 0.74200004 1.8149206e-38
0.036039989 -0.016253337 0.74200004 1.6394608e-38
0.037453335 -0.016253337 0.7420001 1.3174948e-38
0.038919061 -0.016275227 0.74300003 9.8641897e-39
0.040442847 -0.016319066 0.74500012 9.9542147e-39
0.041974291 -0.016362853 0.74700004 1.0044601e-38
0.043455251 -0.016384758 0.74799997 1.0039208e-38
0.044880018 -0.016384766 0.74800003 9.9530839e-39
0.046304777 -0.016384766 0.74800003 1.0046685e-38
-0.017857136 -0.015000001 0.75000006 1.6311481e-38
-0.016384758 -0.014959998 0.74800003 1.835023e-38
-0.014939995 -0.014939986 0.74700004 2.0386743e-38
-0.013480961 -0.014900006 0.74500012 1.8724725e-38
-0.012029517 -0.014859997 0.74300003 1.716818e-38
-0.010614274 -0.014859997 0.74300003 1.6957599e-38
-0.0091866711 -0.014839999 0.74200004 1.6851397e-38
-0.0077733407 -0.014839992 0.7420001 1.5732851e-38
-0.0063428334 -0.014799997 0.73999995 1.4602346e-38
-0.004926661 -0.01478 0.73900002 1.405442e-38
-0.0035190431 -0.014779985 0.73900002 1.3503547e-38
-0.0021114277 -0.014779992 0.73900008 1.7229122e-38
-0.00070093502 -0.014719993 0.73600006 2.0934134e-38
0.0007009597 -0.01472 0.73600006 1.6143286e-38
0.0021028693 -0.014720008 0.73600006 1.1455026e-38
0.0034952408 -0.014679998 0.73400009 1.3009785e-38
0.0048800176 -0.014639996 0.73200005 1.4589285e-38
0.006274303 -0.014640003 0.73200005 1.5131689e-38
0.0076685888 -0.014639981 0.73200005 1.5695969e-38
0.0090628741 -0.014639996 0.73200005 1.6141508e-38
0.010457159 -0.014640003 0.73199999 1.6513858e-38
0.011883811 -0.014680006 0.73400009 1.6872218e-38
0.013245731 -0.014639989 0.73199999 1.7346452e-38
0.014640005 -0.014639996 0.73200005 1.7517917e-38
0.016034292 -0.014640003 0.73200005 1.78056e-38
0.017476201 -0.014679998 0.73400009 1.7975261e-38
0.018874299 -0.014679998 0.73400009 1.8174021e-38
0.020272382 -0.014680006 0.73400009 1.8439147e-38
0.021670477 -0.014680006 0.73400009 1.8818315e-38
0.023131432 -0.014720008 0.73600012 1.8526294e-38
0.024533352 -0.01472 0.73600006 1.8261528e-38
0.025970479 -0.014740005 0.73700011 1.7323781e-38
0.027374299 -0.014739998 0.73700005 1.6417624e-38
0.028778095 -0.014740013 0.73700011 1.8151378e-38
0.030263824 -0.014779985 0.73900002 1.9908121e-38
0.031714305 -0.014799997 0.74000001 2.0083212e-38
0.033123825 -0.014800012 0.74000001 2.0269373e-38
0.034626674 -0.014839984 0.74200004 1.8428337e-38
0.036039989 -0.014840007 0.7420001 1.6493289e-38
0.03750382 -0.014860004 0.74300003 1.3177479e-38
0.039023817 -0.014899991 0.74500006 9.8667008e-39
0.040442854 -0.014899999 0.74500006 9.9552699e-39
0.04197428 -0.014939994 0.7470001 1.0045308e-38
0.043455243 -0.014960006 0.74800003 9.9527504e-39
0.045000006 -0.014999993 0.75000012 9.9555824e-39
0.046428595 -0.015000001 0.75000006 9.9551844e-39
-0.017857134 -0.013571419 0.75000006 1.6408338e-38
-0.016384752 -0.013535239 0.74800003 1.8358462e-38
-0.014940007 -0.013517141 0.7470001 2.0189412e-38
-0.013480957 -0.013480946 0.74500006 1.6504852e-38
-0.012061909 -0.013480946 0.74500006 1.2807342e-38
-0.010614269 -0.013444752 0.74300003 1.2412682e-38
-0.0091866711 -0.013426661 0.74200004 1.2045693e-38
-0.0077733411 -0.013426684 0.7420001 1.2949336e-38
-0.0063428441 -0.013390481 0.74000001 1.3780792e-38
-0.004926668 -0.013372377 0.73900008 1.3959356e-38
-0.0035190505 -0.013372384 0.73900008 1.4169004e-38
-0.0021114254 -0.013372384 0.73900002 1.780634e-38
-0.00070093782 -0.013318099 0.73600006 2.1288906e-38
0.00070095691 -0.013318092 0.73600006 1.1809034e-38
0.0021028661 -0.013318099 0.73600006 2.2405669e-39
0.003495245 -0.013281912 0.73400009 4.9827217e-39
0.004893342 -0.013281912 0.73400009 7.7542938e-39
0.0062914253 -0.013281912 0.73400009 8.7673598e-39
0.0076895226 -0.013281897 0.73400009 9.689665e-39
0.0090876203 -0.013281897 0.73400009 1.033754e-38
0.010485717 -0.013281912 0.73400009 1.0975009e-38
0.011883815 -0.013281904 0.73400009 1.1807985e-38
0.013245718 -0.013245709 0.73200005 1.2635215e-38
0.014640017 -0.013245717 0.73200005 1.3471414e-38
0.016034303 -0.013245709 0.73200005 1.4205012e-38
0.017476192 -0.013281904 0.73400009 1.4941838e-38
0.018874289 -0.013281904 0.73400009 1.5675823e-38
0.020272385 -0.013281904 0.73400009 1.6333039e-38
0.021670485 -0.013281897 0.73400009 1.6873642e-38
0.023131439 -0.013318099 0.73600006 1.6419479e-38
0.024566669 -0.013336189 0.73700005 1.5853374e-38
0.025970479 -0.013336204 0.73700011 1.5121894e-38
0.027374286 -0.013336197 0.73700011 1.428643e-38
0.028778108 -0.013336189 0.73700005 1.7324917e-38
0.030181902 -0.013336189 0.73700011 2.0361579e-38
0.031671431 -0.013372377 0.73900008 2.0536632e-38
0.033123828 -0.013390481 0.74000001 2.0636705e-38
0.034626674 -0.013426661 0.74200004 1.8617389e-38
0.036039989 -0.013426669 0.7420001 1.6581538e-38
0.037503824 -0.013444759 0.74300003 1.3174972e-38
0.039023798 -0.013480954 0.74500012 9.7734206e-39
0.04044285 -0.013480961 0.74500012 9.8630547e-39
0.041861903 -0.013480954 0.74500012 9.9545342e-39
0.043455247 -0.013535239 0.74800003 9.9538196e-39
0.044880021 -0.013535239 0.74800003 9.8623218e-39
0.046428587 -0.013571426 0.75000012 9.9559285e-39
-0.017857132 -0.012142867 0.75000012 1.6683125e-38
-0.016384752 -0.012110487 0.74800003 1.807289e-38
-0.014940008 -0.012094274 0.7470001 1.9354612e-38
-0.013517151 -0.012094289 0.7470001 1.5745736e-38
-0.012061914 -0.012061909 0.74500012 1.2122794e-38
-0.010614273 -0.012029521 0.74300003 1.2677289e-38
-0.0091990316 -0.012029506 0.74300003 1.3224723e-38
-0.0077733314 -0.012013331 0.74200004 1.3693595e-38
-0.0063428455 -0.011980951 0.74000001 1.4254623e-38
-0.0049266643 -0.011964768 0.73900008 1.3969041e-38
-0.0035190394 -0.011964746 0.73900002 1.3794856e-38
-0.0021114217 -0.011964753 0.73900002 1.7055173e-38
-0.00070094154 -0.01191619 0.73600006 2.0370894e-38
0.00070096808 -0.011916198 0.73600012 1.0781576e-38
0.0021028628 -0.011916205 0.73600012 1.2862813e-39
0.0034952492 -0.01188381 0.73400009 5.0637265e-39
0.0048933318 -0.011883803 0.73400009 8.73931e-39
0.006291429 -0.01188381 0.73400009 9.0284581e-39
0.0076895263 -0.011883818 0.73400009 9.1924142e-39
0.009087625 -0.011883803 0.73400009 8.374161e-39
0.010485722 -0.01188381 0.73400009 7.6287305e-39
0.011883819 -0.011883803 0.73400009 9.3897633e-39
0.013281902 -0.01188381 0.73400009 1.1129253e-38
0.014640015 -0.01185143 0.73199999 1.2812419e-38
0.016078098 -0.01188381 0.73400009 1.4457926e-38
0.017476195 -0.011883818 0.73400009 1.1796132e-38
0.018925738 -0.011916198 0.73600006 9.1214371e-39
0.020327633 -0.01191619 0.73600006 1.0145273e-38
0.021729542 -0.011916198 0.73600006 1.1147929e-38
0.023131451 -0.01191619 0.73600006 1.0599066e-38
0.024566671 -0.01193238 0.73700011 1.0029369e-38
0.025970476 -0.01193238 0.73700005 8.5646353e-39
0.027374286 -0.01193238 0.73700011 7.1785409e-39
0.028778093 -0.011932388 0.73700011 1.3273811e-38
0.030181913 -0.011932373 0.73700005 1.9267823e-38
0.031671435 -0.011964753 0.73900002 1.9258807e-38
0.033123821 -0.011980943 0.74000001 1.9266338e-38
0.034626674 -0.012013324 0.74200004 1.6952152e-38
0.036039989 -0.012013339 0.7420001 1.4733709e-38
0.037503824 -0.012029499 0.74300003 1.2159762e-38
0.039023817 -0.012061909 0.74500006 9.6779894e-39
0.040551428 -0.012094282 0.74700004 9.587167e-39
0.041974276 -0.012094274 0.74700004 9.4960602e-39
0.043455247 -0.012110472 0.74800003 9.5861118e-39
0.045120008 -0.012175247 0.75200003 9.6750733e-39
0.046614286 -0.01219143 0.75300008 9.9552377e-39
0.048176203 -0.012223803 0.75500011 1.0142897e-38
-0.017904755 -0.010742873 0.75200009 1.6960065e-38
-0.016428564 -0.010714278 0.75000012 1.7803842e-38
-0.014959983 -0.010685712 0.74799997 1.8520156e-38
-0.013517144 -0.010671422 0.7470001 1.5000199e-38
-0.012061908 -0.010642864 0.74500006 1.1487813e-38
-0.010642862 -0.010642849 0.74500006 1.2949609e-38
-0.0091990354 -0.010614276 0.74300003 1.4336837e-38
-0.0077733323 -0.010599993 0.74200004 1.4529844e-38
-0.0063428381 -0.010571428 0.74000001 1.470988e-38
-0.0049333195 -0.010571443 0.74000001 1.4051199e-38
-0.0035190361 -0.010557137 0.73900002 1.3347886e-38
-0.0021114287 -0.01055713 0.73900008 1.6432071e-38
-0.00070189382 -0.010528564 0.73700005 1.9346713e-38
0.00070097554 -0.010514289 0.73600006 9.843833e-39
0.0021028703 -0.010514282 0.73600006 3.7510238e-40
0.0035047794 -0.010514297 0.73600006 5.0633888e-39
0.0049066739 -0.010514282 0.73600006 9.7678294e-39
0.0063085835 -0.010514289 0.73600006 9.3233852e-39
0.0077104927 -0.010514297 0.73600006 8.7519091e-39
0.0090876287 -0.010485724 0.73400009 6.5209382e-39
0.010514297 -0.010514289 0.73600012 4.2412036e-39
0.011916191 -0.010514289 0.73600012 6.9008554e-39
0.013281906 -0.010485709 0.73400009 9.5906534e-39
0.014680005 -0.010485716 0.73400009 1.219041e-38
0.016078101 -0.010485716 0.73400009 1.4653092e-38
0.017476199 -0.010485716 0.73400009 8.6636805e-39
0.018925736 -0.010514289 0.73600006 2.602542e-39
0.02032763 -0.010514282 0.73600006 3.9782863e-39
0.021729538 -0.010514289 0.73600006 5.3594019e-39
0.023131447 -0.010514297 0.73600006 4.7990563e-39
0.024566671 -0.010528572 0.73700011 4.1518652e-39
0.025970476 -0.010528572 0.73700011 2.1127923e-39
0.027374296 -0.010528579 0.73700005 1.0822508e-40
0.028778093 -0.010528572 0.73700011 9.1397016e-39
0.030263823 -0.010557137 0.73900002 1.8146727e-38
0.031714302 -0.010571428 0.74000001 1.7964463e-38
0.033123828 -0.010571428 0.73999995 1.7777209e-38
0.034626674 -0.010599993 0.74200004 1.5374425e-38
0.036088586 -0.010614276 0.74300003 1.2896622e-38
0.037705712 -0.010671422 0.7470001 1.1236013e-38
0.039128564 -0.010671429 0.7470001 9.4939639e-39
0.040551424 -0.010671414 0.74700004 9.3120403e-39
0.042030487 -0.01068572 0.74800003 9.0365394e-39
0.043571442 -0.010714293 0.75000006 9.3106152e-39
0.045000013 -0.010714278 0.75000006 9.4942777e-39
0.046614289 -0.010757148 0.75300002 9.9556006e-39
0.048176195 -0.010785714 0.75500005 1.0324045e-38
-0.017904751 -0.0093104914 0.75200003 1.6775674e-38
-0.016428569 -0.0092857182 0.75000012 1.7794873e-38
-0.014959988 -0.009260945 0.74799997 1.8891039e-38
-0.013517147 -0.0092485696 0.74700004 1.5552196e-38
-0.012061913 -0.0092238113 0.74500012 1.2306415e-38
-0.010614273 -0.0091990456 0.74300003 1.3507839e-38
-0.0091990409 -0.0091990381 0.74300003 1.462243e-38
-0.0077733323 -0.0091866702 0.74200004 1.4714993e-38
-0.0063428385 -0.009161897 0.74000001 1.4809634e-38
-0.0049333195 -0.0091619119 0.74000001 1.4430029e-38
-0.0035190436 -0.0091495216 0.73900008 1.407218e-38
-0.0021114249 -0.0091495216 0.73900002 1.6411998e-38
-0.00070190872 -0.0091247559 0.73700011 1.8801439e-38
0.00070191198 -0.0091247633 0.73700005 9.4804189e-39
0.0021028665 -0.0091123804 0.73600006 2.7609363e-40
0.0035047764 -0.0091123879 0.73600006 5.9042772e-39
0.0049066707 -0.0091123804 0.73600006 1.1536415e-38
0.0063085798 -0.009112373 0.73600012 1.181196e-38
0.0077104894 -0.0091123879 0.73600012 1.2083477e-38
0.0091123842 -0.0091123879 0.73600012 1.069442e-38
0.010514303 -0.009112373 0.73600006 9.3215551e-39
0.011916199 -0.0091123879 0.73600006 1.0053372e-38
0.013281911 -0.0090876222 0.73400009 1.0805684e-38
0.014680008 -0.0090876147 0.73400009 1.2276896e-38
0.016078105 -0.0090876222 0.73400009 1.3749102e-38
0.017476205 -0.0090876296 0.73400009 1.1159022e-38
0.018925732 -0.0091123879 0.73600006 8.5754281e-39
0.020327626 -0.0091123804 0.73600012 9.592789e-39
0.021729536 -0.0091123879 0.73600012 1.0695167e-38
0.023131445 -0.0091123804 0.73600012 9.1321612e-39
0.024566667 -0.0091247708 0.73700011 7.6559311e-39
0.025970476 -0.0091247633 0.73700011 4.7842319e-39
0.027374282 -0.0091247708 0.73700011 1.9294507e-39
0.028856194 -0.0091495216 0.73900002 9.9439012e-39
0.030304777 -0.0091619045 0.74000001 1.7857531e-38
0.031800002 -0.0091866702 0.7420001 1.8512568e-38
0.033213329 -0.0091866553 0.74200004 1.9145743e-38
0.034673344 -0.0091990381 0.74300003 1.6488624e-38
0.036185704 -0.0092238188 0.74500012 1.3824287e-38
0.037705712 -0.0092485696 0.74700004 1.1703429e-38
0.039180961 -0.0092609525 0.74800003 9.6783565e-39
0.040605724 -0.009260945 0.74799997 9.4964498e-39
0.042142861 -0.0092857182 0.75000012 9.4046143e-39
0.043571435 -0.0092857033 0.75000012 9.5868489e-39
0.045180004 -0.0093228519 0.75300002 9.7705087e-39
0.046614274 -0.0093228668 0.75300008 1.0138198e-38
0.048176203 -0.0093476102 0.75500005 1.0505554e-38
0.049680002 -0.0093600005 0.75600004 1.0322972e-38
-0.017904757 -0.0078781024 0.75200009 1.6590564e-38
-0.016428566 -0.0078571439 0.75000012 1.7892442e-38
-0.014959997 -0.0078361854 0.74800003 1.9161896e-38
-0.01351714 -0.0078257024 0.74700004 1.6195438e-38
-0.012061906 -0.0078047588 0.74500006 1.3143695e-38
-0.010642861 -0.0078047663 0.74500006 1.4061327e-38
-0.009199027 -0.0077837929 0.74299997 1.4894322e-38
-0.0077838027 -0.0077838078 0.74300003 1.489721e-38
-0.0063600028 -0.0077733248 0.7420001 1.4801387e-38
-0.0049466612 -0.0077733323 0.74200004 1.4787356e-38
-0.0035237942 -0.0077523738 0.74000001 1.4731544e-38
-0.0021114226 -0.0077418908 0.73900002 1.6524997e-38
-0.00070190779 -0.0077209622 0.73700011 1.8236058e-38
0.00070189801 -0.0077209622 0.73700011 9.1840723e-39
0.0021057187 -0.0077209547 0.73700005 1.0246435e-40
0.0035095138 -0.0077209473 0.73700011 6.6490323e-39
0.0049066674 -0.0077104717 0.73600012 1.3189472e-38
0.0063085873 -0.0077104717 0.73600006 1.4303725e-38
0.0077104964 -0.0077104792 0.73600006 1.5400346e-38
0.0091123916 -0.0077104643 0.73600006 1.485146e-38
0.010514301 -0.0077104792 0.73600006 1.4288972e-38
0.01191621 -0.0077104717 0.73600006 1.3185515e-38
0.013318106 -0.0077104792 0.73600006 1.1997775e-38
0.014680012 -0.0076895282 0.73400009 1.2361552e-38
0.016121909 -0.0077104792 0.73600006 1.2735691e-38
0.01752382 -0.0077104867 0.73600012 1.3647931e-38
0.018925728 -0.0077104867 0.73600012 1.4473736e-38
0.020327633 -0.0077104792 0.73600006 1.5305998e-38
0.021729544 -0.0077104643 0.73600006 1.603923e-38
0.023162872 -0.0077209473 0.73700005 1.3562526e-38
0.024566667 -0.0077209547 0.73700011 1.1052412e-38
0.025970472 -0.0077209473 0.73700011 7.4391965e-39
0.027374294 -0.0077209547 0.73700005 3.7718975e-39
0.028856201 -0.0077419057 0.73900008 1.0665322e-38
0.030304782 -0.0077523813 0.73999995 1.758242e-38
0.031799998 -0.0077733323 0.7420001 1.9081942e-38
0.033258107 -0.0077838078 0.74300003 2.0547001e-38
0.034673348 -0.0077837929 0.74300003 1.770189e-38
0.036185708 -0.0078047588 0.74500012 1.4746943e-38
0.03760476 -0.0078047663 0.74500012 1.2258708e-38
0.039180964 -0.0078361854 0.74800003 9.7740974e-39
0.040605728 -0.0078361854 0.74799997 9.774068e-39
0.042142872 -0.0078571513 0.75000012 9.7722785e-39
0.043571442 -0.0078571513 0.75000012 9.8619672e-39
0.045120012 -0.0078780949 0.75200009 9.9541657e-39
0.046614278 -0.0078885704 0.75300002 1.0321153e-38
0.048048567 -0.0078885779 0.75300008 1.0688862e-38
0.04948286 -0.0078885779 0.75300002 1.0413364e-38
-0.016428562 -0.006428577 0.75000006 1.7978172e-38
-0.014959996 -0.0064114258 0.74800003 1.9168726e-38
-0.013517152 -0.0064028576 0.7470001 1.6288026e-38
-0.012061912 -0.0063857213 0.74500012 1.3409874e-38
-0.010642865 -0.0063857213 0.74500012 1.4152048e-38
-0.0091990316 -0.0063685626 0.74300003 1.4985412e-38
-0.0077837966 -0.0063685477 0.74300003 1.480392e-38
-0.0063685561 -0.0063685551 0.74300003 1.4618797e-38
-0.004946663 -0.0063599944 0.74200004 1.4800657e-38
-0.0035237947 -0.0063428581 0.74000001 1.4919174e-38
-0.0021114296 -0.0063342825 0.73900008 1.5954969e-38
-0.00070189708 -0.0063171461 0.73700011 1.6862814e-38
0.00070190872 -0.0063171387 0.73700005 8.4644215e-39
0.0021057192 -0.0063171536 0.73700011 9.6720423e-41
0.0035095245 -0.0063171461 0.73700005 6.6508526e-39
0.0049133347 -0.0063171536 0.73700011 1.3288859e-38
0.0063171405 -0.0063171461 0.73700011 1.3657299e-38
0.0077104932 -0.0063085705 0.73600006 1.4117189e-38
0.0091247568 -0.0063171536 0.73700011 1.365119e-38
0.010528577 -0.0063171387 0.73700011 1.3276319e-38
0.011916206 -0.006308578 0.73600006 1.5308543e-38
0.013318102 -0.0063085705 0.73600006 1.733143e-38
0.014720011 -0.006308578 0.73600012 1.761016e-38
0.01612192 -0.0063085854 0.73600012 1.7887816e-38
0.017523827 -0.0063085631 0.73600006 1.5863126e-38
0.018925736 -0.0063085705 0.73600006 1.3936384e-38
0.02032763 -0.0063085631 0.73600006 1.4851519e-38
0.021759052 -0.006317161 0.73700011 1.5776307e-38
0.023162857 -0.0063171387 0.73700011 1.2730285e-38
0.024633346 -0.006334275 0.73900002 9.6748827e-39
0.026040955 -0.0063342825 0.73900008 7.7258097e-39
0.027448572 -0.006334275 0.73900008 5.7987328e-39
0.028895261 -0.0063428581 0.74000001 1.1685565e-38
0.030386671 -0.0063600019 0.7420001 1.7673934e-38
0.03184288 -0.0063685477 0.74300003 1.9263885e-38
0.033258121 -0.0063685626 0.74300003 2.0931253e-38
0.034673363 -0.0063685477 0.74300003 1.7516099e-38
0.036185704 -0.0063857213 0.74500012 1.4193057e-38
0.037705708 -0.0064028427 0.74700004 1.1890249e-38
0.039180964 -0.0064114258 0.74799997 9.5893096e-39
0.040714301 -0.0064285696 0.75000006 9.6803968e-39
0.042255253 -0.0064457059 0.75200003 9.6814842e-39
0.043745715 -0.0064543113 0.75300008 9.7715373e-39
0.045179997 -0.0064542964 0.75300002 9.8630336e-39
0.046614282 -0.006454289 0.75300008 1.013856e-38
0.048048567 -0.0064542964 0.75300002 1.0413353e-38
-0.01642856 -0.0049999952 0.75000006 1.8079329e-38
-0.014959992 -0.0049866736 0.74800003 1.9161905e-38
-0.01353523 -0.0049866661 0.74800003 1.6469181e-38
-0.012094296 -0.0049800128 0.7470001 1.3696143e-38
-0.010642859 -0.0049666613 0.74500006 1.4335009e-38
-0.0092238123 -0.0049666762 0.74500006 1.4985412e-38
-0.0077837938 -0.0049533173 0.74300003 1.4713872e-38
