# .PCD v0.7 - Point Cloud Data file format
VERSION 0.7
FIELDS x y z rgb
SIZE 4 4 4 4
TYPE F F F F
COUNT 1 1 1 1
WIDTH 941
HEIGHT 1
VIEWPOINT 0 0 0 1 0 0 0
POINTS 941
DATA ascii
0.023005687 -0.025794275 0.73200011 1.9135018e-38
0.024466667 -0.025864743 0.73400003 1.8860925e-38
0.025935231 -0.02593524 0.73600006 1.7668476e-38
0.027337125 -0.02593524 0.73600012 1.6476023e-38
0.028778078 -0.025970466 0.73700005 1.3623714e-38
0.030304784 -0.026076205 0.74000001 1.0778543e-38
0.031799983 -0.026146658 0.7420001 1.0321094e-38
0.033258054 -0.026181899 0.74300009 9.9541405e-39
0.034673333 -0.026181929 0.74300003 1.0322228e-38
0.036185704 -0.026252382 0.74500006 1.0690275e-38
0.037604753 -0.026252382 0.74500006 1.0231085e-38
0.039128587 -0.026322849 0.74700004 9.7722743e-39
-0.033795245 -0.025166668 0.75500005 1.0594607e-38
-0.032271456 -0.025100015 0.75300002 1.0683169e-38
-0.030796187 -0.025066651 0.75200003 1.0859622e-38
-0.029168608 -0.024900004 0.7470001 1.1042223e-38
-0.027745713 -0.024899982 0.74700004 1.1219803e-38
-0.02604096 -0.024633326 0.73900008 1.1401666e-38
-0.024633333 -0.024633341 0.73900008 1.1952308e-38
-0.02316289 -0.024566658 0.73700011 1.2409313e-38
-0.021729525 -0.024533324 0.73600012 1.2869189e-38
-0.020272378 -0.024466641 0.73400003 1.32362e-38
-0.01882289 -0.024400011 0.73200011 1.4247496e-38
-0.017428575 -0.024399988 0.73200011 1.5168379e-38
-0.016034298 -0.024400003 0.73200011 1.553789e-38
-0.01462002 -0.024366662 0.73100007 1.5905576e-38
-0.013227629 -0.024366677 0.73100001 1.6456933e-38
-0.011835275 -0.024366669 0.73100007 1.701119e-38
-0.010414291 -0.024299987 0.72900003 1.7189138e-38
-0.009025706 -0.024299979 0.72900003 1.7279543e-38
-0.0076581375 -0.024366669 0.73100007 1.7465012e-38
-0.0062399958 -0.02426666 0.72800004 1.7647951e-38
-0.0048533347 -0.024266645 0.72800004 1.792201e-38
-0.0034666734 -0.024266653 0.72800004 1.8109276e-38
-0.0020743108 -0.024200015 0.72600007 1.8479136e-38
-0.00069332897 -0.024266668 0.72800004 1.8842885e-38
0.00069333211 -0.024266653 0.72800004 1.9113005e-38
0.0020799933 -0.024266668 0.72800004 1.9292377e-38
0.0034666543 -0.024266653 0.72800004 1.9383143e-38
0.0048533357 -0.024266653 0.72800004 1.9381704e-38
0.0062399968 -0.024266668 0.72800004 1.9470667e-38
0.0076266578 -0.024266653 0.72800004 1.9471395e-38
0.0089885779 -0.024200007 0.72600007 1.9837671e-38
0.010371432 -0.024200015 0.72600007 2.0125733e-38
0.011754284 -0.024199978 0.72600001 2.03216e-38
0.013173325 -0.02426666 0.72800004 2.0409488e-38
0.014559986 -0.02426666 0.72800004 1.9942775e-38
0.015968589 -0.024300002 0.72900003 1.9389225e-38
0.017357133 -0.024299987 0.72900009 1.9203016e-38
0.018797129 -0.024366662 0.73100001 1.8935441e-38
0.020189483 -0.024366677 0.73100007 1.9315378e-38
0.021611396 -0.024399996 0.73200011 1.95927e-38
0.023005698 -0.024399996 0.73200011 1.9227176e-38
0.024466656 -0.024466664 0.73400009 1.8862327e-38
0.025935218 -0.024533331 0.73600006 1.7487647e-38
0.027374242 -0.02456668 0.73700011 1.6013617e-38
0.028856227 -0.024633333 0.73900002 1.3437921e-38
0.030386651 -0.024733335 0.7420001 1.087005e-38
0.031799983 -0.024733327 0.74200004 1.0136379e-38
0.033258088 -0.024766669 0.74300003 9.4027982e-39
0.034766693 -0.024833329 0.74500006 1.0137866e-38
0.036185719 -0.024833329 0.74500006 1.0872878e-38
0.037705723 -0.024899997 0.7470001 1.0137804e-38
0.039128534 -0.024899989 0.74700004 9.3127339e-39
-0.033795215 -0.023728572 0.75500005 1.031332e-38
-0.032142855 -0.023571424 0.75 1.113189e-38
-0.03063241 -0.023508556 0.74800003 1.1225103e-38
-0.029168576 -0.023477145 0.74700004 1.1315175e-38
-0.027671454 -0.023414291 0.74500012 1.1496723e-38
-0.026252367 -0.023414277 0.74500006 1.177008e-38
-0.024766693 -0.023351431 0.74300009 1.2228542e-38
-0.023225699 -0.023225702 0.73900002 1.268627e-38
-0.021759082 -0.023162842 0.73700005 1.3053597e-38
-0.020327646 -0.023131423 0.73600012 1.3511723e-38
-0.018874303 -0.023068562 0.73400009 1.4156389e-38
-0.017428588 -0.023005702 0.73200005 1.4800683e-38
-0.016034286 -0.023005724 0.73200011 1.5445333e-38
-0.014620041 -0.022974283 0.73100007 1.6088879e-38
-0.013227627 -0.022974297 0.73100001 1.6554853e-38
-0.011835234 -0.022974275 0.73100001 1.6927601e-38
-0.010442879 -0.022974283 0.73100007 1.7100894e-38
-0.0090257246 -0.022911422 0.72900009 1.7186997e-38
-0.0076580965 -0.022974283 0.73100001 1.7463585e-38
-0.0062657413 -0.02297429 0.73100001 1.7740165e-38
-0.0048733507 -0.022974283 0.73100001 1.8014591e-38
-0.0034809972 -0.022974275 0.73100007 1.8290813e-38
-0.0020742754 -0.02281715 0.72600001 1.8661022e-38
-0.00069331779 -0.022879988 0.72800004 1.9029784e-38
0.00069334329 -0.022879988 0.72800004 1.9297385e-38
0.0020800044 -0.022879988 0.72800004 1.9567157e-38
0.0034666655 -0.022879973 0.72800004 1.9382774e-38
0.0048533264 -0.02288001 0.72800004 1.9289498e-38
0.0062400098 -0.022879995 0.72800004 1.919658e-38
0.0076266709 -0.022879995 0.72800004 1.9195876e-38
0.0089885518 -0.022817127 0.72600007 1.9659731e-38
0.010371428 -0.02281715 0.72600007 2.0224017e-38
0.011786653 -0.022879981 0.72800004 2.0319081e-38
0.013173336 -0.02288001 0.72800004 2.0407691e-38
0.014559997 -0.022879995 0.72800004 1.994457e-38
0.015946658 -0.022880003 0.72800004 1.9572517e-38
0.017357158 -0.022911422 0.72900009 1.9295528e-38
0.018797133 -0.022974275 0.73100001 1.9120889e-38
0.020189526 -0.02297429 0.73100001 1.9128844e-38
0.021611409 -0.023005717 0.73200011 1.9134226e-38
0.023068577 -0.023068555 0.73400003 1.8951631e-38
0.024466664 -0.023068547 0.73400003 1.8771176e-38
0.025970442 -0.023162857 0.73700011 1.7945362e-38
0.027374258 -0.023162857 0.73700011 1.7203534e-38
0.028895225 -0.023257144 0.74000001 1.4269492e-38
0.030386677 -0.023319997 0.7420001 1.142253e-38
0.031799972 -0.023319997 0.7420001 1.0504471e-38
0.033258084 -0.023351438 0.74300009 9.6786928e-39
0.034673303 -0.023351438 0.74300009 1.0138251e-38
0.036185734 -0.023414291 0.74500006 1.059738e-38
0.037705671 -0.02347713 0.74700004 1.0138152e-38
0.039128531 -0.02347713 0.7470001 9.7711897e-39
0.040551424 -0.023477145 0.74700004 9.9563167e-39
-0.032142874 -0.022142857 0.75000006 1.1594306e-38
-0.030591436 -0.02205427 0.74700004 1.1593549e-38
-0.02909049 -0.021995239 0.74500006 1.1499935e-38
-0.027671438 -0.021995239 0.74500012 1.1774022e-38
-0.026252411 -0.021995232 0.74500012 1.2047731e-38
-0.024766717 -0.021936193 0.74300009 1.2505469e-38
-0.023225699 -0.021818094 0.73900002 1.2963213e-38
-0.021818073 -0.021818087 0.73900002 1.3330196e-38
-0.020327639 -0.021729521 0.73600012 1.3697559e-38
-0.018874295 -0.021670468 0.73400003 1.406564e-38
-0.017428614 -0.021611415 0.73200011 1.4341869e-38
-0.0160343 -0.021611415 0.73200011 1.5353143e-38
-0.014640023 -0.02161143 0.73200011 1.6276145e-38
-0.013245746 -0.02161143 0.73200011 1.6562038e-38
-0.011851469 -0.02161143 0.73200011 1.6831457e-38
-0.010442879 -0.021581918 0.73100007 1.7007604e-38
-0.0090504885 -0.021581896 0.73100007 1.7095865e-38
-0.0076580946 -0.021581911 0.73100001 1.7461425e-38
-0.0062657413 -0.021581903 0.73100007 1.7738006e-38
-0.0048733507 -0.021581888 0.73100001 1.8105346e-38
-0.0034809581 -0.021581903 0.73100001 1.8474107e-38
-0.0020800272 -0.021493331 0.72800004 1.8843586e-38
-0.00069336622 -0.021493338 0.72800004 1.9208059e-38
0.00069329486 -0.021493338 0.72800004 1.9479981e-38
0.0020799784 -0.021493338 0.72800004 1.975226e-38
0.0034714246 -0.021522842 0.72900003 1.947532e-38
0.0048533375 -0.021493331 0.72800004 1.9106159e-38
0.0062399986 -0.021493316 0.72800004 1.90143e-38
0.0076266821 -0.021493331 0.72800004 1.8921047e-38
0.0090133436 -0.021493316 0.72800004 1.9564988e-38
0.010400005 -0.021493316 0.72800004 2.0221852e-38
0.011786666 -0.021493323 0.72800004 2.032304e-38
0.013191442 -0.021522865 0.72900003 2.0317655e-38
0.014579987 -0.02152285 0.72900009 2.0038198e-38
0.015968572 -0.021522842 0.72900003 1.9660771e-38
0.017404743 -0.021581911 0.73100007 1.9469527e-38
0.018797135 -0.021581903 0.73100007 1.9205527e-38
0.020217141 -0.021611415 0.73200011 1.8944039e-38
0.021729518 -0.021729514 0.73600006 1.8672892e-38
0.023131412 -0.021729514 0.73600012 1.8673307e-38
0.024633348 -0.021818079 0.73900002 1.8683351e-38
0.026040951 -0.021818087 0.73900002 1.8503269e-38
0.02755999 -0.021906674 0.7420001 1.8321019e-38
0.028973322 -0.021906659 0.74200004 1.5105686e-38
0.030427597 -0.021936193 0.74300009 1.1885997e-38
0.031842817 -0.021936201 0.74300009 1.0871795e-38
0.033258058 -0.021936201 0.74300009 9.8619897e-39
0.034766659 -0.021995246 0.74500006 1.0047481e-38
0.036282808 -0.02205427 0.74700004 1.0230404e-38
0.037705705 -0.022054277 0.74700004 1.0229655e-38
0.039128561 -0.022054285 0.74700004 1.023074e-38
-0.032228582 -0.020769522 0.75200009 1.168651e-38
-0.030591464 -0.020631425 0.74700004 1.1592858e-38
-0.029168608 -0.020631425 0.7470001 1.1591783e-38
-0.027745737 -0.020631418 0.74700004 1.1865856e-38
-0.0262524 -0.020576201 0.74500012 1.2232471e-38
-0.024833312 -0.020576172 0.74500006 1.2505814e-38
-0.023351442 -0.020520963 0.74300009 1.2872096e-38
-0.021818098 -0.020410463 0.73900002 1.3330931e-38
-0.020355266 -0.020355232 0.73700011 1.3698648e-38
-0.01892576 -0.020327628 0.73600012 1.4066007e-38
-0.017476181 -0.020272367 0.73400003 1.4525906e-38
-0.016034286 -0.020217136 0.73200011 1.5261669e-38
-0.014640011 -0.020217128 0.73200011 1.5998493e-38
-0.013245733 -0.020217121 0.73200011 1.6370843e-38
-0.011851458 -0.02021715 0.73200011 1.6737105e-38
-0.0104429 -0.020189531 0.73100007 1.6916467e-38
-0.0090505071 -0.020189516 0.73100001 1.7094416e-38
-0.0076581151 -0.020189524 0.73100001 1.7462492e-38
-0.0062657376 -0.020189531 0.73100007 1.7736565e-38
-0.004873347 -0.020189531 0.73100007 1.8197178e-38
-0.0034809543 -0.020189524 0.73100001 1.8564132e-38
-0.0020828752 -0.020134293 0.72900003 1.893216e-38
-0.00069426961 -0.020134285 0.72900003 1.920374e-38
0.00069427834 -0.020134285 0.72900009 1.9294518e-38
0.0020828599 -0.020134278 0.72900003 1.9292363e-38
0.0034714451 -0.020134255 0.72900003 1.9015417e-38
0.004859989 -0.02013427 0.72900003 1.8829193e-38
0.0062485966 -0.020134278 0.72900003 1.8920269e-38
0.0076371445 -0.020134285 0.72900009 1.9011048e-38
0.0090257265 -0.020134278 0.72900003 1.9385583e-38
0.01039998 -0.020106666 0.72800004 1.9765531e-38
0.011802858 -0.02013427 0.72900003 1.9855982e-38
0.013191404 -0.020134285 0.72900009 1.9950676e-38
0.01458001 -0.020134293 0.72900009 1.9572919e-38
0.015968593 -0.02013427 0.72900003 1.9287338e-38
0.01740472 -0.020189524 0.73100007 1.9194752e-38
0.018797113 -0.020189539 0.73100001 1.9103267e-38
0.020217115 -0.020217128 0.73200011 1.9769423e-38
0.021670474 -0.020272367 0.73400003 2.0419199e-38
0.023131421 -0.020327628 0.73600012 2.0433657e-38
0.024566639 -0.020355232 0.73700005 2.0530889e-38
0.026076181 -0.020438097 0.74000001 1.9801959e-38
0.027559992 -0.020493306 0.74200004 1.9073673e-38
0.028973309 -0.020493336 0.7420001 1.5387996e-38
0.030427594 -0.020520963 0.74300009 1.1705539e-38
0.031842813 -0.020520963 0.74300009 1.0596988e-38
0.033347622 -0.020576186 0.74500006 9.5850328e-39
0.034766674 -0.020576179 0.74500012 9.8609275e-39
0.036282841 -0.02063141 0.74700004 1.0138934e-38
0.037705697 -0.02063141 0.74700004 1.0322235e-38
-0.033660974 -0.019337133 0.75200009 1.0309021e-38
-0.032228563 -0.019337125 0.75200003 1.1686532e-38
-0.030714324 -0.019285724 0.75000006 1.1683641e-38
-0.029207664 -0.019234292 0.74800009 1.1683274e-38
-0.027745742 -0.019208558 0.7470001 1.2048814e-38
-0.026322907 -0.019208558 0.7470001 1.2322876e-38
-0.024833359 -0.019157149 0.74500012 1.2597296e-38
-0.02335147 -0.01910571 0.74300009 1.2780272e-38
-0.021847609 -0.019028567 0.74000001 1.3238396e-38
-0.020355269 -0.018951423 0.73700005 1.3697943e-38
-0.018951453 -0.018951416 0.73700005 1.4157132e-38
-0.01747619 -0.018874273 0.73400003 1.4616672e-38
-0.016034314 -0.018822864 0.73200011 1.5169123e-38
-0.01464 -0.018822849 0.73200011 1.5723356e-38
-0.013245722 -0.018822841 0.73200011 1.6185036e-38
-0.011851447 -0.018822849 0.73200011 1.6553088e-38
-0.010457167 -0.018822841 0.73200011 1.6827152e-38
-0.0090505071 -0.018797144 0.73100007 1.7099084e-38
-0.0076581151 -0.018797144 0.73100001 1.7465721e-38
-0.0062657208 -0.018797137 0.73100001 1.7739798e-38
-0.0048733694 -0.018797152 0.73100001 1.8198264e-38
-0.0034857451 -0.018822849 0.73200011 1.8655271e-38
-0.0020828529 -0.018745713 0.72900003 1.8932913e-38
-0.00069430872 -0.018745705 0.72900009 1.9206988e-38
0.00069429883 -0.018745698 0.72900003 1.9018299e-38
0.0020828841 -0.018745713 0.72900003 1.883174e-38
0.0034714283 -0.018745713 0.72900003 1.864841e-38
0.0048600133 -0.018745705 0.72900003 1.8461484e-38
0.0062485575 -0.018745705 0.72900009 1.873481e-38
0.0076371427 -0.018745691 0.72900003 1.9012116e-38
0.0090257097 -0.018745705 0.72900009 1.9108622e-38
0.010414295 -0.018745705 0.72900003 1.9206256e-38
0.011802839 -0.018745713 0.72900009 1.9384965e-38
0.013191425 -0.01874572 0.72900003 1.9488263e-38
0.01458001 -0.018745698 0.72900003 1.9199466e-38
0.016012371 -0.018797137 0.73100001 1.8930416e-38
0.017404761 -0.018797152 0.73100001 1.8918577e-38
0.018797114 -0.018797152 0.73100007 1.89473e-38
0.020217102 -0.018822841 0.73200011 2.0519648e-38
0.021670481 -0.018874288 0.73400003 2.2097427e-38
0.023131408 -0.018925712 0.73600006 2.2295163e-38
0.024566619 -0.018951416 0.73700011 2.2383057e-38
0.026076188 -0.019028574 0.74000001 2.1099515e-38
0.027559979 -0.019079983 0.7420001 1.9807649e-38
0.028973334 -0.019079998 0.7420001 1.5667091e-38
0.030427605 -0.019105718 0.74300003 1.1426095e-38
0.031842846 -0.019105725 0.74300009 1.0317909e-38
0.033258066 -0.01910571 0.74300003 9.2162671e-39
0.034859978 -0.019208565 0.74700004 9.6715252e-39
0.036282837 -0.019208573 0.74700004 1.0044591e-38
0.037705693 -0.019208573 0.7470001 1.0414069e-38
-0.033660959 -0.017904744 0.75200003 1.0959063e-38
-0.032228559 -0.017904758 0.75200003 1.2423748e-38
-0.030714303 -0.017857142 0.75000006 1.2425164e-38
-0.029168602 -0.017785706 0.7470001 1.2326854e-38
-0.027745709 -0.017785706 0.74700004 1.2510507e-38
-0.026252393 -0.017738096 0.74500006 1.2780624e-38
-0.024833342 -0.017738096 0.74500012 1.2689855e-38
-0.023351435 -0.017690472 0.74300003 1.2688089e-38
-0.021906678 -0.01766666 0.74200004 1.314586e-38
-0.020410459 -0.017595224 0.73900002 1.3605762e-38
-0.018951472 -0.017547607 0.73700011 1.4157498e-38
-0.01752381 -0.017523795 0.73600006 1.4706721e-38
-0.016078096 -0.017476186 0.73400003 1.5168413e-38
-0.014680012 -0.017476186 0.73400003 1.5724445e-38
-0.013245735 -0.017428577 0.73200005 1.6000306e-38
-0.011851436 -0.017428569 0.73200011 1.6186836e-38
-0.010457158 -0.017428562 0.73200011 1.6458025e-38
-0.0090628807 -0.017428555 0.73200011 1.6825734e-38
-0.0076686055 -0.017428569 0.73200011 1.7098736e-38
-0.006265719 -0.017404765 0.73100001 1.7374972e-38
-0.0048733656 -0.017404757 0.73100007 1.7738737e-38
-0.003480973 -0.01740475 0.73100001 1.8099617e-38
-0.0020828678 -0.017357141 0.72900009 1.8469823e-38
-0.00069428637 -0.017357133 0.72900003 1.8845765e-38
0.00069429883 -0.017357118 0.72900003 1.8925393e-38
0.0020828673 -0.017357141 0.72900009 1.9102216e-38
0.0034714506 -0.017357133 0.72900003 1.9106129e-38
0.0048599984 -0.017357126 0.72900009 1.9103246e-38
0.0062485798 -0.017357141 0.72900003 1.9567792e-38
0.0076371278 -0.017357141 0.72900009 2.0020505e-38
0.0090257116 -0.017357133 0.72900003 2.0405777e-38
0.010414317 -0.017357141 0.72900003 2.0677406e-38
0.011802865 -0.017357141 0.72900003 2.1065623e-38
0.013227603 -0.017404743 0.73100001 2.1437608e-38
0.014619978 -0.017404765 0.73100007 2.1162437e-38
0.016012371 -0.017404765 0.73100007 2.0795842e-38
0.017404765 -0.017404757 0.73100001 2.080197e-38
0.018822838 -0.017428569 0.73200011 2.0829291e-38
0.020217115 -0.017428577 0.73200011 2.1650846e-38
0.021670472 -0.017476179 0.73400003 2.2584666e-38
0.023131415 -0.017523795 0.73600006 2.2302022e-38
0.024566637 -0.017547622 0.73700011 2.2024715e-38
0.026076173 -0.017619058 0.74000001 2.0548523e-38
0.027560003 -0.01766666 0.7420001 1.9074412e-38
0.028973298 -0.017666668 0.7420001 1.5015275e-38
0.030427601 -0.017690487 0.74300009 1.1044052e-38
0.03184282 -0.01769048 0.74300009 1.0223935e-38
0.033347629 -0.017738089 0.74500006 9.4942974e-39
0.034859974 -0.017785706 0.74700004 9.7687501e-39
0.03628283 -0.017785706 0.7470001 1.0044953e-38
0.037705727 -0.017785698 0.7470001 1.0229679e-38
-0.032228582 -0.016472362 0.75200003 1.3172452e-38
-0.030714303 -0.01642856 0.75000006 1.3083115e-38
-0.029090492 -0.016319051 0.74500012 1.2982297e-38
-0.027671428 -0.016319044 0.74500006 1.3069098e-38
-0.026252378 -0.016319051 0.74500006 1.3160564e-38
-0.024833329 -0.016319044 0.74500012 1.2876796e-38
-0.023351461 -0.016275235 0.74300003 1.260344e-38
-0.021906689 -0.016253322 0.7420001 1.3050417e-38
-0.020410463 -0.016187601 0.73900002 1.3518941e-38
-0.018951457 -0.016143806 0.73700011 1.4160373e-38
-0.017547663 -0.016143806 0.73700005 1.4710672e-38
-0.01612193 -0.016121902 0.73600006 1.5256306e-38
-0.014720035 -0.016121902 0.73600012 1.5724089e-38
-0.0132819 -0.016078092 0.73400003 1.5812692e-38
-0.011883814 -0.016078085 0.73400003 1.5816999e-38
-0.010457171 -0.016034283 0.73200011 1.6175375e-38
-0.0090628918 -0.016034275 0.73200011 1.6457703e-38
-0.0076686149 -0.016034283 0.73200011 1.6728192e-38
-0.0062742778 -0.016034275 0.73200011 1.6918691e-38
-0.0048800004 -0.016034275 0.73200011 1.7282456e-38
-0.003480973 -0.016012385 0.73100001 1.7557959e-38
-0.0020828473 -0.015968561 0.72900009 1.800027e-38
-0.00069426215 -0.015968569 0.72900003 1.847773e-38
0.00069428206 -0.015968561 0.72900003 1.8918601e-38
0.0020828673 -0.015968569 0.72900003 1.9304604e-38
0.0034714115 -0.015968561 0.72900003 1.9479315e-38
0.0048600188 -0.015968569 0.72900003 1.9678049e-38
0.0062485631 -0.015968569 0.72900009 2.0412013e-38
0.0076371483 -0.015968561 0.72900003 2.1069219e-38
0.0090257321 -0.015968546 0.72900003 2.1633515e-38
0.010442857 -0.016012378 0.73100001 2.2189951e-38
0.011835212 -0.016012385 0.73100007 2.2854006e-38
0.013227604 -0.016012378 0.73100001 2.339532e-38
0.014619959 -0.016012378 0.73100007 2.3032986e-38
0.01601235 -0.016012378 0.73100001 2.2658125e-38
0.017428571 -0.016034268 0.73200011 2.2664597e-38
0.018822847 -0.01603429 0.73200011 2.2574948e-38
0.020272378 -0.016078085 0.73400003 2.2853358e-38
0.021729531 -0.016121909 0.73600006 2.3038831e-38
0.02316284 -0.016143814 0.73700011 2.2394556e-38
0.024566634 -0.016143799 0.73700005 2.1653752e-38
0.026076181 -0.016209535 0.74000001 1.9994954e-38
0.027559968 -0.01625333 0.7420001 1.8330368e-38
0.028973324 -0.016253322 0.7420001 1.4459221e-38
0.030427575 -0.016275242 0.74300009 1.0590609e-38
0.031842817 -0.016275242 0.74300009 1.0130672e-38
0.033347607 -0.016319051 0.74500012 9.6769006e-39
0.034860004 -0.016362838 0.74700004 9.8638254e-39
0.036331411 -0.016384758 0.74800003 1.0046399e-38
0.037756167 -0.016384758 0.74800003 1.0137498e-38
-0.032228582 -0.015039988 0.75200009 1.0330962e-38
-0.030714281 -0.015000001 0.75000006 1.0693992e-38
-0.029168598 -0.014939994 0.74700004 1.1062402e-38
-0.027671413 -0.014899991 0.74500006 1.1704166e-38
-0.026322871 -0.014939994 0.74700004 1.2354535e-38
-0.024833336 -0.014900006 0.74500006 1.2713973e-38
-0.023351466 -0.014860004 0.74300009 1.3083435e-38
-0.021936227 -0.014859997 0.74300009 1.344321e-38
-0.020410467 -0.014779992 0.73900002 1.3901343e-38
-0.019002864 -0.014779992 0.73900002 1.4726817e-38
-0.017547641 -0.01473999 0.73700005 1.5636924e-38
-0.01612192 -0.01472 0.73600006 1.6103636e-38
-0.014720025 -0.01472 0.73600012 1.665321e-38
-0.013281909 -0.014679998 0.73400003 1.7484388e-38
-0.011883821 -0.014679991 0.73400003 1.8214784e-38
-0.010457158 -0.014639981 0.73200011 1.8308428e-38
-0.0090628807 -0.014640003 0.73200011 1.8397039e-38
-0.0076686037 -0.014640003 0.73200011 1.8860883e-38
-0.0062743281 -0.014639996 0.73200011 1.9319354e-38
-0.0048800115 -0.014639981 0.73200005 1.9512364e-38
-0.0034857339 -0.014639996 0.73200011 1.9696389e-38
-0.0020885768 -0.014619984 0.73100001 2.0247398e-38
-0.00069428078 -0.014579996 0.72900009 2.0809876e-38
0.00069430255 -0.014579989 0.72900003 2.0894881e-38
0.0020828506 -0.014579996 0.72900009 2.1003267e-38
0.003471432 -0.014579996 0.72900003 2.0993271e-38
0.0048599797 -0.014579996 0.72900009 2.1095157e-38
0.0062656994 -0.014619991 0.73100001 2.1457481e-38
0.0076580509 -0.014619999 0.73100007 2.193498e-38
0.009050468 -0.014619991 0.73100007 2.2298401e-38
0.01044286 -0.014619999 0.73100001 2.2768356e-38
0.011835213 -0.014619999 0.73100007 2.3041367e-38
0.013227605 -0.014619999 0.73100001 2.340942e-38
0.014619999 -0.014619999 0.73100001 2.3039201e-38
0.016012352 -0.014620006 0.73100007 2.2761543e-38
0.017428558 -0.014639989 0.73200011 2.2576796e-38
0.018874262 -0.014679983 0.73400003 2.2390624e-38
0.020327609 -0.01472 0.73600012 2.2113332e-38
0.021729479 -0.014719993 0.73600012 2.193538e-38
0.023162834 -0.01473999 0.73700005 2.1010186e-38
0.024633329 -0.014779985 0.73900008 2.0088929e-38
0.026076188 -0.014800005 0.74000007 1.962398e-38
0.027559994 -0.014839984 0.7420001 1.9150041e-38
0.028973311 -0.014840007 0.7420001 1.5102767e-38
0.030427609 -0.014860004 0.74300003 1.1045116e-38
0.031928573 -0.014899999 0.74500006 1.0407619e-38
0.033347622 -0.014899991 0.74500012 9.7691032e-39
0.034859978 -0.014939986 0.74700004 9.8631177e-39
0.036331415 -0.014960006 0.74800009 1.0047487e-38
0.037756175 -0.014959991 0.74800003 9.954914e-39
-0.0322286 -0.013607621 0.75200009 7.3803545e-39
-0.030796228 -0.013607614 0.75200009 8.2997871e-39
-0.029285735 -0.013571426 0.75000006 9.1313386e-39
-0.027745733 -0.013517126 0.74700004 1.0330591e-38
-0.026322875 -0.013517134 0.74700004 1.152338e-38
-0.024833322 -0.013480954 0.74500006 1.254075e-38
-0.023414295 -0.013480954 0.74500006 1.3454081e-38
-0.021936214 -0.013444759 0.74300003 1.3921149e-38
-0.020438096 -0.013390489 0.74000001 1.4280606e-38
-0.019002866 -0.013372384 0.73900002 1.5392326e-38
-0.017547661 -0.013336182 0.73700011 1.6486831e-38
-0.016143845 -0.013336174 0.73700011 1.7051131e-38
-0.014720018 -0.013318099 0.73600012 1.7594971e-38
-0.013318107 -0.013318099 0.73600006 1.9164428e-38
-0.011883792 -0.013281904 0.73400003 2.0626627e-38
-0.010457149 -0.013245702 0.73200011 2.044655e-38
-0.0090628695 -0.013245709 0.73200011 2.0260012e-38
-0.0076685944 -0.013245709 0.73200011 2.0998287e-38
-0.0062743169 -0.013245717 0.73200011 2.1735846e-38
-0.0048800413 -0.013245709 0.73200011 2.1842395e-38
-0.0034857246 -0.013245709 0.73200011 2.1833068e-38
-0.002088601 -0.013227619 0.73100001 2.2483093e-38
-0.00069618627 -0.013227612 0.73100001 2.302979e-38
0.00069428765 -0.013191424 0.72900009 2.2847185e-38
0.0020885614 -0.013227627 0.73100001 2.2664976e-38
0.0034714171 -0.013191424 0.72900009 2.2578908e-38
0.0048600021 -0.013191417 0.72900003 2.2389864e-38
0.0062656994 -0.013227619 0.73100001 2.2571034e-38
0.0076580527 -0.013227619 0.73100007 2.2762251e-38
0.0090504456 -0.013227619 0.73100001 2.3039565e-38
0.010442838 -0.013227612 0.73100001 2.3226472e-38
0.011835193 -0.013227627 0.73100007 2.3316522e-38
0.013227608 -0.013227627 0.73100007 2.3409778e-38
0.014639978 -0.013245717 0.73200011 2.313641e-38
0.016034255 -0.013245709 0.73200011 2.2761177e-38
0.017476166 -0.013281897 0.73400003 2.2490695e-38
0.018874288 -0.013281897 0.73400003 2.2102534e-38
0.020327594 -0.013318099 0.73600006 2.1457161e-38
0.021729488 -0.013318099 0.73600012 2.0724617e-38
0.023162814 -0.013336189 0.73700011 1.9622221e-38
0.024633367 -0.013372369 0.73900002 1.8430518e-38
0.026076173 -0.013390489 0.74000001 1.9262065e-38
0.027559981 -0.013426669 0.7420001 1.9989523e-38
0.028973315 -0.013426661 0.7420001 1.5756428e-38
0.030427605 -0.013444766 0.74300009 1.1515425e-38
0.031928584 -0.013480961 0.74500006 1.0685251e-38
0.033347614 -0.013480961 0.74500006 9.7687192e-39
0.03485997 -0.013517126 0.7470001 9.8630953e-39
0.036282845 -0.013517126 0.74700004 9.9552769e-39
0.037705701 -0.013517141 0.74700004 9.6797578e-39
-0.032228563 -0.012175225 0.75200003 7.649729e-39
-0.0307143 -0.012142852 0.75000006 8.4823567e-39
-0.029207658 -0.012110479 0.74800009 9.2195798e-39
-0.027782897 -0.012110487 0.74800003 8.6682361e-39
-0.026322903 -0.012094282 0.7470001 8.0207451e-39
-0.024833331 -0.012061901 0.74500006 7.7449009e-39
-0.023351457 -0.012029529 0.74300003 7.4751636e-39
-0.021906674 -0.012013316 0.7420001 8.1162478e-39
-0.02043811 -0.011980958 0.74000001 8.7648206e-39
-0.019002829 -0.011964753 0.73900002 8.8552058e-39
-0.017547667 -0.01193238 0.73700011 9.0507388e-39
-0.016143851 -0.01193238 0.73700011 1.2448317e-38
-0.014740034 -0.011932366 0.73700011 1.5858437e-38
-0.013318098 -0.011916183 0.73600006 1.8341591e-38
-0.011883825 -0.011883803 0.73400003 2.0824017e-38
-0.010485739 -0.011883795 0.73400003 2.0548506e-38
-0.0090628583 -0.011851422 0.73200011 2.0372013e-38
-0.0076685832 -0.011851422 0.73200011 2.1103112e-38
-0.0062743057 -0.011851415 0.73200011 2.1936806e-38
-0.0048800283 -0.011851437 0.73200011 2.1934295e-38
-0.0034857115 -0.01185143 0.73200011 2.1932148e-38
-0.0020885954 -0.01183524 0.73100001 2.24846e-38
-0.00069620489 -0.01183524 0.73100001 2.3039554e-38
0.00069615029 -0.01183524 0.73100007 2.2762248e-38
0.0020885651 -0.01183524 0.73100007 2.2577506e-38
0.0034809576 -0.011835225 0.73100001 2.2394916e-38
0.0048733088 -0.011835247 0.73100007 2.2212694e-38
0.0062657031 -0.01183524 0.73100001 2.2209838e-38
0.0076580956 -0.011835232 0.73100001 2.2309566e-38
0.0090504475 -0.01183524 0.73100007 2.2118361e-38
0.010442842 -0.01183524 0.73100001 2.1944017e-38
0.011835234 -0.011835225 0.73100001 2.2116209e-38
0.013227586 -0.011835232 0.73100001 2.2307035e-38
0.014639989 -0.011851422 0.73200011 2.1732683e-38
0.016034268 -0.011851415 0.73200011 2.1278172e-38
0.017476195 -0.011883803 0.73400003 2.1350637e-38
0.01887428 -0.011883803 0.73400003 2.1520642e-38
0.020327603 -0.011916175 0.73600012 2.1817637e-38
0.021729495 -0.011916205 0.73600012 2.208812e-38
0.023162832 -0.011932373 0.73700011 2.1276664e-38
0.024633342 -0.011964746 0.73900002 2.0441937e-38
0.026076179 -0.011980958 0.74000001 2.0274094e-38
0.027485726 -0.011980951 0.74000001 2.0096114e-38
0.028973339 -0.012013316 0.74200004 1.5665361e-38
0.03050955 -0.012061901 0.74500006 1.1145585e-38
0.031928577 -0.012061901 0.74500006 1.0409358e-38
0.033347625 -0.012061909 0.74500006 9.6750649e-39
0.034860004 -0.012094282 0.74700004 9.7701612e-39
0.036331374 -0.012110472 0.74800003 9.863426e-39
-0.032228585 -0.010742843 0.75200003 7.9292039e-39
-0.030714279 -0.010714293 0.75000006 8.6689143e-39
-0.029207677 -0.010685727 0.74800003 9.310702e-39
-0.027782895 -0.01068572 0.74800009 6.9186912e-39
-0.026358135 -0.010685712 0.74800003 4.5230733e-39
-0.024833318 -0.010642856 0.74500006 3.0343325e-39
-0.023414291 -0.010642849 0.74500006 1.4842693e-39
-0.021936223 -0.010614283 0.74300009 2.3039939e-39
-0.020438103 -0.010571428 0.74000001 3.1412669e-39
-0.019002853 -0.010557137 0.73900002 2.3958126e-39
-0.017595228 -0.010557137 0.73900002 1.582967e-39
-0.016143832 -0.010528557 0.73700005 7.8324877e-39
-0.014740015 -0.010528557 0.73700005 1.4012029e-38
-0.013318129 -0.010514289 0.73600012 1.7518656e-38
-0.011883795 -0.010485694 0.73400003 2.0914412e-38
-0.010485711 -0.010485709 0.73400003 2.0642487e-38
-0.0090628713 -0.010457136 0.73200011 2.0365554e-38
-0.0076685925 -0.010457136 0.73200011 2.1289298e-38
-0.0062743169 -0.010457128 0.73200011 2.2117251e-38
-0.0048800395 -0.010457143 0.73200011 2.2025056e-38
-0.0034857637 -0.010457143 0.73200011 2.1932513e-38
-0.0020885936 -0.010442853 0.73100007 2.2483177e-38
-0.00069620303 -0.010442853 0.73100001 2.3035263e-38
0.00069615216 -0.010442853 0.73100007 2.2768005e-38
0.0020885447 -0.01044286 0.73100001 2.2387726e-38
0.0034809352 -0.01044286 0.73100001 2.2209772e-38
0.0048732902 -0.010442853 0.73100007 2.192423e-38
0.006274275 -0.010457136 0.73200011 2.1837785e-38
0.0076685543 -0.010457136 0.73200011 2.1727648e-38
0.0090504512 -0.01044286 0.73100007 2.1180577e-38
0.010457108 -0.010457128 0.73200011 2.0620609e-38
0.011851385 -0.010457151 0.73200011 2.0896845e-38
0.0132457 -0.010457136 0.73200011 2.1083729e-38
0.014639976 -0.010457128 0.73200011 2.0392078e-38
0.016078103 -0.010485709 0.73400003 1.9775413e-38
0.017476186 -0.010485709 0.73400009 2.0296288e-38
0.018925719 -0.010514289 0.73600006 2.089574e-38
0.02032759 -0.010514282 0.73600006 2.2205121e-38
0.021729484 -0.010514282 0.73600012 2.3401134e-38
0.023162827 -0.010528557 0.73700005 2.2954512e-38
0.024633341 -0.010557137 0.73900002 2.2486017e-38
0.026040966 -0.01055713 0.73900002 2.1387231e-38
0.027485712 -0.01057142 0.74000001 2.0181486e-38
0.028973326 -0.010600001 0.7420001 1.5479177e-38
0.030509504 -0.010642856 0.74500012 1.0780402e-38
0.031928591 -0.010642856 0.74500006 1.0130998e-38
0.033347618 -0.010642856 0.74500006 9.492833e-39
0.034859974 -0.010671414 0.74700004 9.6783173e-39
0.036331378 -0.01068572 0.74800009 9.7705115e-39
0.037756138 -0.010685705 0.74800003 9.8609121e-39
-0.030714316 -0.0092857108 0.75000006 8.577453e-39
-0.029285729 -0.0092857182 0.75000006 9.0373535e-39
-0.027857164 -0.0092857108 0.75000006 7.656238e-39
-0.026358131 -0.0092609599 0.74800009 6.3633412e-39
-0.02483334 -0.0092238113 0.74500012 5.8962449e-39
-0.023414277 -0.0092238039 0.74500006 5.429188e-39
-0.02193621 -0.0091990381 0.74300003 5.9906154e-39
-0.020493329 -0.0091866553 0.74200004 6.5383984e-39
-0.019028572 -0.0091619045 0.74000001 4.2331811e-39
-0.017595232 -0.0091495141 0.73900002 1.9298234e-39
-0.016143814 -0.0091247484 0.73700005 7.3729319e-39
-0.014740036 -0.0091247559 0.73700011 1.2909992e-38
-0.013336241 -0.0091247559 0.73700011 1.5759429e-38
-0.011916211 -0.0091123804 0.73600006 1.870318e-38
-0.01048572 -0.0090876073 0.73400003 1.8604879e-38
-0.0090875942 -0.0090876073 0.73400003 1.8423375e-38
-0.0076685832 -0.0090628415 0.73200011 1.9066955e-38
-0.0062743057 -0.0090628639 0.73200011 1.9728096e-38
-0.0048800302 -0.0090628564 0.73200011 2.0270854e-38
-0.0034857525 -0.009062849 0.73200011 2.0922686e-38
-0.0020885917 -0.0090504736 0.73100007 2.1188164e-38
-0.00069620117 -0.009050481 0.73100001 2.1462594e-38
0.00069619127 -0.0090504661 0.73100001 2.0719299e-38
0.0020885465 -0.0090504736 0.73100007 1.9975598e-38
0.0034856943 -0.009062849 0.73200011 2.0992555e-38
0.0048799715 -0.0090628639 0.73200011 2.1987324e-38
0.0062742862 -0.0090628564 0.73200011 2.1623931e-38
0.0076685636 -0.009062849 0.73200011 2.1214609e-38
0.0090628415 -0.0090628415 0.73200011 2.1137472e-38
0.010457117 -0.0090628564 0.73200011 2.1123865e-38
0.011851396 -0.0090628564 0.73200011 2.1727994e-38
0.013245711 -0.009062849 0.73200011 2.2300522e-38
0.014639989 -0.009062849 0.73200011 2.1913438e-38
0.01607807 -0.0090876147 0.73400003 2.1635052e-38
0.017476192 -0.0090876147 0.73400003 2.1908755e-38
0.018925704 -0.0091123655 0.73600006 2.2223775e-38
0.020327598 -0.0091123879 0.73600006 2.2770178e-38
0.021759029 -0.009124741 0.73700005 2.341769e-38
0.023162846 -0.0091247559 0.73700005 2.2679419e-38
0.024633316 -0.0091495141 0.73900002 2.194579e-38
0.026076172 -0.0091619045 0.74000001 2.0833697e-38
0.027559973 -0.0091866702 0.7420001 1.9722303e-38
0.02897333 -0.0091866553 0.74200004 1.4926728e-38
0.030509518 -0.0092238113 0.74500012 1.022258e-38
0.031928584 -0.0092237964 0.74500006 1.0042048e-38
0.033347633 -0.0092238039 0.74500006 9.9559607e-39
0.034906641 -0.0092609376 0.74800003 9.8637735e-39
0.036428537 -0.0092857182 0.75000006 9.8623442e-39
0.037857149 -0.0092857182 0.75000012 9.8612736e-39
-0.030714294 -0.0078571364 0.75000006 8.4845343e-39
-0.029285731 -0.0078571364 0.75000006 8.6725297e-39
-0.027857143 -0.007857129 0.75000006 8.4892385e-39
-0.026322868 -0.0078257024 0.74700004 8.2097775e-39
-0.02483335 -0.0078047663 0.74500012 8.8504666e-39
-0.023414262 -0.0078047663 0.74500006 9.4022012e-39
-0.021936212 -0.0077838153 0.74300009 9.6909864e-39
-0.020493366 -0.0077733248 0.7420001 9.9471031e-39
-0.019080009 -0.0077733323 0.74200004 6.1606644e-39
-0.017619055 -0.0077523813 0.74000007 2.3089741e-39
-0.016187631 -0.0077418983 0.73900002 7.0030087e-39
-0.014740041 -0.0077209398 0.73700011 1.169452e-38
-0.013336223 -0.0077209473 0.73700011 1.4089784e-38
-0.011916202 -0.0077104643 0.73600006 1.647536e-38
-0.010514308 -0.0077104792 0.73600006 1.6466399e-38
-0.0091124158 -0.0077104867 0.73600012 1.6474681e-38
-0.0076895435 -0.0076895207 0.73400003 1.6918105e-38
-0.0062742946 -0.0076685697 0.73200011 1.7317367e-38
-0.004893335 -0.0076895058 0.73400003 1.859086e-38
-0.0034857413 -0.0076685697 0.73200011 1.9802329e-38
-0.002088614 -0.0076580942 0.73100007 1.988379e-38
-0.00069714739 -0.0076685622 0.73200011 1.989311e-38
0.00069712818 -0.0076685622 0.73200011 1.8671259e-38
0.0020914057 -0.0076685622 0.73200011 1.7493537e-38
0.0034856831 -0.0076685548 0.73200011 1.9796952e-38
0.0048933397 -0.0076895133 0.73400003 2.2100726e-38
0.006274275 -0.0076685548 0.73200005 2.1455359e-38
0.0076685525 -0.0076685622 0.73200011 2.0787729e-38
0.0090628304 -0.0076685771 0.73200011 2.1214591e-38
0.01045713 -0.0076685697 0.73200011 2.1627537e-38
0.011851407 -0.0076685622 0.73200011 2.2591138e-38
0.013245684 -0.0076685697 0.73200011 2.3414065e-38
0.01464 -0.0076685622 0.73200011 2.3417647e-38
0.0160781 -0.0076895207 0.73400003 2.3401134e-38
0.017523784 -0.0077104792 0.73600012 2.3388568e-38
0.018925715 -0.0077104717 0.73600006 2.3409407e-38
0.020355232 -0.0077209324 0.73700005 2.341769e-38
0.021759009 -0.0077209547 0.73700011 2.3415887e-38
0.023162827 -0.0077209547 0.73700011 2.2399588e-38
0.024633352 -0.0077418908 0.73900002 2.1290382e-38
0.026076179 -0.0077523813 0.74000007 2.0279828e-38
0.027559999 -0.0077733174 0.74200004 1.9166257e-38
0.029012341 -0.0077838153 0.74300009 1.4374604e-38
0.030427583 -0.0077838153 0.74300009 9.5868826e-39
0.032014247 -0.007825695 0.7470001 1.0042754e-38
0.033481862 -0.0078361779 0.74800003 1.0415117e-38
0.034999993 -0.0078571364 0.75000006 1.0142122e-38
0.03642856 -0.0078571364 0.75000006 9.8623274e-39
0.038008541 -0.0078885779 0.75300002 9.8609107e-39
-0.026322873 -0.0064028576 0.7470001 1.0421405e-38
-0.024900038 -0.0064028502 0.7470001 9.8668157e-39
-0.023414308 -0.0063857213 0.74500012 9.2304216e-39
-0.021936217 -0.00636857 0.74300009 9.7807144e-39
-0.020520998 -0.00636857 0.74300009 1.0327389e-38
-0.01908002 -0.0063599944 0.7420001 6.7281916e-39
-0.017666688 -0.006359987 0.7420001 3.141564e-39
-0.016187593 -0.0063342676 0.73900002 7.2741389e-39
-0.014779969 -0.0063342825 0.73900002 1.1397761e-38
-0.013336207 -0.0063171312 0.73700011 1.3983854e-38
-0.01193239 -0.0063171312 0.73700005 1.6549887e-38
-0.010514298 -0.0063085631 0.73600012 1.7291406e-38
-0.0091124065 -0.0063085631 0.73600012 1.8039411e-38
-0.0076895137 -0.0062914118 0.73400003 1.9157986e-38
-0.006291429 -0.0062914118 0.73400003 2.0369056e-38
-0.0048933425 -0.0062914267 0.73400003 2.0727777e-38
-0.0034952576 -0.0062914193 0.73400003 2.100584e-38
-0.0020914527 -0.0062742904 0.73200011 2.1378606e-38
-0.00069717719 -0.0062742904 0.73200011 2.1667013e-38
0.00069713936 -0.0062742755 0.73200011 1.9980238e-38
0.0020971594 -0.0062914118 0.73400003 1.832652e-38
0.0034952441 -0.0062914193 0.73400003 2.0551059e-38
0.0048933285 -0.0062914193 0.73400003 2.2774826e-38
0.0062914151 -0.0062914118 0.73400003 2.2210882e-38
0.007689537 -0.0062914267 0.73400003 2.1746273e-38
0.009087624 -0.0062914193 0.73400003 2.210352e-38
0.010485709 -0.0062914193 0.73400003 2.2591105e-38
0.011883795 -0.0062914193 0.73400009 2.2774842e-38
0.013245672 -0.0062742755 0.73200011 2.3050348e-38
0.014680004 -0.0062914193 0.73400003 2.2770895e-38
0.016121898 -0.0063085631 0.73600006 2.2499324e-38
0.017523792 -0.0063085705 0.73600012 2.2390257e-38
0.018951394 -0.0063171461 0.73700011 2.2312065e-38
0.020355212 -0.0063171387 0.73700011 2.286596e-38
0.021818101 -0.006334275 0.73900002 2.341767e-38
0.023257127 -0.0063428581 0.74000001 2.1564079e-38
0.024666676 -0.0063428581 0.74000001 1.9709804e-38
0.026146669 -0.0063599795 0.74200004 1.9445072e-38
0.027597096 -0.0063685849 0.74300009 1.916553e-38
0.029012337 -0.0063685775 0.74300009 1.455788e-38
0.030509524 -0.0063857213 0.74500006 9.9524085e-39
0.032014281 -0.0064028502 0.74700004 1.0045972e-38
0.033481866 -0.0064114407 0.74800009 1.0049908e-38
0.035139997 -0.006454289 0.75300008 9.8629986e-39
0.036574271 -0.0064542741 0.75300002 9.5832168e-39
0.038008552 -0.0064542815 0.75300008 9.6768753e-39
-0.026322901 -0.004979983 0.7470001 1.2628339e-38
-0.024900006 -0.0049799904 0.74700004 1.087342e-38
-0.023414293 -0.0049666613 0.74500012 9.0417326e-39
-0.021936204 -0.0049533322 0.74300003 9.8743505e-39
-0.020520963 -0.0049533322 0.74300009 1.0692583e-38
-0.019105747 -0.0049533322 0.74300003 7.2831549e-39
-0.01766666 -0.004946664 0.74200004 3.8805542e-39
-0.016187597 -0.0049266592 0.73900002 7.4617574e-39
-0.014779995 -0.0049266517 0.73900002 1.1040839e-38
-0.013336249 -0.0049133226 0.73700011 1.3898508e-38
-0.011932432 -0.0049133301 0.73700011 1.6645343e-38
-0.010528617 -0.0049133301 0.73700011 1.8110067e-38
-0.0091247987 -0.0049133301 0.73700011 1.9520664e-38
-0.007710489 -0.0049066618 0.73600006 2.1488728e-38
-0.0063085933 -0.0049066544 0.73600006 2.3409731e-38
-0.0049067014 -0.0049066693 0.73600012 2.2852967e-38
-0.0035047682 -0.0049066693 0.73600006 2.2213732e-38
-0.0020971431 -0.0048933104 0.73400003 2.2866294e-38
-0.00069905847 -0.0048933402 0.73400009 2.3404016e-38
0.00069906533 -0.0048933253 0.73400003 2.1256627e-38
0.0020971519 -0.0048933178 0.73400003 1.9060493e-38
0.0034952366 -0.0048933253 0.73400009 2.1305467e-38
0.0048932987 -0.0048933327 0.73400003 2.3417679e-38
0.0062914225 -0.0048933178 0.73400003 2.3050333e-38
0.0076895072 -0.0048933178 0.73400003 2.2580364e-38
0.0090875924 -0.0048933253 0.73400003 2.3046329e-38
0.010485716 -0.0048933104 0.73400003 2.3416577e-38
0.011916189 -0.0049066544 0.73600006 2.3050347e-38
0.013318083 -0.0049066618 0.73600012 2.2577158e-38
0.014719976 -0.0049066618 0.73600012 2.2023973e-38
0.016121887 -0.0049066618 0.73600006 2.1461826e-38
0.017547574 -0.0049133301 0.73700011 2.1361369e-38
0.01895139 -0.0049133226 0.73700011 2.1199973e-38
0.020410473 -0.0049266517 0.73900002 2.2315664e-38
0.0218181 -0.0049266592 0.73900002 2.3411208e-38
0.023257174 -0.0049333274 0.74000001 2.0820417e-38
0.024733337 -0.0049466565 0.74200004 1.8153614e-38
0.026146656 -0.004946664 0.7420001 1.8624644e-38
0.027597131 -0.0049533248 0.74300003 1.9072258e-38
0.029012373 -0.0049533397 0.74300003 1.4739046e-38
0.030591417 -0.004979983 0.74700004 1.0324429e-38
0.032057125 -0.0049866736 0.74800003 1.0047075e-38
0.033571411 -0.0050000027 0.75000012 9.6793711e-39
0.035093363 -0.0050133318 0.75200003 9.4931861e-39
0.036574282 -0.0050199926 0.75300002 9.3091704e-39
0.038008563 -0.00502 0.75300008 9.4013787e-39
0.039390489 -0.0050133243 0.75200003 9.4946225e-39
-0.026252382 -0.0035476089 0.74500006 1.1529912e-38
-0.024833327 -0.0035476163 0.74500006 1.0141608e-38
-0.023414303 -0.0035476163 0.74500006 8.6682964e-39
-0.021995252 -0.0035476163 0.74500012 9.4097991e-39
-0.020520989 -0.0035380945 0.74300009 1.014301e-38
-0.019105747 -0.003538087 0.74300009 7.1009216e-39
-0.017666675 -0.0035333261 0.7420001 3.9720337e-39
-0.016209532 -0.0035238191 0.74000001 7.2759354e-39
-0.014779997 -0.0035190284 0.73900002 1.0671003e-38
-0.013372373 -0.0035190433 0.73900002 1.3526535e-38
-0.011932414 -0.003509514 0.73700011 1.6462063e-38
-0.010528598 -0.0035095215 0.73700011 1.747371e-38
-0.0091247801 -0.003509514 0.73700011 1.8516258e-38
-0.0077209645 -0.0035095066 0.73700011 2.0928446e-38
-0.0063171708 -0.0035095215 0.73700005 2.341768e-38
-0.0049066921 -0.0035047606 0.73600012 2.3136783e-38
-0.0035047589 -0.0035047531 0.73600006 2.2864515e-38
-0.0020971356 -0.0034952238 0.73400003 2.3141466e-38
-0.00069905288 -0.0034952238 0.73400003 2.341767e-38
0.00070093543 -0.0035047531 0.73600006 2.0333628e-38
0.0021028293 -0.0035047606 0.73600012 1.7374099e-38
0.0035047603 -0.0035047457 0.73600006 2.0361992e-38
0.0049066539 -0.0035047606 0.73600006 2.3417683e-38
0.0063085477 -0.003504768 0.73600012 2.2677984e-38
0.0077104787 -0.0035047531 0.73600006 2.2019345e-38
0.009112373 -0.0035047457 0.73600012 2.267546e-38
0.010514268 -0.0035047755 0.73600012 2.3417683e-38
0.011916198 -0.0035047606 0.73600006 2.2765153e-38
0.013318069 -0.0035047606 0.73600006 2.2092489e-38
0.014739958 -0.003509514 0.73700011 2.0703794e-38
0.016143776 -0.003509514 0.73700011 1.9228315e-38
0.017547593 -0.003509514 0.73700011 2.0250331e-38
0.018951409 -0.003509514 0.73700005 2.1290352e-38
0.020410512 -0.0035190359 0.73900002 2.2403912e-38
0.021818137 -0.0035190433 0.73900002 2.3417661e-38
0.023257159 -0.0035237968 0.74000001 2.1102371e-38
0.024733324 -0.0035333261 0.7420001 1.8877887e-38
0.026181886 -0.003538087 0.74300003 1.8891174e-38
0.027671415 -0.0035476238 0.74500006 1.8892892e-38
0.029090466 -0.0035476238 0.74500012 1.4467492e-38
0.030632349 -0.0035619065 0.74800003 1.0141134e-38
0.032142844 -0.0035714284 0.75000006 9.9538294e-39
0.033660945 -0.0035809353 0.75200003 9.7694465e-39
0.03513997 -0.0035857186 0.75300002 9.6768978e-39
0.036574293 -0.0035857186 0.75300002 9.4928666e-39
0.037958115 -0.0035809353 0.75200009 9.4935813e-39
0.039390489 -0.0035809353 0.75200003 9.494998e-39
-0.026322898 -0.002134271 0.74700004 1.0418899e-38
-0.02490004 -0.0021342859 0.7470001 9.4022531e-39
-0.023414288 -0.0021285713 0.74500006 8.3052592e-39
-0.021936236 -0.0021228641 0.74300009 8.9527796e-39
-0.020520993 -0.0021228567 0.74300009 9.5891316e-39
-0.019105716 -0.0021228492 0.74300003 6.8211131e-39
-0.017690497 -0.0021228641 0.74300003 4.0638791e-39
-0.016209524 -0.0021142811 0.74000001 7.182323e-39
-0.014779997 -0.0021114275 0.73900002 1.0217568e-38
-0.013372373 -0.00211142 0.73900008 1.3258195e-38
-0.011932395 -0.0021057054 0.73700011 1.6274414e-38
-0.010528577 -0.0021057054 0.73700011 1.6806413e-38
-0.0091247838 -0.0021056905 0.73700005 1.7404877e-38
-0.0077210055 -0.0021057129 0.73700011 2.0474291e-38
-0.0063171894 -0.0021057129 0.73700011 2.3415175e-38
-0.0049133734 -0.0021057054 0.73700011 2.3412299e-38
-0.0035047738 -0.0021028444 0.73600006 2.3415892e-38
-0.002097145 -0.0020971298 0.73400003 2.341769e-38
-0.00070098817 -0.0021028519 0.73600012 2.3382475e-38
0.00070094474 -0.0021028593 0.73600006 1.9469721e-38
0.0021028386 -0.0021028519 0.73600012 1.5639945e-38
0.0035047305 -0.0021028593 0.73600012 1.9534398e-38
0.0049066632 -0.0021028444 0.73600006 2.3411226e-38
0.0063085551 -0.0021028444 0.73600012 2.24075e-38
0.0077104657 -0.0021028519 0.73600006 2.1384745e-38
0.0091123581 -0.0021028593 0.73600006 2.2401386e-38
0.010514254 -0.0021028519 0.73600012 2.3416247e-38
0.011916184 -0.0021028444 0.73600006 2.2591169e-38
0.013318079 -0.0021028593 0.73600006 2.1627172e-38
0.014719971 -0.0021028593 0.73600012 1.9286002e-38
0.016143795 -0.0021057054 0.73700005 1.7012031e-38
0.017547611 -0.0021057054 0.73700005 1.9213607e-38
0.018951427 -0.002105698 0.73700005 2.1374301e-38
0.020410486 -0.0021114126 0.73900002 2.24075e-38
0.021818113 -0.0021114126 0.73900002 2.3414799e-38
0.023257166 -0.0021142811 0.74000001 2.1477622e-38
0.024733327 -0.0021199808 0.74200004 1.9534731e-38
0.026181882 -0.0021228567 0.74300009 1.9168828e-38
0.02767143 -0.0021285713 0.74500012 1.8705991e-38
0.029090457 -0.0021285713 0.74500012 1.4280954e-38
0.030632352 -0.0021371469 0.74800003 9.8638296e-39
0.032142863 -0.002142854 0.75000006 9.8573205e-39
0.033660945 -0.0021485612 0.75200003 9.8602002e-39
0.035139985 -0.0021514371 0.75300008 9.7680144e-39
0.036574304 -0.0021514297 0.75300002 9.6761719e-39
0.038008541 -0.0021514297 0.75300002 9.5850454e-39
0.03944286 -0.0021514297 0.75300002 9.4020681e-39
-0.026428591 -0.00071428716 0.75000012 1.2342404e-38
-0.025000025 -0.00071427971 0.75000006 1.234708e-38
-0.023414273 -0.00070952624 0.74500006 1.2349966e-38
-0.021936201 -0.00070761144 0.74300003 1.1711079e-38
-0.020520959 -0.00070761889 0.74300009 1.106245e-38
-0.019105742 -0.00070761144 0.74300003 7.6512213e-39
-0.0176905 -0.00070761889 0.74300009 4.1568006e-39
-0.016209515 -0.00070475787 0.74000001 7.0948092e-39
-0.014799991 -0.00070475042 0.74000001 1.003426e-38
-0.013372361 -0.00070379674 0.73900002 1.3068057e-38
-0.011964735 -0.00070380419 0.73900002 1.6091428e-38
-0.01052862 -0.00070189685 0.73700011 1.6548428e-38
-0.0091494862 -0.00070378929 0.73900002 1.7036432e-38
-0.007741923 -0.00070380419 0.73900002 2.0188381e-38
-0.0063171727 -0.0007019043 0.73700011 2.341769e-38
-0.0049133548 -0.00070189685 0.73700011 2.3416255e-38
-0.003509559 -0.00070188195 0.73700005 2.341769e-38
-0.0021028707 -0.00070095062 0.73600006 2.2115491e-38
-0.00070097885 -0.00070095062 0.73600012 2.0795615e-38
0.00070095406 -0.00070094317 0.73600006 1.8752176e-38
0.002102846 -0.00070095807 0.73600012 1.6651173e-38
0.0035047194 -0.00070095062 0.73600012 2.00829e-38
0.0049066483 -0.00070094317 0.73600006 2.3417683e-38
0.0063171177 -0.0007019043 0.73700011 2.2309566e-38
0.0077104359 -0.00070094317 0.73600012 2.1189593e-38
0.0091123693 -0.00070095062 0.73600006 2.23056e-38
0.010514262 -0.00070095807 0.73600012 2.341768e-38
0.011932361 -0.00070189685 0.73700005 2.2761927e-38
0.013336177 -0.00070189685 0.73700005 2.2171688e-38
0.014739994 -0.00070189685 0.73700005 1.9487886e-38
0.016143773 -0.00070189685 0.73700011 1.6932359e-38
0.017547566 -0.0007018894 0.73700011 1.9144025e-38
0.018951382 -0.0007018894 0.73700011 2.1483363e-38
0.020410482 -0.00070380419 0.73900002 2.2406065e-38
0.021818109 -0.00070380419 0.73900002 2.3417677e-38
0.023319997 -0.00070666522 0.74200004 2.2121204e-38
0.024766639 -0.00070762634 0.74300009 2.0818641e-38
0.026181856 -0.00070761889 0.74300009 1.9815977e-38
0.027597137 -0.00070761889 0.74300003 1.8899706e-38
0.029090472 -0.00070951879 0.74500012 1.4560768e-38
0.030632332 -0.00071237981 0.74800003 1.0226147e-38
0.032142863 -0.00071428716 0.75000006 9.9512986e-39
0.033660948 -0.00071619451 0.75200009 9.769794e-39
0.035139993 -0.00071714818 0.75300008 9.676895e-39
0.036574267 -0.00071714073 0.75300002 9.67473e-39
0.038008548 -0.00071714073 0.75300008 9.4928386e-39
0.039442871 -0.00071714818 0.75300008 9.4013338e-39
-0.026534311 0.00071714073 0.75300008 1.4278846e-38
-0.025000002 0.00071429461 0.75000006 1.5292992e-38
-0.023508599 0.00071237981 0.74800003 1.6306067e-38
-0.021995232 0.00070952624 0.74500006 1.4479057e-38
-0.020576207 0.00070951879 0.74500006 1.2532886e-38
-0.019157156 0.00070952624 0.74500012 8.3812278e-39
-0.017690526 0.00070762634 0.74300009 4.2464781e-39
-0.016253365 0.00070667267 0.7420001 7.0062065e-39
-0.014799983 0.00070477277 0.74000001 9.759821e-39
-0.013390473 0.00070475042 0.74000001 1.2887595e-38
-0.011964738 0.0007038191 0.73900002 1.5908109e-38
-0.010557136 0.000703834 0.73900002 1.6258937e-38
-0.0091247857 0.00070191175 0.73700011 1.657008e-38
-0.0077418857 0.00070381165 0.73900002 2.0008652e-38
-0.0063171764 0.0007019192 0.73700005 2.3414819e-38
-0.0049133603 0.00070192665 0.73700005 2.341769e-38
-0.0035095422 0.00070191175 0.73700005 2.3413726e-38
-0.0021028856 0.00070096552 0.73600006 2.0830834e-38
-0.00070099189 0.00070095062 0.73600012 1.8225244e-38
0.00070093916 0.00070096552 0.73600006 1.7908367e-38
0.002102833 0.00070095807 0.73600006 1.7662399e-38
0.0035047268 0.00070095807 0.73600012 2.0544218e-38
0.0049132961 0.0007019043 0.73700011 2.341122e-38
0.0063171121 0.00070191175 0.73700005 2.2223829e-38
0.0077104452 0.00070095062 0.73600012 2.1015604e-38
0.0091123786 0.00070096552 0.73600006 2.2213756e-38
0.010528564 0.00070191175 0.73700005 2.3415165e-38
0.011932341 0.00070191175 0.73700011 2.3050348e-38
0.013336157 0.0007019043 0.73700011 2.2635861e-38
0.014739953 0.0007019192 0.73700011 1.965321e-38
0.016143769 0.00070192665 0.73700011 1.6744334e-38
0.017595232 0.00070381165 0.73900002 1.9129633e-38
0.019002859 0.00070381165 0.73900002 2.1469709e-38
0.020438122 0.00070477277 0.74000001 2.2499335e-38
0.021847609 0.00070475787 0.74000001 2.3416248e-38
0.023319982 0.00070667267 0.7420001 2.2771242e-38
0.024766648 0.00070762634 0.74300003 2.2027933e-38
0.02618189 0.00070761889 0.74300003 2.0559984e-38
0.027671436 0.00070951879 0.74500006 1.8986871e-38
0.029090486 0.00070951879 0.74500012 1.4836267e-38
