# .PCD v0.7 - Point Cloud Data file format
VERSION 0.7
FIELDS x y z rgb
SIZE 4 4 4 4
TYPE F F F F
COUNT 1 1 1 1
WIDTH 974
HEIGHT 1
VIEWPOINT 0 0 0 1 0 0 0
POINTS 974
DATA ascii
-0.016603794 0.019491427 0.75800002 1.8707821e-38
-0.015119979 0.019439988 0.75600004 1.8615195e-38
-0.013679992 0.019439988 0.75600004 1.7290322e-38
-0.012223786 0.019414268 0.75500005 1.6014754e-38
-0.010785682 0.019414268 0.75500005 1.9722696e-38
-0.0093228668 0.019362845 0.75300002 2.3403666e-38
-0.0078885723 0.019362845 0.75300002 2.3411216e-38
-0.0064456984 0.019337133 0.75200003 2.3417323e-38
-0.0050133364 0.019337125 0.75200003 2.341769e-38
-0.0035714093 0.019285716 0.75000006 2.341769e-38
-0.0021371213 0.01923427 0.74800003 2.3416614e-38
-0.00071234949 0.019234277 0.74800003 2.341769e-38
0.00071241386 0.019234277 0.74800009 2.341769e-38
0.0021371697 0.01923427 0.74800003 2.341769e-38
0.0035571693 0.019208565 0.74700004 2.341769e-38
0.0049800207 0.019208565 0.74700004 2.341769e-38
0.0064028944 0.01920855 0.74700004 2.3416255e-38
0.0078257332 0.019208573 0.74700004 2.3411896e-38
0.009248605 0.019208558 0.74700004 2.0780897e-38
0.010685738 0.019234285 0.74800003 1.8201292e-38
0.012110495 0.019234277 0.74800003 2.0819718e-38
0.013535258 0.019234262 0.74800003 2.3417675e-38
0.014960014 0.019234285 0.74800003 2.3417331e-38
0.016428603 0.019285709 0.75000006 2.3417675e-38
0.017809549 0.019234277 0.74800003 2.2107567e-38
0.019285737 0.019285709 0.75000006 2.0766132e-38
0.020714302 0.019285716 0.75 1.938416e-38
0.022142889 0.019285716 0.75000006 1.810639e-38
0.023571454 0.019285716 0.75000006 1.8296912e-38
0.025000019 0.019285709 0.75000006 1.8395227e-38
0.026499044 0.01933714 0.75199997 1.8123689e-38
0.027931435 0.019337133 0.75199997 1.7850698e-38
0.029402843 0.019362852 0.75299996 1.5276798e-38
0.030960001 0.019439988 0.75600004 1.2711481e-38
0.032400005 0.019439995 0.75600004 1.4558213e-38
0.033929538 0.019491434 0.75800002 1.6400247e-38
0.03546669 0.019542843 0.76000005 1.4739617e-38
0.036962897 0.019568555 0.76100004 1.3073669e-38
0.038412403 0.019568555 0.76100004 1.3171248e-38
0.039861914 0.019568555 0.76100004 1.3255178e-38
0.041311458 0.019568563 0.76100004 1.3354174e-38
0.042760983 0.019568555 0.76100004 1.353067e-38
-0.019542841 0.020990461 0.75999999 1.4121456e-38
-0.01804762 0.020935237 0.75800002 1.8711061e-38
-0.016603803 0.02093523 0.75800002 1.8709249e-38
-0.015119996 0.020879991 0.75600004 1.8690885e-38
-0.013680009 0.020879999 0.75600004 1.754108e-38
-0.012223791 0.020852365 0.75500005 1.6478967e-38
-0.010785689 0.020852365 0.75500005 2.0014012e-38
-0.0093476065 0.02085238 0.75500005 2.3409781e-38
-0.0078885797 0.020797141 0.75299996 2.3405485e-38
-0.0064457222 0.020769522 0.75199997 2.3414457e-38
-0.0050133336 0.020769514 0.75199997 2.341769e-38
-0.0035714135 0.020714283 0.75000006 2.341769e-38
-0.0021371054 0.020659029 0.74800003 2.341769e-38
-0.00071236253 0.020659037 0.74800003 2.341769e-38
0.00071239431 0.020659037 0.74800003 2.341769e-38
0.0021343096 0.02063141 0.74700004 2.341769e-38
0.0035571824 0.020631418 0.7470001 2.341769e-38
0.0049800337 0.020631425 0.74700004 2.341769e-38
0.0064028925 0.02063141 0.7470001 2.341769e-38
0.0078257462 0.02063141 0.74700004 2.3393596e-38
0.009248618 0.02063141 0.7470001 2.0847255e-38
0.01068574 0.020659037 0.74800003 1.8396801e-38
0.012110496 0.020659037 0.74800003 2.0919814e-38
0.013535274 0.020659044 0.74800003 2.3413015e-38
0.014960016 0.020659044 0.74800003 2.3417331e-38
0.016384775 0.020659037 0.74800003 2.3415148e-38
0.017809553 0.020659037 0.74800003 2.2121887e-38
0.019285731 0.02071429 0.75000006 2.0686465e-38
0.020714296 0.020714283 0.75 1.9469512e-38
0.022142882 0.020714283 0.75000006 1.8197122e-38
0.023571448 0.020714283 0.75000006 1.8299395e-38
0.025000015 0.020714283 0.75000006 1.8395204e-38
0.026499057 0.020769514 0.75200003 1.8123311e-38
0.027968565 0.020797126 0.75300002 1.7848165e-38
0.029402858 0.020797119 0.75300002 1.5091306e-38
0.030959997 0.020879999 0.75600004 1.2250859e-38
0.032485738 0.02093523 0.75800002 1.5293264e-38
0.033929534 0.020935252 0.75799996 1.8247414e-38
0.035513364 0.02101808 0.76100004 1.8707297e-38
0.036962874 0.021018088 0.76100004 1.9166117e-38
0.038412418 0.021018088 0.76100004 1.9445931e-38
0.039861925 0.021018088 0.76100004 1.9717124e-38
0.04131145 0.021018088 0.76100004 2.0086612e-38
0.042760994 0.02101808 0.76100004 2.0359968e-38
-0.019542849 0.022438079 0.76000005 1.4479464e-38
-0.018095216 0.022438094 0.75999999 1.8895442e-38
-0.016603811 0.022379041 0.75800002 1.8617047e-38
-0.015159994 0.022379041 0.75800002 1.8428291e-38
-0.013679998 0.022320002 0.75600004 1.7566194e-38
-0.01223999 0.022319987 0.75600004 1.675413e-38
-0.010785716 0.022290461 0.75500005 2.0096904e-38
-0.009347612 0.022290476 0.75500005 2.341769e-38
-0.0078885658 0.022231407 0.75300002 2.341482e-38
-0.0064543006 0.022231415 0.75300002 2.341769e-38
-0.0050133374 0.022201888 0.75200003 2.341769e-38
-0.0035809483 0.022201896 0.75200003 2.341769e-38
-0.0021371371 0.022083804 0.74800003 2.341769e-38
-0.00071236066 0.022083804 0.74800003 2.341769e-38
0.0007123971 0.022083797 0.74800003 2.341769e-38
0.0021371744 0.022083789 0.74800003 2.341769e-38
0.0035571731 0.022054262 0.74700004 2.341769e-38
0.004986688 0.022083804 0.74800003 2.341769e-38
0.0064114514 0.022083782 0.74800003 2.341769e-38
0.0078362077 0.022083804 0.74800003 2.3417627e-38
0.0092609646 0.022083804 0.74800003 2.0876661e-38
0.010685743 0.022083797 0.74800003 1.8393931e-38
0.012110499 0.022083804 0.74800003 2.091229e-38
0.013535276 0.022083804 0.74800003 2.3417684e-38
0.014960019 0.022083789 0.74800003 2.341769e-38
0.016428595 0.02214285 0.75000006 2.3417645e-38
0.017857162 0.022142865 0.75000006 2.1643667e-38
0.019285727 0.022142857 0.75 1.9836959e-38
0.020714315 0.022142842 0.75000006 1.8646912e-38
0.02214288 0.022142857 0.75000006 1.7464564e-38
0.02357146 0.022142857 0.75000006 1.7834449e-38
0.025066668 0.022201888 0.75200003 1.8211868e-38
0.026499046 0.022201903 0.75200003 1.7846709e-38
0.027968558 0.022231422 0.75299996 1.748044e-38
0.029480981 0.022290453 0.75500011 1.4631743e-38
0.030919049 0.022290468 0.75500005 1.1876334e-38
0.032485727 0.022379041 0.75800002 1.6038001e-38
0.034019049 0.022438101 0.75999999 2.0201124e-38
0.035466678 0.022438094 0.75999999 2.0747149e-38
0.036962882 0.022467613 0.76100004 2.1305335e-38
0.038412403 0.022467606 0.76100004 2.1482906e-38
0.039861936 0.022467613 0.76100004 2.158048e-38
0.041420005 0.022526667 0.76300001 2.175841e-38
0.042760968 0.022467598 0.76100004 2.1948188e-38
-0.021183791 0.024105713 0.76700002 1.0510356e-38
-0.019671416 0.024042845 0.76500005 1.4765747e-38
-0.018095223 0.023885697 0.76000005 1.898764e-38
-0.01660382 0.023822851 0.75799996 1.8618835e-38
-0.015159976 0.023822866 0.75800002 1.8138793e-38
-0.013680014 0.023759998 0.75600004 1.7541084e-38
-0.012240007 0.023759991 0.75600004 1.6939227e-38
-0.010785693 0.023728557 0.75500005 2.0201993e-38
-0.0093228659 0.023665711 0.75299996 2.3410863e-38
-0.0078886002 0.023665719 0.75299996 2.3417689e-38
-0.0064543067 0.023665711 0.75299996 2.3406565e-38
-0.0050133327 0.023634277 0.75199997 2.3417684e-38
-0.0035809437 0.023634277 0.75199997 2.3410864e-38
-0.0021428424 0.023571424 0.75000006 2.3417676e-38
-0.00071235787 0.023508556 0.74800003 2.3413374e-38
0.00071239896 0.023508556 0.74800003 2.3417683e-38
0.0021343199 0.023477122 0.7470001 2.3415531e-38
0.0035619331 0.023508556 0.74800003 2.3417683e-38
0.0049866908 0.023508556 0.74800003 2.3417687e-38
0.0064114663 0.023508564 0.74800003 2.341769e-38
0.0078362096 0.023508564 0.74800003 2.3395384e-38
0.0092609674 0.023508556 0.74800003 2.0848318e-38
0.010685746 0.023508571 0.74800003 1.8400027e-38
0.012110501 0.023508556 0.74800003 2.091767e-38
0.013535258 0.023508556 0.74800003 2.3412661e-38
0.014960037 0.023508564 0.74800003 2.341769e-38
0.016428592 0.023571424 0.75000006 2.3414062e-38
0.017857159 0.023571439 0.75000006 2.1290326e-38
0.019285744 0.023571417 0.75000006 1.9032338e-38
0.020714322 0.023571417 0.75000006 1.7816467e-38
0.022201911 0.023634277 0.75199997 1.663445e-38
0.023634287 0.023634292 0.75199997 1.7361966e-38
0.0251 0.023665711 0.75300002 1.802531e-38
0.026534276 0.023665704 0.75300002 1.7571562e-38
0.028042888 0.023728557 0.75500011 1.7020547e-38
0.029480968 0.023728557 0.75500005 1.4261892e-38
0.031041926 0.023822851 0.75800002 1.1520148e-38
0.03257145 0.023885705 0.76000005 1.6781725e-38
0.034019057 0.023885705 0.75999999 2.203359e-38
0.035513345 0.023917124 0.76100004 2.2774755e-38
0.037060015 0.023979984 0.76300001 2.3416158e-38
0.038513348 0.023979992 0.76300001 2.341579e-38
0.039966676 0.023979992 0.76300001 2.3416163e-38
0.041419998 0.023979992 0.76300001 2.3417612e-38
0.042760976 0.023917124 0.76100004 2.341725e-38
-0.021128574 0.025499985 0.76500005 1.096056e-38
-0.019619983 0.025433332 0.76300001 1.5030504e-38
-0.018095225 0.02533333 0.75999999 1.9078763e-38
-0.0166476 0.02533333 0.76000005 1.8799272e-38
-0.015159984 0.02526667 0.75799996 1.8610164e-38
-0.013716167 0.025266662 0.75800002 1.7480101e-38
-0.012239994 0.025200002 0.75600004 1.6381389e-38
-0.0107857 0.025166653 0.75500005 1.8142491e-38
-0.0093228519 0.025099985 0.75299996 1.9901733e-38
-0.0078885863 0.025099985 0.75300002 1.9703729e-38
-0.0064542927 0.025099985 0.75300002 1.9607586e-38
-0.0050133094 0.025066651 0.75200003 2.0071064e-38
-0.0035809483 0.025066651 0.75200003 2.0543865e-38
-0.0021428461 0.025000006 0.75 2.1840316e-38
-0.00071424566 0.025000006 0.75000006 2.3124585e-38
0.00071430631 0.024999999 0.75000006 2.2856976e-38
0.0021371585 0.024933323 0.74800003 2.2673665e-38
0.0035619359 0.024933316 0.74800003 2.2675817e-38
0.0049866927 0.024933331 0.74800003 2.2774835e-38
0.0064114486 0.024933331 0.74800003 2.3048554e-38
0.0078362124 0.024933323 0.74800003 2.3417624e-38
0.0092609702 0.024933323 0.74800003 2.1814382e-38
0.010685727 0.024933331 0.74800003 2.0327853e-38
0.012110503 0.024933316 0.74800003 2.1836739e-38
0.013535261 0.024933331 0.74800003 2.3417682e-38
0.014960038 0.024933323 0.74800003 2.341769e-38
0.016428586 0.024999999 0.75000006 2.3417655e-38
0.017857151 0.025000006 0.75 2.2291916e-38
0.019285753 0.024999991 0.75000006 2.1225643e-38
0.020714318 0.024999991 0.75000006 2.0603838e-38
0.022201922 0.025066651 0.75200003 2.0048142e-38
0.023634294 0.025066644 0.75200003 1.9320253e-38
0.025099993 0.0251 0.75299996 1.8680699e-38
0.026534272 0.025099993 0.75299996 1.766555e-38
0.02804286 0.025166661 0.75500005 1.6655716e-38
0.029480964 0.025166653 0.75500005 1.4266555e-38
0.031041916 0.02526667 0.75800002 1.1793538e-38
0.032571442 0.025333337 0.75999999 1.7148419e-38
0.034019079 0.025333323 0.76000005 2.2407449e-38
0.035513356 0.025366656 0.76100004 2.2864128e-38
0.037060015 0.025433309 0.76300001 2.3322211e-38
0.038513348 0.025433324 0.76300001 2.3138522e-38
0.039966665 0.025433324 0.76300001 2.2955239e-38
0.041419998 0.025433332 0.76300001 2.2956345e-38
-0.021128578 0.026957139 0.76499999 1.1337233e-38
-0.019619992 0.026886649 0.76300001 1.5225289e-38
-0.018119033 0.026816174 0.76100004 1.9078767e-38
-0.016669495 0.026816189 0.76100004 1.9073003e-38
-0.015199974 0.026780948 0.76000005 1.9064696e-38
-0.013716176 0.026710473 0.75800002 1.7387927e-38
-0.01224001 0.026639998 0.75600004 1.5724152e-38
-0.010785706 0.026604749 0.75500005 1.5992869e-38
-0.0093228854 0.026534289 0.75299996 1.6275534e-38
-0.0078885918 0.026534282 0.75299996 1.6071758e-38
-0.0064542997 0.026534282 0.75299996 1.5809556e-38
-0.0050200056 0.026534289 0.75299996 1.6714667e-38
-0.0035809446 0.02649904 0.75199997 1.7588587e-38
-0.0021428303 0.026428565 0.75000006 2.0275539e-38
-0.00071424939 0.026428573 0.75000006 2.285411e-38
0.00071430259 0.02642858 0.75000006 2.2394937e-38
0.0021371604 0.026358083 0.74800003 2.1844995e-38
0.0035619182 0.026358098 0.74800003 2.1928216e-38
0.0049866936 0.026358083 0.74800003 2.2031179e-38
0.0064114514 0.026358083 0.74800003 2.2767664e-38
0.0078362301 0.026358083 0.74800003 2.3411198e-38
0.009260972 0.026358083 0.74800003 2.2847598e-38
0.01068573 0.02635809 0.74800003 2.2204419e-38
0.012110506 0.02635809 0.74800003 2.2866669e-38
0.013535263 0.02635809 0.74800003 2.3417686e-38
0.014960019 0.026358083 0.74800003 2.341769e-38
0.016384784 0.02635809 0.74800003 2.3417672e-38
0.01780954 0.02635809 0.74800003 2.3417655e-38
0.01928575 0.026428565 0.75000006 2.3397863e-38
0.020714315 0.026428558 0.75000006 2.3417533e-38
0.022201911 0.02649904 0.75199997 2.3395987e-38
0.023634287 0.02649904 0.75199997 2.137415e-38
0.025099991 0.026534274 0.75300002 1.9242188e-38
0.026534287 0.026534274 0.75299996 1.775451e-38
0.028042868 0.026604757 0.75500005 1.6283709e-38
0.029480971 0.026604749 0.75500005 1.4171137e-38
0.031041907 0.02671048 0.75799996 1.2075845e-38
0.032571446 0.026780941 0.76000005 1.7426405e-38
0.034019064 0.026780955 0.75999999 2.2767597e-38
0.035513364 0.026816174 0.76100004 2.295201e-38
0.037060019 0.026886649 0.76300001 2.313746e-38
0.038513336 0.026886664 0.76300001 2.286122e-38
0.039966669 0.026886664 0.76300001 2.2494973e-38
0.041420002 0.026886649 0.76300001 2.2586825e-38
-0.024294291 0.028711423 0.773 9.8541396e-39
-0.022733329 0.028599985 0.77000004 1.0675993e-38
-0.021128559 0.028414264 0.76500005 1.1616333e-38
-0.019620003 0.028339982 0.76300001 1.5037306e-38
-0.018119043 0.028265707 0.76100004 1.8529553e-38
-0.016669514 0.028265707 0.76100004 1.8064623e-38
-0.015200002 0.028228559 0.75999999 1.7605391e-38
-0.013716185 0.028154284 0.75799996 1.6379189e-38
-0.01224 0.028079987 0.75600004 1.5154087e-38
-0.010785685 0.028042845 0.75500005 1.5803361e-38
-0.0093228724 0.027968563 0.75300002 1.6442214e-38
-0.0078885779 0.027968563 0.75299996 1.607841e-38
-0.0064542848 0.027968571 0.75299996 1.571185e-38
-0.0050133299 0.027931422 0.75199997 1.7839555e-38
-0.0035809688 0.027931415 0.75199997 2.0074919e-38
-0.0021428331 0.027857132 0.75000006 2.1658825e-38
-0.00071425311 0.027857155 0.75000006 2.3142183e-38
0.0007143119 0.027857147 0.75000006 2.2770537e-38
0.0021371613 0.02778285 0.74800003 2.2494662e-38
0.0035714642 0.02785714 0.75000006 2.23056e-38
0.0050000311 0.02785714 0.75000006 2.2214848e-38
0.0064114542 0.027782843 0.74800003 2.2862724e-38
0.0078362115 0.027782857 0.74800003 2.3417687e-38
0.0092609748 0.027782843 0.74800003 2.313752e-38
0.010685731 0.027782865 0.74800003 2.2866677e-38
0.012110508 0.027782843 0.74800003 2.3142183e-38
0.013535266 0.027782843 0.74800003 2.341769e-38
0.014960022 0.027782843 0.74800003 2.3325854e-38
0.016384799 0.027782843 0.74800003 2.3234019e-38
0.017809542 0.02778285 0.74800003 2.3325854e-38
0.019285748 0.02785714 0.75000006 2.341769e-38
0.020714311 0.027857132 0.75000006 2.341769e-38
0.022142878 0.027857147 0.75 2.3417666e-38
0.0236343 0.027931415 0.75200003 2.1934284e-38
0.025066687 0.027931415 0.75200003 2.0445092e-38
0.026534285 0.027968556 0.75300002 1.8031445e-38
0.028042875 0.028042838 0.75500005 1.5727314e-38
0.029520012 0.028079994 0.75600004 1.4171139e-38
0.031041933 0.028154276 0.75800002 1.2718321e-38
0.032571442 0.028228566 0.75999999 1.788806e-38
0.034019068 0.028228574 0.76000005 2.3050258e-38
0.035513375 0.028265707 0.7610001 2.3139621e-38
0.036962882 0.028265692 0.76100004 2.3322561e-38
0.038513355 0.028339989 0.76300001 2.3138878e-38
0.039966669 0.028339997 0.76300001 2.2954495e-38
0.04141999 0.028339989 0.76300001 2.2954859e-38
-0.024294278 0.030183807 0.77300006 9.9391634e-39
-0.022733305 0.030066662 0.77000004 1.0839936e-38
-0.021128563 0.029871412 0.76500005 1.1799655e-38
-0.019671435 0.029871412 0.76500005 1.4869796e-38
-0.018119035 0.029715218 0.76100004 1.7886338e-38
-0.016669504 0.029715225 0.7610001 1.7050811e-38
-0.015199983 0.029676177 0.76000005 1.6116973e-38
-0.013716172 0.029598087 0.75800002 1.5368599e-38
-0.012239988 0.029519998 0.75600004 1.4525934e-38
-0.010785691 0.029480942 0.75500005 1.5623653e-38
-0.0093228575 0.029402852 0.75300002 1.663596e-38
-0.0078885648 0.029402845 0.75300002 1.60885e-38
-0.0064542713 0.029402852 0.75300002 1.5534342e-38
-0.0050200056 0.029402845 0.75300002 1.9039959e-38
-0.0035857116 0.029402845 0.75300002 2.2566718e-38
-0.0021428377 0.029285707 0.75000006 2.3050348e-38
-0.00071425777 0.029285721 0.75000006 2.341769e-38
0.00071430911 0.029285714 0.75000006 2.3234019e-38
0.002142875 0.029285721 0.75 2.3047474e-38
0.0035714605 0.029285714 0.75000006 2.2768375e-38
0.0050000255 0.029285707 0.75000006 2.2403546e-38
0.006411456 0.02920761 0.74800003 2.295851e-38
0.0078362143 0.029207617 0.74800003 2.3417689e-38
0.0092609776 0.029207595 0.74800003 2.341769e-38
0.010685733 0.02920761 0.74800003 2.341769e-38
0.01211049 0.02920761 0.74800003 2.341769e-38
0.013535269 0.029207595 0.74800003 2.341769e-38
0.014960025 0.029207617 0.74800003 2.3234019e-38
0.016384782 0.029207617 0.74800003 2.3050348e-38
0.017809561 0.029207602 0.74800003 2.3234019e-38
0.01928574 0.029285714 0.75000006 2.341769e-38
0.020714307 0.029285707 0.75000006 2.341769e-38
0.022142874 0.029285721 0.75 2.3417659e-38
0.023634287 0.029363804 0.75200003 2.2499272e-38
0.025099998 0.029402852 0.75299996 2.1537062e-38
0.026604779 0.029480949 0.75500005 1.8290803e-38
0.028042868 0.029480942 0.75500005 1.508194e-38
0.029520011 0.02951999 0.75600004 1.4159638e-38
0.031041928 0.029598102 0.75800002 1.3274726e-38
0.032571446 0.029676184 0.75999999 1.8265132e-38
0.034019053 0.029676192 0.75999999 2.3231449e-38
0.035513349 0.029715225 0.76100004 2.3325821e-38
0.036962893 0.029715218 0.76100004 2.3415493e-38
0.038513348 0.029793315 0.76300001 2.3416558e-38
0.039966661 0.029793337 0.76300001 2.3413692e-38
0.041528586 0.029871412 0.76500005 2.3416209e-38
-0.021128567 0.031328566 0.76499999 1.2352114e-38
-0.019671438 0.031328559 0.76499999 1.5038418e-38
-0.018166678 0.03124667 0.76300001 1.769656e-38
-0.016669516 0.03116475 0.76100004 1.2899524e-38
-0.015199984 0.03112381 0.75999999 8.1067989e-39
-0.013716182 0.03104189 0.75800002 8.8374765e-39
-0.012240004 0.030960001 0.75600004 9.5689571e-39
-0.010785697 0.030919038 0.75500011 1.0394426e-38
-0.0093228649 0.030837134 0.75299996 1.1226665e-38
-0.0079095121 0.030919038 0.75500005 9.5639195e-39
-0.0064543053 0.030837141 0.75299996 7.9902655e-39
-0.0050200121 0.030837141 0.75299996 1.5011839e-38
-0.0035857181 0.030837126 0.75299996 2.2040141e-38
-0.0021428415 0.030714281 0.75000006 2.2774842e-38
-0.00071426149 0.030714288 0.75000006 2.341769e-38
0.00071430445 0.030714296 0.75 2.3325854e-38
0.0021428908 0.030714281 0.75000006 2.3234019e-38
0.0035714568 0.030714281 0.75000006 2.3048913e-38
0.0050000227 0.030714288 0.75000006 2.2958513e-38
0.006411457 0.030632362 0.74800003 2.3142183e-38
0.0078362152 0.030632362 0.74800003 2.341769e-38
0.0092609702 0.030632377 0.74800003 2.3325854e-38
0.010685734 0.030632369 0.74800003 2.3325854e-38
0.012110491 0.030632369 0.74800003 2.3325854e-38
0.013535269 0.030632369 0.74800003 2.341769e-38
0.014960025 0.030632369 0.74800003 2.3325854e-38
0.016384782 0.030632369 0.74800003 2.3234019e-38
0.017809561 0.030632377 0.74800003 2.3325854e-38
0.019285737 0.030714288 0.75000006 2.341769e-38
0.020714303 0.030714288 0.75 2.3050348e-38
0.022201901 0.030796185 0.75199997 2.2682967e-38
0.023634275 0.030796178 0.75199997 2.1098765e-38
0.0251 0.030837141 0.75300002 1.9494071e-38
0.026604772 0.030919045 0.75500005 1.7190565e-38
0.028080015 0.030959986 0.75600004 1.4813235e-38
0.029520007 0.030959986 0.75600004 1.4451982e-38
0.031041918 0.031041905 0.75800002 1.4200626e-38
0.032571431 0.031123817 0.75999999 1.7893889e-38
0.034019057 0.031123802 0.75999999 2.1672788e-38
0.03551336 0.03116475 0.76100004 2.139227e-38
0.036962882 0.031164743 0.76100004 2.1117473e-38
0.038513344 0.031246647 0.76300001 2.0930563e-38
0.040071443 0.031328559 0.76500005 2.0745461e-38
0.041691456 0.031451426 0.76800001 2.0562511e-38
-0.021128571 0.032785706 0.76499999 1.2814858e-38
-0.019671442 0.032785714 0.76499999 1.523427e-38
-0.018166661 0.032699987 0.76300001 1.750496e-38
-0.016669506 0.032614268 0.76100004 8.8353886e-39
-0.015219996 0.032614291 0.76100004 1.0562007e-40
-0.013752387 0.03257142 0.75999999 2.3971873e-39
-0.012272374 0.032485716 0.75800002 4.606267e-39
-0.010799985 0.032399982 0.75600004 5.1576444e-39
-0.0093476214 0.032357134 0.75500005 5.7108069e-39
-0.0079095177 0.032357134 0.75500005 3.0414763e-39
-0.006471416 0.032357134 0.75500005 3.8550842e-40
-0.0050199977 0.032271415 0.75300002 1.0976812e-38
-0.0035857041 0.032271422 0.75300002 2.1477287e-38
-0.0021428461 0.032142848 0.75000006 2.2499335e-38
-0.00071426615 0.032142863 0.75000006 2.341769e-38
0.00071430072 0.032142863 0.75 2.341769e-38
0.0021428871 0.032142848 0.75000006 2.341769e-38
0.003571453 0.032142855 0.75000006 2.341769e-38
0.005000019 0.032142855 0.75000006 2.341769e-38
0.0064114598 0.032057121 0.74800003 2.341769e-38
0.0078362171 0.032057136 0.74800003 2.341769e-38
0.009260973 0.032057136 0.74800003 2.3325496e-38
0.010685751 0.032057144 0.74800003 2.3142183e-38
0.012110494 0.032057136 0.74800003 2.3325854e-38
0.013535251 0.032057136 0.74800003 2.341769e-38
0.014960027 0.032057129 0.74800003 2.341769e-38
0.016384786 0.032057136 0.74800003 2.341769e-38
0.017809562 0.032057136 0.74800003 2.341769e-38
0.019234305 0.032057129 0.74800003 2.341769e-38
0.02071432 0.032142848 0.75000006 2.2682289e-38
0.022142885 0.032142848 0.75000006 2.1940026e-38
0.023634301 0.032228559 0.75200003 1.9718712e-38
0.025066676 0.032228552 0.75200003 1.7481585e-38
0.026604779 0.032357141 0.75500005 1.5979861e-38
0.028080011 0.03239999 0.75600004 1.453131e-38
0.029598113 0.032485716 0.75800002 1.4818305e-38
0.031041909 0.032485716 0.75799996 1.5028251e-38
0.032571442 0.032571435 0.75999999 1.7620181e-38
0.03401906 0.032571435 0.75999999 2.0101541e-38
0.035513356 0.032614283 0.76100004 1.9452961e-38
0.036962882 0.032614276 0.76100004 1.8720067e-38
0.038513348 0.032699987 0.76300001 1.8443122e-38
0.040071424 0.032785706 0.76500005 1.8075416e-38
0.041528583 0.032785706 0.76499999 1.7798109e-38
-0.021128552 0.034242846 0.76500005 1.289914e-38
-0.019671423 0.034242846 0.76500005 1.503659e-38
-0.018166671 0.034153327 0.76300001 1.7233721e-38
-0.016713325 0.03415332 0.76300001 8.6527364e-39
-0.015219986 0.034063786 0.76100004 9.233576e-41
-0.013752368 0.034019038 0.76000005 2.5783808e-39
-0.012272382 0.033929519 0.75800002 4.9739818e-39
-0.010800002 0.033839978 0.75600004 5.3448957e-39
-0.009347599 0.03379523 0.75500005 5.6214938e-39
-0.0079200072 0.033839986 0.75600004 2.9496702e-39
-0.006471422 0.03379523 0.75500011 2.8794581e-40
-0.0050200042 0.033705704 0.75299996 9.8733458e-39
-0.0035857386 0.033705711 0.75299996 1.9464438e-38
-0.0021428498 0.033571422 0.75000006 2.0659755e-38
-0.00071426987 0.033571437 0.75 2.1856487e-38
0.00071431656 0.033571422 0.75000006 2.2681571e-38
0.0021428824 0.033571422 0.75000006 2.341769e-38
0.0035714484 0.033571422 0.75000006 2.341769e-38
0.0050000153 0.03357143 0.75000006 2.341769e-38
0.0064114411 0.033481903 0.74800003 2.341769e-38
0.007836218 0.033481896 0.74800003 2.341769e-38
0.0092609758 0.033481896 0.74800003 2.3325854e-38
0.010671462 0.033437133 0.74700004 2.3325854e-38
0.012110496 0.033481896 0.74800003 2.3325854e-38
0.013535252 0.033481888 0.74800003 2.341769e-38
0.01496003 0.033481903 0.74800003 2.341769e-38
0.016384786 0.033481896 0.74800003 2.341769e-38
0.017809542 0.033481903 0.74800003 2.341769e-38
0.019285729 0.03357143 0.75 2.341769e-38
0.020714315 0.033571415 0.75000006 2.3048554e-38
0.022142882 0.033571422 0.75000006 2.2675782e-38
0.023634292 0.033660948 0.75199997 2.0271866e-38
0.025166687 0.033795238 0.75500005 1.776427e-38
0.026604787 0.03379523 0.75500005 1.6087499e-38
0.028042855 0.03379523 0.75500005 1.4349829e-38
0.029598104 0.033929534 0.75800002 1.5009208e-38
0.03104192 0.033929519 0.75800002 1.5677587e-38
0.032571446 0.034019038 0.76000005 1.7248537e-38
0.034019064 0.034019053 0.75999999 1.8813692e-38
0.035513349 0.034063794 0.76100004 1.8257303e-38
0.036962889 0.034063801 0.76100004 1.7703423e-38
0.03851334 0.03415332 0.76300001 1.7428278e-38
0.04007142 0.034242861 0.76499999 1.7150963e-38
-0.022585711 0.035699986 0.76500005 1.1223036e-38
-0.021128582 0.035699978 0.76500005 1.2905967e-38
-0.019671427 0.035699986 0.76500005 1.4963058e-38
-0.018166656 0.03560666 0.76300001 1.6857784e-38
-0.016713336 0.035606652 0.76300001 8.4493589e-39
-0.015260017 0.03560666 0.76300001 9.3421766e-41
-0.013770467 0.035513319 0.76100004 2.7577456e-39
-0.012304743 0.035466656 0.76000005 5.3488641e-39
-0.010828574 0.03537333 0.75800002 5.4424877e-39
-0.0093600024 0.035280012 0.75600004 5.5332582e-39
-0.007919996 0.035280004 0.75600004 2.8478e-39
-0.0064714001 0.035233326 0.75500011 1.1433334e-40
-0.0050333175 0.035233326 0.75500005 8.7645221e-39
-0.0035952427 0.035233319 0.75500005 1.7432223e-38
-0.0021485561 0.035093322 0.75200003 1.891021e-38
-0.00071616698 0.035093315 0.75200003 2.0289178e-38
0.00071431097 0.034999996 0.75000006 2.1851099e-38
0.0021428787 0.034999996 0.75000006 2.3416251e-38
0.0035714447 0.035000011 0.75000006 2.341769e-38
0.0050000097 0.034999996 0.75 2.341769e-38
0.0064285961 0.035000004 0.75000006 2.341769e-38
0.0078362208 0.034906663 0.74800003 2.341769e-38
0.0092609785 0.034906663 0.74800003 2.341769e-38
0.010685735 0.034906663 0.74800003 2.341769e-38
0.012110512 0.034906656 0.74800003 2.341769e-38
0.013535255 0.034906663 0.74800003 2.341769e-38
0.014960011 0.03490667 0.74800003 2.341769e-38
0.01638479 0.034906663 0.74800003 2.341769e-38
0.017809546 0.034906663 0.74800003 2.341769e-38
0.019285744 0.034999989 0.75000006 2.341769e-38
0.020714311 0.035000011 0.75000006 2.341769e-38
0.022201911 0.035093322 0.75200003 2.3413707e-38
0.023728592 0.035233326 0.75500005 2.0745059e-38
0.025166694 0.035233319 0.75500005 1.8038349e-38
0.026604794 0.035233326 0.75500011 1.6071704e-38
0.028080005 0.035279997 0.75600004 1.4168312e-38
0.029598095 0.035373345 0.75799996 1.5190382e-38
0.031123828 0.035466649 0.76000005 1.6225011e-38
0.032571446 0.035466671 0.75999999 1.6881894e-38
0.034063846 0.035513312 0.76100004 1.7431847e-38
0.035513353 0.035513327 0.76100004 1.70595e-38
0.036962867 0.035513319 0.76100004 1.6599951e-38
0.03851334 0.03560666 0.76300001 1.6415551e-38
0.040333346 0.035933323 0.77000004 1.623116e-38
0.041800026 0.035933323 0.77000004 1.5860228e-38
-0.022585714 0.037157141 0.76499999 1.0956514e-38
-0.021128586 0.037157133 0.76499999 1.2814144e-38
-0.019671431 0.037157141 0.76499999 1.4671774e-38
-0.018214302 0.037157133 0.76499999 1.6590544e-38
-0.016713345 0.037059993 0.76300001 8.2811358e-39
-0.015219988 0.036962852 0.76100004 9.4867906e-41
-0.013770458 0.036962837 0.76100004 4.8010826e-39
-0.012304744 0.036914289 0.75999999 9.5072972e-39
-0.010828555 0.036817148 0.75799996 9.5037127e-39
-0.00936002 0.036720008 0.75600004 9.5987852e-39
-0.0079200119 0.036719993 0.75600004 7.9339165e-39
-0.0064800051 0.036719993 0.75600004 6.280956e-39
-0.0050333235 0.036671422 0.75500005 1.328385e-38
-0.0035952209 0.036671422 0.75500005 2.0293478e-38
-0.0021514366 0.036574289 0.75299996 2.1024929e-38
-0.00071619119 0.036525697 0.75199997 2.184535e-38
0.00071618386 0.036525704 0.75199997 2.2679045e-38
0.0021428741 0.036428571 0.75000006 2.3417683e-38
0.00357144 0.036428578 0.75000006 2.341769e-38
0.0050000059 0.036428578 0.75 2.341769e-38
0.0064286073 0.036428571 0.75000006 2.341769e-38
0.0078571737 0.036428571 0.75000006 2.341769e-38
0.0092609804 0.036331415 0.74800003 2.341769e-38
0.010685738 0.036331423 0.74800003 2.341769e-38
0.012110515 0.036331423 0.74800003 2.341769e-38
0.013535256 0.036331415 0.74800003 2.341769e-38
0.014960014 0.036331423 0.74800003 2.341769e-38
0.016384793 0.036331408 0.74800003 2.341769e-38
0.017809547 0.036331423 0.74800003 2.341769e-38
0.019285742 0.036428556 0.75000006 2.341769e-38
0.020714307 0.036428578 0.75000006 2.341769e-38
0.022201916 0.036525704 0.75199997 2.3417666e-38
0.02363429 0.036525697 0.75199997 2.0642487e-38
0.02516669 0.036671415 0.75500011 1.7755675e-38
0.026604773 0.03667143 0.75500005 1.5813762e-38
0.028080005 0.036719993 0.75600004 1.3815679e-38
0.029520012 0.036719993 0.75600004 1.4927445e-38
0.031123813 0.036914282 0.75999999 1.5955959e-38
0.03257145 0.036914282 0.76000005 1.6694617e-38
0.034063838 0.036962837 0.7610001 1.7338929e-38
0.035513364 0.036962844 0.76100004 1.7152414e-38
0.037254285 0.037254281 0.76699996 1.6966206e-38
0.038765728 0.037302852 0.76800001 1.7059808e-38
0.040228602 0.037302844 0.76800001 1.7242773e-38
0.041800022 0.0374 0.77000004 1.6689617e-38
0.04326668 0.0374 0.77000004 1.6131413e-38
-0.022674272 0.038765699 0.76800001 1.0758853e-38
-0.021128567 0.038614269 0.76500005 1.2630469e-38
-0.019671412 0.038614262 0.76500005 1.4502085e-38
-0.018214284 0.038614262 0.76500005 1.6213511e-38
-0.016713329 0.038513321 0.76300001 8.1738706e-39
-0.01526001 0.038513333 0.76300001 1.0995148e-40
-0.013770449 0.038412355 0.7610001 6.8448189e-39
-0.012320939 0.038412366 0.76100004 1.3552065e-38
-0.010828543 0.038260948 0.75800002 1.3649308e-38
-0.0093847467 0.038260948 0.75800002 1.3647874e-38
-0.0079409312 0.038260959 0.75800002 1.3007536e-38
-0.0064799939 0.038159989 0.75600004 1.2364016e-38
-0.0050399862 0.038159993 0.75600004 1.7704153e-38
-0.0035999999 0.038159985 0.75600004 2.304496e-38
-0.0021514236 0.038008567 0.75300002 2.3234012e-38
-0.00071715791 0.038008559 0.75300002 2.3414813e-38
0.00071620807 0.037958086 0.75200003 2.3417683e-38
0.0021485831 0.037958082 0.75200003 2.3417686e-38
0.0035714502 0.037857156 0.75 2.341769e-38
0.0050000367 0.037857141 0.75000006 2.341769e-38
0.0064286017 0.037857145 0.75000006 2.341769e-38
0.0078571681 0.037857149 0.75000006 2.341769e-38
0.009285734 0.037857145 0.75000006 2.341769e-38
0.0107143 0.037857138 0.75 2.341769e-38
0.012142888 0.037857145 0.75000006 2.341769e-38
0.013535274 0.037756175 0.74800003 2.341769e-38
0.014960017 0.037756193 0.74800003 2.341769e-38
0.016428586 0.037857149 0.75 2.341769e-38
0.017857173 0.037857134 0.75000006 2.341769e-38
0.019285752 0.037857138 0.75000006 2.341769e-38
0.020714303 0.037857149 0.75000006 2.341769e-38
0.022290504 0.038109519 0.75500005 2.3414792e-38
0.023728594 0.038109515 0.75500011 2.0467419e-38
0.025166677 0.038109519 0.75500005 1.7481242e-38
0.026604781 0.038109526 0.75500005 1.5428845e-38
0.028080001 0.038159989 0.75600004 1.3442597e-38
0.029715266 0.038412362 0.76100004 1.4564407e-38
0.031164775 0.038412377 0.76100004 1.5677593e-38
0.032614306 0.03841237 0.76100004 1.650989e-38
0.034063827 0.038412381 0.76100004 1.7245664e-38
0.03560666 0.038513325 0.76300001 1.7245321e-38
0.037302874 0.038765699 0.76800001 1.7244946e-38
0.038765743 0.038765691 0.76800001 1.7705904e-38
0.040333353 0.038866665 0.77000004 1.8165087e-38
0.041691456 0.038765691 0.76800001 1.7524037e-38
-0.022674257 0.040228553 0.76800001 1.0862885e-38
-0.021183813 0.04017619 0.76699996 1.2629748e-38
-0.019722847 0.040176183 0.76699996 1.4301187e-38
-0.018214287 0.040071413 0.76500005 1.5944455e-38
-0.01671334 0.039966661 0.76300001 8.0092083e-39
-0.015260022 0.039966661 0.76300001 1.1212069e-40
-0.013770459 0.039861903 0.76100004 6.3734824e-39
-0.01232093 0.039861888 0.7610001 1.254373e-38
-0.010857128 0.03980951 0.75999999 1.2730679e-38
-0.009384755 0.039704766 0.75799996 1.2917929e-38
-0.0079409387 0.039704762 0.75800002 1.1998129e-38
-0.0064799818 0.039599996 0.75600004 1.1085887e-38
-0.005040003 0.039599989 0.75600004 1.7158881e-38
-0.0036000162 0.039600004 0.75600004 2.3234018e-38
-0.0021571317 0.039547604 0.75500011 2.3325854e-38
-0.00071716442 0.039442856 0.75299996 2.341769e-38
0.00071619783 0.039390467 0.75200003 2.3234019e-38
0.0021485728 0.039390471 0.75200003 2.3142183e-38
0.0035714661 0.039285716 0.75000006 2.3234019e-38
0.005000033 0.039285712 0.75000006 2.3325854e-38
0.0064285989 0.039285723 0.75000006 2.341769e-38
0.0078571653 0.039285719 0.75000006 2.341769e-38
0.0092857312 0.039285712 0.75 2.341769e-38
0.010714317 0.039285704 0.75000006 2.341769e-38
0.012142883 0.039285716 0.75000006 2.341769e-38
0.013535277 0.039180931 0.74800003 2.341769e-38
0.014960019 0.039180953 0.74800003 2.2957436e-38
0.016428581 0.039285719 0.75 2.2499335e-38
0.017857166 0.039285712 0.75000006 2.2958513e-38
0.019337153 0.03939046 0.75200003 2.341769e-38
0.020769527 0.039390471 0.75200003 2.341769e-38
0.0222905 0.0395476 0.75500011 2.3417658e-38
0.023728581 0.039547622 0.75500005 1.9810571e-38
0.025166685 0.039547615 0.75500005 1.627267e-38
0.026640005 0.039599985 0.75600004 1.4433723e-38
0.028080015 0.0396 0.75600004 1.2624329e-38
0.029715264 0.039861884 0.76100004 1.4381093e-38
0.031164788 0.039861895 0.76100004 1.613929e-38
0.032700002 0.039966658 0.76300001 1.6695015e-38
0.034153335 0.039966658 0.76300001 1.7244953e-38
0.035699993 0.040071428 0.76499999 1.7153119e-38
0.037254289 0.04017619 0.76699996 1.7062717e-38
0.038765747 0.040228553 0.76800001 1.733858e-38
0.04033336 0.040333327 0.77000004 1.761588e-38
-0.022792367 0.04190857 0.77200001 1.0943606e-38
-0.021211421 0.041691411 0.76800001 1.2628673e-38
-0.019748552 0.041691426 0.76800001 1.4220112e-38
-0.018214291 0.041528564 0.76499999 1.5659617e-38
-0.016757134 0.041528564 0.76499999 7.8983529e-39
-0.015259983 0.041419975 0.76300001 1.0387545e-40
-0.01377045 0.041311413 0.76100004 5.8092159e-39
-0.01232094 0.041311417 0.76100004 1.1527438e-38
-0.010857129 0.041257136 0.75999999 1.1902702e-38
-0.0093847439 0.041148562 0.75800002 1.2177131e-38
-0.007940948 0.041148577 0.75799996 1.0980398e-38
-0.0064799981 0.041039992 0.75600004 9.7044052e-39
-0.0050399913 0.041039996 0.75600004 1.661074e-38
-0.0036000041 0.041040003 0.75600004 2.3414819e-38
-0.0021571298 0.040985711 0.75500005 2.341769e-38
-0.000719028 0.040985718 0.75500005 2.3417682e-38
0.00071714219 0.040877126 0.75300002 2.3142168e-38
0.0021485626 0.040822852 0.75199997 2.2770163e-38
0.0035809516 0.040822852 0.75199997 2.3050334e-38
0.0050133471 0.040822834 0.75200003 2.3230781e-38
0.0064285952 0.040714301 0.75000006 2.3325849e-38
0.0078571616 0.040714286 0.75000006 2.341409e-38
0.009285748 0.040714279 0.75000006 2.3417672e-38
0.010714314 0.040714275 0.75000006 2.3416604e-38
0.01214288 0.040714286 0.75000006 2.341769e-38
0.013571446 0.04071429 0.75000006 2.3416604e-38
0.015000012 0.040714301 0.75 2.2494653e-38
0.016428612 0.040714286 0.75000006 2.148231e-38
0.017928569 0.040877122 0.75300002 2.2498958e-38
0.019362861 0.04087713 0.75300002 2.3416605e-38
0.020797143 0.040877122 0.75300002 2.341769e-38
0.022290485 0.040985703 0.75500005 2.3413347e-38
0.023728589 0.040985718 0.75500005 1.9268157e-38
0.025166677 0.040985711 0.75500005 1.4992695e-38
0.026640007 0.041039996 0.75600004 1.3408445e-38
0.028080011 0.041039992 0.75600004 1.1790625e-38
0.029715275 0.041311398 0.7610001 1.419563e-38
0.031246671 0.041420002 0.76300001 1.6597746e-38
0.032700006 0.04141999 0.76300001 1.6977688e-38
0.034242868 0.04152856 0.76500005 1.7246739e-38
0.035700008 0.041528564 0.76500005 1.7059483e-38
0.0372543 0.041637134 0.76699996 1.6784691e-38
0.038765725 0.041691419 0.76800001 1.6877602e-38
-0.022733321 0.043266661 0.77000004 1.1049437e-38
-0.021211406 0.043154273 0.76800001 1.2354245e-38
-0.019748563 0.043154281 0.76800001 1.4023883e-38
-0.018214272 0.042985689 0.76500005 1.5575311e-38
-0.016713334 0.04287333 0.76300001 7.8208597e-39
-0.015260015 0.042873327 0.76300001 9.5272881e-41
-0.013770441 0.042760942 0.76100004 5.8182038e-39
-0.012304742 0.042704757 0.76000005 1.1446005e-38
-0.010828569 0.042592403 0.75799996 1.1808332e-38
-0.0093847523 0.042592384 0.75800002 1.2263929e-38
-0.0079409359 0.042592373 0.75800002 1.0793131e-38
-0.0064971405 0.042592376 0.75800002 9.3234272e-39
-0.0050399792 0.042479992 0.75600004 1.6332722e-38
-0.003599993 0.042479999 0.75600004 2.3417689e-38
-0.0021571363 0.042423807 0.75500005 2.3234019e-38
-0.00071903359 0.0424238 0.75500005 2.3050333e-38
0.00071714405 0.042311423 0.75300002 2.1108856e-38
0.0021514171 0.042311426 0.75299996 1.9266408e-38
0.0035809618 0.04225523 0.75200003 1.9822086e-38
0.0050133378 0.042255227 0.75200003 2.0373467e-38
0.0064457119 0.042255234 0.75200003 2.0101198e-38
0.0078571578 0.042142857 0.75 1.9912851e-38
0.0092857443 0.042142849 0.75000006 2.0834061e-38
0.01071431 0.042142846 0.75000006 2.1852522e-38
0.012142876 0.042142864 0.75000006 2.2498259e-38
0.013571442 0.042142861 0.75000006 2.3234001e-38
0.015000029 0.042142861 0.75000006 2.0555685e-38
0.016472381 0.04225523 0.75199997 1.79764e-38
0.017928561 0.042311426 0.75299996 1.9912838e-38
0.019362843 0.042311423 0.75299996 2.194364e-38
0.020797135 0.042311434 0.75299996 2.268193e-38
0.022290492 0.0424238 0.75500005 2.3417647e-38
0.023728581 0.042423796 0.75500005 1.8608435e-38
0.025166685 0.042423807 0.75500005 1.3775858e-38
0.026640004 0.042479999 0.75600004 1.2414376e-38
0.028080007 0.042479988 0.75600004 1.1157811e-38
0.02971526 0.042760953 0.76100004 1.3829723e-38
0.031246675 0.042873334 0.76300001 1.6598819e-38
0.032700006 0.04287333 0.76300001 1.7064134e-38
0.034153327 0.042873327 0.76300001 1.7521162e-38
0.035700005 0.042985704 0.76500005 1.7059833e-38
0.037254311 0.043098092 0.76700002 1.6690338e-38
0.03876574 0.043154277 0.76800001 1.6507024e-38
-0.025966676 0.045256183 0.77899998 1.0410566e-38
-0.024482878 0.045256186 0.77899998 1.0314772e-38
-0.022733327 0.044733338 0.77000004 1.1227376e-38
-0.021266649 0.044733323 0.77000004 1.2080176e-38
-0.019722847 0.044559035 0.76700002 1.3854202e-38
-0.018214276 0.04444284 0.76500005 1.5474843e-38
-0.016713344 0.044326663 0.76300001 7.806467e-39
-0.015259997 0.044326663 0.76299995 1.1175636e-40
-0.013770452 0.044210467 0.76100004 5.7389338e-39
-0.012304743 0.044152386 0.75999999 1.1346999e-38
-0.010857117 0.044152375 0.76000005 1.1804384e-38
-0.0093847616 0.044036198 0.75800002 1.2267882e-38
-0.0079409443 0.044036187 0.75800002 1.0604456e-38
-0.0064971489 0.044036202 0.75799996 8.8789676e-39
-0.005039996 0.043919988 0.75600004 1.6162684e-38
-0.0036000088 0.043919988 0.75600004 2.341769e-38
-0.0021571429 0.0438619 0.75500005 2.3050348e-38
-0.00071904011 0.043861892 0.75500005 2.2580742e-38
0.0007171366 0.043745715 0.75299996 1.9159845e-38
0.0021514161 0.0437457 0.75299996 1.5678348e-38
0.0035809516 0.043687616 0.75199997 1.6597781e-38
0.0050133257 0.043687616 0.75199997 1.752332e-38
0.0064457017 0.043687608 0.75199997 1.6975545e-38
0.0078571727 0.043571427 0.75000006 1.6324792e-38
0.0093104867 0.043687608 0.75200003 1.8245076e-38
0.010742876 0.043687612 0.75200003 2.0193735e-38
0.012142871 0.043571435 0.75000006 2.158098e-38
0.013607626 0.043687604 0.75200003 2.2949515e-38
0.01504 0.043687601 0.75200003 1.8700659e-38
0.01647239 0.043687616 0.75200003 1.4389425e-38
0.017976211 0.043861896 0.75500005 1.7416062e-38
0.019414296 0.043861892 0.75500005 2.0377416e-38
0.02079715 0.043745708 0.75300002 2.1948322e-38
0.022290485 0.043861896 0.75500005 2.3410808e-38
0.023728589 0.043861907 0.75500005 1.7971283e-38
0.025200007 0.043920003 0.75600004 1.251058e-38
0.02664 0.043919992 0.75600004 1.1499236e-38
0.028154315 0.044036176 0.75800002 1.0414159e-38
0.029715255 0.044210464 0.76100004 1.3457734e-38
0.031246683 0.04432667 0.76300001 1.6506281e-38
0.032699998 0.044326663 0.76300001 1.7159215e-38
0.034242861 0.044442847 0.76499999 1.7704843e-38
0.035700005 0.04444284 0.76499999 1.7152391e-38
0.037254289 0.044559043 0.76699996 1.6599587e-38
0.038765743 0.044617139 0.76800001 1.622866e-38
-0.025966676 0.046739984 0.77900004 1.0224749e-38
-0.02448285 0.046739995 0.77900004 9.6726476e-39
-0.022733307 0.046199992 0.76999998 1.1048733e-38
-0.021266656 0.046199996 0.77000004 1.2445369e-38
-0.019722844 0.046020001 0.76699996 1.3930971e-38
-0.018261904 0.046019997 0.76699996 1.5388007e-38
-0.016757151 0.045899987 0.76499999 1.0401134e-38
-0.015259987 0.045779984 0.76300001 5.3567661e-39
-0.01377047 0.045659989 0.76100004 8.1281e-39
-0.012320932 0.04566 0.76100004 1.0887824e-38
-0.010857146 0.045599997 0.75999999 1.3466389e-38
-0.0094094928 0.04559999 0.76000005 1.5959605e-38
-0.0079409536 0.045480002 0.75800002 1.5864567e-38
-0.0064971372 0.045479994 0.75800002 1.5771662e-38
-0.0050533414 0.045480005 0.75800002 1.9554859e-38
-0.0035999971 0.045360006 0.75600004 2.341769e-38
-0.0021571205 0.045299996 0.75500005 2.2773048e-38
-0.00071901776 0.045299988 0.75500005 2.203223e-38
0.00071713753 0.045179989 0.75300002 1.9170228e-38
0.0021485868 0.045119986 0.75200003 1.6229343e-38
0.0035809618 0.045119978 0.75200003 1.7150569e-38
0.0050133369 0.045119993 0.75200003 1.8074675e-38
0.0064457259 0.04511999 0.75200003 1.7248165e-38
0.0078781005 0.045119993 0.75200003 1.6501991e-38
0.0093104765 0.045119993 0.75200003 1.8527383e-38
0.010742866 0.04511999 0.75199997 2.0656852e-38
0.012175241 0.045120001 0.75199997 2.1854693e-38
0.013625704 0.045179997 0.75299996 2.3048156e-38
0.015059983 0.045180004 0.75299996 1.8801441e-38
0.016494276 0.04518 0.75299996 1.4668509e-38
0.017976219 0.045299988 0.75500011 1.7887438e-38
0.01936285 0.045180004 0.75299996 2.1211828e-38
0.020852393 0.045299999 0.75500005 2.2315305e-38
0.022290492 0.045299992 0.75500005 2.3417603e-38
0.023728596 0.045299988 0.75500005 1.8238854e-38
0.025200004 0.045359999 0.75600004 1.3041117e-38
0.026640013 0.045359988 0.75600004 1.1958398e-38
0.028154306 0.045479991 0.75800002 1.0868674e-38
0.029715268 0.045659985 0.76100004 1.3735767e-38
0.031246683 0.045779988 0.76300001 1.6604591e-38
0.032785736 0.04589998 0.76500005 1.6603914e-38
0.034242865 0.045899987 0.76500005 1.6690716e-38
0.035700005 0.04589998 0.76500005 1.8251191e-38
0.037254296 0.046019986 0.76699996 1.9908543e-38
0.038765743 0.046079978 0.76800001 1.9728108e-38
-0.025966669 0.048223797 0.77900004 1.0042167e-38
-0.024419969 0.048099991 0.77700001 9.0262132e-39
-0.022880955 0.047976185 0.77500004 1.0941463e-38
-0.021321904 0.047790464 0.77200001 1.2812348e-38
-0.019722844 0.047480945 0.76699996 1.4128274e-38
-0.018261882 0.047480952 0.76699996 1.5292631e-38
-0.016757155 0.047357138 0.76499999 1.2961859e-38
-0.015259998 0.047233321 0.76300001 1.0599689e-38
-0.013806651 0.047233321 0.76300001 1.0529103e-38
-0.012353333 0.047233324 0.76300001 1.0430101e-38
-0.010871393 0.047109503 0.7610001 1.5030135e-38
-0.0094095217 0.047047619 0.75999999 1.9639859e-38
-0.0079618962 0.047047608 0.76000005 2.1121797e-38
-0.0064971456 0.046923816 0.75800002 2.2585428e-38
-0.0050533013 0.046923809 0.75800002 2.3050348e-38
-0.0036000139 0.046799995 0.75600004 2.341769e-38
-0.002157127 0.046738088 0.75500005 2.2499335e-38
-0.00071714952 0.046614286 0.75299996 2.147727e-38
0.00071713008 0.046614278 0.75299996 1.9166995e-38
0.0021485756 0.046552371 0.75199997 1.6781791e-38
0.0035809507 0.046552368 0.75199997 1.770087e-38
0.0050199819 0.046614278 0.75299996 1.8627126e-38
0.0064457147 0.046552375 0.75199997 1.7624118e-38
0.0078780912 0.046552371 0.75199997 1.6597067e-38
0.0093104653 0.046552368 0.75199997 1.8889726e-38
0.010757131 0.046614282 0.75300002 2.1113531e-38
0.012191423 0.046614278 0.75299996 2.2131993e-38
0.013625704 0.046614274 0.75300002 2.3039544e-38
0.015059997 0.046614286 0.75300002 1.8972194e-38
0.016494276 0.046614278 0.75300002 1.4850026e-38
0.017976196 0.046738092 0.75500005 1.84363e-38
0.019414296 0.046738088 0.75500005 2.2034044e-38
0.0208524 0.046738081 0.75500005 2.2774842e-38
0.022290504 0.046738088 0.75500005 2.3411187e-38
0.023760013 0.046799991 0.75600004 1.8524846e-38
0.025200002 0.046799995 0.75600004 1.3632396e-38
0.026640009 0.046799999 0.75600004 1.2517041e-38
0.028154301 0.046923809 0.75800002 1.1337579e-38
0.029715257 0.047109514 0.76100004 1.4011623e-38
0.031246686 0.047233324 0.76300001 1.6691041e-38
0.032785717 0.047357131 0.76500005 1.614402e-38
0.034153335 0.047233332 0.76300001 1.5587977e-38
0.035700001 0.047357135 0.76500005 1.9345333e-38
0.037157144 0.047357127 0.76500005 2.312961e-38
0.03876574 0.047542848 0.76800001 2.3325845e-38
-0.025966685 0.049707603 0.77899998 1.0411673e-38
-0.024419969 0.049580008 0.77700001 9.5815324e-39
-0.022880934 0.049452372 0.77500004 1.1047997e-38
-0.021321902 0.049260944 0.77200001 1.2539706e-38
-0.019748552 0.049005691 0.76800001 1.3838775e-38
-0.018261904 0.048941907 0.76699996 1.5110442e-38
-0.016757136 0.048814282 0.76500005 1.0589656e-38
-0.015299981 0.048814278 0.76500005 6.203474e-39
-0.013806663 0.04868665 0.76300001 7.9462353e-39
-0.012353344 0.048686661 0.76300001 9.6807275e-39
-0.010871404 0.04855904 0.76100004 1.4295482e-38
-0.0094218738 0.048559036 0.7610001 1.9009227e-38
-0.0079618962 0.048495237 0.75999999 2.0846296e-38
-0.0064971265 0.048367616 0.75799996 2.2683006e-38
-0.0050533102 0.04836762 0.75800002 2.3050348e-38
-0.0036095139 0.048367623 0.75799996 2.341769e-38
-0.0021571335 0.048176181 0.75500011 2.2036929e-38
-0.0007190308 0.048176177 0.75500011 2.074079e-38
0.00071714498 0.048048574 0.75300002 1.8526295e-38
0.0021514245 0.048048567 0.75300002 1.6325126e-38
0.0035857181 0.04804856 0.75300002 1.7612986e-38
0.0050199977 0.048048556 0.75300002 1.890407e-38
0.006445725 0.047984738 0.75200003 1.7245655e-38
0.0078781005 0.047984749 0.75200003 1.566868e-38
0.0093104895 0.047984745 0.75200003 1.8528506e-38
0.010757144 0.048048567 0.75300002 2.1489135e-38
0.012191437 0.04804856 0.75300002 2.1947246e-38
0.013625717 0.048048552 0.75300002 2.240351e-38
0.015059995 0.048048563 0.75300002 1.8801433e-38
0.0165381 0.048176181 0.75500005 1.512876e-38
0.017976204 0.048176188 0.75500005 1.88101e-38
0.019414304 0.048176184 0.75500005 2.2407484e-38
0.020852393 0.048176192 0.75500005 2.2958513e-38
0.022320004 0.048239995 0.75600004 2.3417684e-38
0.023760015 0.048239987 0.75600004 1.9086344e-38
0.025200002 0.048240006 0.75600004 1.4762493e-38
0.026710495 0.048367616 0.75800002 1.2997838e-38
0.028154291 0.048367631 0.75799996 1.1259419e-38
0.029715264 0.048559032 0.76100004 1.4203176e-38
0.031246675 0.048686657 0.76300001 1.7248507e-38
0.032785717 0.048814282 0.76500005 1.6787586e-38
0.034153335 0.048686668 0.76300001 1.6324819e-38
0.035700001 0.048814271 0.76499999 1.8716125e-38
0.037157144 0.048814278 0.76499999 2.1121794e-38
0.038614284 0.048814274 0.76499999 2.2223829e-38
-0.025966657 0.051191408 0.77900004 1.0779333e-38
-0.024419969 0.051059991 0.77700001 1.0129657e-38
-0.02293998 0.051059999 0.77700001 1.122091e-38
-0.021349497 0.050797131 0.773 1.2263849e-38
-0.019748537 0.050468553 0.76800001 1.3576554e-38
-0.018261906 0.050402846 0.76699996 1.4830251e-38
-0.01675714 0.050271418 0.76500005 8.2657342e-39
-0.015300012 0.050271425 0.76500005 1.7716518e-39
-0.013806645 0.05013999 0.76300001 5.3712247e-39
-0.012353326 0.050139993 0.76300001 8.9535601e-39
-0.010900008 0.050139993 0.76300001 1.3645456e-38
-0.009421885 0.050008565 0.76100004 1.8260909e-38
-0.0079618776 0.049942851 0.75999999 2.0570788e-38
-0.0064971149 0.049811434 0.75800002 2.2773765e-38
-0.005053319 0.049811438 0.75800002 2.3142183e-38
-0.0036095022 0.049811423 0.75800002 2.341769e-38
-0.0021571112 0.049614266 0.75500011 2.1672816e-38
-0.00071902893 0.049614284 0.75500005 1.990996e-38
0.00071905978 0.049614273 0.75500005 1.7872672e-38
0.002151418 0.04948286 0.75299996 1.5863069e-38
0.0035856976 0.049482848 0.75299996 1.7521147e-38
0.0050199903 0.049482845 0.75299996 1.9084867e-38
0.0064542689 0.049482856 0.75299996 1.6969786e-38
0.0078885648 0.049482848 0.75299996 1.4756778e-38
0.0093228435 0.04948286 0.75299996 1.8250487e-38
0.010757136 0.049482856 0.75299996 2.1758541e-38
0.012191417 0.049482848 0.75299996 2.1764651e-38
0.01362571 0.049482845 0.75299996 2.1753847e-38
0.015059991 0.049482852 0.75299996 1.8609158e-38
0.016538108 0.049614277 0.75500005 1.5403912e-38
0.017976211 0.049614284 0.75500005 1.9084176e-38
0.0194143 0.04961428 0.75500005 2.2770524e-38
0.0208524 0.049614269 0.75500005 2.3142183e-38
0.02232 0.049679991 0.75600004 2.3414815e-38
0.023760011 0.049679983 0.75600004 1.9640584e-38
0.025199998 0.049680002 0.75600004 1.5765509e-38
0.026710486 0.049811427 0.75800002 1.3451994e-38
0.028154302 0.049811419 0.75800002 1.1073621e-38
0.029715272 0.050008565 0.76100004 1.4385102e-38
0.031246679 0.050139993 0.76300001 1.7705548e-38
0.032785714 0.050271414 0.76499999 1.7432931e-38
0.034153327 0.050140001 0.76300001 1.706164e-38
