# .PCD v0.7 - Point Cloud Data file format
VERSION 0.7
FIELDS x y z rgb
SIZE 4 4 4 4
TYPE F F F F
COUNT 1 1 1 1
WIDTH 954
HEIGHT 1
VIEWPOINT 0 0 0 1 0 0 0
POINTS 954
DATA ascii
0.01474003 -0.009124741 0.73699999 6.1657637e-39
0.016121944 -0.0091123655 0.736 9.2322714e-39
0.01754766 -0.009124741 0.73699999 1.1999237e-38
0.018951457 -0.009124741 0.73700005 1.4761822e-38
0.02035526 -0.0091247559 0.73699999 1.4020667e-38
0.021759085 -0.0091247484 0.73699999 1.3289563e-38
0.023225747 -0.0091495141 0.73900002 1.4663858e-38
0.024633368 -0.0091495141 0.73900002 1.6039977e-38
0.026076222 -0.009161897 0.74000001 1.5304955e-38
0.027560027 -0.0091866553 0.74199998 1.4651698e-38
0.02897333 -0.0091866553 0.74200004 1.4104267e-38
0.030427616 -0.0091990232 0.74300003 1.3558601e-38
0.031842873 -0.0091990307 0.74300003 1.2360041e-38
0.033258133 -0.0091990307 0.74299997 1.1158959e-38
0.034766689 -0.0092237964 0.74500006 1.0963402e-38
0.036185764 -0.0092237964 0.745 1.0775055e-38
0.037756182 -0.0092609525 0.74800003 1.050384e-38
0.039180946 -0.009260945 0.74800003 1.0230102e-38
0.040714309 -0.0092857108 0.75000006 9.9552881e-39
0.04225526 -0.009310469 0.75200003 9.6808508e-39
0.043745734 -0.0093228295 0.75299996 9.4943016e-39
0.045360021 -0.009359993 0.75599998 9.3066957e-39
0.046800032 -0.009359993 0.75600004 9.8623834e-39
0.048367664 -0.0093847439 0.75799996 1.0415518e-38
0.049811441 -0.0093847439 0.75799996 1.0232175e-38
-0.025499977 -0.0080142915 0.76500005 1.2711524e-38
-0.023980001 -0.0079933405 0.76300001 1.3729611e-38
-0.022467613 -0.007972382 0.76100004 1.4557929e-38
-0.020990439 -0.007961899 0.76000005 1.5390954e-38
-0.019439956 -0.007919997 0.75599998 1.6870058e-38
-0.017976133 -0.007909514 0.755 1.8248675e-38
-0.016494267 -0.0078885481 0.75299996 2.0008266e-38
-0.015039975 -0.0078780875 0.75199997 2.1661314e-38
-0.01357141 -0.0078571439 0.75000006 2.0657949e-38
-0.012094248 -0.0078257099 0.74700004 1.9518867e-38
-0.01067138 -0.007825695 0.74699998 1.8551619e-38
-0.0092237508 -0.0078047439 0.745 1.7589236e-38
-0.0077838078 -0.0077837929 0.74300003 1.8802564e-38
-0.0063685514 -0.0077837929 0.74300003 1.9905324e-38
-0.0049533201 -0.0077837929 0.74299997 2.1672816e-38
-0.0035380917 -0.0077838078 0.74300003 2.3404316e-38
-0.0021142596 -0.0077523738 0.74000001 1.9971146e-38
-0.00070474209 -0.0077523813 0.74000001 1.6450158e-38
0.00070480158 -0.0077523738 0.73999995 1.7359874e-38
0.0021143146 -0.0077523813 0.74000001 1.8197871e-38
0.0035190675 -0.0077418983 0.73900002 1.838513e-38
0.004913372 -0.0077209324 0.73699999 1.8475166e-38
0.0063343048 -0.0077418983 0.73900002 1.67145e-38
0.0077210004 -0.0077209249 0.73699999 1.4998424e-38
0.0091248024 -0.0077209324 0.73699999 1.8362359e-38
0.010528601 -0.0077209398 0.73699999 2.1653354e-38
0.011932403 -0.0077209324 0.73699999 1.1242924e-38
0.013336229 -0.0077209324 0.73699999 8.36812e-40
0.014740032 -0.0077209473 0.73699999 6.1542997e-39
0.016143858 -0.0077209324 0.73699999 1.1432027e-38
0.017547632 -0.0077209398 0.73699999 1.3291392e-38
0.018951459 -0.0077209398 0.73699999 1.5035181e-38
0.02035526 -0.0077209249 0.73699999 1.4574561e-38
0.021759087 -0.0077209398 0.73699999 1.4117533e-38
0.023225741 -0.0077418983 0.73899996 1.6787218e-38
0.024633357 -0.0077419057 0.73900002 1.9451533e-38
0.026076211 -0.0077523738 0.74000001 1.7979307e-38
0.027560001 -0.0077733248 0.74200004 1.6502397e-38
0.028973337 -0.0077733248 0.74200004 1.520916e-38
0.030386698 -0.0077733323 0.74199998 1.3832666e-38
0.031800032 -0.0077733174 0.74199998 1.2361825e-38
0.033258103 -0.0077837929 0.74299997 1.0878419e-38
0.034766708 -0.0078047514 0.74500006 1.0960881e-38
0.036282893 -0.0078257024 0.74700004 1.1054139e-38
0.037756216 -0.0078361854 0.74800003 1.0689654e-38
0.039285753 -0.0078571364 0.75000006 1.0323011e-38
0.040714309 -0.0078571364 0.75000006 9.9563699e-39
0.042311445 -0.0078885555 0.75299996 9.5872217e-39
0.043861918 -0.0079095215 0.75500005 9.5850581e-39
0.045300037 -0.007909514 0.755 9.5861385e-39
0.046800032 -0.0079199821 0.75599998 1.0140386e-38
0.048240021 -0.0079199821 0.75599998 1.0598826e-38
0.049680054 -0.0079199746 0.75599998 1.0415494e-38
-0.025499966 -0.0065571368 0.76500005 1.326643e-38
-0.024042808 -0.0065571293 0.76499999 1.399392e-38
-0.022526642 -0.006539993 0.76299995 1.3806641e-38
-0.021018067 -0.0065228567 0.76100004 1.3713806e-38
-0.01943996 -0.0064799935 0.75600004 1.445574e-38
-0.017976133 -0.0064714178 0.755 1.5281935e-38
-0.016494282 -0.0064542741 0.75300002 1.7323872e-38
-0.01503996 -0.0064457059 0.75199997 1.9258531e-38
-0.013571414 -0.0064285621 0.75000006 1.8334811e-38
-0.012110473 -0.0064114258 0.74800003 1.7315908e-38
-0.010671397 -0.0064028352 0.74699998 1.7476518e-38
-0.0092237573 -0.0063856989 0.745 1.7690767e-38
-0.0078047365 -0.0063856989 0.74500006 1.8798259e-38
-0.0063856868 -0.0063856915 0.745 1.9801292e-38
-0.0049533201 -0.0063685551 0.74299997 2.1663489e-38
-0.0035380619 -0.0063685551 0.74299997 2.3414366e-38
-0.0021142708 -0.0063428506 0.74000001 2.0155904e-38
-0.00070472906 -0.0063428506 0.74000001 1.6806376e-38
0.00070478854 -0.0063428506 0.73999995 1.7730785e-38
0.0021142997 -0.0063428581 0.74000001 1.8659554e-38
0.0035238424 -0.0063428581 0.74000001 1.8476971e-38
0.0049266769 -0.006334275 0.73900002 1.8385474e-38
0.0063343234 -0.006334275 0.73900002 1.6632687e-38
0.0077419449 -0.0063342825 0.73900002 1.4808315e-38
0.0091495654 -0.006334275 0.73900002 1.8161527e-38
0.010528602 -0.0063171312 0.73699999 2.1476896e-38
0.011932405 -0.0063171312 0.73699999 1.0958466e-38
0.013336231 -0.0063171238 0.73699999 4.5980106e-40
0.014740032 -0.0063171163 0.73699999 6.1761978e-39
0.01614383 -0.0063171387 0.73699999 1.1814801e-38
0.017547632 -0.0063171312 0.73699999 1.3103057e-38
0.018951461 -0.0063171238 0.73699999 1.4297992e-38
0.020410519 -0.0063342825 0.73900002 1.4572778e-38
0.021818109 -0.0063342825 0.73900002 1.4756811e-38
0.023257192 -0.0063428506 0.73999995 1.8078676e-38
0.02466668 -0.0063428581 0.74000001 2.1489145e-38
0.026146702 -0.006359987 0.74199998 1.9092453e-38
0.027560007 -0.0063599944 0.74200004 1.6700059e-38
0.028973341 -0.0063599944 0.74199998 1.4847196e-38
0.030427646 -0.0063685626 0.74299997 1.3007575e-38
0.03184288 -0.0063685551 0.74299997 1.189618e-38
0.033258103 -0.0063685551 0.74300003 1.0776888e-38
0.034766696 -0.0063857064 0.74500006 1.1328929e-38
0.036282882 -0.0064028352 0.74699998 1.1882801e-38
0.03775619 -0.0064114109 0.74800003 1.0873674e-38
0.039285749 -0.0064285696 0.75000006 9.9560266e-39
0.040822864 -0.0064456984 0.75200003 9.6794327e-39
0.042311452 -0.0064542741 0.75300002 9.4021171e-39
0.043861918 -0.0064714253 0.75500005 9.3109823e-39
0.045360044 -0.0064799935 0.75599998 9.1287462e-39
0.046800032 -0.0064799935 0.75600004 9.771952e-39
0.048240043 -0.006479986 0.75599998 1.0322239e-38
-0.025566632 -0.0051133335 0.76700002 1.3930087e-38
-0.024105655 -0.0051133111 0.76699996 1.418082e-38
-0.022585668 -0.0050999969 0.76500005 1.3053304e-38
-0.021073313 -0.0050866753 0.76300001 1.1960635e-38
-0.019491419 -0.0050533265 0.75799996 1.2140746e-38
-0.017976131 -0.0050333217 0.755 1.2340989e-38
-0.016494272 -0.0050199851 0.75300002 1.4654523e-38
-0.015040001 -0.0050133243 0.75200003 1.686178e-38
-0.013571419 -0.0049999952 0.75000006 1.6015147e-38
-0.012142835 -0.0049999878 0.75000006 1.5096738e-38
-0.010685702 -0.0049866587 0.74800003 1.6439061e-38
-0.0092237648 -0.0049666539 0.745 1.7772911e-38
-0.0078047449 -0.0049666613 0.74500006 1.8805786e-38
-0.00638567 -0.0049666464 0.74500006 1.9723443e-38
-0.0049533192 -0.0049533248 0.74300003 2.158098e-38
-0.003538087 -0.0049533173 0.74299997 2.3404323e-38
-0.0021200022 -0.0049466565 0.74200004 2.0339219e-38
-0.00070664199 -0.0049466714 0.74200004 1.7185566e-38
0.00070669403 -0.0049466565 0.74200004 1.809671e-38
0.0021200301 -0.0049466565 0.74199998 1.9025111e-38
0.0035238303 -0.0049333349 0.74000001 1.8661717e-38
0.0049333731 -0.0049333349 0.74000001 1.8289677e-38
0.0063428907 -0.0049333274 0.74000001 1.6438943e-38
0.0077524036 -0.0049333274 0.74000001 1.4638983e-38
0.0091619184 -0.0049333423 0.74000001 1.7997954e-38
0.010557174 -0.0049266592 0.73900002 2.1184158e-38
0.011964794 -0.0049266517 0.73900002 1.065351e-38
0.013336232 -0.0049133152 0.73699999 1.0034418e-40
0.01474006 -0.0049133152 0.73699999 6.1844696e-39
0.01614383 -0.0049133152 0.73699999 1.2175339e-38
0.017595271 -0.0049266517 0.73900002 1.2916516e-38
0.018951461 -0.0049133152 0.73699999 1.3562588e-38
0.020410482 -0.0049266666 0.73900002 1.4478426e-38
0.021847639 -0.0049333349 0.73999995 1.540683e-38
0.023257181 -0.0049333274 0.73999995 1.9465172e-38
0.024733348 -0.004946664 0.74199998 2.3416245e-38
0.02614668 -0.0049466714 0.74200004 2.0109803e-38
0.027560014 -0.004946664 0.74200004 1.6781478e-38
0.028973348 -0.0049466565 0.74199998 1.4472312e-38
0.03042762 -0.0049533099 0.74300003 1.2086349e-38
0.031842876 -0.0049533099 0.74299997 1.1346969e-38
0.03334767 -0.004966639 0.745 1.0598961e-38
0.034860052 -0.0049799755 0.74699998 1.1603359e-38
0.036331438 -0.0049866587 0.74800003 1.2617122e-38
0.03785716 -0.0050000027 0.75000006 1.1149534e-38
0.039285745 -0.0049999878 0.75000006 9.5879587e-39
0.040822878 -0.0050133243 0.75200003 9.4031989e-39
0.042311437 -0.0050199851 0.75300002 9.2191552e-39
0.043861918 -0.0050333291 0.75500005 8.9439948e-39
0.04536004 -0.0050399974 0.75600004 8.6688555e-39
0.046923827 -0.0050533265 0.75799996 9.4046227e-39
-0.02556663 -0.0036523789 0.76700002 1.3554135e-38
-0.024105683 -0.0036523789 0.76700002 1.3634113e-38
-0.022585684 -0.0036428496 0.76499999 1.2883984e-38
-0.02112853 -0.0036428571 0.76500005 1.22404e-38
-0.019439965 -0.0035999939 0.75600004 1.2604493e-38
-0.017976154 -0.0035952404 0.755 1.3072746e-38
-0.016494259 -0.0035856962 0.75299996 1.6126022e-38
-0.015059991 -0.0035856962 0.75300002 1.9263433e-38
-0.013571422 -0.0035714284 0.75000006 1.8245287e-38
-0.012142836 -0.0035714135 0.75000006 1.7229351e-38
-0.010714283 -0.0035714209 0.75000006 1.7387187e-38
-0.009248537 -0.0035571232 0.74699998 1.7605018e-38
-0.0078047281 -0.0035476089 0.74500006 1.861816e-38
-0.0063856775 -0.0035476014 0.745 1.9623353e-38
-0.0049666278 -0.003547594 0.745 2.1573088e-38
-0.0035380879 -0.0035380945 0.74300003 2.3415445e-38
-0.0021199966 -0.0035333186 0.74200004 2.0156269e-38
-0.00070666248 -0.0035333335 0.74199998 1.6898232e-38
0.00070669962 -0.0035333186 0.74199998 1.7824449e-38
0.0021200059 -0.0035333261 0.74200004 1.8753199e-38
0.003533341 -0.0035333261 0.74200004 1.8386925e-38
0.004933361 -0.0035238117 0.74000001 1.8111731e-38
0.0063429037 -0.0035238117 0.74000001 1.6912441e-38
0.0077523896 -0.0035238117 0.74000001 1.5738488e-38
0.0091619324 -0.0035238117 0.74000001 1.7889265e-38
0.010557193 -0.0035190359 0.73900002 1.9914232e-38
0.011964784 -0.0035190359 0.73900002 1.003e-38
0.013336233 -0.0035095066 0.73699999 9.2446462e-41
0.014780025 -0.0035190433 0.73900002 6.7372973e-39
0.016187644 -0.0035190433 0.73899996 1.3376743e-38
0.017595259 -0.0035190433 0.73900002 1.5311414e-38
0.019002881 -0.0035190433 0.73900002 1.7332145e-38
0.02043811 -0.0035238042 0.74000001 1.7794184e-38
0.02184765 -0.0035238042 0.74000001 1.8344842e-38
0.023320019 -0.0035333261 0.74199998 1.9640229e-38
0.024733353 -0.0035333261 0.74199998 2.1029589e-38
0.026146684 -0.0035333335 0.74200004 1.9449001e-38
0.027597161 -0.0035380796 0.74300003 1.7956314e-38
0.029012393 -0.0035380796 0.74299997 1.668317e-38
0.030427622 -0.0035380796 0.74300003 1.5395297e-38
0.03192861 -0.0035476089 0.74500006 1.2535816e-38
0.033347663 -0.0035476014 0.745 9.771009e-39
0.03486003 -0.0035571232 0.74700004 1.0963738e-38
0.036331441 -0.0035619065 0.74800003 1.2067182e-38
0.03785716 -0.0035714358 0.75000006 1.1057692e-38
0.039285742 -0.0035714209 0.75000006 1.0047128e-38
0.040714294 -0.0035714284 0.75000006 9.679053e-39
0.042311449 -0.0035856962 0.75300002 9.4028192e-39
0.043920025 -0.0035999864 0.75600004 9.2191384e-39
0.04536004 -0.003599979 0.75599998 9.1258848e-39
0.046923846 -0.0036095083 0.75799996 9.6787068e-39
-0.0240428 -0.0021857172 0.76500005 1.2988041e-38
-0.022585673 -0.0021857098 0.76500005 1.2700307e-38
-0.021128545 -0.0021857098 0.76500005 1.2420465e-38
-0.019542845 -0.002171427 0.76000005 1.3056468e-38
-0.017999955 -0.0021599904 0.75600004 1.3716648e-38
-0.016538067 -0.0021571368 0.75500005 1.7696179e-38
-0.015059981 -0.0021514222 0.75300002 2.1654785e-38
-0.013607594 -0.0021485612 0.75199997 2.0473474e-38
-0.012142841 -0.0021428466 0.75000006 1.9245122e-38
-0.010714257 -0.0021428391 0.75 1.8275777e-38
-0.0092485258 -0.0021342561 0.74699998 1.7407723e-38
-0.0078047346 -0.0021285713 0.74500006 1.8529916e-38
-0.006385684 -0.0021285564 0.745 1.9539053e-38
-0.0049666343 -0.0021285489 0.745 2.1489145e-38
-0.0035380879 -0.0021228492 0.74300003 2.3404685e-38
-0.0021199901 -0.0021199882 0.74200004 1.9972602e-38
-0.00070665689 -0.0021199808 0.74199998 1.6544165e-38
0.00070670521 -0.0021199957 0.74199998 1.7458186e-38
0.0021200115 -0.0021199957 0.74200004 1.8384069e-38
0.0035333466 -0.0021199957 0.74199998 1.8204696e-38
0.0049333489 -0.0021142736 0.74000001 1.7923402e-38
0.0063600121 -0.0021200031 0.74200004 1.7361222e-38
0.0077524064 -0.0021142811 0.73999995 1.6851278e-38
0.0091619194 -0.0021142885 0.74000001 1.781429e-38
0.010557156 -0.00211142 0.73900002 1.8606651e-38
0.011964777 -0.0021114126 0.73900002 9.3677797e-39
0.013372424 -0.0021114275 0.73900002 1.0680557e-40
0.014800008 -0.0021142811 0.74000001 7.2947885e-39
0.01620955 -0.0021142811 0.74000001 1.4480931e-38
0.017619094 -0.0021142736 0.74000001 1.7803526e-38
0.01902858 -0.0021142811 0.74000001 2.1014173e-38
0.020438123 -0.002114296 0.74000001 2.120537e-38
0.021906689 -0.0021199882 0.74200004 2.1288591e-38
0.023320025 -0.0021199882 0.74199998 1.9904597e-38
0.024766676 -0.0021228343 0.74299997 1.8529562e-38
0.026181933 -0.0021228418 0.74299997 1.8792498e-38
0.027597161 -0.0021228492 0.74300003 1.9077709e-38
0.029012393 -0.0021228418 0.74299997 1.8909123e-38
0.03042765 -0.0021228269 0.74299997 1.8614927e-38
0.031928603 -0.0021285564 0.74500006 1.3813616e-38
0.033437178 -0.0021342561 0.74699998 8.9434189e-39
0.034860041 -0.0021342635 0.74699998 1.0230146e-38
0.036331419 -0.002137132 0.74800003 1.1518327e-38
0.03785716 -0.0021428615 0.75000006 1.096657e-38
0.039285742 -0.002142854 0.75000006 1.0414464e-38
0.040822886 -0.0021485612 0.75200003 1.0046389e-38
0.042423837 -0.0021571368 0.75500005 9.587195e-39
0.043920055 -0.0021599978 0.75599998 9.5871782e-39
0.045360036 -0.0021599978 0.75600004 9.494984e-39
0.046923831 -0.0021656975 0.75799996 1.004564e-38
-0.024042815 -0.00072856247 0.76499999 1.5005917e-38
-0.022526642 -0.00072665513 0.76299995 1.4728932e-38
-0.021073306 -0.00072666258 0.76300001 1.4439394e-38
-0.019542839 -0.000723809 0.76000005 1.4443657e-38
-0.017999984 -0.00071999431 0.75600004 1.4530948e-38
-0.016538065 -0.00071904063 0.75500005 1.7500653e-38
-0.015059968 -0.00071712583 0.75299996 2.0461683e-38
-0.01360758 -0.00071617216 0.75199997 1.9823191e-38
-0.012142844 -0.00071427971 0.75000006 1.9165179e-38
-0.01071426 -0.00071426481 0.75000006 1.81244e-38
-0.0092609497 -0.00071237236 0.74800003 1.7148725e-38
-0.0078257024 -0.00071141124 0.74699998 1.8523822e-38
-0.0063856924 -0.00070951879 0.745 1.9799854e-38
-0.0049666157 -0.00070951134 0.745 2.166313e-38
-0.0035380572 -0.00070761144 0.74299997 2.3415449e-38
-0.0021199845 -0.00070665777 0.74200004 2.0156634e-38
-0.00070665131 -0.00070665032 0.74199998 1.6806403e-38
0.00070668099 -0.00070667267 0.74200004 1.7733337e-38
0.0021200171 -0.00070665777 0.74200004 1.8660656e-38
0.0035333531 -0.00070665777 0.74199998 1.8017086e-38
0.0049333619 -0.00070476532 0.74000001 1.7464949e-38
0.0063600186 -0.00070666522 0.74200004 1.7377729e-38
0.0077524204 -0.00070474297 0.73999995 1.7409469e-38
0.0091619333 -0.00070477277 0.74000001 1.6968399e-38
0.01057145 -0.00070475787 0.74000001 1.6585912e-38
0.011980994 -0.00070475787 0.74000001 8.3758832e-39
0.013372387 -0.00070381165 0.73900002 1.1112017e-40
0.014800021 -0.00070475787 0.74000001 8.2185454e-39
0.016209537 -0.00070476532 0.74000001 1.6326619e-38
0.017619081 -0.00070475787 0.74000001 1.8715782e-38
0.019028569 -0.00070475787 0.74000001 2.1194615e-38
0.020493332 -0.00070666522 0.74200004 2.1658448e-38
0.021906694 -0.00070665777 0.74200004 2.2209448e-38
0.02332003 -0.00070665032 0.74199998 2.0916922e-38
0.024766676 -0.00070760399 0.74300003 1.9718021e-38
0.026181933 -0.00070759654 0.74299997 2.0182563e-38
0.027597165 -0.00070758909 0.74299997 2.0653259e-38
0.029012393 -0.00070760399 0.74300003 1.9735661e-38
0.030509576 -0.00070949644 0.745 1.881152e-38
0.032014318 -0.00071140379 0.74699998 1.354241e-38
0.033437155 -0.00071141124 0.74699998 8.3873893e-39
0.034906689 -0.00071237981 0.74800003 1.069185e-38
0.036428601 -0.00071427226 0.75000006 1.2992364e-38
0.037857153 -0.00071428716 0.75000006 1.1610849e-38
0.039390497 -0.00071617961 0.75200003 1.0230072e-38
0.040822871 -0.00071617961 0.75199997 9.6786816e-39
0.042423837 -0.00071905553 0.75500005 9.219839e-39
0.043920025 -0.00071998686 0.75600004 9.3120094e-39
0.045360036 -0.00071998686 0.75599998 9.4045484e-39
-0.025433324 0.00072666258 0.76300001 1.4750255e-38
-0.023979986 0.00072667748 0.76299995 1.7044678e-38
-0.02252665 0.00072666258 0.76300001 1.6769503e-38
-0.021073313 0.00072667003 0.76300001 1.6487507e-38
-0.019568564 0.00072475523 0.76100004 1.5931439e-38
-0.01804758 0.00072191656 0.75799996 1.5291891e-38
-0.016538065 0.00071904808 0.75500005 1.7313419e-38
-0.015059984 0.00071715564 0.75299996 1.9267833e-38
-0.013607621 0.00071618706 0.75200003 1.9191822e-38
-0.012142847 0.00071429461 0.75000006 1.9063666e-38
-0.010714262 0.00071430206 0.75000006 1.7908461e-38
-0.0092609702 0.00071237236 0.74800003 1.685529e-38
-0.0078256922 0.00071144849 0.74699998 1.8525257e-38
-0.0063856756 0.00070954859 0.74500006 2.0089351e-38
-0.004966625 0.00070954114 0.745 2.1764651e-38
-0.0035380833 0.00070764124 0.74299997 2.3404685e-38
-0.0021199798 0.00070667267 0.74199998 2.024775e-38
-0.00070664386 0.00070668757 0.74199998 1.7094824e-38
0.00070668658 0.00070666522 0.74200004 1.8007771e-38
0.0021200227 0.00070666522 0.74199998 1.8842174e-38
0.0035333587 0.00070668012 0.74199998 1.7921659e-38
0.0049333498 0.00070475787 0.74000001 1.6911126e-38
0.0063428907 0.00070476532 0.74000001 1.7367808e-38
0.0077524073 0.00070478022 0.73999995 1.7871934e-38
0.0091619203 0.00070476532 0.74000001 1.6246982e-38
0.010571464 0.00070475787 0.74000001 1.455404e-38
0.011980981 0.00070476532 0.74000001 7.3473806e-39
0.013390522 0.00070477277 0.74000001 1.1577388e-40
0.014800009 0.00070475787 0.74000001 9.1412038e-39
0.01620955 0.00070476532 0.74000001 1.8068244e-38
0.017666698 0.00070668012 0.74199998 1.9721984e-38
0.019028611 0.00070476532 0.73999995 2.1282118e-38
0.020493338 0.00070667267 0.74199998 2.2207656e-38
0.0219067 0.00070667267 0.74199998 2.3124928e-38
0.023351448 0.00070764869 0.74299997 2.2018949e-38
0.024766676 0.00070762634 0.74300003 2.0825802e-38
0.026181906 0.00070764124 0.74300003 2.156694e-38
0.027597165 0.00070764124 0.74299997 2.2213041e-38
0.029090518 0.00070954114 0.74500006 2.0568636e-38
0.030509569 0.00070954114 0.745 1.8889353e-38
0.032014329 0.00071144849 0.74699998 1.3340066e-38
0.033481903 0.00071238726 0.74800003 7.746689e-39
0.034906667 0.00071237981 0.74800003 1.1156778e-38
0.036428597 0.00071430206 0.75000006 1.4463537e-38
0.037857149 0.00071427971 0.75000006 1.2254785e-38
0.039390489 0.00071620196 0.75200003 1.0047473e-38
0.040822886 0.00071619451 0.75199997 9.401722e-39
0.042423837 0.00071904808 0.75500005 8.7602916e-39
0.043920048 0.00072001666 0.75599998 9.0361414e-39
0.045300044 0.00071905553 0.75500005 9.3116479e-39
-0.025433302 0.0021800026 0.76299995 1.3739776e-38
-0.024042821 0.0021857172 0.76500005 1.5684093e-38
-0.022526657 0.0021800026 0.76300001 1.6228994e-38
-0.021073321 0.0021800026 0.76300001 1.6881504e-38
-0.019568535 0.0021742806 0.76100004 1.7331331e-38
-0.018047594 0.0021657273 0.75799996 1.7799143e-38
-0.016559951 0.0021600127 0.75599998 1.9175982e-38
-0.015099945 0.0021571368 0.755 2.0563228e-38
-0.013607605 0.0021485761 0.75200003 1.9544814e-38
-0.012175204 0.0021485835 0.75199997 1.8520195e-38
-0.010714266 0.0021428689 0.75000006 1.7942199e-38
-0.0092609366 0.0021371469 0.74800003 1.7512496e-38
-0.007825681 0.0021343008 0.74699998 1.8801122e-38
-0.0063856822 0.0021285862 0.74500006 2.0176164e-38
-0.0049666315 0.0021286011 0.745 2.1757118e-38
-0.0035380833 0.0021228641 0.74300003 2.3415086e-38
-0.0021199742 0.0021200106 0.74199998 2.0154834e-38
-0.00070666807 0.0021200106 0.74200004 1.6990074e-38
0.00070669217 0.0021200031 0.74200004 1.7824821e-38
0.0021200282 0.0021200031 0.74199998 1.8666037e-38
0.0035333624 0.002120018 0.74199998 1.7556106e-38
0.0049466677 0.0021200106 0.74200004 1.6450931e-38
0.0063600298 0.0021200106 0.74200004 1.7762178e-38
0.0077733649 0.0021200106 0.74199998 1.9177061e-38
0.0091866711 0.0021200031 0.74200004 1.5862416e-38
0.010600005 0.0021200106 0.74199998 1.2616874e-38
0.012013366 0.002120018 0.74199998 6.7199394e-39
0.013390509 0.0021142885 0.73999995 8.533193e-40
0.014840008 0.0021200031 0.74200004 9.8819848e-39
0.016253369 0.0021200106 0.74200004 1.9002002e-38
0.017666703 0.002120018 0.74199998 2.0091795e-38
0.019080007 0.0021200106 0.74200004 2.1268818e-38
0.020493343 0.0021200106 0.74199998 2.1740933e-38
0.021906706 0.0021200106 0.74199998 2.220585e-38
0.023351448 0.0021228716 0.74300003 2.1929625e-38
0.02476668 0.002122879 0.74299997 2.1560141e-38
0.026181906 0.002122879 0.74300003 2.137971e-38
0.027597165 0.0021228641 0.74300003 2.119569e-38
0.029012395 0.002122879 0.74299997 1.8990571e-38
0.030509561 0.0021285936 0.745 1.6776051e-38
0.03201434 0.0021343082 0.74699998 1.2523212e-38
0.033481911 0.0021371469 0.74800003 8.3877396e-39
0.03490667 0.0021371394 0.74800003 1.1525925e-38
0.036525726 0.002148591 0.75200003 1.4654035e-38
0.03795813 0.0021485984 0.75199997 1.2257308e-38
0.039547637 0.0021571442 0.75500005 9.8648735e-39
0.040985756 0.0021571442 0.755 9.4949728e-39
0.042480059 0.0021600053 0.75599998 9.0357869e-39
0.043920044 0.0021600053 0.75600004 9.4027617e-39
0.045360055 0.0021600202 0.75599998 9.6772088e-39
-0.024042811 0.003642872 0.76500005 1.4196716e-38
-0.022585681 0.0036428571 0.76500005 1.5672914e-38
-0.021128552 0.0036428571 0.76500005 1.714301e-38
-0.019568561 0.0036237985 0.76100004 1.8713551e-38
-0.018047605 0.0036095381 0.75799996 2.0186174e-38
-0.016538059 0.0035952404 0.75500005 2.1028144e-38
-0.015059992 0.0035857186 0.75300002 2.1748437e-38
-0.01360759 0.0035809577 0.75200003 1.9811238e-38
-0.012175215 0.0035809651 0.75199997 1.7857555e-38
-0.010714243 0.0035714358 0.75000006 1.8010706e-38
-0.0092856893 0.0035714209 0.75000006 1.814422e-38
-0.0078361956 0.0035618991 0.74800003 1.9174564e-38
-0.0063856896 0.0035476312 0.74500006 2.0183339e-38
-0.0049666399 0.0035476387 0.745 2.1856487e-38
-0.0035475632 0.0035476312 0.745 2.3402895e-38
-0.0021199686 0.0035333484 0.74199998 2.0150542e-38
-0.00070666248 0.003533341 0.74200004 1.6816449e-38
0.00070669776 0.0035333559 0.74200004 1.7634684e-38
0.0021200338 0.003533341 0.74199998 1.838225e-38
0.0035333382 0.0035333335 0.74200004 1.7185487e-38
0.0049466733 0.0035333484 0.74200004 1.5907054e-38
0.0063600354 0.0035333484 0.74199998 1.8235677e-38
0.0077524101 0.0035238191 0.74000001 2.0457694e-38
0.0091866767 0.003533341 0.74200004 1.5591517e-38
0.010571441 0.0035238117 0.74000001 1.0588211e-38
0.011980982 0.0035238117 0.74000001 6.0616598e-39
0.013426677 0.003533341 0.74200004 1.5915892e-39
0.014840013 0.0035333335 0.74199998 1.0714248e-38
0.016253347 0.003533341 0.74199998 1.9820293e-38
0.017666679 0.0035333335 0.74200004 2.055747e-38
0.019080013 0.003533341 0.74200004 2.1191711e-38
0.020493349 0.003533341 0.74199998 2.1281754e-38
0.021906681 0.0035333335 0.74200004 2.1289298e-38
0.023351446 0.0035381019 0.74300003 2.1841758e-38
0.024766678 0.0035381094 0.74299997 2.2301287e-38
0.026181936 0.0035381168 0.74299997 2.1287862e-38
0.027597139 0.0035381168 0.74300003 2.0179382e-38
0.029090501 0.0035476312 0.745 1.7421091e-38
0.03059148 0.0035571605 0.74699998 1.4556555e-38
0.032057129 0.0035618991 0.74800003 1.1773093e-38
0.033481918 0.0035619065 0.74800003 9.0359607e-39
0.034906682 0.003561914 0.74800003 1.1905457e-38
0.036525741 0.0035809726 0.75200003 1.4746584e-38
0.037958115 0.0035809502 0.75200003 1.2255873e-38
0.039547667 0.0035952404 0.755 9.6808466e-39
0.040985756 0.003595233 0.755 9.4931847e-39
0.042480029 0.0036000162 0.75600004 9.3105801e-39
0.043920044 0.0036000088 0.75599998 9.678271e-39
0.045360029 0.0036000088 0.75599998 1.004527e-38
0.047109537 0.0036237985 0.76100004 8.8503475e-39
-0.024042826 0.0051000044 0.76500005 1.5096703e-38
-0.02252664 0.0050866604 0.76299995 1.5566325e-38
-0.021073306 0.0050866678 0.76300001 1.610985e-38
-0.019491393 0.0050533414 0.75799996 1.6672746e-38
-0.01804756 0.0050533563 0.75799996 1.7233831e-38
-0.016559957 0.0050400123 0.75599998 1.7877065e-38
-0.015099966 0.0050333366 0.755 1.861092e-38
-0.013625685 0.0050200075 0.75300002 1.7589854e-38
-0.012175229 0.0050133243 0.75200003 1.6648564e-38
-0.010742825 0.0050133392 0.75200003 1.7382195e-38
-0.009285694 0.0049999952 0.75000006 1.8246812e-38
-0.0078361891 0.0049866736 0.74800003 1.9168108e-38
-0.0064028213 0.0049800202 0.74700004 2.0077514e-38
-0.0049799522 0.0049800128 0.74699998 2.1754965e-38
-0.0035475707 0.0049666986 0.745 2.3413305e-38
-0.002122852 0.0049533471 0.74300003 2.0153064e-38
-0.00070665689 0.0049466789 0.74200004 1.6898241e-38
0.00070667727 0.0049466863 0.74199998 1.7643284e-38
0.0021200376 0.0049466789 0.74199998 1.8480872e-38
0.0035333438 0.0049466714 0.74200004 1.7090372e-38
0.0049466798 0.0049466789 0.74199998 1.5704332e-38
0.006360041 0.0049466789 0.74199998 1.8420396e-38
0.0077733472 0.0049466714 0.74200004 2.1019785e-38
0.0091866804 0.0049466714 0.74200004 1.4655886e-38
0.010600016 0.0049466714 0.74199998 8.1739113e-39
0.012013348 0.0049466714 0.74200004 5.8858753e-39
0.013390512 0.0049333423 0.73999995 3.705958e-39
0.014840019 0.0049466714 0.74199998 1.1723367e-38
0.016253352 0.0049466789 0.74199998 1.9823544e-38
0.017666684 0.0049466714 0.74200004 2.1111394e-38
0.01908002 0.0049466789 0.74199998 2.2302007e-38
0.020493355 0.0049466863 0.74199998 2.2210511e-38
0.021906687 0.0049466714 0.74200004 2.2123002e-38
0.023351451 0.004953362 0.74299997 2.2491802e-38
0.024766678 0.0049533546 0.74300003 2.2862709e-38
0.026181936 0.0049533471 0.74299997 2.1195655e-38
0.027597167 0.0049533546 0.74299997 1.9526829e-38
0.029012395 0.0049533546 0.74300003 1.6402983e-38
0.030591466 0.0049800277 0.74699998 1.3265461e-38
0.032057159 0.004986681 0.74800003 1.1506186e-38
0.033481896 0.0049866661 0.74800003 9.7717124e-39
0.034906685 0.0049866661 0.74800003 1.2543635e-38
0.03652573 0.0050133392 0.75199997 1.5395528e-38
0.0379581 0.0050133392 0.75200003 1.25364e-38
0.039547671 0.0050333366 0.755 9.680132e-39
0.040985756 0.0050333366 0.75500005 9.494984e-39
0.042480055 0.0050400198 0.75599998 9.3105843e-39
0.04392004 0.0050400198 0.75600004 9.4031247e-39
0.045360021 0.0050400048 0.75600004 9.5878873e-39
-0.023979984 0.0065400079 0.76299995 1.5941219e-38
-0.022467591 0.0065228641 0.76100004 1.5478114e-38
-0.021018073 0.0065228641 0.76100004 1.5016794e-38
-0.01954283 0.0065142959 0.76000005 1.4634035e-38
-0.017999945 0.0064800158 0.75599998 1.4190644e-38
-0.016538084 0.0064714178 0.75500005 1.4818787e-38
-0.015059968 0.0064543113 0.75300002 1.5388047e-38
-0.013625701 0.0064543113 0.75300002 1.5472658e-38
-0.012175214 0.0064457133 0.75200003 1.5459377e-38
-0.010714251 0.0064285845 0.75000006 1.6806409e-38
-0.0092856977 0.0064285696 0.75000006 1.8231381e-38
-0.0078571122 0.006428577 0.75000006 1.9080946e-38
-0.006402838 0.0064028874 0.74699998 1.9906044e-38
-0.004979969 0.0064028725 0.74699998 2.1672816e-38
-0.00354758 0.0063857436 0.745 2.3402906e-38
-0.0021228241 0.0063685849 0.74299997 2.0242397e-38
-0.00070664944 0.0063600093 0.74200004 1.7004429e-38
0.00070668658 0.0063600093 0.74199998 1.7743369e-38
0.0021200152 0.0063599944 0.74200004 1.8474423e-38
0.0035333512 0.0063600019 0.74200004 1.6991023e-38
0.0049466873 0.0063600019 0.74199998 1.5544361e-38
0.0063600186 0.0063600093 0.74200004 1.8629925e-38
0.0077733546 0.0063600093 0.74200004 2.1565789e-38
0.0091866879 0.0063600019 0.74199998 1.3746138e-38
0.010600024 0.0063600093 0.74199998 5.8016181e-39
0.012013356 0.0063600019 0.74200004 5.7861617e-39
0.013426691 0.0063600093 0.74200004 5.7267047e-39
0.014840026 0.0063600019 0.74199998 1.2832569e-38
0.01625333 0.0063600019 0.74200004 1.9823187e-38
0.017666692 0.0063600019 0.74200004 2.1671019e-38
0.019080028 0.0063600168 0.74199998 2.3412296e-38
0.020493332 0.0063600093 0.74200004 2.3135704e-38
0.021936193 0.0063685924 0.74299997 2.2860926e-38
0.02335145 0.0063685849 0.74299997 2.3140031e-38
0.024766678 0.0063685775 0.74300003 2.341085e-38
0.02618191 0.0063685849 0.74299997 2.1104537e-38
0.027597167 0.0063685998 0.74299997 1.8798228e-38
0.029090513 0.0063857287 0.74500006 1.5398863e-38
0.030509561 0.0063857362 0.745 1.188395e-38
0.03205714 0.0064114332 0.74800003 1.1122668e-38
0.0334819 0.0064114332 0.74800003 1.0415266e-38
0.03500003 0.0064285845 0.75 1.3194025e-38
0.036428586 0.0064285845 0.75000006 1.5944359e-38
0.038008608 0.0064543113 0.75299996 1.2813993e-38
0.039547671 0.0064714327 0.755 9.588274e-39
0.041040041 0.0064800158 0.75599998 9.4042471e-39
0.042480025 0.0064800084 0.75599998 9.2198432e-39
0.044036239 0.0064971596 0.75799996 9.2194691e-39
0.045480043 0.0064971521 0.75799996 9.1272791e-39
0.046923842 0.0064971596 0.75800002 9.0361652e-39
-0.023979992 0.0079933405 0.76299995 1.5774469e-38
-0.022467591 0.007972382 0.76100004 1.6226466e-38
-0.021018099 0.007972382 0.76100004 1.659988e-38
-0.019542824 0.0079619139 0.76000005 1.6959662e-38
-0.017999975 0.0079200193 0.75600004 1.7423122e-38
-0.016538052 0.0079095364 0.755 1.7786854e-38
-0.015059986 0.0078885853 0.75300002 1.8251069e-38
-0.013625688 0.0078886002 0.75299996 1.7695408e-38
-0.012175226 0.0078781024 0.75200003 1.7133951e-38
-0.010742823 0.0078781098 0.75199997 1.74765e-38
-0.0093104504 0.0078781024 0.75200003 1.787336e-38
-0.007857115 0.0078571513 0.75000006 1.8981227e-38
-0.0064114137 0.0078362003 0.74800003 2.0077881e-38
-0.0049866792 0.0078362003 0.74800003 2.1756041e-38
-0.0035571195 0.0078257397 0.74699998 2.3416184e-38
-0.0021228222 0.0077838227 0.74299997 2.0155592e-38
-0.00070759008 0.0077838153 0.74299997 1.6898248e-38
0.00070763653 0.0077838153 0.74300003 1.7551804e-38
0.0021228688 0.0077838227 0.74299997 1.8295067e-38
0.0035381261 0.0077838376 0.74299997 1.6815263e-38
0.0049533546 0.0077838227 0.74300003 1.5351746e-38
0.0063599981 0.0077733472 0.74200004 1.8341174e-38
0.0077733584 0.0077733472 0.74200004 2.1295677e-38
0.0091866935 0.0077733397 0.74199998 1.2720878e-38
0.0106 0.0077733397 0.74200004 4.2249947e-39
0.012013361 0.0077733397 0.74200004 4.4161753e-39
0.013426697 0.0077733472 0.74199998 4.6221746e-39
0.01484003 0.0077733546 0.74199998 1.0064231e-38
0.016253335 0.0077733397 0.74200004 1.5597681e-38
0.017666698 0.0077733397 0.74199998 1.7622727e-38
0.019080034 0.0077733546 0.74199998 1.956024e-38
0.020520967 0.0077838302 0.74299997 2.029062e-38
0.021936195 0.0077838227 0.74300003 2.0932033e-38
0.023351451 0.0077838302 0.74300003 2.0288108e-38
0.024766684 0.0077838376 0.74299997 1.9556629e-38
0.026252408 0.0078047737 0.745 1.7333541e-38
0.027671484 0.0078047812 0.745 1.5121207e-38
0.029090505 0.0078047812 0.74500006 1.2812373e-38
0.030632408 0.0078361928 0.74800003 1.0594993e-38
0.032057144 0.0078361928 0.74800003 1.1051246e-38
0.033571444 0.0078571439 0.75000006 1.1613419e-38
0.035000026 0.0078571588 0.75000006 1.3648548e-38
0.036574323 0.0078885853 0.75299996 1.5761019e-38
0.038109556 0.0079095215 0.75500005 1.2440845e-38
0.039600052 0.0079200268 0.75599998 9.1183122e-39
0.041040037 0.0079200119 0.75600004 9.2166511e-39
0.042592421 0.0079409704 0.75799996 9.2198615e-39
0.044036224 0.0079409704 0.75799996 9.0347373e-39
0.045480028 0.0079409629 0.75799996 8.7570714e-39
0.046923861 0.0079409778 0.75799996 8.4822754e-39
-0.017999949 0.0093600154 0.75599998 2.0552046e-38
-0.016559966 0.0093600154 0.75599998 2.0838319e-38
-0.015099962 0.0093476325 0.75500005 2.1014822e-38
-0.013625678 0.0093228817 0.75299996 1.9923208e-38
-0.012175211 0.0093104914 0.75200003 1.8691969e-38
-0.010742863 0.0093104765 0.75200003 1.8092101e-38
-0.0092857024 0.0092857033 0.75000006 1.7495974e-38
-0.0078571197 0.0092857182 0.75000006 1.8892247e-38
-0.0064285658 0.0092857108 0.75000006 2.0274101e-38
-0.0049999813 0.0092857257 0.75000006 2.1856487e-38
-0.0035619084 0.0092609599 0.74800003 2.340542e-38
-0.002128548 0.0092238262 0.74500006 2.0064833e-38
-0.00070949836 0.0092238337 0.745 1.6726774e-38
0.00070761045 0.009199068 0.74300003 1.7453514e-38
0.0021228688 0.009199053 0.74300003 1.8103149e-38
0.0035381261 0.0091990605 0.74299997 1.6622631e-38
0.0049533285 0.0091990605 0.74300003 1.5091683e-38
0.0063685849 0.0091990605 0.74300003 1.8086862e-38
0.0077838423 0.009199068 0.74299997 2.0920083e-38
0.0091990745 0.0091990605 0.74299997 1.1800699e-38
0.010614303 0.0091990605 0.74300003 2.5834156e-39
0.012029535 0.0091990754 0.74299997 3.0314598e-39
0.013426702 0.0091866851 0.74199998 3.4164273e-39
0.014840006 0.0091866776 0.74200004 7.3880028e-39
0.016253341 0.0091866702 0.74199998 1.1345207e-38
0.017666703 0.0091866776 0.74199998 1.3569734e-38
0.019105734 0.009199068 0.74300003 1.568376e-38
0.020520967 0.0091990754 0.74299997 1.7351163e-38
0.021936223 0.009199068 0.74299997 1.8994515e-38
0.023351425 0.009199068 0.74300003 1.73404e-38
0.024833351 0.0092238262 0.74500006 1.5672618e-38
0.026252426 0.0092238337 0.74500006 1.35514e-38
0.027671479 0.0092238262 0.745 1.1428745e-38
0.029168628 0.0092485994 0.74699998 1.0318432e-38
0.030632388 0.0092609599 0.74800003 9.2181813e-39
0.032057121 0.009260945 0.74800003 1.096519e-38
0.033660971 0.0093104765 0.75200003 1.2721569e-38
0.035093375 0.0093104914 0.75200003 1.4116703e-38
0.036671471 0.0093476251 0.755 1.5483017e-38
0.038160041 0.0093600154 0.75599998 1.2070296e-38
0.039600022 0.0093600154 0.75600004 8.6666751e-39
0.041040041 0.0093600228 0.75599998 8.94006e-39
0.04259241 0.0093847737 0.75799996 9.2180524e-39
0.044036213 0.0093847662 0.75799996 8.8503264e-39
0.045480043 0.0093847811 0.75799996 8.3890036e-39
-0.017999955 0.010800004 0.75600004 1.6683896e-38
-0.01655997 0.010800004 0.75600004 1.7690886e-38
-0.015059965 0.010757163 0.75299996 1.8801521e-38
-0.013607597 0.010742873 0.75200003 1.8436691e-38
-0.012175222 0.010742866 0.75199997 1.8057058e-38
-0.010742848 0.010742858 0.75200003 1.775491e-38
-0.0093104467 0.010742866 0.75199997 1.7605388e-38
-0.0078780744 0.010742866 0.75200003 1.8801114e-38
-0.006428537 0.0107143 0.75 2.0085401e-38
-0.0049999841 0.010714293 0.75000006 2.1757835e-38
-0.0035714004 0.0107143 0.75000006 2.3416182e-38
-0.0021285554 0.010642871 0.74500006 2.0064114e-38
-0.0007094816 0.010642879 0.74500006 1.6714579e-38
0.00070957089 0.010642886 0.745 1.7364909e-38
0.0021228688 0.010614298 0.74300003 1.8020645e-38
0.0035381 0.010614306 0.74299997 1.6540847e-38
0.0049533583 0.010614313 0.74299997 1.4989463e-38
0.0063685849 0.010614298 0.74300003 1.779309e-38
0.0077838162 0.010614298 0.74299997 2.0558122e-38
0.0091990745 0.010614306 0.74299997 1.3174972e-38
0.010614302 0.010614306 0.74300003 5.8779944e-39
0.012029533 0.010614298 0.74300003 5.6028439e-39
0.013426706 0.010600023 0.74199998 5.3273486e-39
0.014840012 0.010600016 0.74200004 6.716729e-39
0.016253347 0.010600008 0.74199998 8.0900099e-39
0.017690508 0.010614291 0.74299997 9.306166e-39
0.019105708 0.010614291 0.74300003 1.0416832e-38
0.020520967 0.010614298 0.74300003 1.1348491e-38
0.021936223 0.010614313 0.74299997 1.2272585e-38
0.023351455 0.010614321 0.74299997 1.0509771e-38
0.024833344 0.010642879 0.74500006 8.8441327e-39
0.026252419 0.010642879 0.74500006 9.20856e-39
0.027671469 0.010642886 0.745 9.570123e-39
0.0292076 0.010685712 0.74800003 9.4875739e-39
0.030632388 0.01068572 0.74800003 9.4940493e-39
0.032057155 0.010685734 0.74800003 1.1336876e-38
0.033571437 0.010714293 0.75000006 1.3271888e-38
0.035140045 0.010757163 0.75299996 1.4200656e-38
0.036671475 0.010785721 0.75500005 1.5208243e-38
0.038160034 0.010800004 0.75600004 1.188844e-38
0.039600052 0.010800019 0.75599998 8.6699093e-39
0.041148625 0.010828599 0.75799996 8.942204e-39
0.042704798 0.01085715 0.76000005 9.2183957e-39
0.044152394 0.010857157 0.76000005 8.8499453e-39
-0.017999982 0.012240022 0.75600004 1.2698603e-38
-0.016559971 0.012240015 0.75599998 1.4622528e-38
-0.015059981 0.012191452 0.75299996 1.6488673e-38
-0.013607607 0.01217524 0.75200003 1.696437e-38
-0.012175206 0.012175247 0.75199997 1.7301157e-38
-0.010742832 0.01217524 0.75200003 1.744925e-38
-0.0093104308 0.012175255 0.75199997 1.7592106e-38
-0.0078780847 0.012175247 0.75200003 1.8805061e-38
-0.0064285407 0.012142867 0.75000006 1.9909622e-38
-0.0049999878 0.012142874 0.75000006 2.1672816e-38
-0.0035714041 0.012142874 0.75000006 2.3403987e-38
-0.0021285377 0.012061916 0.74500006 2.0060887e-38
-0.00070948811 0.012061924 0.74500006 1.6725698e-38
0.0007095625 0.012061924 0.745 1.7362036e-38
0.0021286095 0.012061916 0.74500006 1.7919841e-38
0.0035476582 0.012061916 0.745 1.643897e-38
0.0049533565 0.012029544 0.74300003 1.4915574e-38
0.0063685887 0.012029551 0.74299997 1.7538049e-38
0.0077838162 0.012029536 0.74300003 2.009075e-38
0.0091990745 0.012029536 0.74300003 1.4646587e-38
0.010614307 0.012029544 0.74299997 9.2135682e-39
0.012029532 0.012029544 0.74300003 8.1739449e-39
0.013426683 0.012013339 0.74200004 7.1823973e-39
0.014840018 0.012013346 0.74200004 6.0617075e-39
0.016275249 0.012029536 0.74300003 4.8872456e-39
0.017690482 0.012029544 0.74299997 5.0558793e-39
0.019105738 0.012029551 0.74299997 5.1767903e-39
0.020520967 0.012029544 0.74300003 5.3529461e-39
0.021936197 0.012029536 0.74299997 5.4533912e-39
0.023414314 0.012061924 0.745 3.765914e-39
0.024833361 0.012061916 0.74500006 2.0407404e-39
0.026358109 0.012110487 0.74800003 4.8678825e-39
0.027745755 0.012094311 0.74699998 7.6501998e-39
0.029207636 0.012110487 0.74800003 8.6593014e-39
0.030632369 0.012110472 0.74800003 9.6856278e-39
0.032142878 0.012142859 0.75000006 1.1707795e-38
0.03357143 0.012142859 0.75000006 1.3737515e-38
0.03514003 0.012191452 0.75299996 1.4297508e-38
0.036671475 0.01222381 0.75500005 1.4836961e-38
0.038160034 0.01224003 0.75599998 1.1788371e-38
0.039600044 0.012240008 0.75600004 8.6659716e-39
0.04114861 0.012272403 0.75799996 8.9400516e-39
0.042592414 0.012272388 0.75800002 9.2173223e-39
0.044152401 0.012304768 0.76000005 8.850311e-39
-0.017999958 0.013680018 0.75599998 1.3592072e-38
-0.016559973 0.013680018 0.75600004 1.5826315e-38
-0.015099958 0.013661899 0.75500005 1.8045112e-38
-0.013625672 0.013625741 0.75299996 1.7683903e-38
-0.012175247 0.013607629 0.75200003 1.7284962e-38
-0.010742844 0.013607636 0.75200003 1.7471471e-38
-0.0092856819 0.013571434 0.75000006 1.7701869e-38
-0.0078780707 0.013607621 0.75200003 1.8803628e-38
-0.0064285453 0.013571434 0.75000006 1.9901014e-38
-0.0049999915 0.013571441 0.75000006 2.1665282e-38
-0.0035714069 0.013571441 0.75000006 2.341439e-38
-0.0021342644 0.013517171 0.74699998 2.0063758e-38
-0.00070949557 0.013480969 0.74500006 1.6714577e-38
0.00070955505 0.013480976 0.745 1.7274144e-38
0.0021285992 0.013480969 0.74500006 1.7837691e-38
0.0035476498 0.013480976 0.74500006 1.6179967e-38
0.0049533565 0.013444766 0.74300003 1.4461428e-38
0.0063685877 0.013444774 0.74299997 1.6686794e-38
0.007783846 0.013444789 0.74299997 1.8895868e-38
0.0091990484 0.013444781 0.74300003 1.6504558e-38
0.010614306 0.013444789 0.74299997 1.4216889e-38
0.012029562 0.013444781 0.74299997 1.3922337e-38
0.013444765 0.013444774 0.74300003 1.3665813e-38
0.014860022 0.013444789 0.74300003 1.3188308e-38
0.016275253 0.013444796 0.74299997 1.2831015e-38
0.01769048 0.013444774 0.74300003 1.3004287e-38
0.019105738 0.013444781 0.74299997 1.319729e-38
0.02052097 0.013444789 0.74299997 1.2820986e-38
0.021936197 0.013444781 0.74300003 1.2452929e-38
0.023414332 0.013480976 0.745 1.1339784e-38
0.024833383 0.013480969 0.745 1.0337831e-38
0.026358113 0.013535239 0.74800003 1.1618852e-38
0.027782848 0.013535239 0.74800003 1.2921426e-38
0.029207613 0.013535254 0.74800003 1.2545132e-38
0.030632403 0.013535261 0.74800003 1.2279279e-38
0.032142878 0.013571434 0.75000006 1.309572e-38
0.033705745 0.013625734 0.75299996 1.3928352e-38
0.035140011 0.013625734 0.75300002 1.4295708e-38
0.036671475 0.013661914 0.75500005 1.4563612e-38
0.03816003 0.013680018 0.75600004 1.14232e-38
0.039600044 0.013680026 0.75599998 8.3872463e-39
0.041148599 0.013716191 0.75799996 8.6649024e-39
0.042704787 0.013752386 0.76000005 9.0332954e-39
0.044152409 0.013752386 0.76000005 8.4818985e-39
-0.01804759 0.015160009 0.75800002 1.4453819e-38
-0.016559949 0.015120015 0.75599998 1.7045381e-38
-0.015099956 0.015099995 0.75500005 1.9531414e-38
-0.013607604 0.01504001 0.75199997 1.8440887e-38
-0.012175232 0.01504001 0.75200003 1.7210739e-38
-0.010742829 0.015040003 0.75199997 1.7449242e-38
-0.0093104569 0.015039995 0.75200003 1.7685013e-38
-0.0078571308 0.015000001 0.75000006 1.8806855e-38
-0.0064457078 0.01504001 0.75200003 1.9815634e-38
-0.0049999924 0.015000008 0.75000006 2.1672816e-38
-0.0035714097 0.015000015 0.75000006 2.3404338e-38
-0.0021342533 0.014940016 0.74699998 2.006518e-38
-0.00071138522 0.014940023 0.74699998 1.6636001e-38
0.00071145309 0.014940016 0.74699998 1.7182653e-38
0.0021343213 0.014940031 0.74699998 1.7737951e-38
0.0035571605 0.014940023 0.74700004 1.5890102e-38
0.0049667191 0.014900014 0.745 1.3989656e-38
0.0063685877 0.014860019 0.74300003 1.5851953e-38
0.0077838199 0.014860012 0.74299997 1.7690826e-38
0.0092238644 0.014900021 0.745 1.8441662e-38
0.010642885 0.014900021 0.74500006 1.9072668e-38
0.012061936 0.014900014 0.745 1.954117e-38
0.013444793 0.014860012 0.74299997 1.9997105e-38
0.014860022 0.014860012 0.74300003 2.0378782e-38
0.016275253 0.014860019 0.74299997 2.0733577e-38
0.01769051 0.014860027 0.74299997 2.0933041e-38
0.019105712 0.014860019 0.74300003 2.110271e-38
0.02052097 0.014860019 0.74299997 2.0281201e-38
0.021995274 0.014900021 0.74500006 1.9347773e-38
0.023414325 0.014900029 0.745 1.8986163e-38
0.024900038 0.014940016 0.74699998 1.8612003e-38
0.026322905 0.014940023 0.74699998 1.8347973e-38
0.027782883 0.014960006 0.74800003 1.8059921e-38
0.029207617 0.014960006 0.74800003 1.6504465e-38
0.03071429 0.015000008 0.75000006 1.4837036e-38
0.032228578 0.015040003 0.75200003 1.4467143e-38
0.033705726 0.015060015 0.75299996 1.4106268e-38
0.035140023 0.015060008 0.75300002 1.4209235e-38
0.036671475 0.015100002 0.75500005 1.4282697e-38
0.038160056 0.015120015 0.75599998 1.1137254e-38
0.039600041 0.015120015 0.75599998 8.0205952e-39
0.041148618 0.015160017 0.75799996 8.3911756e-39
0.042704791 0.015200004 0.76000005 8.7581336e-39
0.044152386 0.015200011 0.76000005 8.204943e-39
-0.018047571 0.016603835 0.75799996 1.6875334e-38
-0.016559979 0.016560011 0.75600004 1.8343365e-38
-0.015099981 0.016538098 0.75500005 1.9818117e-38
-0.013625707 0.016494311 0.75300002 1.8345165e-38
-0.012175217 0.016472399 0.75200003 1.6769534e-38
-0.010742839 0.016472392 0.75199997 1.7296074e-38
-0.0093104681 0.016472384 0.75200003 1.7975951e-38
-0.007878066 0.016472399 0.75199997 1.8893308e-38
-0.0064456929 0.016472399 0.75200003 1.9892044e-38
-0.0049999971 0.016428567 0.75000006 2.166313e-38
-0.0035713874 0.016428582 0.75000006 2.3414019e-38
-0.0021371432 0.016384773 0.74800003 2.0156284e-38
-0.00071140571 0.016362876 0.74700004 1.689822e-38
0.0007114624 0.016362876 0.74699998 1.7551057e-38
0.0021343315 0.016362891 0.74699998 1.8204292e-38
0.0035571707 0.016362868 0.74699998 1.6638767e-38
0.0049800407 0.016362876 0.74699998 1.5173432e-38
0.0063685877 0.016275249 0.74300003 1.6104071e-38
0.0078048063 0.016319059 0.74500006 1.6930251e-38
0.009223857 0.016319066 0.745 1.6381769e-38
0.010642878 0.016319066 0.74500006 1.5917236e-38
0.012061954 0.016319066 0.74500006 1.6200301e-38
0.013444793 0.016275257 0.74299997 1.6484421e-38
0.014859996 0.016275257 0.74300003 1.6390795e-38
0.0163191 0.016319066 0.745 1.6393677e-38
0.017738121 0.016319066 0.74500006 1.7045507e-38
0.019157171 0.016319074 0.74500006 1.7692633e-38
0.020576244 0.016319066 0.745 1.6580176e-38
0.021995265 0.016319059 0.74500006 1.5477058e-38
0.023477154 0.016362883 0.74700004 1.5381619e-38
0.024900021 0.016362876 0.74699998 1.5204053e-38
0.026358096 0.016384773 0.74800003 1.538235e-38
0.027782861 0.016384773 0.74800003 1.5466297e-38
0.029285733 0.016428582 0.75000006 1.4549019e-38
0.030796219 0.016472392 0.75199997 1.3617343e-38
0.032228593 0.016472392 0.75200003 1.3812804e-38
0.033705737 0.016494311 0.75300002 1.4004374e-38
0.035233393 0.016538098 0.755 1.3830035e-38
0.036671452 0.016538098 0.75500005 1.3638385e-38
0.03826097 0.016603835 0.75799996 1.004093e-38
0.039704774 0.016603827 0.75800002 6.5540719e-39
0.04125718 0.016647629 0.76000005 7.1965813e-39
0.042704776 0.016647629 0.76000005 7.9341113e-39
0.044152394 0.016647622 0.76000005 7.562798e-39
-0.018047584 0.018047646 0.75799996 1.9262741e-38
-0.016603781 0.018047646 0.75799996 1.9725559e-38
-0.01511997 0.018000014 0.75599998 2.0091443e-38
-0.013679985 0.018000014 0.75600004 1.8259373e-38
-0.012191398 0.017928585 0.75299996 1.6288787e-38
-0.010742825 0.017904781 0.75199997 1.7173713e-38
-0.0093104532 0.017904773 0.75200003 1.8143103e-38
-0.0078780809 0.017904781 0.75200003 1.9082001e-38
-0.006445704 0.017904766 0.75199997 1.990747e-38
-0.0049999747 0.017857149 0.75000006 2.1672816e-38
-0.0035713911 0.017857157 0.75000006 2.3403615e-38
-0.0021371385 0.017809525 0.74800003 2.0339957e-38
-0.00071237428 0.017809533 0.74800003 1.718737e-38
0.00071147265 0.017785743 0.74699998 1.7919138e-38
0.0021343119 0.017785728 0.74700004 1.8570589e-38
0.003557181 0.017785735 0.74699998 1.7470351e-38
0.0049667032 0.017738119 0.745 1.6369097e-38
0.0063685915 0.017690495 0.74299997 1.6277316e-38
0.0077838199 0.017690487 0.74300003 1.6184023e-38
0.0092238486 0.017738119 0.745 1.4420831e-38
0.010671466 0.017785735 0.74699998 1.2682058e-38
0.012061946 0.017738126 0.74500006 1.2857482e-38
0.013480995 0.017738126 0.745 1.2960817e-38
0.014900016 0.017738111 0.74500006 1.249018e-38
0.016319092 0.017738119 0.745 1.1962495e-38
0.017738141 0.017738126 0.745 1.3070632e-38
0.019157162 0.017738111 0.74500006 1.4174077e-38
0.020576237 0.017738126 0.745 1.2868993e-38
0.022054326 0.017785743 0.74699998 1.1590082e-38
0.023508573 0.017809525 0.74800003 1.1674714e-38
0.024933338 0.017809525 0.74800003 1.1775915e-38
0.026358105 0.017809533 0.74800003 1.2326968e-38
0.027857145 0.017857149 0.75000006 1.2885868e-38
0.029285729 0.017857157 0.75000006 1.2700042e-38
0.030714307 0.017857149 0.75000006 1.2425249e-38
0.032271452 0.017928593 0.75300002 1.3161724e-38
0.033705719 0.017928593 0.75300002 1.3915416e-38
0.03523339 0.01797621 0.755 1.3467355e-38
0.036720037 0.018000014 0.75600004 1.28976e-38
0.038260985 0.018047638 0.75800002 8.9256266e-39
0.039704815 0.018047638 0.75799996 4.9878308e-39
0.041257184 0.018095255 0.76000005 6.0905854e-39
0.042760976 0.01811906 0.76100004 7.1029157e-39
0.044210494 0.018119045 0.76100004 6.9188733e-39
-0.018095233 0.019542873 0.76000005 1.860451e-38
-0.016603794 0.019491449 0.75800002 1.9072304e-38
-0.015159961 0.019491442 0.75799996 1.9531791e-38
-0.013679961 0.01944001 0.75599998 1.8236718e-38
-0.012239977 0.01944001 0.75600004 1.6993294e-38
-0.010757146 0.019362874 0.75300002 1.755788e-38
-0.0093104634 0.019337147 0.75199997 1.8156718e-38
-0.0078780912 0.01933714 0.75200003 1.907949e-38
-0.0064456882 0.019337147 0.75199997 2.0084683e-38
-0.0050133169 0.019337155 0.75200003 2.17564e-38
-0.0035713939 0.019285724 0.75000006 2.3411866e-38
-0.0021371292 0.0192343 0.74800003 2.0429998e-38
-0.0007123687 0.019234285 0.74800003 1.735742e-38
0.00071145775 0.019208603 0.74699998 1.8013147e-38
0.002134297 0.019208588 0.74699998 1.8759314e-38
