# .PCD v0.7 - Point Cloud Data file format
VERSION 0.7
FIELDS x y z rgb
SIZE 4 4 4 4
TYPE F F F F
COUNT 1 1 1 1
WIDTH 969
HEIGHT 1
VIEWPOINT 0 0 0 1 0 0 0
POINTS 969
DATA ascii
0.020852344 0.03379523 0.75500011 1.6037424e-38
0.02229044 0.033795252 0.75500011 8.7422373e-39
0.02372854 0.033795245 0.75500011 1.0324243e-38
0.02519994 0.033840008 0.75600004 1.1996277e-38
0.026639959 0.033840001 0.75600004 1.2265666e-38
0.028154233 0.033929534 0.75800002 1.2642019e-38
0.029715199 0.034063816 0.76100004 1.6513858e-38
0.031246638 0.03415335 0.76300001 2.0472821e-38
0.032785702 0.034242868 0.76500005 1.9456165e-38
0.034332335 0.034332387 0.76699996 1.8442399e-38
0.035839979 0.034377135 0.76800001 1.8073994e-38
0.03739997 0.034466684 0.77000004 1.7704846e-38
0.038866643 0.034466676 0.77000004 1.7336413e-38
-0.021128604 0.035700001 0.76500005 1.400619e-38
-0.019620039 0.035606675 0.76300001 9.2934254e-39
-0.018119078 0.035513334 0.76100004 4.6069341e-39
-0.01660388 0.035373338 0.75800002 7.183339e-39
-0.015120062 0.035280012 0.75600004 9.7572566e-39
-0.013716255 0.035373338 0.75800002 9.8526907e-39
-0.012240049 0.035280012 0.75600004 9.9455953e-39
-0.010785757 0.035233349 0.75500005 1.0957574e-38
-0.0093228761 0.03514 0.75300002 1.1877016e-38
-0.0078885984 0.03514 0.75300002 1.1692998e-38
-0.0064457608 0.035093337 0.75200003 1.1508245e-38
-0.0050133793 0.035093337 0.75200003 1.1874146e-38
-0.0035809956 0.035093345 0.75200003 1.2152535e-38
-0.0021371848 0.034906678 0.74800003 1.2336219e-38
-0.00071241317 0.03490667 0.74800003 1.2427338e-38
0.00071233156 0.03490667 0.74800003 1.2518099e-38
0.0021371061 0.03490667 0.74800009 1.2609577e-38
0.0035618788 0.034906663 0.74800003 1.2699979e-38
0.0049866214 0.034906678 0.74800003 1.2791089e-38
0.0064113922 0.03490667 0.74800003 1.2789645e-38
0.007836137 0.03490667 0.74800003 1.2700324e-38
0.0092609394 0.03490667 0.74800003 1.2977267e-38
0.01071426 0.035000004 0.75000006 1.3253849e-38
0.012142823 0.035000011 0.75000006 1.3254924e-38
0.013571387 0.035000011 0.75000006 1.3251659e-38
0.014999949 0.035000011 0.75000006 1.2780964e-38
0.016472334 0.035093337 0.75200003 1.2344534e-38
0.017904716 0.035093345 0.75200003 1.7815711e-38
0.019362828 0.035140008 0.75300002 2.3225372e-38
0.020852329 0.035233349 0.75500005 1.6037428e-38
0.022290427 0.035233341 0.75500005 8.8588295e-39
0.023759969 0.035280004 0.75600004 1.2089928e-38
0.025199963 0.035280004 0.75600004 1.5211246e-38
0.026710425 0.03537333 0.75800002 1.4198173e-38
0.028228529 0.035466686 0.76000005 1.319627e-38
0.029715184 0.035513341 0.76100004 1.6331268e-38
0.031246638 0.035606667 0.76300001 1.9457256e-38
0.032785706 0.035700001 0.76500005 1.8534591e-38
0.03437712 0.03583999 0.76800001 1.7614798e-38
0.035933275 0.035933353 0.77000004 1.7247095e-38
0.03739997 0.035933346 0.77000004 1.678469e-38
0.038866617 0.035933346 0.77000004 1.6415197e-38
-0.021128627 0.037157163 0.76499999 1.0395845e-38
-0.01962004 0.037060015 0.76300001 8.5600951e-39
-0.018119091 0.036962874 0.76100004 6.7252153e-39
-0.016647685 0.036914289 0.76000005 8.28753e-39
-0.015160036 0.036817156 0.75800002 9.9427255e-39
-0.013716225 0.036817156 0.75800002 1.0127117e-38
-0.012240028 0.03672 0.75600004 1.0312937e-38
-0.010785766 0.036671452 0.75500005 1.1049411e-38
-0.0093476679 0.036671437 0.75500005 1.1877732e-38
-0.0079095699 0.036671437 0.75500005 1.1509681e-38
-0.0064543411 0.036574297 0.75300002 1.1233803e-38
-0.0050133755 0.036525704 0.75200003 1.1968116e-38
-0.0035809919 0.036525719 0.75200003 1.2795375e-38
-0.002142906 0.036428586 0.75000006 1.2795398e-38
-0.00071242807 0.03633143 0.74800003 1.2795045e-38
0.0007123446 0.03633143 0.74800003 1.2609944e-38
0.0021370894 0.03633143 0.74800003 1.2518463e-38
0.0035618602 0.036331438 0.74800003 1.2515948e-38
0.0049999692 0.036428578 0.75000006 1.2424075e-38
0.0064285332 0.036428578 0.75000006 1.2145661e-38
0.0078570964 0.036428578 0.75000006 1.1873415e-38
0.0092856605 0.036428578 0.75000006 1.2331548e-38
0.010714253 0.036428578 0.75000012 1.2885791e-38
0.012142817 0.036428578 0.75000006 1.3161298e-38
0.013571383 0.036428563 0.75000006 1.3347812e-38
0.014999971 0.036428578 0.75000006 1.2692021e-38
0.016472338 0.036525726 0.75200003 1.2050752e-38
0.017904719 0.036525719 0.75200003 1.7705594e-38
0.019362807 0.036574304 0.75300002 2.3324392e-38
0.020797087 0.036574289 0.75300002 1.613142e-38
0.022290418 0.03667143 0.75500005 9.0353301e-39
0.023728514 0.036671437 0.75500005 1.1714338e-38
0.025199957 0.036720008 0.75600004 1.4295412e-38
0.026710454 0.036817148 0.75800002 1.355534e-38
0.028154265 0.036817141 0.75800002 1.2827144e-38
0.029715203 0.036962867 0.76100004 1.6146525e-38
0.031328548 0.037157141 0.76500005 1.955161e-38
0.032871384 0.037254296 0.76700002 1.8258017e-38
0.034377143 0.037302859 0.76800001 1.7060908e-38
0.035839994 0.037302844 0.76800007 1.6968337e-38
0.037399974 0.0374 0.77000004 1.6873649e-38
0.038866617 0.037400015 0.77000004 1.660031e-38
-0.021128619 0.038614303 0.76500005 6.7266951e-39
-0.019620072 0.038513344 0.76300001 7.8254069e-39
-0.018119074 0.038412385 0.76100004 8.8374233e-39
-0.016647674 0.038361914 0.76000005 9.4820977e-39
-0.015160033 0.038260952 0.75800002 1.003312e-38
-0.013716221 0.038260944 0.75800002 1.0400474e-38
-0.012240037 0.038160007 0.75600004 1.0678493e-38
-0.010800043 0.03816 0.75600004 1.1232377e-38
-0.009347653 0.038109522 0.75500005 1.1784826e-38
-0.0079095559 0.038109526 0.75500005 1.1326369e-38
-0.0064543337 0.038008563 0.75300002 1.0865392e-38
-0.005020028 0.038008586 0.75300002 1.2152877e-38
-0.00358575 0.038008578 0.75300002 1.3344239e-38
-0.0021429097 0.037857141 0.75000006 1.3254208e-38
-0.00071434566 0.03785716 0.75000006 1.3066597e-38
0.0007142445 0.037857153 0.75000006 1.2791453e-38
0.0021428384 0.037857141 0.75000006 1.2423032e-38
0.0035714007 0.037857145 0.75000006 1.2237925e-38
0.0049999654 0.037857149 0.75000006 1.2050646e-38
0.0064285276 0.037857145 0.75000006 1.1495667e-38
0.0078570917 0.037857149 0.75000006 1.0948255e-38
0.0092856567 0.037857145 0.75000006 1.1772996e-38
0.010714245 0.037857145 0.75000006 1.2515218e-38
0.01214284 0.037857149 0.75000006 1.2973323e-38
0.013607575 0.037958104 0.75200003 1.3429958e-38
0.015039957 0.037958104 0.75200003 1.2587982e-38
0.016494257 0.038008567 0.75300002 1.1698473e-38
0.017928537 0.038008578 0.75300002 1.7539859e-38
0.01941424 0.038109526 0.75500005 2.3316494e-38
0.020852337 0.03810953 0.75500005 1.6312209e-38
0.022319965 0.038160004 0.75600004 9.2236576e-39
0.023759983 0.038160007 0.75600004 1.1344486e-38
0.025266616 0.038260955 0.75800002 1.3367723e-38
0.02671043 0.038260974 0.75800002 1.290064e-38
0.028228523 0.038361911 0.76000005 1.2460511e-38
0.029715188 0.0384124 0.76100004 1.6059353e-38
0.03124663 0.038513333 0.76300001 1.9546589e-38
0.032914281 0.038765717 0.76800001 1.8068251e-38
0.034377135 0.038765717 0.76800007 1.6509193e-38
0.035933305 0.038866676 0.77000004 1.6692141e-38
0.037399944 0.038866684 0.76999998 1.687725e-38
-0.021128614 0.040071439 0.76500005 7.3626926e-39
-0.019671476 0.040071428 0.76500005 7.730696e-39
-0.018119087 0.039861921 0.76100004 8.1023722e-39
-0.016647663 0.039809532 0.76000005 8.8370842e-39
-0.015160058 0.03970477 0.75800002 9.5725038e-39
-0.013716248 0.039704762 0.75800002 9.7558343e-39
-0.012272436 0.039704781 0.75800002 9.9409458e-39
-0.010800021 0.0396 0.75600004 1.0771058e-38
-0.0093600247 0.039600007 0.75600004 1.1601162e-38
-0.0079095671 0.039547622 0.75500005 1.095257e-38
-0.0064543253 0.03944286 0.75300008 1.0400841e-38
-0.0050200205 0.039442856 0.75300002 1.1590756e-38
-0.0035857416 0.039442863 0.75300002 1.2877889e-38
-0.0021428901 0.039285719 0.75000006 1.2691349e-38
-0.0007143261 0.039285712 0.75000006 1.2598441e-38
0.00071423705 0.039285731 0.75000006 1.3431781e-38
0.0021428012 0.039285719 0.75000006 1.4255789e-38
0.003571396 0.039285712 0.75000012 1.4352287e-38
0.0049999598 0.039285723 0.75000012 1.4340804e-38
0.0064285491 0.039285712 0.75000006 1.4811817e-38
0.0078571131 0.039285734 0.75000006 1.5355295e-38
0.0092856754 0.039285731 0.75000006 1.5918503e-38
0.01071424 0.039285719 0.75000006 1.6561358e-38
0.012175195 0.039390486 0.75200003 1.4909044e-38
0.013607577 0.039390478 0.75200003 1.3340989e-38
0.01503996 0.039390482 0.75200003 1.2319643e-38
0.016494267 0.039442852 0.75300002 1.1411125e-38
0.017928546 0.039442845 0.75300002 1.7339328e-38
0.019414255 0.039547626 0.75500005 2.3324379e-38
0.020852352 0.039547637 0.75500005 1.5848355e-38
0.022319956 0.039600018 0.75600004 8.2844905e-39
0.02375995 0.039600004 0.75600004 1.1154717e-38
0.025266619 0.03970477 0.75800002 1.4011282e-38
0.026710434 0.039704781 0.75800002 1.4012695e-38
0.028228534 0.039809536 0.76000005 1.4023501e-38
0.029871397 0.040071443 0.76500005 1.6790449e-38
0.03141043 0.040176202 0.76700002 1.964022e-38
0.032914273 0.040228575 0.76800007 1.8165112e-38
0.034377124 0.040228579 0.76800001 1.6694315e-38
0.035839979 0.040228572 0.76800007 1.678508e-38
-0.021128606 0.041528568 0.76500005 8.0091326e-39
-0.019671468 0.041528583 0.76500005 7.6316928e-39
-0.018166732 0.04142002 0.76300001 7.2755052e-39
-0.016647652 0.041257143 0.76000005 8.1910239e-39
-0.015160029 0.041148584 0.75800002 9.0240132e-39
-0.013716245 0.041148581 0.75800002 9.1097628e-39
-0.012272432 0.041148573 0.75800002 9.1173004e-39
-0.010800054 0.041040003 0.75600004 1.0217536e-38
-0.009360034 0.04104 0.75600004 1.1323501e-38
-0.0079095494 0.040985726 0.75500005 1.0573025e-38
-0.0064714504 0.040985718 0.75500005 9.848753e-39
-0.0050200401 0.040877149 0.75300002 1.1114368e-38
-0.0035857621 0.040877156 0.75300002 1.23269e-38
-0.0021428938 0.040714297 0.75000006 1.2217862e-38
-0.00071433169 0.04071429 0.75000006 1.2152216e-38
0.00071423332 0.040714297 0.75000006 1.4172957e-38
0.0021428226 0.040714297 0.75000006 1.6113353e-38
0.0035713867 0.040714297 0.75000006 1.6390667e-38
0.0049999794 0.040714283 0.75000012 1.6668683e-38
0.0064285435 0.04071429 0.75000006 1.8239214e-38
0.0078571066 0.040714286 0.75000006 1.9702503e-38
0.0092856707 0.040714294 0.75000006 2.016744e-38
0.010742814 0.040822867 0.75200003 2.0623009e-38
0.012175197 0.040822856 0.75200003 1.6944547e-38
0.01360758 0.040822852 0.75200003 1.3155539e-38
0.015059967 0.040877152 0.75300002 1.2122672e-38
0.016494246 0.040877145 0.75300002 1.1054531e-38
0.017976148 0.04098573 0.75500005 1.7264712e-38
0.019414244 0.040985722 0.75500005 2.3313255e-38
0.020852344 0.040985715 0.75500005 1.5380921e-38
0.022319948 0.041040007 0.75600004 7.3830072e-39
0.023759944 0.041040018 0.75600004 1.1070084e-38
0.025199937 0.041040007 0.75600004 1.4658461e-38
0.026710434 0.041148577 0.75800002 1.5115821e-38
0.028154248 0.041148566 0.75800002 1.5496111e-38
0.029715193 0.041311435 0.76100004 1.762271e-38
0.031410418 0.041637152 0.76700002 1.9731691e-38
0.032914266 0.041691434 0.76800001 1.8349128e-38
0.034377147 0.041691426 0.76800001 1.687761e-38
0.035933308 0.041800007 0.77000004 1.6874027e-38
-0.0211286 0.042985726 0.76500005 1.1239524e-38
-0.019671462 0.042985719 0.76500005 1.0959302e-38
-0.018166708 0.042873338 0.76300001 1.0778538e-38
-0.016669556 0.042760964 0.76100004 1.1882037e-38
-0.015200035 0.042704765 0.76000005 1.29873e-38
-0.013716243 0.042592388 0.75799996 1.3076273e-38
-0.012272433 0.042592399 0.75800002 1.3169903e-38
-0.010800064 0.042480011 0.75600004 1.41844e-38
-0.0093600433 0.042480007 0.75600004 1.5198527e-38
-0.0079095596 0.042423803 0.75500011 1.5104886e-38
-0.0064714616 0.042423796 0.75500011 1.5021317e-38
-0.0050200345 0.04231143 0.75300002 1.58396e-38
-0.0035857547 0.042311423 0.75300002 1.6679424e-38
-0.0021428724 0.042142853 0.75000006 1.6763759e-38
-0.00071430934 0.042142868 0.75000006 1.6782413e-38
0.00071613787 0.042255245 0.75200003 1.7689287e-38
0.0021428189 0.042142872 0.75000006 1.8623812e-38
0.0035713811 0.042142864 0.75000006 1.9165524e-38
0.0050133131 0.042255241 0.75200003 1.9816625e-38
0.0064285398 0.042142849 0.75000012 2.0263607e-38
0.0078780521 0.042255241 0.75200003 2.0731077e-38
0.0093104346 0.042255245 0.75200003 2.1184914e-38
0.010742817 0.042255238 0.75200003 2.1747e-38
0.0121752 0.042255234 0.75200003 1.7313379e-38
0.013625696 0.042311426 0.75300002 1.2877178e-38
0.015059975 0.042311434 0.75300002 1.2133049e-38
0.016538067 0.042423818 0.75500011 1.1409305e-38
0.017976165 0.042423811 0.75500005 1.7338611e-38
0.019414263 0.042423807 0.75500005 2.3231462e-38
0.020852359 0.042423807 0.75500005 1.6492986e-38
0.022319971 0.042480007 0.75600004 9.7650016e-39
0.023759963 0.042480014 0.75600004 1.2910049e-38
0.025199959 0.042480007 0.75600004 1.6140768e-38
0.026710434 0.042592395 0.75800002 1.6045319e-38
0.028228557 0.042704768 0.76000005 1.5957094e-38
0.029871378 0.042985741 0.76500005 1.789463e-38
0.031451408 0.043154288 0.76800001 1.9824954e-38
0.032914285 0.043154284 0.76800001 1.835019e-38
0.034377139 0.043154273 0.76800007 1.687903e-38
-0.022585757 0.04444287 0.76500005 1.4284132e-38
-0.021128619 0.044442859 0.76500005 1.4368421e-38
-0.019671485 0.044442866 0.76500005 1.4370921e-38
-0.018166708 0.044326674 0.76300001 1.427695e-38
-0.016713362 0.04432667 0.76300001 1.5570916e-38
-0.015200053 0.044152398 0.76000005 1.6851247e-38
-0.013716239 0.044036191 0.75800002 1.7037445e-38
-0.012272428 0.044036206 0.75800002 1.7130361e-38
-0.010800039 0.043920007 0.75600004 1.8059122e-38
-0.0093600471 0.043919999 0.75600004 1.8972808e-38
-0.0079200258 0.043920007 0.75600004 1.9626054e-38
-0.0064714756 0.043861911 0.75500005 2.0166678e-38
-0.0050333766 0.043861922 0.75500005 2.0635555e-38
-0.0035857453 0.043745726 0.75300002 2.0999329e-38
-0.0021486243 0.04368763 0.75200003 2.1191989e-38
-0.00071431679 0.04357142 0.75000006 2.1365235e-38
0.00071614067 0.043687623 0.75200003 2.1269072e-38
0.0021428114 0.043571435 0.75000006 2.1085436e-38
0.0035713755 0.043571442 0.75000006 2.2014947e-38
0.0050133159 0.04368763 0.75200003 2.284002e-38
0.0064456724 0.043687623 0.75200003 2.2266756e-38
0.0078780549 0.043687619 0.75200003 2.1724019e-38
0.0093104374 0.043687619 0.75200003 2.2277928e-38
0.010757091 0.04374573 0.75300002 2.2745323e-38
0.01219137 0.043745723 0.75300002 1.7684653e-38
0.01366186 0.043861922 0.75500005 1.259987e-38
0.015099957 0.043861914 0.75500005 1.221484e-38
0.016538052 0.043861907 0.75500005 1.1789917e-38
0.01797615 0.043861911 0.75500005 1.7540214e-38
0.019414248 0.043861922 0.75500005 2.3132112e-38
0.020879941 0.04392001 0.75600004 1.7594695e-38
0.022319963 0.04392001 0.75600004 1.2081359e-38
0.023759956 0.043920022 0.75600004 1.484721e-38
0.025266627 0.044036195 0.75800002 1.7518315e-38
0.026780939 0.04415239 0.76000005 1.6968002e-38
0.028265672 0.044210497 0.76100004 1.6419507e-38
0.029871386 0.044442881 0.76500005 1.8174073e-38
0.031451426 0.04461715 0.76800001 1.9914277e-38
0.032914281 0.044617143 0.76800007 1.8347326e-38
0.034377132 0.04461715 0.76800001 1.6785406e-38
0.035839982 0.044617139 0.76800007 1.6601378e-38
-0.02258575 0.045900002 0.76500005 1.3448281e-38
-0.021128612 0.045899998 0.76500005 1.3630544e-38
-0.019671479 0.045900017 0.76500005 1.46465e-38
-0.018166713 0.045780007 0.76299995 1.5652385e-38
-0.016713394 0.045780003 0.76300001 1.5928965e-38
-0.015200043 0.045600012 0.76000005 1.6207365e-38
-0.013752437 0.045600019 0.76000005 1.6940636e-38
-0.012272423 0.045479998 0.75800002 1.7775053e-38
-0.010828612 0.045479991 0.75800002 1.8976454e-38
-0.0093600545 0.045360003 0.75600004 2.0160987e-38
-0.0079200603 0.045359999 0.75600004 1.9323345e-38
-0.006480041 0.045360006 0.75600004 1.8587599e-38
-0.0050333878 0.045300003 0.75500005 2.0162806e-38
-0.0035952905 0.045299999 0.75500005 2.1725094e-38
-0.0021486224 0.045120005 0.75200003 2.1920253e-38
-0.00071623904 0.045120001 0.75200003 2.2177062e-38
0.00071614253 0.045120008 0.75200003 2.1245747e-38
0.0021485549 0.045119997 0.75200003 2.0321698e-38
0.0035809113 0.045120005 0.75200009 2.173694e-38
0.0050132936 0.045120005 0.75200003 2.3129517e-38
0.0064456742 0.045119997 0.75200003 2.2284679e-38
0.0078780567 0.045119997 0.75200003 2.1528123e-38
0.0093228212 0.04518 0.75300002 2.2085244e-38
0.0107571 0.045179997 0.75300002 2.2659199e-38
0.012191405 0.045180012 0.75300002 1.7767506e-38
0.013661849 0.045300007 0.75500005 1.2949628e-38
0.015059961 0.045180015 0.75300002 1.2496445e-38
0.016538044 0.045300011 0.75500005 1.2147931e-38
0.017976141 0.045300003 0.75500005 1.7523708e-38
0.019414237 0.045300018 0.75500005 2.2958145e-38
0.020852337 0.045300014 0.75500005 1.6870098e-38
0.022319958 0.045360003 0.75600004 1.0802502e-38
0.023759978 0.045359999 0.75600004 1.3472551e-38
0.025266632 0.045480002 0.75800002 1.6239806e-38
0.026780896 0.045600012 0.76000005 1.5956401e-38
0.028265687 0.04566 0.76100004 1.5681243e-38
0.029871393 0.04590001 0.76500005 1.7617311e-38
0.031451423 0.046079997 0.76800007 1.9636615e-38
0.03291427 0.046080001 0.76800001 1.7888154e-38
0.034377124 0.046080012 0.76800007 1.6232248e-38
0.035793278 0.046020005 0.76700002 1.7883136e-38
-0.022585744 0.047357142 0.76500005 1.2703204e-38
-0.021128638 0.047357164 0.76500005 1.2896246e-38
-0.019671472 0.047357153 0.76500005 1.5023933e-38
-0.018166713 0.047233343 0.76300001 1.7031761e-38
-0.016713368 0.047233339 0.76300001 1.6284883e-38
-0.015220038 0.047109529 0.76100004 1.5460512e-38
-0.013752426 0.04704763 0.76000005 1.6926647e-38
-0.012272423 0.046923824 0.75800002 1.8422575e-38
-0.010828613 0.046923816 0.75800002 1.9910613e-38
-0.0093848016 0.046923809 0.75800002 2.1259431e-38
-0.0079200389 0.046799991 0.75600004 1.9102356e-38
-0.0064800195 0.046800006 0.75600004 1.6928481e-38
-0.005033372 0.046738107 0.75500005 1.970332e-38
-0.0035952737 0.046738103 0.75500005 2.2477396e-38
-0.0021514536 0.046614286 0.75300002 2.2770837e-38
-0.00071623718 0.04655239 0.75200003 2.2917149e-38
0.00071614626 0.046552386 0.75200003 2.1214555e-38
0.0021485577 0.04655239 0.75200003 1.9505956e-38
0.0035809141 0.046552382 0.75200009 2.148118e-38
0.0050132945 0.046552379 0.75200003 2.3406481e-38
0.006445677 0.046552375 0.75200003 2.2398429e-38
0.0078885211 0.046614297 0.75300002 2.1249396e-38
0.0093227997 0.046614297 0.75300002 2.1876091e-38
0.010785672 0.046738103 0.75500005 2.2550852e-38
0.012223768 0.046738099 0.75500005 1.7960497e-38
0.013661865 0.046738107 0.75500005 1.3245578e-38
0.015099963 0.046738103 0.75500005 1.285733e-38
0.016538059 0.046738096 0.75500005 1.2434559e-38
0.017976156 0.046738107 0.75500005 1.763205e-38
0.019414254 0.046738103 0.75500005 2.2673295e-38
0.020879956 0.046800014 0.75600004 1.6124255e-38
0.022319952 0.046800006 0.75600004 9.5110303e-39
0.023759969 0.046800006 0.75600004 1.2184671e-38
0.025266603 0.046923812 0.75800002 1.4849324e-38
0.026816148 0.047109537 0.76100004 1.484501e-38
0.028265676 0.047109529 0.76100004 1.4853273e-38
0.029871397 0.047357149 0.76500005 1.7160294e-38
0.031410426 0.047480971 0.76699996 1.9361828e-38
0.032914262 0.047542863 0.76800007 1.7520089e-38
0.034377147 0.047542855 0.76800007 1.5588323e-38
0.035793293 0.047480974 0.76699996 1.9161665e-38
0.037254248 0.047480967 0.76700002 2.276119e-38
-0.022585768 0.048814308 0.76499999 1.2430935e-38
-0.021183856 0.048941918 0.76700002 1.261467e-38
-0.019722899 0.048941914 0.76700002 1.4921381e-38
-0.018214326 0.048814286 0.76500005 1.7125441e-38
-0.016713399 0.048686687 0.76300001 1.6476861e-38
-0.015260054 0.048686679 0.76300001 1.591326e-38
-0.013770523 0.048559055 0.76100004 1.7212916e-38
-0.012304785 0.048495237 0.76000005 1.8527336e-38
-0.010828609 0.048367627 0.75800002 2.0091433e-38
-0.0093847979 0.048367623 0.75800002 2.1731168e-38
-0.0079200473 0.048240002 0.75600004 1.9686363e-38
-0.0064800521 0.04824001 0.75600004 1.7667491e-38
-0.0050333822 0.048176203 0.75500005 1.9983899e-38
-0.0036000402 0.048240017 0.75600004 2.2403895e-38
-0.0021514462 0.048048571 0.75300002 2.2766203e-38
-0.0007171685 0.048048567 0.75300002 2.320954e-38
0.00071711018 0.048048574 0.75300002 2.106211e-38
0.0021513889 0.048048571 0.75300002 1.9046435e-38
0.0035856676 0.048048567 0.75300002 2.1002286e-38
0.0050199721 0.048048578 0.75300002 2.2943023e-38
0.0064542508 0.048048574 0.75300002 2.1997038e-38
0.0078885294 0.048048574 0.75300002 2.1122774e-38
0.0093475906 0.048176192 0.75500005 2.2076251e-38
0.010785688 0.048176199 0.75500005 2.3024011e-38
0.012223784 0.048176199 0.75500005 1.8511862e-38
0.013661883 0.048176207 0.75500005 1.3990662e-38
0.015099953 0.048176203 0.75500005 1.3147903e-38
0.01653805 0.048176195 0.75500005 1.2335911e-38
0.017976148 0.048176192 0.75500005 1.7708464e-38
0.019414244 0.048176203 0.75500005 2.2957753e-38
0.020879978 0.04824001 0.75600004 1.5666834e-38
0.022319971 0.048240006 0.75600004 8.3921103e-39
0.023822822 0.048367627 0.75800002 1.1255163e-38
0.025333285 0.048495252 0.76000005 1.419855e-38
0.026816167 0.048559058 0.76100004 1.4199254e-38
0.028339976 0.048686679 0.76300001 1.4205387e-38
0.029871404 0.048814289 0.76500005 1.6696819e-38
0.031410415 0.048941918 0.76700002 1.9180668e-38
0.032914285 0.049005713 0.76800007 1.7797023e-38
0.034377135 0.049005717 0.76800001 1.6418071e-38
0.035839986 0.04900571 0.76800007 1.8532454e-38
0.037302867 0.049005702 0.76800007 2.0662617e-38
-0.021266714 0.050600007 0.77000004 1.2340936e-38
-0.019722911 0.050402865 0.76700002 1.4829136e-38
-0.018214351 0.050271448 0.76500005 1.7220819e-38
-0.016713375 0.050140008 0.76300001 1.6767397e-38
-0.01526003 0.050140016 0.76300001 1.629061e-38
-0.013770506 0.05000858 0.76100004 1.7392247e-38
-0.0123048 0.049942859 0.76000011 1.8518367e-38
-0.010828633 0.04981143 0.75800002 2.0379531e-38
-0.009384823 0.049811441 0.75800002 2.2190375e-38
-0.0079200258 0.049679995 0.75600004 2.0243858e-38
-0.0064800307 0.049679991 0.75600004 1.8314263e-38
-0.0050400374 0.049679998 0.7560001 2.0251804e-38
-0.0036000179 0.049679995 0.75600004 2.220549e-38
-0.0021514667 0.049482867 0.75300002 2.2864511e-38
-0.00071718899 0.04948286 0.75300002 2.3384967e-38
0.00071708875 0.049482871 0.75300002 2.0960949e-38
0.0021513675 0.049482867 0.75300002 1.8592982e-38
0.0035856722 0.049482867 0.75300002 2.0538054e-38
0.0050199507 0.04948286 0.75300002 2.2373679e-38
0.0064713843 0.049614284 0.75500005 2.1707147e-38
0.0079094833 0.04961428 0.75500005 2.1067879e-38
0.0093475794 0.049614288 0.75500005 2.2282181e-38
0.010785677 0.04961428 0.75500005 2.3392101e-38
0.012223775 0.049614299 0.75500005 1.9072607e-38
0.013661872 0.049614292 0.75500005 1.4726445e-38
0.015099968 0.049614288 0.75500005 1.3500179e-38
0.016538067 0.04961428 0.75500005 1.2255913e-38
0.017976163 0.049614295 0.75500005 1.7815725e-38
0.019414259 0.049614288 0.75500005 2.3219262e-38
0.020879945 0.049679998 0.75600004 1.5284411e-38
0.022319963 0.049680009 0.75600004 7.2940205e-39
0.023822827 0.049811438 0.75800002 1.0428998e-38
0.025333298 0.049942862 0.76000005 1.3459916e-38
0.026816152 0.050008588 0.76100004 1.3547435e-38
0.028339947 0.050140008 0.76300001 1.3563249e-38
0.029871382 0.050271451 0.76499999 1.6240856e-38
0.031410426 0.050402876 0.76699996 1.890121e-38
0.032914273 0.050468571 0.76800001 1.8069662e-38
0.034377128 0.050468564 0.76800007 1.7152032e-38
0.035793271 0.050402876 0.76699996 1.7887082e-38
0.037302833 0.050468571 0.76800007 1.8539628e-38
-0.021321921 0.052201912 0.77200007 1.3160978e-38
-0.019748574 0.051931426 0.76800007 1.445708e-38
-0.018214343 0.051728588 0.76500005 1.5753201e-38
-0.016757179 0.05172858 0.76500005 1.5929717e-38
-0.01526003 0.051593337 0.76300001 1.6099727e-38
-0.013806714 0.051593345 0.76300001 1.6934109e-38
-0.012320992 0.051458102 0.76100004 1.7865832e-38
-0.010871464 0.051458098 0.76100004 1.9067321e-38
-0.0093848184 0.051255252 0.75800002 2.0253967e-38
-0.0079410076 0.051255245 0.75800002 1.9511351e-38
-0.006497195 0.051255237 0.75800002 1.8766602e-38
-0.0050533833 0.051255237 0.75800002 2.0344287e-38
-0.0036000253 0.051120002 0.75600004 2.1923857e-38
-0.0021571813 0.051052384 0.75500011 2.2293423e-38
-0.00071908423 0.051052377 0.75500011 2.264778e-38
0.0007190138 0.051052384 0.75500011 2.1629628e-38
0.002157111 0.051052384 0.75500011 2.0713792e-38
0.0035952071 0.05105238 0.75500011 2.1456375e-38
0.005033304 0.051052377 0.75500011 2.2285756e-38
0.006471402 0.051052384 0.75500011 2.1819753e-38
0.0079094991 0.05105238 0.75500005 2.1271272e-38
0.0093475953 0.051052392 0.75500005 2.2004541e-38
0.010785694 0.051052384 0.75500005 2.2668929e-38
0.01222379 0.05105238 0.75500005 1.8887904e-38
0.013661887 0.051052377 0.75500005 1.5004845e-38
0.015099986 0.051052392 0.75500005 1.352027e-38
0.016538082 0.051052384 0.75500005 1.2075831e-38
0.017976152 0.051052392 0.75500011 1.7619139e-38
0.019414252 0.051052388 0.75500011 2.313567e-38
0.020879967 0.051119991 0.75600004 1.5014987e-38
0.022319986 0.051120006 0.75600004 6.9166242e-39
0.023822801 0.051255245 0.75800002 1.0239941e-38
0.02533331 0.051390473 0.76000005 1.3643943e-38
0.026816171 0.051458098 0.76100004 1.3646085e-38
0.028339949 0.051593345 0.76300001 1.3748705e-38
0.029871389 0.051728591 0.76499999 1.6143267e-38
0.031410445 0.051863816 0.76700002 1.8532068e-38
0.032871369 0.051863819 0.76700002 1.7795234e-38
0.03437715 0.051931426 0.76800007 1.7151309e-38
0.035793312 0.051863819 0.76700002 1.6967278e-38
0.037254237 0.051863823 0.76700002 1.6874384e-38
0.038715199 0.051863816 0.76700002 1.8263414e-38
-0.021321936 0.053672373 0.77200007 1.3903575e-38
-0.019800043 0.053533353 0.77000004 1.4085447e-38
-0.018261952 0.053324774 0.76700002 1.4183031e-38
-0.016757173 0.053185735 0.76500005 1.500597e-38
-0.015300035 0.053185724 0.76500005 1.5832118e-38
-0.013806716 0.053046677 0.76300001 1.6562843e-38
-0.01235337 0.05304667 0.76300001 1.7217227e-38
-0.010871476 0.052907627 0.76100004 1.7769015e-38
-0.0094095692 0.052838113 0.76000005 1.8324665e-38
-0.0079409787 0.052699059 0.75800002 1.8780586e-38
-0.0064971652 0.052699052 0.75800002 1.924084e-38
-0.0050533833 0.052699059 0.75800002 2.0435419e-38
-0.0036095704 0.052699067 0.75800002 2.1550408e-38
-0.0021571943 0.052490495 0.75500005 2.173664e-38
-0.00071909727 0.052490488 0.75500005 2.1826649e-38
0.00071899983 0.052490484 0.75500005 2.2287229e-38
0.002157097 0.052490495 0.75500005 2.2743538e-38
0.0035951931 0.052490488 0.75500005 2.2471263e-38
0.0050332919 0.052490484 0.75500005 2.2197906e-38
0.006471388 0.052490499 0.75500005 2.183056e-38
0.0079094851 0.052490495 0.75500005 2.1451342e-38
0.0093475571 0.052490484 0.75500005 2.1703133e-38
0.010785654 0.05249048 0.75500005 2.1914119e-38
0.01222375 0.052490491 0.75500005 1.8620649e-38
0.013661848 0.052490484 0.75500005 1.5278916e-38
0.015099945 0.052490495 0.75500005 1.3592016e-38
0.016538041 0.052490488 0.75500005 1.188929e-38
0.017999971 0.052560013 0.75600004 1.7540218e-38
0.019439964 0.052560005 0.75600004 2.3032362e-38
0.02087996 0.052559998 0.75600004 1.4815189e-38
0.022379017 0.052699059 0.75800002 6.5561164e-39
0.02388569 0.052838109 0.76000005 1.0153869e-38
0.025366629 0.052907631 0.76100004 1.3737948e-38
0.026886623 0.053046674 0.76300001 1.3828333e-38
0.028339969 0.053046666 0.76300001 1.3838037e-38
0.029871395 0.053185724 0.76500005 1.6051075e-38
0.031410459 0.05332477 0.76700002 1.8164006e-38
0.032914288 0.05339428 0.76800007 1.7611916e-38
0.034377113 0.053394284 0.76800007 1.7059473e-38
0.03583999 0.053394292 0.76800007 1.6139689e-38
0.037302841 0.053394295 0.76800001 1.5221698e-38
0.038765695 0.053394288 0.76800007 1.5588687e-38
-0.021266714 0.055000022 0.77000004 1.3447648e-38
-0.019748591 0.05485715 0.76800007 1.4089049e-38
-0.01821433 0.054642875 0.76500005 1.4733686e-38
-0.016757166 0.054642867 0.76500005 1.5656699e-38
-0.015260037 0.054500006 0.76300001 1.657757e-38
-0.013806691 0.054500002 0.76300001 1.7126792e-38
-0.012353402 0.054500002 0.76300001 1.777253e-38
-0.01087146 0.054357149 0.76100004 1.8695209e-38
-0.009409559 0.054285727 0.76000005 1.9525302e-38
-0.0079619288 0.054285716 0.76000005 2.0172441e-38
-0.0064971922 0.054142874 0.75800002 2.0725986e-38
-0.0050533796 0.05414287 0.75800002 2.1276301e-38
-0.0036095676 0.054142866 0.75800002 2.1738018e-38
-0.0021571785 0.05392858 0.75500005 2.1923151e-38
-0.00071908144 0.053928576 0.75500005 2.2196509e-38
0.00071898958 0.053928584 0.75500005 2.2473454e-38
0.0021570867 0.053928576 0.75500005 2.2838282e-38
0.0035951848 0.053928588 0.75500005 2.2843302e-38
0.0050332816 0.053928584 0.75500005 2.2847251e-38
0.0064713778 0.053928576 0.75500005 2.2476682e-38
0.0079094768 0.053928573 0.75500005 2.2102786e-38
0.0093475729 0.053928588 0.75500005 2.2183044e-38
0.010785669 0.053928584 0.75500005 2.2368238e-38
0.012223768 0.053928591 0.75500005 1.9066552e-38
0.013661864 0.053928584 0.75500005 1.5827059e-38
0.015099961 0.053928584 0.75500005 1.4158814e-38
0.016538059 0.053928576 0.75500005 1.2430617e-38
0.017999938 0.054000013 0.75600004 1.7708105e-38
0.019439958 0.054000013 0.75600004 2.3046001e-38
0.020935208 0.054142859 0.75800002 1.5017528e-38
0.02237902 0.05414287 0.75800002 7.1042791e-39
0.02391712 0.054357141 0.76100004 1.0427964e-38
0.025366647 0.054357156 0.76100004 1.3743706e-38
0.026886649 0.054500014 0.76300001 1.3371317e-38
0.028339941 0.054500014 0.76300001 1.300937e-38
0.029871402 0.054642878 0.76500005 1.5496835e-38
0.031410448 0.054785721 0.76700002 1.7981051e-38
0.032914255 0.054857153 0.76800007 1.7428598e-38
0.034377135 0.054857146 0.76800007 1.6967281e-38
0.035839982 0.05485715 0.76800001 1.6508114e-38
0.037302837 0.054857139 0.76800007 1.604893e-38
0.038765714 0.054857135 0.76800007 1.6324071e-38
-0.022792378 0.056613334 0.77200007 1.1694172e-38
-0.021266712 0.056466669 0.77000004 1.2984507e-38
-0.019800039 0.056466676 0.77000004 1.4089737e-38
-0.018261949 0.056246679 0.76700002 1.5197526e-38
-0.016757187 0.056100003 0.76500005 1.6218142e-38
-0.015300052 0.056100011 0.76500005 1.7225103e-38
-0.013806721 0.055953346 0.76300001 1.7777551e-38
-0.012353376 0.055953339 0.76300001 1.8330018e-38
-0.010871473 0.055806682 0.76100004 1.9529998e-38
-0.0094095478 0.055733331 0.76000005 2.0729602e-38
-0.0079619717 0.055733338 0.76000005 2.1473617e-38
-0.0064971875 0.05558667 0.75800002 2.2203644e-38
-0.0050533758 0.055586662 0.75800002 2.2113252e-38
-0.003609563 0.055586673 0.75800002 2.1925289e-38
-0.0021571878 0.055366676 0.75500005 2.2204755e-38
-0.00071909168 0.055366673 0.75500005 2.247919e-38
0.00071900449 0.055366687 0.75500005 2.2663584e-38
0.0021571035 0.05536668 0.75500005 2.284654e-38
0.0035951997 0.055366673 0.75500005 2.3124561e-38
0.0050332956 0.055366669 0.75500005 2.3401865e-38
0.0064713946 0.05536668 0.75500005 2.3125645e-38
0.0079094907 0.055366676 0.75500005 2.2748908e-38
0.0093475878 0.055366669 0.75500005 2.2741306e-38
0.010785686 0.055366684 0.75500005 2.2745993e-38
0.012223757 0.055366676 0.75500005 1.9633297e-38
0.013661853 0.055366673 0.75500005 1.6379495e-38
0.015099952 0.055366665 0.75500005 1.4694069e-38
0.016538048 0.055366673 0.75500005 1.2990611e-38
0.01799996 0.055440009 0.75600004 1.7999396e-38
0.019439979 0.055440005 0.75600004 2.2943758e-38
0.020935183 0.055586681 0.75800002 1.528872e-38
0.022438057 0.055733334 0.76000005 7.6613709e-39
0.023917107 0.055806678 0.76100004 1.0709182e-38
0.025366632 0.055806685 0.76100004 1.3735778e-38
0.026886621 0.055953342 0.76300001 1.2903491e-38
0.028339963 0.05595335 0.76300001 1.2086678e-38
0.029949479 0.056246679 0.76700002 1.4946154e-38
0.031410437 0.056246672 0.76700002 1.7703741e-38
0.032914273 0.05632 0.76800007 1.7337847e-38
0.034377154 0.056319993 0.76800007 1.6877247e-38
0.035933293 0.056466673 0.77000004 1.6876902e-38
0.037399966 0.056466665 0.77000004 1.6876894e-38
-0.022792393 0.058083806 0.77200007 1.1513365e-38
-0.021321934 0.058083814 0.77200001 1.2614279e-38
-0.019800037 0.057933342 0.77000004 1.3447217e-38
-0.01826196 0.057707623 0.76700002 1.4370288e-38
-0.016757209 0.057557154 0.76500005 1.4926373e-38
-0.015300045 0.057557147 0.76500005 1.5479533e-38
-0.013806697 0.057406683 0.76300001 1.6766301e-38
-0.012353377 0.057406675 0.76300001 1.8056322e-38
-0.010871456 0.057256203 0.76100004 1.8797124e-38
-0.0094219577 0.057256203 0.76100004 1.9542592e-38
-0.0079619614 0.057180967 0.76000005 2.0183668e-38
-0.0065143313 0.05718096 0.76000005 2.0827946e-38
-0.0050533758 0.057030484 0.75800002 2.0732876e-38
-0.0036095639 0.057030495 0.75800002 2.0726419e-38
-0.0021600311 0.056880012 0.75600004 2.100874e-38
-0.0007200379 0.056880005 0.75600004 2.129107e-38
0.00071902218 0.056804772 0.75500005 2.1288564e-38
0.0021599748 0.056879997 0.75600004 2.138256e-38
0.0035952155 0.056804761 0.75500005 2.0922674e-38
0.0050332872 0.056804769 0.75500005 2.0468883e-38
0.0064713843 0.056804761 0.75500005 1.9630531e-38
0.0079094805 0.056804772 0.75500005 1.880182e-38
0.0093475794 0.056804769 0.75500005 1.8241439e-38
0.010785676 0.056804769 0.75500005 1.779191e-38
0.012223773 0.056804761 0.75500005 1.6118385e-38
0.013661871 0.056804772 0.75500005 1.4444838e-38
0.015099968 0.056804769 0.75500005 1.3976631e-38
0.016559958 0.05688002 0.75600004 1.3542714e-38
0.017999951 0.056880012 0.75600004 1.826127e-38
0.019491399 0.057030484 0.75800002 2.304348e-38
0.020935209 0.057030477 0.75800002 1.4465778e-38
0.022438036 0.057180971 0.76000005 5.9921708e-39
0.023917126 0.057256199 0.76100004 8.12054e-39
0.025433298 0.057406671 0.76300001 1.0332092e-38
0.026886618 0.057406679 0.76300001 1.0512859e-38
0.028414251 0.057557158 0.76500005 1.0793773e-38
0.029949494 0.05770763 0.76700002 1.4021674e-38
0.031410452 0.057707626 0.76700002 1.7244197e-38
0.032914292 0.057782847 0.76800007 1.6785047e-38
0.03437712 0.057782851 0.76800007 1.6418438e-38
0.035839997 0.057782859 0.76800007 1.6693243e-38
0.037302848 0.057782866 0.76800001 1.6969457e-38
-0.021321924 0.059554294 0.77200001 1.2252676e-38
-0.019800065 0.059400011 0.77000004 1.289873e-38
-0.018261947 0.059168588 0.76700002 1.3450129e-38
-0.016757201 0.059014305 0.76500005 1.3637058e-38
-0.015300038 0.059014298 0.76500005 1.3729977e-38
-0.013806699 0.05886 0.76300001 1.57518e-38
-0.012353383 0.058860008 0.76300001 1.7778642e-38
-0.010871469 0.058705717 0.76100004 1.8059894e-38
-0.0094219409 0.058705714 0.76100004 1.8337945e-38
-0.0079619503 0.058628578 0.76000005 1.8890785e-38
-0.0065143202 0.058628589 0.76000005 1.9351036e-38
-0.0050667152 0.058628581 0.76000005 1.9447891e-38
-0.0036095593 0.058474291 0.75800002 1.9439996e-38
-0.0021600386 0.058320016 0.75600004 1.9812359e-38
-0.00072004535 0.058320012 0.75600004 2.008823e-38
0.00071994792 0.058320004 0.75600004 2.0000706e-38
0.0021599664 0.058320004 0.75600004 1.9812377e-38
0.0035952071 0.058242861 0.75500005 1.8622109e-38
0.0050333031 0.058242869 0.75500005 1.7413521e-38
0.0064714001 0.058242865 0.75500005 1.6125654e-38
0.0079094982 0.058242861 0.75500005 1.4734086e-38
0.0093475953 0.058242854 0.75500005 1.3814252e-38
0.010785691 0.058242865 0.75500005 1.2799026e-38
0.012223789 0.058242865 0.75500005 1.2695339e-38
0.013679966 0.058320008 0.75600004 1.2508403e-38
0.015099957 0.058242865 0.75500005 1.3224754e-38
0.016559953 0.058320012 0.75600004 1.4004057e-38
0.017999975 0.058320008 0.75600004 1.8550409e-38
0.019491402 0.058474291 0.75800002 2.303271e-38
0.020990416 0.058628585 0.76000005 1.3630273e-38
0.022438047 0.058628585 0.76000005 4.2515704e-39
0.023917086 0.058705725 0.76100004 5.5408532e-39
0.025433296 0.058860004 0.76300001 6.8315444e-39
0.026886614 0.058860011 0.76300001 8.1136274e-39
0.02833996 0.058860004 0.76300001 9.4140646e-39
0.029949479 0.059168588 0.76700002 1.3102583e-38
0.031410441 0.059168577 0.76700002 1.6783914e-38
0.032914259 0.059245706 0.76800007 1.6322962e-38
0.034466624 0.059400007 0.77000004 1.5862727e-38
0.035933297 0.059400015 0.77000004 1.6416269e-38
0.037399966 0.059400022 0.76999998 1.6967645e-38
-0.019800063 0.060866676 0.77000004 1.2439207e-38
-0.018261956 0.060629543 0.76700002 1.2618579e-38
-0.016757196 0.060471442 0.76500005 1.2807278e-38
-0.015300032 0.060471438 0.76500005 1.299061e-38
-0.01380673 0.060313333 0.76300001 1.4468248e-38
-0.012353383 0.060313329 0.76300001 1.5940476e-38
-0.01087148 0.06015525 0.76100004 1.4839158e-38
-0.0094219539 0.060155261 0.76100004 1.3735385e-38
-0.0079724267 0.06015525 0.76100004 1.3914437e-38
-0.0065143341 0.060076199 0.76000005 1.4104924e-38
-0.005066704 0.060076203 0.76000005 1.4281061e-38
-0.0036095565 0.059918102 0.75800002 1.4559435e-38
-0.0021600469 0.059760008 0.75600004 1.5018608e-38
-0.00072005374 0.059760015 0.75600004 1.5483532e-38
0.00071994046 0.059760012 0.75600004 1.5571429e-38
0.0021599589 0.059760008 0.75600004 1.5754027e-38
0.003595223 0.059680961 0.75500005 1.5010734e-38
0.0050399462 0.059760012 0.75600004 1.4253049e-38
0.0064713918 0.05968095 0.75500011 1.3059505e-38
0.0079094879 0.059680957 0.75500011 1.1939136e-38
0.0093475841 0.059680954 0.75500011 1.2230377e-38
0.010785683 0.05968095 0.75500011 1.2495852e-38
0.012239965 0.059760004 0.75600004 1.2418377e-38
0.013679959 0.059760015 0.75600004 1.2424104e-38
0.015119952 0.059760008 0.75600004 1.3243435e-38
0.016559945 0.059760001 0.75600004 1.4095906e-38
0.017999964 0.059760015 0.75600004 1.8260553e-38
0.019491376 0.059918113 0.75800002 2.2304475e-38
0.020990429 0.060076199 0.76000005 1.5473063e-38
0.022438059 0.060076207 0.76000005 8.7400008e-39
0.023917129 0.06015525 0.76100004 9.8613829e-39
0.025433293 0.06031334 0.76300001 1.105343e-38
0.026886614 0.060313348 0.76300001 9.6776699e-39
0.028414264 0.060471434 0.76500005 8.309861e-39
0.029949468 0.060629535 0.76700002 1.2738092e-38
0.0314514 0.060708575 0.76800007 1.7251314e-38
0.032914277 0.060708568 0.76800007 1.7060118e-38
0.034466628 0.060866684 0.77000004 1.6956825e-38
0.035933297 0.06086668 0.77000004 1.6501974e-38
0.037399966 0.060866684 0.77000004 1.6138237e-38
-0.0197486 0.062171437 0.76800001 1.2077238e-38
-0.018261943 0.062090497 0.76700002 1.1717045e-38
-0.01675719 0.061928581 0.76500005 1.1982842e-38
-0.015300025 0.061928574 0.76500005 1.2272749e-38
-0.013806703 0.061766673 0.76300001 1.318972e-38
-0.012353359 0.061766669 0.76300001 1.4021566e-38
-0.010871463 0.061604772 0.76100004 1.152868e-38
-0.0094219372 0.061604764 0.76100004 9.0380402e-39
-0.0079724099 0.061604761 0.76100004 8.926515e-39
-0.006514322 0.06152381 0.76000005 8.7503914e-39
-0.0050666919 0.061523817 0.76000005 9.1955938e-39
-0.003600043 0.061200008 0.75600004 9.5783556e-39
-0.0021600497 0.0612 0.75600004 1.0218689e-38
-0.00072003138 0.061200015 0.75600004 1.0871236e-38
0.00071996188 0.061200008 0.75600004 1.1231416e-38
0.0021599543 0.061200004 0.75600004 1.1605225e-38
0.0035999746 0.061199997 0.75600004 1.1321836e-38
0.0050399676 0.061200008 0.75600004 1.1040199e-38
0.0064713759 0.061119061 0.75500005 1.0104234e-38
0.0079199541 0.061200012 0.75600004 9.1011897e-39
0.0093599744 0.061200012 0.75600004 1.0671694e-38
0.010799968 0.061200004 0.75600004 1.2142506e-38
0.012239962 0.0612 0.75600004 1.2241885e-38
0.01367998 0.061200012 0.75600004 1.2327969e-38
0.015119975 0.061200004 0.75600004 1.3229454e-38
0.016559968 0.0612 0.75600004 1.4189181e-38
0.017999962 0.061200008 0.75600004 1.7907201e-38
0.01949138 0.061361905 0.75800002 2.1560122e-38
0.020990441 0.061523825 0.76000005 1.7401644e-38
0.022438044 0.061523817 0.76000005 1.318224e-38
0.02391709 0.061604764 0.76100004 1.420284e-38
0.025433289 0.061766677 0.76300001 1.5200424e-38
0.026886636 0.061766673 0.76300001 1.1141318e-38
0.028488526 0.062090483 0.76699996 7.1181758e-39
0.029988563 0.062171429 0.76800001 1.2380105e-38
0.031451419 0.062171437 0.76800007 1.7620825e-38
0.032999955 0.062333357 0.77000004 1.7800906e-38
0.034377124 0.062171433 0.76800007 1.797811e-38
0.035840001 0.062171429 0.76800007 1.6680205e-38
0.037302852 0.062171433 0.76800001 1.5308436e-38
-0.019722912 0.063551441 0.76699996 1.3209388e-38
-0.018214321 0.063385725 0.76500005 1.4138809e-38
-0.016757183 0.063385732 0.76500005 1.4313098e-38
-0.015300019 0.063385725 0.76500005 1.4417573e-38
-0.0137705 0.063054293 0.76100004 1.5051895e-38
-0.012321004 0.063054308 0.76100004 1.5703253e-38
-0.010871476 0.063054301 0.76100004 1.3105214e-38
-0.0094219502 0.063054293 0.76100004 1.0501926e-38
-0.0079619428 0.062971443 0.76000005 1.049335e-38
-0.0065143118 0.062971435 0.76000005 1.0488359e-38
-0.0050667105 0.062971443 0.76000005 1.067457e-38
-0.0036000514 0.062640011 0.75600004 1.0860387e-38
-0.0021600581 0.062640011 0.75600004 1.1416415e-38
-0.00072003884 0.062640019 0.75600004 1.2060717e-38
0.0007199535 0.062640011 0.75600004 1.2429871e-38
0.0021599478 0.062640011 0.75600004 1.2889425e-38
0.0035999401 0.062639996 0.75600004 1.2430266e-38
0.0050399611 0.062640011 0.75600004 1.2062901e-38
0.0064799534 0.062640011 0.75600004 1.1223086e-38
0.0079199476 0.062640019 0.75600004 1.039369e-38
0.009359966 0.062640011 0.75600004 1.1224866e-38
0.010799961 0.062640011 0.75600004 1.2058927e-38
0.012239954 0.062640004 0.75600004 1.1781994e-38
0.013679948 0.062640011 0.75600004 1.1507914e-38
0.015119966 0.062640011 0.75600004 1.2417651e-38
0.01655996 0.062640004 0.75600004 1.3453066e-38
0.018047597 0.062805727 0.75800002 1.7244623e-38
0.019542823 0.062971443 0.76000005 2.1096658e-38
0.020990426 0.062971428 0.76000005 1.8526305e-38
0.022467582 0.063054293 0.76100004 1.5965342e-38
0.023979969 0.063220009 0.76300001 1.4578868e-38
0.025433315 0.063219994 0.76300001 1.3291299e-38
0.026957115 0.063385725 0.76500005 9.8696295e-39
0.028488545 0.063551441 0.76700002 6.4681765e-39
0.029988559 0.063634291 0.76800007 1.1914139e-38
0.031451412 0.063634291 0.76800001 1.7264621e-38
0.032914262 0.063634291 0.76800007 1.9004818e-38
0.034466632 0.063800007 0.77000004 2.0658173e-38
0.035933297 0.063800022 0.76999998 2.0004519e-38
0.037399974 0.063800007 0.77000004 1.9355602e-38
-0.019722924 0.065012403 0.76700002 1.4416892e-38
-0.018214339 0.06484288 0.76500005 1.6528746e-38
-0.016757175 0.064842865 0.76500005 1.6529819e-38
-0.015300068 0.064842872 0.76500005 1.6529847e-38
-0.01380671 0.064673342 0.76300001 1.6989054e-38
-0.012353363 0.064673357 0.76300001 1.7354901e-38
-0.010900045 0.064673349 0.76300001 1.4687308e-38
-0.0094219316 0.064503819 0.76100004 1.1988209e-38
-0.0079619614 0.064419061 0.76000005 1.2056014e-38
-0.0065143304 0.064419076 0.76000005 1.2149311e-38
-0.0050667245 0.064419061 0.76000005 1.2153642e-38
-0.00360003 0.064080007 0.75600004 1.206001e-38
-0.0021600367 0.064080015 0.75600004 1.2708956e-38
-0.00072004349 0.064080015 0.75600004 1.3259265e-38
0.00071997585 0.064080007 0.75600004 1.3720969e-38
0.0021599683 0.06408 0.75600004 1.4087963e-38
0.0035999625 0.064080015 0.75600004 1.3629872e-38
0.0050399816 0.064080015 0.75600004 1.3073089e-38
0.0064799758 0.064080022 0.75600004 1.2422676e-38
0.0079199681 0.064080015 0.75600004 1.1683675e-38
0.0093599623 0.064080007 0.75600004 1.1775498e-38
0.010799982 0.06408 0.75600004 1.1871645e-38
0.012239976 0.06408 0.75600004 1.1227011e-38
0.013679968 0.064080015 0.75600004 1.0583462e-38
0.015119988 0.064080007 0.75600004 1.166434e-38
0.016603759 0.064249545 0.75800002 1.2719817e-38
0.018047571 0.064249545 0.75800002 1.6704345e-38
0.019542808 0.064419046 0.76000005 2.0553528e-38
0.021018041 0.064503834 0.76100004 1.9640898e-38
0.022467567 0.064503819 0.76100004 1.8621742e-38
0.02397994 0.064673349 0.76300001 1.494689e-38
0.025499981 0.064842857 0.76500005 1.1252239e-38
0.026957093 0.06484288 0.76499999 8.5771055e-39
0.028488534 0.065012388 0.76700002 5.8285412e-39
0.029949486 0.065012395 0.76699996 1.135988e-38
0.031451404 0.065097138 0.76800007 1.6888683e-38
0.032914281 0.065097138 0.76800007 2.0111555e-38
0.034377135 0.065097146 0.76800001 2.3324324e-38
0.035839986 0.065097153 0.76800007 2.3416481e-38
0.037399974 0.065266669 0.77000004 2.3411479e-38
-0.029268604 0.068293333 0.78800005 9.5987053e-39
-0.027767645 0.068293348 0.78800005 9.2421421e-39
-0.026133349 0.06794668 0.78400004 1.0353871e-38
-0.024640029 0.06794668 0.78400004 1.1463475e-38
-0.022999054 0.067513332 0.7790001 1.1925566e-38
-0.021515245 0.067513332 0.7790001 1.2386149e-38
-0.019748596 0.06656 0.76800001 1.3493166e-38
-0.018214332 0.06630002 0.76500005 1.4601339e-38
-0.016713379 0.066126674 0.76300001 1.5519742e-38
-0.015260031 0.066126689 0.76300001 1.6529906e-38
-0.013770526 0.065953359 0.76099998 1.6897221e-38
-0.012321 0.065953344 0.76100004 1.7264544e-38
-0.010871472 0.065953344 0.76100004 1.504971e-38
-0.0094219446 0.065953352 0.76100004 1.2819087e-38
-0.0079724193 0.065953344 0.76100004 1.1515069e-38
-0.0065143453 0.065866679 0.76000005 1.0226168e-38
-0.0050667142 0.065866679 0.76000005 1.059138e-38
-0.0036095751 0.065693349 0.75800002 1.1048049e-38
-0.0021600432 0.065520003 0.75600004 1.1420057e-38
-0.00072005001 0.065520018 0.75600004 1.179064e-38
0.0007199414 0.065520011 0.75600004 1.1698457e-38
0.0021599617 0.065520011 0.75600004 1.1702765e-38
0.0035999541 0.065520003 0.75600004 1.1883926e-38
0.005039949 0.065520003 0.75600004 1.2065047e-38
0.0064799674 0.065520011 0.75600004 1.1047284e-38
0.0079199616 0.065520003 0.75600004 1.0029902e-38
0.0093599539 0.065520011 0.75600004 1.0772818e-38
0.010799949 0.065520003 0.75600004 1.1506792e-38
0.012239967 0.065520003 0.75600004 1.1517559e-38
0.013716141 0.065693356 0.75800002 1.151545e-38
0.015159951 0.065693349 0.75800002 1.207368e-38
0.016603762 0.065693349 0.75800002 1.2730221e-38
0.018095214 0.065866679 0.76000005 1.5590812e-38
0.019542819 0.065866679 0.76000005 1.8526682e-38
0.02101806 0.065953329 0.76100004 1.5584003e-38
0.022467555 0.065953344 0.76100004 1.2637354e-38
0.023917085 0.065953344 0.76100004 9.223275e-39
0.025499962 0.066300005 0.76500005 5.8055795e-39
0.026957097 0.066300027 0.76500005 4.618122e-39
0.028488548 0.066473342 0.76700002 3.5215177e-39
0.029988544 0.06656 0.76800007 7.03032e-39
0.031451426 0.066559993 0.76800007 1.0461289e-38
0.032914273 0.066560015 0.76800001 1.6711894e-38
0.034377128 0.06656 0.76800007 2.3050305e-38
0.035840005 0.066560015 0.76800007 2.3233585e-38
-0.030769533 0.069794297 0.78800011 9.6015654e-39
-0.0292686 0.06979429 0.78800011 9.8759746e-39
-0.027697155 0.06961716 0.78600001 1.0160836e-38
-0.026133368 0.069440007 0.78400004 1.0999579e-38
-0.024640022 0.069440015 0.78400004 1.1736446e-38
-0.022999069 0.068997145 0.7790001 1.2111713e-38
-0.02146004 0.068820015 0.77700001 1.2383943e-38
-0.019877195 0.068465725 0.773 1.2476808e-38
-0.018261964 0.067934304 0.76700002 1.2574073e-38
-0.016801007 0.067934297 0.76700002 1.450948e-38
-0.015300053 0.067757145 0.76500005 1.6438034e-38
-0.01384289 0.067757145 0.76500005 1.6805384e-38
-0.012353372 0.067580022 0.76300001 1.7080884e-38
-0.010900052 0.067580014 0.76300001 1.5336002e-38
-0.0094467048 0.067580029 0.76300001 1.3561678e-38
-0.0079724304 0.067402869 0.76100004 1.0867563e-38
-0.0065143341 0.067314297 0.76000005 8.2075761e-39
-0.0050667031 0.06731429 0.76000005 9.1212829e-39
-0.0036095453 0.067137152 0.75800002 1.0042516e-38
-0.0021600227 0.066960007 0.75600004 1.0132209e-38
-0.00072194805 0.067137152 0.75800002 1.0230156e-38
0.00071996468 0.066960007 0.75600004 9.7627413e-39
0.0021599832 0.066960007 0.75600004 9.3114531e-39
0.0035999774 0.06696 0.75600004 1.0229805e-38
0.0050399695 0.066959992 0.75600004 1.1057374e-38
0.0064799646 0.06696 0.7560001 9.6712057e-39
0.0079199532 0.066960007 0.75600004 8.3026612e-39
0.0093847066 0.067137152 0.75800002 9.686669e-39
0.010828519 0.067137145 0.75800002 1.1074211e-38
0.012272356 0.067137159 0.75800002 1.172958e-38
0.013716143 0.067137152 0.75800002 1.23714e-38
0.015199964 0.06731429 0.76000005 1.2568392e-38
0.016669495 0.067402855 0.76100004 1.2654887e-38
0.018118991 0.067402869 0.76100004 1.4585268e-38
0.019568518 0.067402855 0.76100004 1.6510195e-38
0.021073299 0.067580007 0.76300001 1.1531316e-38
0.022526618 0.067580014 0.76300001 6.5570889e-39
0.023979964 0.067580014 0.76300001 3.4106021e-39
0.025499938 0.067757159 0.76500005 2.9213289e-40
0.026957104 0.067757167 0.76500005 7.5201943e-40
0.028488537 0.067934297 0.76700002 1.2173122e-39
0.029988563 0.068022847 0.76800007 2.5952202e-39
0.031451415 0.068022847 0.76800001 4.0044065e-39
0.032914266 0.068022862 0.76800007 1.3407586e-38
0.034377147 0.068022847 0.76800007 2.2682963e-38
0.035933305 0.068200022 0.77000004 2.3050296e-38
-0.030769562 0.071295254 0.78800005 7.3909848e-39
-0.029268572 0.071295246 0.78800011 7.4842748e-39
-0.027697191 0.071114287 0.78600001 7.5865514e-39
