# .PCD v0.7 - Point Cloud Data file format
VERSION 0.7
FIELDS x y z rgb
SIZE 4 4 4 4
TYPE F F F F
COUNT 1 1 1 1
WIDTH 946
HEIGHT 1
VIEWPOINT 0 0 0 1 0 0 0
POINTS 946
DATA ascii
0.020410478 -0.01900284 0.73900002 2.1747353e-38
0.021847619 -0.019028582 0.74000001 1.9989178e-38
0.023257144 -0.019028574 0.74000007 2.0508953e-38
0.024733335 -0.019079998 0.7420001 2.1006941e-38
0.026146667 -0.019079998 0.74200004 2.2215936e-38
0.027559999 -0.019079998 0.7420001 2.3414454e-38
0.028973335 -0.019079998 0.74200004 2.34166e-38
0.030427618 -0.01910571 0.74300009 2.331652e-38
0.031842858 -0.019105725 0.74300009 2.2683006e-38
0.033347622 -0.019157127 0.74500012 2.201712e-38
0.034906674 -0.01923427 0.74800009 1.5937962e-38
0.036331426 -0.019234262 0.74800003 9.8609793e-39
0.03775619 -0.019234285 0.74800003 9.5796785e-39
0.039390475 -0.019337125 0.75200009 9.3099117e-39
0.040822856 -0.019337133 0.75200003 9.8641533e-39
0.042311434 -0.019362852 0.75300002 1.0415875e-38
0.043745715 -0.019362852 0.75300008 1.0232555e-38
0.04518 -0.019362859 0.75300008 9.9563167e-39
-0.025333336 -0.018095225 0.76000005 1.0502663e-38
-0.023822857 -0.018047586 0.75800002 9.0282998e-39
-0.022379046 -0.018047594 0.75800002 9.3945922e-39
-0.020880001 -0.017999992 0.75600004 9.7597874e-39
-0.019414287 -0.017976195 0.75500005 9.7583566e-39
-0.017928571 -0.017928563 0.75300002 9.7572762e-39
-0.016428571 -0.017857119 0.75000006 9.3888539e-39
-0.014959998 -0.01780951 0.74800003 9.11226e-39
-0.013535237 -0.017809495 0.74800003 9.6643365e-39
-0.012094285 -0.017785691 0.74700004 1.0123482e-38
-0.010671429 -0.017785691 0.7470001 9.2815032e-39
-0.0092238085 -0.017738089 0.74500012 8.4501226e-39
-0.0078047616 -0.017738096 0.74500012 1.5950661e-38
-0.0063857147 -0.017738089 0.74500006 2.341767e-38
-0.0049533336 -0.017690472 0.74300009 2.2671501e-38
-0.0035380952 -0.017690472 0.74300009 2.2021484e-38
-0.0021228574 -0.017690465 0.74300003 2.1747777e-38
-0.00070476194 -0.017619029 0.74000001 2.1540383e-38
0.00070476189 -0.017619044 0.74000007 2.1794677e-38
0.0021142859 -0.017619044 0.74000001 2.2015282e-38
0.0035238098 -0.017619029 0.74000001 2.2764658e-38
0.004933333 -0.017619036 0.74000007 2.3402555e-38
0.0063428576 -0.017619036 0.74000001 2.2392433e-38
0.0077209524 -0.017547593 0.73700005 2.1397309e-38
0.0091495244 -0.017595217 0.73900002 2.1191038e-38
0.010557145 -0.017595217 0.73900002 2.1029967e-38
0.011964763 -0.017595232 0.73900002 2.073186e-38
0.013372382 -0.017595217 0.73900002 2.057079e-38
0.01474 -0.017547585 0.73700005 2.1191038e-38
0.016187621 -0.017595209 0.73900002 2.1948322e-38
0.017595237 -0.017595224 0.73899996 2.2683006e-38
0.019028571 -0.017619036 0.74000001 2.3417612e-38
0.020438096 -0.017619044 0.74000007 2.2578099e-38
0.021847617 -0.017619036 0.74000001 2.1730046e-38
0.023319999 -0.017666653 0.74200004 2.1539189e-38
0.024733335 -0.017666653 0.7420001 2.1387176e-38
0.026146665 -0.017666645 0.74200004 2.2403195e-38
0.027559999 -0.017666668 0.7420001 2.341769e-38
0.029012382 -0.01769048 0.74300009 2.3325496e-38
0.030427618 -0.01769048 0.74300003 2.3325854e-38
0.031842854 -0.01769048 0.74300009 2.064146e-38
0.033347625 -0.017738096 0.74500012 1.7948679e-38
0.03490667 -0.01780951 0.74800003 1.3902041e-38
0.036331423 -0.017809503 0.74800003 9.9420066e-39
0.037857141 -0.017857134 0.75000006 9.8562822e-39
0.039390475 -0.017904744 0.75200009 9.7701822e-39
0.040822856 -0.017904751 0.75200003 1.0231149e-38
0.042311434 -0.017928571 0.75300008 1.0690667e-38
0.043745715 -0.017928571 0.75300008 1.0139636e-38
0.04518 -0.017928578 0.75300008 9.4960448e-39
-0.025266668 -0.01660379 0.75800002 1.086786e-38
-0.023822857 -0.016603783 0.75800002 9.4867668e-39
-0.022379044 -0.01660379 0.75800002 9.5782702e-39
-0.020880003 -0.016559996 0.75600004 9.6679561e-39
-0.019440001 -0.016559996 0.75600004 9.7587182e-39
-0.017928572 -0.016494289 0.75300008 9.8491159e-39
-0.016472384 -0.016472355 0.75200003 9.6647233e-39
-0.014999999 -0.01642856 0.75000006 9.4799761e-39
-0.013535238 -0.016384743 0.74800003 9.6629296e-39
-0.012110476 -0.016384743 0.74800003 9.7514987e-39
-0.010671429 -0.016362838 0.7470001 9.3686934e-39
-0.0092485705 -0.016362846 0.7470001 9.0205197e-39
-0.0078047626 -0.016319036 0.74500006 1.6241959e-38
-0.0063857143 -0.016319044 0.74500012 2.3410859e-38
-0.0049533336 -0.016275242 0.74300003 2.2852302e-38
-0.0035380949 -0.016275242 0.74300009 2.2300936e-38
-0.0021228571 -0.016275227 0.74300003 2.1848579e-38
-0.00070476183 -0.01620952 0.74000001 2.1256266e-38
0.00070476183 -0.016209513 0.74000001 2.2041124e-38
0.0021114289 -0.016187593 0.73900002 2.2837889e-38
0.0035238101 -0.016209505 0.74000001 2.3142115e-38
0.004933333 -0.016209513 0.74000007 2.3402573e-38
0.0063342853 -0.016187593 0.73900002 2.1352435e-38
0.0077209524 -0.016143799 0.73700005 1.923907e-38
0.0091247624 -0.016143784 0.73700005 1.8826815e-38
0.010557144 -0.016187601 0.73899996 1.8486378e-38
0.011964763 -0.016187608 0.73900002 1.8000295e-38
0.013372381 -0.016187593 0.73900002 1.7567384e-38
0.014779999 -0.016187608 0.73900002 1.9010643e-38
0.016187619 -0.016187593 0.73900002 2.0455985e-38
0.017619045 -0.016209513 0.74000007 2.1947605e-38
0.019028571 -0.016209505 0.74000001 2.3417651e-38
0.020438099 -0.016209505 0.74000001 2.3417612e-38
0.021906665 -0.016253322 0.74200004 2.3388525e-38
0.023319997 -0.01625333 0.7420001 2.2530766e-38
0.024733333 -0.016253315 0.74200004 2.165194e-38
0.026146665 -0.016253322 0.7420001 2.2591171e-38
0.027597142 -0.016275235 0.74300003 2.341769e-38
0.029012382 -0.016275235 0.74300009 2.3325854e-38
0.03042762 -0.016275235 0.74300009 2.3217837e-38
0.031842854 -0.016275235 0.74300009 1.8515892e-38
0.033437144 -0.016362846 0.7470001 1.3809239e-38
0.03490667 -0.016384736 0.74800003 1.1871641e-38
0.036331426 -0.016384751 0.74800003 9.9474058e-39
0.037857145 -0.016428567 0.75000012 1.0132876e-38
0.039442863 -0.016494282 0.75300002 1.0229015e-38
0.040877149 -0.016494274 0.75300008 1.0598867e-38
0.042311434 -0.016494274 0.75300008 1.0965826e-38
0.0438619 -0.016538091 0.75500011 1.0046731e-38
0.045299999 -0.016538084 0.75500011 9.0368855e-39
-0.025266668 -0.015159979 0.75800002 1.0960779e-38
-0.023822857 -0.015159979 0.75800002 9.20768e-39
-0.02232 -0.015119985 0.75600004 9.3924524e-39
-0.020852385 -0.015100002 0.75500011 9.5754073e-39
-0.019414287 -0.015100002 0.75500011 9.849839e-39
-0.017928571 -0.015060008 0.75300008 1.0031355e-38
-0.016472382 -0.015039973 0.75200003 9.8473223e-39
-0.014999999 -0.014999978 0.75000006 9.6629464e-39
-0.013571428 -0.014999978 0.75000012 9.7562281e-39
-0.012110477 -0.014959984 0.74800003 9.942008e-39
-0.010671428 -0.014939979 0.74700004 9.098226e-39
-0.0092485696 -0.014939986 0.7470001 8.2661181e-39
-0.0078257136 -0.014940001 0.7470001 1.5859198e-38
-0.0063857143 -0.014900014 0.74500012 2.3417677e-38
-0.0049666665 -0.014899999 0.74500012 2.2670784e-38
-0.0035476191 -0.014899999 0.74500012 2.2021841e-38
-0.0021228571 -0.014859997 0.74300009 2.1557287e-38
-0.00070476189 -0.014799982 0.74000007 2.1063984e-38
0.00070476183 -0.014799997 0.74000001 2.2079149e-38
0.0021142859 -0.014800005 0.74000007 2.3142129e-38
0.0035238098 -0.01479999 0.74000001 2.3325854e-38
0.0049333335 -0.014799982 0.74000001 2.3417658e-38
0.0063342857 -0.014779985 0.73900002 2.2384116e-38
0.0077419044 -0.014779985 0.73900002 2.1348311e-38
0.0091495235 -0.014779978 0.73900002 2.1156963e-38
0.010557145 -0.014779978 0.73899996 2.0954996e-38
0.011964763 -0.014779992 0.73900002 2.069348e-38
0.013372381 -0.014779978 0.73900002 2.0493466e-38
0.01478 -0.014779985 0.73900002 2.1171627e-38
0.016187619 -0.014779985 0.73900002 2.1948302e-38
0.017619044 -0.014799997 0.74000001 2.2683006e-38
0.019028569 -0.014799997 0.74000007 2.341769e-38
0.020438097 -0.01479999 0.74000001 2.2953132e-38
0.021906665 -0.014839999 0.7420001 2.2478122e-38
0.023319999 -0.014839992 0.74200004 2.2097817e-38
0.024733335 -0.014839992 0.7420001 2.1751689e-38
0.026181905 -0.014859989 0.74300009 2.2587942e-38
0.027597144 -0.014860012 0.74300009 2.341769e-38
0.029012382 -0.014860004 0.74300009 2.2028319e-38
0.03042762 -0.014860004 0.74300009 2.0540578e-38
0.031842858 -0.014859997 0.74300009 1.7396568e-38
0.03343714 -0.014939986 0.74700004 1.4339419e-38
0.03490667 -0.014959984 0.74800003 1.2148966e-38
0.036331426 -0.014959984 0.74800003 1.0046793e-38
0.037857145 -0.014999993 0.75000006 1.0137551e-38
0.03944286 -0.015059993 0.75300008 1.0230823e-38
0.040877149 -0.01506 0.75300008 1.0415212e-38
0.042311434 -0.01506 0.75300008 1.0506661e-38
0.043745715 -0.015059985 0.75300002 9.9556188e-39
0.045180004 -0.015059993 0.75300002 9.4049632e-39
-0.023822859 -0.013716169 0.75800002 8.8417799e-39
-0.02232 -0.013679989 0.75600004 9.2087828e-39
-0.020852383 -0.013661899 0.75500005 9.4835746e-39
-0.019414287 -0.013661906 0.75500005 9.8502019e-39
-0.017928572 -0.013625711 0.75300002 1.0215746e-38
-0.016472382 -0.013607606 0.75200003 1.0029561e-38
-0.014999998 -0.013571411 0.75000006 9.7551407e-39
-0.013571427 -0.013571411 0.75000006 9.9409739e-39
-0.012110476 -0.013535216 0.74800003 1.0118857e-38
-0.010671428 -0.013517134 0.7470001 8.8166126e-39
-0.0092485705 -0.013517126 0.7470001 7.461117e-39
-0.007804763 -0.013480946 0.74500012 1.5510152e-38
-0.0063857147 -0.013480954 0.74500012 2.3411216e-38
-0.0049666669 -0.013480961 0.74500012 2.2574994e-38
-0.0035476193 -0.013480954 0.74500006 2.1657725e-38
-0.0021228571 -0.013444766 0.74300009 2.1294699e-38
-0.00070666667 -0.013426661 0.74200004 2.0891793e-38
0.00070666656 -0.013426654 0.74200004 2.2160941e-38
0.0021142857 -0.013390459 0.74000001 2.3400057e-38
0.0035238098 -0.013390459 0.74000007 2.341769e-38
0.0049333335 -0.013390474 0.74000001 2.3417673e-38
0.0063428571 -0.013390474 0.74000007 2.3417658e-38
0.0077419044 -0.013372362 0.73900002 2.3402877e-38
0.0091495235 -0.013372362 0.73900002 2.3406751e-38
0.010557145 -0.013372377 0.73900002 2.3396348e-38
0.011964763 -0.013372369 0.73900002 2.3417513e-38
0.013372381 -0.013372362 0.73900002 2.339822e-38
0.01478 -0.013372369 0.73900002 2.341767e-38
0.016209524 -0.013390474 0.74000007 2.341768e-38
0.017619047 -0.013390459 0.74000001 2.341769e-38
0.019028572 -0.013390459 0.74000007 2.341767e-38
0.020493334 -0.013426654 0.74200004 2.2499297e-38
0.021906666 -0.013426661 0.74200004 2.1457863e-38
0.023320001 -0.013426661 0.74200004 2.1630739e-38
0.024733335 -0.013426661 0.7420001 2.1838857e-38
0.026181903 -0.013444759 0.74300009 2.2683006e-38
0.027597142 -0.013444759 0.74300009 2.3413363e-38
0.029012382 -0.013444759 0.74300009 2.0645361e-38
0.030427618 -0.013444766 0.74300009 1.785686e-38
0.031842858 -0.013444752 0.74300009 1.6373428e-38
0.033437144 -0.013517134 0.7470001 1.4811503e-38
0.034906674 -0.013535231 0.74800003 1.2521712e-38
0.036331426 -0.013535224 0.74800003 1.0137554e-38
0.037857141 -0.013571411 0.75000012 1.023116e-38
0.039285712 -0.013571419 0.75000006 1.0230804e-38
0.040714286 -0.013571419 0.75000006 1.0140408e-38
0.042142861 -0.013571419 0.75000006 1.0047837e-38
0.043687616 -0.013607606 0.75200003 9.9556244e-39
-0.023760002 -0.012239978 0.75600004 8.8378409e-39
-0.02232 -0.012239993 0.75600004 9.1162298e-39
-0.020797145 -0.01219143 0.75300008 9.3920993e-39
-0.019362856 -0.012191422 0.75300002 9.6672512e-39
-0.017928569 -0.012191422 0.75300002 9.9416787e-39
-0.016472382 -0.012175225 0.75200003 9.8473279e-39
-0.014999999 -0.012142844 0.75000006 9.8466174e-39
-0.013571428 -0.012142837 0.75000012 9.8473419e-39
-0.012110476 -0.012110464 0.74800003 9.9387682e-39
-0.010671428 -0.012094274 0.7470001 9.190402e-39
-0.0092485705 -0.012094267 0.74700004 8.3633248e-39
-0.0078047621 -0.012061901 0.74500012 1.5954262e-38
-0.0063857147 -0.012061909 0.74500012 2.3417669e-38
-0.0049666669 -0.012061909 0.74500012 2.2486377e-38
-0.0035476191 -0.012061909 0.74500012 2.1657722e-38
-0.0021228571 -0.012029521 0.74300009 2.1097399e-38
-0.00070666673 -0.012013324 0.74200004 2.0609115e-38
0.00070666661 -0.012013331 0.7420001 2.1809742e-38
0.0021142859 -0.011980936 0.74000001 2.3043119e-38
0.0035238101 -0.011980943 0.74000007 2.3232225e-38
0.0049333335 -0.011980943 0.74000001 2.341769e-38
0.0063342862 -0.011964746 0.73900002 2.341769e-38
0.0077419048 -0.011964753 0.73900002 2.341769e-38
0.0091495244 -0.011964738 0.73900002 2.3415179e-38
0.010557145 -0.011964746 0.73900002 2.341769e-38
0.011964763 -0.011964753 0.73900002 2.341769e-38
0.013390477 -0.011980936 0.74000007 2.341769e-38
0.0148 -0.011980951 0.74000001 2.341769e-38
0.016209522 -0.011980958 0.74000007 2.341769e-38
0.017619045 -0.011980943 0.74000001 2.3417331e-38
0.019028571 -0.011980928 0.74000001 2.3417652e-38
0.020493332 -0.012013331 0.7420001 2.2482039e-38
0.021906663 -0.012013316 0.74200004 2.1611018e-38
0.023319997 -0.012013339 0.7420001 2.1723283e-38
0.024733333 -0.012013324 0.74200004 2.1933199e-38
0.026181903 -0.012029514 0.74300009 2.267906e-38
0.027597141 -0.012029514 0.74300009 2.3416928e-38
0.02901238 -0.012029529 0.74300003 2.0626661e-38
0.030427618 -0.012029536 0.74300009 1.7724806e-38
0.031842858 -0.012029521 0.74300003 1.6364424e-38
0.033437148 -0.012094274 0.7470001 1.5001266e-38
0.03490667 -0.012110457 0.74800003 1.2247661e-38
0.036428567 -0.012142837 0.75000006 9.5865406e-39
0.037857141 -0.012142837 0.75000006 9.6783327e-39
0.039285712 -0.012142837 0.75000006 9.7698151e-39
0.040714286 -0.012142844 0.75000012 9.8630911e-39
0.042142861 -0.01214283 0.75000006 1.0047473e-38
0.043571424 -0.012142844 0.75000006 9.8616421e-39
-0.023760002 -0.010799982 0.75600004 8.7488794e-39
-0.02232 -0.010799989 0.75600004 9.0261852e-39
-0.020797145 -0.010757133 0.75300002 9.3013203e-39
-0.019362856 -0.010757141 0.75300002 9.4842627e-39
-0.017928571 -0.010757141 0.75300008 9.5739556e-39
-0.016472384 -0.010742843 0.75200003 9.755484e-39
-0.014999998 -0.01071427 0.75000006 9.8469677e-39
-0.013571428 -0.01071427 0.75000006 9.8458986e-39
-0.012110475 -0.01068569 0.74800003 9.7486274e-39
-0.010685714 -0.010685705 0.74800003 9.5516287e-39
-0.0092485705 -0.010671422 0.7470001 9.299608e-39
-0.0078047621 -0.010642856 0.74500012 1.643317e-38
-0.0063857147 -0.010642864 0.74500012 2.3411209e-38
-0.0049666674 -0.010642849 0.74500012 2.2478481e-38
-0.0035476189 -0.010642856 0.74500012 2.1564448e-38
-0.0021228571 -0.010614291 0.74300009 2.0919103e-38
-0.00070666673 -0.010600001 0.7420001 2.0245377e-38
0.00070666661 -0.010599993 0.74200004 2.142558e-38
0.0021199998 -0.010599993 0.7420001 2.2665393e-38
0.0035333335 -0.010599986 0.74200004 2.3050348e-38
0.004933333 -0.01057142 0.74000001 2.341769e-38
0.0063428567 -0.010571413 0.74000001 2.341769e-38
0.0077419048 -0.010557137 0.73900002 2.341769e-38
0.0091495244 -0.010557123 0.73900002 2.341769e-38
0.010557145 -0.010557123 0.73900002 2.341769e-38
0.011964764 -0.01055713 0.73900002 2.341769e-38
0.013372382 -0.01055713 0.73899996 2.341769e-38
0.0148 -0.01057142 0.74000001 2.341769e-38
0.016209524 -0.010571413 0.74000001 2.3417331e-38
0.017619045 -0.01057142 0.74000007 2.3416614e-38
0.01908 -0.010600001 0.7420001 2.3415518e-38
0.020493332 -0.010599993 0.74200004 2.2583599e-38
0.021906665 -0.010599993 0.7420001 2.1725839e-38
0.023351429 -0.010614283 0.74300003 2.1902306e-38
0.024766667 -0.010614291 0.74300009 2.2022889e-38
0.026181903 -0.010614291 0.74300003 2.2774124e-38
0.027597142 -0.010614283 0.74300009 2.3408318e-38
0.02901238 -0.010614276 0.74300003 2.0535544e-38
0.030509524 -0.010642849 0.74500012 1.765557e-38
0.031928573 -0.010642864 0.74500006 1.6357606e-38
0.033437144 -0.010671422 0.7470001 1.5089874e-38
0.03490667 -0.010685705 0.74800003 1.2064712e-38
0.036428567 -0.01071427 0.75000006 8.9429733e-39
0.037857141 -0.010714278 0.75000012 9.1251617e-39
0.03944286 -0.010757126 0.75300002 9.2198531e-39
0.040877149 -0.010757133 0.75300008 9.677583e-39
0.042311434 -0.010757133 0.75300008 1.0045654e-38
0.043745719 -0.010757133 0.75300008 9.7694423e-39
-0.022290476 -0.0093476176 0.75500005 9.4857172e-39
-0.020852383 -0.0093476176 0.75500005 9.9455855e-39
-0.019362858 -0.0093228593 0.75300008 9.7597341e-39
-0.017928571 -0.0093228593 0.75300008 9.5732171e-39
-0.016472384 -0.0093104616 0.75200003 9.7558343e-39
-0.015039998 -0.0093104541 0.75200003 9.9402298e-39
-0.013571428 -0.0092856959 0.75000006 9.8462475e-39
-0.012110477 -0.0092609376 0.74800009 9.7500483e-39
-0.010685715 -0.0092609301 0.74800003 9.9228985e-39
-0.0092485705 -0.0092485622 0.7470001 1.001276e-38
-0.0078047616 -0.0092238113 0.74500012 1.6782217e-38
-0.0063857143 -0.0092238188 0.74500012 2.3417665e-38
-0.0049666669 -0.0092238188 0.74500012 2.2577487e-38
-0.0035476191 -0.0092238039 0.74500006 2.1753494e-38
-0.0021285713 -0.0092238039 0.74500012 2.0909053e-38
-0.00070761895 -0.0091990456 0.74300009 1.9955897e-38
0.00070666661 -0.0091866702 0.7420001 2.1538261e-38
0.0021200001 -0.0091866627 0.74200004 2.3050334e-38
0.0035333335 -0.0091866478 0.74200004 2.3234019e-38
0.0049333335 -0.009161897 0.74000007 2.341769e-38
0.0063428571 -0.0091619045 0.74000001 2.341769e-38
0.0077419048 -0.0091495141 0.73900002 2.341769e-38
0.0091495244 -0.0091494992 0.73900002 2.341769e-38
0.010557145 -0.0091495067 0.73900002 2.341769e-38
0.011964764 -0.0091494992 0.73900002 2.341769e-38
0.013372382 -0.0091495141 0.73900002 2.341769e-38
0.0148 -0.009161897 0.74000007 2.341769e-38
0.016209524 -0.0091619045 0.74000001 2.341769e-38
0.017666664 -0.0091866553 0.74200004 2.3417331e-38
0.01908 -0.0091866627 0.7420001 2.341769e-38
0.020493334 -0.0091866553 0.74200004 2.2763003e-38
0.021906666 -0.0091866553 0.7420001 2.218361e-38
0.023351429 -0.0091990381 0.74300003 2.2282937e-38
0.024766669 -0.0091990381 0.74300009 2.2399926e-38
0.026181903 -0.009199053 0.74300009 2.2956001e-38
0.027597142 -0.0091990381 0.74300009 2.3416928e-38
0.029090479 -0.0092238113 0.74500012 2.0536979e-38
0.030591428 -0.0092485547 0.7470001 1.7657364e-38
0.032014288 -0.0092485622 0.74700004 1.6280836e-38
0.033481907 -0.0092609301 0.74800003 1.491589e-38
0.035000004 -0.0092857033 0.75000012 1.2067226e-38
0.036525708 -0.0093104616 0.75200003 9.3117488e-39
0.038008574 -0.0093228519 0.75300008 9.4942904e-39
0.039547622 -0.0093476176 0.75500011 9.7762232e-39
0.040877149 -0.0093228519 0.75300008 1.0324334e-38
0.042423815 -0.0093476102 0.75500005 1.0871791e-38
0.043861903 -0.0093476027 0.75500005 1.0321166e-38
0.045299999 -0.0093476027 0.75500005 9.77191e-39
-0.022290478 -0.0079095289 0.75500011 1.0037802e-38
-0.020852385 -0.0079095289 0.75500011 1.0588082e-38
-0.019362858 -0.0078885779 0.75300008 1.0127456e-38
-0.017928571 -0.0078885704 0.75300002 9.5735828e-39
-0.016494287 -0.0078885704 0.75300002 9.7547525e-39
-0.015039998 -0.0078780726 0.75200003 9.9394927e-39
-0.013571428 -0.007857129 0.75000006 9.848725e-39
-0.012142858 -0.007857129 0.75000012 9.7493155e-39
-0.010685715 -0.0078361779 0.74800003 1.0285939e-38
-0.0092609515 -0.0078361779 0.74800003 1.0774709e-38
-0.0078257136 -0.0078257099 0.7470001 1.7172518e-38
-0.0064028576 -0.0078257099 0.7470001 2.3411924e-38
-0.0049666669 -0.0078047588 0.74500006 2.2660354e-38
-0.0035476193 -0.0078047663 0.74500012 2.1931777e-38
-0.0021200001 -0.0077733248 0.7420001 2.0824378e-38
-0.00070666673 -0.0077733174 0.74200004 1.9693648e-38
0.00070666661 -0.0077733397 0.7420001 2.1537168e-38
0.0021199998 -0.0077733248 0.74200004 2.3406906e-38
0.0035333333 -0.0077733248 0.7420001 2.341769e-38
0.0049333335 -0.0077523813 0.74000007 2.341769e-38
0.0063428567 -0.0077523664 0.74000001 2.341769e-38
0.0077523808 -0.0077523589 0.74000001 2.341769e-38
0.0091619045 -0.0077523887 0.74000001 2.341769e-38
0.010557145 -0.0077418834 0.73900002 2.341769e-38
0.011980954 -0.0077523813 0.74000007 2.341769e-38
0.013390477 -0.0077523664 0.74000001 2.341769e-38
0.0148 -0.0077523738 0.74000007 2.341769e-38
0.016209524 -0.0077523664 0.74000001 2.341769e-38
0.017619047 -0.0077523738 0.74000001 2.341769e-38
0.01908 -0.0077733323 0.74200004 2.341769e-38
0.020493332 -0.0077733323 0.7420001 2.3050348e-38
0.021906665 -0.0077733248 0.74200004 2.2555978e-38
0.023351427 -0.0077838078 0.74300009 2.2645625e-38
0.024766667 -0.0077838078 0.74300009 2.2761532e-38
0.026181903 -0.0077838153 0.74300009 2.3141466e-38
0.027597141 -0.0077838153 0.74300009 2.3408317e-38
0.029090479 -0.0078047737 0.74500012 2.0538052e-38
0.030509524 -0.0078047588 0.74500012 1.7662744e-38
0.03205714 -0.0078361854 0.74800009 1.6192591e-38
0.033481903 -0.0078361705 0.74800003 1.4728273e-38
0.034906667 -0.0078361705 0.74800003 1.2159419e-38
0.036525708 -0.00787808 0.75200003 9.5850973e-39
0.038008574 -0.0078885704 0.75300008 9.9477169e-39
0.03944286 -0.0078885704 0.75300008 1.0322228e-38
0.040877145 -0.007888563 0.75300002 1.0971887e-38
0.042423811 -0.0079095215 0.75500011 1.1607575e-38
0.043861903 -0.0079095364 0.75500011 1.0871111e-38
0.045359999 -0.0079200044 0.75600004 1.0047435e-38
0.046800002 -0.007919997 0.75600004 1.0048483e-38
-0.02232 -0.0064799935 0.7560001 9.6711735e-39
-0.020880003 -0.0064799786 0.75600004 1.0221466e-38
-0.019414285 -0.0064714327 0.75500011 9.668298e-39
-0.017976189 -0.0064714327 0.75500011 9.2066066e-39
-0.016494289 -0.0064542741 0.75300008 9.5721521e-39
-0.015039999 -0.0064456984 0.75200003 9.8462026e-39
-0.013571427 -0.0064285547 0.75000006 9.7554209e-39
-0.012142857 -0.0064285547 0.75000006 9.6628455e-39
-0.010714285 -0.0064285547 0.75000006 1.0298138e-38
-0.0092609515 -0.0064114183 0.74800003 1.0953359e-38
-0.0078257136 -0.0064028502 0.7470001 1.7156016e-38
-0.0064028576 -0.0064028502 0.74700004 2.3417663e-38
-0.0049666669 -0.0063857138 0.74500012 2.2760439e-38
-0.0035476191 -0.0063857138 0.74500012 2.2030061e-38
-0.0021200001 -0.006359987 0.74200004 2.0998707e-38
-0.00070666673 -0.0063599944 0.7420001 1.994618e-38
0.00070666656 -0.006359987 0.74200004 2.0897173e-38
0.0021199998 -0.0063600019 0.7420001 2.1856456e-38
0.0035333335 -0.006359987 0.74200004 2.2312077e-38
0.004933333 -0.0063428506 0.74000001 2.2866677e-38
0.0063599991 -0.0063599944 0.74200004 2.2396738e-38
0.0077523808 -0.0063428432 0.74000001 2.2040158e-38
0.0091619045 -0.0063428506 0.74000007 2.2024015e-38
0.01057143 -0.0063428432 0.74000001 2.2040158e-38
0.011980954 -0.0063428506 0.74000007 2.165739e-38
0.013426668 -0.0063599944 0.7420001 2.1397309e-38
0.01484 -0.006359987 0.74200004 2.1836756e-38
0.016253335 -0.0063599944 0.7420001 2.24075e-38
0.017666666 -0.006359987 0.74200004 2.277233e-38
0.01908 -0.0063599944 0.7420001 2.3234019e-38
0.020520952 -0.0063685849 0.74300009 2.2470995e-38
0.021936188 -0.00636857 0.74300009 2.1701125e-38
0.023351429 -0.0063685775 0.74300009 2.2186816e-38
0.024833335 -0.0063857064 0.74500006 2.2675083e-38
0.026252382 -0.0063857138 0.74500012 2.3046761e-38
0.027745714 -0.0064028427 0.7470001 2.3414055e-38
0.029168574 -0.0064028502 0.7470001 2.0439756e-38
0.030632379 -0.0064114034 0.74800003 1.7456472e-38
0.03205714 -0.0064114332 0.74800009 1.5819511e-38
0.03357143 -0.0064285621 0.75000006 1.4267302e-38
0.035000004 -0.0064285547 0.75000006 1.1973594e-38
0.036525711 -0.0064457059 0.75200003 9.7676851e-39
0.038008571 -0.006454289 0.75300008 9.9502168e-39
0.039547622 -0.0064714178 0.75500005 1.0134268e-38
0.040985718 -0.0064714178 0.75500011 1.0320469e-38
0.042423815 -0.0064714178 0.75500011 1.0592387e-38
0.043919995 -0.006479986 0.75600004 1.0228271e-38
0.045359999 -0.0064799935 0.75600004 9.8648581e-39
-0.022319999 -0.0050399974 0.75600004 9.396753e-39
-0.020935239 -0.005053319 0.75800002 9.7615782e-39
-0.019439999 -0.0050399899 0.75600004 9.3006029e-39
-0.017976189 -0.0050333366 0.75500011 8.8396317e-39
-0.016494287 -0.0050199926 0.75300008 9.2977316e-39
-0.01504 -0.0050133094 0.75200003 9.7558259e-39
-0.013607619 -0.0050133169 0.75200003 9.6643421e-39
-0.012142857 -0.0049999878 0.75000012 9.4759698e-39
-0.010714286 -0.0049999878 0.75000006 1.0289896e-38
-0.0092609506 -0.0049866512 0.74800003 1.1057394e-38
-0.0078361891 -0.0049866512 0.74800009 1.7264353e-38
-0.0064028576 -0.0049800053 0.7470001 2.3411564e-38
-0.0049666674 -0.0049666688 0.74500012 2.2750034e-38
-0.0035476189 -0.0049666613 0.74500012 2.211651e-38
-0.0021228574 -0.0049533322 0.74300003 2.1194208e-38
-0.00070666667 -0.0049466565 0.74200004 2.0243563e-38
0.00070666661 -0.004946664 0.7420001 2.0249298e-38
0.0021199998 -0.0049466491 0.74200004 2.0270853e-38
0.0035333333 -0.0049466491 0.7420001 2.1290403e-38
0.0049466663 -0.0049466714 0.74200004 2.2208714e-38
0.00636 -0.0049466714 0.7420001 2.1353813e-38
0.0077733328 -0.0049466565 0.74200004 2.0529402e-38
0.0091866674 -0.004946664 0.7420001 2.0505682e-38
0.01057143 -0.0049333274 0.74000001 2.0516461e-38
0.011980954 -0.0049333274 0.74000001 1.9866098e-38
0.013426668 -0.0049466565 0.74200004 1.9226894e-38
0.01484 -0.0049466565 0.74200004 2.0307453e-38
0.016253334 -0.004946664 0.74200004 2.1372544e-38
0.017666664 -0.0049466491 0.74200004 2.2213425e-38
0.01908 -0.0049466565 0.74200004 2.2943437e-38
0.020520953 -0.0049533397 0.74300009 2.1898441e-38
0.021936188 -0.0049533248 0.74300009 2.0878546e-38
0.023414286 -0.0049666613 0.74500006 2.1725853e-38
0.024833335 -0.0049666688 0.74500012 2.2485677e-38
0.026252382 -0.0049666762 0.74500012 2.2956719e-38
0.027745714 -0.004979983 0.7470001 2.3406871e-38
0.029168574 -0.0049799904 0.7470001 2.0350054e-38
0.030632382 -0.0049866438 0.74800003 1.7198896e-38
0.032142859 -0.0049999729 0.75000006 1.5545086e-38
0.033571433 -0.0049999729 0.75000006 1.3809205e-38
0.035000008 -0.0049999878 0.75000006 1.1883197e-38
0.036525711 -0.0050133243 0.75200003 9.860601e-39
0.038008574 -0.0050199851 0.75300002 9.8594617e-39
0.039547622 -0.0050333142 0.75500005 9.8598429e-39
0.040985718 -0.0050333217 0.75500005 9.766955e-39
0.042480003 -0.0050399974 0.75600004 9.584349e-39
0.043919999 -0.0050399974 0.75600004 9.6768922e-39
0.045359999 -0.0050399974 0.75600004 9.6793753e-39
-0.022379048 -0.0036095157 0.75800002 9.4871619e-39
-0.020935241 -0.0036095157 0.75800002 9.6686749e-39
-0.019439999 -0.003599979 0.75600004 9.576115e-39
-0.017976189 -0.003595233 0.75500005 9.4821285e-39
-0.016494289 -0.0035857186 0.75300008 9.5725305e-39
-0.01504 -0.0035809278 0.75200003 9.7562085e-39
-0.013607619 -0.0035809502 0.75200003 9.5725445e-39
-0.012142857 -0.0035714209 0.75000006 9.3888202e-39
-0.010714286 -0.0035714209 0.75000006 1.029923e-38
-0.0092609525 -0.0035618991 0.74800003 1.1231742e-38
-0.007836191 -0.0035618842 0.74800003 1.7340763e-38
-0.006411429 -0.0035618842 0.74800003 2.3417662e-38
-0.0049800007 -0.0035571307 0.74700004 2.276187e-38
-0.0035476189 -0.0035476238 0.74500012 2.2124755e-38
-0.0021228571 -0.003538087 0.74300003 2.0537359e-38
-0.00070666673 -0.0035333261 0.74200004 1.9032834e-38
0.00070666667 -0.0035333335 0.7420001 2.0433324e-38
0.0021200001 -0.0035333186 0.74200004 2.1819496e-38
0.0035333338 -0.0035333186 0.7420001 2.2302022e-38
0.0049466663 -0.0035333186 0.74200004 2.2864072e-38
0.0063599991 -0.0035333335 0.7420001 2.238185e-38
0.0077733337 -0.0035333186 0.74200004 2.198357e-38
0.0091866674 -0.0035333261 0.7420001 2.0864597e-38
0.010600002 -0.0035333261 0.74200004 1.9745028e-38
0.012013335 -0.0035333261 0.7420001 1.9570359e-38
0.013444762 -0.003538087 0.74300009 1.9377836e-38
0.014840001 -0.0035333335 0.7420001 2.0884627e-38
0.016275238 -0.0035380945 0.74300009 2.2397787e-38
0.017666664 -0.0035333261 0.7420001 2.2769819e-38
0.019105714 -0.003538087 0.74300009 2.3234002e-38
0.020520953 -0.0035381094 0.74300009 2.2279397e-38
0.021936189 -0.0035380945 0.74300003 2.1310455e-38
0.023414286 -0.0035476089 0.74500012 2.1998498e-38
0.024833335 -0.0035476089 0.74500012 2.2676885e-38
0.026322857 -0.0035571381 0.7470001 2.3048196e-38
0.027745716 -0.0035571232 0.7470001 2.3416907e-38
0.029207619 -0.0035618916 0.74800003 2.0163495e-38
0.030714286 -0.003571406 0.75000006 1.691262e-38
0.032142855 -0.003571406 0.75000006 1.5181335e-38
0.03357143 -0.003571406 0.75000012 1.3449761e-38
0.035093334 -0.0035809427 0.75200003 1.1700248e-38
0.036525708 -0.0035809502 0.75200003 9.8606052e-39
0.038109526 -0.003595233 0.75500011 9.8605421e-39
0.039547622 -0.003595233 0.75500011 9.8616435e-39
0.040985722 -0.0035952479 0.75500011 9.7694745e-39
0.042480003 -0.0036000013 0.75600004 9.5861441e-39
0.044036187 -0.0036095083 0.75800002 9.5864846e-39
0.045479998 -0.0036095083 0.75800002 9.678641e-39
-0.023885714 -0.0021714121 0.76000005 9.5797079e-39
-0.022438092 -0.0021714121 0.76000005 9.5793646e-39
-0.020990478 -0.0021714121 0.76000005 9.5779184e-39
-0.01949143 -0.0021656826 0.75800002 9.8526963e-39
-0.018000001 -0.0021599829 0.75600004 1.0033123e-38
-0.016538097 -0.0021571368 0.75500005 9.8462068e-39
-0.01504 -0.0021485612 0.75200003 9.663989e-39
-0.013607618 -0.0021485612 0.75200003 9.4803362e-39
-0.012142857 -0.0021428391 0.75000012 9.2001158e-39
-0.010714286 -0.0021428466 0.75000006 1.028595e-38
-0.0092609515 -0.0021371245 0.74800009 1.1424018e-38
-0.0078361891 -0.002137132 0.74800003 1.7448383e-38
-0.0064114286 -0.002137132 0.74800003 2.341264e-38
-0.0049800007 -0.002134271 0.74700004 2.2754698e-38
-0.0035476193 -0.0021285787 0.74500012 2.2021449e-38
-0.0021228571 -0.0021228641 0.74300009 1.9889861e-38
-0.00070761895 -0.0021228567 0.74300009 1.7767607e-38
0.00070761913 -0.0021228641 0.74300009 2.0631015e-38
0.0021199998 -0.0021199957 0.7420001 2.3400447e-38
0.0035333335 -0.0021199808 0.74200004 2.3417686e-38
0.0049466658 -0.0021199957 0.7420001 2.3416921e-38
0.0063599995 -0.0021199882 0.74200004 2.341759e-38
0.0077733328 -0.0021199957 0.7420001 2.3364012e-38
0.0091866674 -0.0021199957 0.74200004 2.1224764e-38
0.010600002 -0.0021200031 0.7420001 1.9014631e-38
0.012013335 -0.0021199882 0.74200004 1.9293024e-38
0.013444762 -0.0021228492 0.74300003 1.9485425e-38
0.014840001 -0.0021199808 0.74200004 2.1454626e-38
0.016275238 -0.0021228641 0.74300003 2.3402943e-38
0.017690476 -0.0021228641 0.74300009 2.341769e-38
0.019105716 -0.0021228492 0.74300003 2.3415529e-38
0.020520953 -0.0021228641 0.74300009 2.2674738e-38
0.021936189 -0.0021228492 0.74300003 2.1813413e-38
0.023414284 -0.0021285713 0.74500012 2.2280116e-38
0.024900002 -0.002134271 0.7470001 2.2762987e-38
0.026322855 -0.0021342784 0.7470001 2.3141825e-38
0.027745714 -0.0021342635 0.74700004 2.3404347e-38
0.029207621 -0.0021371245 0.74800003 2.0065913e-38
0.030714286 -0.0021428391 0.75000012 1.6650381e-38
0.032142855 -0.0021428391 0.75000006 1.4909052e-38
0.03357143 -0.0021428317 0.75000006 1.3078824e-38
0.035093334 -0.0021485537 0.75200003 1.1515854e-38
0.036574285 -0.0021514297 0.75300008 9.8631163e-39
0.038109522 -0.0021571293 0.75500011 9.8609079e-39
0.039547622 -0.0021571368 0.75500011 9.8616239e-39
0.041040003 -0.0021599829 0.75600004 9.7712206e-39
0.042480003 -0.0021599829 0.75600004 9.5868391e-39
0.044036195 -0.002165705 0.75800002 9.5872034e-39
0.045480002 -0.002165705 0.75800002 9.5871824e-39
-0.023822857 -0.00072187185 0.75800002 9.1190969e-39
-0.022379046 -0.0007218793 0.75800002 9.3949845e-39
-0.020990478 -0.00072378665 0.76000005 9.5782814e-39
-0.019491429 -0.0007218793 0.75800002 9.5757534e-39
-0.017999999 -0.00071999431 0.75600004 9.4813732e-39
-0.016538098 -0.00071904808 0.75500011 9.6642931e-39
-0.015059998 -0.00071714818 0.75300008 9.8490697e-39
-0.013607618 -0.00071617961 0.75200003 9.6661456e-39
-0.012175238 -0.00071618706 0.75200003 9.4813522e-39
-0.010714286 -0.00071426481 0.75000012 1.0389615e-38
-0.0092857135 -0.00071427226 0.75000006 1.1321417e-38
-0.0078571429 -0.00071427226 0.75000006 1.7340044e-38
-0.006411429 -0.00071235746 0.74800003 2.3417305e-38
-0.0049800002 -0.00071142614 0.7470001 2.2855144e-38
-0.0035476191 -0.00070951879 0.74500012 2.2397768e-38
-0.0021228571 -0.00070761889 0.74300009 2.034977e-38
-0.00070761901 -0.00070760399 0.74300009 1.8403661e-38
0.00070761907 -0.00070761889 0.74300009 2.0914801e-38
0.0021200001 -0.00070665777 0.74200004 2.3417684e-38
0.0035333335 -0.00070665777 0.7420001 2.341769e-38
0.0049466663 -0.00070666522 0.74200004 2.341768e-38
0.0063599991 -0.00070665777 0.7420001 2.2373758e-38
0.0077733328 -0.00070665032 0.74200004 2.1411829e-38
0.0091866665 -0.00070667267 0.7420001 2.057761e-38
0.010614287 -0.00070761144 0.74300003 1.9744992e-38
0.012029525 -0.00070762634 0.74300009 1.9838621e-38
0.013444763 -0.00070761889 0.74300003 2.0020623e-38
0.01484 -0.00070665777 0.7420001 2.1068245e-38
0.016275238 -0.00070761889 0.74300003 2.2116873e-38
0.017690474 -0.00070761889 0.74300009 2.2771254e-38
0.019105714 -0.00070761889 0.74300009 2.341769e-38
0.020520953 -0.00070761144 0.74300009 2.2669733e-38
0.021936188 -0.00070763379 0.74300009 2.1998175e-38
0.023414284 -0.00070951879 0.74500006 2.2379137e-38
0.024900001 -0.00071141124 0.7470001 2.2769449e-38
0.026322855 -0.00071141869 0.7470001 2.3138237e-38
0.027782857 -0.00071236491 0.74800003 2.3411519e-38
0.029207619 -0.00071236491 0.74800003 1.9977658e-38
0.030714286 -0.00071427226 0.75000006 1.6642123e-38
0.032142855 -0.00071427226 0.75000006 1.481757e-38
0.033660956 -0.00071617216 0.75200003 1.3083482e-38
0.035093337 -0.00071617961 0.75200003 1.1520152e-38
0.036574285 -0.00071714818 0.75300008 9.9599755e-39
0.038109526 -0.00071903318 0.75500005 9.770873e-39
0.039600004 -0.00071998686 0.75600004 9.6772145e-39
0.041040003 -0.00071999431 0.75600004 9.586067e-39
0.042480007 -0.00071999431 0.75600004 9.5857391e-39
0.044036191 -0.00072188675 0.75800002 9.4031751e-39
-0.025366668 0.00072476268 0.7610001 9.2094905e-39
-0.023822859 0.00072192401 0.75800002 8.6606383e-39
-0.022438094 0.00072383881 0.76000005 9.1194654e-39
-0.021018097 0.00072477013 0.7610001 9.5775569e-39
-0.01949143 0.00072192401 0.75800002 9.2991708e-39
-0.018047618 0.00072191656 0.75800002 8.9310917e-39
-0.016538098 0.00071904808 0.75500011 9.4806501e-39
-0.015059998 0.00071714818 0.75300008 9.9423485e-39
-0.013607618 0.00071620196 0.75200003 9.8541102e-39
-0.012175237 0.00071619451 0.75200009 9.7522105e-39
-0.010714286 0.00071430951 0.75000006 1.0469657e-38
-0.0092857126 0.00071430951 0.75000006 1.1148889e-38
-0.007836191 0.00071239471 0.74800003 1.7356547e-38
-0.0064114286 0.00071239471 0.74800003 2.341372e-38
-0.0049800002 0.00071142614 0.7470001 2.3034159e-38
-0.0035476193 0.00070952624 0.74500012 2.2661074e-38
-0.0021228571 0.00070761144 0.74300009 2.0890727e-38
-0.00070666679 0.00070668757 0.74200004 1.9059062e-38
0.00070761907 0.00070761889 0.74300009 2.1298292e-38
0.0021199998 0.00070667267 0.74200004 2.3415894e-38
0.0035333335 0.00070667267 0.7420001 2.341769e-38
0.0049466668 0.00070667267 0.74200004 2.3403314e-38
0.0063599995 0.00070667267 0.7420001 2.1431335e-38
0.0077733337 0.00070668757 0.74200004 1.9411221e-38
0.0091866674 0.00070668757 0.7420001 1.9928779e-38
0.010600002 0.00070667267 0.74200004 2.0409136e-38
0.012029525 0.00070761889 0.74300009 2.047982e-38
0.013444762 0.00070761889 0.74300009 2.0504269e-38
0.01486 0.00070762634 0.74300009 2.0588267e-38
0.016275236 0.00070762634 0.74300009 2.0732169e-38
0.017690474 0.00070761144 0.74300009 2.2131993e-38
0.019105712 0.00070761144 0.74300009 2.3416967e-38
0.020576192 0.00070951879 0.74500012 2.2772319e-38
0.021995237 0.00070953369 0.74500006 2.2093588e-38
0.023477143 0.00071143359 0.7470001 2.2468453e-38
0.024900002 0.00071144849 0.74700004 2.2763347e-38
0.026322857 0.00071144104 0.7470001 2.3138237e-38
0.027782859 0.00071240962 0.74800003 2.3401469e-38
0.029207619 0.00071240216 0.74800003 1.9974061e-38
0.030714286 0.00071428716 0.75000012 1.6556383e-38
0.032142855 0.00071430206 0.75000006 1.4819726e-38
0.033660956 0.00071620196 0.75200003 1.3080614e-38
0.035093337 0.00071620196 0.75200003 1.1521585e-38
0.036671426 0.00071905553 0.75500011 9.9578189e-39
0.038109522 0.00071904063 0.75500011 9.6768781e-39
0.039600004 0.00072000176 0.75600004 9.4017066e-39
0.041040003 0.00072000176 0.75600004 9.4942343e-39
0.042480003 0.00072000176 0.75600004 9.5864538e-39
0.044036191 0.00072191656 0.75800002 9.219137e-39
-0.025433335 0.0021800026 0.76300007 9.3070811e-39
-0.023917142 0.002174288 0.7610001 9.122687e-39
-0.022467619 0.0021742955 0.7610001 9.671542e-39
-0.020990478 0.0021714494 0.76000011 1.0312951e-38
-0.019491429 0.0021657422 0.75800002 9.9438115e-39
-0.018047616 0.0021657348 0.75800002 9.5750304e-39
-0.016560001 0.0021600127 0.75600004 9.7586958e-39
-0.015099999 0.0021571591 0.75500011 9.9427157e-39
-0.013625713 0.0021514297 0.75300002 9.7593936e-39
-0.012175238 0.0021485835 0.75200009 9.5710675e-39
-0.010714286 0.0021428764 0.75000012 1.0573733e-38
-0.0092857126 0.0021428764 0.75000006 1.1600914e-38
-0.0078361901 0.0021371618 0.74800003 1.7524793e-38
-0.0064028571 0.0021343082 0.7470001 2.341767e-38
-0.0049800002 0.0021342859 0.7470001 2.2945916e-38
-0.0035476189 0.0021285713 0.74500006 2.2484934e-38
-0.0021228571 0.0021228567 0.74300009 2.0622024e-38
-0.00070666667 0.002120018 0.7420001 1.8765616e-38
0.00070666667 0.0021200106 0.74200004 2.1095255e-38
0.0021199998 0.0021200106 0.7420001 2.341769e-38
0.0035333335 0.0021200106 0.74200004 2.341769e-38
0.0049466663 0.0021200031 0.7420001 2.3417648e-38
0.0063685705 0.0021228567 0.74300009 2.2391989e-38
0.0077733328 0.0021200106 0.7420001 2.1484377e-38
0.0091866665 0.002120018 0.74200004 2.1647222e-38
0.010614287 0.0021228567 0.74300009 2.1941411e-38
0.012029526 0.0021228716 0.74300009 2.1921709e-38
0.013444763 0.0021228492 0.74300009 2.2030749e-38
0.01486 0.0021228567 0.74300009 2.2019256e-38
0.016275236 0.0021228492 0.74300009 2.2131945e-38
0.017690474 0.0021228641 0.74300009 2.2774842e-38
0.019157141 0.0021285638 0.74500012 2.3417679e-38
0.020576192 0.0021285787 0.74500006 2.1818796e-38
0.021995237 0.0021285787 0.74500012 2.021633e-38
0.023477143 0.0021342933 0.7470001 2.1545425e-38
0.024900002 0.0021342933 0.7470001 2.2952753e-38
0.026358094 0.0021371618 0.74800003 2.2860937e-38
0.027782857 0.0021371618 0.74800003 2.276543e-38
0.029207619 0.0021371543 0.74800003 1.960312e-38
0.030714286 0.0021428689 0.75000006 1.6442662e-38
0.032142855 0.0021428689 0.75000006 1.463032e-38
0.033660956 0.002148591 0.75200003 1.2806185e-38
0.035140004 0.0021514371 0.75300002 1.1520149e-38
0.036719996 0.0021600053 0.7560001 1.0142562e-38
0.03816 0.0021600202 0.75600004 9.5868293e-39
0.039704762 0.0021657348 0.75800002 9.034003e-39
0.041148573 0.0021657348 0.75800002 9.4942371e-39
0.042592384 0.0021657348 0.75800002 9.9541517e-39
0.044152383 0.0021714568 0.76000005 9.4942749e-39
-0.025433335 0.0036333427 0.76300001 9.3996354e-39
-0.023917144 0.0036238208 0.7610001 9.5818645e-39
-0.022467619 0.0036238208 0.7610001 1.0314748e-38
-0.021018097 0.0036238283 0.7610001 1.0955794e-38
-0.019542858 0.0036190599 0.76000005 1.0587728e-38
-0.018047616 0.0036095381 0.75800002 1.0219312e-38
-0.016560001 0.0036000013 0.75600004 1.0127838e-38
-0.015099999 0.0035952553 0.75500005 9.9434415e-39
-0.013625713 0.0035857111 0.75300008 9.6697217e-39
-0.012175238 0.0035809651 0.75200009 9.3848896e-39
-0.010742857 0.0035809726 0.75200003 1.0745203e-38
-0.0092857126 0.0035714433 0.75000006 1.2073363e-38
-0.007857142 0.0035714507 0.75000012 1.7815725e-38
-0.0064114286 0.0035619214 0.74800003 2.3412997e-38
-0.0049866671 0.0035619289 0.74800003 2.2847248e-38
-0.0035571428 0.0035571456 0.7470001 2.2295509e-38
-0.0021228571 0.0035381019 0.74300009 2.0439062e-38
-0.00070761901 0.003538087 0.74300009 1.8492939e-38
0.00070761901 0.003538087 0.74300009 2.0990794e-38
0.0021228574 0.0035380945 0.74300009 2.3402228e-38
0.0035380956 0.0035380945 0.74300009 2.341769e-38
0.0049533336 0.0035380945 0.74300009 2.3417669e-38
0.006368571 0.0035381019 0.74300009 2.3417648e-38
0.0077733337 0.003533341 0.74200004 2.3416562e-38
0.0091990475 0.0035380945 0.74300009 2.3417628e-38
0.010614286 0.003538087 0.74300009 2.3415849e-38
0.012029524 0.0035381019 0.74300009 2.3417656e-38
0.013444762 0.0035381019 0.74300009 2.3415497e-38
0.01486 0.0035381019 0.74300009 2.3417642e-38
0.016275238 0.0035380945 0.74300009 2.3417666e-38
0.017738095 0.0035476312 0.74500012 2.341769e-38
0.019157141 0.0035476089 0.74500012 2.3399012e-38
0.020576192 0.0035476089 0.74500012 2.0869206e-38
0.022054285 0.003557153 0.74700004 1.8304994e-38
0.023477143 0.003557153 0.7470001 2.0727521e-38
0.024933334 0.0035619214 0.74800009 2.3039927e-38
0.026358096 0.0035619289 0.74800003 2.2587224e-38
0.027782859 0.003561914 0.74800003 2.211218e-38
0.029207619 0.003561914 0.74800003 1.923076e-38
0.030714286 0.0035714433 0.75000012 1.6281594e-38
0.032142855 0.0035714433 0.75000006 1.4452034e-38
0.033660956 0.0035809726 0.75200003 1.2529244e-38
0.035140004 0.0035857186 0.75300002 1.1426874e-38
0.036720004 0.0036000013 0.75600004 1.0324075e-38
0.038160004 0.0036000162 0.75600004 9.4935519e-39
0.039704762 0.0036095381 0.75800002 8.5755346e-39
0.041257147 0.0036190674 0.76000005 9.4020317e-39
0.042704765 0.0036190748 0.76000005 1.0229648e-38
0.044152379 0.0036190674 0.76000011 9.7704905e-39
-0.0255 0.0051000044 0.7650001 9.3060063e-39
-0.023980003 0.0050866678 0.76300007 9.5815044e-39
-0.022526668 0.0050866678 0.76300001 1.003888e-38
-0.021018097 0.0050733462 0.7610001 1.0587372e-38
-0.019542856 0.0050666779 0.76000005 1.0311137e-38
-0.018047618 0.0050533563 0.75800002 1.003564e-38
-0.016560001 0.0050399899 0.75600004 9.7594258e-39
-0.015099999 0.0050333366 0.75500011 9.5735982e-39
-0.013625713 0.0050199926 0.75300008 9.5739514e-39
-0.012175238 0.0050133392 0.75200009 9.5732269e-39
-0.010742856 0.0050133541 0.75200003 1.1223389e-38
-0.0092857126 0.0050000176 0.75000006 1.2907055e-38
-0.007857142 0.0050000176 0.75000006 1.8172663e-38
-0.0064114286 0.0049866736 0.74800003 2.3417652e-38
-0.0049866671 0.0049866885 0.74800003 2.2855839e-38
-0.0035619051 0.0049866885 0.74800003 2.2309128e-38
-0.0021228571 0.0049533397 0.74300009 2.0152785e-38
-0.00070761901 0.0049533322 0.74300009 1.8092554e-38
0.00070761907 0.0049533322 0.74300009 2.024133e-38
0.0021228574 0.0049533397 0.74300009 2.2476305e-38
0.0035380956 0.0049533471 0.74300009 2.2393509e-38
0.0049533332 0.0049533248 0.74300009 2.2315664e-38
0.006368571 0.0049533322 0.74300009 2.2305978e-38
0.0077733328 0.0049466789 0.74200004 2.24075e-38
0.0091990475 0.0049533471 0.74300009 2.2305261e-38
0.010614287 0.0049533322 0.74300009 2.2223829e-38
0.012029525 0.0049533397 0.74300003 2.2304185e-38
0.013444762 0.0049533322 0.74300009 2.24075e-38
0.01486 0.0049533322 0.74300003 2.2213425e-38
0.016275236 0.0049533248 0.74300009 2.2040158e-38
0.017690474 0.0049533397 0.74300003 2.258579e-38
0.019157141 0.0049666688 0.74500012 2.3136766e-38
0.020631433 0.0049799979 0.7470001 2.078739e-38
0.022054285 0.0049799979 0.7470001 1.8478252e-38
0.023477145 0.0049800128 0.7470001 2.0722503e-38
0.024933334 0.0049866736 0.74800009 2.2861281e-38
0.026358094 0.0049866885 0.74800003 2.2585072e-38
0.027782857 0.0049866885 0.74800003 2.2303387e-38
0.029207619 0.0049866885 0.74800009 1.9055343e-38
0.030714286 0.005000025 0.75000006 1.5919638e-38
0.032142855 0.005000025 0.75000012 1.3995372e-38
0.033705715 0.0050200224 0.75300002 1.2165848e-38
0.03514 0.00502 0.75300008 1.1613411e-38
0.03672 0.0050399974 0.75600004 1.1059471e-38
0.038260952 0.0050533637 0.75800008 9.954516e-39
0.039704766 0.0050533637 0.75800002 8.8517488e-39
0.04125715 0.0050666854 0.76000011 9.4034554e-39
0.042760957 0.0050733462 0.7610001 9.955567e-39
0.044210471 0.0050733462 0.7610001 9.5875285e-39
-0.025566665 0.006574288 0.76700008 9.2134547e-39
-0.024042858 0.0065571517 0.76500005 9.4889486e-39
-0.022526667 0.0065400079 0.76300001 9.8559192e-39
-0.021018097 0.0065228716 0.76100004 1.0220726e-38
-0.019542856 0.0065142959 0.76000005 1.0034162e-38
-0.018047618 0.0064971596 0.75800002 9.8508746e-39
-0.016560003 0.0064800084 0.75600004 9.4835578e-39
-0.015099999 0.0064714402 0.75500011 9.1147837e-39
-0.013625713 0.006454289 0.75300008 9.47926e-39
-0.012175238 0.0064457208 0.75200009 9.75187e-39
-0.010742857 0.0064457208 0.75200003 1.175931e-38
-0.0092857135 0.0064285845 0.75000012 1.3731409e-38
-0.0078571429 0.0064285845 0.75000012 1.8642244e-38
-0.006411429 0.0064114407 0.74800009 2.3411919e-38
-0.0049866671 0.0064114556 0.74800003 2.2849755e-38
-0.0035619051 0.0064114556 0.74800003 2.2199721e-38
-0.0021285715 0.0063857213 0.74500012 1.9954403e-38
-0.00070761907 0.00636857 0.74300009 1.7745312e-38
0.00070761901 0.0063685626 0.74300009 1.9589181e-38
0.0021228574 0.0063685626 0.74300009 2.1459304e-38
0.0035380954 0.0063685775 0.74300009 2.1271736e-38
0.0049533332 0.0063685775 0.74300009 2.1098461e-38
0.0063685714 0.0063685775 0.74300003 2.1174145e-38
0.0077838101 0.0063685775 0.74300009 2.1277455e-38
0.0091990475 0.0063685775 0.74300003 2.1171624e-38
0.010614286 0.0063685626 0.74300009 2.1000156e-38
0.012029525 0.00636857 0.74300003 2.1167331e-38
0.013444762 0.0063685775 0.74300009 2.1368578e-38
0.01486 0.0063685775 0.74300009 2.0987602e-38
0.016275236 0.00636857 0.74300009 2.0551401e-38
0.017690474 0.00636857 0.74300009 2.1748867e-38
0.019157141 0.0063857138 0.74500012 2.2839008e-38
0.020576192 0.0063857138 0.74500006 2.0756879e-38
0.022054285 0.0064028651 0.7470001 1.8676266e-38
0.023477145 0.0064028725 0.74700004 2.0730403e-38
0.024933336 0.0064114332 0.74800009 2.2673668e-38
0.026358098 0.0064114407 0.74800003 2.2587942e-38
0.027782859 0.0064114407 0.74800003 2.2476647e-38
0.029207621 0.0064114407 0.74800009 1.8951296e-38
0.030714286 0.0064285919 0.75000006 1.5462258e-38
0.032228574 0.0064457282 0.75200003 1.3627335e-38
0.033705715 0.0064542964 0.75300008 1.1705607e-38
0.035233334 0.0064714253 0.75500011 1.1800672e-38
0.036671426 0.0064714253 0.75500011 1.1796673e-38
0.03816 0.0064800084 0.75600004 1.0413707e-38
0.039704762 0.0064971671 0.75800002 9.0358289e-39
0.041257147 0.0065142885 0.76000005 9.3124242e-39
0.042760957 0.0065228716 0.7610001 9.5879181e-39
0.044210471 0.0065228641 0.7610001 9.4953539e-39
0.045659997 0.0065228641 0.7610001 9.3116605e-39
-0.025566667 0.0080352575 0.76700002 9.2127373e-39
-0.024042858 0.0080142915 0.76500005 9.5797037e-39
-0.022526667 0.007993333 0.76300007 1.0130341e-38
-0.021073334 0.0079933405 0.76300007 1.0772077e-38
-0.019568572 0.0079723969 0.76100004 1.0402546e-38
-0.018047616 0.0079409778 0.75800002 1.0033092e-38
-0.016560003 0.007919997 0.75600004 9.850897e-39
-0.0151 0.0079095364 0.75500005 9.758714e-39
-0.013625712 0.0078885779 0.75300002 9.7569315e-39
-0.012191428 0.0078885779 0.75300002 9.7572454e-39
-0.010742857 0.0078781098 0.75200003 1.1772917e-38
-0.0093104746 0.0078781098 0.75200003 1.3912198e-38
-0.007857142 0.0078571588 0.75000006 1.8628971e-38
-0.0064285723 0.0078571588 0.75000012 2.341085e-38
-0.0050000008 0.0078571662 0.75000006 2.2762954e-38
-0.0035714288 0.0078571662 0.75000006 2.2216585e-38
-0.0021285713 0.0078047514 0.74500012 2.0056997e-38
-0.00070952385 0.0078047663 0.74500012 1.7936171e-38
0.0007095238 0.0078047588 0.74500012 2.0170355e-38
0.0021285715 0.0078047663 0.74500006 2.2499273e-38
0.0035476193 0.0078047663 0.74500012 2.2394193e-38
0.0049666669 0.0078047663 0.74500012 2.2295526e-38
0.0063685705 0.0077838078 0.74300003 2.2292999e-38
0.0077838092 0.0077838078 0.74300009 2.2376574e-38
0.0092238095 0.0078047588 0.74500006 2.228975e-38
0.010614287 0.0077838153 0.74300009 2.2192546e-38
0.012029526 0.0077838078 0.74300009 2.2289774e-38
0.013444763 0.0077838153 0.74300009 2.2381605e-38
0.01486 0.0077838078 0.74300009 2.2201876e-38
0.016275238 0.0077838078 0.74300009 2.2020392e-38
0.017690476 0.0077838004 0.74300009 2.2582202e-38
0.019157141 0.0078047588 0.74500006 2.3142127e-38
0.020631431 0.0078257173 0.7470001 2.1445626e-38
0.02208381 0.0078362003 0.74800003 1.9697931e-38
0.023508573 0.0078362077 0.74800003 2.118887e-38
0.024933334 0.0078362152 0.74800003 2.2677977e-38
0.026358096 0.0078362077 0.74800003 2.2584355e-38
0.027782859 0.0078362077 0.74800003 2.2482021e-38
0.029285716 0.0078571588 0.75000006 1.8778013e-38
0.030796189 0.0078780949 0.75200009 1.509492e-38
0.03227143 0.0078885779 0.75300008 1.3630944e-38
0.033795245 0.0079095289 0.75500005 1.2258785e-38
0.035233334 0.0079095289 0.75500005 1.2169093e-38
0.03672 0.0079200044 0.75600004 1.2167969e-38
0.038260955 0.0079409704 0.75800002 1.0506273e-38
0.039809525 0.0079619139 0.76000005 8.8504133e-39
0.041311432 0.0079723895 0.76100004 9.3114335e-39
0.042760961 0.0079723969 0.76100004 9.6798069e-39
0.044326667 0.0079933479 0.76300007 9.3113438e-39
-0.025566667 0.0094961897 0.76700008 9.2138233e-39
