# .PCD v0.7 - Point Cloud Data file format
VERSION 0.7
FIELDS x y z rgb
SIZE 4 4 4 4
TYPE F F F F
COUNT 1 1 1 1
WIDTH 949
HEIGHT 1
VIEWPOINT 0 0 0 1 0 0 0
POINTS 949
DATA ascii
0.010242857 -0.07306575 0.71700007 3.5927457e-39
0.011608571 -0.073065735 0.71700007 2.7644312e-39
0.013010477 -0.073269539 0.7190001 1.9400655e-39
0.01434 -0.07306575 0.71700007 2.3077662e-39
0.015749525 -0.073269553 0.7190001 2.67619e-39
0.017119048 -0.073269553 0.7190001 2.492526e-39
0.018514287 -0.073371463 0.72000009 2.3081305e-39
0.019885715 -0.073371448 0.72000009 2.5821951e-39
0.021316189 -0.073575251 0.72200012 2.8580743e-39
0.022722859 -0.07367716 0.72300011 2.7662529e-39
0.024100002 -0.07367716 0.72300011 2.6758341e-39
0.02554762 -0.073880963 0.72500008 1.849295e-39
0.026928574 -0.073880963 0.72500008 1.0216909e-39
0.028426668 -0.07418669 0.7280001 1.4779901e-39
0.02985429 -0.074288584 0.72900009 1.8493244e-39
0.031242859 -0.074288584 0.72900009 5.4460232e-39
0.032720957 -0.074492387 0.73100007 9.0333234e-39
0.03411334 -0.074492387 0.73100007 9.8644826e-39
0.035505719 -0.074492387 0.73100001 1.0690992e-38
-0.038604766 -0.073700018 0.73700005 1.4754986e-39
-0.037049524 -0.073400028 0.73400009 1.2903997e-39
-0.03555429 -0.073200025 0.73200011 1.1070945e-39
-0.03411334 -0.073100008 0.73100001 9.2451367e-40
-0.032631431 -0.07290002 0.72900009 1.2936633e-39
-0.031200003 -0.072800018 0.7280001 1.6609787e-39
-0.02969048 -0.072500013 0.72500008 1.5691152e-39
-0.028309528 -0.072500013 0.72500002 1.4772741e-39
-0.026854288 -0.072300039 0.72300011 1.478702e-39
-0.025477145 -0.072300024 0.72300011 1.4801439e-39
-0.024066668 -0.072200008 0.72200012 1.571985e-39
-0.022691431 -0.072200008 0.72200012 1.6638359e-39
-0.021316191 -0.072200008 0.72200012 1.8471636e-39
-0.019885715 -0.072000004 0.72000003 2.123047e-39
-0.018514287 -0.072000019 0.72000009 2.5833175e-39
-0.017142858 -0.072000019 0.72000009 3.04466e-39
-0.01577143 -0.072000004 0.72000009 3.5953255e-39
-0.01438 -0.071900032 0.7190001 4.1442001e-39
-0.013010476 -0.071900032 0.7190001 4.9797005e-39
-0.011640952 -0.071900032 0.7190001 5.9077552e-39
-0.010242858 -0.071700029 0.71700007 6.7364397e-39
-0.0089019043 -0.071900003 0.7190001 7.665579e-39
-0.0075323819 -0.071900018 0.7190001 9.4133443e-39
-0.0061457152 -0.071700029 0.71700007 1.1252205e-38
-0.004780001 -0.071700014 0.71700007 1.0974186e-38
-0.0034142856 -0.071700014 0.71700007 1.060613e-38
-0.0020457143 -0.071600027 0.71600008 1.0699762e-38
-0.00068190478 -0.071600012 0.71600002 1.0880927e-38
0.00068000006 -0.071400024 0.71400011 1.0978508e-38
0.0020400002 -0.071400009 0.71400011 1.1166848e-38
0.0034000003 -0.071400024 0.71400011 1.0428581e-38
0.0047733332 -0.071600027 0.71600008 9.6984806e-39
0.0061371429 -0.071600012 0.71600002 6.9221706e-39
0.0075009526 -0.071600012 0.71600002 4.152727e-39
0.0088771433 -0.071700014 0.71700007 3.5937911e-39
0.010242858 -0.071700014 0.71700007 3.039911e-39
0.011608572 -0.071700014 0.71700007 2.2133944e-39
0.013010478 -0.071900018 0.7190001 1.4790705e-39
0.014380001 -0.071900018 0.7190001 2.0308024e-39
0.015749523 -0.071900032 0.7190001 2.5818252e-39
0.017142858 -0.072000034 0.72000003 2.2152104e-39
0.018514287 -0.072000019 0.72000003 1.9378949e-39
0.019885715 -0.072000019 0.72000003 2.2158971e-39
0.021316191 -0.072200023 0.72200006 2.5836244e-39
0.022722859 -0.072300024 0.72300017 2.6758453e-39
0.024166666 -0.072500013 0.72500002 2.6758159e-39
0.025547618 -0.072499998 0.72500002 2.6761452e-39
0.026965719 -0.072600015 0.72600007 2.7669045e-39
0.028426668 -0.072800018 0.72800016 2.6754277e-39
0.029854288 -0.072900005 0.72900009 2.6700972e-39
0.03132857 -0.073100008 0.73100007 6.1789079e-39
0.03272095 -0.073100008 0.73100007 9.6758075e-39
0.034113333 -0.073100008 0.73100007 1.0138549e-38
-0.040117145 -0.072492398 0.73900008 1.290027e-39
-0.038604766 -0.072296195 0.73700005 1.1059888e-39
-0.03715048 -0.072198115 0.73600012 9.2196891e-40
-0.035651434 -0.072001927 0.73400009 6.4467717e-40
-0.034159999 -0.071805738 0.73200017 2.7949318e-40
-0.032631427 -0.07151144 0.72900009 5.5536541e-40
-0.031200005 -0.071413361 0.7280001 8.3229141e-40
-0.02969048 -0.071119078 0.72500008 5.5497725e-40
-0.028309528 -0.071119063 0.72500008 1.8978486e-40
-0.02685429 -0.070922889 0.72300011 6.4895954e-40
-0.025477147 -0.070922889 0.72300011 1.0173819e-39
-0.02406667 -0.07082478 0.72200012 1.2014159e-39
-0.022691432 -0.070824765 0.72200012 1.2928954e-39
-0.021316193 -0.070824765 0.72200006 1.5673285e-39
-0.019940956 -0.070824765 0.72200006 1.7520925e-39
-0.018514287 -0.070628591 0.72000003 2.0276172e-39
-0.017142858 -0.070628591 0.72000003 2.3060118e-39
-0.01577143 -0.070628591 0.72000009 2.8577618e-39
-0.014380001 -0.070530511 0.7190001 3.4095035e-39
-0.013010477 -0.070530497 0.7190001 4.2353167e-39
-0.011608572 -0.070334323 0.71700013 4.9800816e-39
-0.010242858 -0.070334323 0.71700007 6.2715533e-39
-0.0088771433 -0.070334323 0.71700007 7.5719541e-39
-0.0075114295 -0.070334323 0.71700007 9.0441877e-39
-0.0061457152 -0.070334308 0.71700007 1.0515e-38
-0.004780001 -0.070334308 0.71700007 1.0143365e-38
-0.0034142856 -0.070334323 0.71700013 9.683823e-39
-0.0020457143 -0.070236214 0.71600008 9.7774479e-39
-0.00068190478 -0.070236214 0.71600008 9.7778067e-39
0.00068000006 -0.070040025 0.71400011 9.5980817e-39
0.0020457148 -0.070236214 0.71600008 9.4083151e-39
0.0034095242 -0.070236214 0.71600002 8.4917552e-39
0.0047800001 -0.070334323 0.71700013 7.5683149e-39
0.0061371429 -0.070236214 0.71600008 5.7182674e-39
0.0075009526 -0.070236228 0.71600008 3.8725612e-39
0.0088771433 -0.070334308 0.71700007 3.1321081e-39
0.010242858 -0.070334308 0.71700007 2.3970626e-39
0.011640953 -0.070530497 0.7190001 1.6620156e-39
0.013010477 -0.070530497 0.7190001 9.2877081e-40
0.014380001 -0.070530497 0.7190001 1.6623842e-39
0.015749525 -0.070530497 0.7190001 2.3978024e-39
0.017142858 -0.070628606 0.72000009 1.9407942e-39
0.018514287 -0.070628606 0.72000009 1.4826845e-39
0.019885715 -0.070628591 0.72000009 1.9429297e-39
0.021316189 -0.070824765 0.72200006 2.3099298e-39
0.022722857 -0.070922874 0.72300005 2.4939764e-39
0.0241 -0.070922874 0.72300011 2.6769215e-39
0.025547618 -0.071119063 0.72500008 3.596703e-39
0.026965717 -0.071217157 0.72600007 4.426814e-39
0.028426668 -0.071413346 0.7280001 3.9705119e-39
0.029854288 -0.071511425 0.72900009 3.5127834e-39
0.031328574 -0.071707614 0.73100007 6.9239853e-39
0.032720953 -0.071707614 0.73100007 1.0322259e-38
-0.040008575 -0.070892386 0.73700005 1.2882193e-39
-0.038604766 -0.070892401 0.73700011 1.2892857e-39
-0.037150476 -0.070796214 0.73600012 1.2900143e-39
-0.03565143 -0.07060384 0.73400009 9.2196611e-40
-0.034159999 -0.070411451 0.73200011 6.4645822e-40
-0.032631431 -0.070122875 0.72900009 8.312026e-40
-0.031200005 -0.070026688 0.72800016 1.0163071e-39
-0.02969048 -0.069738097 0.72500008 7.4008177e-40
-0.028309528 -0.069738112 0.72500008 4.6493401e-40
-0.026854288 -0.069545738 0.72300017 7.3972304e-40
-0.025477145 -0.069545723 0.72300011 1.1056329e-39
-0.024066668 -0.069449522 0.72200012 1.1981887e-39
-0.022691431 -0.069449537 0.72200012 1.3811324e-39
-0.021316191 -0.069449537 0.72200006 1.5662271e-39
-0.019940954 -0.069449537 0.72200006 1.7499163e-39
-0.018565716 -0.069449537 0.72200012 1.7524456e-39
-0.017190477 -0.069449522 0.72200012 1.8450238e-39
-0.015771432 -0.069257163 0.72000003 2.4904087e-39
-0.01438 -0.06916099 0.7190001 3.2268961e-39
-0.013010476 -0.06916099 0.7190001 3.9615899e-39
-0.011640952 -0.06916099 0.7190001 4.7917555e-39
-0.010242858 -0.068968587 0.71700007 6.8290543e-39
-0.0089019043 -0.069160976 0.7190001 8.8680585e-39
-0.0075323819 -0.069160976 0.7190001 9.6898836e-39
-0.0061628581 -0.069160976 0.7190001 1.051786e-38
-0.0047933343 -0.069160976 0.7190001 1.0142649e-38
-0.0034238098 -0.069160961 0.7190001 9.8610312e-39
-0.0020485714 -0.068968602 0.71700007 9.6812936e-39
-0.00068190478 -0.068872385 0.71600002 9.496901e-39
0.00068190484 -0.0688724 0.71600008 9.0341306e-39
0.0020485718 -0.068968602 0.71700013 8.6520805e-39
0.0034095242 -0.068872415 0.71600008 7.8352455e-39
0.0047800001 -0.068968616 0.71700007 6.9150492e-39
0.0061371424 -0.0688724 0.71600008 5.5281421e-39
0.0075114286 -0.068968602 0.71700007 4.232374e-39
0.0088771433 -0.068968602 0.71700013 3.4987382e-39
0.010242858 -0.068968602 0.71700013 2.7636857e-39
0.011640954 -0.069160976 0.7190001 2.3055746e-39
0.013010478 -0.069160976 0.7190001 1.8499928e-39
0.014380001 -0.069161005 0.7190001 2.1226365e-39
0.015749525 -0.06916099 0.7190001 2.4874911e-39
0.017190477 -0.069449537 0.72200012 2.767685e-39
0.018565716 -0.069449537 0.72200012 3.0471375e-39
0.019940954 -0.069449522 0.72200012 3.8754492e-39
0.021345716 -0.069545709 0.72300011 4.6987471e-39
0.022785716 -0.069738112 0.72500008 4.9767704e-39
0.024166668 -0.069738097 0.72500008 5.3394628e-39
0.025582859 -0.069834299 0.72600007 5.3455739e-39
0.026965717 -0.069834299 0.72600007 5.4438764e-39
0.028465716 -0.07012286 0.72900009 6.0881682e-39
0.029936193 -0.070315249 0.73100007 6.730997e-39
0.031457145 -0.070603825 0.73400009 8.4837426e-39
0.03307905 -0.07108479 0.73900014 1.0324785e-38
0.034393337 -0.070892386 0.73700005 1.0599601e-38
-0.040008575 -0.069488607 0.73700005 1.1967439e-39
-0.038604766 -0.069488592 0.73700005 1.381124e-39
-0.03715048 -0.069394313 0.73600012 1.5651579e-39
-0.03565143 -0.069205739 0.73400009 1.2900157e-39
-0.034160003 -0.069017179 0.73200011 9.2267236e-40
-0.032631431 -0.068734296 0.72900009 1.0152239e-39
-0.03124286 -0.068734281 0.72900009 1.1074182e-39
-0.029690478 -0.068357162 0.72500002 9.2338843e-40
-0.028309526 -0.068357162 0.72500008 6.4824067e-40
-0.026854288 -0.068168588 0.72300011 9.2338702e-40
-0.025477145 -0.068168588 0.72300011 1.1063434e-39
-0.024066668 -0.068074308 0.72200012 1.2882221e-39
-0.022691431 -0.068074293 0.72200006 1.3822044e-39
-0.021316191 -0.068074293 0.72200006 1.5658712e-39
-0.019940954 -0.068074323 0.72200012 1.7517086e-39
-0.018565716 -0.068074293 0.72200012 1.5702054e-39
-0.017190477 -0.068074279 0.72200012 1.295436e-39
-0.015815239 -0.068074279 0.72200012 2.2148867e-39
-0.014400001 -0.067885734 0.72000009 3.0421223e-39
-0.013010478 -0.067791454 0.7190001 3.7764475e-39
-0.011640954 -0.067791454 0.7190001 4.5208803e-39
-0.01027143 -0.067791454 0.7190001 7.2932274e-39
-0.0089019062 -0.067791454 0.7190001 1.005222e-38
-0.0075323819 -0.06779144 0.7190001 1.0236951e-38
-0.0061628581 -0.067791454 0.7190001 1.0419551e-38
-0.0047933343 -0.06779144 0.7190001 1.0231222e-38
-0.0034238098 -0.067791454 0.7190001 1.0046831e-38
-0.0020485714 -0.067602865 0.71700007 9.5894455e-39
-0.00068190478 -0.067508586 0.71600008 9.1266751e-39
0.00068190478 -0.067508586 0.71600008 8.5727867e-39
0.002054286 -0.067791454 0.7190001 7.9231195e-39
0.0034142861 -0.06760288 0.71700007 7.0976734e-39
0.0047933334 -0.067791454 0.7190001 6.2682477e-39
0.0061457143 -0.06760288 0.71700007 5.4305725e-39
0.0075114286 -0.067602895 0.71700013 4.5100413e-39
0.0088771433 -0.06760288 0.71700007 3.8660928e-39
0.010271429 -0.067791454 0.7190001 3.1317521e-39
0.011640953 -0.06779144 0.7190001 2.9466294e-39
0.013010477 -0.06779144 0.7190001 2.7651164e-39
0.014380001 -0.067791454 0.7190001 2.6736438e-39
0.015815239 -0.068074308 0.72200012 2.4896407e-39
0.017190477 -0.068074308 0.72200012 3.5038039e-39
0.01859143 -0.068168603 0.72300011 4.5229753e-39
0.019968573 -0.068168588 0.72300011 5.8133483e-39
0.021404764 -0.068357147 0.72500008 7.0047071e-39
0.022785716 -0.068357132 0.72500002 7.4667642e-39
0.024166668 -0.068357162 0.72500008 7.9230788e-39
0.025582859 -0.068451457 0.72600007 7.1862495e-39
0.026965717 -0.068451442 0.72600007 6.362946e-39
0.028465716 -0.068734281 0.72900009 8.2071767e-39
0.030059049 -0.069205724 0.73400009 9.9520483e-39
0.031585716 -0.069488592 0.73700005 1.0138228e-38
0.03312381 -0.069771446 0.74000007 1.0231153e-38
0.034486674 -0.069677152 0.73900008 1.0782539e-38
-0.038604766 -0.068084784 0.73700011 1.7481086e-39
-0.037352383 -0.068361916 0.74000001 2.023255e-39
-0.03589429 -0.068269543 0.73900008 1.7484646e-39
-0.03448667 -0.068269543 0.73900008 1.3821988e-39
-0.03307905 -0.068269528 0.73900008 1.4736741e-39
-0.03154286 -0.067992397 0.73600012 1.4740357e-39
-0.029813338 -0.067253329 0.7280001 1.2907248e-39
-0.028348573 -0.067068599 0.72600013 1.1077699e-39
-0.026965717 -0.067068599 0.72600013 1.2910807e-39
-0.025547622 -0.066976212 0.72500002 1.4747531e-39
-0.02416667 -0.066976212 0.72500008 1.659143e-39
-0.022785718 -0.066976212 0.72500008 1.8449664e-39
-0.021404766 -0.066976227 0.72500008 1.9360844e-39
-0.020023813 -0.066976212 0.72500008 2.0282912e-39
-0.01864286 -0.066976212 0.72500008 1.9371844e-39
-0.017261907 -0.066976197 0.72500008 1.8475153e-39
-0.015815239 -0.06669905 0.72200006 2.4903764e-39
-0.014400001 -0.066514291 0.72000003 3.1339311e-39
-0.013028572 -0.066514291 0.72000009 3.687444e-39
-0.011657144 -0.066514291 0.72000009 4.242113e-39
-0.010285715 -0.066514291 0.72000009 5.8127107e-39
-0.0089142863 -0.066514306 0.72000003 7.3814434e-39
-0.0075323819 -0.066421919 0.7190001 7.7505748e-39
-0.0061628581 -0.066421919 0.7190001 8.2122522e-39
-0.0047933343 -0.066421904 0.7190001 7.6576407e-39
-0.0034285716 -0.066514291 0.72000009 7.1077137e-39
-0.0020485714 -0.066237174 0.71700013 6.6410113e-39
-0.00068285712 -0.066237174 0.71700007 6.1839792e-39
0.00068285724 -0.066237174 0.71700007 5.2573664e-39
0.0020485718 -0.066237174 0.71700007 4.4315602e-39
0.0034238098 -0.066421933 0.7190001 4.7045499e-39
0.0047933334 -0.066421933 0.7190001 4.9868499e-39
0.0061457148 -0.066237159 0.71700013 4.515093e-39
0.007511429 -0.066237159 0.71700007 3.9593968e-39
0.0089019053 -0.066421919 0.7190001 3.7760636e-39
0.010271429 -0.066421933 0.7190001 3.5008934e-39
0.011640953 -0.066421919 0.7190001 3.4065243e-39
0.013010477 -0.066421933 0.7190001 3.3143329e-39
0.014400001 -0.066514291 0.72000009 3.4054523e-39
0.01577143 -0.066514291 0.72000003 3.4973173e-39
0.017190477 -0.066699065 0.72200012 5.4395239e-39
0.01859143 -0.066791452 0.72300011 7.3802915e-39
0.019968573 -0.066791452 0.72300011 8.0213715e-39
0.021404762 -0.066976212 0.72500008 8.6624389e-39
0.022785716 -0.066976212 0.72500008 8.8493497e-39
0.024166668 -0.066976197 0.72500008 9.128445e-39
0.025582859 -0.067068584 0.72600007 8.382999e-39
0.026965717 -0.067068599 0.72600013 7.6446941e-39
0.028348573 -0.067068584 0.72600007 8.8489237e-39
0.030140955 -0.067992382 0.73600006 1.0048182e-38
0.031585716 -0.068084769 0.73700011 1.0231509e-38
0.03307905 -0.068269543 0.73900008 1.0505941e-38
0.034533337 -0.068361901 0.74000007 1.0046405e-38
0.03594286 -0.068361916 0.74000001 9.5904348e-39
-0.037352383 -0.066952385 0.74000007 2.4860282e-39
-0.035894286 -0.066861935 0.73900008 2.2069386e-39
-0.03439334 -0.066680975 0.73700011 1.8410329e-39
-0.032944761 -0.066590495 0.73600012 1.8392407e-39
-0.031542856 -0.066590495 0.73600012 1.8410301e-39
-0.029854288 -0.065957136 0.72900009 1.7491904e-39
-0.028426668 -0.065866686 0.7280001 1.5665928e-39
-0.026965717 -0.065685742 0.72600007 1.7499023e-39
-0.025582859 -0.065685727 0.72600007 1.8428182e-39
-0.024166668 -0.065595247 0.72500008 2.1197638e-39
-0.022785716 -0.065595262 0.72500008 2.3045124e-39
-0.021404764 -0.065595247 0.72500008 2.3048739e-39
-0.020051429 -0.065685742 0.72600013 2.3041705e-39
-0.018668573 -0.065685727 0.72600007 2.3949438e-39
-0.017261906 -0.065595247 0.72500008 2.3974619e-39
-0.015880954 -0.065595277 0.72500008 2.7644522e-39
-0.014500001 -0.065595247 0.72500008 3.1353731e-39
-0.013119048 -0.065595232 0.72500008 3.5048605e-39
-0.011705715 -0.065414287 0.72300011 3.8729619e-39
-0.010328572 -0.065414302 0.72300011 4.3332577e-39
-0.0089514293 -0.065414302 0.72300011 4.7099225e-39
-0.0075742863 -0.065414302 0.72300005 5.3545604e-39
-0.0061885724 -0.065323807 0.72200006 5.9073502e-39
-0.004813334 -0.065323837 0.72200012 4.9871848e-39
-0.0034380956 -0.065323807 0.72200012 4.0602301e-39
-0.002057143 -0.065142862 0.72000003 3.591378e-39
-0.00068761909 -0.065323807 0.72200012 3.1350606e-39
0.00068761909 -0.065323807 0.72200006 2.0251313e-39
0.0020628574 -0.065323822 0.72200006 9.2704161e-40
0.0034380956 -0.065323807 0.72200006 2.3020531e-39
0.004813333 -0.065323807 0.72200012 3.6856742e-39
0.0061885715 -0.065323822 0.72200012 3.5909576e-39
0.0075742863 -0.065414287 0.72300011 3.4079971e-39
0.0089514293 -0.065414272 0.72300011 3.685649e-39
0.010328572 -0.065414287 0.72300005 3.8675109e-39
0.011657144 -0.065142877 0.72000003 3.8642669e-39
0.013028572 -0.065142862 0.72000003 3.8617642e-39
0.014440001 -0.065323807 0.72200012 4.2276796e-39
0.015837144 -0.065414287 0.72300011 4.5157978e-39
0.017214287 -0.065414302 0.72300011 7.3767462e-39
0.018642858 -0.065595262 0.72500008 1.0134694e-38
0.020023812 -0.065595247 0.72500008 1.0229412e-38
0.021434287 -0.065685727 0.72600007 1.0320525e-38
0.022880001 -0.065866701 0.72800016 1.0322675e-38
0.024266668 -0.065866686 0.72800016 1.0226177e-38
0.025688574 -0.065957151 0.72900009 9.5718522e-39
0.027077144 -0.065957151 0.72900009 8.9332735e-39
0.028739048 -0.066590481 0.73600012 9.5875678e-39
0.030140953 -0.066590495 0.73600012 1.0140017e-38
0.031585712 -0.066680975 0.73700011 1.041696e-38
0.033079054 -0.066861935 0.73900008 1.0689602e-38
0.034533337 -0.066952385 0.74000007 9.2152162e-39
-0.037301905 -0.065454312 0.73900008 4.4246265e-39
-0.03589429 -0.065454312 0.73900008 4.0526308e-39
-0.034393337 -0.065277152 0.73700005 3.6802708e-39
-0.03307905 -0.065454297 0.73900008 3.4069195e-39
-0.031585716 -0.065277167 0.73700011 3.1281732e-39
-0.029813336 -0.064480014 0.72800016 2.9455672e-39
-0.028426668 -0.064480014 0.72800016 2.6696992e-39
-0.027040001 -0.064480029 0.7280001 2.7611717e-39
-0.025582857 -0.064302869 0.72600007 2.853373e-39
-0.0242 -0.064302869 0.72600007 3.0381258e-39
-0.022817142 -0.064302854 0.72600007 3.2232373e-39
-0.021434285 -0.064302854 0.72600013 3.2221653e-39
-0.020051427 -0.064302869 0.72600013 3.2228982e-39
-0.018668571 -0.064302869 0.72600007 3.3154666e-39
-0.017261907 -0.064214297 0.72500008 3.5016501e-39
-0.015880955 -0.064214312 0.72500008 3.5016501e-39
-0.014500001 -0.064214312 0.72500002 3.5055919e-39
-0.013119048 -0.064214312 0.72500008 3.9633303e-39
-0.011705715 -0.064037152 0.72300011 4.5140013e-39
-0.010357143 -0.064214297 0.72500008 4.7956217e-39
-0.0089514293 -0.064037167 0.72300011 5.167623e-39
-0.0075952387 -0.064214312 0.72500008 5.443484e-39
-0.0062142862 -0.064214297 0.72500002 5.7178919e-39
-0.0048333337 -0.064214282 0.72500002 4.8848928e-39
-0.0034380956 -0.063948579 0.72200012 3.9525599e-39
-0.0020657144 -0.064037167 0.72300011 3.6781422e-39
-0.00068857154 -0.064037152 0.72300011 3.4951747e-39
0.00068761909 -0.063948579 0.72200006 3.400814e-39
0.0020628574 -0.063948579 0.72200006 3.3064534e-39
0.0034380956 -0.063948594 0.72200012 4.1361861e-39
0.0048133335 -0.063948594 0.72200012 5.0566962e-39
0.0061971433 -0.064037167 0.72300011 4.9648621e-39
0.0075742863 -0.064037152 0.72300011 4.9666614e-39
0.0089514293 -0.064037137 0.72300011 5.0592199e-39
0.010328572 -0.064037152 0.72300011 5.0617241e-39
0.011689524 -0.063948594 0.72200012 4.6882752e-39
0.013064763 -0.063948579 0.72200012 4.3166425e-39
0.014460001 -0.064037152 0.72300011 5.6088106e-39
0.015880954 -0.064214297 0.72500008 6.9103773e-39
0.017261906 -0.064214297 0.72500008 8.4738172e-39
0.018642858 -0.064214297 0.72500008 1.0042195e-38
0.020051431 -0.064302884 0.72600007 1.050173e-38
0.021434288 -0.064302884 0.72600007 1.0873717e-38
0.022911429 -0.064568587 0.72900009 1.0963382e-38
0.024300002 -0.064568572 0.72900009 1.1055221e-38
0.025759047 -0.064745717 0.73100001 1.0220812e-38
0.027151428 -0.064745702 0.73100001 9.3885189e-39
0.02873905 -0.065188594 0.73600012 9.766948e-39
0.030140955 -0.065188594 0.73600012 1.01393e-38
0.031585716 -0.065277152 0.73700005 1.0323675e-38
0.033079054 -0.065454312 0.73900008 1.0599551e-38
0.034533333 -0.065542869 0.74000007 1.0047828e-38
-0.03891905 -0.064393349 0.74300009 7.0082355e-39
-0.037453335 -0.064306669 0.74200004 6.3589327e-39
-0.035894293 -0.064046703 0.73900008 5.8990419e-39
-0.034533337 -0.064133354 0.74000007 5.4366261e-39
-0.033079054 -0.064046703 0.73900014 4.9799485e-39
-0.031585716 -0.063873328 0.73700005 4.4214035e-39
-0.029977145 -0.063440003 0.73200011 4.1433873e-39
-0.028543811 -0.063353352 0.73100007 3.7731671e-39
-0.027077146 -0.063180007 0.72900003 3.771365e-39
-0.025653334 -0.063093357 0.72800016 3.7724468e-39
-0.024266668 -0.063093342 0.7280001 3.9564835e-39
-0.022880001 -0.063093357 0.7280001 4.140872e-39
-0.021493334 -0.063093342 0.7280001 4.1380021e-39
-0.020106668 -0.063093327 0.7280001 4.0497708e-39
-0.018720001 -0.063093357 0.72800016 4.3260115e-39
-0.017285716 -0.062920026 0.72600007 4.5089595e-39
-0.015902858 -0.062920026 0.72600007 4.235241e-39
-0.01452 -0.062920012 0.72600013 3.8675417e-39
-0.013119048 -0.062833346 0.72500008 4.5129027e-39
-0.011738095 -0.062833346 0.72500008 5.0649989e-39
-0.010357142 -0.062833346 0.72500008 5.3505583e-39
-0.0089761904 -0.062833346 0.72500002 5.6235537e-39
-0.0075952392 -0.062833346 0.72500008 5.6260634e-39
-0.0062142867 -0.062833346 0.72500008 5.529542e-39
-0.0048333341 -0.062833346 0.72500008 4.6986953e-39
-0.0034523809 -0.062833346 0.72500008 3.8621425e-39
-0.0020657142 -0.062660001 0.72300011 3.8574902e-39
-0.00068857148 -0.062660001 0.72300011 3.767077e-39
0.00068857148 -0.062660016 0.72300011 4.6847033e-39
0.0020657147 -0.062660016 0.72300011 5.6026911e-39
0.0034428576 -0.062660001 0.72300005 5.9707436e-39
0.0048200004 -0.062660016 0.72300017 6.3388044e-39
0.0061971433 -0.062660016 0.72300011 6.4292078e-39
0.0075742863 -0.062660016 0.72300011 6.5242761e-39
0.0089514293 -0.062660016 0.72300011 6.4310113e-39
0.010328572 -0.062660001 0.72300011 6.2534331e-39
0.011705715 -0.062660016 0.72300011 5.5104927e-39
0.013082858 -0.062659986 0.72300005 4.6857753e-39
0.014460001 -0.062660001 0.72300011 6.9798761e-39
0.015880952 -0.062833346 0.72500008 9.2005081e-39
0.017261904 -0.062833346 0.72500002 9.5661349e-39
0.018668573 -0.062920012 0.72600007 9.9431557e-39
0.020051429 -0.062919997 0.72600007 1.0677115e-38
0.021493334 -0.063093342 0.72800016 1.1418258e-38
0.022911428 -0.063180022 0.72900009 1.1693407e-38
0.024266668 -0.063093342 0.7280001 1.1878125e-38
0.025688572 -0.063180007 0.72900009 1.0867187e-38
0.02715143 -0.063353337 0.73100001 9.8552032e-39
0.028660955 -0.063613348 0.73400009 9.9520609e-39
0.030140953 -0.063786693 0.73600012 1.0046735e-38
0.031671427 -0.064046688 0.73900008 1.0230734e-38
0.033079047 -0.064046688 0.73900008 1.0415861e-38
0.034533337 -0.064133339 0.74000007 1.0784659e-38
-0.03891905 -0.062978096 0.74300009 7.1904982e-39
-0.037503812 -0.062978096 0.74300009 6.7266558e-39
-0.036040001 -0.062893353 0.7420001 6.4511465e-39
-0.034533337 -0.062723838 0.74000007 6.1763337e-39
-0.03307905 -0.062639065 0.73900014 5.6220669e-39
-0.031585716 -0.062469535 0.73700011 5.1589574e-39
-0.029977145 -0.062045731 0.73200011 4.6958478e-39
-0.028543811 -0.061960973 0.73100007 4.1401573e-39
-0.02715143 -0.061960973 0.73100007 4.1397846e-39
-0.025688574 -0.061791427 0.72900009 4.0486736e-39
-0.024300002 -0.061791442 0.72900009 4.0483218e-39
-0.022911429 -0.061791427 0.72900009 4.143023e-39
-0.021522859 -0.061791427 0.72900003 3.7728055e-39
-0.020134287 -0.061791427 0.72900009 3.5016221e-39
-0.018720001 -0.06170667 0.7280001 3.4044238e-39
-0.017333334 -0.06170667 0.7280001 3.2178717e-39
-0.015902858 -0.061537169 0.72600013 3.4022476e-39
-0.014520001 -0.061537169 0.72600013 3.4922964e-39
-0.013137144 -0.061537169 0.72600007 4.3213326e-39
-0.011738096 -0.061452396 0.72500008 5.2389701e-39
-0.010357143 -0.061452381 0.72500008 5.6124105e-39
-0.0089761913 -0.061452396 0.72500008 5.9826252e-39
-0.0076057152 -0.061537154 0.72600007 6.9931772e-39
-0.0062142867 -0.061452396 0.72500008 8.003704e-39
-0.0048333341 -0.061452381 0.72500002 8.0890584e-39
-0.0034523809 -0.061452381 0.72500002 8.2655646e-39
-0.0020628572 -0.061198093 0.72200006 8.2680855e-39
-0.00068857148 -0.061282866 0.72300011 8.2655646e-39
0.00068857148 -0.061282881 0.72300011 9.3751141e-39
0.0020657147 -0.061282866 0.72300011 1.0561442e-38
0.0034428576 -0.061282881 0.72300011 1.1398724e-38
0.0048199999 -0.061282866 0.72300005 1.2306318e-38
0.0061971429 -0.061282896 0.72300011 1.2873117e-38
0.0075742858 -0.061282881 0.72300011 1.3413372e-38
0.0089514293 -0.061282866 0.72300011 1.3894077e-38
0.010328572 -0.061282881 0.72300011 1.4254601e-38
0.011705715 -0.061282866 0.72300011 1.3986984e-38
0.013082858 -0.061282881 0.72300005 1.3691031e-38
0.014500001 -0.061452381 0.72500002 1.5001123e-38
0.015880954 -0.061452396 0.72500008 1.6284382e-38
0.017285716 -0.061537169 0.72600007 1.6478886e-38
0.018668573 -0.061537169 0.72600007 1.6650705e-38
0.020051429 -0.061537154 0.72600007 1.647814e-38
0.021493334 -0.061706685 0.7280001 1.6285524e-38
0.022911429 -0.061791442 0.72900009 1.5281094e-38
0.024266668 -0.06170667 0.72800016 1.4355144e-38
0.025688574 -0.061791427 0.72900009 1.1597865e-38
0.02715143 -0.061960958 0.73100001 8.9375391e-39
0.028739048 -0.062384792 0.73600012 9.5843658e-39
0.030140953 -0.062384792 0.73600012 1.0323664e-38
0.031585716 -0.062469535 0.73700005 1.0232138e-38
0.03307905 -0.062639065 0.73900008 1.0232172e-38
0.03448667 -0.062639065 0.73900008 9.9545468e-39
-0.03891905 -0.061562873 0.74300009 7.3745448e-39
-0.037453335 -0.061480008 0.7420001 7.0958111e-39
-0.036040001 -0.061480023 0.74200004 7.0021833e-39
-0.034533337 -0.061314307 0.74000007 6.8181368e-39
-0.03307905 -0.061231457 0.73900014 6.3567887e-39
-0.031585716 -0.061065726 0.73700005 5.8936568e-39
-0.029977143 -0.060651459 0.73200011 5.2490062e-39
-0.028582858 -0.060651459 0.73200011 4.5074937e-39
-0.027151432 -0.060568579 0.73100007 4.4156442e-39
-0.025759051 -0.060568579 0.73100007 4.3220192e-39
-0.024300003 -0.060402863 0.72900009 4.2291104e-39
-0.022880001 -0.060320012 0.7280001 4.0450778e-39
-0.021522861 -0.060402863 0.72900009 3.4915523e-39
-0.020106668 -0.060319997 0.72800016 2.9423414e-39
-0.018720001 -0.060320012 0.7280001 2.4799452e-39
-0.017333334 -0.060319997 0.7280001 1.931107e-39
-0.01590286 -0.060154296 0.72600013 2.5718255e-39
-0.014520001 -0.060154311 0.72600007 3.1285852e-39
-0.013137144 -0.060154296 0.72600007 4.2248798e-39
-0.011754286 -0.060154296 0.72600007 5.3391265e-39
-0.010371429 -0.060154296 0.72600007 5.8779678e-39
-0.0089761913 -0.060071431 0.72500008 6.3565154e-39
-0.0076057152 -0.060154311 0.72600013 8.3603919e-39
-0.0062142862 -0.060071446 0.72500008 1.039905e-38
-0.0048333337 -0.060071431 0.72500008 1.1479892e-38
-0.0034523811 -0.060071446 0.72500008 1.2603447e-38
-0.0020657144 -0.059905715 0.72300005 1.2684166e-38
-0.00068857142 -0.059905715 0.72300011 1.2795759e-38
0.00068857154 -0.059905745 0.72300011 1.4172245e-38
0.0020657144 -0.05990573 0.72300011 1.546907e-38
0.0034428576 -0.059905715 0.72300011 1.6848403e-38
0.0048199999 -0.05990573 0.72300011 1.8231676e-38
0.0062142862 -0.060071446 0.72500008 1.9344108e-38
0.0075742858 -0.059905745 0.72300011 2.03543e-38
0.0089514302 -0.05990573 0.72300011 2.13853e-38
0.010328573 -0.059905715 0.72300011 2.229325e-38
0.011705716 -0.05990573 0.72300011 2.2584181e-38
0.013082859 -0.059905715 0.72300011 2.2752068e-38
0.014500001 -0.060071431 0.72500008 2.3141652e-38
0.015902856 -0.060154296 0.72600007 2.340141e-38
0.017333334 -0.060320027 0.72800016 2.3414361e-38
0.018720001 -0.060320027 0.7280001 2.3397134e-38
0.020106668 -0.060320012 0.7280001 2.2299765e-38
0.021493334 -0.060320012 0.7280001 2.1185541e-38
0.022911429 -0.060402878 0.72900009 1.8973955e-38
0.024300002 -0.060402878 0.72900009 1.6761186e-38
0.025688574 -0.060402863 0.72900009 1.2323199e-38
0.027151428 -0.060568564 0.73100001 7.9298359e-39
0.028660953 -0.06081716 0.73400009 9.3074006e-39
0.030140953 -0.06098289 0.73600012 1.0597024e-38
0.031585716 -0.061065726 0.73700011 1.0325084e-38
0.03307905 -0.061231442 0.73900008 9.9552503e-39
0.03448667 -0.061231457 0.73900008 9.0290214e-39
-0.03891905 -0.060147651 0.74300015 7.2812898e-39
-0.037453335 -0.060066693 0.7420001 6.911801e-39
-0.03594286 -0.059904777 0.74000007 6.4511942e-39
-0.034533337 -0.059904791 0.74000007 5.9923656e-39
-0.033079047 -0.059823833 0.73900014 5.2501371e-39
-0.031585716 -0.059661917 0.73700011 4.5143461e-39
-0.029977145 -0.059257172 0.73200011 4.9666768e-39
-0.02858286 -0.059257172 0.73200011 5.418667e-39
-0.027188573 -0.059257172 0.73200011 5.6048365e-39
-0.025759049 -0.059176184 0.73100007 5.7881488e-39
-0.024300002 -0.059014283 0.72900009 6.7082974e-39
-0.022880001 -0.058933325 0.7280001 7.7145418e-39
-0.021493334 -0.05893334 0.7280001 8.4581941e-39
-0.020106668 -0.058933325 0.7280001 9.1842685e-39
-0.018720001 -0.05893334 0.72800016 9.6574365e-39
-0.017333334 -0.05893334 0.72800016 1.0108062e-38
-0.015902858 -0.058771454 0.72600007 1.1047281e-38
-0.014520001 -0.058771469 0.72600007 1.2052099e-38
-0.013137144 -0.058771454 0.72600007 1.2894769e-38
-0.011754286 -0.058771439 0.72600007 1.3728873e-38
-0.010371429 -0.058771454 0.72600007 1.4192045e-38
-0.0089761913 -0.058690496 0.72500008 1.4663413e-38
-0.0076057152 -0.058771454 0.72600007 1.5760051e-38
-0.0062142867 -0.058690481 0.72500008 1.687462e-38
-0.0048333341 -0.058690481 0.72500008 1.7416292e-38
-0.0034523809 -0.058690481 0.72500008 1.7984522e-38
-0.0020657144 -0.05852858 0.72300005 1.7973041e-38
-0.00068857148 -0.05852858 0.72300017 1.8081446e-38
0.00068857148 -0.058528595 0.72300011 1.8716109e-38
0.0020657144 -0.058528595 0.72300011 1.9467669e-38
0.0034428574 -0.05852858 0.72300011 2.0099052e-38
0.0048199999 -0.058528595 0.72300011 2.0846295e-38
0.0062142857 -0.058690496 0.72500002 2.1389058e-38
0.0075742858 -0.05852858 0.72300005 2.1948322e-38
0.0089514293 -0.058528595 0.72300011 2.240463e-38
0.010328572 -0.05852858 0.72300011 2.2866677e-38
0.011705715 -0.058528565 0.72300011 2.2956719e-38
0.013119048 -0.058690481 0.72500008 2.3142183e-38
0.014500001 -0.058690481 0.72500008 2.3234019e-38
0.015902858 -0.058771439 0.72600007 2.341769e-38
0.017333334 -0.05893334 0.7280001 2.3416973e-38
0.018720001 -0.058933355 0.72800016 2.341769e-38
0.020106668 -0.058933355 0.72800016 2.2862731e-38
0.021493334 -0.058933355 0.7280001 2.231564e-38
0.022911429 -0.059014283 0.72900009 2.1203546e-38
0.024300002 -0.059014298 0.72900009 2.0107107e-38
0.025759049 -0.059176199 0.73100007 1.6958717e-38
0.027188573 -0.059257157 0.73200011 1.3824504e-38
0.02873905 -0.059580974 0.73600012 1.1794827e-38
0.030140955 -0.059580959 0.73600012 9.6772383e-39
0.031671435 -0.059823819 0.73900008 9.9559818e-39
0.033079054 -0.059823819 0.73900008 1.0234721e-38
0.034486674 -0.059823833 0.73900014 9.9559902e-39
-0.03589429 -0.058416225 0.73900014 5.8987393e-39
-0.03448667 -0.05841621 0.73900008 5.065736e-39
-0.032989524 -0.058258094 0.73700005 4.1365924e-39
-0.031585716 -0.058258109 0.73700005 3.1325102e-39
-0.030059049 -0.058020972 0.73400009 4.7758746e-39
-0.028582858 -0.0578629 0.73200011 6.3492847e-39
-0.027188571 -0.057862885 0.73200011 6.7962751e-39
-0.025759051 -0.05778382 0.73100007 7.1819125e-39
-0.024300002 -0.057625718 0.72900009 9.2848018e-39
-0.022880003 -0.057546698 0.7280001 1.1326003e-38
-0.021493336 -0.057546683 0.7280001 1.3442537e-38
-0.02010667 -0.057546668 0.7280001 1.5472276e-38
-0.018720003 -0.057546683 0.7280001 1.6949209e-38
-0.017333336 -0.057546668 0.7280001 1.833251e-38
-0.01590286 -0.057388596 0.72600007 1.9640477e-38
-0.014520001 -0.057388581 0.72600007 2.0915775e-38
-0.013137144 -0.057388596 0.72600007 2.1573695e-38
-0.011754286 -0.057388581 0.72600007 2.2118274e-38
-0.010371429 -0.057388581 0.72600013 2.2588956e-38
-0.0089885723 -0.057388596 0.72600007 2.2950556e-38
-0.0076057152 -0.057388581 0.72600007 2.3142115e-38
-0.0062142867 -0.057309531 0.72500002 2.3228204e-38
-0.0048333341 -0.057309516 0.72500002 2.3233938e-38
-0.0034523809 -0.057309546 0.72500008 2.3230349e-38
-0.0020657144 -0.057151429 0.72300011 2.3325772e-38
-0.00068857148 -0.057151444 0.72300005 2.3322574e-38
0.00068857148 -0.057151459 0.72300017 2.3325835e-38
0.0020657144 -0.057151444 0.72300011 2.3324767e-38
0.0034428574 -0.057151444 0.72300011 2.3417689e-38
0.0048200004 -0.057151429 0.72300011 2.3417689e-38
0.0062142857 -0.057309531 0.72500008 2.341769e-38
0.0075952383 -0.057309546 0.72500008 2.341769e-38
0.0089761913 -0.057309531 0.72500008 2.341769e-38
0.010357143 -0.057309546 0.72500008 2.341769e-38
0.011738096 -0.057309531 0.72500002 2.341769e-38
0.013119048 -0.057309516 0.72500002 2.341769e-38
0.014500001 -0.057309531 0.72500008 2.341769e-38
0.015902858 -0.057388581 0.72600013 2.341769e-38
0.017333332 -0.057546683 0.7280001 2.341769e-38
0.018719999 -0.057546683 0.7280001 2.341769e-38
0.020106666 -0.057546668 0.7280001 2.341769e-38
0.021522859 -0.057625733 0.72900009 2.3417679e-38
0.022911429 -0.057625718 0.72900003 2.3417666e-38
0.024300002 -0.057625718 0.72900009 2.3416513e-38
0.025759049 -0.057783805 0.73100007 2.1580803e-38
0.027188575 -0.057862885 0.73200011 1.9719298e-38
0.02873905 -0.058179058 0.73600012 1.4278361e-38
0.030140955 -0.058179058 0.73600012 8.762835e-39
0.031671431 -0.058416195 0.73900008 9.6790235e-39
0.03307905 -0.05841621 0.73900014 1.0508065e-38
0.03448667 -0.058416225 0.73900014 1.0876493e-38
-0.03589429 -0.057008602 0.73900008 8.2868125e-39
-0.03448667 -0.057008587 0.73900008 8.8270215e-39
-0.032989528 -0.0568543 0.73700011 9.4816661e-39
-0.031542856 -0.056777157 0.73600006 1.0214967e-38
-0.030059051 -0.05662287 0.73400009 1.1698376e-38
-0.028660957 -0.05662287 0.73400009 1.3181768e-38
-0.027188573 -0.056468584 0.73200011 1.4009755e-38
-0.025759051 -0.056391425 0.73100007 1.4847754e-38
-0.024366669 -0.056391425 0.73100007 1.5855433e-38
-0.022911431 -0.056237154 0.72900009 1.6790316e-38
-0.021581909 -0.056391425 0.73100001 1.770511e-38
-0.020189527 -0.05639144 0.73100007 1.8639313e-38
-0.018745717 -0.056237154 0.72900009 1.9089942e-38
-0.017357146 -0.056237169 0.72900009 1.9560599e-38
-0.015946668 -0.05616001 0.7280001 1.9923636e-38
-0.014560001 -0.056160025 0.7280001 2.0295283e-38
-0.013173334 -0.056160025 0.72800016 2.029062e-38
-0.011754286 -0.056005739 0.72600013 2.0295283e-38
-0.010371429 -0.056005724 0.72600007 2.0382455e-38
-0.0089885723 -0.056005739 0.72600007 2.0478954e-38
-0.0076057152 -0.056005724 0.72600007 2.0473932e-38
-0.0062142867 -0.05592858 0.72500008 2.057079e-38
-0.0048333341 -0.05592858 0.72500008 2.0750156e-38
-0.0034523809 -0.05592858 0.72500008 2.1029967e-38
-0.0020657144 -0.055774294 0.72300011 2.1299016e-38
-0.00068857142 -0.055774294 0.72300011 2.1485196e-38
0.00068857154 -0.055774309 0.72300005 2.1852176e-38
0.0020657144 -0.055774324 0.72300011 2.2128762e-38
0.0034428574 -0.055774309 0.72300011 2.2404271e-38
0.0048200004 -0.055774309 0.72300011 2.2683006e-38
0.0061971433 -0.055774309 0.72300011 2.268193e-38
0.0075742863 -0.055774294 0.72300011 2.2683006e-38
0.0089761913 -0.05592858 0.72500002 2.2406782e-38
0.010357143 -0.055928595 0.72500008 2.2131993e-38
0.011738096 -0.05592858 0.72500008 2.1579186e-38
0.013119048 -0.05592858 0.72500008 2.1121803e-38
0.014500001 -0.055928566 0.72500008 2.102638e-38
0.015902856 -0.056005724 0.72600013 2.1029967e-38
0.017333334 -0.056160025 0.72800016 2.0935262e-38
0.018720001 -0.056160025 0.7280001 2.0938132e-38
0.020106668 -0.05616001 0.7280001 2.1028173e-38
0.021522859 -0.056237169 0.72900009 2.1121803e-38
0.022911429 -0.056237154 0.72900009 2.2131993e-38
0.024300002 -0.056237139 0.72900009 2.3050348e-38
0.025759047 -0.05639144 0.73100007 2.1486992e-38
0.027188575 -0.056468599 0.73200011 1.9826662e-38
0.028660953 -0.05662287 0.73400009 1.4379193e-38
0.030140953 -0.056777157 0.73600012 9.0387072e-39
0.031671431 -0.057008587 0.73900014 9.7722771e-39
0.03307905 -0.057008602 0.73900014 1.0507695e-38
0.03448667 -0.057008587 0.73900014 1.0600624e-38
0.03594286 -0.057085715 0.74000001 1.0783576e-38
-0.035894286 -0.055600978 0.73900008 1.0777916e-38
-0.034486666 -0.055600978 0.73900008 1.2623949e-38
-0.032989524 -0.055450492 0.73700005 1.4931672e-38
-0.031542864 -0.055375241 0.73600012 1.7230828e-38
-0.030059049 -0.055224799 0.73400009 1.8621316e-38
-0.028660955 -0.055224784 0.73400009 2.0002807e-38
-0.027188575 -0.055074297 0.73200011 2.1304659e-38
-0.02579429 -0.055074297 0.73200011 2.2490273e-38
-0.024400003 -0.055074297 0.73200011 2.2407408e-38
-0.022974288 -0.054999046 0.73100001 2.2215499e-38
-0.021581907 -0.054999046 0.73100001 2.1948255e-38
-0.020189526 -0.054999061 0.73100007 2.1665244e-38
-0.018745713 -0.054848574 0.72900009 2.1210401e-38
-0.017333336 -0.054773338 0.72800016 2.0653647e-38
-0.01594667 -0.054773368 0.7280001 2.0105502e-38
-0.014560001 -0.054773353 0.7280001 1.9549467e-38
-0.013137144 -0.054622881 0.72600013 1.8998096e-38
-0.011754286 -0.054622896 0.72600007 1.8353812e-38
-0.010371429 -0.054622881 0.72600007 1.8166195e-38
-0.0089885723 -0.054622881 0.72600007 1.7896074e-38
-0.0076057152 -0.054622881 0.72600007 1.788675e-38
-0.0062142867 -0.05454763 0.72500008 1.7806038e-38
-0.0048333341 -0.054547615 0.72500008 1.834916e-38
-0.0034523809 -0.05454763 0.72500002 1.8815871e-38
-0.0020657142 -0.054397143 0.72300011 1.9262493e-38
-0.00068857148 -0.054397143 0.72300011 1.9643106e-38
0.00068857154 -0.054397158 0.72300011 2.0284877e-38
0.0020657147 -0.054397158 0.72300005 2.093239e-38
0.0034428576 -0.054397173 0.72300011 2.1479459e-38
0.0048200004 -0.054397158 0.72300011 2.1945093e-38
0.0061971433 -0.054397158 0.72300011 2.1944376e-38
0.0075952387 -0.054547645 0.72500008 2.194617e-38
0.0089761913 -0.05454763 0.72500008 2.1394439e-38
0.010357143 -0.05454763 0.72500008 2.0747998e-38
0.011738096 -0.054547615 0.72500008 1.9737444e-38
0.013137144 -0.054622881 0.72600013 1.8721872e-38
0.014520001 -0.054622866 0.72600013 1.8627884e-38
0.015946666 -0.054773338 0.7280001 1.8536408e-38
0.017357146 -0.054848589 0.72900009 1.8446725e-38
0.018745717 -0.054848589 0.72900009 1.8350581e-38
0.020134289 -0.054848574 0.72900009 1.8634334e-38
0.021522861 -0.054848574 0.72900009 1.8809755e-38
0.022911431 -0.054848574 0.72900009 2.0754445e-38
0.024300003 -0.054848574 0.72900003 2.2672236e-38
0.025759049 -0.054999046 0.73100007 2.1305474e-38
0.027188573 -0.055074312 0.73200011 1.9904876e-38
0.028660955 -0.055224784 0.73400009 1.4556788e-38
0.030140955 -0.055375241 0.73600012 9.2256138e-39
0.031671435 -0.055600978 0.73900014 9.864107e-39
0.033079054 -0.055600978 0.73900014 1.0416583e-38
0.034533337 -0.055676214 0.74000007 1.0418765e-38
0.036040001 -0.055826671 0.7420001 1.0326182e-38
-0.03448667 -0.054193355 0.73900008 1.4122838e-38
-0.032989524 -0.054046683 0.73700011 1.4854687e-38
-0.031457145 -0.053826697 0.73400009 1.5604469e-38
-0.030059049 -0.053826682 0.73400009 1.5961078e-38
-0.028660955 -0.053826697 0.73400009 1.6342404e-38
-0.027188573 -0.053680025 0.73200011 1.6699693e-38
-0.025794288 -0.05368001 0.73200011 1.7167127e-38
-0.024400001 -0.05368001 0.73200011 1.7893207e-38
-0.023005717 -0.05368001 0.73200011 1.8623583e-38
-0.021581909 -0.053606667 0.73100001 1.9177104e-38
-0.020189527 -0.053606667 0.73100007 1.9720222e-38
-0.018797146 -0.053606682 0.73100007 2.0094017e-38
-0.017357145 -0.053460009 0.72900009 2.0543865e-38
-0.01594667 -0.053386681 0.72800016 2.0739011e-38
-0.01456 -0.053386681 0.72800016 2.0910846e-38
-0.013173333 -0.053386681 0.7280001 2.0739013e-38
-0.011786667 -0.053386681 0.7280001 2.0547808e-38
-0.0104 -0.053386681 0.7280001 2.0283423e-38
-0.0089885723 -0.053240009 0.72600007 2.0103346e-38
-0.0076057157 -0.053240009 0.72600007 2.0012594e-38
-0.0062142862 -0.053166665 0.72500002 1.9927937e-38
-0.0048333337 -0.053166665 0.72500008 1.9831801e-38
-0.0034523809 -0.05316668 0.72500008 1.9836106e-38
-0.0020657144 -0.053020008 0.72300011 1.9830007e-38
-0.00068857148 -0.053019993 0.72300011 1.974427e-38
0.00068857148 -0.053020023 0.72300011 1.8820175e-38
0.0020657144 -0.053020008 0.72300011 1.7815725e-38
0.0034428574 -0.053020023 0.72300005 1.7347579e-38
0.0048333337 -0.05316668 0.72500008 1.689737e-38
0.0062142862 -0.053166695 0.72500008 1.6060447e-38
0.0075952387 -0.05316668 0.72500008 1.5242896e-38
0.0089761913 -0.05316668 0.72500008 1.3572636e-38
0.010357143 -0.05316668 0.72500002 1.1922099e-38
0.011754286 -0.053240009 0.72600013 1.0618814e-38
0.013137144 -0.053240009 0.72600013 9.4306924e-39
0.014560002 -0.053386666 0.7280001 9.4177767e-39
0.015946666 -0.053386681 0.7280001 9.3363458e-39
0.017357145 -0.053460009 0.72900009 1.2170333e-38
0.018745717 -0.053460009 0.72900009 1.4923237e-38
0.020134289 -0.053460024 0.72900009 1.5663653e-38
0.021522861 -0.053460009 0.72900009 1.6381838e-38
0.022911431 -0.053460009 0.72900009 1.7503595e-38
0.024366666 -0.053606652 0.73100007 1.8690298e-38
0.025759047 -0.053606667 0.73100007 1.7417889e-38
0.027262859 -0.053826682 0.73400009 1.6216042e-38
0.02873905 -0.053973354 0.73600006 1.2903411e-38
0.030140955 -0.053973354 0.73600018 9.6880283e-39
0.031714283 -0.054266684 0.74000007 1.0050282e-38
0.033123806 -0.054266669 0.74000007 1.0507707e-38
0.034533333 -0.054266684 0.74000007 1.0326229e-38
0.036040004 -0.054413341 0.7420001 1.0145014e-38
-0.032989524 -0.052642874 0.73700011 1.4759964e-38
-0.031585716 -0.052642874 0.73700011 1.3927002e-38
-0.030140955 -0.052571438 0.73600012 1.3276277e-38
-0.02873905 -0.052571438 0.73600012 1.2548415e-38
-0.027262861 -0.052428596 0.73400009 1.2167807e-38
-0.02579429 -0.052285738 0.73200011 1.1726937e-38
-0.024400003 -0.052285738 0.73200011 1.3374968e-38
-0.023005718 -0.052285723 0.73200011 1.5038053e-38
-0.021581907 -0.052214287 0.73100001 1.6415947e-38
-0.020189526 -0.052214287 0.73100007 1.7705587e-38
-0.018797144 -0.052214272 0.73100007 1.908527e-38
-0.017404763 -0.052214302 0.73100007 2.0466389e-38
-0.015968572 -0.052071445 0.72900009 2.1395504e-38
-0.014580001 -0.052071445 0.72900003 2.2214849e-38
-0.013173334 -0.052000009 0.72800016 2.2499324e-38
-0.011786668 -0.052000023 0.72800016 2.2673668e-38
-0.010400001 -0.052000009 0.7280001 2.2499324e-38
-0.0089885723 -0.051857151 0.72600007 2.230884e-38
-0.0076057152 -0.051857151 0.72600013 2.2131989e-38
-0.0062142862 -0.051785715 0.72500008 2.1940786e-38
-0.0048333337 -0.05178573 0.72500008 2.1397308e-38
-0.0034523811 -0.051785715 0.72500008 2.0833017e-38
-0.0020657144 -0.051642872 0.72300011 2.0385317e-38
-0.00068857142 -0.051642857 0.72300011 1.9811698e-38
0.00068857154 -0.051642872 0.72300011 1.7252495e-38
0.0020657144 -0.051642872 0.72300011 1.4661001e-38
0.0034428574 -0.051642857 0.72300011 1.3289199e-38
0.0048200004 -0.051642887 0.72300017 1.1807991e-38
0.0061971433 -0.051642872 0.72300011 1.0156746e-38
0.0075952387 -0.05178573 0.72500002 8.494377e-39
0.0089761913 -0.051785745 0.72500008 5.7307012e-39
0.010371429 -0.051857181 0.72600013 2.9688021e-39
0.011754286 -0.051857166 0.72600013 1.5686527e-39
0.013137144 -0.051857151 0.72600007 1.1545438e-40
0.014520001 -0.051857166 0.72600007 9.2523534e-41
0.015946668 -0.052000009 0.72800016 1.2480525e-40
0.017357145 -0.05207146 0.72900009 5.7913381e-39
0.018745715 -0.05207143 0.72900009 1.1524965e-38
0.020134287 -0.052071445 0.72900009 1.2714529e-38
0.021522859 -0.05207143 0.72900009 1.3920587e-38
0.022974288 -0.052214287 0.73100007 1.4279678e-38
0.024366667 -0.052214302 0.73100007 1.4660638e-38
0.025794286 -0.052285723 0.73200011 1.3551065e-38
0.027262857 -0.052428596 0.73400009 1.244897e-38
0.02873905 -0.052571438 0.73600012 1.1336472e-38
0.030140955 -0.052571423 0.73600006 1.0143627e-38
0.03154286 -0.052571438 0.73600006 1.0324369e-38
0.03312381 -0.052857153 0.74000007 1.0507709e-38
0.034533337 -0.052857138 0.74000007 1.023295e-38
0.036040004 -0.053000011 0.74200004 9.8652197e-39
0.037453339 -0.053000011 0.7420001 9.9541573e-39
-0.03312381 -0.051447652 0.74000007 1.3643211e-38
-0.031671431 -0.051378123 0.73900014 1.3904011e-38
-0.030181907 -0.051239036 0.73700005 1.3826166e-38
-0.028778097 -0.051239051 0.73700011 1.3733633e-38
-0.027337147 -0.051169537 0.73600012 1.3464962e-38
-0.025864763 -0.051030494 0.73400009 1.3197369e-38
-0.024400001 -0.050891466 0.73200011 1.3657643e-38
-0.023005717 -0.050891452 0.73200011 1.4217273e-38
-0.02161143 -0.050891452 0.73200011 1.4397364e-38
-0.020189527 -0.050821908 0.73100007 1.459072e-38
-0.018797144 -0.050821908 0.73100007 1.4673588e-38
-0.017357143 -0.05068288 0.72900009 1.4687937e-38
-0.01596857 -0.050682865 0.72900009 1.4125444e-38
-0.014560001 -0.050613351 0.7280001 1.3583759e-38
-0.013173334 -0.050613336 0.7280001 1.311059e-38
-0.011786668 -0.050613336 0.7280001 1.2658588e-38
-0.010400001 -0.050613351 0.72800016 1.1907401e-38
-0.0089885732 -0.050474323 0.72600013 1.1276392e-38
-0.0076057152 -0.050474308 0.72600007 1.1168772e-38
-0.0062228581 -0.050474308 0.72600007 1.1081599e-38
-0.0048333341 -0.05040475 0.72500002 1.0793175e-38
-0.0034523811 -0.05040478 0.72500008 1.0508693e-38
-0.0020657142 -0.050265722 0.72300011 1.0228157e-38
-0.00068857142 -0.050265722 0.72300011 9.9260935e-39
0.00068857154 -0.050265722 0.72300011 9.2057476e-39
0.0020657147 -0.050265722 0.72300011 8.4495187e-39
0.0034523814 -0.05040478 0.72500002 9.659502e-39
0.0048333332 -0.050404795 0.72500008 1.0837219e-38
0.0062142857 -0.05040478 0.72500008 1.140832e-38
0.0075952383 -0.05040478 0.72500008 1.2031076e-38
0.0089885714 -0.050474294 0.72600013 1.2239137e-38
0.010371428 -0.050474294 0.72600013 1.2398389e-38
0.011754286 -0.050474308 0.72600007 1.2060797e-38
0.013173334 -0.050613351 0.7280001 1.1685618e-38
0.014560001 -0.050613336 0.7280001 1.1707915e-38
0.015968574 -0.05068285 0.72900009 1.1819113e-38
0.017357146 -0.050682865 0.72900009 1.4664569e-38
0.018745717 -0.05068285 0.72900009 1.7537679e-38
0.020189526 -0.050821908 0.73100007 1.8077951e-38
0.021581907 -0.050821923 0.73100007 1.8734071e-38
0.022974288 -0.050821908 0.73100007 1.8906261e-38
0.024400001 -0.050891452 0.73200017 1.910101e-38
0.025864763 -0.051030494 0.73400009 1.7338155e-38
0.027262859 -0.051030509 0.73400009 1.5671801e-38
0.028739048 -0.051169537 0.73600012 1.2810867e-38
0.030181909 -0.051239066 0.73700011 9.9603244e-39
0.031671431 -0.051378123 0.73900008 1.0416219e-38
0.03312381 -0.051447637 0.74000007 1.0965813e-38
0.034626666 -0.05158668 0.7420001 1.0599206e-38
0.036088575 -0.051656194 0.74300009 1.032298e-38
-0.032989524 -0.049835242 0.73700011 1.2633748e-38
-0.031585716 -0.049835227 0.73700011 1.3825822e-38
-0.030181909 -0.049835242 0.73700011 1.4391189e-38
-0.028778099 -0.049835242 0.73700005 1.4842846e-38
-0.027262859 -0.049632393 0.73400009 1.4761425e-38
-0.025864763 -0.049632408 0.73400009 1.4567715e-38
-0.024400001 -0.049497165 0.73200011 1.3932404e-38
-0.023005717 -0.049497165 0.73200011 1.3280226e-38
-0.02161143 -0.04949715 0.73200011 1.2365098e-38
-0.020189527 -0.049429528 0.73100007 1.1433818e-38
-0.018797146 -0.049429514 0.73100007 1.0146317e-38
-0.017404765 -0.049429543 0.73100007 8.8584638e-39
-0.016012384 -0.049429528 0.73100007 6.8341326e-39
-0.014580001 -0.049294285 0.72900009 4.8130258e-39
-0.01319143 -0.049294285 0.72900009 3.7005882e-39
-0.011802858 -0.0492943 0.72900009 2.5978308e-39
-0.010442858 -0.049429528 0.73100001 1.3781266e-39
-0.0090133343 -0.049226694 0.72800016 1.1037467e-40
-0.0076057152 -0.049091451 0.72600007 9.2447864e-41
-0.0062228581 -0.049091436 0.72600007 1.0750622e-40
-0.0048333337 -0.049023829 0.72500008 9.2432449e-41
-0.0034523809 -0.049023814 0.72500008 1.0428043e-40
-0.0020657144 -0.048888586 0.72300005 9.2452067e-41
-0.00068857148 -0.048888586 0.72300011 1.0611473e-40
0.00068857148 -0.048888601 0.72300011 1.1945397e-39
0.002071429 -0.049023844 0.72500008 2.3144616e-39
0.0034523814 -0.049023829 0.72500008 6.0617397e-39
0.0048333337 -0.049023829 0.72500008 9.8560902e-39
0.0062142862 -0.049023829 0.72500008 1.2700517e-38
0.0075952387 -0.049023829 0.72500008 1.5565351e-38
0.0089885714 -0.049091451 0.72600013 1.8704259e-38
0.010371428 -0.049091451 0.72600007 2.1826294e-38
0.011754286 -0.049091451 0.72600007 2.2591099e-38
0.013173334 -0.049226679 0.7280001 2.3216756e-38
0.014560001 -0.049226679 0.7280001 2.3325839e-38
0.015968572 -0.049294271 0.72900003 2.3410853e-38
0.017357145 -0.049294315 0.72900009 2.3417665e-38
0.018745715 -0.0492943 0.72900009 2.3416959e-38
0.020189524 -0.049429543 0.73100007 2.3417687e-38
