# .PCD v0.7 - Point Cloud Data file format
VERSION 0.7
FIELDS x y z rgb
SIZE 4 4 4 4
TYPE F F F F
COUNT 1 1 1 1
WIDTH 961
HEIGHT 1
VIEWPOINT 0 0 0 1 0 0 0
POINTS 961
DATA ascii
0.020520939 -0.0063685477 0.74300003 2.0978653e-38
0.021995245 -0.0063857064 0.74500006 2.0873173e-38
0.023414273 -0.0063856915 0.74500006 2.2004244e-38
0.024900032 -0.0064028352 0.74700004 2.3008333e-38
0.026358111 -0.0064114183 0.74799997 2.2749683e-38
0.027782863 -0.0064114183 0.74800003 2.2445826e-38
0.029207604 -0.0064114109 0.74800003 2.0995819e-38
0.030714273 -0.0064285547 0.75000006 1.9630455e-38
0.032228552 -0.0064456835 0.75200003 1.5296222e-38
0.033660941 -0.006445691 0.75199997 1.1052705e-38
0.035233334 -0.0064714029 0.75500005 1.0132842e-38
0.036719996 -0.006479986 0.75600004 9.3088341e-39
0.03816003 -0.0064799711 0.75600004 9.4942988e-39
0.03970474 -0.0064971447 0.75800002 9.678676e-39
0.041040003 -0.0064799786 0.75600004 9.9548888e-39
0.042480018 -0.006479986 0.75600004 1.0231137e-38
-0.025333337 -0.0050666556 0.76000005 1.4038952e-38
-0.023822872 -0.0050533265 0.75800002 2.0469586e-38
-0.022379063 -0.005053319 0.75800002 1.8075404e-38
-0.020879997 -0.0050399899 0.75600004 1.5568464e-38
-0.019414281 -0.0050332993 0.755 1.1584264e-38
-0.017976183 -0.0050333068 0.75500005 7.5452958e-39
-0.016472392 -0.0050133094 0.75199997 8.7431033e-39
-0.014999997 -0.0049999803 0.75 9.9412835e-39
-0.013535242 -0.0049866438 0.74799997 1.0314021e-38
-0.01209427 -0.004979983 0.74699998 1.0679214e-38
-0.010671404 -0.0049799755 0.74699998 1.095365e-38
-0.0092238262 -0.0049666539 0.74500006 1.123023e-38
-0.0078047686 -0.004966639 0.74500006 1.1598647e-38
-0.0063857245 -0.0049666464 0.745 1.1967428e-38
-0.0049666674 -0.004966639 0.745 1.2244016e-38
-0.00354761 -0.004966639 0.745 1.242515e-38
-0.0021228644 -0.0049533248 0.74300009 1.1409193e-38
-0.00070763036 -0.0049533173 0.74300009 1.0302272e-38
0.00070761767 -0.0049533248 0.74300009 1.657089e-38
0.0021228378 -0.0049533322 0.74300003 2.2762269e-38
0.0035380868 -0.0049533173 0.74300003 2.2958513e-38
0.0049533341 -0.0049533248 0.74300003 2.3138233e-38
0.0063685547 -0.0049533099 0.74300003 2.2770887e-38
0.0077733179 -0.0049466491 0.7420001 2.2379391e-38
0.0091866339 -0.004946664 0.7420001 2.0296113e-38
0.010599977 -0.0049466416 0.7420001 1.8227067e-38
0.012013322 -0.0049466565 0.7420001 2.0733295e-38
0.013426638 -0.0049466565 0.7420001 2.3226842e-38
0.014839981 -0.0049466491 0.7420001 2.2766944e-38
0.016253296 -0.004946664 0.7420001 2.2290141e-38
0.017690485 -0.0049533248 0.74300003 2.0500377e-38
0.019105705 -0.0049533173 0.74300003 1.8750447e-38
0.020520953 -0.0049533173 0.74300003 1.8551317e-38
0.02199525 -0.004966639 0.745 1.8394266e-38
0.023477143 -0.004979983 0.74700004 2.0913718e-38
0.02490001 -0.0049799904 0.74700004 2.3401166e-38
0.026358102 -0.0049866512 0.74799997 2.3050324e-38
0.027782852 -0.0049866512 0.74800003 2.2564571e-38
0.029207623 -0.0049866438 0.74799997 2.0993652e-38
0.030796168 -0.0050133094 0.75200003 1.9439598e-38
0.032228567 -0.0050133169 0.75200003 1.5021425e-38
0.033705711 -0.0050199702 0.75300002 1.0594958e-38
0.035233326 -0.0050333142 0.75500005 9.9463044e-39
0.036719993 -0.0050399825 0.75600004 9.3084754e-39
0.038160007 -0.0050399825 0.75600004 9.4031779e-39
0.039704762 -0.005053319 0.75800002 9.494998e-39
0.041040011 -0.0050399899 0.75600004 9.6786536e-39
0.042479999 -0.0050399899 0.75600004 9.7712304e-39
-0.025333328 -0.0036190227 0.76000005 1.4398038e-38
-0.023885731 -0.0036190525 0.76000011 2.0657913e-38
-0.022438111 -0.003619045 0.76000005 1.7336045e-38
-0.020935232 -0.0036095008 0.75800002 1.4099802e-38
-0.019439997 -0.003599979 0.75600004 1.0858178e-38
-0.017976202 -0.0035952255 0.75500005 7.7275066e-39
-0.016472392 -0.0035809278 0.75199997 8.8348996e-39
-0.015000003 -0.0035714135 0.75000006 9.9398262e-39
-0.013535238 -0.0035618842 0.74799997 1.0401546e-38
-0.012110487 -0.0035618916 0.74800003 1.086145e-38
-0.010671397 -0.0035571232 0.74699998 1.1137324e-38
-0.0092485622 -0.0035571232 0.74700004 1.1414263e-38
-0.0078256968 -0.0035571232 0.74699998 1.1783035e-38
-0.0063857245 -0.0035476014 0.74500006 1.2059265e-38
-0.0049666665 -0.0035476014 0.745 1.2060345e-38
-0.0035476231 -0.0035475865 0.745 1.205995e-38
-0.0021228653 -0.0035380796 0.74300003 1.0947485e-38
-0.00070761825 -0.0035380796 0.74300003 9.921301e-39
0.00070763071 -0.003538087 0.74300003 1.6392623e-38
0.0021228509 -0.0035380647 0.74300003 2.2958508e-38
0.0035380989 -0.0035380796 0.74300003 2.3048554e-38
0.0049533471 -0.003538087 0.74300003 2.3134642e-38
0.0063685682 -0.0035380721 0.74300003 2.2768726e-38
0.0077733197 -0.0035333112 0.74200004 2.2302587e-38
0.0091866646 -0.0035333261 0.74200004 2.1158802e-38
0.010599981 -0.0035333186 0.74200004 2.0179617e-38
0.012013324 -0.0035333186 0.74200004 2.175353e-38
0.01342664 -0.0035333186 0.74200004 2.3325854e-38
0.014839984 -0.0035333112 0.74200004 2.3048196e-38
0.016275229 -0.003538087 0.74300003 2.2774389e-38
0.017690478 -0.003538087 0.74300003 2.0699387e-38
0.019105697 -0.0035380796 0.74300003 1.8643067e-38
0.020576179 -0.003547594 0.745 1.8279245e-38
0.021995237 -0.0035476014 0.745 1.7922826e-38
0.023477152 -0.0035571232 0.74700004 2.0532405e-38
0.024933349 -0.0035618916 0.74799997 2.3141825e-38
0.0263581 -0.0035618842 0.74800003 2.2954566e-38
0.02778287 -0.0035618916 0.74800003 2.2758651e-38
0.029207641 -0.0035618842 0.74799997 2.1005118e-38
0.03079618 -0.0035809353 0.75200003 1.9265602e-38
0.03222857 -0.0035809129 0.75199997 1.4743399e-38
0.033705704 -0.0035856888 0.75300002 1.0308328e-38
0.035233345 -0.0035952106 0.75500005 9.7633523e-39
0.036720023 -0.0035999864 0.75600004 9.2187923e-39
0.038160007 -0.0035999715 0.75600004 9.2191454e-39
0.039704762 -0.0036095157 0.75800002 9.3109613e-39
0.041148588 -0.0036095083 0.75800002 9.4027772e-39
0.042479996 -0.0035999864 0.75600004 9.4949952e-39
-0.023885736 -0.0021714196 0.76000011 2.0744007e-38
-0.022438103 -0.0021714196 0.76000005 1.6694965e-38
-0.020935245 -0.0021656975 0.75800002 1.2528902e-38
-0.019439984 -0.0021599755 0.75600004 1.0205288e-38
-0.017999999 -0.002159968 0.75600004 7.9140643e-39
-0.016494306 -0.0021514148 0.75300002 8.9292784e-39
-0.015040024 -0.0021485463 0.75200003 9.8483662e-39
-0.013571431 -0.0021428466 0.75000006 1.049123e-38
-0.012110483 -0.002137132 0.74800003 1.1044044e-38
-0.010685711 -0.0021371171 0.74799997 1.1320275e-38
-0.0092485566 -0.002134271 0.74700004 1.1597932e-38
-0.0078256913 -0.002134271 0.74699998 1.1875948e-38
-0.0064028236 -0.0021342561 0.74699998 1.2151819e-38
-0.0049799918 -0.0021342635 0.74700004 1.1969589e-38
-0.0035476231 -0.0021285489 0.74500006 1.169154e-38
-0.0021228737 -0.0021228418 0.74300009 1.0583387e-38
-0.00070762477 -0.0021228492 0.74300009 9.4779162e-39
0.00070759625 -0.0021228492 0.74300003 1.6303302e-38
0.0021228434 -0.0021228418 0.74300003 2.3039582e-38
0.0035380924 -0.0021228567 0.74300003 2.3142183e-38
0.0049533118 -0.0021228343 0.74300003 2.3136798e-38
0.0063685607 -0.0021228418 0.74300003 2.2682639e-38
0.0077838083 -0.0021228567 0.74300003 2.2194662e-38
0.0091990577 -0.0021228418 0.74300003 2.2041022e-38
0.010614278 -0.0021228492 0.74300003 2.2009919e-38
0.012013326 -0.0021199808 0.74200004 2.2774842e-38
0.01342667 -0.0021199882 0.74200004 2.3417683e-38
0.014859995 -0.0021228343 0.74300003 2.332584e-38
0.016275242 -0.0021228418 0.74300003 2.3206254e-38
0.017690491 -0.0021228492 0.74300003 2.0879029e-38
0.01910571 -0.0021228418 0.74300003 1.8467265e-38
0.020576192 -0.0021285489 0.74500006 1.7908356e-38
0.02199525 -0.0021285489 0.745 1.7375039e-38
0.023508569 -0.0021371171 0.74799997 2.0151026e-38
0.024933318 -0.002137132 0.74800003 2.2850153e-38
0.026358088 -0.0021371171 0.74800003 2.2866677e-38
0.027857145 -0.0021428317 0.75 2.2853722e-38
0.029285705 -0.0021428391 0.75000006 2.0911144e-38
0.030796165 -0.0021485537 0.75200003 1.8981849e-38
0.032228582 -0.0021485314 0.75199997 1.4561873e-38
0.0337057 -0.0021514073 0.75300002 1.004035e-38
0.035233334 -0.0021571219 0.75500005 9.5803945e-39
0.03672 -0.0021599904 0.75600004 9.0340423e-39
0.038160015 -0.0021599829 0.75600004 9.1276686e-39
0.039704762 -0.0021656975 0.75800002 9.1276574e-39
0.041148558 -0.0021656901 0.75800002 9.1269302e-39
0.042592384 -0.0021657124 0.75800002 9.12694e-39
0.04403618 -0.0021656975 0.75800002 9.2180692e-39
-0.023822866 -0.00072188675 0.75800002 2.0465269e-38
-0.022438111 -0.000723809 0.76000005 1.567004e-38
-0.020935245 -0.0007218942 0.75800002 1.0859709e-38
-0.019440005 -0.00071997941 0.75600004 9.5667473e-39
-0.018000003 -0.00071998686 0.75600004 8.2839356e-39
-0.016494296 -0.00071712583 0.75300002 8.837115e-39
-0.015040024 -0.00071616471 0.75200003 9.4821173e-39
-0.013571422 -0.00071426481 0.75 1.0400472e-38
-0.012142861 -0.00071426481 0.75000006 1.1318831e-38
-0.010685727 -0.00071235746 0.74800003 1.1411747e-38
-0.0092609553 -0.00071235001 0.74800003 1.1505019e-38
-0.0078361835 -0.00071235746 0.74799997 1.1781602e-38
-0.0064028497 -0.00071142614 0.74700004 1.2151462e-38
-0.0049799853 -0.00071141124 0.74700004 1.2152185e-38
-0.0035476231 -0.00070949644 0.74500006 1.215252e-38
-0.0021228597 -0.00070760399 0.74300003 1.0763843e-38
-0.00070762477 -0.00070760399 0.74300003 9.4607054e-39
0.00070760836 -0.00070759654 0.74300003 1.6302945e-38
0.0021228574 -0.00070760399 0.74300003 2.3142181e-38
0.0035381054 -0.00070760399 0.74300003 2.3046761e-38
0.0049533253 -0.00070759654 0.74300003 2.2944163e-38
0.0063685733 -0.00070760399 0.74300003 2.2584713e-38
0.0077838222 -0.00070759654 0.74300003 2.2211933e-38
0.0091990223 -0.00070761144 0.74300009 2.1990179e-38
0.01061427 -0.00070760399 0.74300009 2.1942166e-38
0.012013309 -0.00070666522 0.7420001 2.2681571e-38
0.013426652 -0.00070664287 0.7420001 2.3417676e-38
0.014859987 -0.00070761144 0.74300003 2.312924e-38
0.016275235 -0.00070761144 0.74300009 2.2723351e-38
0.017690483 -0.00070760399 0.74300009 2.1710487e-38
0.019157141 -0.00070949644 0.745 2.075524e-38
0.020631455 -0.00071140379 0.74699998 2.0597814e-38
0.022054302 -0.00071142614 0.74700004 2.0405607e-38
0.023508586 -0.00071235746 0.74799997 2.1729762e-38
0.024933336 -0.00071236491 0.74800003 2.3128864e-38
0.026428578 -0.00071427226 0.75 2.2861296e-38
0.027857138 -0.00071426481 0.75000006 2.2582527e-38
0.029285718 -0.00071426481 0.75 2.0824703e-38
0.030796176 -0.00071617216 0.75200003 1.9167675e-38
0.032271422 -0.00071711838 0.75300002 1.4463215e-38
0.033705696 -0.00071711093 0.75300002 9.7515645e-39
0.035233349 -0.00071902573 0.75500005 9.578954e-39
0.036720026 -0.00071998686 0.75600004 9.4028164e-39
0.038260937 -0.00072190166 0.75800002 9.4031737e-39
0.039704762 -0.00072188675 0.75800002 9.4035311e-39
0.041148558 -0.00072190166 0.75800002 9.3113354e-39
0.042592384 -0.00072190166 0.75800002 9.3106152e-39
0.04403618 -0.0007218942 0.75800002 9.4028066e-39
-0.023917144 0.00072477758 0.76100004 2.0095382e-38
-0.022467606 0.00072477013 0.76100004 1.4660156e-38
-0.020990483 0.0007238239 0.76000005 9.2077234e-39
-0.019491449 0.00072192401 0.75800002 8.9181675e-39
-0.01799999 0.00072002411 0.75600004 8.5583715e-39
-0.016494302 0.00071715564 0.75300002 8.8371178e-39
-0.015040006 0.00071622431 0.75199997 9.0218636e-39
-0.01357143 0.00071430206 0.75000006 1.0309713e-38
-0.01214287 0.00071430206 0.75000006 1.150358e-38
-0.010714291 0.00071429461 0.75000006 1.1411033e-38
-0.0092609515 0.00071240216 0.74799997 1.13192e-38
-0.0078362022 0.00071239471 0.74800003 1.1777304e-38
-0.0064028432 0.00071144104 0.74700004 1.2149668e-38
-0.0049799769 0.00071144849 0.74700004 1.2335132e-38
-0.0035476165 0.00070954859 0.745 1.2517704e-38
-0.0021228681 0.00070762634 0.74300009 1.0950019e-38
-0.00070763315 0.00070762634 0.74300003 9.3857276e-39
0.00070761488 0.00070763379 0.74300003 1.6305457e-38
0.0021228499 0.00070761889 0.74300003 2.3223973e-38
0.003538097 0.00070764124 0.74300003 2.2958513e-38
0.0049533183 0.00070763379 0.74300003 2.2675831e-38
0.0063685658 0.00070762634 0.74300003 2.24075e-38
0.0077838148 0.00070764124 0.74300003 2.2101813e-38
0.0091990354 0.00070762634 0.74300003 2.1949306e-38
0.010614283 0.00070764124 0.74300003 2.1829894e-38
0.012029532 0.00070762634 0.74300003 2.2683006e-38
0.013444752 0.00070764124 0.74300003 2.3417683e-38
0.014860001 0.00070763379 0.74300003 2.2866663e-38
0.016275248 0.00070762634 0.74300003 2.2299426e-38
0.017738098 0.00070954859 0.745 2.2668839e-38
0.019157156 0.00070954114 0.745 2.3023295e-38
0.020631462 0.00071144849 0.74699998 2.3230313e-38
0.022083806 0.00071240216 0.74799997 2.3398594e-38
0.023508556 0.00071240216 0.74800003 2.3417644e-38
0.024933327 0.00071239471 0.74799997 2.3414438e-38
0.026428571 0.00071430206 0.75000006 2.2866676e-38
0.027857151 0.00071430951 0.75 2.2295902e-38
0.029285708 0.00071429461 0.75000006 2.0820404e-38
0.030796183 0.00071621686 0.75199997 1.9253055e-38
0.032271415 0.00071716309 0.75300002 1.4372094e-38
0.033705719 0.00071715564 0.75300002 9.4907661e-39
0.035233319 0.00071907043 0.75500005 9.5807505e-39
0.036720008 0.00072002411 0.75600004 9.676532e-39
0.038260959 0.00072191656 0.75800002 9.677967e-39
0.039704755 0.00072193146 0.75800002 9.5868405e-39
0.041148581 0.00072191656 0.75800002 9.4957141e-39
0.042592376 0.00072192401 0.75800002 9.4035269e-39
-0.023980016 0.0021800026 0.76300007 1.9089104e-38
-0.02252667 0.0021800101 0.76300001 1.3822463e-38
-0.021018099 0.0021742955 0.76100004 8.5458397e-39
-0.01949143 0.0021657422 0.75800002 8.7377335e-39
-0.018000012 0.0021600202 0.75600004 8.8374709e-39
-0.016494306 0.0021514446 0.75300002 8.9278799e-39
-0.015040008 0.0021486059 0.75199997 9.0189951e-39
-0.013607639 0.0021486059 0.75200003 1.0308994e-38
-0.012142858 0.0021428689 0.75000006 1.159685e-38
-0.010714299 0.0021428689 0.75000006 1.1595064e-38
-0.0092609487 0.0021371618 0.74799997 1.1684752e-38
-0.0078361966 0.0021371543 0.74800003 1.1963852e-38
-0.0064028488 0.0021343082 0.74700004 1.2334057e-38
-0.0049799834 0.0021343082 0.74699998 1.2519154e-38
-0.0035476165 0.0021286011 0.745 1.2795715e-38
-0.0021228541 0.0021228716 0.74300003 1.1129739e-38
-0.00070761918 0.002122879 0.74300003 9.459625e-39
0.00070761394 0.0021228716 0.74300003 1.6396935e-38
0.002122863 0.0021228641 0.74300003 2.3325853e-38
0.003538111 0.002122879 0.74300003 2.2954925e-38
0.0049533313 0.0021228716 0.74300003 2.2668298e-38
0.0063685793 0.002122879 0.74300003 2.2307413e-38
0.0077838278 0.002122879 0.74300003 2.2022545e-38
0.0091990279 0.0021228716 0.74300009 2.1345223e-38
0.010614277 0.0021228641 0.74300009 2.0745457e-38
0.012029524 0.0021228641 0.74300009 2.2129841e-38
0.013444745 0.0021228716 0.74300009 2.341769e-38
0.014859994 0.0021228641 0.74300009 2.3142183e-38
0.01627524 0.0021228716 0.74300009 2.2866677e-38
0.017690461 0.0021228716 0.74300003 2.3046761e-38
0.019157143 0.0021285936 0.745 2.3234019e-38
0.020631449 0.0021342933 0.74700004 2.3325137e-38
0.022054287 0.0021343008 0.74700004 2.341769e-38
0.023508573 0.0021371692 0.74800003 2.341769e-38
0.024933344 0.0021371618 0.74799997 2.3417689e-38
0.026428562 0.0021428689 0.75000006 2.1928589e-38
0.027857142 0.0021428689 0.75000006 2.0434442e-38
0.029285701 0.0021428689 0.75000006 1.952718e-38
0.030796194 0.0021485984 0.75200003 1.8519448e-38
0.032271437 0.0021514595 0.75300002 1.4188779e-38
0.033705711 0.0021514446 0.75300002 9.8606192e-39
0.035280019 0.0021600276 0.75600004 9.3992347e-39
0.036720008 0.0021600202 0.75600004 9.0344038e-39
0.038260959 0.0021657422 0.75800002 9.2187923e-39
0.039704755 0.0021657273 0.75800002 9.4950008e-39
0.041148577 0.0021657273 0.75800002 9.4035086e-39
0.042592376 0.0021657348 0.75800002 9.4035283e-39
-0.025499983 0.0036428794 0.76499999 1.5053111e-38
-0.024042862 0.003642872 0.76500005 1.7976681e-38
-0.022526672 0.0036333352 0.76300001 1.2994864e-38
-0.021018093 0.0036238134 0.76100004 7.9151923e-39
-0.019491429 0.0036095306 0.75800002 8.5580198e-39
-0.018095244 0.0036190525 0.76000005 9.1108096e-39
-0.0165381 0.0035952553 0.75500005 9.0178825e-39
-0.015060002 0.0035857484 0.75300002 8.9271414e-39
-0.013607639 0.0035809726 0.75200003 1.0310432e-38
-0.012142868 0.0035714358 0.75000006 1.1596492e-38
-0.010714287 0.0035714433 0.75 1.1779091e-38
-0.0092857266 0.0035714358 0.75000006 1.1964198e-38
-0.0078361928 0.0035619214 0.74799997 1.2242936e-38
-0.0064028422 0.003557153 0.74700004 1.2518447e-38
-0.0049799751 0.0035571679 0.74699998 1.2795394e-38
-0.0035476156 0.0035476536 0.745 1.2976172e-38
-0.0021228755 0.0035381019 0.74300003 1.122159e-38
-0.00070762757 0.0035381094 0.74300009 9.4782791e-39
0.00070760743 0.0035381019 0.74300003 1.6496649e-38
0.0021228564 0.0035381168 0.74300003 2.3409431e-38
0.0035380765 0.0035381094 0.74300003 2.3050348e-38
0.0049466598 0.003533341 0.7420001 2.258292e-38
0.0063685719 0.0035381168 0.74300003 2.2315305e-38
0.0077837934 0.0035381019 0.74300003 2.1916349e-38
0.0091990409 0.0035381168 0.74300003 2.0755444e-38
0.01061429 0.0035381094 0.74300003 1.9624753e-38
0.01202951 0.0035381168 0.74300003 2.1580956e-38
0.013444758 0.0035381094 0.74300003 2.3414089e-38
0.014860006 0.0035381019 0.74300003 2.3417686e-38
0.016319063 0.0035476461 0.745 2.3417689e-38
0.017738098 0.0035476461 0.74500006 2.341769e-38
0.019157128 0.0035476387 0.745 2.3417323e-38
0.020631429 0.003557153 0.74700004 2.3417675e-38
0.022083791 0.0035619214 0.74800003 2.3411216e-38
0.023508566 0.0035619289 0.74799997 2.3417672e-38
0.024933314 0.003561914 0.74800003 2.3399721e-38
0.026428571 0.0035714433 0.75000006 2.0995124e-38
0.027857132 0.0035714284 0.75000006 1.8603088e-38
0.029285712 0.0035714507 0.75000006 1.8242194e-38
0.030796178 0.0035809726 0.75200003 1.7780087e-38
0.032271434 0.0035857484 0.75300002 1.4002576e-38
0.033795241 0.0035952628 0.755 1.0137181e-38
0.035279997 0.0036000237 0.75600004 9.304151e-39
0.036817133 0.0036095381 0.75800002 8.3901092e-39
0.038260933 0.0036095306 0.75800002 8.8514489e-39
0.039704755 0.0036095381 0.75800002 9.3109571e-39
0.041148581 0.0036095381 0.75800002 9.4038421e-39
0.042592376 0.0036095381 0.75800002 9.4038632e-39
-0.025499998 0.0051000118 0.76499999 1.4669642e-38
-0.023980012 0.0050866678 0.76300007 1.6687761e-38
-0.022467628 0.0050733462 0.76100004 1.2248338e-38
-0.02101809 0.0050733462 0.76100004 7.8064992e-39
-0.019491443 0.0050533414 0.75800002 8.3704126e-39
-0.018047633 0.0050533488 0.75800002 8.9278421e-39
-0.016538098 0.0050333515 0.75500005 9.0178433e-39
-0.015059994 0.0050200373 0.75300002 9.1972487e-39
-0.013607621 0.0050133765 0.75199997 1.012497e-38
-0.012142856 0.005000025 0.75 1.1046914e-38
-0.010714295 0.005000025 0.75000006 1.1597928e-38
-0.0092857154 0.0050000101 0.75 1.2058539e-38
-0.0078361901 0.004986681 0.74799997 1.2334043e-38
-0.0064028348 0.0049800128 0.74700004 1.2609567e-38
-0.0049799825 0.0049800277 0.74699998 1.2794331e-38
-0.0035476165 0.0049666911 0.74500006 1.3070892e-38
-0.0021228625 0.0049533546 0.74300003 1.1587869e-38
-0.00070761453 0.0049533471 0.74300003 1.0102474e-38
0.00070762046 0.0049533471 0.74300003 1.6769988e-38
0.0021228686 0.0049533546 0.74300003 2.3417675e-38
0.0035380886 0.0049533397 0.74300003 2.3046043e-38
0.0049533369 0.0049533546 0.74300003 2.2665428e-38
0.0063685854 0.0049533471 0.74300003 2.2306337e-38
0.0077837859 0.0049533546 0.74300009 2.2021087e-38
0.0091990335 0.0049533397 0.74300009 2.0793448e-38
0.010614282 0.0049533397 0.74300009 1.9733786e-38
0.012029503 0.0049533471 0.74300009 2.1296815e-38
0.013444752 0.0049533397 0.74300009 2.2851582e-38
0.01486 0.0049533471 0.74300009 2.2765506e-38
0.016319048 0.0049666837 0.745 2.2774837e-38
0.017738106 0.004966706 0.745 2.2768384e-38
0.019157141 0.0049666837 0.74500006 2.2772674e-38
0.020631436 0.0049800202 0.74700004 2.2851937e-38
0.02208381 0.004986681 0.74799997 2.2932291e-38
0.02350858 0.0049866885 0.74799997 2.3123493e-38
0.024933333 0.0049866885 0.74800003 2.3288125e-38
0.026428564 0.0050000027 0.75000006 2.1366726e-38
0.027857143 0.0050000176 0.75000006 1.942456e-38
0.029285701 0.0050000101 0.75000006 1.8607737e-38
0.030837158 0.0050200224 0.75300002 1.7692902e-38
0.03227143 0.0050200298 0.75300002 1.4188018e-38
0.033795238 0.0050333515 0.75500005 1.0595261e-38
0.035280026 0.0050400198 0.75600004 9.6747019e-39
0.036720011 0.0050400198 0.75600004 8.6656059e-39
0.038260952 0.0050533563 0.75800002 8.9422054e-39
0.039704777 0.0050533563 0.75800002 9.3102256e-39
0.041257158 0.0050666854 0.76000005 9.2201445e-39
-0.025499998 0.0065571666 0.76500005 1.4303702e-38
-0.023980001 0.0065400079 0.76300001 1.5389483e-38
-0.022467624 0.0065228641 0.76100004 1.1595785e-38
-0.020990482 0.0065142959 0.76000005 7.7279298e-39
-0.01949144 0.0064971596 0.75800002 8.1885394e-39
-0.017999992 0.0064800233 0.75600004 8.6512818e-39
-0.016538095 0.0064714625 0.75500005 9.1118704e-39
-0.015059997 0.0064543113 0.75300002 9.4806767e-39
-0.013607621 0.0064457431 0.75199997 1.0036383e-38
-0.012175252 0.0064457431 0.75200003 1.0496268e-38
-0.010714284 0.0064285919 0.75 1.1322779e-38
-0.0092857257 0.0064285919 0.75000006 1.215001e-38
-0.0078571448 0.0064285994 0.75 1.2425512e-38
-0.0064114346 0.0064114481 0.74800003 1.2701397e-38
-0.0049799741 0.00640288 0.74699998 1.2885447e-38
-0.0035571281 0.0064028725 0.74700004 1.3067306e-38
-0.002122869 0.0063685849 0.74300009 1.1865175e-38
-0.00070763502 0.0063685775 0.74300003 1.0677161e-38
0.00070761301 0.0063685924 0.74300009 1.7062349e-38
0.0021228611 0.0063685775 0.74300003 2.3413008e-38
0.0035380821 0.0063685775 0.74300003 2.3050348e-38
0.0049533295 0.0063685849 0.74300003 2.2673679e-38
0.0063685784 0.0063685775 0.74300003 2.24075e-38
0.007783798 0.0063685924 0.74300003 2.2007087e-38
0.0091990465 0.0063685849 0.74300003 2.0847236e-38
0.010614295 0.0063685998 0.74300003 1.9716209e-38
0.012029516 0.0063685849 0.74300003 2.1020616e-38
0.013444765 0.0063685849 0.74300003 2.2211976e-38
0.014860013 0.0063685924 0.74300003 2.2201224e-38
0.016319063 0.0063857362 0.745 2.2120512e-38
0.017738093 0.0063857436 0.745 2.2107958e-38
0.019157149 0.0063857436 0.745 2.2117635e-38
0.020631444 0.00640288 0.74700004 2.2284439e-38
0.022054309 0.0064028725 0.74699998 2.2390622e-38
0.023508552 0.0064114407 0.74800003 2.2856256e-38
0.024933323 0.0064114556 0.74799997 2.3220714e-38
0.026358094 0.0064114481 0.74799997 2.1759225e-38
0.027857134 0.0064285845 0.75000006 2.0269035e-38
0.029363805 0.0064457506 0.75200003 1.8978661e-38
0.030796176 0.0064457357 0.75200003 1.7594615e-38
0.032271426 0.0064543188 0.75300002 1.4368837e-38
0.033795252 0.0064714476 0.75500005 1.1058403e-38
0.035280004 0.0064800158 0.75600004 1.0041702e-38
0.036719993 0.0064800084 0.75600004 8.9414781e-39
0.038160026 0.0064800158 0.75600004 9.1247974e-39
0.039704777 0.0064971596 0.75800002 9.219123e-39
0.041420009 0.0065400153 0.76300001 9.1287014e-39
0.042873308 0.006539993 0.76300001 9.035445e-39
-0.025500001 0.0080142915 0.76500005 1.3653288e-38
-0.023980012 0.0079933405 0.76300007 1.3735701e-38
-0.022467619 0.0079723969 0.76100004 1.095794e-38
-0.02101808 0.0079723969 0.76100004 8.1885352e-39
-0.019491436 0.0079409778 0.75800002 8.4665612e-39
-0.017999994 0.0079200268 0.75600004 8.8353326e-39
-0.016538111 0.0079095364 0.75500005 9.2044626e-39
-0.015060003 0.0078886002 0.75300002 9.6683232e-39
-0.013625716 0.0078886002 0.75300002 1.0220791e-38
-0.012175255 0.0078781098 0.75200003 1.0680307e-38
-0.010714294 0.0078571513 0.75000006 1.1139823e-38
-0.0092857135 0.0078571662 0.75 1.1598634e-38
-0.0078362012 0.0078362003 0.74800003 1.2242193e-38
-0.00641143 0.0078362152 0.74799997 1.2885421e-38
-0.0049866796 0.0078362077 0.74800003 1.2977637e-38
-0.0035619077 0.0078362077 0.74800003 1.3070534e-38
-0.0021285724 0.0078047886 0.74500006 1.1772268e-38
-0.00070952839 0.0078047886 0.74500006 1.0566672e-38
0.00070951477 0.0078047886 0.745 1.7051223e-38
0.0021228471 0.0077838227 0.74300003 2.3417669e-38
0.0035380952 0.0077838376 0.74300003 2.295349e-38
0.0049533425 0.0077838227 0.74300003 2.2570723e-38
0.0063685635 0.0077838376 0.74300003 2.2303826e-38
0.0077837906 0.0077838227 0.74300009 2.2108956e-38
0.0091990409 0.0077838153 0.74300009 2.1807901e-38
0.01061426 0.0077838227 0.74300009 2.1579467e-38
0.012029509 0.0077838153 0.74300009 2.2221317e-38
0.013444756 0.0077838302 0.74300009 2.2866677e-38
0.014899992 0.0078047886 0.74500006 2.2769102e-38
0.016319048 0.0078047886 0.74500006 2.2774842e-38
0.017738106 0.0078047886 0.745 2.2768743e-38
0.019208586 0.0078257322 0.74700004 2.2774842e-38
0.020631451 0.0078257248 0.74700004 2.2858785e-38
0.022083798 0.0078362077 0.74800003 2.2958513e-38
0.023508569 0.0078362077 0.74800003 2.3139672e-38
0.02493334 0.0078362152 0.74799997 2.3325854e-38
0.026428567 0.0078571588 0.75000006 2.1848236e-38
0.027857147 0.0078571662 0.75 2.0362684e-38
0.029363792 0.0078781247 0.75200003 1.8702071e-38
0.030837147 0.0078886077 0.75300002 1.713365e-38
0.032357141 0.0079095438 0.75500005 1.4372443e-38
0.033840016 0.0079200044 0.75600004 1.1615531e-38
0.035280004 0.0079200193 0.75600004 1.0414442e-38
0.03681713 0.0079409704 0.75800002 9.1276672e-39
0.038260952 0.0079409704 0.75800002 9.2194999e-39
0.03980951 0.0079619214 0.76000005 9.3120501e-39
0.041257143 0.0079619288 0.76000005 9.2198531e-39
-0.025499981 0.0094714612 0.76499999 1.3100451e-38
-0.024042847 0.0094714388 0.76500005 1.2074022e-38
-0.022526665 0.0094466731 0.76300001 1.0403311e-38
-0.02099048 0.009409532 0.76000005 8.6530741e-39
-0.019491432 0.0093847886 0.75800002 8.8374821e-39
-0.018000001 0.0093600154 0.75600004 8.9282176e-39
-0.016559999 0.0093600228 0.75600004 9.3859378e-39
-0.015060009 0.0093228742 0.75300002 9.850883e-39
-0.013625719 0.0093228817 0.75300002 1.0406229e-38
-0.012175256 0.0093104988 0.75200003 1.0864685e-38
-0.010714282 0.0092857331 0.75 1.0957235e-38
-0.0092857219 0.0092857331 0.75000006 1.0956869e-38
-0.0078571411 0.0092857257 0.75 1.2059248e-38
-0.0064285831 0.0092857331 0.75000006 1.3069454e-38
-0.004986675 0.0092609748 0.74800003 1.3068753e-38
-0.003561904 0.0092609748 0.74799997 1.297367e-38
-0.0021285659 0.0092238337 0.745 1.1770103e-38
-0.00070952933 0.0092238188 0.74500006 1.0495288e-38
0.00070952874 0.0092238262 0.74500006 1.6974476e-38
0.002128558 0.0092238337 0.745 2.3414091e-38
0.0035476142 0.0092238411 0.745 2.2958513e-38
0.0049533355 0.0091990605 0.74300003 2.2397096e-38
0.0063685565 0.0091990605 0.74300003 2.2312077e-38
0.0077838046 0.0091990605 0.74300003 2.2190045e-38
0.0092237964 0.0092238337 0.74500006 2.2787988e-38
0.010614273 0.0091990605 0.74300003 2.3396462e-38
0.012061912 0.0092238411 0.745 2.341769e-38
0.013480969 0.0092238411 0.745 2.341769e-38
0.014899977 0.0092238411 0.74500006 2.341769e-38
0.016319035 0.0092238337 0.74500006 2.341769e-38
0.017738091 0.0092238262 0.745 2.341769e-38
0.019208591 0.0092485845 0.74700004 2.341769e-38
0.020659067 0.0092609748 0.74799997 2.341769e-38
0.022083817 0.0092609674 0.74800003 2.3416255e-38
0.023508588 0.0092609748 0.74799997 2.3417689e-38
0.02493331 0.0092609674 0.74800003 2.3412652e-38
0.026428578 0.0092857331 0.75 2.1944345e-38
0.027857138 0.0092857406 0.75000006 2.0361231e-38
0.029363804 0.0093105063 0.75200003 1.8516244e-38
0.030919043 0.0093476474 0.75500005 1.6674827e-38
0.032400008 0.0093600228 0.75600004 1.4462839e-38
0.033839997 0.0093600005 0.75600004 1.2165104e-38
0.035280012 0.0093600154 0.75600004 1.0780343e-38
0.036817126 0.0093847737 0.75800002 9.3120333e-39
0.0383619 0.0094095469 0.76000005 9.404568e-39
0.039809536 0.009409532 0.76000005 9.4038548e-39
0.041257139 0.009409532 0.76000005 9.3116647e-39
-0.02556666 0.010957174 0.76699996 1.254259e-38
-0.02404286 0.010928586 0.76500005 1.0872598e-38
-0.022526674 0.010900006 0.76300001 9.8511927e-39
-0.020990485 0.010857165 0.76000005 8.8360094e-39
-0.019542867 0.010857165 0.76000005 8.7456382e-39
-0.017999988 0.010800019 0.75600004 8.6534034e-39
-0.016538093 0.010785744 0.75500005 9.2054505e-39
-0.015059999 0.010757156 0.75300002 9.7586523e-39
-0.013625725 0.010757171 0.75300002 1.0220377e-38
-0.012175237 0.010742895 0.75199997 1.0772481e-38
-0.010714291 0.0107143 0.75000006 1.0772852e-38
-0.0092857098 0.0107143 0.75 1.0773205e-38
-0.0078571513 0.0107143 0.75000006 1.1875584e-38
-0.0064285719 0.010714307 0.75 1.297834e-38
-0.0050000115 0.0107143 0.75000006 1.2793604e-38
-0.0035618993 0.010685734 0.74799997 1.2608114e-38
-0.0021342675 0.010671459 0.74699998 1.1770806e-38
-0.00071142177 0.010671452 0.74700004 1.1026575e-38
0.00070951384 0.010642879 0.74500006 1.7237448e-38
0.002128572 0.010642871 0.74500006 2.341769e-38
0.0035476291 0.010642886 0.74500006 2.2953849e-38
0.0049666581 0.010642886 0.745 2.2389204e-38
0.0063685686 0.010614313 0.74300003 2.2302032e-38
0.0077837971 0.010614298 0.74300009 2.2194006e-38
0.0092238113 0.010642879 0.74500006 2.2264627e-38
0.010614266 0.010614298 0.74300009 2.2494624e-38
0.012061898 0.010642894 0.745 2.2771254e-38
0.013480956 0.010642886 0.745 2.3050348e-38
0.014900013 0.010642894 0.745 2.239315e-38
0.016362887 0.010671444 0.74699998 2.1856487e-38
0.017785734 0.010671444 0.74700004 2.1656314e-38
0.019208601 0.010671444 0.74700004 2.1489145e-38
0.020659037 0.010685727 0.74800003 2.1005932e-38
0.022083806 0.010685742 0.74799997 2.0656525e-38
0.023508577 0.010685734 0.74799997 2.128574e-38
0.024933329 0.010685734 0.74800003 2.1932147e-38
0.026428567 0.0107143 0.75000006 2.1098782e-38
0.02793142 0.010742888 0.75200003 2.0254671e-38
0.029363789 0.01074288 0.75200003 1.8422968e-38
0.03091906 0.010785736 0.75500005 1.649402e-38
0.032400008 0.010800026 0.75600004 1.4375662e-38
0.033840023 0.010800026 0.75600004 1.2352356e-38
0.035280012 0.010800011 0.75600004 1.0598459e-38
0.036817148 0.010828592 0.75800002 8.9450276e-39
0.038361896 0.01085715 0.76000005 9.1275888e-39
0.039809529 0.010857157 0.76000005 9.311271e-39
0.041257162 0.010857165 0.76000005 9.2183705e-39
0.042704746 0.010857157 0.76000011 9.1258329e-39
-0.025566667 0.012418129 0.76699996 1.1989346e-38
-0.02398001 0.012353346 0.76300001 9.6722581e-39
-0.022467626 0.012320966 0.76100004 9.3848784e-39
-0.02099048 0.012304775 0.76000005 9.0204189e-39
-0.01954286 0.012304775 0.76000005 8.74672e-39
-0.018000009 0.012240015 0.75600004 8.3797116e-39
-0.01653811 0.01222384 0.75500005 9.0232537e-39
-0.015060001 0.012191452 0.75300002 9.5753569e-39
-0.013607644 0.012175255 0.75200003 1.012746e-38
-0.012175239 0.012175269 0.75199997 1.0588088e-38
-0.010742869 0.012175269 0.75200003 1.0588822e-38
-0.0092857191 0.012142867 0.75000006 1.0589179e-38
-0.0078571402 0.012142882 0.75 1.1691922e-38
-0.0064285803 0.012142867 0.75000006 1.2794317e-38
-0.0050000004 0.012142874 0.75 1.2518824e-38
-0.0035714407 0.012142882 0.75000006 1.2239342e-38
-0.0021342591 0.012094304 0.74699998 1.1861568e-38
-0.00071141339 0.012094304 0.74700004 1.1511583e-38
0.00070953526 0.012061931 0.745 1.7530532e-38
0.002128558 0.012061924 0.74500006 2.3415179e-38
0.0035476161 0.012061931 0.74500006 2.2957435e-38
0.0049666725 0.012061931 0.745 2.2397455e-38
0.0063685612 0.012029536 0.74300003 2.2313153e-38
0.0077838101 0.012029551 0.74300003 2.2183582e-38
0.0091990577 0.012029536 0.74300003 2.1765589e-38
0.010642854 0.012061924 0.74500006 2.1457115e-38
0.012061912 0.012061931 0.74500006 2.2030766e-38
0.013480941 0.012061931 0.745 2.2559482e-38
0.014899999 0.012061916 0.745 2.1339735e-38
0.016362894 0.012094311 0.74699998 2.0149841e-38
0.017785711 0.012094289 0.74700004 1.9770323e-38
0.019234283 0.012110494 0.74800003 1.9406906e-38
0.020659054 0.012110487 0.74800003 1.8551308e-38
0.022083825 0.012110502 0.74799997 1.7754279e-38
0.023508577 0.012110487 0.74800003 1.9135833e-38
0.025 0.012142874 0.75000006 2.0450572e-38
0.02642858 0.012142874 0.75 2.035621e-38
0.027931431 0.012175255 0.75200003 2.0170008e-38
0.029402839 0.012191452 0.75300002 1.8243237e-38
0.030919027 0.012223832 0.75500005 1.6308913e-38
0.032399986 0.012240015 0.75600004 1.4377458e-38
0.033929531 0.012272395 0.75800002 1.2441325e-38
0.035280008 0.012240015 0.75600004 1.0499094e-38
0.036817148 0.01227241 0.75800002 8.5741165e-39
0.038361914 0.012304783 0.76000005 8.9417976e-39
0.039861895 0.012320958 0.76100004 9.2180286e-39
0.04141999 0.012353331 0.76300001 9.2169594e-39
0.042873316 0.012353323 0.76300007 9.1251309e-39
-0.023979997 0.013806671 0.76300001 9.1969166e-39
-0.022467623 0.013770491 0.76100004 9.2019627e-39
-0.020990485 0.013752401 0.76000005 9.2973827e-39
-0.019542852 0.013752401 0.76000005 9.114425e-39
-0.017999994 0.013680011 0.75600004 8.9321819e-39
-0.016538108 0.013661914 0.75500005 9.298798e-39
-0.015059994 0.013625734 0.75300002 9.7590433e-39
-0.013607645 0.013607644 0.75200003 1.021893e-38
-0.012175241 0.013607651 0.75200003 1.0679203e-38
-0.010742872 0.013607636 0.75200003 1.086361e-38
-0.0092857089 0.013571449 0.75 1.1048002e-38
-0.0078571485 0.013571449 0.75000006 1.1875242e-38
-0.0064285682 0.013571449 0.75 1.2702132e-38
-0.0050000087 0.013571449 0.75000006 1.2519548e-38
-0.0035714286 0.013571441 0.75 1.2336205e-38
-0.0021342526 0.013517164 0.74699998 1.1959862e-38
-0.00071142084 0.013517156 0.74700004 1.1596245e-38
0.00071145938 0.013517164 0.74700004 1.751977e-38
0.0021285925 0.013480976 0.745 2.3417689e-38
0.0035619021 0.013535246 0.74800003 2.2953129e-38
0.0049800109 0.013517149 0.74699998 2.2481038e-38
0.0063857157 0.013480984 0.745 2.2299162e-38
0.0077838027 0.013444774 0.74300009 2.2094595e-38
0.0092238029 0.013480969 0.745 2.1979351e-38
0.01064286 0.013480984 0.745 2.2016326e-38
0.012061898 0.013480961 0.74500006 2.2475887e-38
0.013480955 0.013480976 0.74500006 2.2806526e-38
0.014900012 0.013480976 0.745 2.1519282e-38
0.016362874 0.013517171 0.74699998 2.0112377e-38
0.017809523 0.013535261 0.74799997 1.9567863e-38
0.019234274 0.013535254 0.74800003 1.9010351e-38
0.020659044 0.013535261 0.74799997 1.9568495e-38
0.022083795 0.013535254 0.74800003 2.0112485e-38
0.023508566 0.013535246 0.74800003 2.0990813e-38
0.025000012 0.013571456 0.75 2.1939302e-38
0.026428571 0.013571441 0.75000006 2.1102737e-38
0.027931416 0.013607644 0.75200003 2.0265073e-38
0.029402861 0.013625734 0.75300002 1.8240362e-38
0.030919043 0.013661928 0.75500005 1.621313e-38
0.032400012 0.013680018 0.75600004 1.4467862e-38
0.033929531 0.013716206 0.75800002 1.2811541e-38
0.035373326 0.013716213 0.75800002 1.0689225e-38
0.036817148 0.013716199 0.75800002 8.5730571e-39
0.038361911 0.013752386 0.76000005 8.8499929e-39
0.039861903 0.013770491 0.76100004 9.2187727e-39
0.041419994 0.013806663 0.76300001 9.1262225e-39
0.042873338 0.013806671 0.76300001 9.1240715e-39
-0.022467619 0.015220016 0.76100004 9.1122922e-39
-0.020990476 0.015200026 0.76000005 9.4810593e-39
-0.019542858 0.015200011 0.76000005 9.4814096e-39
-0.018000003 0.015120007 0.75600004 9.3895699e-39
-0.016538104 0.015100025 0.75500005 9.6647135e-39
-0.015059997 0.015060022 0.75300002 9.9412821e-39
-0.013625724 0.015060022 0.75300002 1.0401523e-38
-0.012175256 0.015040025 0.75200003 1.077068e-38
-0.010742872 0.015040018 0.75200003 1.1137684e-38
-0.0092857173 0.015000015 0.75000006 1.1412833e-38
-0.0078571364 0.015000023 0.75 1.1966718e-38
-0.0064285784 0.015000008 0.75000006 1.2519533e-38
-0.0049999976 0.015000023 0.75 1.242914e-38
-0.003571437 0.015000015 0.75000006 1.2332975e-38
-0.0021371564 0.014960013 0.74800003 1.2045604e-38
-0.00071238569 0.014960021 0.74800003 1.1698485e-38
0.00071239908 0.014960021 0.74799997 1.7626673e-38
0.0021343061 0.014940023 0.74699998 2.3415895e-38
0.0035618923 0.014960021 0.74799997 2.2956356e-38
0.0049866633 0.014960036 0.74799997 2.2487853e-38
0.0064028851 0.014940023 0.74699998 2.2215219e-38
0.0078047593 0.014900021 0.74500006 2.190162e-38
0.0092485985 0.014940023 0.74700004 2.222477e-38
0.010671465 0.014940023 0.74699998 2.2562372e-38
0.012094283 0.014940023 0.74700004 2.2866613e-38
0.01351715 0.014940016 0.74700004 2.3117664e-38
0.014940016 0.014940031 0.74699998 2.1634962e-38
0.016384771 0.014960021 0.74799997 2.0144366e-38
0.017809521 0.014960006 0.74800003 1.9377693e-38
0.019234292 0.014960013 0.74800003 1.8574917e-38
0.020659063 0.014960028 0.74799997 2.0508552e-38
0.022083813 0.014960013 0.74800003 2.2461208e-38
0.023508584 0.014960028 0.74800003 2.2958487e-38
0.025000004 0.015000023 0.75000006 2.3413702e-38
0.026428582 0.015000023 0.75 2.1849972e-38
0.027931402 0.015040025 0.75200003 2.0266859e-38
0.029402854 0.015060015 0.75300002 1.8148519e-38
0.030960003 0.015120007 0.75600004 1.6033043e-38
0.03239999 0.015120015 0.75600004 1.4653329e-38
0.033929501 0.015160017 0.75800002 1.3178521e-38
0.035373326 0.015160009 0.75800002 1.0872889e-38
0.03691427 0.015200011 0.76000005 8.5741193e-39
0.038361903 0.015200019 0.76000005 8.8496146e-39
0.039861906 0.015220016 0.76100004 9.1265714e-39
0.04141999 0.015260011 0.76300001 9.1280232e-39
0.042873334 0.015260018 0.76300001 9.0336611e-39
-0.02101811 0.016669527 0.7610001 9.3899483e-39
-0.019568572 0.016669534 0.76100004 9.4810523e-39
-0.018000003 0.016560018 0.75600004 9.4803334e-39
-0.016560001 0.016560011 0.75600004 9.7558385e-39
-0.015100006 0.016538121 0.75500005 1.0032044e-38
-0.013625716 0.016494304 0.75300002 1.0401879e-38
-0.012175258 0.016472407 0.75200003 1.086395e-38
-0.010742853 0.016472407 0.75199997 1.1135535e-38
-0.0093104867 0.016472414 0.75200003 1.1406376e-38
-0.0078781173 0.016472414 0.75200003 1.196528e-38
-0.0064285868 0.01642859 0.75000006 1.2520963e-38
-0.0050000059 0.016428575 0.75000006 1.2612446e-38
-0.0035714472 0.016428575 0.75000006 1.2796097e-38
-0.0021371527 0.016384773 0.74800003 1.2139237e-38
-0.00071238197 0.01638478 0.74799997 1.1494369e-38
0.00071236835 0.016384773 0.74800003 1.74265e-38
0.0021371392 0.01638478 0.74800003 2.3417687e-38
0.00356191 0.01638478 0.74799997 2.3043885e-38
0.0049800258 0.016362883 0.74699998 2.2574666e-38
0.0064028921 0.016362883 0.74699998 2.248068e-38
0.0078257388 0.016362876 0.74700004 2.235795e-38
0.0092486059 0.016362868 0.74699998 2.2633771e-38
0.010671444 0.016362883 0.74699998 2.2958469e-38
0.01209429 0.016362868 0.74700004 2.3142183e-38
0.013517156 0.016362876 0.74699998 2.3325845e-38
0.014940022 0.016362876 0.74699998 2.2577519e-38
0.016384739 0.01638478 0.74800003 2.1839798e-38
0.017809512 0.016384773 0.74800003 2.1363951e-38
0.019234283 0.016384788 0.74799997 2.1004321e-38
0.020659033 0.016384788 0.74800003 2.2018275e-38
0.022083804 0.01638478 0.74799997 2.2958513e-38
0.023508575 0.016384795 0.74799997 2.2863807e-38
0.025000015 0.01642859 0.75 2.2866646e-38
0.026499046 0.016472399 0.75200003 2.128604e-38
0.027931435 0.016472414 0.75199997 1.9702209e-38
0.029402852 0.016494304 0.75300002 1.7870134e-38
0.030960001 0.016560018 0.75600004 1.6035552e-38
0.03239999 0.016560011 0.75600004 1.419487e-38
0.033929523 0.01660382 0.75800002 1.2355586e-38
0.035373349 0.016603827 0.75800002 9.6793795e-39
0.036962863 0.016669534 0.76100004 7.1029451e-39
0.0384124 0.016669534 0.76100004 7.4688325e-39
0.03986191 0.016669542 0.76100004 7.9316268e-39
0.041419998 0.016713329 0.76300007 7.9302213e-39
0.042873345 0.016713336 0.76300001 8.0245385e-39
-0.021018105 0.018119045 0.76100004 9.2991834e-39
-0.019568566 0.018119052 0.76100004 9.4810509e-39
-0.01804761 0.018047638 0.75800002 9.5725206e-39
-0.016559986 0.018000014 0.75600004 9.8462279e-39
-0.015119986 0.018000022 0.75600004 1.0032765e-38
-0.013679999 0.018000022 0.75600004 1.0493373e-38
-0.012223811 0.01797621 0.75500005 1.0952567e-38
-0.010742869 0.017904788 0.75199997 1.1226297e-38
-0.0093104867 0.017904796 0.75200003 1.1411759e-38
-0.0078781173 0.017904781 0.75200003 1.1966715e-38
-0.0064457287 0.017904796 0.75199997 1.2427331e-38
-0.0050000162 0.017857157 0.75000006 1.2887591e-38
-0.0035714342 0.017857164 0.75000006 1.3248464e-38
-0.002137149 0.01780954 0.74799997 1.2221043e-38
-0.00071237731 0.017809555 0.74799997 1.1236089e-38
0.00071238697 0.017809533 0.74800003 1.7350808e-38
0.0021371588 0.017809547 0.74799997 2.3414457e-38
0.0035618811 0.017809533 0.74800003 2.3043165e-38
0.0049800337 0.017785735 0.74699998 2.2674392e-38
0.00640288 0.017785728 0.74700004 2.2774123e-38
0.0078257183 0.017785728 0.74700004 2.2826803e-38
0.0092485845 0.017785735 0.74699998 2.2993202e-38
0.010671431 0.017785735 0.74700004 2.3216388e-38
0.012094298 0.017785735 0.74700004 2.3325854e-38
0.013517165 0.017785721 0.74699998 2.3417686e-38
0.014960009 0.017809555 0.74799997 2.341768e-38
0.016384758 0.01780954 0.74800003 2.341365e-38
0.017809529 0.017809547 0.74799997 2.3417513e-38
0.019234279 0.017809533 0.74800003 2.3411145e-38
0.020714287 0.017857164 0.75000006 2.341769e-38
0.022142867 0.017857157 0.75000006 2.3414817e-38
0.023571426 0.017857157 0.75000006 2.2855551e-38
0.025066661 0.017904781 0.75200003 2.2212677e-38
0.026499027 0.017904781 0.75200003 2.0633153e-38
0.027968572 0.017928585 0.75300002 1.9066542e-38
0.029402846 0.017928585 0.75300002 1.7502443e-38
0.030960009 0.018000022 0.7560001 1.5941206e-38
0.032400019 0.018000022 0.75600004 1.373425e-38
0.034019046 0.018095247 0.76000005 1.1430396e-38
0.035466652 0.018095262 0.76000005 8.5690732e-39
0.036962867 0.01811906 0.76100004 5.6303275e-39
0.038513348 0.018166691 0.76300001 6.1748749e-39
0.039966647 0.018166669 0.76300001 6.6401649e-39
0.041419994 0.018166669 0.76300001 6.8202626e-39
0.042873345 0.018166676 0.76300001 6.9192643e-39
-0.019568563 0.019568577 0.76100004 9.391365e-39
-0.018047623 0.019491449 0.75800002 9.57395e-39
-0.016603813 0.019491449 0.75800002 9.8476516e-39
-0.015160002 0.019491449 0.75800002 1.0126038e-38
-0.013679985 0.019440025 0.75600004 1.0584506e-38
-0.012239984 0.019440018 0.75600004 1.095114e-38
-0.010785712 0.019414313 0.75500005 1.1228809e-38
-0.0093228575 0.019362889 0.75300002 1.1507181e-38
-0.0078780996 0.019337177 0.75199997 1.1874878e-38
-0.0064457306 0.019337177 0.75200003 1.2334418e-38
-0.0050133481 0.01933717 0.75200003 1.2702482e-38
-0.0035809579 0.019337185 0.75199997 1.3069105e-38
-0.0021428626 0.019285731 0.75 1.2323298e-38
-0.00071239407 0.019234307 0.74800003 1.1683437e-38
0.00071237673 0.0192343 0.74799997 1.7520847e-38
0.0021371485 0.019234315 0.74799997 2.3417684e-38
0.0035618988 0.0192343 0.74800003 2.3043162e-38
0.0049800132 0.019208588 0.74699998 2.2672597e-38
0.006402859 0.019208588 0.74700004 2.2387409e-38
0.0078257266 0.019208595 0.74699998 2.2171748e-38
0.0092485929 0.019208603 0.74699998 2.2452572e-38
0.010671439 0.019208588 0.74700004 2.2852623e-38
0.012094305 0.019208595 0.74700004 2.3138596e-38
0.013517171 0.019208588 0.74699998 2.341769e-38
0.014960007 0.019234307 0.74800003 2.341769e-38
0.016384777 0.0192343 0.74800003 2.341769e-38
0.01780952 0.019234315 0.74799997 2.341769e-38
0.01923427 0.0192343 0.74800003 2.341769e-38
0.020659041 0.019234307 0.74799997 2.341769e-38
0.022142857 0.019285731 0.75000006 2.3417684e-38
0.023571437 0.019285738 0.75000006 2.3138225e-38
0.025066646 0.01933717 0.75200003 2.286234e-38
0.026499035 0.019337185 0.75199997 2.0919426e-38
0.027968569 0.019362874 0.75300002 1.897902e-38
0.029402841 0.019362882 0.75300002 1.6950723e-38
0.030960007 0.01944001 0.75600004 1.5022851e-38
0.032485697 0.019491449 0.75800002 1.4743355e-38
0.034019038 0.019542865 0.76000005 1.4368396e-38
0.035466675 0.019542865 0.76000005 1.3541074e-38
0.036962874 0.019568592 0.76100004 1.270487e-38
0.038412411 0.019568592 0.76100004 1.2892847e-38
0.039966673 0.019620009 0.76300001 1.3164765e-38
0.041419998 0.019620001 0.76300007 1.3170503e-38
0.042873345 0.019620009 0.76300001 1.3165852e-38
-0.019491434 0.020935245 0.75800002 9.3927985e-39
-0.018047623 0.020935252 0.75800002 9.5728612e-39
-0.016603814 0.02093526 0.75800002 9.9355186e-39
-0.015160002 0.020935252 0.75800002 1.0214636e-38
-0.013679993 0.020880021 0.75600004 1.0584156e-38
-0.012239991 0.020880006 0.75600004 1.0952575e-38
-0.010785729 0.020852387 0.75500005 1.1229878e-38
-0.0093228621 0.020797171 0.75300002 1.1505742e-38
-0.0078781014 0.020769551 0.75199997 1.1874159e-38
-0.0064457324 0.020769551 0.75200003 1.2242237e-38
-0.005013349 0.020769551 0.75200003 1.2518838e-38
-0.0035809597 0.020769551 0.75200003 1.2790733e-38
-0.002142872 0.020714305 0.75000006 1.241117e-38
-0.00071239035 0.020659067 0.74800003 1.2066913e-38
0.00071239535 0.020659059 0.74799997 1.7814649e-38
0.0021342875 0.020631447 0.74700004 2.3414812e-38
0.0035571547 0.020631447 0.74699998 2.303921e-38
0.0049800207 0.020631455 0.74699998 2.257896e-38
0.0064028669 0.020631447 0.74700004 2.2114047e-38
0.0078257332 0.020631447 0.74699998 2.1536088e-38
0.0092486003 0.02063144 0.74699998 2.1976572e-38
0.010671445 0.020631447 0.74700004 2.2388083e-38
0.012094313 0.020631455 0.74700004 2.2958513e-38
0.01351718 0.020631447 0.74699998 2.341769e-38
0.014959997 0.020659067 0.74800003 2.341769e-38
0.016384767 0.020659067 0.74799997 2.341769e-38
0.017809518 0.020659067 0.74800003 2.341769e-38
0.019234288 0.020659059 0.74800003 2.341769e-38
0.020714289 0.02071429 0.75000006 2.341769e-38
0.022142867 0.020714313 0.75000006 2.3417687e-38
0.02357143 0.02071429 0.75000006 2.3417684e-38
0.025066657 0.020769536 0.75200003 2.341407e-38
0.026534289 0.020797178 0.75300002 2.111134e-38
0.027968563 0.020797163 0.75300002 1.8794265e-38
0.029480949 0.020852394 0.75500005 1.6482573e-38
0.030960009 0.020880029 0.75600004 1.4102348e-38
0.03248572 0.020935252 0.75800002 1.5755712e-38
0.034019034 0.020990491 0.76000005 1.7325487e-38
0.035513341 0.021018103 0.76100004 1.86133e-38
0.037060004 0.021073341 0.76300001 1.9805725e-38
0.038412392 0.021018103 0.7610001 1.971102e-38
0.03996665 0.021073341 0.76300001 1.9622043e-38
0.041419998 0.021073334 0.76300001 1.9531633e-38
0.042873345 0.021073349 0.76300001 1.9439816e-38
-0.019568553 0.022467636 0.76100004 9.4828389e-39
-0.018095249 0.022438109 0.76000005 9.5721311e-39
-0.016603829 0.022379063 0.75800002 9.8454529e-39
-0.015160017 0.022379063 0.75800002 1.0120641e-38
-0.013716207 0.022379063 0.75800002 1.0583087e-38
-0.012239994 0.022320025 0.75600004 1.0953294e-38
-0.010799992 0.022320017 0.75600004 1.1320989e-38
-0.0093476297 0.022290498 0.75500005 1.1687257e-38
-0.0078885779 0.022231445 0.75300002 1.1964199e-38
-0.0064542857 0.02223146 0.75300002 1.2333009e-38
-0.0050133443 0.02220194 0.75199997 1.26107e-38
-0.0035809607 0.02220194 0.75200003 1.2980149e-38
-0.0021428599 0.02214288 0.75 1.232434e-38
-0.00071238569 0.022083834 0.74799997 1.1776332e-38
0.00071236555 0.022083819 0.74800003 1.7614476e-38
0.0021371364 0.022083826 0.74800003 2.3417679e-38
0.0035619072 0.022083841 0.74799997 2.3042073e-38
0.0049866578 0.022083826 0.74800003 2.267294e-38
0.0064114286 0.022083819 0.74800003 2.2111168e-38
0.0078361994 0.022083826 0.74799997 2.153431e-38
0.0092609506 0.022083834 0.74800003 2.2187543e-38
0.010685721 0.022083826 0.74800003 2.2958486e-38
0.012110492 0.022083841 0.74799997 2.3142183e-38
0.013535243 0.022083826 0.74800003 2.341769e-38
0.014960014 0.022083834 0.74799997 2.341769e-38
0.016384764 0.022083826 0.74800003 2.341769e-38
0.017809536 0.022083834 0.74800003 2.3234019e-38
0.01928572 0.02214288 0.75000006 2.3050348e-38
0.020714272 0.022142872 0.75 2.2769102e-38
0.022142859 0.022142872 0.75000006 2.24075e-38
0.023634274 0.02220194 0.75200003 2.2494313e-38
0.025100011 0.022231467 0.75299996 2.2591137e-38
0.026534284 0.022231467 0.75300002 2.1285317e-38
0.027968558 0.022231445 0.75300002 1.9980947e-38
0.029480938 0.022290498 0.75500005 1.851658e-38
0.030960014 0.022320025 0.75600004 1.7137229e-38
0.032400005 0.022320025 0.75600004 1.871168e-38
0.034019027 0.022438101 0.76000005 2.0380873e-38
0.035513341 0.022467636 0.76100004 2.102122e-38
0.036962859 0.022467628 0.7610001 2.1672675e-38
0.0384124 0.022467636 0.76100004 2.1572586e-38
0.039966676 0.022526667 0.76300001 2.1580819e-38
0.041528583 0.022585735 0.76500005 2.1481789e-38
0.042985737 0.022585735 0.76499999 2.1488989e-38
-0.01956857 0.023917153 0.7610001 9.5739598e-39
-0.018095255 0.023885727 0.76000005 9.4806683e-39
-0.016603807 0.023822866 0.75800002 9.7529266e-39
-0.015159994 0.023822881 0.75800002 1.0030611e-38
-0.013680002 0.023760021 0.75600004 1.0490891e-38
-0.012239999 0.023760021 0.75600004 1.0952574e-38
-0.01078571 0.023728594 0.75500005 1.1413181e-38
-0.0093476279 0.023728587 0.75500005 1.1871645e-38
-0.0078885844 0.023665734 0.75300002 1.2145721e-38
-0.0064542904 0.023665749 0.75300002 1.2332646e-38
-0.0050133453 0.023634315 0.75199997 1.2701806e-38
