# .PCD v0.7 - Point Cloud Data file format
VERSION 0.7
FIELDS x y z rgb
SIZE 4 4 4 4
TYPE F F F F
COUNT 1 1 1 1
WIDTH 942
HEIGHT 1
VIEWPOINT 0 0 0 1 0 0 0
POINTS 942
DATA ascii
-0.024899999 -0.017785713 0.7470001 1.6216379e-38
-0.023414278 -0.017738082 0.74500006 1.7235902e-38
-0.021936188 -0.01769048 0.74300009 1.7968798e-38
-0.020493334 -0.017666683 0.7420001 1.8799979e-38
-0.019028572 -0.017619044 0.74000007 1.9440312e-38
-0.017619053 -0.017619066 0.74000013 2.0175731e-38
-0.016187606 -0.017595239 0.73900002 2.0455918e-38
-0.014779996 -0.017595232 0.73900002 2.081394e-38
-0.013372378 -0.017595224 0.73900002 2.1377514e-38
-0.011932377 -0.017547622 0.73700011 2.1934999e-38
-0.010528563 -0.017547622 0.73700011 1.7318125e-38
-0.0091247568 -0.017547622 0.73700011 1.2779762e-38
-0.0077209515 -0.017547637 0.73700011 9.4732863e-39
-0.0063085631 -0.017523825 0.73600012 6.1535752e-39
-0.0049066581 -0.017523818 0.73600006 3.4063996e-39
-0.0035095189 -0.017547645 0.73700011 7.3529914e-40
-0.0020971338 -0.017476209 0.73400009 7.4676498e-39
-0.00069715112 -0.017428584 0.73200011 1.4312664e-38
0.00069713796 -0.017428584 0.73200011 1.8914522e-38
0.0020914238 -0.017428584 0.73200011 2.341769e-38
0.0034952364 -0.017476216 0.73400009 2.341769e-38
0.0048933444 -0.017476209 0.73400009 2.3417645e-38
0.0062914267 -0.017476201 0.73400009 2.0428999e-38
0.0076895244 -0.017476209 0.73400009 1.7407442e-38
0.0090876175 -0.017476209 0.73400009 2.046891e-38
0.010514287 -0.01752381 0.73600012 2.341769e-38
0.011916197 -0.017523818 0.73600012 2.2221676e-38
0.013318102 -0.017523825 0.73600012 2.0935262e-38
0.014720012 -0.017523825 0.73600012 2.2223111e-38
0.016143825 -0.017547622 0.73700011 2.341769e-38
0.01754763 -0.017547615 0.73700011 2.2771254e-38
0.01900286 -0.017595246 0.73900008 2.202606e-38
0.020410489 -0.017595232 0.73900002 1.6850522e-38
0.021847613 -0.017619044 0.74000007 1.1694133e-38
0.023320006 -0.017666683 0.7420001 1.2711529e-38
0.024733333 -0.017666683 0.7420001 1.3727069e-38
0.026146675 -0.017666683 0.7420001 1.1976782e-38
0.027597141 -0.01769048 0.74300009 1.0320867e-38
0.029012391 -0.01769048 0.74300003 1.0231177e-38
0.030591439 -0.017785721 0.7470001 1.0140393e-38
0.032057147 -0.01780954 0.74800003 1.0139649e-38
0.033571441 -0.017857149 0.75000012 1.013893e-38
0.035000011 -0.017857149 0.75000012 1.0046374e-38
0.036525715 -0.017904773 0.75200009 9.9581173e-39
-0.032271434 -0.016494296 0.75300008 1.3637041e-38
-0.030796189 -0.016472384 0.75200009 1.43746e-38
-0.02928572 -0.016428582 0.75000012 1.5022483e-38
-0.02785714 -0.016428582 0.75000012 1.5481674e-38
-0.026358094 -0.016384773 0.74800009 1.5847232e-38
-0.024833327 -0.016319036 0.74500012 1.6493319e-38
-0.02341428 -0.016319051 0.74500012 1.7140843e-38
-0.021936189 -0.016275249 0.74300009 1.8061002e-38
-0.020520946 -0.016275235 0.74300003 1.8979706e-38
-0.019079996 -0.016253345 0.7420001 1.9809445e-38
-0.017666673 -0.016253352 0.7420001 2.0637787e-38
-0.016187606 -0.016187608 0.73900002 2.073898e-38
-0.014779989 -0.016187616 0.73900002 2.0730367e-38
-0.013372371 -0.016187616 0.73900002 2.1383614e-38
-0.011964753 -0.016187616 0.73900002 2.2010638e-38
-0.010557136 -0.016187623 0.73900008 1.7039641e-38
-0.0091247577 -0.016143814 0.73700005 1.2047163e-38
-0.0077209449 -0.016143806 0.73700005 8.3576005e-39
-0.0063171317 -0.016143814 0.73700011 4.607786e-39
-0.0049133254 -0.016143799 0.73700011 2.9432831e-39
-0.0035095194 -0.016143814 0.73700011 1.3002873e-39
-0.0021028498 -0.016121909 0.73600012 6.153578e-39
-0.00069905008 -0.016078107 0.73400009 1.1077955e-38
0.00069905788 -0.0160781 0.73400009 1.7264712e-38
0.0020971408 -0.016078115 0.73400009 2.341769e-38
0.0034952378 -0.016078122 0.73400009 2.341769e-38
0.0048933309 -0.0160781 0.73400009 2.3395042e-38
0.0062914281 -0.0160781 0.73400009 2.0112593e-38
0.0077104806 -0.016121916 0.73600012 1.6946827e-38
0.009112386 -0.016121916 0.73600012 2.0203448e-38
0.010514297 -0.016121916 0.73600012 2.3416248e-38
0.011916202 -0.016121909 0.73600012 2.1391198e-38
0.013318095 -0.016121924 0.73600012 1.9275759e-38
0.014740011 -0.016143806 0.73700005 2.1397308e-38
0.016143816 -0.016143799 0.73700005 2.341769e-38
0.017547637 -0.016143806 0.73700005 2.3234019e-38
0.01900286 -0.016187616 0.73900008 2.303159e-38
0.020410487 -0.016187608 0.73900002 1.72993e-38
0.021847615 -0.016209535 0.74000007 1.1605526e-38
0.02332001 -0.01625333 0.7420001 1.2618254e-38
0.024733337 -0.016253337 0.74200004 1.3630207e-38
0.02618191 -0.016275249 0.74300009 1.1975703e-38
0.027597148 -0.016275235 0.74300009 1.0323378e-38
0.029012389 -0.016275249 0.74300009 1.0232616e-38
0.030632382 -0.016384773 0.74800003 1.00482e-38
0.032142866 -0.01642859 0.75000012 1.0323321e-38
0.033571426 -0.016428582 0.75000012 1.0598106e-38
0.035 -0.016428575 0.75000012 1.0415148e-38
0.036525719 -0.016472384 0.75200003 1.0139277e-38
-0.03227143 -0.01506 0.75300008 1.3278303e-38
-0.030796185 -0.015040003 0.75200009 1.3825725e-38
-0.029285712 -0.015000008 0.75000012 1.4289947e-38
-0.027782863 -0.014960006 0.74800009 1.4372119e-38
-0.026358088 -0.014959998 0.74800003 1.446719e-38
-0.024900001 -0.014939994 0.7470001 1.4926375e-38
-0.02341428 -0.014899999 0.74500012 1.5395972e-38
-0.021995232 -0.014899991 0.74500006 1.6026639e-38
-0.020520955 -0.014860004 0.74300009 1.67692e-38
-0.019105712 -0.014860012 0.74300009 1.7495259e-38
-0.01766666 -0.014840014 0.7420001 1.8244693e-38
-0.016209526 -0.014799997 0.74000007 1.8515578e-38
-0.01477999 -0.014779992 0.73900002 1.8791429e-38
-0.013372372 -0.01478 0.73900002 1.9332025e-38
-0.011964754 -0.01478 0.73900002 1.9786802e-38
-0.010557136 -0.014779992 0.73900002 1.6094632e-38
-0.0091495188 -0.01478 0.73900008 1.2399011e-38
-0.0077209473 -0.014739998 0.73700011 1.2428468e-38
-0.0063171317 -0.014740005 0.73700005 1.2548317e-38
-0.0049133184 -0.014739998 0.73700005 1.1529908e-38
-0.0035095129 -0.01473999 0.73700005 1.0521849e-38
-0.0021028558 -0.014720008 0.73600012 1.032596e-38
-0.00069904915 -0.014680021 0.73400009 1.0070259e-38
0.00069905882 -0.014680013 0.73400009 1.6797642e-38
0.0020971417 -0.014680021 0.73400009 2.341769e-38
0.0034952497 -0.014679991 0.73400009 2.341769e-38
0.0049066702 -0.014719993 0.73600012 2.341764e-38
0.0063085794 -0.014720015 0.73600012 2.0332132e-38
0.0076895226 -0.014680006 0.73400009 1.7409948e-38
0.0091123795 -0.014720008 0.73600012 2.0377433e-38
0.010514299 -0.014720008 0.73600012 2.3417677e-38
0.011916194 -0.014720015 0.73600012 1.9452594e-38
0.013318099 -0.01472 0.73600006 1.5491842e-38
0.014740008 -0.014739998 0.73700011 1.9461945e-38
0.016143814 -0.01473999 0.73700011 2.3417689e-38
0.017547635 -0.014740013 0.73700011 2.3324778e-38
0.019002859 -0.014780007 0.73900008 2.3229612e-38
0.020410476 -0.014780007 0.73900008 1.7590595e-38
0.021906665 -0.014840014 0.7420001 1.1973585e-38
0.023320006 -0.014840007 0.7420001 1.2619326e-38
0.024766678 -0.014859997 0.74300003 1.3261068e-38
0.026181905 -0.014859997 0.74300009 1.1793104e-38
0.027597146 -0.014860012 0.74300009 1.0325531e-38
0.02909049 -0.014900006 0.74500012 9.9571126e-39
0.030632393 -0.014960013 0.74800009 9.5883077e-39
0.032057162 -0.014959991 0.74800003 9.9552615e-39
0.033571441 -0.015000008 0.75000012 1.0321163e-38
0.035000011 -0.015000008 0.75000012 1.0138202e-38
0.036428571 -0.015000008 0.75000012 1.0045649e-38
-0.030796187 -0.013607621 0.75200003 1.3267516e-38
-0.029285712 -0.013571434 0.75000012 1.3535858e-38
-0.027782848 -0.013535239 0.74800003 1.3341794e-38
-0.026358085 -0.013535239 0.74800003 1.3074548e-38
-0.024899999 -0.013517141 0.7470001 1.334827e-38
-0.023477139 -0.013517134 0.74700004 1.3619494e-38
-0.021995233 -0.013480954 0.74500012 1.4064346e-38
-0.020576177 -0.013480946 0.74500006 1.4448556e-38
-0.019105712 -0.013444766 0.74300009 1.5157775e-38
-0.017666664 -0.013426676 0.7420001 1.583615e-38
-0.016209532 -0.013390489 0.74000007 1.6379283e-38
-0.014800004 -0.013390474 0.74000007 1.6845219e-38
-0.013372373 -0.013372369 0.73900002 1.7182729e-38
-0.011964755 -0.013372384 0.73900002 1.7558645e-38
-0.010557137 -0.013372377 0.73900002 1.5153311e-38
-0.0091495197 -0.013372377 0.73900008 1.2692135e-38
-0.0077209477 -0.013336197 0.73700011 1.6592003e-38
-0.0063171345 -0.013336197 0.73700011 2.0369471e-38
-0.0049133291 -0.013336189 0.73700011 2.0106178e-38
-0.0035095147 -0.013336189 0.73700011 1.9716565e-38
-0.0021028446 -0.013318107 0.73600006 1.4375012e-38
-0.00070094998 -0.013318107 0.73600012 9.0579358e-39
0.00070095452 -0.013318099 0.73600006 1.6254521e-38
0.0020971431 -0.013281919 0.73400009 2.3417679e-38
0.0034952366 -0.013281912 0.73400009 2.3417668e-38
0.0049066632 -0.013318107 0.73600012 2.338496e-38
0.0063085831 -0.013318114 0.73600006 2.0571717e-38
0.0077104778 -0.013318107 0.73600012 1.7775831e-38
0.0091123842 -0.013318099 0.73600006 2.0662625e-38
0.010514293 -0.013318107 0.73600012 2.3410136e-38
0.011916198 -0.013318114 0.73600006 1.7509325e-38
0.01333621 -0.013336189 0.73700005 1.1636179e-38
0.014740014 -0.013336182 0.73700005 1.7540217e-38
0.016143821 -0.013336189 0.73700005 2.341769e-38
0.017547626 -0.013336189 0.73700005 2.341769e-38
0.019002872 -0.013372377 0.73900008 2.3404676e-38
0.020438092 -0.013390481 0.74000013 1.7860009e-38
0.02190667 -0.013426669 0.74200004 1.2248018e-38
0.023320001 -0.013426691 0.7420001 1.2532154e-38
0.024766674 -0.013444766 0.74300009 1.280441e-38
0.026181901 -0.013444759 0.74300009 1.160981e-38
0.027671438 -0.013480946 0.74500006 1.0324463e-38
0.029090492 -0.013480939 0.74500012 9.6812474e-39
0.030632399 -0.013535239 0.74800003 9.0376338e-39
0.032057159 -0.013535231 0.74800003 9.4956874e-39
0.033571426 -0.013571434 0.75000012 9.9545188e-39
0.035 -0.013571441 0.75000012 9.9548902e-39
0.036428586 -0.013571441 0.75000012 9.8637651e-39
-0.030796194 -0.012175247 0.75200009 1.325494e-38
-0.029285712 -0.012142859 0.75000012 1.3979218e-38
-0.02785714 -0.012142852 0.75000012 1.4636052e-38
-0.02635809 -0.012110487 0.74800003 1.5364651e-38
-0.024933329 -0.012110479 0.74800003 1.5091668e-38
-0.023477133 -0.012094289 0.74700004 1.4883634e-38
-0.021995233 -0.012061901 0.74500012 1.6378503e-38
-0.020576177 -0.012061901 0.74500006 1.7955518e-38
-0.019105714 -0.012029536 0.74300009 1.8786012e-38
-0.01769047 -0.012029521 0.74300009 1.9623634e-38
-0.016209528 -0.011980958 0.74000007 1.980585e-38
-0.014779996 -0.011964776 0.73900008 1.9986552e-38
-0.013372367 -0.011964753 0.73900002 1.8768554e-38
-0.01196475 -0.011964753 0.73900002 1.7652565e-38
-0.010557132 -0.011964768 0.73900002 1.589839e-38
-0.0091495141 -0.011964761 0.73900002 1.424692e-38
-0.0077209407 -0.011932373 0.73700005 1.5384595e-38
-0.0063171345 -0.011932373 0.73700005 1.6527517e-38
-0.0049133212 -0.011932373 0.73700005 1.7804604e-38
-0.0035095157 -0.01193238 0.73700005 1.9169546e-38
-0.0021028521 -0.01191619 0.73600012 1.5203005e-38
-0.00070094672 -0.011916198 0.73600006 1.1326938e-38
0.0007009629 -0.011916205 0.73600012 1.7247134e-38
0.0020971543 -0.011883818 0.73400009 2.3142161e-38
0.0034952376 -0.011883818 0.73400009 2.2668971e-38
0.0049066818 -0.011916198 0.73600012 2.2184247e-38
0.0063085766 -0.011916198 0.73600012 2.078332e-38
0.007710482 -0.011916205 0.73600006 1.9437815e-38
0.0091123916 -0.011916205 0.73600012 2.1389776e-38
0.010514297 -0.01191619 0.73600006 2.3417662e-38
0.011916191 -0.011916198 0.73600012 1.5477449e-38
0.013336191 -0.01193238 0.73700011 7.4827684e-39
0.014740012 -0.011932395 0.73700011 1.5507999e-38
0.016143817 -0.01193238 0.73700011 2.341769e-38
0.017595254 -0.011964768 0.73900002 2.341769e-38
0.019002872 -0.011964753 0.73900002 2.3417593e-38
0.020438094 -0.011980958 0.74000013 1.7404423e-38
0.021906679 -0.012013346 0.7420001 1.1401054e-38
0.023320006 -0.012013346 0.7420001 1.2247321e-38
0.024766674 -0.012029529 0.74300009 1.3079926e-38
0.026181912 -0.012029529 0.74300009 1.1793497e-38
0.027671441 -0.012061894 0.74500012 1.0507425e-38
0.02909049 -0.012061901 0.74500006 1.0048947e-38
0.030632393 -0.012110464 0.74800003 9.6815389e-39
0.032057155 -0.012110487 0.74800003 9.9551858e-39
0.033571441 -0.012142874 0.75000006 1.0230007e-38
0.035000011 -0.012142867 0.75000012 1.0047802e-38
0.036428571 -0.012142867 0.75000012 9.9584635e-39
-0.032271419 -0.010757133 0.75300002 1.2158344e-38
-0.030796189 -0.010742866 0.75200009 1.3251764e-38
-0.029285712 -0.0107143 0.75000012 1.4371386e-38
-0.027857142 -0.0107143 0.75000012 1.6042739e-38
-0.026428567 -0.010714285 0.75000012 1.7592829e-38
-0.024933325 -0.01068572 0.74800003 1.6861739e-38
-0.023508564 -0.010685727 0.74800009 1.6115957e-38
-0.022054272 -0.010671422 0.74700004 1.8794635e-38
-0.020576188 -0.010642864 0.74500012 2.1470434e-38
-0.019105714 -0.010614291 0.74300009 2.2407457e-38
-0.01769047 -0.010614283 0.74300009 2.3315041e-38
-0.016253334 -0.010600016 0.7420001 2.3233241e-38
-0.014800005 -0.010571428 0.74000007 2.3026879e-38
-0.013390476 -0.010571428 0.74000007 2.0344188e-38
-0.01196475 -0.010557145 0.73900002 1.7652611e-38
-0.010557134 -0.010557137 0.73900002 1.6723844e-38
-0.0091495141 -0.01055713 0.73900002 1.5721278e-38
-0.0077418974 -0.010557145 0.73900002 1.4172004e-38
-0.0063171377 -0.010528579 0.73700011 1.2643842e-38
-0.0049133324 -0.010528579 0.73700011 1.55984e-38
-0.0035095194 -0.010528572 0.73700011 1.85303e-38
-0.0021028484 -0.010514289 0.73600006 1.6032427e-38
-0.00070095324 -0.010514304 0.73600012 1.3561129e-38
0.00070096616 -0.010514289 0.73600006 1.8264481e-38
0.0021028609 -0.010514297 0.73600012 2.2858032e-38
0.0035047659 -0.010514289 0.73600006 2.1931051e-38
0.0049066753 -0.010514297 0.73600012 2.0883856e-38
0.0063085798 -0.010514289 0.73600006 2.0939047e-38
0.0077104745 -0.010514289 0.73600012 2.0999395e-38
0.0091123953 -0.010514297 0.73600006 2.2223829e-38
0.010528587 -0.010528564 0.73700011 2.3395059e-38
0.011932393 -0.010528564 0.73700011 1.33168e-38
0.013336198 -0.010528579 0.73700011 3.3533969e-39
0.014740004 -0.010528572 0.73700011 1.3407621e-38
0.016143825 -0.010528564 0.73700011 2.341769e-38
0.017595252 -0.01055713 0.73900002 2.341769e-38
0.019002872 -0.010557145 0.73900002 2.3405046e-38
0.020438096 -0.010571428 0.74000013 1.6938806e-38
0.021906674 -0.010600008 0.7420001 1.0500277e-38
0.023320001 -0.010600016 0.7420001 1.1884268e-38
0.024766667 -0.010614276 0.74300009 1.326323e-38
0.026181908 -0.010614291 0.74300009 1.1976451e-38
0.027671441 -0.010642856 0.74500012 1.0599618e-38
0.029090481 -0.010642864 0.74500012 1.0416646e-38
0.03063239 -0.01068572 0.74800003 1.0231857e-38
0.032057151 -0.010685712 0.74800003 1.0414051e-38
0.033571426 -0.0107143 0.75000012 1.0506253e-38
0.035 -0.010714293 0.75000012 1.0231114e-38
0.036428574 -0.0107143 0.75000012 9.9563181e-39
-0.032357134 -0.0093476102 0.75500005 1.2807698e-38
-0.030837147 -0.0093228593 0.75300008 1.3821842e-38
-0.029363805 -0.0093104914 0.75200009 1.4762479e-38
-0.027931428 -0.0093104839 0.75200009 1.5676928e-38
-0.026499046 -0.009310469 0.75200003 1.6683174e-38
-0.025000006 -0.0092857257 0.75000012 1.6128574e-38
-0.023571432 -0.0092857257 0.75000012 1.5667978e-38
-0.022054272 -0.0092485696 0.74700004 1.8155803e-38
-0.020631423 -0.0092485696 0.7470001 2.0662266e-38
-0.019157141 -0.0092238113 0.74500012 2.0657244e-38
-0.01769047 -0.0091990456 0.74300003 2.0649352e-38
-0.016253324 -0.0091866776 0.7420001 2.0640384e-38
-0.014800002 -0.0091619045 0.74000007 2.0554208e-38
-0.013390474 -0.0091619045 0.74000007 1.9047093e-38
-0.01196475 -0.0091495141 0.73900002 1.7634003e-38
-0.010557132 -0.0091495141 0.73900002 1.7090478e-38
-0.009149516 -0.0091495141 0.73900002 1.6548481e-38
-0.0077418983 -0.0091495141 0.73900002 1.4352011e-38
-0.0063171312 -0.0091247633 0.73700011 1.2175658e-38
-0.0049133254 -0.0091247559 0.73700011 1.6332366e-38
-0.0035095189 -0.0091247633 0.73700011 2.0382092e-38
-0.0021028544 -0.0091123953 0.73600012 1.8444933e-38
-0.00070094952 -0.0091123804 0.73600006 1.642669e-38
0.00070096011 -0.0091123879 0.73600012 1.84406e-38
0.0021028651 -0.0091123879 0.73600006 2.0471373e-38
0.0035047743 -0.0091123879 0.73600012 1.9989943e-38
0.004906679 -0.0091123804 0.73600006 1.9490914e-38
0.0063085738 -0.0091124028 0.73600012 2.0884914e-38
0.0077104936 -0.0091123804 0.73600006 2.2223049e-38
0.0091247624 -0.0091247633 0.73700011 2.2866677e-38
0.010528568 -0.0091247559 0.73700011 2.3417656e-38
0.011932389 -0.0091247708 0.73700011 1.372001e-38
0.013336206 -0.0091247484 0.73700005 4.0019823e-39
0.014740011 -0.0091247484 0.73700005 1.3765277e-38
0.016143817 -0.0091247633 0.73700005 2.341769e-38
0.017595252 -0.0091495216 0.73900002 2.341769e-38
0.01900287 -0.0091495141 0.73900002 2.341761e-38
0.02043811 -0.0091619045 0.74000007 1.704142e-38
0.021906668 -0.0091866925 0.7420001 1.0593549e-38
0.023319993 -0.0091866776 0.7420001 1.1976087e-38
0.024766663 -0.009199068 0.74300009 1.3449403e-38
0.026252391 -0.0092238113 0.74500012 1.2069721e-38
0.027671443 -0.0092238039 0.74500006 1.0692169e-38
0.029090481 -0.0092238188 0.74500012 1.0416284e-38
0.030632386 -0.0092609525 0.74800003 1.0139684e-38
0.032057147 -0.0092609525 0.74800003 1.0047112e-38
0.03357143 -0.0092857406 0.75000012 9.8634274e-39
0.035000011 -0.0092857108 0.75000012 9.8637721e-39
0.036428571 -0.0092857108 0.75000012 9.7719366e-39
-0.032399997 -0.007919997 0.75600004 1.3455196e-38
-0.03091904 -0.007909514 0.75500005 1.428172e-38
-0.029363809 -0.0078781024 0.75200003 1.5120469e-38
-0.027931429 -0.0078781098 0.75200009 1.5402823e-38
-0.026499052 -0.0078781024 0.75200009 1.5668281e-38
-0.025066663 -0.0078781024 0.75200003 1.5392412e-38
-0.023571426 -0.0078571439 0.75000012 1.510615e-38
-0.0220838 -0.0078362003 0.74800003 1.7498544e-38
-0.020631421 -0.0078257099 0.7470001 1.9817775e-38
-0.019157134 -0.0078047588 0.74500012 1.890985e-38
-0.017738085 -0.0078047439 0.74500006 1.7968479e-38
-0.016253328 -0.0077733323 0.7420001 1.8032277e-38
-0.014800001 -0.0077523813 0.74000007 1.8042289e-38
-0.01339048 -0.0077523738 0.74000007 1.7839215e-38
-0.01198096 -0.0077523813 0.74000013 1.7552201e-38
-0.010557134 -0.0077418908 0.73900002 1.7454956e-38
-0.009149516 -0.0077418983 0.73900002 1.7369254e-38
-0.0077418992 -0.0077419057 0.73900002 1.4511987e-38
-0.0063342815 -0.0077418983 0.73900002 1.1710371e-38
-0.0049266638 -0.0077419132 0.73900002 1.6989204e-38
-0.0035190454 -0.0077419057 0.73900008 2.2222032e-38
-0.0021057066 -0.0077209398 0.73700005 2.0754456e-38
-0.00070190086 -0.0077209398 0.73700005 1.9263541e-38
0.00070191984 -0.0077209547 0.73700005 1.869134e-38
0.0021057257 -0.0077209547 0.73700005 1.8068937e-38
0.003504778 -0.0077104867 0.73600006 1.815826e-38
0.0049066725 -0.0077104792 0.73600012 1.8131708e-38
0.0063171578 -0.0077209547 0.73700005 2.0794933e-38
0.0077209636 -0.0077209473 0.73700011 2.3404743e-38
0.0091247698 -0.0077209547 0.73700011 2.341769e-38
0.010528576 -0.0077209622 0.73700011 2.3394682e-38
0.011932396 -0.0077209473 0.73700011 1.3959971e-38
0.013336202 -0.0077209398 0.73700011 4.6415868e-39
0.014740007 -0.0077209547 0.73700011 1.4050469e-38
0.016187623 -0.0077418983 0.73900008 2.341769e-38
0.017595252 -0.0077419057 0.73900002 2.341769e-38
0.019028569 -0.0077523738 0.74000007 2.3405416e-38
0.020438096 -0.0077523813 0.74000007 1.7032099e-38
0.021906672 -0.0077733397 0.7420001 1.068789e-38
0.023320014 -0.0077733472 0.7420001 1.216082e-38
0.024766674 -0.0077838153 0.74300009 1.3539075e-38
0.026181901 -0.0077838153 0.74300009 1.2160114e-38
0.027671432 -0.0078047737 0.74500012 1.0783643e-38
0.029090481 -0.0078047588 0.74500012 1.0416645e-38
0.030509533 -0.0078047588 0.74500012 1.0047852e-38
0.03205714 -0.0078362003 0.74800003 9.679776e-39
0.033571426 -0.0078571513 0.75000012 9.2213062e-39
0.035 -0.0078571513 0.75000012 9.404966e-39
0.036428574 -0.0078571513 0.75000012 9.5879125e-39
-0.032399986 -0.0064800084 0.75600004 1.2813051e-38
-0.030919038 -0.0064714253 0.75500011 1.3915796e-38
-0.029402856 -0.0064542815 0.75300008 1.4933185e-38
-0.027968567 -0.006454289 0.75300002 1.5117596e-38
-0.026499048 -0.0064457133 0.75200009 1.5286551e-38
-0.025066668 -0.0064457357 0.75200009 1.4543966e-38
-0.023571432 -0.0064285919 0.75000012 1.3885331e-38
-0.022083806 -0.0064114258 0.74800003 1.6385334e-38
-0.020631423 -0.0064028502 0.7470001 1.8802526e-38
-0.019157132 -0.0063857138 0.74500012 1.9172074e-38
-0.017738095 -0.0063857213 0.74500012 1.9517062e-38
-0.016253334 -0.0063600168 0.7420001 1.960986e-38
-0.014840001 -0.0063600019 0.7420001 1.9783861e-38
-0.013390476 -0.0063428432 0.74000007 1.8674676e-38
-0.011980958 -0.0063428655 0.74000013 1.7555777e-38
-0.01057143 -0.0063428581 0.74000007 1.7647958e-38
-0.0091495104 -0.006334275 0.73900002 1.7746635e-38
-0.0077418927 -0.0063342899 0.73900002 1.3608322e-38
-0.006334275 -0.0063342825 0.73900002 9.5009283e-39
-0.0049266573 -0.006334275 0.73900002 1.5590862e-38
-0.0035190394 -0.0063342899 0.73900002 2.1762139e-38
-0.0021057094 -0.0063171312 0.73700011 2.0837687e-38
-0.00070190366 -0.0063171461 0.73700011 1.9804146e-38
0.00070191658 -0.0063171461 0.73700011 1.8425863e-38
0.0021057224 -0.0063171461 0.73700011 1.7066993e-38
0.0035095282 -0.0063171536 0.73700011 1.7971364e-38
0.0049133343 -0.0063171461 0.73700011 1.8858173e-38
0.0063171498 -0.0063171312 0.73700005 2.1094175e-38
0.0077209705 -0.0063171387 0.73700005 2.3417687e-38
0.0091247763 -0.0063171387 0.73700005 2.1947963e-38
0.010528583 -0.0063171387 0.73700005 2.0477455e-38
0.011964769 -0.0063342825 0.73900002 1.3722459e-38
0.013336195 -0.0063171387 0.73700005 7.1243583e-39
0.014780005 -0.0063342825 0.73900002 1.5234645e-38
0.016187623 -0.0063342899 0.73900008 2.341769e-38
0.017619042 -0.0063428581 0.74000007 2.3325854e-38
0.019028571 -0.0063428655 0.74000007 2.332578e-38
0.020493342 -0.0063600242 0.7420001 1.712932e-38
0.021936202 -0.0063685626 0.74300003 1.0954424e-38
0.023351429 -0.00636857 0.74300009 1.2157576e-38
0.024833344 -0.0063857138 0.74500012 1.3354676e-38
0.026322858 -0.0064028427 0.74700004 1.2253017e-38
0.027745724 -0.0064028502 0.7470001 1.1242817e-38
0.029168585 -0.0064028576 0.7470001 1.0691435e-38
0.030632393 -0.0064114407 0.74800009 1.0138614e-38
0.032142855 -0.006428577 0.75000012 9.7723346e-39
0.03357143 -0.0064285845 0.75000012 9.498256e-39
0.035000011 -0.0064285696 0.75000012 9.5882909e-39
-0.030960001 -0.0050399899 0.7560001 1.3451934e-38
-0.029402856 -0.00502 0.75300002 1.4745554e-38
-0.027968565 -0.0050199926 0.75300002 1.4847106e-38
-0.026534284 -0.0050200075 0.75300002 1.4832024e-38
-0.025066664 -0.0050133392 0.75200009 1.3794913e-38
-0.023571426 -0.0050000027 0.75000012 1.2699328e-38
-0.022083802 -0.0049866661 0.74800003 1.5263171e-38
-0.020631423 -0.0049799979 0.7470001 1.7779043e-38
-0.019208562 -0.0049799904 0.74700004 1.9457993e-38
-0.017738095 -0.0049666539 0.74500012 2.1104159e-38
-0.016253328 -0.004946664 0.7420001 2.1289567e-38
-0.014840006 -0.0049466863 0.7420001 2.1461744e-38
-0.013390473 -0.0049333349 0.74000007 1.9519192e-38
-0.011980964 -0.0049333423 0.74000013 1.7473301e-38
-0.010571433 -0.0049333349 0.74000007 1.7742309e-38
-0.0091495216 -0.0049266741 0.73900008 1.8016031e-38
-0.0077418932 -0.0049266592 0.73900002 1.258196e-38
-0.0063342755 -0.0049266517 0.73900002 7.1917552e-39
-0.0049266578 -0.0049266592 0.73900002 1.4294047e-38
-0.0035190398 -0.0049266592 0.73900002 2.1296863e-38
-0.0021057024 -0.0049133301 0.73700005 2.0846296e-38
-0.00070189714 -0.0049133301 0.73700011 2.0367723e-38
0.00070190913 -0.0049133226 0.73700011 1.8232524e-38
0.0021057294 -0.0049133301 0.73700011 1.6047132e-38
0.0035095355 -0.0049133375 0.73700011 1.7802414e-38
0.0049133408 -0.0049133301 0.73700011 1.9536544e-38
0.0063171471 -0.0049133375 0.73700011 2.1489142e-38
0.0077209524 -0.0049133301 0.73700011 2.3417686e-38
0.0091495225 -0.0049266741 0.73900008 2.0478949e-38
0.01055715 -0.0049266517 0.73900002 1.741064e-38
0.011964768 -0.0049266666 0.73900002 1.3420029e-38
0.013372386 -0.0049266592 0.73900002 9.5135078e-39
0.014780004 -0.0049266592 0.73900002 1.6530028e-38
0.016187621 -0.0049266592 0.73900002 2.341769e-38
0.017619045 -0.0049333423 0.74000007 2.3325854e-38
0.019028572 -0.0049333349 0.74000007 2.3124159e-38
0.020493345 -0.0049466789 0.7420001 1.7112433e-38
0.021906661 -0.0049466714 0.7420001 1.1143834e-38
0.023351427 -0.0049533471 0.74300009 1.2160834e-38
0.024833346 -0.0049666613 0.74500012 1.3079545e-38
0.026322866 -0.0049799979 0.74700004 1.2346653e-38
0.027745727 -0.0049799904 0.74700004 1.1610876e-38
0.029168578 -0.0049800053 0.74700004 1.08751e-38
0.030632399 -0.0049866661 0.74800003 1.0139689e-38
0.032142859 -0.0050000101 0.75000012 9.9560098e-39
0.033660971 -0.0050133392 0.75200003 9.7723248e-39
0.035093341 -0.0050133467 0.75200009 9.6797592e-39
-0.030919043 -0.0035952479 0.75500011 1.3177483e-38
-0.029402854 -0.0035857037 0.75300002 1.4004759e-38
-0.027968565 -0.0035857111 0.75300002 1.539632e-38
-0.026534276 -0.0035857111 0.75300002 1.6685223e-38
-0.025066668 -0.0035809577 0.75200009 1.5847559e-38
-0.023571432 -0.0035714433 0.75000012 1.4925587e-38
-0.022083806 -0.003561914 0.74800003 1.555011e-38
-0.020631423 -0.0035571456 0.7470001 1.6307146e-38
-0.019208563 -0.0035571307 0.74700004 1.9272537e-38
-0.017738087 -0.0035476163 0.74500012 2.222347e-38
-0.016275233 -0.003538087 0.74300009 2.2035134e-38
-0.014839994 -0.003533341 0.7420001 2.1947917e-38
-0.01342666 -0.0035333484 0.74200004 1.9613958e-38
-0.01198096 -0.0035238117 0.74000013 1.7371094e-38
-0.01057143 -0.0035238117 0.74000007 1.7833071e-38
-0.00916191 -0.0035238117 0.74000007 1.8298699e-38
-0.0077419048 -0.0035190508 0.73900008 1.3971302e-38
-0.0063342764 -0.0035190359 0.73900002 9.5636799e-39
-0.0049266587 -0.0035190284 0.73900002 1.4934027e-38
-0.0035190408 -0.0035190508 0.73900002 2.0387119e-38
-0.0021057136 -0.0035095215 0.73700011 2.0478237e-38
-0.0007019004 -0.0035095215 0.73700011 2.0659741e-38
0.00070191565 -0.003509514 0.73700005 1.7878115e-38
0.002105722 -0.003509514 0.73700005 1.5219552e-38
0.0035095422 -0.003509514 0.73700005 1.8348417e-38
0.0049133482 -0.0035095215 0.73700005 2.1465456e-38
0.0063171536 -0.0035095215 0.73700005 2.2493595e-38
0.0077209598 -0.003509514 0.73700005 2.3417684e-38
0.0091247661 -0.0035095215 0.73700005 1.6135052e-38
0.010557154 -0.0035190508 0.73900008 8.836923e-39
0.011964782 -0.0035190359 0.73900002 1.0125413e-38
0.0133724 -0.0035190359 0.73900002 1.1448142e-38
0.014799999 -0.0035238042 0.74000007 1.7440849e-38
0.016209528 -0.0035238117 0.74000007 2.341769e-38
0.017666673 -0.0035333484 0.7420001 2.2588301e-38
0.01908 -0.003533341 0.7420001 2.1660516e-38
0.020493342 -0.0035333335 0.7420001 1.6574306e-38
0.021906666 -0.003533341 0.7420001 1.1511178e-38
0.023351435 -0.0035380945 0.74300009 1.2250186e-38
0.024833346 -0.0035476163 0.74500006 1.2894816e-38
0.026322873 -0.0035571307 0.74700004 1.2253747e-38
0.027745733 -0.0035571381 0.74700004 1.1519399e-38
0.029207632 -0.0035619065 0.74800003 1.087617e-38
0.0307143 -0.0035714284 0.75000012 1.0232241e-38
0.032228578 -0.0035809577 0.75200009 9.9556539e-39
0.033705719 -0.0035857111 0.75300002 9.7708885e-39
0.035140008 -0.0035857186 0.75300008 9.6790333e-39
0.036720019 -0.0036000013 0.75600004 9.5875622e-39
-0.030919032 -0.0021571293 0.75500005 1.2901625e-38
-0.029402854 -0.0021514297 0.75300002 1.3274385e-38
-0.027968565 -0.0021514148 0.75300002 1.5955591e-38
-0.026534293 -0.0021514371 0.75300008 1.8526622e-38
-0.025066663 -0.0021485761 0.75200003 1.7892379e-38
-0.023571419 -0.0021428615 0.75000012 1.7123915e-38
-0.022083802 -0.0021371543 0.74800009 1.5888023e-38
-0.020659031 -0.002137132 0.74800003 1.4737323e-38
-0.019208563 -0.0021342859 0.74700004 1.9009222e-38
-0.017738087 -0.0021285638 0.74500006 2.3231848e-38
-0.016275242 -0.0021228567 0.74300009 2.2771223e-38
-0.014859989 -0.0021228641 0.74300003 2.2292276e-38
-0.013426667 -0.0021200031 0.7420001 1.9801558e-38
-0.012013325 -0.0021199957 0.7420001 1.7287147e-38
-0.010571437 -0.0021142885 0.74000007 1.7920612e-38
-0.0091619082 -0.0021142811 0.74000007 1.8570992e-38
-0.0077523794 -0.0021142736 0.74000007 1.5257738e-38
-0.0063428604 -0.0021142885 0.74000013 1.1965039e-38
-0.0049333395 -0.0021142811 0.74000007 1.5675153e-38
-0.0035238096 -0.0021142736 0.74000007 1.9366518e-38
-0.0021057057 -0.0021057203 0.73700011 2.0111612e-38
-0.0007019004 -0.0021057203 0.73700011 2.0831906e-38
0.00070191285 -0.0021057054 0.73700011 1.758462e-38
0.0021114366 -0.0021114349 0.73900008 1.4301534e-38
0.0035095245 -0.0021057203 0.73700011 1.8906617e-38
0.0049133445 -0.0021057129 0.73700011 2.3409075e-38
0.0063171508 -0.0021057129 0.73700011 2.341769e-38
0.0077209561 -0.0021057278 0.73700011 2.3407626e-38
0.0091495346 -0.0021114275 0.73900002 1.1805841e-38
0.010557152 -0.00211142 0.73900008 2.0188507e-40
0.011980943 -0.0021142885 0.74000013 6.7045882e-39
0.013390472 -0.0021142811 0.74000007 1.3282364e-38
0.014800002 -0.0021142811 0.74000007 1.8366738e-38
0.01620953 -0.0021142885 0.74000007 2.341769e-38
0.017666679 -0.0021199957 0.7420001 2.1856487e-38
0.019079994 -0.002120018 0.7420001 2.0175354e-38
0.020493336 -0.0021200106 0.7420001 1.6012511e-38
0.021906676 -0.0021200031 0.7420001 1.1881377e-38
0.023351433 -0.0021228641 0.74300009 1.23413e-38
0.024900006 -0.0021342933 0.7470001 1.2711498e-38
0.026322866 -0.0021342784 0.74700004 1.206971e-38
0.027782882 -0.0021371469 0.74800003 1.1428643e-38
0.029207628 -0.0021371394 0.74800003 1.0878333e-38
0.030714286 -0.0021428689 0.75000012 1.0231165e-38
0.032228582 -0.0021485686 0.75200009 1.0046401e-38
0.033660952 -0.0021485835 0.75200009 9.7701458e-39
0.03514 -0.0021514222 0.75300008 9.6779207e-39
0.036720008 -0.0021599978 0.75600004 9.4942665e-39
0.038160015 -0.0021599978 0.75600004 9.3095376e-39
-0.029480949 -0.00071903318 0.75500005 1.3266142e-38
-0.028042847 -0.00071904063 0.75500005 1.5394539e-38
-0.026604753 -0.00071903318 0.75500005 1.751251e-38
-0.025066668 -0.00071620196 0.75200009 1.6126742e-38
-0.02357143 -0.00071429461 0.75000012 1.4738002e-38
-0.022142859 -0.00071428716 0.75000012 1.4345102e-38
-0.020659035 -0.00071238726 0.74800003 1.3988999e-38
-0.019234274 -0.00071237236 0.74800003 1.8349149e-38
-0.017738091 -0.00070951879 0.74500012 2.2679025e-38
-0.016275233 -0.00070761889 0.74300003 2.0821842e-38
-0.01486 -0.00070762634 0.74300009 1.9046442e-38
-0.013444765 -0.00070761889 0.74300009 1.7932544e-38
-0.012013331 -0.00070668012 0.7420001 1.6901505e-38
-0.010599998 -0.00070667267 0.7420001 1.7741254e-38
-0.0091619045 -0.00070475042 0.74000007 1.8582128e-38
-0.0077523761 -0.00070475787 0.74000007 1.6090738e-38
-0.0063428655 -0.00070476532 0.74000013 1.3515842e-38
-0.0049333363 -0.00070475787 0.74000007 1.5655407e-38
-0.0035238073 -0.00070476532 0.74000007 1.789463e-38
-0.0021114175 -0.00070379674 0.73900002 1.9647412e-38
-0.00070379983 -0.00070381165 0.73900002 2.1481185e-38
0.00070191984 -0.00070189685 0.73700005 1.9081557e-38
0.0021057257 -0.00070189685 0.73700005 1.6698923e-38
0.0035095313 -0.0007019043 0.73700005 2.0013319e-38
0.0049133371 -0.00070189685 0.73700005 2.341769e-38
0.0063171578 -0.0007019043 0.73700005 2.2683006e-38
0.0077209636 -0.0007019043 0.73700011 2.1856453e-38
0.0091495346 -0.00070381165 0.73900002 1.0964226e-38
0.010557152 -0.00070381165 0.73900008 1.8431559e-40
0.011980947 -0.00070476532 0.74000013 8.0168776e-39
0.013390476 -0.00070475787 0.74000007 1.59675e-38
0.014800005 -0.00070476532 0.74000007 1.97414e-38
0.016253332 -0.00070668012 0.7420001 2.341769e-38
0.017666673 -0.00070668012 0.7420001 2.0744057e-38
0.019080015 -0.00070667267 0.7420001 1.8049855e-38
0.020520963 -0.00070761889 0.74300009 1.51892e-38
0.021995246 -0.00070952624 0.74500012 1.2344129e-38
0.023477161 -0.00071141869 0.74700004 1.2712225e-38
0.024900012 -0.00071142614 0.7470001 1.3080987e-38
0.026358115 -0.00071238726 0.74800003 1.2255527e-38
0.027782878 -0.00071237981 0.74800003 1.133932e-38
0.029207638 -0.00071237981 0.74800003 1.078328e-38
0.0307143 -0.00071428716 0.75000012 1.0227217e-38
0.032228574 -0.00071617961 0.75200003 1.0044953e-38
0.033705711 -0.00071715564 0.75300008 9.86124e-39
0.035233337 -0.00071905553 0.75500005 9.6778843e-39
0.036720019 -0.00071999431 0.75600004 9.4935252e-39
0.038160019 -0.00072000176 0.75600004 9.3102424e-39
-0.029480949 0.00071906298 0.75500005 1.3179684e-38
-0.028042847 0.00071906298 0.75500005 1.484421e-38
-0.026604753 0.00071905553 0.75500005 1.6493291e-38
-0.025099995 0.00071713328 0.75300008 1.4363487e-38
-0.023634292 0.00071617961 0.75200009 1.2235061e-38
-0.022201903 0.00071619451 0.75200009 1.2673723e-38
-0.020714285 0.00071427971 0.75000012 1.3164599e-38
-0.019234279 0.00071237981 0.74800003 1.7626643e-38
-0.017785713 0.00071144104 0.7470001 2.2026108e-38
-0.01631904 0.00070954114 0.74500006 1.8882148e-38
-0.01486 0.00070761144 0.74300009 1.5733143e-38
-0.013444757 0.00070761889 0.74300009 1.616357e-38
-0.012029523 0.00070761144 0.74300009 1.654094e-38
-0.010600002 0.00070665777 0.7420001 1.7561158e-38
-0.0091866627 0.00070666522 0.7420001 1.857458e-38
-0.0077523813 0.00070476532 0.74000007 1.682397e-38
-0.0063428627 0.00070475787 0.74000013 1.5077027e-38
-0.0049333344 0.00070475042 0.74000007 1.5718885e-38
-0.0035238119 0.00070476532 0.74000007 1.6322298e-38
-0.0021114189 0.0007038191 0.73900002 1.9285093e-38
-0.00070380076 0.00070381165 0.73900002 2.2126218e-38
0.00070191658 0.00070189685 0.73700011 2.0561392e-38
0.0021057224 0.0007019043 0.73700011 1.8999865e-38
0.0035095285 0.0007019043 0.73700011 2.1213638e-38
0.0049133338 0.00070189685 0.73700011 2.341769e-38
0.0063171391 0.0007019043 0.73700011 2.1856487e-38
0.0077209705 0.00070191175 0.73700005 2.0261147e-38
0.0091495337 0.00070381165 0.73900002 1.0194343e-38
0.01057143 0.00070476532 0.74000007 1.0251759e-40
0.012013329 0.00070665777 0.7420001 9.3940807e-39
0.013390478 0.00070475787 0.74000007 1.862321e-38
0.014840011 0.00070665777 0.7420001 2.1029967e-38
0.016253328 0.00070665032 0.7420001 2.3417679e-38
0.017666668 0.00070665777 0.7420001 1.9743889e-38
0.019105719 0.00070761889 0.74300009 1.5929019e-38
0.020520946 0.00070761889 0.74300009 1.435013e-38
0.021936199 0.00070761889 0.74300009 1.2709316e-38
0.023477154 0.00071142614 0.74700004 1.3082068e-38
0.024900004 0.00071143359 0.7470001 1.3449398e-38
0.026358109 0.00071238726 0.74800003 1.2348794e-38
0.027782872 0.00071237981 0.74800003 1.1244972e-38
0.029207634 0.00071237236 0.74800003 1.0687497e-38
0.030714286 0.00071427971 0.75000012 1.0136821e-38
0.032228582 0.00071617961 0.75200009 1.0044245e-38
0.033795245 0.00071904808 0.75500011 9.9534776e-39
0.035233337 0.00071905553 0.75500011 9.6786816e-39
0.036720008 0.00072000176 0.75600004 9.4028164e-39
0.038160004 0.00071999431 0.7560001 9.4020989e-39
-0.029519998 0.0021599904 0.7560001 1.3821454e-38
-0.028079992 0.0021599978 0.75600004 1.5207929e-38
-0.026604753 0.0021571368 0.75500005 1.6681567e-38
-0.025099995 0.0021514371 0.75300002 1.5007685e-38
-0.023634288 0.0021485612 0.75200009 1.3317649e-38
-0.022201909 0.0021485612 0.75200009 1.3319754e-38
-0.02071429 0.0021428391 0.75000012 1.3328508e-38
-0.019285714 0.002142854 0.75000012 1.787953e-38
-0.017785713 0.0021342859 0.7470001 2.2395579e-38
-0.016319042 0.0021285638 0.74500012 2.0541975e-38
-0.014899987 0.0021285713 0.74500006 1.8667169e-38
-0.013444759 0.0021228418 0.74300009 1.7833046e-38
-0.012029516 0.0021228567 0.74300003 1.7006535e-38
-0.010614281 0.0021228641 0.74300009 1.7745174e-38
-0.0091866674 0.0021199808 0.7420001 1.8575999e-38
-0.0077733272 0.0021199882 0.7420001 1.7100893e-38
-0.0063428604 0.002114296 0.74000013 1.5718782e-38
-0.0049333386 0.0021142811 0.74000007 1.5281213e-38
-0.0035238096 0.0021142885 0.74000007 1.4778304e-38
-0.0021114193 0.0021114424 0.73900002 1.6522494e-38
-0.00070380216 0.0021114275 0.73900002 1.8360636e-38
0.00070190866 0.0021057203 0.73700011 1.6054343e-38
0.0021057294 0.0021057203 0.73700011 1.3760252e-38
0.0035095352 0.0021057054 0.73700011 1.8176251e-38
0.0049133408 0.0021057203 0.73700011 2.2591171e-38
0.0063342862 0.0021114349 0.73900008 1.8443146e-38
0.0077209524 0.0021057054 0.73700011 1.4371456e-38
0.0091495328 0.0021114349 0.73900002 7.1780757e-39
0.010571433 0.002114296 0.74000007 1.0573918e-40
0.012013339 0.0021199808 0.7420001 1.0422237e-38
0.013390481 0.0021142811 0.74000007 2.0662619e-38
0.014840005 0.0021199957 0.7420001 2.2040158e-38
0.016253332 0.0021199957 0.7420001 2.3417668e-38
0.017666673 0.0021199957 0.74200004 1.8152888e-38
0.019105727 0.0021228641 0.74300003 1.2949379e-38
0.020520953 0.0021228492 0.74300009 1.315699e-38
0.021936195 0.0021228492 0.74300009 1.3449019e-38
0.023477161 0.0021343008 0.74700004 1.3357205e-38
0.02490001 0.0021342784 0.7470001 1.3356479e-38
0.026358105 0.0021371469 0.74800003 1.2623222e-38
0.027782869 0.0021371394 0.74800003 1.1889252e-38
0.029285716 0.0021428466 0.75000012 1.0967307e-38
0.030796204 0.0021485686 0.75200003 1.0047501e-38
0.032228574 0.0021485686 0.75200009 9.8623764e-39
0.033705711 0.0021514371 0.75300008 9.770569e-39
0.035233337 0.0021571368 0.75500011 9.4028949e-39
0.036817133 0.002165705 0.75800008 8.9447656e-39
0.03826094 0.002165705 0.75800008 9.1273309e-39
-0.02951999 0.0036000013 0.75600004 1.4377126e-38
-0.028079998 0.0036000013 0.75600004 1.5576367e-38
-0.026604759 0.0035952479 0.75500011 1.6773089e-38
-0.025099993 0.0035857186 0.75300002 1.557599e-38
-0.023634283 0.0035809427 0.75200009 1.4350113e-38
-0.022201905 0.0035809427 0.75200009 1.386753e-38
-0.020714285 0.0035714209 0.75000012 1.3438276e-38
-0.019285712 0.0035714209 0.75000012 1.8075399e-38
-0.017809518 0.0035618991 0.74800009 2.2675037e-38
-0.016319044 0.0035476163 0.74500012 2.2222287e-38
-0.014899996 0.0035476163 0.74500012 2.1631744e-38
-0.013480947 0.0035476163 0.74500012 1.9494346e-38
-0.012029523 0.003538087 0.74300009 1.737316e-38
-0.010614291 0.0035380945 0.74300009 1.7928835e-38
-0.0091866627 0.0035333335 0.7420001 1.8479495e-38
-0.0077733328 0.0035333261 0.7420001 1.7468235e-38
-0.0063599991 0.0035333261 0.7420001 1.6369498e-38
-0.0049333367 0.0035238117 0.74000007 1.4816248e-38
-0.0035238077 0.0035238117 0.74000007 1.3188368e-38
-0.0021114235 0.0035190433 0.73900008 1.3848842e-38
-0.00070380309 0.0035190582 0.73900002 1.4472661e-38
0.00070191611 0.0035095215 0.73700005 1.1534626e-38
0.0021057215 0.0035095289 0.73700005 8.5022733e-39
0.0035095422 0.0035095364 0.73700005 1.5139913e-38
0.0049133478 0.0035095289 0.73700005 2.1756013e-38
0.0063342857 0.0035190508 0.73900008 1.5136323e-38
0.0077419137 0.0035190582 0.73900002 8.3874173e-39
0.0091495318 0.0035190508 0.73900002 4.2249723e-39
0.010571435 0.0035238191 0.74000007 1.0752584e-40
0.012013344 0.0035333335 0.7420001 1.1434227e-38
0.013426675 0.0035333261 0.7420001 2.2671883e-38
0.01484 0.0035333186 0.7420001 2.3050348e-38
0.016275248 0.003538087 0.74300009 2.3410134e-38
0.017690483 0.0035381019 0.74300003 1.6683878e-38
0.019105725 0.0035381019 0.74300009 9.9421299e-39
0.020520952 0.003538087 0.74300009 1.2063582e-38
0.021995248 0.0035476312 0.74500006 1.4090439e-38
0.023477152 0.003557153 0.74700004 1.3633072e-38
0.024900002 0.0035571456 0.7470001 1.3173171e-38
0.0263581 0.0035619065 0.74800003 1.2805823e-38
0.027782863 0.0035618916 0.74800003 1.2439188e-38
0.029285727 0.0035714209 0.75000012 1.1152405e-38
0.030796198 0.0035809427 0.75200009 9.8641757e-39
0.032228578 0.0035809427 0.75200009 9.7712444e-39
0.033795256 0.0035952479 0.75500005 9.5861343e-39
0.035233349 0.0035952404 0.75500005 9.0340409e-39
0.036720019 0.0035999864 0.7560001 8.4841013e-39
0.038160007 0.0036000013 0.75600004 8.9436347e-39
-0.029598106 0.005053319 0.75800008 1.3730686e-38
-0.028154287 0.0050533265 0.75800008 1.4470413e-38
-0.026639996 0.0050400048 0.75600004 1.5309148e-38
-0.025166666 0.0050333366 0.75500011 1.4745596e-38
-0.023665702 0.0050200075 0.75300002 1.4271223e-38
-0.022201907 0.0050133243 0.75200009 1.3704656e-38
-0.020769522 0.0050133243 0.75200009 1.3165276e-38
-0.019285707 0.0050000027 0.75000012 1.6495901e-38
-0.017809512 0.004986681 0.74800003 1.9924641e-38
-0.016362853 0.0049800053 0.74700004 1.944786e-38
-0.014899996 0.0049666613 0.74500012 1.8979286e-38
-0.01348094 0.0049666762 0.74500006 1.7929922e-38
-0.012029516 0.0049533397 0.74300003 1.6899274e-38
-0.010614282 0.0049533397 0.74300009 1.8011333e-38
-0.0091990475 0.0049533248 0.74300009 1.9118393e-38
-0.0077733286 0.0049466565 0.7420001 1.9038405e-38
-0.0063600056 0.0049466491 0.7420001 1.8943379e-38
-0.0049333335 0.0049333423 0.74000007 1.4819069e-38
-0.0035238124 0.0049333349 0.74000007 1.0687611e-38
-0.0021057066 0.0049133375 0.73700011 8.9363409e-39
-0.00070378865 0.0049266815 0.73900002 7.2588774e-39
0.00070191239 0.0049133301 0.73700011 5.8013154e-39
0.0021114319 0.0049266666 0.73900002 4.4112511e-39
0.0035190496 0.0049266666 0.73900002 1.2823909e-38
0.0049266671 0.0049266741 0.73900002 2.1300037e-38
0.0063342848 0.0049266592 0.73900008 1.5673675e-38
0.0077419025 0.0049266666 0.73900008 1.0010658e-38
0.0091619091 0.0049333349 0.74000007 5.0518309e-39
0.010571424 0.0049333349 0.74000007 9.3528265e-41
0.012029534 0.0049533397 0.74300003 1.1626872e-38
0.013426678 0.004946664 0.7420001 2.3050348e-38
0.014840005 0.0049466714 0.74200004 2.3234019e-38
0.01627524 0.0049533322 0.74300003 2.3417666e-38
0.017690482 0.0049533397 0.74300009 1.6578409e-38
0.019105708 0.0049533173 0.74300009 9.7351441e-39
0.0205762 0.0049666762 0.74500006 1.1783421e-38
0.021995237 0.0049666613 0.74500012 1.3818165e-38
0.023477158 0.0049799979 0.74700004 1.3449043e-38
0.02490001 0.0049799979 0.7470001 1.3080622e-38
0.026358096 0.0049866512 0.74800003 1.2530681e-38
0.027782859 0.0049866587 0.74800009 1.2071844e-38
0.029285716 0.0049999952 0.75000012 1.1060918e-38
0.030837152 0.0050200075 0.75300008 1.0047118e-38
0.032357149 0.0050333291 0.75500005 9.7705129e-39
0.033795256 0.005033344 0.75500005 9.585372e-39
0.035233349 0.005033344 0.75500005 9.2183523e-39
0.036720019 0.0050400048 0.75600004 8.9425095e-39
0.038160011 0.0050399899 0.7560001 9.1269203e-39
-0.029598098 0.0064971372 0.75800008 1.2986982e-38
-0.028154289 0.0064971447 0.75800002 1.3449378e-38
-0.02664 0.0064800009 0.7560001 1.3823193e-38
-0.025166666 0.0064714253 0.75500011 1.4008671e-38
-0.023728572 0.0064714476 0.75500011 1.4076782e-38
-0.022231432 0.006454289 0.75300008 1.3423479e-38
-0.020769523 0.0064457133 0.75200009 1.2788218e-38
-0.019337146 0.0064457133 0.75200009 1.4909814e-38
-0.017809508 0.0064114332 0.74800003 1.7037123e-38
-0.016362848 0.0064028651 0.74700004 1.6665142e-38
-0.014899997 0.0063857213 0.74500012 1.6288421e-38
-0.01348095 0.0063857213 0.74500012 1.6347202e-38
-0.012061894 0.0063857138 0.74500006 1.645554e-38
-0.010614283 0.0063685626 0.74300009 1.8099255e-38
-0.0091990381 0.00636857 0.74300009 1.9690633e-38
-0.0077838055 0.0063685775 0.74300009 2.0623019e-38
-0.006359993 0.0063599944 0.7420001 2.1448459e-38
-0.0049466598 0.0063599944 0.7420001 1.4829127e-38
-0.0035238105 0.0063428581 0.74000007 8.1093801e-39
-0.0021114254 0.0063342899 0.73900008 4.1332181e-39
-0.0007038003 0.0063342825 0.73900008 1.0215045e-40
0.00070382765 0.0063342899 0.73900002 1.8430718e-40
0.0021114454 0.0063342974 0.73900002 3.0953002e-40
0.0035190629 0.0063342974 0.73900002 1.0627418e-38
0.0049266801 0.0063342825 0.73900002 2.0836934e-38
0.0063342988 0.0063342974 0.73900002 1.6339858e-38
0.0077523678 0.0063428506 0.74000013 1.1685941e-38
0.009161897 0.0063428506 0.74000007 5.8779818e-39
0.010599992 0.0063599795 0.7420001 1.2042899e-40
0.012013333 0.006359987 0.7420001 1.1837449e-38
0.013426674 0.0063599944 0.7420001 2.3415538e-38
0.014839999 0.0063599944 0.7420001 2.341769e-38
0.016275236 0.0063685626 0.74300009 2.340365e-38
0.017690489 0.0063685775 0.74300003 1.6477196e-38
0.019105716 0.00636857 0.74300009 9.5754872e-39
0.0205762 0.0063857213 0.74500006 1.1608726e-38
0.021995252 0.0063857138 0.74500012 1.3539797e-38
0.023477152 0.0064028725 0.74700004 1.3264665e-38
0.024900012 0.0064028651 0.74700004 1.2989515e-38
0.026358107 0.0064114258 0.74800009 1.2347382e-38
0.027782878 0.0064114407 0.74800003 1.1613403e-38
0.029285727 0.0064285621 0.75000012 1.0971618e-38
0.030796193 0.0064457059 0.75200009 1.023366e-38
0.032228578 0.0064457133 0.75200009 9.8619701e-39
0.033795252 0.0064714327 0.75500005 9.4946183e-39
0.035233349 0.0064714402 0.75500005 9.4949672e-39
0.036671441 0.0064714327 0.75500005 9.40278e-39
0.038160011 0.0064800009 0.75600004 9.4027884e-39
0.039600004 0.0064800084 0.75600004 9.3109431e-39
-0.026639994 0.007919997 0.75600004 1.3718716e-38
-0.025199998 0.007919997 0.75600004 1.4081047e-38
-0.023728563 0.0079095438 0.75500005 1.4327884e-38
-0.02223143 0.0078885704 0.75300008 1.4345133e-38
-0.02076952 0.0078780949 0.75200003 1.4337193e-38
-0.019337142 0.0078780949 0.75200009 1.5826961e-38
-0.017809512 0.0078361928 0.74800003 1.7383218e-38
-0.016362853 0.0078257248 0.74700004 1.7581673e-38
-0.014939994 0.0078257248 0.74700004 1.784495e-38
-0.013480943 0.0078047663 0.74500012 1.849781e-38
-0.012061894 0.0078047737 0.74500006 1.9252238e-38
-0.010642854 0.0078047588 0.74500012 1.9889719e-38
-0.0091990493 0.0077838078 0.74300009 2.0645999e-38
-0.007783805 0.0077838153 0.74300003 2.137573e-38
-0.006368571 0.0077838078 0.74300009 2.2122212e-38
-0.004953336 0.0077838078 0.74300009 1.7874062e-38
-0.0035333235 0.0077733248 0.7420001 1.3715272e-38
-0.0021142859 0.0077523962 0.74000007 1.2067248e-38
-0.00070476747 0.0077523738 0.74000007 1.0504657e-38
0.00070381648 0.0077419132 0.73900008 1.0608019e-38
0.0021114449 0.0077419132 0.73900002 1.0718895e-38
0.0035190624 0.0077419057 0.73900002 1.4953758e-38
0.0049333372 0.0077523738 0.74000007 1.928508e-38
0.0063428516 0.0077523887 0.74000007 1.3372439e-38
0.0077523701 0.0077523664 0.74000013 7.4442916e-39
0.0091866711 0.0077733323 0.7420001 6.5294301e-39
0.010600012 0.0077733323 0.7420001 5.723825e-39
0.01202954 0.0077838153 0.74300003 1.4583904e-38
0.013426668 0.0077733174 0.7420001 2.341769e-38
0.01486001 0.0077838004 0.74300009 2.2406782e-38
0.016275246 0.0077838153 0.74300003 2.1394006e-38
0.017690487 0.0077838078 0.74300009 1.5650983e-38
0.019105714 0.0077838078 0.74300009 9.9402956e-39
0.020576203 0.0078047588 0.74500012 1.1696982e-38
0.022054298 0.0078257024 0.7470001 1.3447254e-38
0.023477158 0.0078257248 0.74700004 1.3264316e-38
0.02493334 0.0078361854 0.74800009 1.2989527e-38
0.026358113 0.0078362003 0.74800003 1.2440306e-38
0.027857158 0.0078571364 0.75000012 1.198148e-38
0.029285716 0.0078571364 0.75000012 1.1247148e-38
0.030796196 0.0078780949 0.75200003 1.0604592e-38
0.032357145 0.0079095289 0.75500005 1.0139967e-38
0.033795256 0.0079095289 0.75500005 9.5875356e-39
0.035280012 0.0079200044 0.75600004 9.4953581e-39
0.036720008 0.007919997 0.7560001 9.4027982e-39
-0.026639989 0.0093600005 0.75600004 1.3630174e-38
-0.025199996 0.009359993 0.7560001 1.4177608e-38
-0.023728561 0.0093476251 0.75500005 1.4635731e-38
-0.022290466 0.0093476325 0.75500005 1.5292236e-38
-0.020797139 0.0093228593 0.75300002 1.5838568e-38
-0.019337136 0.009310469 0.75200009 1.686094e-38
-0.017809518 0.0092609525 0.74800003 1.7777186e-38
-0.016362848 0.0092485696 0.74700004 1.8617024e-38
-0.014899999 0.0092238188 0.74500012 1.9342724e-38
-0.013480943 0.0092238188 0.74500012 2.063845e-38
-0.012061904 0.0092238039 0.74500012 2.1924154e-38
-0.010614285 0.0091990381 0.74300009 2.1744435e-38
-0.0092238002 0.0092238113 0.74500012 2.1471125e-38
-0.0077838073 0.0091990381 0.74300009 2.2111866e-38
-0.0063685728 0.0091990456 0.74300009 2.2761507e-38
-0.004953329 0.009199053 0.74300003 2.1013023e-38
-0.0035333296 0.0091866627 0.7420001 1.9261338e-38
-0.0021142832 0.0091619045 0.74000007 2.0099341e-38
-0.00070476515 0.0091619045 0.74000007 2.0827592e-38
0.00070476363 0.0091619119 0.74000007 2.0931648e-38
0.0021142925 0.009161897 0.74000007 2.101523e-38
0.0035190615 0.009149529 0.73900002 1.9367569e-38
0.0049333251 0.0091619045 0.74000007 1.7692269e-38
0.0063600084 0.0091866553 0.7420001 1.0420745e-38
0.0077733388 0.0091866478 0.7420001 3.1348476e-39
0.0091866655 0.0091866553 0.7420001 7.2555661e-39
0.010600006 0.0091866553 0.7420001 1.1343756e-38
0.012029524 0.009199053 0.74300009 1.7448383e-38
0.013444765 0.0091990381 0.74300009 2.3417686e-38
0.014860002 0.0091990456 0.74300003 2.1397301e-38
0.016319063 0.0092238113 0.74500006 1.9337714e-38
