# .PCD v0.7 - Point Cloud Data file format
VERSION 0.7
FIELDS x y z rgb
SIZE 4 4 4 4
TYPE F F F F
COUNT 1 1 1 1
WIDTH 1000
HEIGHT 1
VIEWPOINT 0 0 0 1 0 0 0
POINTS 1000
DATA ascii
0.0049266899 0.037301913 0.73899996 2.341769e-38
0.0063342983 0.037301913 0.73899996 2.341769e-38
0.0077419328 0.03730192 0.73899996 2.341769e-38
0.0091495411 0.037301928 0.73899996 2.341769e-38
0.010557172 0.03730192 0.73899996 2.341769e-38
0.011980955 0.037352405 0.73999995 2.341769e-38
0.013390471 0.037352398 0.73999995 2.341769e-38
0.014839976 0.037453353 0.74200004 2.341769e-38
0.016253317 0.037453353 0.74199998 2.341769e-38
0.017666679 0.037453353 0.74199998 2.341769e-38
0.019105697 0.037503824 0.74299997 2.341769e-38
0.020493321 0.037453361 0.74199998 2.341769e-38
0.021906646 0.037453346 0.74199998 2.341769e-38
0.023351394 0.037503816 0.74299997 2.341769e-38
0.024766678 0.03750382 0.74299997 2.341769e-38
0.026181905 0.037503835 0.74299997 2.341769e-38
0.027597131 0.037503839 0.74299997 2.341769e-38
0.029090488 0.037604786 0.745 2.341769e-38
0.030591452 0.037705746 0.74699998 2.341769e-38
0.032057162 0.037756216 0.74799997 2.341769e-38
0.033481926 0.037756223 0.74799991 2.341769e-38
0.034906674 0.037756212 0.74799997 2.341769e-38
0.036331441 0.037756216 0.74799997 2.3415885e-38
0.03785716 0.037857167 0.75 2.1205724e-38
0.039442889 0.038008589 0.75299996 1.8996277e-38
0.04104 0.038160011 0.75600004 1.7890291e-38
0.042592373 0.038260978 0.75800002 1.6692123e-38
0.044210467 0.038412396 0.76099998 1.631904e-38
0.045780014 0.038513362 0.76299995 1.5952413e-38
0.047233362 0.038513348 0.76299995 1.5673316e-38
-0.034779988 0.040700018 0.77699995 1.3556346e-38
-0.032914277 0.040228598 0.76799995 1.4662009e-38
-0.031410459 0.040176213 0.76699996 1.5676553e-38
-0.029871399 0.040071461 0.76499999 1.67843e-38
-0.028339999 0.039966691 0.76299995 1.7335654e-38
-0.026780929 0.039809555 0.75999993 1.7982834e-38
-0.025266662 0.039704792 0.75799996 1.991858e-38
-0.023822859 0.039704796 0.75799996 2.1941115e-38
-0.022319993 0.039600015 0.75599998 2.0100819e-38
-0.02079712 0.039442874 0.75299996 1.8250822e-38
-0.019362856 0.039442882 0.75299996 1.8346231e-38
-0.017857157 0.039285738 0.75 1.8452443e-38
-0.016428562 0.039285734 0.75 1.9458712e-38
-0.014959993 0.039180975 0.74799997 2.0568267e-38
-0.013535229 0.039180972 0.74799997 2.0566111e-38
-0.012094259 0.03912859 0.74699998 2.0659031e-38
-0.010642861 0.03902382 0.745 2.2037288e-38
-0.0092237899 0.039023835 0.74499995 2.341769e-38
-0.0077838162 0.038919076 0.74299997 2.341769e-38
-0.0063685915 0.038919076 0.74299997 2.341769e-38
-0.0049533444 0.038919065 0.74299997 2.341769e-38
-0.0035381196 0.038919069 0.74299997 2.341769e-38
-0.0021199984 0.038866688 0.74199998 2.341769e-38
-0.00070667348 0.03886668 0.74199998 2.341769e-38
0.00070475519 0.038761925 0.73999995 2.341769e-38
0.0021142876 0.038761929 0.73999995 2.341769e-38
0.0035238052 0.038761918 0.73999995 2.341769e-38
0.0049333358 0.038761947 0.73999995 2.341769e-38
0.0063428534 0.038761932 0.73999995 2.341769e-38
0.0077418936 0.038709536 0.73899996 2.341769e-38
0.0091495262 0.038709529 0.73899996 2.341769e-38
0.010557133 0.038709529 0.73899996 2.341769e-38
0.011980948 0.038761921 0.73999995 2.341769e-38
0.013426664 0.03886668 0.74199998 2.341769e-38
0.014840005 0.038866699 0.74199998 2.341769e-38
0.01625333 0.038866695 0.74199998 2.341769e-38
0.01766667 0.038866699 0.74199998 2.341769e-38
0.019105695 0.038919069 0.74299997 2.341769e-38
0.020493334 0.038866691 0.74199998 2.341769e-38
0.021936169 0.03891908 0.74299997 2.341769e-38
0.023351414 0.038919073 0.74300003 2.341769e-38
0.024766637 0.038919069 0.74299997 2.341769e-38
0.026181864 0.038919073 0.74299997 2.341769e-38
0.02759715 0.038919073 0.74299997 2.341769e-38
0.029090503 0.039023843 0.74499995 2.341769e-38
0.030591469 0.039128594 0.74699998 2.341769e-38
0.032057166 0.039180987 0.74799991 2.341769e-38
0.033481915 0.039180983 0.74799997 2.341769e-38
0.034906678 0.039180979 0.74799997 2.341769e-38
0.036331441 0.039180987 0.74799997 2.3417676e-38
0.037857145 0.039285734 0.75 2.2034749e-38
0.03944286 0.039442878 0.75300002 2.0557131e-38
0.04104 0.039600011 0.75600004 1.8534599e-38
0.042592388 0.039704781 0.75799996 1.6607842e-38
0.044152394 0.039809551 0.75999993 1.6508466e-38
0.045660004 0.039861936 0.76099998 1.6510956e-38
0.047233377 0.039966699 0.76299995 1.6599899e-38
-0.034779966 0.04218002 0.77699995 1.3834724e-38
-0.033299986 0.04218002 0.77699995 1.447904e-38
-0.031410486 0.041637164 0.76699996 1.5675084e-38
-0.029793326 0.041420035 0.76299995 1.6781059e-38
-0.028228568 0.041257158 0.75999999 1.7057286e-38
-0.026780939 0.041257173 0.75999993 1.7340711e-38
-0.02526669 0.041148588 0.75799996 1.9551964e-38
-0.023822885 0.041148584 0.75800002 2.1758527e-38
-0.022319997 0.041040026 0.75599998 2.0011501e-38
-0.020852404 0.040985737 0.755 1.825908e-38
-0.019362824 0.040877171 0.75299996 1.7883116e-38
-0.017857114 0.040714316 0.75 1.7521521e-38
-0.016428581 0.040714309 0.75 1.8154332e-38
-0.01495999 0.040605742 0.74799997 1.8722932e-38
-0.013517107 0.040551458 0.74699998 1.8817648e-38
-0.012094266 0.040551458 0.74699998 1.8819087e-38
-0.010642824 0.040442884 0.745 2.1113543e-38
-0.0092237899 0.040442884 0.745 2.3415533e-38
-0.0078047579 0.040442884 0.745 2.341769e-38
-0.0063685728 0.04033431 0.74299997 2.341769e-38
-0.0049533481 0.04033431 0.74299997 2.341769e-38
-0.0035380991 0.040334307 0.74299997 2.341769e-38
-0.0021199873 0.040280025 0.74199998 2.341769e-38
-0.00070476427 0.040171456 0.73999995 2.341769e-38
0.00070667744 0.040280018 0.74199998 2.341769e-38
0.0021142839 0.040171448 0.73999995 2.341769e-38
0.0035238145 0.040171456 0.73999995 2.341769e-38
0.0049333302 0.040171456 0.73999995 2.341769e-38
0.0063599842 0.040280014 0.74199998 2.341769e-38
0.0077523803 0.040171459 0.73999995 2.341769e-38
0.0091619128 0.040171463 0.73999995 2.341769e-38
0.010571429 0.040171459 0.73999995 2.341769e-38
0.012013313 0.040280018 0.74200004 2.341769e-38
0.013426652 0.040280022 0.74199998 2.341769e-38
0.014840015 0.040280025 0.74199998 2.341769e-38
0.016253317 0.040280018 0.74199998 2.341769e-38
0.017666681 0.040280025 0.74199998 2.341769e-38
0.019105716 0.040334303 0.74299997 2.341769e-38
0.020520939 0.040334303 0.74299997 2.341769e-38
0.021936188 0.040334303 0.74299997 2.341769e-38
0.023351414 0.040334299 0.74299997 2.341769e-38
0.024766637 0.040334292 0.74299997 2.341769e-38
0.026181886 0.040334295 0.74299997 2.341769e-38
0.027597113 0.040334292 0.74299997 2.341769e-38
0.029090503 0.04044288 0.745 2.341769e-38
0.03063239 0.040605728 0.74799997 2.341769e-38
0.032057155 0.040605728 0.74799997 2.341769e-38
0.033481918 0.040605739 0.74799997 2.341769e-38
0.034906704 0.040605731 0.74799997 2.341769e-38
0.036428574 0.040714305 0.75 2.3417683e-38
0.037857149 0.040714305 0.75 2.2774827e-38
0.039547604 0.04098573 0.755 2.2123e-38
0.041039992 0.041040007 0.75599998 1.9267121e-38
0.042592362 0.041148596 0.75800002 1.6417352e-38
0.044152431 0.041257177 0.75999999 1.6780032e-38
0.04566 0.04131145 0.76099992 1.7061623e-38
0.047233358 0.041420024 0.76299995 1.7525451e-38
-0.034779981 0.043660022 0.77699995 1.3741096e-38
-0.033128582 0.043435261 0.773 1.4295711e-38
-0.031451426 0.043154314 0.76799995 1.5309861e-38
-0.029793324 0.042873368 0.76299995 1.6230034e-38
-0.028228538 0.042704783 0.75999993 1.6875058e-38
-0.026710482 0.042592406 0.75799996 1.7433273e-38
-0.025266677 0.042592414 0.75799996 1.9551973e-38
-0.023822872 0.04259241 0.75799996 2.1672797e-38
-0.02231998 0.042480022 0.75599998 2.0934525e-38
-0.020852415 0.042423826 0.755 2.019696e-38
-0.019414304 0.042423822 0.755 1.9914983e-38
-0.017857132 0.042142883 0.75 1.9637313e-38
-0.01642856 0.042142887 0.75 2.0097914e-38
-0.014959987 0.042030506 0.74799991 2.0657561e-38
-0.013517111 0.041974317 0.74699998 2.0841256e-38
-0.012094247 0.041974306 0.74699998 2.1114251e-38
-0.010642848 0.041861922 0.745 2.2219864e-38
-0.0092238141 0.041861936 0.745 2.3417682e-38
-0.0078047188 0.041861936 0.74499995 2.341769e-38
-0.0063685728 0.041749552 0.74299997 2.341769e-38
-0.0049533257 0.041749548 0.74299997 2.341769e-38
-0.003538101 0.041749548 0.74299997 2.341769e-38
-0.0021199984 0.041693367 0.74199998 2.341769e-38
-0.00070667348 0.041693352 0.74199998 2.341769e-38
0.00070666627 0.041693363 0.74199998 2.341769e-38
0.0021199686 0.041693356 0.74199998 2.341769e-38
0.0035333307 0.041693363 0.74199998 2.341769e-38
0.0049466705 0.04169336 0.74199998 2.341769e-38
0.0063599953 0.041693348 0.74199998 2.341769e-38
0.0077733351 0.04169336 0.74199998 2.341769e-38
0.0091866599 0.041693345 0.74199998 2.341769e-38
0.0106 0.041693356 0.74199998 2.341769e-38
0.012013301 0.041693348 0.74199998 2.341769e-38
0.013426665 0.041693345 0.74199998 2.341769e-38
0.014859976 0.041749544 0.74299997 2.341769e-38
0.016253332 0.041693356 0.74199998 2.341769e-38
0.017690448 0.041749544 0.74300003 2.341769e-38
0.019105712 0.041749548 0.74299997 2.341769e-38
0.020520959 0.041749541 0.74299997 2.341769e-38
0.021936184 0.041749544 0.74299997 2.341769e-38
0.02335141 0.041749541 0.74299997 2.341769e-38
0.024766661 0.041749541 0.74299997 2.341769e-38
0.026181884 0.041749552 0.74299997 2.341769e-38
0.027597133 0.041749544 0.74299997 2.341769e-38
0.029168578 0.041974306 0.74699998 2.341769e-38
0.03059148 0.041974317 0.74699998 2.341769e-38
0.032057159 0.042030498 0.74799997 2.341769e-38
0.033481944 0.042030498 0.74799997 2.341769e-38
0.035000023 0.042142883 0.75 2.341769e-38
0.036428593 0.042142875 0.75 2.341769e-38
0.037958097 0.042255264 0.75199997 2.3049272e-38
0.039547592 0.042423826 0.755 2.2769797e-38
0.041039985 0.042480011 0.75599998 1.9453292e-38
0.042592369 0.042592406 0.75799996 1.6137179e-38
0.04415242 0.042704791 0.75999999 1.6322652e-38
0.04566 0.042760979 0.76099992 1.6512059e-38
0.047233336 0.042873368 0.76299995 1.6969796e-38
-0.034779996 0.045140013 0.77699995 1.3738951e-38
-0.033299979 0.045140028 0.77699995 1.4112404e-38
-0.031451441 0.044617165 0.76800001 1.4946112e-38
-0.029949535 0.044559065 0.76699996 1.5679026e-38
-0.028414294 0.044442866 0.76499999 1.659597e-38
-0.026780933 0.044152401 0.75999999 1.7522596e-38
-0.025266703 0.044036224 0.75799996 1.9549094e-38
-0.023822898 0.04403621 0.75799996 2.1577013e-38
-0.022320023 0.043920007 0.75600004 2.1856471e-38
-0.020879988 0.043920018 0.75599998 2.2127662e-38
-0.019414319 0.043861926 0.755 2.1942546e-38
-0.017904771 0.043687642 0.75199997 2.1664887e-38
-0.016428554 0.043571442 0.75 2.2126576e-38
-0.01496 0.043455265 0.74799997 2.2588637e-38
-0.013535235 0.043455269 0.74799997 2.2958504e-38
-0.012094254 0.043397173 0.74699998 2.3324052e-38
-0.010642831 0.043280981 0.74499995 2.3417682e-38
-0.0092237769 0.043280974 0.745 2.3417686e-38
-0.007804743 0.043280974 0.745 2.341769e-38
-0.0063857092 0.04328097 0.745 2.341769e-38
-0.0049533686 0.043164786 0.74299997 2.341769e-38
-0.0035380805 0.04316479 0.74299997 2.341769e-38
-0.0021199873 0.04310669 0.74199998 2.341769e-38
-0.00070668466 0.043106683 0.74199998 2.341769e-38
0.00070665509 0.04310669 0.74199998 2.341769e-38
0.0021199798 0.043106694 0.74199998 2.341769e-38
0.0035333196 0.043106694 0.74199998 2.341769e-38
0.0049466817 0.043106701 0.74199998 2.341769e-38
0.0063599842 0.04310669 0.74199998 2.341769e-38
0.0077733463 0.043106694 0.74199998 2.341769e-38
0.0091866488 0.04310669 0.74199998 2.341769e-38
0.010599989 0.04310669 0.74199998 2.341769e-38
0.012013314 0.043106686 0.74200004 2.341769e-38
0.013444748 0.043164793 0.74299997 2.341769e-38
0.014859996 0.043164782 0.74299997 2.341769e-38
0.016253317 0.043106686 0.74199998 2.341769e-38
0.017666681 0.043106683 0.74199998 2.341769e-38
0.019105693 0.043164779 0.74299997 2.341769e-38
0.02052092 0.043164771 0.74299997 2.341769e-38
0.021936184 0.043164786 0.74299997 2.341769e-38
0.023351431 0.043164779 0.74299997 2.341769e-38
0.024766658 0.043164782 0.74299997 2.341769e-38
0.026181903 0.043164775 0.74299997 2.341769e-38
0.027671423 0.043280963 0.745 2.341769e-38
0.029090516 0.043280963 0.745 2.341769e-38
0.030632393 0.043455269 0.74799991 2.341769e-38
0.032057181 0.043455265 0.74799997 2.341769e-38
0.033481907 0.043455262 0.74799997 2.341769e-38
0.035000004 0.04357145 0.75 2.341769e-38
0.036428574 0.04357145 0.75 2.341769e-38
0.037958093 0.043687653 0.75199997 2.341769e-38
0.039547581 0.043861929 0.755 2.3321162e-38
0.041039985 0.043920018 0.75599998 1.9638744e-38
0.042592347 0.044036217 0.75799996 1.5863094e-38
0.044152416 0.044152405 0.75999999 1.5953145e-38
0.045780011 0.0443267 0.76299995 1.5956018e-38
0.047233354 0.0443267 0.76299995 1.6414482e-38
0.048814282 0.044442877 0.76499999 1.687617e-38
-0.03477997 0.04662003 0.77699995 1.3557079e-38
-0.033299994 0.04662003 0.77699995 1.3836186e-38
-0.031533349 0.046200026 0.76999998 1.4758141e-38
-0.02994952 0.046020012 0.76699996 1.558612e-38
-0.02848856 0.046020016 0.76699996 1.6598846e-38
-0.026816169 0.045660026 0.76099992 1.7522235e-38
-0.025333328 0.045600016 0.75999999 1.9363261e-38
-0.023885714 0.045600016 0.75999999 2.1300429e-38
-0.022379057 0.045480013 0.75799996 2.1762129e-38
-0.020879993 0.045360025 0.75599998 2.2219144e-38
-0.019414308 0.045300007 0.755 2.1757804e-38
-0.017904771 0.045120019 0.75199997 2.1299714e-38
-0.016428573 0.045000017 0.75 2.1944726e-38
-0.014959998 0.044880036 0.74799997 2.2591166e-38
-0.013535232 0.044880036 0.74799997 2.2958513e-38
-0.012094259 0.044820029 0.74699998 2.341769e-38
-0.010671397 0.044820022 0.74699998 2.341769e-38
-0.0092485538 0.044820026 0.74699998 2.341769e-38
-0.0078047654 0.044700023 0.745 2.341769e-38
-0.0063857092 0.044700015 0.745 2.341769e-38
-0.0049666381 0.04470003 0.74499995 2.341769e-38
-0.0035381215 0.04458002 0.74299997 2.341769e-38
-0.0021199966 0.044520017 0.74199998 2.341769e-38
-0.00070667162 0.04452002 0.74199998 2.341769e-38
0.00070666813 0.044520028 0.74199998 2.341769e-38
0.0021199686 0.04452002 0.74199998 2.341769e-38
0.0035333326 0.044520017 0.74199998 2.341769e-38
0.0049466724 0.044520024 0.74199998 2.341769e-38
0.0063599972 0.044520017 0.74199998 2.341769e-38
0.007773337 0.044520024 0.74199998 2.341769e-38
0.0091866395 0.044520013 0.74199998 2.341769e-38
0.010600002 0.044520028 0.74199998 2.341769e-38
0.012013304 0.044520028 0.74199998 2.341769e-38
0.013444767 0.044580013 0.74299997 2.341769e-38
0.014859993 0.044580013 0.74299997 2.341769e-38
0.016253332 0.04452002 0.74199998 2.341769e-38
0.017690467 0.04458002 0.74299997 2.341769e-38
0.01910569 0.044580016 0.74299997 2.341769e-38
0.020520916 0.044580024 0.74299997 2.341769e-38
0.021936163 0.044580016 0.74299997 2.341769e-38
0.02335139 0.044580013 0.74299997 2.341769e-38
0.024766678 0.04458002 0.74299997 2.341769e-38
0.026181901 0.04458002 0.74299997 2.341769e-38
0.027671462 0.044700015 0.745 2.341769e-38
0.029168585 0.044820029 0.74699998 2.341769e-38
0.030591428 0.044820022 0.74699998 2.341769e-38
0.032142881 0.04500002 0.75 2.341769e-38
0.033571415 0.045000013 0.75 2.341769e-38
0.035000011 0.045000006 0.75 2.341769e-38
0.036428582 0.045000013 0.75 2.341769e-38
0.037958115 0.045120031 0.75199997 2.341769e-38
0.039547563 0.045300018 0.755 2.3417654e-38
0.041040022 0.045360018 0.75600004 1.9637654e-38
0.042592358 0.045480028 0.75799996 1.5947383e-38
0.044152405 0.045600038 0.75999999 1.6135726e-38
0.045779988 0.045780022 0.76299995 1.6413398e-38
0.047357127 0.045900013 0.76499999 1.6691787e-38
0.048941877 0.046020024 0.76699996 1.7059483e-38
-0.031533349 0.047666695 0.76999998 1.4571595e-38
-0.029949546 0.047480963 0.76699996 1.5493201e-38
-0.028488584 0.047480967 0.76699996 1.6507362e-38
-0.026886657 0.047233358 0.76299995 1.7520079e-38
-0.02536667 0.047109537 0.76099998 1.926461e-38
-0.023885723 0.047047649 0.75999999 2.0930574e-38
-0.022379084 0.046923827 0.75800002 2.1580967e-38
-0.020880012 0.046800014 0.75600004 2.2218787e-38
-0.019439977 0.046800021 0.75599998 2.1569474e-38
-0.017904775 0.046552412 0.75199997 2.0839462e-38
-0.016428569 0.046428591 0.75000006 2.1669218e-38
-0.014999997 0.046428595 0.75 2.2498255e-38
-0.013571424 0.046428598 0.75 2.2958513e-38
-0.012110483 0.046304796 0.74799997 2.341769e-38
-0.010671402 0.046242878 0.74699998 2.341769e-38
-0.0092485612 0.046242874 0.74699998 2.341769e-38
-0.0078256959 0.04624287 0.74699998 2.341769e-38
-0.0063856943 0.046119068 0.74499995 2.341769e-38
-0.0049666381 0.046119057 0.745 2.341769e-38
-0.0035476061 0.046119057 0.745 2.341769e-38
-0.0021199854 0.045933355 0.74199998 2.341769e-38
-0.0007066828 0.045933347 0.74199998 2.341769e-38
0.00070665695 0.045933355 0.74199998 2.341769e-38
0.0021199817 0.045933358 0.74200004 2.341769e-38
0.0035333214 0.045933358 0.74199998 2.341769e-38
0.0049466835 0.045933366 0.74199998 2.341769e-38
0.006359986 0.045933355 0.74199998 2.341769e-38
0.0077733258 0.045933358 0.74199998 2.341769e-38
0.0091866506 0.045933355 0.74199998 2.341769e-38
0.010614256 0.045995265 0.74299997 2.341769e-38
0.012029504 0.045995258 0.74300003 2.341769e-38
0.013444729 0.045995262 0.74300003 2.341769e-38
0.014859991 0.045995265 0.74299997 2.341769e-38
0.016253321 0.045933366 0.74199998 2.341769e-38
0.01766666 0.045933366 0.74199998 2.341769e-38
0.019105712 0.045995258 0.74299997 2.341769e-38
0.020520939 0.045995258 0.74299997 2.341769e-38
0.021936165 0.045995258 0.74299997 2.341769e-38
0.02335141 0.04599525 0.74299997 2.341769e-38
0.024766637 0.045995254 0.74299997 2.341769e-38
0.026252402 0.046119072 0.745 2.341769e-38
0.027671436 0.046119072 0.745 2.341769e-38
0.029168582 0.046242882 0.74699998 2.341769e-38
0.030632386 0.046304792 0.74799997 2.341769e-38
0.032142863 0.046428591 0.75 2.341769e-38
0.033571456 0.046428595 0.75 2.341769e-38
0.03500003 0.046428595 0.75 2.341769e-38
0.036525734 0.046552412 0.75199997 2.341769e-38
0.038008574 0.046614308 0.75299996 2.341769e-38
0.039547637 0.046738122 0.755 2.3414083e-38
0.041040022 0.046800021 0.75599998 1.9730239e-38
0.042479996 0.046800025 0.75599998 1.5957443e-38
0.044152398 0.047047652 0.75999999 1.641195e-38
0.045780007 0.047233358 0.76299989 1.6874366e-38
0.047357123 0.047357175 0.76499999 1.706271e-38
0.048941888 0.047480986 0.7669999 1.7153465e-38
0.050271433 0.047357164 0.76499999 1.7430044e-38
-0.029949509 0.048941921 0.76699996 1.5491402e-38
-0.028488569 0.048941929 0.76699996 1.6414442e-38
-0.02688664 0.048686691 0.76299995 1.7337121e-38
-0.02536667 0.048559073 0.76099992 1.9362184e-38
-0.02388571 0.048495263 0.75999999 2.1484815e-38
-0.022379071 0.048367649 0.75799996 2.1761408e-38
-0.020880017 0.048240006 0.75600004 2.2035476e-38
-0.019440021 0.048240006 0.75600004 2.1665618e-38
-0.017904753 0.047984794 0.75199997 2.1299e-38
-0.016472371 0.04798479 0.75199997 2.1945441e-38
-0.014999976 0.047857165 0.75 2.2681565e-38
-0.013571442 0.047857158 0.75 2.3049989e-38
-0.012110455 0.047729548 0.74799997 2.341769e-38
-0.010685693 0.047729544 0.74799997 2.341769e-38
-0.0092609273 0.047729552 0.74799997 2.341769e-38
-0.0078257015 0.047665738 0.74699998 2.341769e-38
-0.0063856961 0.047538109 0.745 2.341769e-38
-0.0049666623 0.047538105 0.745 2.341769e-38
-0.0035475912 0.047538117 0.74499995 2.341769e-38
-0.0021228781 0.047410499 0.74299997 2.341769e-38
-0.00070669584 0.047346689 0.74199998 2.341769e-38
0.00070666813 0.047346689 0.74199998 2.341769e-38
0.0021199686 0.047346685 0.74199998 2.341769e-38
0.0035333326 0.047346681 0.74199998 2.341769e-38
0.0049466724 0.047346689 0.74199998 2.341769e-38
0.0063599972 0.047346681 0.74199998 2.341769e-38
0.007773337 0.047346685 0.74199998 2.341769e-38
0.0091990279 0.047410492 0.74299997 2.341769e-38
0.010614277 0.047410488 0.74299997 2.341769e-38
0.012029502 0.047410503 0.74299997 2.341769e-38
0.013444726 0.047410503 0.74299997 2.341769e-38
0.014859973 0.047410496 0.74300003 2.341769e-38
0.016275199 0.047410496 0.74299997 2.341769e-38
0.017690485 0.047410503 0.74299997 2.341769e-38
0.019105712 0.047410499 0.74299997 2.341769e-38
0.020520935 0.047410499 0.74299997 2.341769e-38
0.021936184 0.047410496 0.74299997 2.341769e-38
0.023351407 0.047410496 0.74299997 2.341769e-38
0.024766656 0.047410492 0.74299997 2.341769e-38
0.026252378 0.04753812 0.745 2.341769e-38
0.027745759 0.047665745 0.74699998 2.341769e-38
0.029207624 0.047729548 0.74799997 2.341769e-38
0.030632408 0.047729544 0.74799997 2.341769e-38
0.032142866 0.047857169 0.75 2.341769e-38
0.033571437 0.047857169 0.75 2.341769e-38
0.035093315 0.047984798 0.75199997 2.341769e-38
0.036574304 0.048048593 0.75299996 2.341769e-38
0.038008608 0.048048597 0.75299996 2.341769e-38
0.039547622 0.04817621 0.755 2.3417686e-38
0.041040014 0.048240013 0.75599998 2.0655801e-38
0.042479988 0.048240013 0.75599998 1.7893537e-38
0.044036176 0.048367646 0.75799996 1.7242773e-38
0.045900013 0.048814304 0.76499999 1.6599215e-38
0.047357168 0.048814297 0.76499999 1.687724e-38
0.04894191 0.048941918 0.76699996 1.7153101e-38
0.050271429 0.048814312 0.76499999 1.742968e-38
-0.029949533 0.050402872 0.76699996 1.539992e-38
-0.028488573 0.050402872 0.76699996 1.6229336e-38
-0.026957132 0.050271451 0.76499999 1.7061253e-38
-0.025433317 0.050140023 0.76299995 1.954585e-38
-0.023917111 0.050008602 0.76099992 2.2034391e-38
-0.022438066 0.049942888 0.75999999 2.1944005e-38
-0.020935252 0.049811456 0.75799996 2.1759252e-38
-0.019440023 0.049680013 0.75600004 2.1758529e-38
-0.017928546 0.049482886 0.75299996 2.1759253e-38
-0.016472373 0.049417175 0.75199997 2.2314937e-38
-0.014999994 0.049285728 0.75 2.277412e-38
-0.013571399 0.049285728 0.75 2.3142183e-38
-0.012142827 0.049285728 0.75 2.341769e-38
-0.010685689 0.049154315 0.74799991 2.341769e-38
-0.0092609627 0.049154311 0.74799997 2.341769e-38
-0.0078257071 0.049088608 0.74699998 2.341769e-38
-0.0064028045 0.049088605 0.74699998 2.341769e-38
-0.0049666474 0.048957169 0.74499995 2.341769e-38
-0.0035475912 0.048957165 0.745 2.341769e-38
-0.0021228557 0.048825741 0.74299997 2.341769e-38
-0.00070763088 0.048825741 0.74299997 2.341769e-38
0.00070759386 0.048825741 0.74299997 2.341769e-38
0.0021199817 0.048760019 0.74200004 2.341769e-38
0.0035333214 0.048760027 0.74199998 2.341769e-38
0.0049466835 0.048760027 0.74199998 2.3325854e-38
0.006359986 0.048760023 0.74199998 2.341769e-38
0.0077838013 0.048825737 0.74299997 2.341769e-38
0.0091990484 0.04882573 0.74299997 2.341769e-38
0.010614273 0.04882573 0.74299997 2.341769e-38
0.012029521 0.048825741 0.74299997 2.341769e-38
0.013444746 0.048825741 0.74299997 2.341769e-38
0.014859971 0.048825741 0.74299997 2.341769e-38
0.01627522 0.048825733 0.74299997 2.341769e-38
0.017690444 0.048825733 0.74299997 2.341769e-38
0.019105708 0.048825741 0.74299997 2.341769e-38
0.020520957 0.048825737 0.74299997 2.341769e-38
0.02193618 0.048825737 0.74299997 2.341769e-38
0.023351429 0.048825733 0.74299997 2.341769e-38
0.024833361 0.048957169 0.74499995 2.341769e-38
0.026252415 0.048957165 0.745 2.341769e-38
0.027745752 0.049088601 0.74699998 2.341769e-38
0.029207651 0.049154311 0.74799997 2.341769e-38
0.030632412 0.049154315 0.74799991 2.341769e-38
0.032142848 0.049285732 0.75 2.341769e-38
0.033571418 0.049285728 0.75 2.341769e-38
0.035093311 0.049417175 0.75199997 2.341769e-38
0.036574312 0.049482886 0.75299996 2.341769e-38
0.038008574 0.049482882 0.75299996 2.341769e-38
0.039547611 0.049614299 0.755 2.3417683e-38
0.040985722 0.049614307 0.755 2.1580966e-38
0.042480025 0.049680013 0.75600004 1.9726666e-38
0.043920003 0.049680006 0.75599998 1.8066082e-38
0.04590001 0.050271448 0.76499999 1.6324439e-38
0.047480963 0.050402887 0.76699996 1.6785773e-38
0.048941925 0.050402876 0.76699996 1.7152754e-38
0.050402839 0.050402883 0.7669999 1.7427899e-38
-0.030066689 0.052066684 0.76999998 1.5489239e-38
-0.028488558 0.051863834 0.76699996 1.6137142e-38
-0.026957136 0.051728595 0.76499999 1.6877939e-38
-0.025499983 0.051728602 0.76499999 1.9456881e-38
-0.023979994 0.051593352 0.76299995 2.2131965e-38
-0.022467611 0.051458113 0.76099998 2.1852887e-38
-0.020935254 0.051255252 0.75799996 2.1665621e-38
-0.019440008 0.051120017 0.75600004 2.1203567e-38
-0.017928576 0.050917156 0.75300002 2.0746193e-38
-0.01647239 0.050849557 0.75199997 2.139192e-38
-0.01504001 0.050849557 0.75199997 2.2039795e-38
-0.013571418 0.050714303 0.75 2.231387e-38
-0.012142845 0.050714307 0.75 2.2591171e-38
-0.010714274 0.050714307 0.75 2.2958513e-38
-0.0092609366 0.050579078 0.74799997 2.341769e-38
-0.0078361733 0.050579078 0.74799997 2.341769e-38
-0.0064028511 0.050511453 0.74699998 2.341769e-38
-0.0049799709 0.050511461 0.74699998 2.341769e-38
-0.0035571074 0.050511457 0.74699998 2.341769e-38
-0.0021228595 0.050240979 0.74299997 2.341769e-38
-0.00070763461 0.050240979 0.74299997 2.341769e-38
0.00070761249 0.050240979 0.74299997 2.341769e-38
0.0021228371 0.050240979 0.74299997 2.341769e-38
0.0035380861 0.050240971 0.74299997 2.3325854e-38
0.0049533108 0.050240971 0.74299997 2.3234019e-38
0.0063599767 0.050173361 0.74199998 2.3325854e-38
0.0077733388 0.050173365 0.74199998 2.341769e-38
0.0091990465 0.050240971 0.74299997 2.341769e-38
0.010614295 0.050240971 0.74299997 2.341769e-38
0.01202952 0.050240971 0.74299997 2.341769e-38
0.013444745 0.050240967 0.74299997 2.341769e-38
0.014859992 0.050240964 0.74299997 2.341769e-38
0.016275218 0.050240979 0.74299997 2.341769e-38
0.017690467 0.050240975 0.74299997 2.341769e-38
0.01910569 0.050240975 0.74299997 2.341769e-38
0.020520916 0.050240971 0.74299997 2.341769e-38
0.021936201 0.050240975 0.74299997 2.341769e-38
0.023351427 0.050240975 0.74299997 2.341769e-38
0.024833361 0.050376218 0.745 2.341769e-38
0.026252393 0.050376218 0.745 2.341769e-38
0.027745748 0.050511453 0.74699992 2.341769e-38
0.02916861 0.05051145 0.74699998 2.341769e-38
0.030632375 0.050579071 0.74799997 2.341769e-38
0.032057162 0.050579071 0.74799997 2.341769e-38
0.033571463 0.050714299 0.75 2.341769e-38
0.035093334 0.050849549 0.75199997 2.341769e-38
0.036525715 0.050849553 0.75199997 2.341769e-38
0.038109519 0.05105241 0.755 2.341769e-38
0.039547596 0.051052406 0.755 2.341768e-38
0.040985707 0.051052414 0.755 2.0834437e-38
0.042480025 0.05112002 0.75599998 1.8335866e-38
0.044036161 0.051255267 0.75799996 1.7331774e-38
0.046019975 0.051863823 0.76699996 1.6418082e-38
0.047480937 0.051863823 0.76699996 1.687726e-38
0.048941899 0.051863827 0.76699996 1.72446e-38
-0.029949544 0.053324781 0.76699996 1.5582864e-38
-0.028488582 0.053324785 0.76699996 1.6135712e-38
-0.026957139 0.053185739 0.76499999 1.6601359e-38
-0.025433321 0.053046696 0.76299989 1.9363613e-38
-0.023917148 0.052907642 0.76099998 2.2127662e-38
-0.022438081 0.052838117 0.75999999 2.1853247e-38
-0.020935243 0.052699074 0.75799996 2.1480874e-38
-0.019440012 0.052560002 0.75600004 2.0643943e-38
-0.017928569 0.052351452 0.75299996 1.9731688e-38
-0.01647239 0.052281935 0.75199997 2.0466373e-38
-0.015040011 0.052281935 0.75199997 2.1207521e-38
-0.013607631 0.052281938 0.75199997 2.1482319e-38
-0.012142865 0.052142881 0.75 2.1669583e-38
-0.010714268 0.052142885 0.75 2.2591171e-38
-0.0092856968 0.052142885 0.75 2.341769e-38
-0.0078571225 0.052142888 0.75 2.341769e-38
-0.0064114211 0.052003823 0.74799997 2.341769e-38
-0.0049866559 0.052003823 0.74799997 2.341769e-38
-0.003557113 0.05193432 0.74699998 2.341769e-38
-0.0021229004 0.051656213 0.74299997 2.341769e-38
-0.00070761412 0.051656216 0.74299997 2.341769e-38
0.00070761063 0.051656216 0.74299997 2.341769e-38
0.0021228576 0.051656216 0.74299997 2.341769e-38
0.0035380824 0.051656216 0.74299997 2.3325854e-38
0.004946663 0.051586695 0.74199998 2.3142183e-38
0.006359986 0.051586684 0.74199998 2.3325854e-38
0.0077733276 0.051586688 0.74199998 2.341769e-38
0.0091990279 0.051656205 0.74299997 2.341769e-38
0.010614253 0.051656201 0.74299997 2.341769e-38
0.012029517 0.051656224 0.74299997 2.341769e-38
0.013444765 0.051656224 0.74299997 2.341769e-38
0.014859989 0.05165622 0.74299997 2.341769e-38
0.016275238 0.051656213 0.74299997 2.341769e-38
0.017690463 0.051656213 0.74299997 2.341769e-38
0.019105688 0.051656216 0.74299997 2.341769e-38
0.020520937 0.051656213 0.74299997 2.341769e-38
0.02199525 0.051795255 0.74499995 2.341769e-38
0.023414301 0.051795252 0.745 2.341769e-38
0.024900019 0.051934313 0.74699998 2.341769e-38
0.026322883 0.051934309 0.74699998 2.341769e-38
0.027745763 0.05193432 0.74699998 2.341769e-38
0.029207636 0.052003838 0.74799997 2.341769e-38
0.030632401 0.052003838 0.74799997 2.341769e-38
0.03214287 0.052142877 0.75 2.341769e-38
0.033660952 0.052281927 0.75199997 2.341769e-38
0.035093334 0.052281927 0.75199997 2.341769e-38
0.036574308 0.052351452 0.75299996 2.341769e-38
0.038109511 0.052490495 0.755 2.341769e-38
0.039547581 0.052490491 0.755 2.3413729e-38
0.041039996 0.052560013 0.75599998 2.0187272e-38
0.042480018 0.052560009 0.75599998 1.6873657e-38
0.04403618 0.052699056 0.75800002 1.6690699e-38
0.04601999 0.053324781 0.76699996 1.6508829e-38
0.047480952 0.053324785 0.76699996 1.6968015e-38
0.049005698 0.053394314 0.76799995 1.7337146e-38
0.050468605 0.053394314 0.76799995 1.733786e-38
-0.030066663 0.055000022 0.76999998 1.604383e-38
-0.028488569 0.054785728 0.76699996 1.6781436e-38
-0.026957145 0.054642886 0.76499999 1.7518284e-38
-0.025433319 0.054500017 0.76299995 1.991678e-38
-0.023917148 0.054357164 0.76099998 2.2406039e-38
-0.022467611 0.054357167 0.76099992 2.2220947e-38
-0.020935269 0.054142889 0.75799996 2.2127669e-38
-0.019440016 0.054000009 0.75599998 2.1203205e-38
-0.017976193 0.053928602 0.755 2.0284485e-38
-0.016472392 0.053714313 0.75199997 2.0929837e-38
-0.015040011 0.05371432 0.75199997 2.1576286e-38
-0.013571394 0.053571451 0.75 2.2035833e-38
-0.01214286 0.053571444 0.75 2.2585421e-38
-0.010714288 0.053571444 0.75 2.2957078e-38
-0.0092857154 0.053571448 0.75 2.341769e-38
-0.0078571429 0.053571448 0.75 2.341769e-38
-0.0064285463 0.053571448 0.75 2.341769e-38
-0.004986654 0.053428594 0.74799997 2.341769e-38
-0.0035618665 0.053428598 0.74799997 2.341769e-38
-0.0021285685 0.053214304 0.745 2.341769e-38
-0.0007076551 0.053071454 0.74299997 2.341769e-38
0.000707592 0.053071447 0.74300003 2.341769e-38
0.0021228557 0.053071458 0.74299997 2.341769e-38
0.0035380805 0.053071458 0.74299997 2.3325854e-38
0.0049466742 0.053000014 0.74199998 2.3325854e-38
0.0063599767 0.053000025 0.74199998 2.3325854e-38
0.0077733388 0.053000029 0.74199998 2.341769e-38
0.009199026 0.053071447 0.74299997 2.341769e-38
0.010614251 0.053071443 0.74299997 2.341769e-38
0.0120295 0.053071439 0.74300003 2.341769e-38
0.013444724 0.053071439 0.74299997 2.341769e-38
0.014860009 0.053071447 0.74299997 2.341769e-38
0.016275235 0.053071458 0.74299997 2.341769e-38
0.017690459 0.053071454 0.74299997 2.341769e-38
0.019105708 0.05307145 0.74299997 2.341769e-38
0.020576192 0.053214308 0.745 2.341769e-38
0.021995248 0.053214304 0.745 2.341769e-38
0.023477171 0.053357184 0.74699992 2.341769e-38
0.024900032 0.05335718 0.74699998 2.341769e-38
0.026322875 0.05335718 0.74699998 2.341769e-38
0.027782878 0.053428587 0.74799997 2.341769e-38
0.029207639 0.053428594 0.74799997 2.341769e-38
0.030714283 0.053571451 0.75 2.341769e-38
0.032142855 0.053571455 0.75 2.341769e-38
0.033660948 0.053714324 0.75199997 2.341769e-38
0.035140015 0.053785741 0.75299996 2.341769e-38
0.036671408 0.053928595 0.75500005 2.341769e-38
0.038109519 0.053928584 0.755 2.341769e-38
0.03954763 0.053928591 0.755 2.3417669e-38
0.041039996 0.054000016 0.75599998 2.0189772e-38
0.042592365 0.054142885 0.75799996 1.6872565e-38
0.044152398 0.054285724 0.75999999 1.6966543e-38
0.045900002 0.054642878 0.76499999 1.7059831e-38
0.04748093 0.054785736 0.76699996 1.7520817e-38
0.049005728 0.054857157 0.76800001 1.7981064e-38
0.050731454 0.055142876 0.77199996 1.7522238e-38
-0.029949533 0.05624669 0.76699996 1.6507335e-38
-0.028488593 0.056246683 0.76699996 1.7519717e-38
-0.026957124 0.056100022 0.76499999 1.8444186e-38
-0.025433302 0.055953369 0.76299989 2.0563234e-38
-0.023917126 0.055806689 0.76099998 2.2588287e-38
-0.022438077 0.055733364 0.75999999 2.2680848e-38
-0.020935232 0.055586692 0.75799996 2.277124e-38
-0.019491451 0.055586699 0.75799996 2.1848212e-38
-0.017976208 0.055366687 0.755 2.0838019e-38
-0.016472371 0.055146705 0.75199997 2.1392257e-38
-0.01503999 0.055146709 0.75199997 2.1944715e-38
-0.013607609 0.055146713 0.75199997 2.2682996e-38
-0.01214284 0.055000026 0.75 2.3416251e-38
-0.010714267 0.055000015 0.75 2.341769e-38
-0.0092857098 0.055000007 0.75 2.341769e-38
-0.0078571374 0.055000007 0.75 2.341769e-38
-0.0064114174 0.054853361 0.74799991 2.341769e-38
-0.0049866298 0.054853361 0.74799997 2.341769e-38
-0.0035619037 0.054853354 0.74799997 2.341769e-38
-0.0021285703 0.054633353 0.745 2.341769e-38
-0.00070949725 0.05463336 0.74499995 2.341769e-38
0.00070759014 0.054486677 0.74299997 2.341769e-38
0.0021228371 0.05448667 0.74300003 2.341769e-38
0.0035380619 0.054486685 0.74300003 2.341769e-38
0.0049533257 0.054486692 0.74299997 2.341769e-38
0.006359986 0.054413348 0.74199998 2.341769e-38
0.0077733276 0.054413348 0.74199998 2.341769e-38
0.0091990242 0.054486688 0.74299997 2.341769e-38
0.010614271 0.054486685 0.74299997 2.341769e-38
0.012029496 0.054486681 0.74299997 2.341769e-38
0.013444744 0.054486677 0.74299997 2.341769e-38
0.014859971 0.054486677 0.74299997 2.341769e-38
0.016275236 0.054486699 0.74299997 2.341769e-38
0.017690483 0.054486696 0.74299997 2.341769e-38
0.019105708 0.054486696 0.74299997 2.341769e-38
0.020576192 0.054633357 0.745 2.341769e-38
0.021995263 0.054633364 0.74499995 2.341769e-38
0.023477189 0.054780036 0.74699998 2.341769e-38
0.024900028 0.054780036 0.74699998 2.341769e-38
0.026358115 0.054853354 0.74799997 2.341769e-38
0.027782882 0.054853357 0.74799997 2.341769e-38
0.029285729 0.055000022 0.75 2.341769e-38
0.030714324 0.055000018 0.75 2.341769e-38
0.032228593 0.055146698 0.75199997 2.341769e-38
0.033705715 0.055220019 0.75299996 2.341769e-38
0.035140019 0.055220027 0.75299996 2.341769e-38
0.036671426 0.055366695 0.755 2.341769e-38
0.038109504 0.055366687 0.755 2.341769e-38
0.039599977 0.055440012 0.75600004 2.3414442e-38
0.041040037 0.055440016 0.75599998 2.0189778e-38
0.042592339 0.055586699 0.75799996 1.6877596e-38
0.044036169 0.055586677 0.75800002 1.7243139e-38
0.045780007 0.055953369 0.76299995 1.7613362e-38
0.047480945 0.056246694 0.76699996 1.8073628e-38
0.049133312 0.056466695 0.76999998 1.8532436e-38
-0.031533357 0.057933353 0.76999998 1.5864122e-38
-0.029949518 0.057707638 0.76699996 1.7432886e-38
-0.028488582 0.057707641 0.76699996 1.8351626e-38
-0.026957128 0.057557166 0.76499999 1.9368653e-38
-0.025499998 0.057557173 0.76499999 2.0932388e-38
-0.023979977 0.057406697 0.76299995 2.2591169e-38
-0.022467589 0.057256214 0.76099992 2.2774483e-38
-0.020990472 0.057180978 0.75999999 2.305034e-38
-0.019491455 0.057030499 0.75800002 2.1942923e-38
-0.018000007 0.056880016 0.75600004 2.0928788e-38
-0.016494296 0.056654308 0.75299996 2.1299e-38
-0.015039993 0.056579068 0.75199997 2.1668144e-38
-0.013607648 0.056579065 0.75199997 2.2589736e-38
-0.012142836 0.056428589 0.75 2.341769e-38
-0.010714263 0.056428589 0.75 2.341769e-38
-0.0092856893 0.056428596 0.75 2.341769e-38
-0.007857156 0.056428585 0.75 2.341769e-38
-0.0064113913 0.056278128 0.74799991 2.341769e-38
-0.0049866652 0.056278124 0.74799997 2.341769e-38
-0.0035619 0.056278124 0.74799997 2.341769e-38
-0.0021285536 0.056052398 0.745 2.341769e-38
-0.00070952147 0.056052398 0.745 2.341769e-38
0.00070761249 0.055901926 0.74299997 2.341769e-38
0.0021228371 0.05590193 0.74299997 2.341769e-38
0.0035380619 0.05590193 0.74299997 2.341769e-38
0.0049533108 0.055901926 0.74300003 2.341769e-38
0.0063685356 0.055901919 0.74300003 2.341769e-38
0.0077838199 0.055901926 0.74299997 2.341769e-38
0.0091990447 0.055901926 0.74299997 2.341769e-38
0.010614269 0.055901926 0.74299997 2.341769e-38
0.012029518 0.055901922 0.74299997 2.341769e-38
0.013444742 0.055901922 0.74299997 2.341769e-38
0.01485999 0.055901915 0.74299997 2.341769e-38
0.016275216 0.055901915 0.74299997 2.341769e-38
0.017690441 0.055901915 0.74299997 2.341769e-38
0.019157175 0.056052402 0.74499995 2.341769e-38
0.020576207 0.056052402 0.74499995 2.341769e-38
0.021995263 0.056052398 0.745 2.341769e-38
0.023477145 0.056202877 0.74699998 2.341769e-38
0.024900021 0.056202885 0.74699998 2.341769e-38
0.026358118 0.056278124 0.74799991 2.341769e-38
0.027782908 0.056278124 0.74799997 2.341769e-38
0.029285736 0.056428593 0.75 2.341769e-38
0.030714309 0.056428596 0.75 2.341769e-38
0.032228556 0.056579072 0.75199997 2.341769e-38
0.033705726 0.056654315 0.75299996 2.341769e-38
0.035140011 0.056654308 0.75300002 2.341769e-38
0.036671415 0.056804784 0.755 2.341769e-38
0.038109489 0.05680478 0.755 2.341769e-38
0.039599992 0.056880016 0.75600004 2.3417673e-38
0.041148569 0.057030499 0.75799996 2.0191935e-38
0.04259235 0.05703051 0.75799996 1.6970157e-38
0.044152379 0.057180975 0.75999999 1.6970155e-38
0.045899991 0.057557166 0.76499999 1.7067021e-38
0.047542863 0.057782888 0.76799995 1.6602829e-38
-0.031533331 0.059400022 0.76999998 1.6329401e-38
-0.029988553 0.059245747 0.76799995 1.8349802e-38
-0.028488582 0.059168577 0.76699996 1.9269254e-38
-0.02695713 0.059014309 0.76499999 2.0191567e-38
-0.025499979 0.059014313 0.76499999 2.1390106e-38
-0.023979997 0.058860023 0.76299995 2.2495374e-38
-0.022467626 0.058705732 0.76099998 2.2866673e-38
-0.02099048 0.058628593 0.75999999 2.3232933e-38
-0.01949144 0.058474317 0.75799996 2.2128033e-38
-0.01800001 0.058320019 0.75600004 2.0930942e-38
-0.016494265 0.058088604 0.75299996 2.1206807e-38
-0.015040031 0.058011457 0.75199997 2.1392994e-38
-0.013607626 0.058011454 0.75199997 2.240606e-38
-0.012142854 0.057857167 0.75 2.3417328e-38
-0.010714282 0.057857167 0.75 2.341769e-38
-0.0092857098 0.057857171 0.75 2.3325854e-38
-0.0078571131 0.057857171 0.75 2.341769e-38
-0.0064285407 0.057857171 0.75 2.341769e-38
-0.0049866615 0.057702892 0.74799997 2.341769e-38
-0.0035618739 0.057702892 0.74799997 2.341769e-38
-0.0021285536 0.057471443 0.745 2.341769e-38
-0.00070951961 0.057471439 0.745 2.341769e-38
0.00070760876 0.05731716 0.74299997 2.341769e-38
0.0021228353 0.057317153 0.74299997 2.341769e-38
0.0035380824 0.057317168 0.74299997 2.341769e-38
0.0049533071 0.057317168 0.74299997 2.341769e-38
0.0063685542 0.057317164 0.74300003 2.341769e-38
0.0077837789 0.05731716 0.74299997 2.341769e-38
0.0091990409 0.057317171 0.74299997 2.341769e-38
0.01061429 0.057317168 0.74299997 2.341769e-38
0.012029517 0.057317164 0.74299997 2.341769e-38
0.013444764 0.057317156 0.74299997 2.341769e-38
0.014859989 0.05731716 0.74299997 2.341769e-38
0.016275214 0.057317175 0.74299997 2.341769e-38
0.017690463 0.057317168 0.74299997 2.341769e-38
0.019157149 0.05747145 0.74499995 2.341769e-38
0.020576203 0.057471447 0.745 2.341769e-38
0.021995237 0.057471447 0.745 2.341769e-38
0.023477161 0.057625741 0.74699998 2.341769e-38
0.024900042 0.057625752 0.74699998 2.341769e-38
0.026358103 0.05770288 0.74799997 2.341769e-38
0.027782867 0.057702884 0.74799997 2.341769e-38
0.029285714 0.057857171 0.75 2.341769e-38
0.030714286 0.057857174 0.75 2.341769e-38
0.032142855 0.057857174 0.75 2.341769e-38
0.033660933 0.058011454 0.75199997 2.341769e-38
0.035140023 0.058088604 0.75299996 2.341769e-38
0.036671426 0.05824288 0.755 2.341769e-38
0.038109496 0.058242861 0.75500005 2.341769e-38
0.039599992 0.058320019 0.75600004 2.341444e-38
0.041148543 0.058474302 0.75799996 2.0190493e-38
0.04270478 0.058628585 0.75999999 1.6969782e-38
0.044152368 0.058628589 0.75999999 1.6783231e-38
0.045779999 0.05886003 0.76299995 1.6505934e-38
0.047542848 0.059245747 0.76799995 1.521737e-38
-0.031615227 0.061024778 0.77199996 1.5218049e-38
-0.02998857 0.060708597 0.76800001 1.6234711e-38
-0.028488569 0.060629535 0.76699996 1.6691391e-38
-0.027027631 0.060629539 0.76699996 1.7248151e-38
-0.025499981 0.060471456 0.76499999 1.871932e-38
-0.023979958 0.060313351 0.76299995 2.0287003e-38
-0.022467626 0.060155272 0.76099998 2.1486625e-38
-0.020990489 0.060076211 0.75999999 2.268192e-38
-0.019491466 0.059918121 0.75799996 2.1389406e-38
-0.018000016 0.059760012 0.75599998 2.0194825e-38
-0.016538111 0.059680972 0.755 2.0655794e-38
-0.015059992 0.059522882 0.75299996 2.1026008e-38
-0.013625726 0.059522878 0.75299996 2.2221666e-38
-0.012175247 0.059443839 0.75199997 2.3417327e-38
-0.010742866 0.059443835 0.75199997 2.341769e-38
-0.0092857042 0.05928573 0.75 2.341769e-38
-0.0078571299 0.059285734 0.75 2.341769e-38
-0.0064285574 0.05928573 0.75 2.341769e-38
-0.0049866373 0.05912764 0.74799997 2.341769e-38
-0.0035618721 0.059127647 0.74799991 2.341769e-38
-0.0021285387 0.058890503 0.74499995 2.341769e-38
-0.0007095047 0.058890503 0.74499995 2.341769e-38
0.00070954964 0.058890495 0.745 2.341769e-38
0.0021228539 0.058732394 0.74299997 2.341769e-38
0.0035380786 0.058732409 0.74299997 2.341769e-38
0.0049533276 0.058732402 0.74299997 2.341769e-38
0.0063857445 0.058890495 0.74499995 2.341769e-38
0.0078047765 0.058890495 0.74499995 2.341769e-38
0.0091990242 0.058732398 0.74299997 2.341769e-38
0.010614249 0.058732398 0.74299997 2.341769e-38
0.012061898 0.058890488 0.745 2.341769e-38
0.013444762 0.058732402 0.74299997 2.341769e-38
0.014859986 0.058732398 0.74299997 2.341769e-38
0.016275235 0.058732398 0.74299997 2.341769e-38
0.017690459 0.058732398 0.74299997 2.341769e-38
0.019105705 0.058732394 0.74299997 2.341769e-38
0.02057622 0.058890507 0.74499995 2.341769e-38
0.021995252 0.058890503 0.74499995 2.341769e-38
0.023414308 0.058890499 0.745 2.341769e-38
0.02493334 0.059127647 0.74799997 2.341769e-38
0.026358107 0.059127651 0.74799997 2.341769e-38
0.02778287 0.059127651 0.74799997 2.341769e-38
0.029285736 0.059285745 0.75 2.341769e-38
0.030714294 0.05928573 0.75 2.341769e-38
0.03222857 0.059443839 0.75199997 2.341769e-38
0.033705726 0.059522878 0.75299996 2.341769e-38
0.035139989 0.059522878 0.75299996 2.341769e-38
0.036671415 0.059680972 0.755 2.341769e-38
0.038109526 0.059680976 0.755 2.341769e-38
0.039599981 0.059760008 0.75599998 2.3417666e-38
0.041039981 0.059760008 0.75600004 1.9914619e-38
0.042704772 0.060076218 0.75999999 1.6323331e-38
0.044152364 0.060076218 0.75999999 1.6501601e-38
0.045779981 0.06031337 0.76299995 1.6679888e-38
0.047666643 0.060866695 0.76999998 1.6680962e-38
-0.031656202 0.062576219 0.773 1.4199947e-38
-0.030066695 0.06233336 0.76999998 1.4110634e-38
-0.028525703 0.062171455 0.76799995 1.4197459e-38
-0.027027631 0.062090486 0.76699996 1.4206793e-38
-0.025499985 0.0619286 0.76499999 1.6135346e-38
-0.023979979 0.061766695 0.76299995 1.8077912e-38
-0.022467626 0.061604787 0.76099998 2.0110879e-38
-0.020990474 0.061523821 0.75999999 2.2031884e-38
-0.019491432 0.061361931 0.75799996 2.0736495e-38
-0.017999997 0.061200015 0.75600004 1.9458335e-38
-0.016538125 0.061119065 0.755 2.0102982e-38
-0.015100013 0.061119068 0.755 2.0655435e-38
-0.013625697 0.060957171 0.75299996 2.2037279e-38
-0.012175249 0.060876217 0.75199997 2.3325133e-38
-0.010742866 0.06087622 0.75199997 2.341769e-38
-0.0093104634 0.060876213 0.75199997 2.341769e-38
-0.0078571504 0.06071429 0.75 2.341769e-38
-0.0064285761 0.060714297 0.75 2.341769e-38
-0.0049866727 0.060552403 0.74799997 2.341769e-38
-0.0035618851 0.0605524 0.74799997 2.341769e-38
-0.0021342402 0.06047146 0.74699998 2.341769e-38
-0.00070950657 0.060309552 0.745 2.341769e-38
0.00070952729 0.060309548 0.745 2.341769e-38
0.0021285592 0.060309548 0.745 2.341769e-38
0.0035476545 0.060309552 0.74499995 2.341769e-38
0.0049666865 0.060309548 0.745 2.341769e-38
0.0063857203 0.060309548 0.745 2.341769e-38
0.0078047747 0.060309544 0.745 2.341769e-38
0.0091990205 0.060147639 0.74299997 2.341769e-38
0.010614269 0.060147636 0.74299997 2.341769e-38
0.012029496 0.060147636 0.74299997 2.341769e-38
0.013480971 0.060309544 0.745 2.341769e-38
0.014900004 0.06030954 0.745 2.341769e-38
0.016275233 0.060147651 0.74299997 2.341769e-38
0.017738093 0.060309537 0.745 2.341769e-38
0.019157166 0.060309544 0.74499995 2.341769e-38
0.020576222 0.06030954 0.745 2.341769e-38
0.022054309 0.060471464 0.74699998 2.341769e-38
0.02347715 0.060471464 0.74699998 2.341769e-38
0.024933344 0.060552418 0.74799997 2.341769e-38
0.026358129 0.060552415 0.74799997 2.341769e-38
0.027857168 0.060714301 0.75 2.341769e-38
0.029363809 0.060876217 0.75199997 2.341769e-38
0.030796191 0.06087622 0.75199997 2.341769e-38
0.03222857 0.06087622 0.75199997 2.341769e-38
0.03370573 0.060957175 0.75299996 2.341769e-38
0.035233323 0.061119068 0.755 2.341769e-38
0.036720011 0.061200008 0.75600004 2.341769e-38
0.038109511 0.061119065 0.755 2.341769e-38
0.039600004 0.061200008 0.75600004 2.3413357e-38
0.041257173 0.061523832 0.75999999 1.9543324e-38
0.042704765 0.061523836 0.75999999 1.5679393e-38
0.044210482 0.061604779 0.76099998 1.6219622e-38
0.045900024 0.061928585 0.76499999 1.6778503e-38
0.047852375 0.062576205 0.773 1.8246052e-38
0.049452391 0.062738121 0.77499998 1.9633666e-38
-0.033128574 0.064048581 0.773 1.4570493e-38
-0.031615227 0.063965738 0.77199996 1.4476152e-38
-0.030066673 0.063800022 0.76999998 1.4289978e-38
-0.028525718 0.063634306 0.76800001 1.4201737e-38
-0.027062833 0.063634321 0.76799995 1.4020944e-38
-0.02556668 0.063551456 0.76699996 1.5767979e-38
-0.024042835 0.06338574 0.76499999 1.7522579e-38
-0.022467604 0.063054316 0.76099998 1.964416e-38
-0.020990444 0.062971458 0.75999993 2.1751702e-38
-0.01954283 0.062971465 0.75999999 2.0464557e-38
-0.018000003 0.062640026 0.75599998 1.9186045e-38
-0.016538115 0.062557161 0.755 1.991751e-38
-0.015100004 0.062557168 0.755 2.0649693e-38
-0.01362569 0.062391449 0.75299996 2.1852173e-38
-0.012175227 0.062308609 0.75199997 2.3050344e-38
-0.010742845 0.062308609 0.75199997 2.3048913e-38
-0.0093104644 0.062308613 0.75199997 2.3050348e-38
-0.0078780828 0.062308613 0.75199997 2.3234019e-38
-0.0064285723 0.062142871 0.75 2.341769e-38
-0.004999998 0.062142871 0.75 2.341769e-38
-0.0035618814 0.061977167 0.74799997 2.3325854e-38
-0.0021342458 0.061894324 0.74699998 2.341769e-38
-0.0007114046 0.061894327 0.74699998 2.341769e-38
0.00071146071 0.06189432 0.74699998 2.341769e-38
0.0021285983 0.061728586 0.745 2.341769e-38
0.0035476303 0.0617286 0.745 2.341769e-38
0.0049800212 0.061894324 0.74699998 2.341769e-38
0.0063857203 0.061728593 0.745 2.341769e-38
0.0078047914 0.0617286 0.74499995 2.341769e-38
0.0092238234 0.0617286 0.74499995 2.341769e-38
0.010614268 0.061562877 0.74299997 2.341769e-38
0.012029492 0.061562877 0.74299997 2.341769e-38
0.013444739 0.061562873 0.74299997 2.341769e-38
0.014900042 0.061728597 0.74499995 2.341769e-38
0.016319076 0.061728597 0.74499995 2.341769e-38
0.017738109 0.061728593 0.74499995 2.341769e-38
0.019157164 0.061728589 0.745 2.341769e-38
0.0205762 0.061728586 0.745 2.341769e-38
0.022054324 0.061894316 0.74699998 2.341769e-38
0.023477165 0.061894316 0.74699998 2.341769e-38
0.024933372 0.061977182 0.74799997 2.341769e-38
0.026428577 0.062142875 0.75 2.341769e-38
0.027857149 0.062142875 0.75 2.341769e-38
0.029363813 0.062308598 0.75199997 2.341769e-38
0.030796191 0.062308598 0.75199997 2.341769e-38
0.03222857 0.062308598 0.75199997 2.341769e-38
0.033705723 0.062391452 0.75299996 2.341769e-38
0.035233311 0.062557168 0.755 2.341769e-38
0.036720004 0.062640011 0.75599998 2.341769e-38
0.03816 0.062640011 0.75599998 2.341769e-38
0.0396 0.062640011 0.75600004 2.3417658e-38
0.041257165 0.062971443 0.75999999 2.1479036e-38
0.042760942 0.063054323 0.76099998 1.9539702e-38
0.044210482 0.063054308 0.76099992 1.9818051e-38
0.046020016 0.063551456 0.76699996 2.0101404e-38
0.047976162 0.064214312 0.77499998 2.0835324e-38
0.049452398 0.064214319 0.77499992 2.1580839e-38
-0.033128548 0.065520972 0.77299994 1.4935675e-38
-0.031615186 0.065436214 0.7719999 1.4752374e-38
-0.030066671 0.065266699 0.76999998 1.4479383e-38
-0.028600039 0.065266684 0.76999998 1.4206392e-38
-0.02706285 0.065097168 0.76800001 1.3836212e-38
-0.025566682 0.065012403 0.76699996 1.5392786e-38
-0.024042839 0.064842887 0.76499999 1.688011e-38
-0.022526637 0.064673379 0.76299995 1.9191803e-38
-0.021018067 0.064503834 0.76099992 2.1479422e-38
-0.019542839 0.064419076 0.75999999 2.0183664e-38
-0.018000005 0.064080015 0.75599998 1.8905515e-38
-0.016538128 0.06399525 0.755 1.9730612e-38
-0.015100018 0.063995257 0.755 2.05636e-38
-0.01362572 0.063825741 0.75299996 2.1671018e-38
