# .PCD v0.7 - Point Cloud Data file format
VERSION 0.7
FIELDS x y z rgb
SIZE 4 4 4 4
TYPE F F F F
COUNT 1 1 1 1
WIDTH 971
HEIGHT 1
VIEWPOINT 0 0 0 1 0 0 0
POINTS 971
DATA ascii
-0.022319991 0.049680002 0.75600004 2.341769e-38
-0.020769544 0.049417153 0.75199997 2.341769e-38
-0.019337157 0.049417157 0.75199997 2.341769e-38
-0.017809555 0.049154289 0.74799997 2.341769e-38
-0.016362855 0.049088567 0.74700004 2.341769e-38
-0.014899984 0.048957124 0.74500012 2.341769e-38
-0.013480919 0.048957132 0.74500006 2.341769e-38
-0.01206188 0.048957136 0.74500012 2.341769e-38
-0.010642878 0.048957147 0.74500006 2.341769e-38
-0.009199053 0.048825718 0.74300003 2.341769e-38
-0.0077838213 0.048825704 0.74300003 2.341769e-38
-0.0063685649 0.048825711 0.74300003 2.341769e-38
-0.0049466793 0.048760012 0.74200004 2.341769e-38
-0.0035333077 0.048759997 0.74200004 2.341769e-38
-0.0021142571 0.048628565 0.74000001 2.341769e-38
-0.00070475438 0.048628569 0.74000001 2.3416604e-38
0.00070480607 0.048628569 0.74000001 2.2678683e-38
0.0021143088 0.048628557 0.74000001 2.1833438e-38
0.003523832 0.048628569 0.74000001 2.2462942e-38
0.0049333326 0.048628576 0.74000001 2.3009636e-38
0.0063428949 0.048628557 0.74000001 2.1088969e-38
0.0077523957 0.048628561 0.74000001 1.9153264e-38
0.0091866795 0.048760004 0.74200004 1.9508425e-38
0.010599989 0.048760012 0.74200004 1.9822395e-38
0.012013359 0.048759993 0.74200004 1.7632054e-38
0.013426669 0.048760001 0.74200004 1.5314987e-38
0.014839999 0.048760008 0.74200004 1.7600099e-38
0.016209548 0.048628569 0.74000001 1.9920035e-38
0.017666679 0.048759997 0.74200004 2.1305474e-38
0.019079991 0.048760004 0.74200004 2.2682286e-38
0.020493358 0.048760004 0.74200004 2.2496818e-38
0.02190667 0.048759997 0.74200004 2.2314585e-38
0.023319978 0.048760004 0.74200004 2.2683006e-38
0.024766637 0.048825707 0.74299997 2.2958513e-38
0.026252406 0.048957124 0.74500012 2.24075e-38
0.02774572 0.049088571 0.74700004 2.1855768e-38
0.02920761 0.049154282 0.74799997 2.0754458e-38
0.030632379 0.049154282 0.74800003 1.9646331e-38
0.032142863 0.049285699 0.75000006 1.7623077e-38
0.033660948 0.049417153 0.75199997 1.5591916e-38
0.035093337 0.049417149 0.75199997 1.6215017e-38
0.036671411 0.049614288 0.75500005 1.6881562e-38
0.038109556 0.049614273 0.75500005 2.0111608e-38
0.039600004 0.049679998 0.75600004 2.3324055e-38
0.04114861 0.04981143 0.75800002 2.2223823e-38
0.042592425 0.049811434 0.75800002 2.1105988e-38
0.044036239 0.049811419 0.75800002 1.8705682e-38
0.045359984 0.049680017 0.75599998 1.632299e-38
0.046799991 0.049680006 0.75600004 1.6600657e-38
-0.034242865 0.051728569 0.76499999 1.8167588e-38
-0.032700021 0.051593341 0.76299995 1.8994821e-38
-0.031164736 0.051458091 0.76100004 1.9453635e-38
-0.029793337 0.051593322 0.76300001 2.0004654e-38
-0.028340023 0.051593333 0.76300001 2.1019155e-38
-0.026816204 0.051458102 0.76100004 2.2033664e-38
-0.025333336 0.051390477 0.76000005 2.2679755e-38
-0.023822855 0.051255248 0.75799996 2.3416961e-38
-0.022290468 0.051052384 0.75500005 2.341769e-38
-0.020797106 0.05091713 0.75300002 2.341769e-38
-0.019337125 0.050849523 0.75200003 2.341769e-38
-0.017809529 0.050579052 0.74799997 2.341769e-38
-0.016384795 0.050579056 0.74799997 2.341769e-38
-0.014940009 0.050511423 0.74699998 2.341769e-38
-0.013480966 0.050376192 0.74500006 2.341769e-38
-0.01209429 0.050511435 0.74699998 2.341769e-38
-0.010671442 0.050511442 0.74699998 2.341769e-38
-0.0092238225 0.050376184 0.74500006 2.341769e-38
-0.0078047593 0.050376188 0.74500006 2.341769e-38
-0.0063685947 0.050240945 0.74300003 2.341769e-38
-0.0049533402 0.050240953 0.74300003 2.341769e-38
-0.0035333282 0.050173335 0.74200004 2.341769e-38
-0.0021142571 0.050038084 0.74000001 2.341769e-38
-0.00070473389 0.050038092 0.74000001 2.341768e-38
0.00070476695 0.050038081 0.74000001 2.2951677e-38
0.0021199917 0.050173339 0.74200004 2.2384082e-38
0.0035238301 0.050038088 0.74000001 2.063016e-38
0.004933353 0.050038096 0.74000001 1.8973179e-38
0.0063428539 0.050038084 0.74000001 1.8971747e-38
0.0077733505 0.050173324 0.74200004 1.8977139e-38
0.0091866851 0.050173327 0.74200004 2.0271814e-38
0.010599991 0.050173335 0.74200004 2.167274e-38
0.01201334 0.050173331 0.74200004 2.0103003e-38
0.013426673 0.050173342 0.74200004 1.8608153e-38
0.014839983 0.050173335 0.74200004 1.9174222e-38
0.01625335 0.050173335 0.74200004 1.9836094e-38
0.017666662 0.050173339 0.74200004 2.0476802e-38
0.019079991 0.050173335 0.74199998 2.1121803e-38
0.02049334 0.050173331 0.74200004 2.0753743e-38
0.02190667 0.050173339 0.74200004 2.0387119e-38
0.023351438 0.050240941 0.74300003 2.0109818e-38
0.024766669 0.050240945 0.74300003 1.9927941e-38
0.026252382 0.050376184 0.74500006 1.992543e-38
0.027745716 0.050511438 0.74699998 1.992471e-38
0.02920761 0.050579041 0.74800003 1.9277554e-38
0.030632345 0.050579049 0.74799997 1.8626807e-38
0.03214287 0.05071428 0.75000006 1.7433299e-38
0.033571448 0.05071428 0.75000012 1.6328021e-38
0.03514003 0.050917134 0.75300002 1.6411223e-38
0.036574304 0.050917123 0.75300002 1.6603531e-38
0.038109533 0.051052377 0.75500005 1.8171219e-38
0.039599977 0.051120002 0.75600004 1.9737444e-38
0.041039981 0.051120006 0.75600004 1.8995226e-38
0.04259238 0.051255241 0.75800002 1.8339802e-38
0.044036191 0.051255241 0.75800002 1.7424297e-38
0.045600004 0.051390469 0.76000005 1.6602092e-38
-0.032700032 0.053046662 0.76300001 1.9270679e-38
-0.031246681 0.053046666 0.76300001 1.9454344e-38
-0.02979333 0.053046666 0.76300001 1.9640175e-38
-0.028340016 0.053046659 0.76300001 2.0834043e-38
-0.026816176 0.052907612 0.76100004 2.194183e-38
-0.025266675 0.052699059 0.75800002 2.2680481e-38
-0.02376003 0.052560005 0.75599998 2.3416966e-38
-0.022290464 0.052490473 0.75500005 2.341769e-38
-0.020797122 0.05235143 0.75300002 2.341769e-38
-0.019337134 0.052281905 0.75199997 2.341769e-38
-0.017857108 0.052142851 0.75000006 2.341769e-38
-0.016384769 0.052003801 0.74799997 2.341769e-38
-0.014959996 0.052003805 0.74800003 2.341769e-38
-0.013517126 0.051934291 0.74700004 2.341769e-38
-0.012094278 0.051934291 0.74700004 2.341769e-38
-0.010671405 0.05193428 0.74700004 2.341769e-38
-0.0092485575 0.051934287 0.74700004 2.341769e-38
-0.0078047668 0.051795226 0.74500006 2.341769e-38
-0.006385705 0.051795229 0.74500006 2.341769e-38
-0.0049666637 0.051795229 0.74500006 2.341769e-38
-0.0035381133 0.051656183 0.74300003 2.3417686e-38
-0.0021199922 0.051586669 0.74200004 2.3417683e-38
-0.0007066431 0.051586669 0.74200004 2.3417306e-38
0.00070666312 0.051586658 0.74200004 2.3233977e-38
0.0021199973 0.051586669 0.74200004 2.293795e-38
0.0035333426 0.051586661 0.74200004 1.8883485e-38
0.0049466765 0.051586673 0.74200004 1.4831981e-38
0.0063599828 0.051586661 0.74200004 1.6847359e-38
0.007773356 0.051586665 0.74200004 1.8786328e-38
0.0091866646 0.051586665 0.74200004 2.1113087e-38
0.010599997 0.051586661 0.74199998 2.3415484e-38
0.012013344 0.051586658 0.74200004 2.2683006e-38
0.013426676 0.051586669 0.74200004 2.1845357e-38
0.014840022 0.051586665 0.74200004 2.0744757e-38
0.016253334 0.051586673 0.74200004 1.964166e-38
0.017666662 0.051586665 0.74200004 1.9551983e-38
0.019105729 0.051656179 0.74300003 1.9463378e-38
0.02052092 0.05165619 0.74299997 1.8917749e-38
0.021936174 0.051656198 0.74299997 1.8363146e-38
0.023414293 0.05179524 0.74500006 1.7625232e-38
0.024899993 0.051934302 0.74699998 1.6799427e-38
0.026322842 0.051934298 0.74699998 1.735008e-38
0.027782869 0.052003801 0.74800003 1.7899658e-38
0.029207598 0.052003808 0.74799997 1.7712759e-38
0.030714296 0.052142859 0.75000006 1.7525498e-38
0.032142878 0.052142859 0.75000006 1.7246761e-38
0.033660945 0.052281912 0.75199997 1.6967286e-38
0.035140052 0.052351423 0.75300002 1.6681711e-38
0.036671419 0.052490473 0.755 1.6321558e-38
0.038109537 0.052490465 0.75500005 1.623153e-38
0.039600007 0.052559994 0.75600004 1.6051807e-38
0.041148584 0.052699052 0.75800002 1.5771639e-38
0.042592395 0.052699056 0.75800002 1.549648e-38
0.044036206 0.052699056 0.75800002 1.6141111e-38
0.046320017 0.05367237 0.77200001 1.678433e-38
-0.032785721 0.05464286 0.76499999 1.8995165e-38
-0.03124667 0.054499991 0.76300001 1.9641234e-38
-0.02987144 0.054642856 0.76499999 2.0288037e-38
-0.028340004 0.054499999 0.76300001 2.1114206e-38
-0.026816186 0.054357145 0.76100004 2.2035459e-38
-0.02526666 0.054142855 0.75800002 2.2680488e-38
-0.023759998 0.054000001 0.75600004 2.3417687e-38
-0.022290461 0.053928562 0.75500005 2.341769e-38
-0.020797124 0.053785697 0.75300002 2.341769e-38
-0.019337166 0.053714283 0.75199997 2.341769e-38
-0.01785716 0.053571433 0.75000006 2.341769e-38
-0.016428582 0.053571418 0.75000006 2.341769e-38
-0.014960008 0.053428575 0.74799997 2.341769e-38
-0.013517129 0.053357139 0.74700004 2.3325854e-38
-0.012094282 0.053357143 0.74700004 2.3234019e-38
-0.010671432 0.053357147 0.74700004 2.2588301e-38
-0.0092485603 0.053357139 0.74700004 2.2040158e-38
-0.0078047537 0.053214278 0.74500006 2.2312794e-38
-0.0063856882 0.053214282 0.74500006 2.2591171e-38
-0.0049666488 0.053214282 0.74500006 2.2496106e-38
-0.0035380798 0.053071417 0.74300003 2.2499328e-38
-0.0021200108 0.053000007 0.74200004 2.1480878e-38
-0.00070664124 0.053000011 0.74200004 2.0477121e-38
0.00070666871 0.052999996 0.74200004 2.0465617e-38
0.002120001 0.053000007 0.74199998 2.0362596e-38
0.0035333482 0.053000003 0.74200004 1.7404781e-38
0.0049466542 0.052999996 0.74200004 1.4541416e-38
0.0063599884 0.053000003 0.74199998 1.5741053e-38
0.0077733356 0.053000003 0.74200004 1.7013867e-38
0.0091866683 0.052999996 0.74200004 1.9252745e-38
0.010600016 0.052999996 0.74200004 2.1489114e-38
0.012013348 0.053000003 0.74200004 2.1947246e-38
0.013426654 0.053000007 0.74200004 2.2407134e-38
0.014840027 0.053000007 0.74200004 1.8625011e-38
0.016253334 0.052999999 0.74200004 1.4852222e-38
0.017690461 0.053071436 0.74300003 1.5499015e-38
0.019105718 0.053071421 0.74300003 1.624088e-38
0.020576198 0.053214286 0.74500006 1.7715993e-38
0.021995241 0.053214286 0.74500006 1.9277194e-38
0.023477156 0.05335715 0.74700004 1.8173728e-38
0.024933327 0.053428575 0.74799997 1.7069187e-38
0.026358102 0.053428572 0.74800003 1.7621988e-38
0.027782831 0.053428568 0.74799997 1.8263763e-38
0.029285744 0.053571425 0.75000006 1.7802436e-38
0.030714285 0.053571429 0.75000006 1.7341468e-38
0.032228589 0.053714283 0.75199997 1.6421679e-38
0.033705737 0.053785693 0.75300002 1.5500791e-38
0.035140011 0.0537857 0.75300002 1.5769818e-38
0.03667146 0.053928565 0.75500005 1.5952413e-38
0.03816 0.054000001 0.75600004 1.6231506e-38
0.039600007 0.054000005 0.75600004 1.6415183e-38
0.041257139 0.054285716 0.75999999 1.6324428e-38
0.042760983 0.054357138 0.76100004 1.6141472e-38
0.044210486 0.054357149 0.76100004 1.6600646e-38
0.046200015 0.054999985 0.77000004 1.705912e-38
-0.034332398 0.056246657 0.76700002 1.8167564e-38
-0.032785729 0.056100003 0.76499999 1.8627459e-38
-0.03132857 0.056100007 0.76499999 1.9827779e-38
-0.029793348 0.055953342 0.76300001 2.0930899e-38
-0.028339995 0.055953339 0.76300001 2.1483366e-38
-0.026816159 0.05580667 0.76100004 2.2036908e-38
-0.025266645 0.055586673 0.75800002 2.2772328e-38
-0.023760026 0.055440005 0.75600004 2.3416971e-38
-0.022290483 0.055366661 0.75500005 2.341769e-38
-0.020797141 0.055219993 0.75300002 2.341769e-38
-0.01936283 0.055219989 0.75300002 2.341769e-38
-0.017904786 0.055146679 0.75199997 2.341769e-38
-0.016428571 0.055 0.75000006 2.341769e-38
-0.014960004 0.054853328 0.74800003 2.3417683e-38
-0.013535247 0.054853339 0.74799997 2.3234005e-38
-0.012094283 0.054780003 0.74699998 2.2952389e-38
-0.010671435 0.054780003 0.74699998 2.1844613e-38
-0.0092238002 0.054633319 0.74500012 2.0646454e-38
-0.007804737 0.054633327 0.74500006 2.1202496e-38
-0.0063856975 0.054633331 0.74500012 2.1755293e-38
-0.0049666339 0.054633334 0.74500006 2.1659861e-38
-0.0035475942 0.054633323 0.74500012 2.1470783e-38
-0.0021200089 0.054413348 0.74199998 1.9528581e-38
-0.00070666173 0.054413334 0.74200004 1.7512865e-38
0.00070667057 0.054413341 0.74200004 1.7696896e-38
0.0021200178 0.054413337 0.74200004 1.7778627e-38
0.0035333482 0.054413334 0.74200004 1.6015398e-38
0.0049466579 0.054413337 0.74200004 1.4186978e-38
0.0063428911 0.054266654 0.74000001 1.4745565e-38
0.0077733374 0.054413326 0.74200004 1.5291909e-38
0.0091866478 0.05441333 0.74200004 1.7394793e-38
0.010600017 0.05441333 0.74200004 1.9443563e-38
0.012013325 0.054413337 0.74200004 2.1209294e-38
0.01342666 0.054413348 0.74199998 2.2850126e-38
0.014860008 0.054486662 0.74300003 1.649517e-38
0.016275203 0.05448667 0.74299997 1.0071725e-38
0.017690457 0.054486677 0.74299997 1.1535011e-38
0.019105691 0.054486662 0.74300003 1.2930131e-38
0.020576194 0.054633331 0.74500006 1.661217e-38
0.021995258 0.054633338 0.74500006 2.019447e-38
0.023477152 0.054780003 0.74700004 1.8722948e-38
0.024933293 0.054853342 0.74799997 1.7254653e-38
0.02635809 0.054853331 0.74799997 1.7896065e-38
0.027782859 0.054853331 0.74800003 1.8539993e-38
0.029285714 0.055000011 0.75000006 1.7799929e-38
0.030714294 0.054999996 0.75000006 1.7069553e-38
0.032228578 0.055146676 0.75199997 1.5596959e-38
0.03370576 0.055219986 0.75300002 1.403466e-38
0.035233323 0.055366654 0.75500005 1.4852191e-38
0.036719967 0.055440001 0.75599998 1.5589028e-38
0.038159993 0.055440012 0.75599998 1.6234387e-38
0.0397048 0.055586662 0.75800002 1.6784686e-38
0.041257173 0.055733323 0.76000005 1.6785049e-38
0.042760972 0.055806674 0.76100004 1.6785407e-38
0.044326656 0.055953328 0.76300001 1.7061273e-38
0.0462 0.056466658 0.77000004 1.7245314e-38
0.047666676 0.05646665 0.77000004 1.7889966e-38
-0.034242861 0.057557154 0.76499999 1.798029e-38
-0.032785699 0.057557136 0.76499999 1.8254373e-38
-0.0313286 0.057557147 0.76499999 1.954869e-38
-0.029871441 0.057557143 0.76499999 2.0838002e-38
-0.028414279 0.057557132 0.76499999 2.1759972e-38
-0.026886694 0.057406675 0.76300001 2.2682282e-38
-0.025266631 0.057030488 0.75800002 2.3049631e-38
-0.023822818 0.057030477 0.75800002 2.341769e-38
-0.022290478 0.056804754 0.75500005 2.341769e-38
-0.020852396 0.056804761 0.755 2.341769e-38
-0.019362848 0.056654274 0.75300002 2.341769e-38
-0.017857144 0.056428563 0.75000006 2.341769e-38
-0.016428562 0.056428563 0.75000006 2.2958154e-38
-0.014960016 0.056278098 0.74799997 2.2591157e-38
-0.013535245 0.056278083 0.74800003 2.185e-38
-0.012110511 0.056278091 0.74799997 2.1200675e-38
-0.010671438 0.05620287 0.74699998 1.9070501e-38
-0.0092485882 0.056202874 0.74699998 1.703973e-38
-0.0078047444 0.056052361 0.74500012 1.8523102e-38
-0.0063857199 0.056052379 0.74500006 2.0006083e-38
-0.0049666804 0.056052376 0.74500006 2.0001041e-38
-0.0035476147 0.056052379 0.74500006 2.0083149e-38
-0.002122883 0.0559019 0.74300003 1.8418587e-38
-0.00070665986 0.055826671 0.74200004 1.6848802e-38
0.00070665008 0.055826664 0.74200004 1.7410245e-38
0.0021200196 0.055826664 0.74200004 1.7957257e-38
0.0035333296 0.055826671 0.74200004 1.7868596e-38
0.0049466616 0.055826679 0.74199998 1.7874022e-38
0.0063600088 0.05582666 0.74200004 1.8338982e-38
0.0077733393 0.055826671 0.74200004 1.880888e-38
0.0091866888 0.055826668 0.74200004 1.8146259e-38
0.010600019 0.05582666 0.74200004 1.7497382e-38
0.012029516 0.0559019 0.74299997 1.8148191e-38
0.013444748 0.0559019 0.74300003 1.8891112e-38
0.014860004 0.055901907 0.74300003 1.7788355e-38
0.016275236 0.055901892 0.74300003 1.6782145e-38
0.017690467 0.055901892 0.74300003 1.6415913e-38
0.019105721 0.055901896 0.74300003 1.6056836e-38
0.020576209 0.056052368 0.74500006 1.8173011e-38
0.022054281 0.056202866 0.74700004 2.0195903e-38
0.023477128 0.056202855 0.74700004 1.9554129e-38
0.024933321 0.056278083 0.74799997 1.8911282e-38
0.02635809 0.056278087 0.74800003 1.9096031e-38
0.027782848 0.056278098 0.74799997 1.9373332e-38
0.029285699 0.05642857 0.75000006 1.881981e-38
0.030714303 0.05642857 0.75000006 1.8366017e-38
0.032228589 0.056579046 0.75200003 1.7533761e-38
0.033705719 0.056654274 0.75300002 1.6708301e-38
0.035233326 0.056804758 0.755 1.6790791e-38
0.03672 0.056879997 0.75600004 1.6877963e-38
0.03816 0.056880001 0.75600004 1.6877246e-38
0.039704792 0.057030473 0.75800002 1.6969801e-38
0.041311432 0.057256192 0.76100004 1.6786133e-38
0.042873316 0.057406668 0.76300001 1.6603183e-38
0.044326667 0.057406668 0.76300001 1.6693945e-38
0.046079982 0.057782874 0.76799995 1.6787581e-38
0.047666665 0.057933323 0.77000004 1.6787229e-38
-0.034242868 0.059014298 0.76499999 1.7886998e-38
-0.032785729 0.059014283 0.76499999 1.7796984e-38
-0.031410474 0.059168559 0.76700002 1.9273912e-38
-0.029871449 0.059014294 0.76499999 2.0746892e-38
-0.028414287 0.059014291 0.76499999 2.2036559e-38
-0.026886685 0.058860004 0.76300001 2.3324773e-38
-0.025266677 0.058474291 0.75800002 2.341769e-38
-0.023822863 0.058474295 0.75800002 2.341769e-38
-0.022320032 0.058320019 0.75599998 2.341769e-38
-0.020852393 0.05824285 0.755 2.341769e-38
-0.019362828 0.05808856 0.75300002 2.341769e-38
-0.017857157 0.057857141 0.75000006 2.3417323e-38
-0.016428553 0.057857145 0.75000006 2.2590078e-38
-0.01495999 0.057702847 0.74800003 2.1664874e-38
-0.013535256 0.057702854 0.74799997 2.0558153e-38
-0.012110485 0.057702854 0.74800003 1.9440682e-38
-0.010671425 0.057625711 0.74700004 1.6381033e-38
-0.0092485528 0.057625718 0.74700004 1.3360516e-38
-0.0078257043 0.057625722 0.74700004 1.5844389e-38
-0.0064028543 0.057625711 0.74700004 1.8250761e-38
-0.0049666655 0.057471432 0.74500006 1.8438372e-38
-0.0035476258 0.057471432 0.74500006 1.8610524e-38
-0.0021228513 0.057317134 0.74300003 1.7397612e-38
-0.00070665614 0.057240013 0.74200004 1.6121992e-38
0.00070665381 0.057240002 0.74199998 1.7137596e-38
0.002120001 0.057240002 0.74200004 1.8059873e-38
0.0035333333 0.057240009 0.74200004 1.9811898e-38
0.0049466803 0.057239991 0.74200004 2.1555008e-38
0.0063600107 0.057240002 0.74200004 2.1927045e-38
0.0077733207 0.057240006 0.74200004 2.219712e-38
0.0091866907 0.057239994 0.74200004 1.8883818e-38
0.010614295 0.057317145 0.74300003 1.5470838e-38
0.012029525 0.05731713 0.74300003 1.5178831e-38
0.013444744 0.057317141 0.74299997 1.492846e-38
0.014859973 0.057317141 0.74300003 1.916906e-38
0.016275229 0.057317134 0.74299997 2.3400377e-38
0.017690461 0.057317134 0.74300003 2.1290023e-38
0.019105695 0.057317138 0.74300003 1.9182839e-38
0.020576222 0.057471421 0.74500006 1.9735655e-38
0.022054274 0.057625722 0.74699998 2.0199137e-38
0.023477126 0.057625726 0.74699998 2.0386035e-38
0.024933308 0.057702858 0.74799997 2.0476437e-38
0.026358079 0.057702858 0.74799997 2.029456e-38
0.027857168 0.057857141 0.75000006 2.0109453e-38
0.029285708 0.057857148 0.75000006 1.9922912e-38
0.030796187 0.058011442 0.75199997 1.9648484e-38
0.032228578 0.058011428 0.75199997 1.9555936e-38
0.033705741 0.058088563 0.75300002 1.9369742e-38
0.03523333 0.058242865 0.755 1.8816564e-38
0.036719993 0.058320004 0.75600004 1.8163666e-38
0.038159996 0.058320008 0.75600004 1.7610855e-38
0.039704766 0.058474299 0.75800002 1.7060914e-38
0.041311458 0.058705702 0.76100004 1.6694285e-38
0.042873323 0.058860011 0.76300001 1.6325144e-38
0.04444284 0.059014283 0.76499999 1.6324064e-38
0.046079982 0.059245724 0.76799995 1.6321906e-38
0.047666691 0.059399985 0.77000004 1.5677256e-38
-0.032871433 0.060629528 0.76700002 1.6966513e-38
-0.031328578 0.060471423 0.76499999 1.8811876e-38
-0.029871419 0.060471427 0.76499999 2.0655422e-38
-0.028414296 0.06047143 0.76499999 2.1851816e-38
-0.026816178 0.060155239 0.76100004 2.3142181e-38
-0.025333336 0.060076192 0.75999999 2.3234019e-38
-0.023822848 0.059918109 0.75800002 2.341769e-38
-0.02232 0.059760004 0.75600004 2.341769e-38
-0.020879995 0.059760004 0.75600004 2.341769e-38
-0.019362828 0.059522845 0.75300002 2.341769e-38
-0.017904758 0.059443802 0.75200003 2.3417673e-38
-0.016428567 0.059285704 0.75000006 2.1754572e-38
-0.014999987 0.0592857 0.75000006 2.0185427e-38
-0.013571424 0.059285711 0.75000006 1.9906643e-38
-0.012110497 0.059127621 0.74799997 1.9714343e-38
-0.010685723 0.059127621 0.74800003 1.7313686e-38
-0.0092485789 0.059048567 0.74700004 1.5013859e-38
-0.007825708 0.059048574 0.74699998 1.7599608e-38
-0.0064028599 0.059048578 0.74700004 2.0182849e-38
-0.0049666506 0.058890477 0.74500006 2.027505e-38
-0.0035476109 0.058890466 0.74500006 2.0451512e-38
-0.0021228569 0.058732376 0.74300003 1.9714642e-38
-0.00070762471 0.058732379 0.74300003 1.9073626e-38
0.00070669479 0.058653325 0.74200004 1.9441721e-38
0.0021200047 0.058653329 0.74200004 1.9719746e-38
0.0035380961 0.058732372 0.74300003 1.9442094e-38
0.0049466821 0.058653321 0.74200004 1.9168038e-38
0.0063685435 0.058732372 0.74300003 1.8609148e-38
0.0077733244 0.058653336 0.74199998 1.796409e-38
0.0091990326 0.058732376 0.74300003 1.7037427e-38
0.010614265 0.058732379 0.74300003 1.6201154e-38
0.012029519 0.058732368 0.74300003 1.5927374e-38
0.013444752 0.058732368 0.74300003 1.5657669e-38
0.014860008 0.058732376 0.74300003 1.8712337e-38
0.01627524 0.058732361 0.74300003 2.1665883e-38
0.017690497 0.058732368 0.74300003 2.1297926e-38
0.019105688 0.058732379 0.74299997 2.1026731e-38
0.020576177 0.058890477 0.74500006 2.1302604e-38
0.022054289 0.05904856 0.74700004 2.1672816e-38
0.023508543 0.059127614 0.74799997 2.1580261e-38
0.024933312 0.059127618 0.74800003 2.1578468e-38
0.026358109 0.059127621 0.74800003 2.1488426e-38
0.027857177 0.059285719 0.75000006 2.148914e-38
0.029363807 0.059443809 0.75200003 2.029097e-38
0.030796194 0.059443813 0.75200003 1.9187513e-38
0.032271452 0.059522841 0.75300002 1.8820175e-38
0.03379523 0.059680946 0.75500005 1.8541076e-38
0.035233371 0.059680946 0.75500005 1.7336446e-38
0.036719985 0.059760012 0.75599998 1.6134682e-38
0.038159989 0.059760001 0.75599998 1.6045347e-38
0.039704781 0.059918094 0.75800002 1.5865969e-38
0.041419979 0.06031334 0.76300001 1.613716e-38
0.04287333 0.060313337 0.76300001 1.6413372e-38
0.044442873 0.060471419 0.76499999 1.6316502e-38
0.046079963 0.06070859 0.76799995 1.6315406e-38
-0.034466662 0.062333323 0.77000004 1.6779937e-38
-0.032871418 0.062090464 0.76700002 1.614179e-38
-0.031410452 0.062090464 0.76700002 1.8351262e-38
-0.029871427 0.06192857 0.76499999 2.0469235e-38
-0.028340019 0.061766669 0.76299995 2.1665267e-38
-0.02681615 0.061604749 0.76100004 2.2864516e-38
-0.025333337 0.061523814 0.75999999 2.3142183e-38
-0.023885716 0.061523814 0.75999999 2.341769e-38
-0.022320028 0.061200008 0.75600004 2.341769e-38
-0.020880001 0.061200012 0.75600004 2.341769e-38
-0.019362846 0.060957141 0.75300002 2.341769e-38
-0.017904766 0.060876198 0.75199997 2.341121e-38
-0.01642856 0.060714278 0.75000006 2.1008038e-38
-0.015000017 0.060714286 0.75000006 1.8620248e-38
-0.013571437 0.060714286 0.75000006 1.9260878e-38
-0.012142834 0.060714275 0.75000006 1.9896911e-38
-0.010685735 0.060552374 0.74799997 1.8328891e-38
-0.0092609655 0.060552377 0.74800003 1.6676961e-38
-0.0078257341 0.060471427 0.74699998 1.944892e-38
-0.0064028618 0.06047143 0.74699998 2.211682e-38
-0.0049800151 0.06047143 0.74699998 2.2211173e-38
-0.0035571645 0.060471438 0.74699998 2.220972e-38
-0.0021228848 0.060147617 0.74300003 2.2118943e-38
-0.0007076303 0.060147624 0.74299997 2.2022085e-38
0.00070954836 0.060309514 0.74500006 2.1743709e-38
0.0021228583 0.060147613 0.74300003 2.1373872e-38
0.0035380886 0.060147613 0.74300003 1.9068673e-38
0.0049533225 0.060147613 0.74300003 1.6768456e-38
0.006368577 0.060147621 0.74300003 1.5285431e-38
0.0077838092 0.060147606 0.74300003 1.3725285e-38
0.009199027 0.060147621 0.74299997 1.5284678e-38
0.010614259 0.060147621 0.74300003 1.684911e-38
0.012029516 0.060147613 0.74299997 1.6671538e-38
0.013444748 0.060147613 0.74300003 1.6408268e-38
0.014859978 0.060147617 0.74300003 1.817363e-38
0.016275233 0.060147621 0.74300003 1.9922503e-38
0.017738087 0.060309518 0.74500006 2.1391921e-38
0.019157153 0.060309526 0.74500006 2.2772686e-38
0.020576194 0.060309526 0.74500006 2.2958513e-38
0.022054287 0.06047143 0.74700004 2.3050348e-38
0.023508567 0.060552374 0.74799997 2.2866677e-38
0.024933301 0.060552385 0.74799997 2.2682289e-38
0.026428582 0.060714278 0.75000006 2.2774842e-38
0.027857166 0.060714275 0.75000006 2.2773045e-38
0.0293638 0.060876206 0.75199997 2.0747639e-38
0.030796187 0.060876191 0.75199997 1.8729055e-38
0.032271467 0.060957126 0.75300002 1.8180197e-38
0.033795234 0.06111905 0.75500005 1.7616962e-38
0.035233352 0.061119031 0.75500005 1.5853767e-38
0.036719996 0.061200004 0.75600004 1.4109589e-38
0.038159963 0.061200004 0.75599998 1.4386152e-38
0.039809518 0.061523814 0.75999999 1.4666318e-38
0.04141999 0.06176668 0.76300001 1.5575343e-38
0.0429857 0.061928578 0.76499999 1.6408652e-38
0.044559069 0.062090464 0.76700002 1.6397145e-38
0.046079967 0.062171441 0.76799995 1.6320029e-38
-0.034466673 0.063799977 0.77000004 1.6782458e-38
-0.032914277 0.063634291 0.76799995 1.6418735e-38
-0.031410474 0.063551426 0.76699996 1.8536365e-38
-0.029871456 0.06338571 0.76499999 2.0653619e-38
-0.02834001 0.063219994 0.76299995 2.1758529e-38
-0.026886679 0.063219994 0.76300001 2.2864871e-38
-0.025366656 0.063054293 0.76100004 2.3141465e-38
-0.023885742 0.062971428 0.75999999 2.341769e-38
-0.022379044 0.062805735 0.75799996 2.341769e-38
-0.020880029 0.062640011 0.75600004 2.341769e-38
-0.019362826 0.062391415 0.75300002 2.3049272e-38
-0.017904777 0.062308576 0.75199997 2.2679032e-38
-0.016428549 0.062142856 0.75000006 2.0370201e-38
-0.015039999 0.06230858 0.75199997 1.8067772e-38
-0.013571427 0.062142853 0.75000006 1.7602052e-38
-0.012142848 0.062142853 0.75000006 1.7232936e-38
-0.010714283 0.062142853 0.75 1.5756054e-38
-0.0092609748 0.061977144 0.74799997 1.4283877e-38
-0.007836204 0.061977141 0.74800003 1.6409426e-38
-0.0064028506 0.06189429 0.74700004 1.8635008e-38
-0.0049799778 0.061894294 0.74700004 1.9824211e-38
-0.0035476016 0.061728563 0.74500012 2.1118874e-38
-0.0021285398 0.061728552 0.74500006 2.1019861e-38
-0.00070762285 0.061562851 0.74300003 2.1019107e-38
0.00070759444 0.061562851 0.74299997 2.0552718e-38
0.0021228285 0.061562851 0.74299997 2.0003524e-38
0.0035380812 0.061562859 0.74299997 1.8613103e-38
0.004953315 0.061562859 0.74300003 1.722546e-38
0.0063685472 0.061562862 0.74300003 1.5102057e-38
0.0077838036 0.061562851 0.74300003 1.2978384e-38
0.0091990344 0.061562851 0.74300003 1.2525326e-38
0.010614291 0.061562859 0.74300003 1.207626e-38
0.012029523 0.061562844 0.74300003 1.2725991e-38
0.013444778 0.061562851 0.74300003 1.3477556e-38
0.014859973 0.061562862 0.74299997 1.7164625e-38
0.016275207 0.061562862 0.74300003 2.0846296e-38
0.017738104 0.061728574 0.74500006 2.1946887e-38
0.019157145 0.061728574 0.74500006 2.3050348e-38
0.020631434 0.061894298 0.74699998 2.3050348e-38
0.022083798 0.061977137 0.74800003 2.3050348e-38
0.023508556 0.061977148 0.74799997 2.2774124e-38
0.024999991 0.062142853 0.75000006 2.2591171e-38
0.026428591 0.062142853 0.75000006 2.2040158e-38
0.02785717 0.062142838 0.75000006 2.1489143e-38
0.02936383 0.062308576 0.75200003 2.0200215e-38
0.030796178 0.062308572 0.75199997 1.8912368e-38
0.03227143 0.062391423 0.75300002 1.7435827e-38
0.033795238 0.062557146 0.755 1.605538e-38
0.035279989 0.062640011 0.75600004 1.566611e-38
0.036817163 0.062805712 0.75800002 1.529838e-38
0.038260996 0.062805727 0.75800002 1.7149769e-38
0.039809555 0.062971428 0.76000005 1.9081906e-38
0.041419998 0.063220009 0.76300001 1.9449968e-38
0.042985734 0.06338571 0.76499999 1.9911616e-38
0.044559062 0.063551411 0.76700002 1.991265e-38
-0.034466688 0.065266661 0.77000004 1.6779582e-38
-0.032914273 0.065097146 0.76799995 1.660312e-38
-0.031451441 0.065097146 0.76799995 1.8721468e-38
-0.029871427 0.064842857 0.76500005 2.0745813e-38
-0.028340021 0.064673334 0.76300001 2.1757814e-38
-0.02688667 0.064673319 0.76300001 2.2772319e-38
-0.025366653 0.064503804 0.76100004 2.314039e-38
-0.023885706 0.064419046 0.76000005 2.3417331e-38
-0.02237903 0.064249538 0.75799996 2.341769e-38
-0.020852365 0.063995227 0.75500005 2.3417687e-38
-0.019440031 0.06408 0.75599998 2.2683e-38
-0.01790477 0.063740946 0.75200003 2.1936788e-38
-0.016472396 0.063740954 0.75199997 1.972623e-38
-0.015040006 0.063740939 0.75199997 1.7508161e-38
-0.013607619 0.063740954 0.75199997 1.6029798e-38
-0.01214284 0.063571416 0.75000006 1.4469659e-38
-0.010714298 0.063571423 0.75000006 1.317893e-38
-0.009260973 0.063401908 0.74800003 1.1799987e-38
-0.0078362152 0.063401908 0.74799997 1.3453767e-38
-0.006411443 0.0634019 0.74799997 1.5121541e-38
-0.0049800039 0.06331715 0.74700004 1.7514673e-38
-0.0035476277 0.063147627 0.74500006 1.9908848e-38
-0.002122883 0.062978089 0.74300003 2.0006059e-38
-0.00070762844 0.062978089 0.74300003 1.9995635e-38
0.00070760562 0.062978081 0.74300003 1.9352407e-38
0.002128558 0.063147627 0.74500006 1.8612e-38
0.0035476198 0.063147619 0.74500006 1.8153917e-38
0.0049533467 0.062978074 0.74300003 1.7589565e-38
0.0063685416 0.062978089 0.74299997 1.4919095e-38
0.0077837962 0.062978096 0.74299997 1.2243341e-38
0.0092238057 0.063147619 0.74500006 9.7623798e-39
0.010614261 0.062978104 0.74300003 7.2925744e-39
0.012029517 0.062978089 0.74300003 8.8613785e-39
0.013444752 0.062978089 0.74300003 1.044412e-38
0.014860008 0.062978096 0.74300003 1.6160533e-38
0.016319055 0.063147619 0.74500006 2.1764292e-38
0.017738119 0.063147619 0.74500006 2.2499335e-38
0.019157156 0.063147612 0.74500006 2.3234019e-38
0.02063141 0.06331715 0.74699998 2.3142183e-38
0.022083785 0.063401908 0.74799997 2.2953842e-38
0.023508558 0.063401908 0.74800003 2.2771599e-38
0.024999997 0.063571423 0.75000006 2.2496813e-38
0.02642858 0.063571408 0.75000006 2.1397302e-38
0.027857181 0.063571416 0.75000006 2.0198774e-38
0.029363798 0.063740954 0.75199997 1.9650989e-38
0.030796209 0.063740939 0.75199997 1.8993778e-38
0.032271452 0.063825712 0.75300002 1.6778953e-38
0.033795215 0.063995227 0.755 1.4474069e-38
0.035279982 0.064080015 0.75599998 1.5457327e-38
0.036817141 0.064249523 0.75799996 1.6408682e-38
0.038260952 0.064249545 0.75800002 1.9924259e-38
0.039861925 0.064503804 0.76100004 2.3411122e-38
0.041419983 0.064673334 0.76300001 2.3413977e-38
0.0429857 0.064842865 0.76499999 2.3412535e-38
0.044559032 0.065012373 0.76699996 2.3417551e-38
-0.034466662 0.066733316 0.77000004 1.7059029e-38
-0.032871418 0.066473328 0.76699996 1.7706217e-38
-0.031410474 0.066473328 0.76700002 1.9273554e-38
-0.029871436 0.066300005 0.76499999 2.0839801e-38
-0.028340014 0.066126674 0.76300001 2.1850729e-38
-0.026886698 0.066126674 0.76299995 2.2958504e-38
-0.025366664 0.065953344 0.76100004 2.323366e-38
-0.023822848 0.065693341 0.75800002 2.341769e-38
-0.022320006 0.065520003 0.75600004 2.341769e-38
-0.020852361 0.065433323 0.75500005 2.3325849e-38
-0.01941428 0.065433338 0.755 2.1296851e-38
-0.017928571 0.065260001 0.75300002 1.9260976e-38
-0.016472388 0.065173328 0.75199997 1.7314065e-38
-0.01504 0.065173328 0.75200003 1.5381606e-38
-0.013571433 0.06499999 0.75000006 1.5112588e-38
-0.012142829 0.064999998 0.75000006 1.4926724e-38
-0.010714287 0.064999998 0.75000006 1.4005817e-38
-0.0092609823 0.06482666 0.74799997 1.3171034e-38
-0.0078362115 0.064826652 0.74800003 1.4006868e-38
-0.0064114542 0.064826652 0.74799997 1.4923121e-38
-0.0049800058 0.064740002 0.74699998 1.5756505e-38
-0.003557157 0.064740002 0.74700004 1.6495846e-38
-0.0021285715 0.064566672 0.74500006 1.6398981e-38
-0.00070953206 0.064566657 0.74500006 1.629853e-38
0.0007095316 0.064566672 0.74500006 1.5842217e-38
0.002128571 0.064566657 0.74500006 1.5376592e-38
0.0035476123 0.064566664 0.74500006 1.5290146e-38
0.0049666739 0.064566672 0.74500006 1.5192507e-38
0.0063685733 0.064393342 0.74300003 1.3532945e-38
0.0077838073 0.064393327 0.74300003 1.1771968e-38
0.0091990624 0.064393327 0.74300003 9.9392447e-39
0.01064286 0.064566649 0.74500006 8.2048421e-39
0.01202949 0.064393327 0.74300003 1.088464e-38
0.01344474 0.064393327 0.74300003 1.3654063e-38
0.014900006 0.064566649 0.74500006 1.6884455e-38
0.01631907 0.064566672 0.74500006 2.0111612e-38
0.017785724 0.064739995 0.74700004 2.0012961e-38
0.019208573 0.064740002 0.74700004 2.0019777e-38
0.020631447 0.064740002 0.74700004 1.9545174e-38
0.022083811 0.064826667 0.74799997 1.9086341e-38
0.023508547 0.06482666 0.74799997 1.9080228e-38
0.025000002 0.06499999 0.75000006 1.9094585e-38
0.026428586 0.064999998 0.75000006 1.8718639e-38
0.027857125 0.064999998 0.75000006 1.844062e-38
0.029402863 0.065259993 0.75300002 1.8900871e-38
0.030837158 0.065260001 0.75300002 1.9346391e-38
0.032357134 0.065433323 0.75500005 1.7791978e-38
0.033839986 0.065520003 0.75600004 1.6308609e-38
0.035280015 0.065520003 0.75600004 1.7598239e-38
0.036817156 0.065693341 0.75800002 1.8995168e-38
0.038361907 0.065866664 0.76000005 2.120929e-38
0.039861914 0.065953337 0.76100004 2.3417613e-38
0.041637171 0.066473328 0.76700002 2.3416502e-38
0.043098077 0.06647332 0.76699996 2.3417607e-38
0.044617124 0.066560008 0.76799995 2.3416559e-38
-0.032871407 0.067934275 0.76699996 1.8719307e-38
-0.031410459 0.06793426 0.76700002 1.9826741e-38
-0.029871443 0.06775713 0.76499999 2.0838016e-38
-0.028340004 0.067580014 0.76300001 2.2030449e-38
-0.02688669 0.067580014 0.76299995 2.3139661e-38
-0.025366636 0.067402855 0.76100004 2.3325853e-38
-0.02388571 0.067314275 0.75999999 2.341769e-38
-0.02237902 0.067137152 0.75800002 2.3325854e-38
-0.020880008 0.066960007 0.75599998 2.3229654e-38
-0.0194143 0.06687142 0.75500005 1.9916701e-38
-0.01792855 0.066694275 0.75300002 1.657511e-38
-0.016472397 0.066605717 0.75199997 1.4887277e-38
-0.01504001 0.066605717 0.75199997 1.3175057e-38
-0.013607621 0.066605702 0.75200003 1.429503e-38
-0.012175248 0.066605717 0.75199997 1.5300168e-38
-0.010714278 0.066428579 0.75000006 1.4930287e-38
-0.0092856986 0.066428564 0.75000006 1.4471122e-38
-0.0078571569 0.066428572 0.75000006 1.4662698e-38
-0.0064285775 0.066428572 0.75000006 1.474732e-38
-0.0049999733 0.066428557 0.75000006 1.3908923e-38
-0.0035619235 0.066251434 0.74799997 1.3084585e-38
-0.0021285566 0.065985702 0.74500006 1.2887671e-38
-0.00070951716 0.065985709 0.74500006 1.2617898e-38
0.0007114464 0.066162854 0.74700004 1.2432428e-38
0.0021285859 0.065985695 0.74500006 1.2159084e-38
0.0035476291 0.065985717 0.74500006 1.2529664e-38
0.0049666683 0.065985702 0.74500006 1.2803338e-38
0.006385732 0.065985709 0.74500006 1.2065027e-38
0.0078047714 0.065985709 0.74500006 1.1322469e-38
0.0092238355 0.065985702 0.74500006 1.0201447e-38
0.010642875 0.065985709 0.74500006 9.0352642e-39
0.012061916 0.065985702 0.74500012 1.3002185e-38
0.013517153 0.066162869 0.74700004 1.6867155e-38
0.014940001 0.066162854 0.74700004 1.7610795e-38
0.016362876 0.066162862 0.74699998 1.8343326e-38
0.017785724 0.066162869 0.74700004 1.7605054e-38
0.019208571 0.066162854 0.74700004 1.677208e-38
0.020659044 0.066251427 0.74800003 1.5931931e-38
0.022083778 0.066251427 0.74799997 1.511257e-38
0.023571411 0.066428564 0.75000006 1.5368688e-38
0.025000013 0.066428572 0.75000006 1.5581807e-38
0.026428595 0.066428557 0.75000006 1.6125677e-38
0.027931433 0.066605717 0.75199997 1.6695719e-38
0.02936382 0.066605702 0.75199997 1.8257296e-38
0.030837158 0.066694267 0.75300002 1.9732376e-38
0.032357138 0.066871427 0.75500005 1.8917667e-38
0.03379526 0.066871427 0.75500005 1.8076771e-38
0.035279989 0.066960007 0.75600004 1.9815519e-38
0.036817174 0.067137152 0.75800002 2.1480444e-38
0.038412396 0.067402855 0.76100004 2.2499292e-38
0.039966654 0.06758 0.76300001 2.3417633e-38
0.041420005 0.067580014 0.76300001 2.341726e-38
0.043154277 0.068022877 0.76800001 2.341763e-38
0.044733357 0.068199992 0.77000004 2.3417641e-38
0.046200022 0.068199992 0.77000004 2.341585e-38
-0.032871418 0.069395229 0.76700002 1.8905161e-38
-0.031410486 0.069395244 0.76699996 2.0103344e-38
-0.029793346 0.06903334 0.76300001 2.1390113e-38
-0.028339993 0.06903334 0.76300001 2.2310256e-38
-0.026886679 0.069033355 0.76299995 2.3234005e-38
-0.025366647 0.068852387 0.76100004 2.3325852e-38
-0.023885734 0.0687619 0.75999999 2.3417689e-38
-0.022379044 0.06858097 0.75799996 2.2220241e-38
-0.02093523 0.068580955 0.75799996 2.0931561e-38
-0.019440033 0.06840001 0.75600004 1.8611884e-38
-0.017976176 0.068309516 0.75500005 1.6184416e-38
-0.016494256 0.068128571 0.75300002 1.4445713e-38
-0.015040018 0.068038099 0.75199997 1.2819926e-38
-0.013607629 0.068038099 0.75199997 1.3370928e-38
-0.012175241 0.068038099 0.75200003 1.4018064e-38
-0.010742853 0.068038084 0.75200003 1.5026802e-38
-0.0093104811 0.068038106 0.75199997 1.6131019e-38
-0.0078571476 0.067857139 0.75000006 1.6780363e-38
-0.0064285663 0.067857131 0.75000006 1.7514918e-38
-0.0049999882 0.067857131 0.75000006 1.6310165e-38
-0.0035618974 0.067676187 0.74800003 1.519852e-38
-0.0021285659 0.067404762 0.74500006 1.3628772e-38
-0.00070950226 0.067404762 0.74500006 1.2067205e-38
0.00070953905 0.067404754 0.74500006 1.1508294e-38
0.0021285804 0.067404762 0.74500012 1.1053074e-38
0.0035476421 0.067404747 0.74500006 1.1603739e-38
0.0049533448 0.067223795 0.74300003 1.2160479e-38
0.006385745 0.067404762 0.74500006 1.3820679e-38
0.0078047863 0.067404747 0.74500006 1.5475865e-38
0.0092238262 0.067404762 0.74500012 1.4090793e-38
0.010642892 0.067404754 0.74500006 1.2813751e-38
0.012061931 0.067404762 0.74500012 1.4099492e-38
0.013517151 0.067585722 0.74699998 1.539556e-38
0.014940001 0.067585722 0.74699998 1.5939366e-38
0.016362848 0.067585707 0.74699998 1.6576474e-38
0.017809507 0.067676187 0.74799997 1.6485354e-38
0.019234277 0.067676187 0.74800003 1.6286981e-38
0.020659033 0.067676179 0.74799997 1.6027623e-38
0.022142876 0.067857139 0.75000006 1.5848596e-38
0.02357142 0.067857131 0.75000006 1.6314927e-38
0.025 0.067857146 0.75000006 1.678923e-38
0.026499048 0.068038106 0.75199997 1.7618677e-38
0.027931437 0.068038091 0.75200003 1.8458503e-38
0.029480958 0.068309516 0.75500005 1.8362395e-38
0.030919062 0.068309516 0.755 1.836667e-38
0.032357141 0.068309531 0.755 1.8091133e-38
0.033929538 0.068580948 0.75800002 1.790742e-38
0.035373349 0.068580963 0.75800002 2.0198242e-38
0.036914282 0.068761915 0.75999999 2.2499222e-38
0.038412426 0.06885238 0.76100004 2.2958469e-38
0.039966665 0.06903334 0.76300001 2.3417654e-38
0.04169143 0.069485702 0.76800001 2.3417659e-38
0.043154281 0.069485724 0.76800001 2.3417654e-38
0.044733346 0.069666661 0.77000004 2.3417647e-38
-0.031410474 0.070856184 0.76699996 2.0474261e-38
-0.029715214 0.070301905 0.76100004 2.1851082e-38
-0.02826567 0.070301905 0.76100004 2.2586489e-38
-0.026816165 0.070301898 0.76100004 2.3232933e-38
-0.025366619 0.070301913 0.76100004 2.3325853e-38
-0.023885738 0.070209518 0.75999999 2.3415535e-38
-0.02237903 0.070024766 0.75799996 2.1021353e-38
-0.020935215 0.070024759 0.75799996 1.862674e-38
-0.019439999 0.069840007 0.75600004 1.7231198e-38
-0.017976172 0.069747619 0.75500005 1.5841462e-38
-0.016494274 0.069562845 0.75300002 1.4073979e-38
-0.015039988 0.069470473 0.75199997 1.2351731e-38
-0.013625689 0.069562837 0.75300002 1.253471e-38
-0.012175249 0.06947048 0.75199997 1.2638392e-38
-0.010742861 0.069470465 0.75199997 1.5210871e-38
-0.0093104737 0.069470465 0.75200003 1.7701932e-38
-0.0078571383 0.069285713 0.75000006 1.8995904e-38
-0.0064285607 0.069285698 0.75000006 2.0185392e-38
-0.0049999808 0.069285713 0.75000006 1.8710216e-38
-0.0035714379 0.069285706 0.75000006 1.7228662e-38
-0.0021342805 0.069008574 0.74699998 1.4361326e-38
-0.00070950785 0.068823785 0.74500012 1.1423283e-38
0.00071141846 0.069008574 0.74700004 1.0663822e-38
0.0021285953 0.068823799 0.74500012 9.9449269e-39
0.0035476347 0.068823799 0.74500012 1.0762841e-38
0.0049666981 0.068823799 0.74500012 1.1524821e-38
0.0063857376 0.068823792 0.74500012 1.558068e-38
0.0078048031 0.068823799 0.74500006 1.9530658e-38
0.0092485547 0.069008574 0.74699998 1.8055883e-38
0.010671427 0.069008566 0.74699998 1.6579327e-38
0.012094276 0.069008581 0.74699998 1.5185637e-38
0.013535231 0.069100946 0.74800003 1.3817407e-38
0.014959965 0.069100946 0.74799997 1.4357633e-38
0.016384762 0.069100946 0.74799997 1.482868e-38
0.017809531 0.069100946 0.74800003 1.5380802e-38
0.019234266 0.069100939 0.74799997 1.5843955e-38
0.020714287 0.069285691 0.75000006 1.6226393e-38
0.022142865 0.069285706 0.75000006 1.6508707e-38
0.023571432 0.069285706 0.75000006 1.7253787e-38
0.025066691 0.069470473 0.75200003 1.7992444e-38
0.026534321 0.069562845 0.75300002 1.9101314e-38
0.027968593 0.069562837 0.75300002 2.0203341e-38
0.029480962 0.069747612 0.75500005 1.8550304e-38
0.030919041 0.069747612 0.75500005 1.6897263e-38
0.032357123 0.069747619 0.75500005 1.7264605e-38
0.033929553 0.070024759 0.75800002 1.763194e-38
0.035373367 0.070024759 0.75800002 2.0570669e-38
0.036962908 0.070301905 0.76100004 2.3417609e-38
0.038513321 0.070486665 0.76300001 2.3417289e-38
0.039966673 0.070486665 0.76300001 2.3417656e-38
0.041637149 0.070856184 0.76700002 2.3417665e-38
0.043154284 0.070948578 0.76800001 2.3417662e-38
0.044617139 0.070948571 0.76799995 2.34173e-38
-0.02979335 0.07193999 0.76300001 1.8270212e-38
-0.028265703 0.071751416 0.76100004 1.9739237e-38
-0.026816199 0.071751423 0.76100004 2.1213632e-38
-0.025333324 0.071657136 0.76000005 2.2130917e-38
-0.023885703 0.071657136 0.76000005 2.3142179e-38
-0.022379037 0.071468577 0.75800002 2.2034767e-38
-0.020935223 0.071468584 0.75800002 2.1016293e-38
-0.019440003 0.071280003 0.75600004 2.0280499e-38
-0.017999999 0.071280003 0.75600004 1.9548956e-38
-0.016494276 0.070997134 0.75300002 1.8430697e-38
-0.01504002 0.070902854 0.75199997 1.7324788e-38
-0.013607609 0.070902869 0.75199997 1.7143691e-38
-0.01217522 0.070902854 0.75199997 1.7055478e-38
-0.01074287 0.070902869 0.75199997 1.8439143e-38
-0.0093104821 0.070902862 0.75199997 1.9826371e-38
-0.0078571532 0.070714287 0.75000006 2.037811e-38
-0.0064285737 0.070714273 0.75000006 2.0928038e-38
-0.0049999696 0.07071428 0.75000006 1.9911741e-38
-0.0035714286 0.070714287 0.75000006 1.8899715e-38
-0.0021343047 0.070431441 0.74699998 1.7605006e-38
-0.00070949667 0.070242837 0.74500012 1.6314961e-38
0.00071141473 0.070431449 0.74699998 1.5752784e-38
0.0021285692 0.070242845 0.74500006 1.5290017e-38
0.0035476086 0.070242859 0.74500006 1.6306303e-38
0.0049666516 0.070242845 0.74500006 1.7329127e-38
0.0063857134 0.070242852 0.74500006 1.9359986e-38
0.0078047547 0.070242852 0.74500006 2.148005e-38
0.009248592 0.070431434 0.74700004 2.0731329e-38
0.010685693 0.070525728 0.74799997 1.9986528e-38
0.012110464 0.070525713 0.74800003 1.9341813e-38
0.01353522 0.070525721 0.74799997 1.8595631e-38
0.014959993 0.070525721 0.74799997 1.8601712e-38
0.016384762 0.070525706 0.74800003 1.8693254e-38
0.017809497 0.070525713 0.74800003 1.8699419e-38
0.019285712 0.070714295 0.75000006 1.8788079e-38
0.020714294 0.070714273 0.75000006 1.7705478e-38
0.022142874 0.07071428 0.75000006 1.6705337e-38
0.023571415 0.070714287 0.75000006 1.6708929e-38
0.025066655 0.070902869 0.75200003 1.6713589e-38
0.026534304 0.070997149 0.75300002 1.6713585e-38
0.027968574 0.070997134 0.75300002 1.6713556e-38
0.029480964 0.071185693 0.75500005 1.5241287e-38
0.030919045 0.071185708 0.75500005 1.3774101e-38
0.032399978 0.071280003 0.75600004 1.5883118e-38
0.033839986 0.071279988 0.75600004 1.8090427e-38
0.035373345 0.071468584 0.75799996 2.0570013e-38
0.036962874 0.071751423 0.76100004 2.3142133e-38
0.038412418 0.071751423 0.7610001 2.3325812e-38
0.039966658 0.07193999 0.76300001 2.3417659e-38
0.04163716 0.072317131 0.76700002 2.3325833e-38
0.043154266 0.072411425 0.76800001 2.3325835e-38
0.04461712 0.072411433 0.76799995 2.3234001e-38
-0.029793341 0.07339333 0.76300001 1.4665976e-38
-0.028340027 0.073393345 0.76300001 1.6886577e-38
-0.026816171 0.073200956 0.76100004 1.9087409e-38
-0.025366666 0.073200941 0.76100004 2.0934173e-38
-0.023917122 0.073200941 0.76100004 2.2769448e-38
-0.022438083 0.073104762 0.75999999 2.3142171e-38
-0.020935208 0.07291238 0.75800002 2.3414435e-38
-0.019491432 0.072912395 0.75799996 2.3325815e-38
-0.018000007 0.072720014 0.75600004 2.3231066e-38
-0.016538087 0.072623804 0.755 2.2774715e-38
-0.015059982 0.072431408 0.75300002 2.2212611e-38
-0.01360764 0.072335243 0.75199997 2.1843865e-38
-0.012175252 0.072335228 0.75199997 2.1385419e-38
-0.01074284 0.072335251 0.75199997 2.1663452e-38
-0.0093104895 0.072335243 0.75199997 2.194291e-38
-0.0078781042 0.072335243 0.75199997 2.1853234e-38
-0.0064285644 0.072142854 0.75000006 2.1666332e-38
-0.0050000236 0.072142847 0.75000006 2.1109219e-38
-0.0035714193 0.072142854 0.75000006 2.0470628e-38
-0.0021342712 0.071854293 0.74700004 2.0843662e-38
-0.00071142265 0.071854278 0.74700004 2.1202014e-38
0.00071145012 0.071854293 0.74700004 2.0926129e-38
0.0021342987 0.071854293 0.74700004 2.055307e-38
0.0035571472 0.071854278 0.74700004 2.1843812e-38
0.0049666665 0.071661912 0.74500006 2.3040215e-38
0.0063857283 0.071661904 0.74500006 2.3233963e-38
0.0078047696 0.071661904 0.74500006 2.3411514e-38
0.0092609245 0.07195048 0.74799997 2.3402525e-38
0.010685718 0.071950473 0.74800003 2.3405001e-38
0.012094283 0.071854293 0.74700004 2.3415369e-38
0.013535226 0.07195048 0.74800003 2.3401724e-38
0.01495998 0.071950473 0.74799997 2.2943968e-38
0.016384752 0.071950473 0.74799997 2.2482297e-38
0.017809525 0.071950473 0.74800003 2.2119635e-38
0.019285701 0.072142847 0.75000006 2.166012e-38
0.020714305 0.072142854 0.75000006 1.9284975e-38
0.022142883 0.072142839 0.75000006 1.6803252e-38
0.023571424 0.072142847 0.75000006 1.6070707e-38
0.025066648 0.072335243 0.75199997 1.5335656e-38
0.026534325 0.072431415 0.75300002 1.4325815e-38
0.028042864 0.072623797 0.75500005 1.3214096e-38
0.029480968 0.072623804 0.75500005 1.1927675e-38
0.030919049 0.072623812 0.755 1.0546574e-38
0.032399971 0.072720006 0.75599998 1.4494803e-38
0.033839978 0.072720014 0.75600004 1.8443759e-38
0.03537336 0.072912402 0.75800002 2.0659678e-38
0.036962863 0.073200941 0.76100004 2.2856567e-38
0.038412403 0.073200956 0.76100004 2.314213e-38
0.039966669 0.07339333 0.76300001 2.3408312e-38
0.041637175 0.073778078 0.76700002 2.3325807e-38
0.043154269 0.07387428 0.76800001 2.3133891e-38
0.044617124 0.073874287 0.76799995 2.3142147e-38
-0.029793331 0.07484667 0.76300001 7.8396063e-39
-0.028340017 0.07484667 0.76300001 9.3223244e-39
-0.026816184 0.074650466 0.76100004 1.0886053e-38
-0.02543335 0.074846677 0.76299995 1.1903431e-38
-0.023917131 0.074650474 0.76100004 1.3022321e-38
-0.022438109 0.074552372 0.76000005 1.5044141e-38
-0.020990487 0.07455238 0.76000005 1.7172866e-38
-0.019491417 0.074356213 0.75800002 1.8084411e-38
-0.018000035 0.07416001 0.75600004 1.9009585e-38
-0.016538106 0.0740619 0.75500005 1.9647412e-38
-0.015059999 0.073865712 0.75300002 2.0387116e-38
-0.01360761 0.073767617 0.75199997 2.0933821e-38
-0.01217526 0.073767625 0.75199997 2.158097e-38
-0.010742872 0.073767632 0.75199997 2.203799e-38
-0.0093104597 0.073767617 0.75199997 2.2407488e-38
-0.0078781117 0.07376764 0.75199997 2.2314938e-38
-0.0064285551 0.073571429 0.75000006 2.231566e-38
-0.0050000143 0.073571429 0.75000006 2.1853258e-38
-0.0035714323 0.073571421 0.75000006 2.1489093e-38
-0.0021371564 0.073375225 0.74799997 1.9835283e-38
-0.00071142451 0.073277138 0.74700004 1.8274801e-38
0.00071142404 0.073277146 0.74700004 1.8914783e-38
0.0021342968 0.073277131 0.74699998 1.9560547e-38
0.0035571435 0.073277153 0.74700004 2.1302239e-38
0.0049799937 0.073277146 0.74700004 2.3142165e-38
0.0064028627 0.073277146 0.74699998 2.3325824e-38
0.0078257136 0.073277146 0.74699998 2.3417662e-38
0.0092485622 0.073277131 0.74700004 2.3414077e-38
0.010671433 0.073277146 0.74699998 2.3417668e-38
0.012094282 0.073277146 0.74699998 2.3417312e-38
0.013571443 0.073571421 0.75000006 2.3325828e-38
0.014999986 0.073571429 0.75000006 2.2863055e-38
0.016428586 0.073571436 0.75000006 2.2315597e-38
0.01785717 0.073571421 0.75000006 2.1300711e-38
0.019285711 0.073571429 0.75000006 2.0295174e-38
0.020714289 0.073571429 0.75000006 1.6801826e-38
0.022142895 0.073571414 0.75000006 1.3315635e-38
0.02363429 0.073767632 0.75199997 1.2481553e-38
0.025066677 0.073767617 0.75199997 1.1660759e-38
0.026604749 0.0740619 0.755 1.0357828e-38
0.028042868 0.074061885 0.75500005 8.971344e-39
0.029519996 0.074160002 0.75600004 8.9738705e-39
0.030960001 0.074160002 0.75600004 8.9695755e-39
