# .PCD v0.7 - Point Cloud Data file format
VERSION 0.7
FIELDS x y z rgb
SIZE 4 4 4 4
TYPE F F F F
COUNT 1 1 1 1
WIDTH 976
HEIGHT 1
VIEWPOINT 0 0 0 1 0 0 0
POINTS 976
DATA ascii
0.057933334 0.028599992 0.77000004 2.3417673e-38
-0.034153331 0.029793322 0.76300001 1.6781749e-38
-0.032614298 0.029715247 0.7610001 1.7606836e-38
-0.031123819 0.029676199 0.76000005 1.7697239e-38
-0.029598104 0.029598065 0.75800008 1.7792327e-38
-0.028154291 0.029598087 0.75800008 1.7700874e-38
-0.02671048 0.02959808 0.75800002 1.7516849e-38
-0.025166674 0.029480942 0.75500011 1.742179e-38
-0.023665722 0.029402852 0.75300002 1.7242435e-38
-0.022201903 0.029363804 0.75200003 1.7520823e-38
-0.020659056 0.02920761 0.74800009 1.7707367e-38
-0.019208575 0.029168561 0.74700004 1.7707011e-38
-0.017690485 0.02901236 0.74300003 1.7708451e-38
-0.016275249 0.029012367 0.74300009 1.7797781e-38
-0.014860009 0.02901236 0.74300003 1.7805313e-38
-0.013426683 0.028973326 0.7420001 1.7807107e-38
-0.011980961 0.028895222 0.74000007 1.771599e-38
-0.010571437 0.028895229 0.74000007 1.7623797e-38
-0.0091619128 0.028895222 0.74000001 1.7442279e-38
-0.0077419188 0.028856181 0.73900008 1.7716709e-38
-0.006334289 0.028856188 0.73900002 1.7996162e-38
-0.0049266755 0.028856181 0.73900002 1.8182344e-38
-0.003509532 0.028778084 0.73700011 1.8272744e-38
-0.0021028568 0.028739028 0.73600006 1.8272387e-38
-0.00070096023 0.028739035 0.73600012 1.8181628e-38
0.00070094661 0.028739028 0.73600012 1.8089792e-38
0.0021028535 0.028739028 0.73600006 1.7906121e-38
0.0034952427 0.02866096 0.73400003 1.9559876e-38
0.0049066581 0.028739028 0.73600012 2.1212916e-38
0.0063085719 0.028739035 0.73600006 2.1028529e-38
0.0077104727 0.02873905 0.73600006 2.075374e-38
0.0091123767 0.028739028 0.73600012 2.0753382e-38
0.010514277 0.028739035 0.73600012 2.0661546e-38
0.011916192 0.028739035 0.73600006 2.0477516e-38
0.013318081 0.028739028 0.73600012 2.0294203e-38
0.014719996 0.028739035 0.73600012 2.0293844e-38
0.016121896 0.028739028 0.73600006 2.0202367e-38
0.017523808 0.028739043 0.73600006 2.0201651e-38
0.018925698 0.02873902 0.73600012 2.0110174e-38
0.020327615 0.028739028 0.73600012 2.0017263e-38
0.021729514 0.028739043 0.73600006 1.9926143e-38
0.023162859 0.028778084 0.73700011 1.9924708e-38
0.02456666 0.028778091 0.73700011 1.9834308e-38
0.026040932 0.028856181 0.73900008 1.9832873e-38
0.027485708 0.028895237 0.74000001 1.9742114e-38
0.028973324 0.028973326 0.7420001 2.0200934e-38
0.030427622 0.029012367 0.74300003 2.0568633e-38
0.031842843 0.029012367 0.74300009 2.0475002e-38
0.033258092 0.02901236 0.74300003 2.0288456e-38
0.034766659 0.029090464 0.74500012 1.9545876e-38
0.036185693 0.029090464 0.74500012 1.8811174e-38
0.037705719 0.029168576 0.74700004 1.9544764e-38
0.039180961 0.029207617 0.74800003 2.0286271e-38
0.040605716 0.02920761 0.74800003 2.1856452e-38
0.042142853 0.029285692 0.75000012 2.3414417e-38
0.043687616 0.029363804 0.75200009 2.3412973e-38
0.045299992 0.029480934 0.75500011 2.3414428e-38
0.046738084 0.029480956 0.75500011 2.3415525e-38
0.048176184 0.029480942 0.75500011 2.3416233e-38
0.050402842 0.029949509 0.76700008 2.3415865e-38
0.051863786 0.029949516 0.76700008 2.3416944e-38
0.053185705 0.029871412 0.7650001 2.3324036e-38
0.054642864 0.029871427 0.76500005 2.323256e-38
0.055953342 0.029793307 0.76300001 2.3325832e-38
0.057933334 0.030066647 0.77000004 2.3417663e-38
-0.034153342 0.031246655 0.76300007 1.5860559e-38
-0.032614294 0.031164765 0.76100004 1.7152702e-38
-0.031123811 0.03112381 0.76000005 1.7612225e-38
-0.029598106 0.031041875 0.75800008 1.8166827e-38
-0.028154293 0.031041898 0.75800008 1.8440899e-38
-0.026710482 0.03104189 0.75800002 1.8713895e-38
-0.025166666 0.030919053 0.75500011 1.8344402e-38
-0.023665726 0.030837134 0.75300008 1.7882379e-38
-0.022201903 0.030796178 0.75200003 1.8071095e-38
-0.020659044 0.030632369 0.74800003 1.8165806e-38
-0.019208575 0.030591428 0.74700004 1.8901929e-38
-0.017690485 0.030427612 0.74300003 1.9547658e-38
-0.016275251 0.03042759 0.74300003 1.9641657e-38
-0.014860001 0.030427612 0.74300003 1.9827121e-38
-0.013426681 0.030386657 0.7420001 1.9274312e-38
-0.012013351 0.030386671 0.7420001 1.8814779e-38
-0.010571432 0.03030476 0.74000001 1.9184994e-38
-0.0091619194 0.030304752 0.74000007 1.9554489e-38
-0.0077419104 0.030263811 0.73900002 1.9645966e-38
-0.0063342904 0.030263789 0.73900002 1.9738878e-38
-0.0049266773 0.030263804 0.73900008 2.0291326e-38
-0.0035095329 0.030181892 0.73700011 2.0841264e-38
-0.0021028642 0.030140929 0.73600012 2.0844134e-38
-0.00070095836 0.030140944 0.73600012 2.0844853e-38
0.00070094987 0.030140936 0.73600006 2.0477152e-38
0.0021028572 0.030140936 0.73600006 2.0199133e-38
0.0035047464 0.030140944 0.73600012 2.1027086e-38
0.0049066613 0.030140936 0.73600012 2.1947237e-38
0.0063085617 0.030140944 0.73600006 2.1855762e-38
0.0077104652 0.030140929 0.73600012 2.1763928e-38
0.0091123655 0.030140936 0.73600012 2.1763211e-38
0.01051428 0.030140944 0.73600006 2.1762493e-38
0.011916195 0.030140936 0.73600006 2.1671015e-38
0.013318085 0.030140936 0.73600012 2.1670656e-38
0.014719999 0.030140929 0.73600006 2.1671372e-38
0.016121898 0.030140944 0.73600006 2.1671015e-38
0.017523803 0.030140944 0.73600012 2.1763209e-38
0.018925702 0.030140929 0.73600012 2.176285e-38
0.020327618 0.030140944 0.73600006 2.1763209e-38
0.021729516 0.030140936 0.73600006 2.1671015e-38
0.023162851 0.030181885 0.73700011 2.1671372e-38
0.024566665 0.030181885 0.73700011 2.1671372e-38
0.026040941 0.030263819 0.73900002 2.1579178e-38
0.02748571 0.030304752 0.74000007 2.1577744e-38
0.028973326 0.030386657 0.7420001 2.1671015e-38
0.030427611 0.030427612 0.74300003 2.1762848e-38
0.03184285 0.030427597 0.74300003 2.176141e-38
0.033258095 0.030427612 0.74300003 2.1849292e-38
0.034673333 0.030427612 0.74300003 2.1204283e-38
0.036185704 0.030509517 0.74500006 2.0647526e-38
0.037705708 0.030591428 0.74700004 2.0467797e-38
0.039180953 0.030632369 0.74800009 2.0290586e-38
0.040605709 0.030632369 0.74800009 2.038027e-38
0.042142849 0.030714266 0.75000012 2.0566091e-38
0.043687623 0.030796185 0.75200009 2.0839442e-38
0.045299999 0.030919045 0.75500011 2.1121421e-38
0.046799991 0.030959986 0.75600004 2.1762132e-38
0.048239991 0.030960001 0.75600004 2.2315644e-38
0.05040285 0.031410471 0.76700008 2.2865569e-38
0.051863808 0.031410471 0.76700002 2.3417656e-38
0.053394284 0.031451426 0.76800001 2.3416219e-38
0.054642852 0.031328574 0.76500005 2.3322234e-38
0.055953331 0.03124664 0.76300007 2.3324387e-38
0.057406675 0.031246655 0.76300001 2.3417654e-38
-0.034153339 0.032699987 0.76300007 1.4934676e-38
-0.032614298 0.032614283 0.76100004 1.6600265e-38
-0.031123817 0.03257142 0.76000005 1.7615115e-38
-0.029598106 0.032485701 0.75800008 1.853382e-38
-0.028080007 0.032399997 0.75600004 1.9273159e-38
-0.026640013 0.032399982 0.75600004 1.9912436e-38
-0.025166674 0.032357134 0.75500011 1.9267092e-38
-0.023665728 0.032271422 0.75300008 1.8532413e-38
-0.022201901 0.032228559 0.75200003 1.8622821e-38
-0.020714296 0.032142825 0.75000012 1.8626768e-38
-0.019208578 0.032014273 0.74700004 2.0002869e-38
-0.01769048 0.031842843 0.74300003 2.138903e-38
-0.016275244 0.031842843 0.74300003 2.1577027e-38
-0.014860004 0.031842843 0.74300003 2.1757102e-38
-0.013426677 0.031800002 0.7420001 2.0831206e-38
-0.012013351 0.031799994 0.7420001 1.9824239e-38
-0.010600023 0.031799987 0.7420001 2.0746179e-38
-0.0091619072 0.031714283 0.74000001 2.1664897e-38
-0.0077523859 0.031714283 0.74000001 2.1573067e-38
-0.0063428618 0.031714283 0.74000001 2.1483751e-38
-0.0049266689 0.03167142 0.73900002 2.2493948e-38
-0.0035190566 0.031671435 0.73900002 2.3415173e-38
-0.0021028689 0.031542838 0.73600012 2.3417686e-38
-0.00070096209 0.031542853 0.73600006 2.3417327e-38
0.00070094474 0.031542845 0.73600006 2.2958508e-38
0.0021028498 0.031542845 0.73600012 2.2404984e-38
0.0035047501 0.031542838 0.73600012 2.249359e-38
0.0049066641 0.031542845 0.73600006 2.2589373e-38
0.0063085645 0.03154286 0.73600006 2.2682644e-38
0.007710469 0.031542838 0.73600012 2.2682286e-38
0.0091123683 0.031542845 0.73600006 2.2773404e-38
0.010514284 0.031542845 0.73600006 2.2773763e-38
0.011916173 0.031542838 0.73600012 2.2865598e-38
0.013336186 0.031585693 0.73700011 2.2957432e-38
0.014720003 0.031542845 0.73600006 2.3049268e-38
0.016121902 0.031542845 0.73600006 2.3141462e-38
0.017523805 0.031542845 0.73600012 2.3325852e-38
0.018925706 0.031542838 0.73600006 2.3417328e-38
0.02032762 0.031542845 0.73600006 2.3417687e-38
0.02172951 0.03154283 0.73600012 2.3417327e-38
0.023162855 0.031585693 0.73700011 2.3417686e-38
0.024566656 0.031585693 0.73700011 2.3417327e-38
0.02604094 0.031671427 0.73900002 2.3417686e-38
0.027485706 0.03171429 0.74000001 2.3416968e-38
0.02897332 0.03179998 0.7420001 2.3142181e-38
0.030427618 0.03184285 0.74300003 2.2866314e-38
0.031842854 0.03184285 0.74300003 2.3142178e-38
0.033258103 0.03184285 0.74300003 2.3324051e-38
0.034766655 0.031928562 0.74500012 2.2865946e-38
0.0361857 0.031928577 0.74500006 2.24003e-38
0.037705723 0.032014288 0.74700004 2.1388304e-38
0.039180953 0.032057136 0.74800003 2.028377e-38
0.040714279 0.032142833 0.75000012 1.8991619e-38
0.042255238 0.032228559 0.75200009 1.7615518e-38
0.043745715 0.032271422 0.75300002 1.8257288e-38
0.045359988 0.032399982 0.75600004 1.881261e-38
0.046800002 0.032399975 0.75600004 2.0011496e-38
0.048239991 0.032399982 0.75600004 2.1205718e-38
-0.034153335 0.034153312 0.76300007 1.5585062e-38
-0.032614291 0.034063809 0.76100004 1.7157389e-38
-0.031123815 0.03401906 0.76000005 1.7521504e-38
-0.029520007 0.033839993 0.75600004 1.7977795e-38
-0.028042866 0.033795238 0.75500011 1.835086e-38
-0.02660477 0.03379523 0.75500011 1.8813295e-38
-0.025100015 0.033705704 0.75300002 1.9178873e-38
-0.023665722 0.033705719 0.75300002 1.9550867e-38
-0.022201901 0.033660941 0.75200003 1.991748e-38
-0.020714303 0.033571407 0.75000012 2.0287334e-38
-0.019234294 0.033481903 0.74800009 2.1206047e-38
-0.017738111 0.033347622 0.74500012 2.2223801e-38
-0.01631907 0.033347599 0.74500012 2.2406065e-38
-0.014860003 0.033258088 0.74300003 2.2589003e-38
-0.013426686 0.033213325 0.7420001 2.2124429e-38
-0.012013349 0.033213325 0.7420001 2.1568025e-38
-0.010600021 0.033213332 0.7420001 2.2031856e-38
-0.0091619147 0.033123806 0.74000007 2.248925e-38
-0.0077523915 0.033123791 0.74000001 2.2493923e-38
-0.0063428679 0.033123806 0.74000001 2.2495732e-38
-0.0049266708 0.033079043 0.73900002 2.295636e-38
-0.0035190585 0.033079043 0.73900002 2.341769e-38
-0.0021057196 0.032989509 0.73700011 2.341769e-38
-0.00070191856 0.032989502 0.73700011 2.341769e-38
0.00070094893 0.032944746 0.73600006 2.3142183e-38
0.0021028526 0.032944746 0.73600012 2.2958513e-38
0.0035047529 0.032944754 0.73600006 2.2957078e-38
0.0049066679 0.032944746 0.73600006 2.3050348e-38
0.006308557 0.032944746 0.73600012 2.3050348e-38
0.0077104717 0.032944739 0.73600012 2.3050348e-38
0.009112373 0.032944746 0.73600006 2.3049989e-38
0.010514286 0.032944761 0.73600006 2.3142183e-38
0.011916176 0.032944746 0.73600012 2.3141825e-38
0.013336179 0.032989509 0.73700011 2.3234019e-38
0.014719991 0.032944754 0.73600006 2.323366e-38
0.016121894 0.032944746 0.73600012 2.3325854e-38
0.017523808 0.032944754 0.73600012 2.3325854e-38
0.01892571 0.032944754 0.73600006 2.341769e-38
0.020327624 0.032944761 0.73600006 2.341769e-38
0.021759046 0.032989509 0.73700005 2.341769e-38
0.023162862 0.032989502 0.73700011 2.341769e-38
0.024566663 0.032989502 0.73700011 2.341769e-38
0.026040938 0.033079036 0.73900002 2.341769e-38
0.027485708 0.033123791 0.74000001 2.341769e-38
0.028973322 0.033213325 0.7420001 2.3325854e-38
0.030427614 0.03325808 0.74300009 2.3142183e-38
0.031842846 0.033258095 0.74300003 2.3234019e-38
0.033258084 0.03325808 0.74300009 2.341769e-38
0.034673329 0.03325808 0.74300003 2.3048913e-38
0.0361857 0.033347614 0.74500012 2.2678324e-38
0.037705712 0.033437148 0.74700004 2.0281972e-38
0.039180946 0.033481903 0.74800009 1.7893536e-38
0.040714271 0.033571407 0.75000012 1.7337145e-38
0.042255241 0.033660948 0.75200009 1.6871868e-38
0.043861896 0.033795223 0.75500011 1.6964776e-38
0.045359995 0.033840001 0.75600004 1.7054453e-38
0.046799984 0.033839986 0.7560001 1.7519003e-38
-0.034153339 0.035606652 0.76300001 1.6231492e-38
-0.032614294 0.035513334 0.76100004 1.7611181e-38
-0.031123817 0.035466656 0.76000005 1.7518633e-38
-0.029520007 0.035279997 0.75600004 1.7335668e-38
-0.028042862 0.035233334 0.75500011 1.7522556e-38
-0.026604773 0.035233326 0.75500011 1.770769e-38
-0.025100017 0.035139985 0.75300008 1.9176011e-38
-0.023634279 0.03509333 0.75200003 2.0562149e-38
-0.022201909 0.03509333 0.75200009 2.1301135e-38
-0.0207143 0.034999982 0.75000012 2.1943268e-38
-0.019234288 0.034906663 0.74800003 2.2493564e-38
-0.017785711 0.034860007 0.74700004 2.2957062e-38
-0.016362866 0.034860007 0.7470001 2.3234019e-38
-0.014860008 0.034673326 0.74300003 2.3417324e-38
-0.013444762 0.034673318 0.74300003 2.3417675e-38
-0.012013345 0.034626655 0.7420001 2.3322248e-38
-0.010600017 0.03462667 0.7420001 2.3323677e-38
-0.0091866823 0.034626655 0.7420001 2.323113e-38
-0.0077523883 0.034533337 0.74000001 2.3325839e-38
-0.0063428669 0.034533314 0.74000007 2.3416966e-38
-0.0049266736 0.034486659 0.73900002 2.341769e-38
-0.0035190594 0.034486659 0.73900008 2.341769e-38
-0.0021057206 0.034393311 0.73700011 2.341769e-38
-0.00070191204 0.034393303 0.73700011 2.341769e-38
0.00070094195 0.034346648 0.73600012 2.341769e-38
0.0021028568 0.034346655 0.73600012 2.341769e-38
0.0035047561 0.034346648 0.73600006 2.341769e-38
0.0049066604 0.034346648 0.73600012 2.341769e-38
0.0063085607 0.034346655 0.73600012 2.341769e-38
0.0077104745 0.034346648 0.73600006 2.341769e-38
0.0091123758 0.034346662 0.73600006 2.341769e-38
0.01051428 0.03434664 0.73600012 2.341769e-38
0.011932384 0.034393311 0.73700011 2.341769e-38
0.013336185 0.034393325 0.73700011 2.341769e-38
0.01474 0.034393318 0.73700011 2.341769e-38
0.016143801 0.034393311 0.73700011 2.341769e-38
0.017547611 0.034393325 0.73700011 2.341769e-38
0.018951427 0.034393311 0.73700011 2.341769e-38
0.020355228 0.034393311 0.73700011 2.341769e-38
0.021759054 0.034393333 0.73700005 2.341769e-38
0.023162855 0.034393318 0.73700011 2.341769e-38
0.024633324 0.034486651 0.73900002 2.341769e-38
0.026040936 0.034486659 0.73900008 2.341769e-38
0.02755999 0.034626655 0.7420001 2.341769e-38
0.029012384 0.034673326 0.74300003 2.341769e-38
0.03042762 0.034673311 0.74300003 2.341769e-38
0.031842854 0.034673326 0.74300003 2.341769e-38
0.033258088 0.034673326 0.74300003 2.341769e-38
0.034766655 0.034766644 0.74500012 2.3234019e-38
0.036185697 0.034766659 0.74500012 2.2950943e-38
0.037705716 0.03486 0.7470001 1.9167356e-38
0.039180968 0.034906678 0.74800003 1.5402114e-38
0.040714279 0.034999982 0.75000012 1.5774492e-38
0.042423815 0.035233334 0.75500011 1.6137527e-38
0.043861903 0.035233341 0.75500011 1.5675119e-38
0.045359991 0.035279989 0.75600004 1.5216298e-38
0.046738096 0.035233326 0.75500011 1.5032265e-38
-0.034153335 0.037059978 0.76300007 1.6137497e-38
-0.032700002 0.037059985 0.76300001 1.7517189e-38
-0.031123817 0.036914274 0.76000005 1.7426078e-38
-0.0295981 0.036817126 0.75800002 1.7425714e-38
-0.028080007 0.036719993 0.75600004 1.7704801e-38
-0.02660477 0.036671422 0.75500011 1.7981411e-38
-0.02510001 0.036574282 0.75300002 1.9363277e-38
-0.023634288 0.036525711 0.75200003 2.0751577e-38
-0.022201907 0.036525697 0.75200009 2.1302235e-38
-0.020714298 0.036428556 0.75000012 2.1854327e-38
-0.019285731 0.036428548 0.75000012 2.2313147e-38
-0.017785722 0.03628286 0.74700004 2.2774839e-38
-0.016362859 0.03628286 0.74700004 2.3141466e-38
-0.014900013 0.036185704 0.74500012 2.341769e-38
-0.013480963 0.036185697 0.74500012 2.341769e-38
-0.012061922 0.036185697 0.74500012 2.341769e-38
-0.010614288 0.036088556 0.74300003 2.3325496e-38
-0.0091990596 0.036088564 0.74300003 2.3325854e-38
-0.0077733542 0.036039986 0.7420001 2.341769e-38
-0.0063600182 0.036039986 0.7420001 2.341769e-38
-0.0049333386 0.035942852 0.74000001 2.341769e-38
-0.0035190519 0.03589429 0.73900002 2.341769e-38
-0.0021057215 0.035797112 0.73700011 2.341769e-38
-0.0007019139 0.035797119 0.73700011 2.341769e-38
0.00070190494 0.035797134 0.73700011 2.341769e-38
0.0021057061 0.035797127 0.73700011 2.341769e-38
0.0035047594 0.035748564 0.73600006 2.341769e-38
0.0049133222 0.035797112 0.73700011 2.341769e-38
0.0063171475 0.035797127 0.73700011 2.341769e-38
0.0077209482 0.035797127 0.73700011 2.341769e-38
0.0091247493 0.035797134 0.73700011 2.341769e-38
0.010528564 0.035797119 0.73700011 2.341769e-38
0.011932376 0.035797119 0.73700005 2.341769e-38
0.013336192 0.035797127 0.73700011 2.341769e-38
0.014739992 0.035797127 0.73700011 2.341769e-38
0.016143791 0.035797119 0.73700011 2.341769e-38
0.017547617 0.035797127 0.73700011 2.341769e-38
0.018951418 0.035797119 0.73700011 2.341769e-38
0.020355234 0.035797119 0.73700011 2.341769e-38
0.021759035 0.035797127 0.73700011 2.341769e-38
0.02316286 0.035797119 0.73700011 2.341769e-38
0.024666658 0.035942845 0.74000007 2.341769e-38
0.026076181 0.03594286 0.74000001 2.341769e-38
0.027559983 0.036039986 0.7420001 2.341769e-38
0.028973317 0.036039971 0.7420001 2.341769e-38
0.030427611 0.036088564 0.74300003 2.341769e-38
0.031842861 0.036088556 0.74300003 2.341769e-38
0.033258095 0.036088556 0.74300003 2.341769e-38
0.034673326 0.036088578 0.74300003 2.2958513e-38
0.03633143 0.03633143 0.74800003 2.2499282e-38
0.037756186 0.036331423 0.74800009 1.8889303e-38
0.039390478 0.036525697 0.75200003 1.5385229e-38
0.040877126 0.036574289 0.75300002 1.6136438e-38
0.042311411 0.036574282 0.75300002 1.6871121e-38
0.0438619 0.036671415 0.75500011 1.6227195e-38
0.045359988 0.036719985 0.75600004 1.5674389e-38
0.046799999 0.03672 0.75600004 1.5216648e-38
-0.034242861 0.038614273 0.76500005 1.6136424e-38
-0.032699998 0.038513321 0.76300001 1.7334952e-38
-0.031164775 0.038412381 0.7610001 1.7425714e-38
-0.029676203 0.038361907 0.76000005 1.7518982e-38
-0.028080009 0.038159996 0.75600004 1.7889191e-38
-0.026640011 0.038159996 0.75600004 1.8165796e-38
-0.025100013 0.038008571 0.75300002 1.9543709e-38
-0.023634287 0.037958093 0.75200009 2.093022e-38
-0.022201903 0.037958089 0.75200003 2.1302235e-38
-0.020714296 0.03785713 0.75000012 2.1668855e-38
-0.019285729 0.037857123 0.75000012 2.2129824e-38
-0.017785707 0.037705723 0.74700004 2.2587573e-38
-0.016362863 0.037705712 0.74700004 2.3047475e-38
-0.014900018 0.037604753 0.74500012 2.3416971e-38
-0.013480966 0.037604757 0.74500012 2.341769e-38
-0.012061913 0.037604757 0.74500006 2.341769e-38
-0.010614287 0.037503809 0.74300003 2.341769e-38
-0.0091990512 0.037503786 0.74300003 2.341769e-38
-0.0077838134 0.037503801 0.74300003 2.341769e-38
-0.0063600144 0.037453316 0.7420001 2.341769e-38
-0.0049333372 0.037352376 0.74000001 2.341769e-38
-0.0035238129 0.037352376 0.74000001 2.341769e-38
-0.0021057224 0.037200943 0.73700011 2.341769e-38
-0.00070191483 0.03720092 0.73700011 2.341769e-38
0.00070190354 0.037200935 0.73700005 2.341769e-38
0.0021057127 0.037200943 0.73700011 2.341769e-38
0.0035095133 0.037200928 0.73700011 2.341769e-38
0.0049133282 0.037200928 0.73700011 2.341769e-38
0.0063171391 0.037200935 0.73700005 2.341769e-38
0.0077209543 0.037200935 0.73700011 2.341769e-38
0.0091247559 0.037200935 0.73700011 2.341769e-38
0.010528556 0.037200928 0.73700011 2.341769e-38
0.011932382 0.037200943 0.73700005 2.341769e-38
0.013372368 0.037301905 0.73900002 2.341769e-38
0.014739999 0.037200935 0.73700011 2.341769e-38
0.016143799 0.037200935 0.73700011 2.341769e-38
0.017547624 0.037200935 0.73700011 2.341769e-38
0.018951425 0.037200943 0.73700011 2.341769e-38
0.020355226 0.03720092 0.73700011 2.341769e-38
0.021818092 0.037301891 0.73900002 2.341769e-38
0.023257131 0.037352376 0.74000001 2.341769e-38
0.024733314 0.037453324 0.7420001 2.341769e-38
0.02614665 0.037453331 0.7420001 2.341769e-38
0.027559986 0.037453324 0.7420001 2.341769e-38
0.029012369 0.037503794 0.74300009 2.341769e-38
0.030427618 0.037503794 0.74300003 2.341769e-38
0.031842843 0.037503794 0.74300009 2.341769e-38
0.033347599 0.03760476 0.74500012 2.3417683e-38
0.034766655 0.03760476 0.74500006 2.2682993e-38
0.036331434 0.037756197 0.74800003 2.1923162e-38
0.037857138 0.037857119 0.75000012 1.8597319e-38
0.039390486 0.037958093 0.75200003 1.530633e-38
0.04087713 0.038008563 0.75300008 1.642237e-38
0.042423815 0.038109522 0.75500011 1.7519371e-38
0.043919992 0.038159993 0.75600004 1.6779663e-38
0.045479998 0.03826094 0.75800008 1.604533e-38
0.046923809 0.038260937 0.75800002 1.5492874e-38
-0.034242857 0.040071428 0.76500005 1.6140372e-38
-0.032785721 0.04007142 0.76500005 1.7066976e-38
-0.031164769 0.039861903 0.76100004 1.6783217e-38
-0.029676192 0.039809525 0.76000005 1.6600624e-38
-0.028154301 0.039704747 0.75800008 1.7337819e-38
-0.026640007 0.039600004 0.75600004 1.8075032e-38
-0.025166679 0.039547622 0.75500011 1.927178e-38
-0.023665726 0.039442845 0.75300002 2.0562155e-38
-0.022201903 0.039390471 0.75200003 2.0194827e-38
-0.020714296 0.039285701 0.75000012 1.9918953e-38
-0.019285727 0.039285686 0.75000012 1.9642362e-38
-0.017809521 0.039180942 0.74800003 1.9367943e-38
-0.016362855 0.039128568 0.74700004 2.0011519e-38
-0.014940002 0.039128568 0.74700004 2.0570787e-38
-0.013480966 0.039023802 0.74500012 2.1119291e-38
-0.012061915 0.039023798 0.74500006 2.1764651e-38
-0.010642874 0.039023794 0.74500012 2.1945811e-38
-0.0091990521 0.038919035 0.74300003 2.2223829e-38
-0.0077838176 0.038919024 0.74300003 2.2591171e-38
-0.0063600116 0.03886665 0.7420001 2.3050348e-38
-0.0049333437 0.038761888 0.74000007 2.3049989e-38
-0.0035238203 0.038761884 0.74000007 2.3142183e-38
-0.0021114436 0.038709499 0.73900008 2.3234019e-38
-0.00070191576 0.03860474 0.73700011 2.341769e-38
0.00070190307 0.03860474 0.73700005 2.341769e-38
0.0021057043 0.038604744 0.73700011 2.341769e-38
0.0035095194 0.038604751 0.73700011 2.341769e-38
0.0049133203 0.038604736 0.73700011 2.341769e-38
0.0063171457 0.038604755 0.73700005 2.341769e-38
0.0077209463 0.038604736 0.73700011 2.341769e-38
0.0091247624 0.038604748 0.73700011 2.341769e-38
0.010528563 0.038604744 0.73700011 2.341769e-38
0.011932374 0.038604744 0.73700005 2.341769e-38
0.01333619 0.038604748 0.73700011 2.341769e-38
0.01477999 0.038709514 0.73900002 2.341769e-38
0.016143804 0.038604736 0.73700011 2.341769e-38
0.017595228 0.038709506 0.73900002 2.341769e-38
0.018951431 0.038604748 0.73700011 2.341769e-38
0.020410465 0.038709529 0.73900002 2.341769e-38
0.021818077 0.038709514 0.73900002 2.341769e-38
0.023257131 0.038761895 0.74000001 2.341769e-38
0.024666654 0.038761884 0.74000001 2.341769e-38
0.026146652 0.038866665 0.7420001 2.341769e-38
0.027559988 0.038866669 0.7420001 2.341769e-38
0.029012376 0.038919024 0.74300003 2.341769e-38
0.030509504 0.039023813 0.74500012 2.341769e-38
0.031842846 0.038919043 0.74300003 2.341769e-38
0.03334761 0.039023805 0.74500012 2.3417677e-38
0.034906667 0.039180957 0.74800003 2.0351936e-38
0.036331423 0.039180942 0.74800009 1.7300183e-38
0.03785713 0.039285697 0.75000012 1.6770676e-38
0.039390482 0.039390467 0.75200009 1.6330892e-38
0.040877141 0.03944286 0.75300002 1.6788657e-38
0.042423792 0.039547615 0.75500011 1.7157072e-38
0.043919988 0.039599977 0.75600004 1.6876541e-38
0.045479994 0.039704744 0.75800008 1.6510257e-38
0.046923809 0.039704747 0.75800002 1.6508086e-38
-0.034332391 0.041637138 0.76700002 1.6142487e-38
-0.032785717 0.041528568 0.76500005 1.6782467e-38
-0.031164775 0.041311428 0.7610001 1.6223565e-38
-0.029676192 0.041257154 0.76000005 1.5586116e-38
-0.028154297 0.041148555 0.75800008 1.6786812e-38
-0.026640007 0.041039992 0.75600004 1.7887424e-38
-0.025100021 0.04087713 0.75300008 1.899844e-38
-0.023665728 0.040877126 0.75300008 2.009867e-38
-0.022201901 0.04082286 0.75200003 1.9179596e-38
-0.020769529 0.040822845 0.75200009 1.8167603e-38
-0.019285725 0.040714264 0.75000012 1.7152024e-38
-0.017809529 0.040605713 0.74800009 1.6143274e-38
-0.016362859 0.040551424 0.74700004 1.6967646e-38
-0.014940002 0.040551443 0.74700004 1.7710234e-38
-0.01348097 0.040442843 0.74500012 1.8906975e-38
-0.012061917 0.040442858 0.74500012 2.0008999e-38
-0.010642878 0.040442843 0.74500012 2.0468175e-38
-0.0091990465 0.040334284 0.74300003 2.0931658e-38
-0.0077838181 0.040334269 0.74300003 2.1763918e-38
-0.0063600196 0.040279992 0.7420001 2.2587209e-38
-0.00493334 0.040171415 0.74000001 2.2680837e-38
-0.0035238157 0.04017143 0.74000001 2.277124e-38
-0.0021114352 0.040117145 0.73900002 2.3142174e-38
-0.0007019167 0.040008552 0.73700011 2.3417326e-38
0.00070190121 0.04000856 0.73700005 2.341769e-38
0.0021057099 0.040008549 0.73700011 2.341769e-38
0.0035095115 0.040008552 0.73700011 2.341769e-38
0.0049133264 0.040008556 0.73700011 2.341769e-38
0.0063171373 0.04000856 0.73700005 2.341769e-38
0.0077209524 0.04000856 0.73700011 2.341769e-38
0.009124754 0.040008552 0.73700011 2.341769e-38
0.010528569 0.040008549 0.73700011 2.341769e-38
0.011932381 0.040008571 0.73700005 2.341769e-38
0.013336182 0.040008552 0.73700011 2.341769e-38
0.014779988 0.04011713 0.73900002 2.341769e-38
0.016187614 0.040117133 0.73900002 2.341769e-38
0.017619049 0.040171415 0.74000001 2.341769e-38
0.019028572 0.04017143 0.74000001 2.341769e-38
0.020438096 0.040171418 0.74000001 2.341769e-38
0.021847609 0.040171415 0.74000007 2.341769e-38
0.023257133 0.040171426 0.74000007 2.341769e-38
0.024733322 0.040280007 0.7420001 2.341769e-38
0.026146647 0.040279984 0.7420001 2.341769e-38
0.027559983 0.040279988 0.7420001 2.341769e-38
0.029012367 0.040334273 0.74300003 2.341769e-38
0.030509515 0.040442847 0.74500012 2.341769e-38
0.031928562 0.040442847 0.74500006 2.341769e-38
0.03334761 0.040442847 0.74500012 2.3394278e-38
0.03490667 0.040605716 0.74800003 1.800674e-38
0.036331426 0.040605716 0.74800003 1.2621155e-38
0.037857141 0.04071426 0.75000012 1.5037999e-38
0.039390482 0.040822845 0.75200009 1.7336411e-38
0.04087713 0.040877134 0.75300002 1.7059841e-38
0.0424238 0.040985711 0.75500011 1.6785054e-38
0.043919988 0.041039992 0.75600004 1.6875816e-38
0.045479998 0.041148555 0.75800008 1.6968361e-38
0.046923809 0.041148558 0.75800002 1.7611558e-38
-0.034332391 0.0430981 0.76700008 1.6598399e-38
-0.032785714 0.042985715 0.7650001 1.7236948e-38
-0.031246675 0.042873316 0.76300007 1.5580686e-38
-0.029715244 0.042760953 0.76100004 1.4018801e-38
-0.028228575 0.042704761 0.76000005 1.4386897e-38
-0.026640015 0.042479988 0.75600004 1.474996e-38
-0.025166679 0.042423796 0.75500011 1.512486e-38
-0.023665722 0.042311419 0.75300002 1.5593348e-38
-0.022201901 0.042255238 0.75200003 1.7062339e-38
-0.020769527 0.042255227 0.75200009 1.8623175e-38
-0.019285725 0.042142842 0.75000012 1.8439495e-38
-0.017809527 0.04203048 0.74800003 1.8340486e-38
-0.016384769 0.042030469 0.74800003 1.8897599e-38
-0.014940007 0.041974287 0.74700004 1.9446119e-38
-0.013480972 0.041861888 0.74500012 2.0005399e-38
-0.012061922 0.041861892 0.74500012 2.0549594e-38
-0.01064287 0.041861899 0.74500006 2.0833347e-38
-0.0091990484 0.041749515 0.74300003 2.110778e-38
-0.0077838195 0.041749518 0.74300003 2.138831e-38
-0.0063600168 0.04169333 0.7420001 2.1659869e-38
-0.0049466807 0.041693319 0.7420001 2.1570902e-38
-0.0035333524 0.041693322 0.7420001 2.1476921e-38
-0.002111438 0.04152476 0.73900002 2.1941844e-38
-0.00070382498 0.041524749 0.73900008 2.2406055e-38
0.00070380577 0.041524757 0.73900002 2.2866318e-38
0.0021057164 0.041412376 0.73700011 2.341769e-38
0.003509518 0.041412357 0.73700011 2.341769e-38
0.0049133329 0.041412361 0.73700011 2.341769e-38
0.0063171438 0.041412376 0.73700005 2.341769e-38
0.0077209445 0.041412365 0.73700011 2.341769e-38
0.0091495244 0.041524757 0.73900002 2.341769e-38
0.010557136 0.04152476 0.73900002 2.341769e-38
0.01196475 0.041524749 0.73900008 2.341769e-38
0.013336188 0.041412372 0.73700011 2.341769e-38
0.014779986 0.041524768 0.73900002 2.341769e-38
0.016187612 0.041524749 0.73900008 2.341769e-38
0.017619034 0.041580938 0.74000007 2.341769e-38
0.019028559 0.041580945 0.74000007 2.341769e-38
0.020438083 0.041580953 0.74000001 2.341769e-38
0.021847606 0.041580942 0.74000001 2.341769e-38
0.023319978 0.041693326 0.7420001 2.341769e-38
0.024733311 0.04169333 0.7420001 2.341769e-38
0.026146648 0.041693322 0.7420001 2.341769e-38
0.027559983 0.041693326 0.7420001 2.341769e-38
0.029012373 0.041749507 0.74300003 2.341769e-38
0.030509513 0.041861892 0.74500012 2.341769e-38
0.031928558 0.041861895 0.74500012 2.3048196e-38
0.033437151 0.041974291 0.74700004 2.2765339e-38
0.034906663 0.042030476 0.74800009 1.7947745e-38
0.036428563 0.042142842 0.75000006 1.317962e-38
0.037857134 0.042142838 0.75000012 1.5124095e-38
0.039390493 0.042255238 0.75200003 1.7060177e-38
0.040985718 0.042423807 0.75500011 1.6875432e-38
0.042479992 0.042479981 0.75600004 1.6690336e-38
0.043919992 0.042479992 0.75600004 1.6599585e-38
0.045600008 0.042704761 0.76000005 1.6599585e-38
0.047047611 0.042704754 0.76000011 1.7059122e-38
-0.034332402 0.044559028 0.76700008 1.706479e-38
-0.032785721 0.044442851 0.7650001 1.7608627e-38
-0.031246668 0.044326641 0.76300007 1.5027546e-38
-0.029715247 0.044210467 0.7610001 1.2364332e-38
-0.028228583 0.044152383 0.76000005 1.1992342e-38
-0.026710486 0.044036176 0.75800008 1.1533524e-38
-0.025200006 0.043919999 0.75600004 1.1341604e-38
-0.023665728 0.043745715 0.75300002 1.1082615e-38
-0.022201909 0.043687619 0.75200009 1.5037296e-38
-0.020769518 0.043687619 0.75200003 1.8995554e-38
-0.019337144 0.043687604 0.75200003 1.9825663e-38
-0.017857153 0.043571409 0.75000012 2.0557835e-38
-0.016384767 0.043455247 0.74800003 2.0835491e-38
-0.014939999 0.043397155 0.74700004 2.1112448e-38
-0.013517146 0.04339714 0.74700004 2.1118201e-38
-0.012061923 0.043280937 0.74500012 2.1113895e-38
-0.01064287 0.043280948 0.74500006 2.1207882e-38
-0.0091990596 0.043164738 0.74300003 2.1206805e-38
-0.0077838125 0.043164749 0.74300003 2.0929865e-38
-0.0063685835 0.043164752 0.74300003 2.0654e-38
-0.004946677 0.043106649 0.7420001 2.0465664e-38
-0.0035333487 0.04310666 0.7420001 2.0194107e-38
-0.0021114389 0.042932376 0.73900008 2.0741895e-38
-0.00070381659 0.042932376 0.73900002 2.1301881e-38
0.00070380344 0.04293238 0.73900002 2.24075e-38
0.002105708 0.042816177 0.73700011 2.341769e-38
0.0035095231 0.042816162 0.73700011 2.341769e-38
0.0049133245 0.042816173 0.73700011 2.341769e-38
0.0063171252 0.04281617 0.73700011 2.341769e-38
0.0077209505 0.04281617 0.73700011 2.341769e-38
0.0091495225 0.042932369 0.73900002 2.341769e-38
0.010557136 0.042932376 0.73900008 2.341769e-38
0.011964758 0.042932391 0.73900002 2.341769e-38
0.013372371 0.042932376 0.73900002 2.341769e-38
0.014779983 0.042932361 0.73900008 2.341769e-38
0.016209522 0.042990476 0.74000001 2.341769e-38
0.017619045 0.042990468 0.74000001 2.341769e-38
0.019028571 0.042990472 0.74000001 2.341769e-38
0.020438083 0.042990476 0.74000007 2.341769e-38
0.021847608 0.042990465 0.74000007 2.341769e-38
0.02331998 0.043106657 0.7420001 2.341769e-38
0.024733314 0.04310666 0.7420001 2.341769e-38
0.026146652 0.043106653 0.7420001 2.341769e-38
0.027559986 0.043106664 0.7420001 2.341769e-38
0.02901238 0.043164752 0.74300003 2.341769e-38
0.030509522 0.043280944 0.74500006 2.3417658e-38
0.032014284 0.04339714 0.7470001 2.2774777e-38
0.033481911 0.043455236 0.74800003 2.2013787e-38
0.034906667 0.043455236 0.74800003 1.7839816e-38
0.03642856 0.04357142 0.75000006 1.3731375e-38
0.037958104 0.043687604 0.75200009 1.5309561e-38
0.039390478 0.043687619 0.75200003 1.6784305e-38
0.040985715 0.0438619 0.75500011 1.669067e-38
0.042479988 0.043919995 0.75600004 1.6506657e-38
0.044036195 0.044036187 0.75800002 1.632372e-38
0.045600004 0.044152383 0.76000005 1.6139696e-38
0.047047626 0.044152386 0.76000005 1.6505967e-38
-0.034332395 0.046019997 0.76700002 1.7429301e-38
-0.032785725 0.045899983 0.7650001 1.8257606e-38
-0.03124667 0.045779981 0.76300001 1.6872889e-38
-0.029715242 0.045659997 0.76100004 1.5397777e-38
-0.028228575 0.045600019 0.76000005 1.5214818e-38
-0.026710484 0.045479987 0.75800008 1.4938213e-38
-0.025200017 0.045359988 0.75600004 1.4936395e-38
-0.023728577 0.045299996 0.75500011 1.503115e-38
-0.022231445 0.045179989 0.75300008 1.8077196e-38
-0.020797154 0.045179997 0.75300002 2.1118187e-38
-0.019337144 0.045119993 0.75200003 2.1484468e-38
-0.017857151 0.044999987 0.75000012 2.1852164e-38
-0.016384766 0.044879992 0.74800009 2.2036546e-38
-0.014940002 0.044820007 0.74700004 2.2315653e-38
-0.013517138 0.044820007 0.74700004 2.2314588e-38
-0.012061925 0.0447 0.74500012 2.2314229e-38
-0.010642867 0.044699993 0.74500012 2.231387e-38
-0.0092238253 0.044699982 0.74500012 2.2315664e-38
-0.0077838139 0.044579983 0.74300003 2.2221676e-38
-0.0063685775 0.044579975 0.74300003 2.2040158e-38
-0.0049533378 0.044579998 0.74300003 2.1945093e-38
-0.0035381012 0.044579979 0.74300003 2.1856487e-38
-0.0021142934 0.044399992 0.74000001 2.2128764e-38
-0.00070381846 0.044339992 0.73900002 2.2406782e-38
0.00070380158 0.044339992 0.73900002 2.2866677e-38
0.0021114314 0.044339992 0.73900002 2.341769e-38
0.003519045 0.044339988 0.73900002 2.341769e-38
0.0049266568 0.044339985 0.73900002 2.341769e-38
0.0063342801 0.04434 0.73900002 2.341769e-38
0.0077418922 0.044339996 0.73900002 2.341769e-38
0.0091495197 0.044339992 0.73900002 2.341769e-38
0.010557144 0.04434 0.73900002 2.341769e-38
0.011964756 0.044339988 0.73900002 2.341769e-38
0.013372368 0.044339992 0.73900002 2.341769e-38
0.014779991 0.044340007 0.73900002 2.341769e-38
0.016187618 0.044339988 0.73900002 2.341769e-38
0.017619034 0.044399984 0.74000001 2.341769e-38
0.019028571 0.044399988 0.74000001 2.341769e-38
0.020438096 0.044400003 0.74000001 2.341769e-38
0.021847619 0.044399992 0.74000001 2.341769e-38
0.023319984 0.044520006 0.7420001 2.341769e-38
0.024733318 0.044519994 0.7420001 2.341769e-38
0.026181903 0.04457999 0.74300003 2.341769e-38
0.027597139 0.044579986 0.74300003 2.341769e-38
0.029090459 0.044699989 0.74500012 2.341769e-38
0.030509518 0.044699989 0.74500006 2.3417626e-38
0.032057147 0.044879995 0.74800003 2.2216525e-38
0.033481903 0.044879995 0.74800009 2.0909241e-38
0.034999989 0.044999991 0.75000012 1.8127567e-38
0.03642856 0.044999979 0.75000012 1.5483448e-38
0.0379581 0.045119997 0.75200003 1.7612623e-38
0.039442845 0.045179997 0.75300002 1.9821325e-38
0.040985718 0.045299999 0.75500011 1.8348355e-38
0.042479996 0.045359991 0.75600004 1.6872556e-38
0.044152379 0.045600004 0.76000005 1.6690343e-38
0.045660008 0.045660008 0.76100004 1.6507401e-38
0.047109518 0.045659997 0.76100004 1.6783277e-38
0.048559044 0.045660004 0.76100004 1.6966581e-38
-0.034242861 0.047357142 0.76500005 1.7798081e-38
-0.032700002 0.047233317 0.76300007 1.8900104e-38
-0.031246681 0.047233306 0.76300007 1.871643e-38
-0.029715247 0.047109514 0.7610001 1.8437692e-38
-0.028228575 0.047047623 0.76000005 1.8439483e-38
-0.026780954 0.047047619 0.76000005 1.8344767e-38
-0.025266672 0.046923809 0.75800002 1.8618827e-38
-0.023760008 0.046800002 0.75600004 1.890334e-38
-0.022290485 0.046738092 0.75500011 2.112178e-38
-0.020797158 0.046614278 0.75300008 2.3233288e-38
-0.019362872 0.046614289 0.75300008 2.3142178e-38
-0.017857151 0.046428554 0.75000006 2.3049263e-38
-0.016384764 0.046304755 0.74800003 2.3234008e-38
-0.014959998 0.046304762 0.74800003 2.3417684e-38
-0.01351715 0.046242855 0.74700004 2.341769e-38
-0.012061921 0.046119027 0.74500012 2.3417331e-38
-0.010642868 0.046119042 0.74500012 2.341769e-38
-0.0092238178 0.046119049 0.74500006 2.341769e-38
-0.007804777 0.046119034 0.74500012 2.341769e-38
-0.0063685789 0.045995232 0.74300003 2.341769e-38
-0.0049466821 0.045933329 0.7420001 2.341769e-38
-0.0035333533 0.045933336 0.7420001 2.341769e-38
-0.0021142925 0.045809507 0.74000007 2.341769e-38
-0.00070382032 0.045747619 0.73900002 2.341769e-38
0.00070379925 0.045747608 0.73900008 2.341769e-38
0.0021114305 0.045747608 0.73900002 2.341769e-38
0.0035190431 0.045747612 0.73900002 2.341769e-38
0.004926655 0.045747608 0.73900008 2.341769e-38
0.0063342773 0.045747615 0.73900002 2.341769e-38
0.0077418904 0.045747619 0.73900002 2.341769e-38
0.0091495188 0.0457476 0.73900008 2.341769e-38
0.010557141 0.045747623 0.73900002 2.341769e-38
0.011964754 0.045747619 0.73900002 2.341769e-38
0.013372366 0.045747608 0.73900008 2.341769e-38
0.01477999 0.045747623 0.73900002 2.341769e-38
0.016187603 0.045747612 0.73900002 2.341769e-38
0.017619034 0.045809515 0.74000007 2.341769e-38
0.019028557 0.045809504 0.74000007 2.341769e-38
0.020438081 0.045809511 0.74000007 2.341769e-38
0.021906653 0.045933325 0.7420001 2.341769e-38
0.023319976 0.045933329 0.7420001 2.341769e-38
0.024733312 0.045933321 0.7420001 2.341769e-38
0.026181908 0.045995232 0.74300003 2.341769e-38
0.027597131 0.045995243 0.74300003 2.341769e-38
0.029090457 0.046119034 0.74500012 2.341769e-38
0.030591426 0.046242863 0.74700004 2.3417644e-38
0.032057147 0.046304755 0.74800003 2.1672723e-38
0.033481907 0.046304762 0.74800003 1.9798636e-38
0.035 0.046428561 0.75000012 1.8461571e-38
0.036525711 0.046552368 0.75200009 1.713472e-38
0.038008559 0.046614278 0.75300008 2.0019747e-38
0.039547611 0.046738081 0.75500011 2.2765478e-38
0.040985715 0.046738088 0.75500011 2.0008254e-38
0.042592369 0.046923794 0.75800008 1.7155972e-38
0.044152375 0.047047623 0.76000005 1.7057678e-38
0.045659989 0.047109526 0.76100004 1.6875449e-38
0.047233339 0.04723331 0.76300007 1.6969801e-38
0.048686661 0.047233317 0.76300007 1.7060202e-38
-0.034242865 0.048814274 0.76500005 1.7336752e-38
-0.032700002 0.048686638 0.76300007 1.8900113e-38
-0.031246677 0.048686646 0.76300007 1.8625328e-38
-0.029715246 0.048559047 0.76100004 1.8349461e-38
-0.028228583 0.048495241 0.76000005 1.8164354e-38
-0.026780961 0.048495241 0.76000005 1.7984271e-38
-0.025266672 0.048367605 0.75800002 1.8167225e-38
-0.023760015 0.048239987 0.75600004 1.8453164e-38
-0.022290481 0.048176195 0.75500011 2.0107307e-38
-0.020852385 0.048176192 0.75500011 2.1764651e-38
-0.019362865 0.048048582 0.75300002 2.1762857e-38
-0.017857149 0.047857132 0.75000006 2.1764651e-38
-0.016428579 0.047857136 0.75000012 2.2498259e-38
-0.014959994 0.047729522 0.74800003 2.3325854e-38
-0.013517142 0.047665719 0.74700004 2.3325854e-38
-0.012061912 0.047538094 0.74500006 2.341769e-38
-0.010642871 0.047538079 0.74500012 2.341769e-38
-0.0092238197 0.047538094 0.74500006 2.341769e-38
-0.0078047793 0.047538076 0.74500012 2.341769e-38
-0.0063685728 0.047410462 0.74300003 2.341769e-38
-0.0049533434 0.047410462 0.74300003 2.341769e-38
-0.0035333505 0.04734667 0.7420001 2.341769e-38
-0.0021142878 0.047219053 0.74000001 2.341769e-38
-0.00070477492 0.047219034 0.74000007 2.341769e-38
0.00070380716 0.047155239 0.73900002 2.341769e-38
0.0021114133 0.047155242 0.73900002 2.341769e-38
0.0035190408 0.047155231 0.73900008 2.341769e-38
0.0049266634 0.047155242 0.73900002 2.341769e-38
0.0063342755 0.047155231 0.73900002 2.341769e-38
0.0077418881 0.047155231 0.73900008 2.341769e-38
0.0091495123 0.047155246 0.73900002 2.341769e-38
0.010557139 0.047155239 0.73900002 2.341769e-38
0.011964752 0.047155231 0.73900008 2.341769e-38
0.013372374 0.047155231 0.73900002 2.341769e-38
0.014779988 0.047155239 0.73900002 2.341769e-38
0.016187599 0.047155224 0.73900008 2.341769e-38
0.017619045 0.047219034 0.74000001 2.341769e-38
0.019028569 0.047219038 0.74000001 2.341769e-38
0.020438092 0.047219038 0.74000001 2.341769e-38
0.021906644 0.047346655 0.7420001 2.341769e-38
0.02331998 0.047346666 0.7420001 2.341769e-38
0.024733316 0.04734667 0.7420001 2.341769e-38
0.026181892 0.047410458 0.74300003 2.341769e-38
0.027597139 0.04741047 0.74300003 2.341769e-38
0.029090457 0.047538072 0.74500012 2.341769e-38
0.030591428 0.047665715 0.74700004 2.3417662e-38
0.03205714 0.047729522 0.74800003 2.1201744e-38
0.033571426 0.047857124 0.75000006 1.8884974e-38
0.034999993 0.047857132 0.75000012 1.6839048e-38
0.036525719 0.047984757 0.75200003 1.4941457e-38
0.038008574 0.048048571 0.75300002 1.8628254e-38
0.039442852 0.048048582 0.75300002 2.2304902e-38
0.041039985 0.048239991 0.75600004 2.0838763e-38
0.042479992 0.048239995 0.7560001 1.9276458e-38
0.044152383 0.048495244 0.76000011 1.7980331e-38
0.045779988 0.048686646 0.76300007 1.6599571e-38
0.047233332 0.04868665 0.76300001 1.660029e-38
0.048686657 0.048686642 0.76300007 1.6692134e-38
-0.034242861 0.050271425 0.76500005 1.6967593e-38
-0.032785725 0.050271414 0.7650001 1.8810421e-38
-0.031246671 0.05013999 0.76300007 1.853565e-38
-0.029715249 0.050008576 0.7610001 1.8166139e-38
-0.028265722 0.050008576 0.76100004 1.7883441e-38
-0.026780961 0.049942859 0.76000005 1.7520056e-38
-0.025266672 0.04981143 0.75800002 1.779665e-38
-0.02382287 0.049811419 0.75800008 1.7985358e-38
-0.022320008 0.049680002 0.75600004 1.9089191e-38
-0.020852387 0.04961428 0.75500011 2.0193022e-38
-0.0194143 0.049614273 0.75500011 2.0379574e-38
-0.017904757 0.049417138 0.75200003 2.0472126e-38
-0.016428577 0.049285706 0.75000012 2.185145e-38
-0.014960003 0.049154289 0.74800003 2.3139665e-38
-0.013535245 0.049154278 0.74800009 2.3325854e-38
-0.012094283 0.049088582 0.74700004 2.341769e-38
-0.010642874 0.048957139 0.74500012 2.341769e-38
-0.0092238216 0.048957136 0.74500006 2.341769e-38
-0.0078047812 0.048957139 0.74500012 2.341769e-38
-0.0063685733 0.048825711 0.74300003 2.341769e-38
-0.0049533448 0.048825715 0.74300003 2.341769e-38
-0.003538098 0.048825711 0.74300003 2.341769e-38
-0.0021200108 0.048759997 0.74200004 2.341769e-38
-0.0007047712 0.048628576 0.74000001 2.341769e-38
0.00070475339 0.048628569 0.74000001 2.341769e-38
0.0021142776 0.048628576 0.74000001 2.341769e-38
0.0035238003 0.048628569 0.74000001 2.341769e-38
0.0049333288 0.048628561 0.74000007 2.341769e-38
0.0063342736 0.048562843 0.73900008 2.341769e-38
0.0077418969 0.048562858 0.73900002 2.341769e-38
0.0091495104 0.048562847 0.73900002 2.341769e-38
0.010557137 0.048562847 0.73900008 2.341769e-38
0.01196476 0.048562862 0.73900002 2.341769e-38
0.013372372 0.048562847 0.73900002 2.341769e-38
0.014779986 0.048562851 0.73900008 2.341769e-38
0.016187608 0.048562851 0.73900002 2.341769e-38
0.017619047 0.048628561 0.74000007 2.341769e-38
0.019028556 0.048628576 0.74000007 2.341769e-38
0.020493312 0.048760001 0.7420001 2.341769e-38
0.021906661 0.048759989 0.7420001 2.341769e-38
0.023319982 0.048760001 0.7420001 2.341769e-38
0.024733318 0.048759993 0.7420001 2.341769e-38
0.026181895 0.048825704 0.74300003 2.341769e-38
0.027597142 0.048825704 0.74300003 2.3417684e-38
0.029090453 0.048957136 0.74500012 2.341768e-38
0.030591419 0.049088567 0.7470001 2.3407203e-38
0.032057144 0.049154282 0.74800003 2.0739235e-38
0.033571411 0.049285688 0.75000012 1.7954336e-38
0.03509333 0.049417138 0.75200009 1.5251944e-38
0.036525723 0.049417142 0.75200003 1.2631519e-38
0.038008563 0.049482852 0.75300002 1.7246009e-38
0.039547622 0.04961428 0.75500011 2.1847853e-38
0.040985711 0.049614292 0.75500011 2.1672816e-38
0.042479999 0.049679995 0.75600004 2.1383293e-38
0.044152383 0.049942859 0.76000005 1.8895818e-38
0.045779999 0.050139986 0.76300007 1.6324431e-38
0.047233324 0.050139979 0.76300007 1.6323361e-38
-0.034242861 0.051728573 0.7650001 1.7150881e-38
-0.032700002 0.051593307 0.76300007 1.9000898e-38
-0.031246675 0.051593326 0.76300007 1.8631437e-38
-0.029715244 0.051458091 0.76100004 1.8355181e-38
-0.028265726 0.051458094 0.76100004 1.7795885e-38
-0.026780954 0.051390488 0.76000005 1.7334218e-38
-0.025266672 0.051255226 0.75800002 1.7427509e-38
-0.023822868 0.051255226 0.75800008 1.7520062e-38
-0.022320015 0.051119987 0.75600004 1.807215e-38
-0.020852389 0.051052365 0.75500011 1.8620675e-38
-0.019414295 0.051052373 0.75500011 1.8717556e-38
-0.017904764 0.050849523 0.75200003 1.8902659e-38
-0.016428577 0.050714277 0.75000006 2.0007193e-38
-0.015000005 0.050714269 0.75000012 2.1208961e-38
-0.013535236 0.050579056 0.74800003 2.1579545e-38
-0.012094287 0.050511435 0.74700004 2.1948322e-38
-0.01067143 0.050511431 0.74700004 2.1944017e-38
-0.0092238253 0.050376192 0.74500012 2.1948322e-38
-0.0078047733 0.050376188 0.74500006 2.2683006e-38
-0.0063685752 0.050240945 0.74300003 2.341769e-38
-0.0049533388 0.050240949 0.74300003 2.341769e-38
-0.0035380994 0.050240956 0.74300003 2.341769e-38
-0.0021200192 0.05017332 0.7420001 2.341769e-38
-0.0007066832 0.050173324 0.7420001 2.341769e-38
0.00070475385 0.050038092 0.74000007 2.341769e-38
0.0021142776 0.050038088 0.74000001 2.341769e-38
0.0035238017 0.050038092 0.74000001 2.341769e-38
0.0049333251 0.050038088 0.74000001 2.341769e-38
0.0063428488 0.050038096 0.74000001 2.341769e-38
0.007741895 0.049970474 0.73900002 2.341769e-38
0.0091495076 0.049970478 0.73900002 2.341769e-38
0.010557146 0.049970478 0.73900002 2.341769e-38
0.011980948 0.050038088 0.74000007 2.341769e-38
0.013372371 0.049970467 0.73900008 2.341769e-38
0.014779994 0.049970478 0.73900002 2.341769e-38
0.016209519 0.050038096 0.74000001 2.341769e-38
0.017619042 0.050038092 0.74000001 2.341769e-38
0.019028567 0.050038096 0.74000001 2.341769e-38
0.020493329 0.050173331 0.7420001 2.341769e-38
0.021906639 0.050173312 0.7420001 2.341769e-38
0.023319975 0.05017332 0.7420001 2.341769e-38
0.024733311 0.050173327 0.7420001 2.341769e-38
0.026181905 0.050240949 0.74300003 2.341769e-38
0.02759715 0.050240949 0.74300003 2.341768e-38
0.029168563 0.05051142 0.74700004 2.2028657e-38
0.030632379 0.050579041 0.74800003 2.0635939e-38
0.032057136 0.050579034 0.74800009 1.8883769e-38
0.033571418 0.050714262 0.75000012 1.7124859e-38
0.035093334 0.050849505 0.75200009 1.5283798e-38
0.036574274 0.050917134 0.75300008 1.3463718e-38
0.038008552 0.05091713 0.75300008 1.650733e-38
0.039547615 0.051052369 0.75500011 1.9462975e-38
0.041039996 0.051119976 0.75600004 1.8996313e-38
0.042592373 0.051255219 0.75800008 1.8432719e-38
0.044036195 0.051255234 0.75800002 1.7517209e-38
0.046019983 0.051863804 0.76700008 1.660102e-38
0.04754284 0.051931426 0.76800001 1.669251e-38
0.049005698 0.05193143 0.76800001 1.6785779e-38
-0.034242861 0.053185705 0.7650001 1.7241658e-38
-0.032700006 0.053046644 0.76300007 1.908844e-38
-0.031246668 0.053046666 0.76300001 1.8816908e-38
-0.029715249 0.052907623 0.7610001 1.8535632e-38
-0.02826572 0.052907623 0.76100004 1.7794103e-38
-0.026780959 0.052838095 0.76000005 1.7059074e-38
-0.025266675 0.052699048 0.75800002 1.7059448e-38
-0.023822876 0.052699033 0.75800008 1.7059094e-38
-0.022320013 0.052559987 0.75600004 1.7058022e-38
-0.020880008 0.052560002 0.75600004 1.6967994e-38
-0.019414287 0.052490473 0.75500011 1.7150245e-38
-0.017904766 0.05228189 0.75200009 1.724423e-38
-0.016428584 0.052142844 0.75000012 1.8249038e-38
-0.015000003 0.052142855 0.75000012 1.9275026e-38
-0.013535234 0.052003816 0.74800003 1.9834661e-38
-0.01209429 0.051934287 0.7470001 2.0377776e-38
-0.010642868 0.051795229 0.74500006 2.036952e-38
-0.0092238253 0.051795222 0.74500012 2.0381726e-38
-0.0078047765 0.051795237 0.74500006 2.1948322e-38
-0.0063857283 0.051795233 0.74500012 2.341769e-38
-0.0049533402 0.051656175 0.74300003 2.341769e-38
-0.003538104 0.051656179 0.74300009 2.341769e-38
-0.0021200164 0.051586669 0.7420001 2.341769e-38
-0.00070668041 0.051586665 0.7420001 2.341769e-38
0.0007066477 0.051586654 0.7420001 2.341769e-38
0.0021199838 0.051586661 0.7420001 2.341769e-38
0.0035333193 0.051586669 0.7420001 2.341769e-38
0.004933326 0.051447619 0.74000007 2.341769e-38
0.0063428502 0.051447608 0.74000001 2.341769e-38
0.0077418927 0.051378094 0.73900002 2.341769e-38
0.0091495058 0.051378079 0.73900008 2.341769e-38
0.010557143 0.051378094 0.73900002 2.341769e-38
0.011980945 0.051447611 0.74000001 2.341769e-38
0.013372369 0.051378079 0.73900008 2.341769e-38
0.014779991 0.051378094 0.73900002 2.341769e-38
0.01620952 0.051447608 0.74000007 2.341769e-38
0.017619045 0.051447615 0.74000007 2.341769e-38
0.019079985 0.05158665 0.7420001 2.341769e-38
0.020493306 0.051586658 0.7420001 2.341769e-38
0.021906657 0.051586665 0.7420001 2.341769e-38
0.023351425 0.051656183 0.74300003 2.341769e-38
0.024766661 0.051656172 0.74300003 2.3417306e-38
0.026181908 0.051656183 0.74300003 2.3417638e-38
0.027671417 0.051795233 0.74500012 2.3407575e-38
