# .PCD v0.7 - Point Cloud Data file format
VERSION 0.7
FIELDS x y z rgb
SIZE 4 4 4 4
TYPE F F F F
COUNT 1 1 1 1
WIDTH 980
HEIGHT 1
VIEWPOINT 0 0 0 1 0 0 0
POINTS 980
DATA ascii
0.011980946 0.044399995 0.74000001 2.1202848e-38
0.013390497 0.044399988 0.74000007 2.1382567e-38
0.014800014 0.044399988 0.74000007 2.1017731e-38
0.016209532 0.044399999 0.74000007 2.0645725e-38
0.017619062 0.044400007 0.74000007 2.1479059e-38
0.019080002 0.04452002 0.7420001 2.2300219e-38
0.020493325 0.044520002 0.7420001 2.2862731e-38
0.021906652 0.044520013 0.7420001 2.341769e-38
0.023319989 0.044520002 0.7420001 2.341769e-38
0.024733331 0.044520013 0.7420001 2.341769e-38
0.026146656 0.044520009 0.7420001 2.341769e-38
0.027597133 0.044580016 0.74300003 2.341769e-38
0.029012378 0.044580001 0.74300003 2.341769e-38
0.030509509 0.044700015 0.74500006 2.341769e-38
0.032014292 0.044820014 0.7470001 2.341769e-38
0.033481896 0.04488001 0.74800003 2.341769e-38
0.035 0.045000002 0.75000006 2.341769e-38
0.036428571 0.045000006 0.75000006 2.341769e-38
0.037958115 0.045120008 0.75200009 2.341769e-38
0.039390497 0.045120012 0.75200009 2.3417662e-38
0.040985726 0.045300003 0.75500011 1.9913177e-38
0.042479996 0.045360006 0.75600004 1.6503068e-38
0.043919992 0.045360021 0.7560001 1.6227203e-38
0.045780003 0.045779996 0.76300007 1.595315e-38
0.047233328 0.045780003 0.76300001 1.6415933e-38
0.048814267 0.045900013 0.7650001 1.6876185e-38
-0.032785743 0.047357157 0.76500005 1.4388649e-38
-0.031246677 0.047233332 0.76300007 1.6324419e-38
-0.029793341 0.047233328 0.76300001 1.8167238e-38
-0.028340012 0.047233324 0.76300007 1.8996996e-38
-0.026816189 0.047109522 0.7610001 1.9827837e-38
-0.025333356 0.047047634 0.76000005 2.158098e-38
-0.023822887 0.046923824 0.75800002 2.3324414e-38
-0.022319995 0.046800002 0.7560001 2.2585778e-38
-0.02085238 0.046738103 0.75500005 2.1852535e-38
-0.019362869 0.046614289 0.75300002 2.2683006e-38
-0.017904734 0.046552386 0.75200009 2.341769e-38
-0.016428582 0.046428572 0.75000006 2.341769e-38
-0.014960028 0.046304777 0.74800009 2.341769e-38
-0.013535247 0.046304762 0.74800009 2.3234019e-38
-0.012094282 0.046242863 0.7470001 2.3050348e-38
-0.010671426 0.04624287 0.74700004 2.3234019e-38
-0.00922383 0.04611906 0.74500006 2.341769e-38
-0.007804791 0.046119053 0.74500012 2.341769e-38
-0.0063685658 0.04599525 0.74300003 2.341769e-38
-0.0049533355 0.045995247 0.74300009 2.341769e-38
-0.0035333412 0.045933332 0.7420001 2.341769e-38
-0.002114285 0.045809533 0.74000007 2.341769e-38
-0.00070474797 0.045809519 0.74000007 2.341769e-38
0.0007047836 0.045809515 0.74000007 2.341769e-38
0.0021142995 0.045809522 0.74000007 2.341769e-38
0.0035238161 0.045809519 0.74000007 2.341769e-38
0.0049333326 0.045809515 0.74000007 2.341769e-38
0.0063428641 0.045809537 0.74000007 2.341769e-38
0.0077523799 0.045809519 0.74000007 2.3415892e-38
0.0091619175 0.045809519 0.74000007 2.1481245e-38
0.010571449 0.045809526 0.74000007 1.9459784e-38
0.011980966 0.045809522 0.74000007 1.9822819e-38
0.013390481 0.045809522 0.74000007 2.0100833e-38
0.014799998 0.045809526 0.74000007 2.0004332e-38
0.01620953 0.045809522 0.74000007 1.9919312e-38
0.017619047 0.045809522 0.74000001 2.1669926e-38
0.019079994 0.045933347 0.7420001 2.3413017e-38
0.020493338 0.045933343 0.7420001 2.341769e-38
0.021906665 0.04593334 0.7420001 2.341769e-38
0.023320002 0.045933347 0.7420001 2.341769e-38
0.024733329 0.04593334 0.7420001 2.341769e-38
0.026181903 0.045995243 0.74300003 2.341769e-38
0.027597133 0.04599525 0.74300003 2.341769e-38
0.029090449 0.04611906 0.74500006 2.341769e-38
0.030509504 0.04611906 0.74500006 2.341769e-38
0.032014303 0.046242863 0.7470001 2.341769e-38
0.033481907 0.046304762 0.74800009 2.341769e-38
0.034906656 0.046304766 0.74800003 2.341769e-38
0.036428574 0.046428572 0.75000006 2.341769e-38
0.03785713 0.046428595 0.75000006 2.341769e-38
0.039442856 0.046614297 0.75300008 2.341337e-38
0.040985715 0.046738103 0.75500005 2.0186198e-38
0.042479999 0.04680001 0.7560001 1.6876163e-38
0.04392001 0.046800014 0.7560001 1.6591675e-38
0.045660011 0.047109529 0.7610001 1.632228e-38
0.047233336 0.047233339 0.76300007 1.6694657e-38
0.048814282 0.047357142 0.7650001 1.6969446e-38
0.050271414 0.047357149 0.7650001 1.7245312e-38
-0.032785755 0.048814304 0.76500005 1.4020601e-38
-0.031246692 0.048686661 0.76300001 1.5863453e-38
-0.029793333 0.048686657 0.76300007 1.780026e-38
-0.028340023 0.048686668 0.76300001 1.8811538e-38
-0.026816182 0.048559047 0.7610001 1.991573e-38
-0.025333367 0.048495259 0.76000005 2.157811e-38
-0.023822876 0.048367631 0.75800002 2.3325843e-38
-0.022319991 0.048239995 0.7560001 2.2309542e-38
-0.020852365 0.048176199 0.75500011 2.1386895e-38
-0.019414272 0.048176184 0.75500011 2.2404988e-38
-0.017904736 0.047984771 0.75200009 2.341769e-38
-0.016428564 0.047857154 0.75000006 2.341769e-38
-0.015000022 0.047857143 0.75000006 2.341769e-38
-0.013535256 0.047729522 0.74800003 2.3234019e-38
-0.012110475 0.047729533 0.74800009 2.3141466e-38
-0.010671405 0.047665723 0.7470001 2.3234019e-38
-0.0092238346 0.047538102 0.74500006 2.341769e-38
-0.0078047686 0.047538102 0.74500006 2.341769e-38
-0.0063857283 0.047538098 0.74500012 2.341769e-38
-0.0049533197 0.047410477 0.74300009 2.341769e-38
-0.0035380891 0.047410488 0.74300009 2.341769e-38
-0.0021142794 0.047219042 0.74000007 2.341769e-38
-0.00070474984 0.047219042 0.74000007 2.341769e-38
0.00070476776 0.047219038 0.74000007 2.341769e-38
0.0021142836 0.047219057 0.74000007 2.341769e-38
0.0035238152 0.047219042 0.74000001 2.341769e-38
0.0049333521 0.047219042 0.74000007 2.341769e-38
0.0063428679 0.047219045 0.74000007 2.341769e-38
0.0077523845 0.047219045 0.74000007 2.341769e-38
0.0091619166 0.047219045 0.74000007 2.2405706e-38
0.010599993 0.047346693 0.74200004 2.1489145e-38
0.011980963 0.047219045 0.74000007 2.1577751e-38
0.013390481 0.047219045 0.74000007 2.1764651e-38
0.014800018 0.047219034 0.74000007 2.1760705e-38
0.016209535 0.047219034 0.74000007 2.1672816e-38
0.017619066 0.047219049 0.74000007 2.2590453e-38
0.019079989 0.047346681 0.74200004 2.341769e-38
0.020493316 0.047346678 0.74200004 2.341769e-38
0.021906653 0.047346681 0.74200004 2.341769e-38
0.02331998 0.047346681 0.7420001 2.341769e-38
0.02473332 0.047346681 0.74200004 2.341769e-38
0.026181905 0.047410492 0.74300003 2.341769e-38
0.027597137 0.047410488 0.74300003 2.3325854e-38
0.029090459 0.047538109 0.74500006 2.3139672e-38
0.030591428 0.047665726 0.74700004 2.2866677e-38
0.032057118 0.047729526 0.74800003 2.3142183e-38
0.033481903 0.047729522 0.74800003 2.341769e-38
0.034999989 0.047857147 0.75000006 2.341769e-38
0.036428582 0.047857154 0.75000006 2.341769e-38
0.037958108 0.04798476 0.75200009 2.341769e-38
0.039442841 0.048048582 0.75300002 2.3417687e-38
0.04098573 0.048176192 0.75500011 2.1114981e-38
0.042480018 0.048240002 0.7560001 1.8815483e-38
0.044036202 0.04836762 0.75800008 1.7610834e-38
0.045660004 0.048559055 0.7610001 1.6508815e-38
0.047233321 0.048686661 0.76300001 1.6785403e-38
0.048814263 0.048814304 0.76500005 1.7061631e-38
0.050271414 0.048814297 0.7650001 1.733786e-38
-0.029793344 0.050140005 0.76300001 1.7336043e-38
-0.028340016 0.050139997 0.76300007 1.8624263e-38
-0.0268162 0.050008573 0.7610001 1.9918233e-38
-0.025333375 0.049942881 0.76000005 2.1672816e-38
-0.023885733 0.049942866 0.76000005 2.3323694e-38
-0.022379059 0.049811423 0.75800002 2.2123365e-38
-0.02088001 0.049680013 0.7560001 2.0840907e-38
-0.019414278 0.049614288 0.75500005 2.2131993e-38
-0.017904738 0.049417153 0.75200009 2.341769e-38
-0.01647236 0.049417142 0.75200009 2.341769e-38
-0.015000002 0.049285728 0.75000006 2.341769e-38
-0.013571412 0.049285706 0.75000006 2.3325854e-38
-0.012110484 0.049154293 0.74800003 2.3142183e-38
-0.010671431 0.049088582 0.7470001 2.3325854e-38
-0.0092485547 0.049088579 0.7470001 2.341769e-38
-0.0078047724 0.048957158 0.74500006 2.341769e-38
-0.0063857338 0.048957139 0.74500006 2.341769e-38
-0.0049533532 0.04882573 0.74300003 2.341769e-38
-0.0035381087 0.048825726 0.74300003 2.341769e-38
-0.0021142822 0.048628576 0.74000007 2.341769e-38
-0.00070476381 0.048628576 0.74000007 2.341769e-38
0.00070476404 0.04862858 0.74000001 2.341769e-38
0.0021143032 0.048628565 0.74000007 2.341769e-38
0.0035238198 0.048628565 0.74000007 2.341769e-38
0.0049333493 0.048628569 0.74000007 2.341769e-38
0.0063428669 0.048628569 0.74000007 2.341769e-38
0.0077523836 0.048628584 0.74000007 2.341769e-38
0.0091619007 0.048628569 0.74000007 2.341769e-38
0.010599989 0.048760016 0.7420001 2.341769e-38
0.012013329 0.048760019 0.7420001 2.341769e-38
0.013390485 0.048628572 0.74000007 2.341769e-38
0.014800015 0.048628572 0.74000007 2.341769e-38
0.016253322 0.048760012 0.7420001 2.341769e-38
0.01766666 0.048760012 0.7420001 2.341769e-38
0.019079987 0.048760012 0.7420001 2.341769e-38
0.020493329 0.048760012 0.7420001 2.341769e-38
0.021906652 0.048760004 0.7420001 2.3417689e-38
0.023319993 0.048760004 0.7420001 2.3417686e-38
0.024766661 0.048825722 0.74300003 2.3415894e-38
0.026181906 0.048825718 0.74300003 2.3325853e-38
0.02759715 0.048825718 0.74300003 2.3231502e-38
0.029090455 0.048957154 0.74500006 2.2765146e-38
0.030591451 0.049088579 0.7470001 2.231279e-38
0.032057129 0.049154293 0.74800009 2.2866677e-38
0.033481911 0.049154285 0.74800009 2.341769e-38
0.034999993 0.049285732 0.75000006 2.341769e-38
0.036525745 0.049417157 0.75200009 2.341769e-38
0.037958112 0.049417146 0.75200009 2.341769e-38
0.039442841 0.049482863 0.75300002 2.3417684e-38
0.040985715 0.049614284 0.75500005 2.2131983e-38
0.042480003 0.049680006 0.7560001 2.074008e-38
0.043919999 0.049680006 0.7560001 1.871107e-38
0.04566 0.050008584 0.7610001 1.6600292e-38
0.047357116 0.05027144 0.7650001 1.6876879e-38
0.048941888 0.050402854 0.76700008 1.7153107e-38
0.050402846 0.050402857 0.76700008 1.752117e-38
-0.029871441 0.051728584 0.7650001 1.7061239e-38
-0.028340008 0.05159333 0.76300007 1.8258698e-38
-0.026957158 0.051728576 0.7650001 1.9460123e-38
-0.025366671 0.051458098 0.7610001 2.0749797e-38
-0.023885742 0.051390491 0.76000005 2.2040152e-38
-0.022379046 0.05125523 0.75800008 2.1024573e-38
-0.020880006 0.051120002 0.7560001 2.0109095e-38
-0.019414263 0.05105238 0.75500005 2.1672098e-38
-0.017904742 0.050849523 0.75200009 2.3325854e-38
-0.016428575 0.050714303 0.75000006 2.2773765e-38
-0.015000013 0.050714292 0.75000006 2.2223829e-38
-0.013571442 0.050714299 0.75000006 2.2038005e-38
-0.012110471 0.050579049 0.74800009 2.1856487e-38
-0.010685738 0.050579064 0.74800003 2.2591171e-38
-0.0092485528 0.050511442 0.7470001 2.341769e-38
-0.0078257043 0.050511435 0.7470001 2.341769e-38
-0.0063857394 0.050376203 0.74500006 2.341769e-38
-0.004966672 0.050376203 0.74500012 2.341769e-38
-0.0035476519 0.050376207 0.74500006 2.341769e-38
-0.0021199996 0.050173339 0.7420001 2.341769e-38
-0.00070667395 0.050173339 0.7420001 2.341769e-38
0.00070666487 0.050173335 0.7420001 2.341769e-38
0.0021199926 0.050173335 0.7420001 2.341769e-38
0.0035238171 0.050038107 0.74000007 2.341769e-38
0.0049333344 0.050038092 0.74000007 2.341769e-38
0.0063599967 0.050173331 0.7420001 2.341769e-38
0.0077524022 0.050038096 0.74000007 2.341769e-38
0.0091866627 0.050173346 0.7420001 2.341769e-38
0.010600002 0.050173342 0.7420001 2.341769e-38
0.012013328 0.050173342 0.7420001 2.341769e-38
0.013426668 0.050173342 0.7420001 2.341769e-38
0.014839995 0.050173339 0.7420001 2.341769e-38
0.016253334 0.050173342 0.7420001 2.341769e-38
0.01766666 0.050173342 0.7420001 2.323366e-38
0.01908 0.050173335 0.7420001 2.2958513e-38
0.020493327 0.050173335 0.7420001 2.286596e-38
0.021906666 0.050173339 0.7420001 2.2774837e-38
0.023320004 0.050173335 0.7420001 2.2495022e-38
0.024766678 0.050240964 0.74300009 2.2124813e-38
0.026181906 0.050240964 0.74300009 2.2679775e-38
0.027597152 0.050240964 0.74300009 2.3234008e-38
0.029012393 0.050240956 0.74300009 2.2770158e-38
0.030591439 0.050511438 0.7470001 2.2405696e-38
0.032014299 0.050511431 0.7470001 2.2866318e-38
0.033481888 0.050579049 0.74800003 2.341769e-38
0.035 0.050714299 0.75000006 2.341769e-38
0.036525741 0.050849527 0.75200009 2.341769e-38
0.037958108 0.050849527 0.75200009 2.341769e-38
0.039442863 0.050917137 0.75300008 2.3417683e-38
0.04098573 0.051052373 0.75500011 2.0928072e-38
0.042423822 0.051052377 0.75500011 1.8341954e-38
0.043861914 0.051052373 0.75500005 1.7424659e-38
0.045779992 0.051593341 0.76300007 1.6599934e-38
0.047357131 0.051728591 0.7650001 1.6876877e-38
0.048941899 0.051863816 0.76700008 1.7244223e-38
-0.029871456 0.05318572 0.7650001 1.6783589e-38
-0.028414311 0.053185724 0.76500005 1.7888496e-38
-0.026886664 0.053046666 0.76300007 1.8904444e-38
-0.025333347 0.052838106 0.76000011 1.9826404e-38
-0.023885753 0.052838113 0.76000005 2.0655069e-38
-0.022379063 0.052699052 0.75800008 2.0008985e-38
-0.020880003 0.052559994 0.75600016 1.9277541e-38
-0.019414298 0.05249048 0.75500005 2.1304749e-38
-0.017904744 0.052281912 0.75200009 2.3232217e-38
-0.016472364 0.052281912 0.75200009 2.212732e-38
-0.014999993 0.052142866 0.75000006 2.1023855e-38
-0.013571424 0.052142866 0.75000006 2.0745117e-38
-0.012110509 0.052003819 0.74800003 2.0472846e-38
-0.010685727 0.052003816 0.74800009 2.1948319e-38
-0.0092609664 0.052003823 0.74800003 2.3417689e-38
-0.0078257024 0.051934302 0.7470001 2.341769e-38
-0.0064028543 0.051934291 0.7470001 2.341769e-38
-0.0049666776 0.051795244 0.74500006 2.341769e-38
-0.003547624 0.051795244 0.74500012 2.341769e-38
-0.0021200229 0.051586676 0.74200004 2.341769e-38
-0.00070668326 0.051586691 0.7420001 2.341769e-38
0.00070665742 0.051586676 0.74200004 2.341769e-38
0.0021199824 0.051586688 0.74200004 2.341769e-38
0.0035333221 0.051586688 0.74200004 2.341769e-38
0.0049466467 0.051586688 0.74200004 2.341769e-38
0.0063599874 0.051586688 0.74200004 2.341769e-38
0.0077733141 0.051586684 0.74200004 2.341769e-38
0.0091866525 0.051586684 0.74200004 2.341769e-38
0.01059998 0.051586684 0.74200004 2.341769e-38
0.01201332 0.05158668 0.74200004 2.341769e-38
0.013426646 0.05158668 0.7420001 2.341769e-38
0.014839985 0.05158668 0.74200004 2.341769e-38
0.016253311 0.051586676 0.74200004 2.3417331e-38
0.017666651 0.051586676 0.74200004 2.295636e-38
0.019079993 0.05158668 0.74200004 2.2497897e-38
0.020493317 0.051586688 0.74200004 2.231243e-38
0.021936189 0.051656198 0.74300009 2.2128037e-38
0.023351435 0.051656194 0.74300009 2.1479445e-38
0.02476668 0.051656194 0.74300009 2.0839112e-38
0.026252368 0.051795237 0.74500006 2.2034411e-38
0.027671408 0.051795248 0.74500006 2.3138942e-38
0.029168583 0.051934294 0.7470001 2.2766933e-38
0.030632365 0.052003827 0.74800003 2.240498e-38
0.032057133 0.052003823 0.74800009 2.2958513e-38
0.033571415 0.05214287 0.75000006 2.341769e-38
0.035000004 0.052142862 0.75000006 2.341769e-38
0.036525741 0.052281909 0.75200009 2.341769e-38
0.038008567 0.052351423 0.75300008 2.341769e-38
0.039442852 0.052351441 0.75300008 2.3414084e-38
0.040985722 0.052490477 0.75500005 1.9729167e-38
0.042423815 0.05249048 0.75500005 1.5955303e-38
0.044152349 0.052838109 0.76000005 1.6229019e-38
0.045899983 0.053185724 0.76500005 1.6508469e-38
0.047357135 0.05318572 0.7650001 1.6877602e-38
0.049005706 0.053394295 0.76800001 1.7245304e-38
0.050468586 0.053394295 0.76800007 1.770484e-38
0.051931433 0.053394299 0.76800007 1.807326e-38
-0.03300003 0.055000011 0.77000004 1.4847472e-38
-0.03153336 0.055000018 0.77000004 1.6045672e-38
-0.029949531 0.054785714 0.76700008 1.7153809e-38
-0.028488576 0.054785717 0.76700008 1.807397e-38
-0.026957177 0.054642878 0.76500005 1.8993048e-38
-0.025333356 0.054285731 0.76000011 1.9547653e-38
-0.023822859 0.054142863 0.75800008 2.0101528e-38
-0.022379052 0.054142859 0.75800008 2.0099368e-38
-0.020879989 0.054000013 0.7560001 2.0187274e-38
-0.019414302 0.053928576 0.75500005 2.1758178e-38
-0.017928598 0.053785719 0.75300002 2.3324044e-38
-0.016472366 0.053714294 0.75200009 2.2678682e-38
-0.015000024 0.053571444 0.75000006 2.2120846e-38
-0.013571433 0.053571433 0.75000006 2.1846407e-38
-0.012110497 0.053428575 0.74800009 2.1565175e-38
-0.010685736 0.053428579 0.74800003 2.2495382e-38
-0.0092485566 0.053357154 0.7470001 2.3417687e-38
-0.0078257285 0.053357158 0.74700004 2.341769e-38
-0.0063857217 0.053214293 0.74500006 2.341769e-38
-0.0049666823 0.053214289 0.74500006 2.341769e-38
-0.0035476286 0.0532143 0.74500012 2.341769e-38
-0.0021228588 0.053071443 0.74300009 2.341769e-38
-0.00070667209 0.053000018 0.7420001 2.341769e-38
0.00070665556 0.053000003 0.7420001 2.341769e-38
0.0021199936 0.053000014 0.7420001 2.341769e-38
0.0035333203 0.053000011 0.7420001 2.341769e-38
0.0049466607 0.053000014 0.7420001 2.341769e-38
0.0063599856 0.053000014 0.7420001 2.341769e-38
0.0077733253 0.053000014 0.7420001 2.341769e-38
0.0091866506 0.053000007 0.7420001 2.341769e-38
0.010599991 0.053000011 0.7420001 2.341769e-38
0.012013318 0.053000011 0.7420001 2.341769e-38
0.013426658 0.053000007 0.7420001 2.341769e-38
0.014839997 0.053000011 0.7420001 2.341769e-38
0.016253322 0.053000011 0.7420001 2.341769e-38
0.017666664 0.053000003 0.7420001 2.2957435e-38
0.019079991 0.053000003 0.7420001 2.2590447e-38
0.020520963 0.053071443 0.74300009 2.2496813e-38
0.021936191 0.053071424 0.74300009 2.2403897e-38
0.023351438 0.053071436 0.74300009 2.1666339e-38
0.024766659 0.05307145 0.74300003 2.1023136e-38
0.026252363 0.0532143 0.74500006 2.2128395e-38
0.027745727 0.053357147 0.7470001 2.3325842e-38
0.029207595 0.053428583 0.74800003 2.2954551e-38
0.030632364 0.053428575 0.74800009 2.2590087e-38
0.032057147 0.053428572 0.74800009 2.3049989e-38
0.03357143 0.053571437 0.75000006 2.341769e-38
0.035000008 0.053571429 0.75000012 2.341769e-38
0.036574289 0.053785719 0.75300008 2.341769e-38
0.038008567 0.053785723 0.75300008 2.341769e-38
0.039442852 0.053785723 0.75300008 2.3417661e-38
0.04104 0.054000005 0.7560001 1.9820621e-38
0.042592365 0.054142863 0.75800002 1.6317262e-38
0.044152353 0.054285724 0.76000005 1.6690364e-38
0.04589998 0.054642875 0.76500005 1.7061287e-38
0.04748093 0.054785721 0.76700008 1.7246027e-38
0.04900571 0.054857153 0.76800007 1.7521889e-38
0.050599985 0.055000007 0.77000004 1.7614081e-38
-0.033000018 0.056466669 0.7700001 1.5309877e-38
-0.031410493 0.056246657 0.76700008 1.6415868e-38
-0.029949538 0.056246661 0.76700008 1.7521138e-38
-0.028414309 0.056100003 0.7650001 1.8351979e-38
-0.02688667 0.055953342 0.76300007 1.9086316e-38
-0.025333365 0.055733353 0.76000005 1.9269999e-38
-0.023822874 0.05558667 0.75800008 1.9456174e-38
-0.022379041 0.055586666 0.75800008 2.0283406e-38
-0.020879984 0.055440005 0.7560001 2.1113169e-38
-0.019414287 0.055366669 0.75500005 2.2308841e-38
-0.017904747 0.055146679 0.75200009 2.3415529e-38
-0.016428575 0.055000003 0.75000006 2.3325845e-38
-0.015000004 0.055000011 0.75000006 2.3138582e-38
-0.013571414 0.055000003 0.75000006 2.2954908e-38
-0.012110505 0.05485335 0.74800003 2.2677974e-38
-0.010685724 0.054853346 0.74800009 2.3049986e-38
-0.0092485826 0.05478001 0.7470001 2.3417689e-38
-0.0078257062 0.05478001 0.7470001 2.341769e-38
-0.0063857273 0.054633349 0.74500006 2.341769e-38
-0.0049666879 0.054633345 0.74500006 2.341769e-38
-0.0035476342 0.054633345 0.74500012 2.341769e-38
-0.0021228569 0.054486666 0.74300009 2.341769e-38
-0.00070667302 0.054413345 0.7420001 2.341769e-38
0.00070666673 0.054413345 0.7420001 2.341769e-38
0.0021199917 0.054413345 0.7420001 2.341769e-38
0.0035333314 0.054413345 0.7420001 2.341769e-38
0.0049466589 0.054413337 0.7420001 2.341769e-38
0.0063599986 0.054413341 0.7420001 2.341769e-38
0.0077733235 0.054413341 0.7420001 2.341769e-38
0.0091866646 0.054413341 0.7420001 2.341769e-38
0.010599989 0.054413337 0.7420001 2.341769e-38
0.012013329 0.054413337 0.7420001 2.341769e-38
0.013426669 0.054413337 0.7420001 2.341769e-38
0.014839995 0.054413348 0.7420001 2.341769e-38
0.016253334 0.054413334 0.7420001 2.341733e-38
0.01766666 0.054413348 0.7420001 2.3048552e-38
0.019105719 0.054486673 0.74300009 2.2589371e-38
0.02052094 0.054486677 0.74300003 2.2680847e-38
0.021936188 0.054486681 0.74300003 2.2679766e-38
0.02335142 0.054486677 0.74300003 2.1942924e-38
0.024833305 0.054633345 0.74500006 2.1116768e-38
0.026252359 0.054633342 0.74500006 2.2313505e-38
0.027745731 0.05478001 0.7470001 2.3415525e-38
0.02920761 0.054853346 0.74800009 2.3134991e-38
0.03071429 0.055000007 0.75000006 2.2772322e-38
0.032142848 0.055000015 0.75000006 2.3142183e-38
0.033571422 0.055000003 0.75000006 2.341769e-38
0.035093337 0.055146683 0.75200003 2.341769e-38
0.036574289 0.055220004 0.75300008 2.341769e-38
0.038008571 0.055220008 0.75300008 2.341769e-38
0.039547626 0.055366665 0.75500005 2.3413366e-38
0.040985718 0.055366665 0.75500005 2.0002518e-38
0.042480014 0.055440009 0.7560001 1.6601022e-38
0.04403618 0.055586673 0.75800002 1.7153474e-38
0.04589998 0.056100003 0.76500005 1.7614445e-38
0.047480937 0.056246672 0.76700008 1.7706641e-38
0.04900571 0.056320015 0.76800007 1.7706621e-38
-0.036073335 0.05815905 0.77300012 1.3190825e-38
-0.034690484 0.058309536 0.7750001 1.4204978e-38
-0.033085711 0.058083814 0.77200007 1.5219117e-38
-0.031451438 0.05778287 0.76800001 1.6599522e-38
-0.029949544 0.057707626 0.76700008 1.7979586e-38
-0.028488589 0.057707615 0.76700008 1.8534923e-38
-0.026886683 0.057406668 0.76300001 1.8995196e-38
-0.025333375 0.057180982 0.76000005 1.9362558e-38
-0.023822863 0.057030473 0.75800008 1.9638417e-38
-0.022379057 0.057030473 0.75800008 2.074546e-38
-0.020880001 0.056880008 0.7560001 2.1764277e-38
-0.019414293 0.056804769 0.75500005 2.2589377e-38
-0.017904749 0.056579046 0.75200009 2.341769e-38
-0.016472371 0.05657905 0.75200003 2.3325854e-38
-0.015000015 0.056428578 0.75000006 2.3325854e-38
-0.013571423 0.056428574 0.75000012 2.3141466e-38
-0.012110495 0.056278098 0.74800009 2.3050348e-38
-0.010685734 0.056278106 0.74800003 2.3234019e-38
-0.0092485808 0.056202874 0.74700004 2.341769e-38
-0.0078257043 0.05620287 0.74700004 2.341769e-38
-0.0063857329 0.056052394 0.74500006 2.341769e-38
-0.0049666935 0.056052394 0.74500006 2.341769e-38
-0.0035476398 0.056052387 0.74500006 2.341769e-38
-0.0021228616 0.055901922 0.74300003 2.341769e-38
-0.0007066814 0.055826686 0.74200004 2.341769e-38
0.00070664438 0.055826683 0.7420001 2.341769e-38
0.0021199852 0.055826679 0.74200004 2.341769e-38
0.00353331 0.055826679 0.74200004 2.341769e-38
0.0049466495 0.055826683 0.74200004 2.341769e-38
0.0063599893 0.055826679 0.74200004 2.341769e-38
0.0077733151 0.055826675 0.74200004 2.341769e-38
0.0091866553 0.055826694 0.74200004 2.341769e-38
0.010599982 0.055826679 0.74200004 2.341769e-38
0.012013323 0.05582669 0.74200004 2.341769e-38
0.013426648 0.05582669 0.74200004 2.341769e-38
0.014860014 0.055901904 0.74300009 2.341769e-38
0.016253311 0.055826686 0.74200004 2.3417687e-38
0.01769047 0.055901915 0.74300003 2.2956713e-38
0.019105714 0.055901926 0.74300003 2.2496461e-38
0.020520944 0.055901907 0.74300003 2.2588657e-38
0.021936189 0.055901926 0.74300003 2.2773398e-38
0.023351433 0.055901919 0.74300003 2.1944721e-38
0.024833336 0.056052379 0.74500012 2.1116413e-38
0.026322877 0.056202866 0.7470001 2.2129836e-38
0.027745716 0.05620287 0.74700004 2.3234006e-38
0.029207598 0.056278106 0.74800003 2.2953469e-38
0.030714294 0.056428574 0.75000006 2.2589367e-38
0.032142848 0.056428578 0.75000006 2.3049989e-38
0.033571441 0.056428578 0.75000006 2.341769e-38
0.035093356 0.056579053 0.75200009 2.341769e-38
0.036574274 0.056654286 0.75300008 2.341769e-38
0.038109526 0.056804765 0.75500005 2.341769e-38
0.039547622 0.056804769 0.75500005 2.341768e-38
0.040985711 0.056804772 0.75500005 2.0006843e-38
0.042479999 0.056880016 0.7560001 1.6603894e-38
0.044152372 0.05718096 0.76000011 1.6879747e-38
0.045779981 0.057406671 0.76300001 1.7158849e-38
0.047480952 0.057707608 0.76700008 1.6511344e-38
0.049133319 0.057933357 0.77000004 1.5869537e-38
-0.037740011 0.059940018 0.77700007 1.4010127e-38
-0.03616669 0.05978572 0.77500004 1.2912433e-38
-0.034690496 0.059785724 0.7750001 1.4020225e-38
-0.033085741 0.059554294 0.77200007 1.5125483e-38
-0.031533349 0.059400011 0.77000004 1.6783907e-38
-0.029988576 0.059245717 0.76800007 1.8440197e-38
-0.028488595 0.05916857 0.76700008 1.8720388e-38
-0.026957162 0.059014294 0.7650001 1.8903719e-38
-0.025333356 0.058628589 0.76000005 1.9362199e-38
-0.023822851 0.058474284 0.75800008 1.9826039e-38
-0.022379067 0.058474295 0.75800002 2.1111377e-38
-0.020879997 0.058320012 0.7560001 2.2404977e-38
-0.019439999 0.058320016 0.7560001 2.2958513e-38
-0.017904751 0.058011431 0.75200009 2.341769e-38
-0.016428586 0.057857148 0.75000006 2.341769e-38
-0.014999995 0.057857145 0.75000006 2.341769e-38
-0.013571426 0.057857152 0.75000006 2.341769e-38
-0.012110502 0.057702862 0.74800003 2.341769e-38
-0.010685721 0.057702858 0.74800009 2.341769e-38
-0.0092609897 0.057702865 0.74800003 2.341769e-38
-0.0078257099 0.057625722 0.7470001 2.341769e-38
-0.0064028543 0.05762573 0.7470001 2.341769e-38
-0.0049799778 0.057625722 0.7470001 2.341769e-38
-0.0035476314 0.057471432 0.74500006 2.341769e-38
-0.0021228606 0.057317153 0.74300003 2.341769e-38
-0.00070668326 0.057240009 0.7420001 2.341769e-38
0.00070665556 0.057240009 0.7420001 2.341769e-38
0.0021199833 0.057240009 0.7420001 2.341769e-38
0.0035333231 0.05724002 0.7420001 2.341769e-38
0.0049466626 0.057240006 0.7420001 2.341769e-38
0.0063599884 0.05724002 0.7420001 2.341769e-38
0.0077733281 0.057240009 0.7420001 2.341769e-38
0.0091866534 0.05724002 0.7420001 2.341769e-38
0.010599993 0.057240017 0.7420001 2.341769e-38
0.012029528 0.057317149 0.74300009 2.341769e-38
0.013444752 0.057317156 0.74300003 2.341769e-38
0.014859996 0.05731716 0.74300003 2.341769e-38
0.016275225 0.057317156 0.74300003 2.3417328e-38
0.017666651 0.057240009 0.7420001 2.2956355e-38
0.019105714 0.057317156 0.74300003 2.2404983e-38
0.020520944 0.057317153 0.74300003 2.2587576e-38
0.021936188 0.057317149 0.74300003 2.2772321e-38
0.023414277 0.057471439 0.74500006 2.1946158e-38
0.024833329 0.057471436 0.74500012 2.1026371e-38
0.026322864 0.057625726 0.7470001 2.2038358e-38
0.027782846 0.057702865 0.74800003 2.3047107e-38
0.029207613 0.057702865 0.74800009 2.2764061e-38
0.030714301 0.057857141 0.75000006 2.2403902e-38
0.032142859 0.057857145 0.75000006 2.2958513e-38
0.033571415 0.057857152 0.75000006 2.341769e-38
0.035139993 0.058088582 0.75300008 2.341769e-38
0.036574274 0.058088575 0.75300002 2.341769e-38
0.038109526 0.058242854 0.75500005 2.341769e-38
0.039547622 0.058242857 0.75500005 2.3412289e-38
0.041040007 0.058320001 0.7560001 2.0003594e-38
0.042480003 0.058320004 0.7560001 1.6601009e-38
0.043920014 0.058320008 0.7560001 1.6603153e-38
0.045779992 0.058860004 0.76300007 1.6598121e-38
0.047357127 0.059014294 0.76500005 1.5309905e-38
0.049133316 0.059400007 0.77000004 1.4021683e-38
-0.037740022 0.061420012 0.77700007 1.4287401e-38
-0.036260016 0.061420009 0.77700007 1.3459483e-38
-0.03469051 0.061261911 0.77500004 1.4199943e-38
-0.033085722 0.061024781 0.77200007 1.5029338e-38
-0.031533357 0.06086668 0.77000004 1.613926e-38
-0.029988592 0.060708582 0.76800007 1.7245974e-38
-0.028414313 0.060471442 0.76500005 1.789064e-38
-0.026816186 0.060155243 0.7610001 1.8537095e-38
-0.025333345 0.060076203 0.76000011 1.9459057e-38
-0.023885749 0.060076214 0.76000005 2.0386026e-38
-0.022379054 0.059918106 0.75800002 2.1026007e-38
-0.020935249 0.059918106 0.75800002 2.1764644e-38
-0.019439995 0.059760004 0.7560001 2.2129482e-38
-0.017904755 0.059443813 0.75200009 2.2591171e-38
-0.016472375 0.05944382 0.75200003 2.2957795e-38
-0.015000004 0.059285711 0.75000012 2.3234019e-38
-0.013571434 0.059285719 0.75000006 2.3325854e-38
-0.012142844 0.059285711 0.75000012 2.341769e-38
-0.01068573 0.05912764 0.74800003 2.341769e-38
-0.0092609767 0.059127614 0.74800009 2.341769e-38
-0.0078257089 0.059048582 0.7470001 2.341769e-38
-0.0064028329 0.059048582 0.7470001 2.341769e-38
-0.0049666758 0.058890499 0.74500006 2.341769e-38
-0.0035476361 0.058890481 0.74500006 2.341769e-38
-0.0021228578 0.058732394 0.74300003 2.341769e-38
-0.00070667116 0.058653343 0.7420001 2.341769e-38
0.00070666859 0.058653336 0.7420001 2.341769e-38
0.0021199936 0.058653336 0.7420001 2.341769e-38
0.0035333333 0.058653355 0.7420001 2.341769e-38
0.0049466579 0.058653332 0.7420001 2.341769e-38
0.0063685789 0.058732383 0.74300009 2.341769e-38
0.0077733262 0.058653332 0.7420001 2.341769e-38
0.0091990549 0.058732383 0.74300009 2.341769e-38
0.010614279 0.05873239 0.74300003 2.341769e-38
0.012029508 0.05873239 0.74300003 2.341769e-38
0.013444752 0.058732387 0.74300003 2.341769e-38
0.014859997 0.058732387 0.74300003 2.341769e-38
0.016275227 0.058732387 0.74300003 2.3417687e-38
0.017690472 0.058732398 0.74300003 2.2865236e-38
0.019105718 0.058732387 0.74300003 2.2221668e-38
0.020520948 0.058732394 0.74300003 2.2404618e-38
0.021936189 0.058732379 0.74300003 2.2588291e-38
0.023351436 0.058732394 0.74300009 2.1944725e-38
0.024833323 0.058890484 0.74500006 2.120789e-38
0.026322868 0.059048589 0.74700004 2.2221669e-38
0.027745727 0.059048578 0.7470001 2.3142172e-38
0.029207602 0.059127636 0.74800003 2.2769444e-38
0.03071427 0.059285719 0.75000006 2.2406056e-38
0.032142863 0.059285715 0.75000006 2.2866318e-38
0.033660948 0.059443817 0.75200003 2.341769e-38
0.035139993 0.059522867 0.75300002 2.341769e-38
0.036574278 0.059522875 0.75300002 2.341769e-38
0.038109522 0.059680954 0.75500005 2.3232584e-38
0.039547615 0.059680961 0.75500005 2.2953102e-38
0.041040011 0.059759993 0.7560001 1.9355344e-38
0.042480022 0.059760012 0.7560001 1.5764787e-38
0.044036187 0.059918091 0.75800008 1.613069e-38
0.045779996 0.060313333 0.76300007 1.6585537e-38
0.047357116 0.060471438 0.7650001 1.6958953e-38
-0.037740029 0.062900022 0.77700007 1.4562196e-38
-0.036353335 0.063061915 0.77900004 1.3920461e-38
-0.034780022 0.062900014 0.77700007 1.4473666e-38
-0.033085734 0.062495254 0.77200007 1.49393e-38
-0.031533346 0.062333349 0.77000004 1.5498205e-38
-0.029949535 0.062090475 0.76700002 1.6049963e-38
-0.028414298 0.061928581 0.76500005 1.7058745e-38
-0.026816186 0.061604757 0.7610001 1.807505e-38
-0.025333356 0.061523825 0.76000011 1.94587e-38
-0.02388576 0.061523821 0.76000005 2.083802e-38
-0.022379071 0.061361909 0.75800002 2.0934156e-38
-0.020880008 0.061200008 0.7560001 2.1022411e-38
-0.019440012 0.061200008 0.7560001 2.1387249e-38
-0.017904757 0.060876202 0.75200009 2.1761055e-38
-0.016472379 0.060876206 0.75200003 2.2404986e-38
-0.015000006 0.060714293 0.75000006 2.3049629e-38
-0.013571416 0.060714301 0.75000006 2.3234019e-38
-0.012142874 0.060714293 0.75000006 2.341769e-38
-0.010685718 0.060552388 0.74800009 2.341769e-38
-0.0092609851 0.060552396 0.74800003 2.341769e-38
-0.007836204 0.060552392 0.74800003 2.341769e-38
-0.006402859 0.060471442 0.7470001 2.341769e-38
-0.0049666814 0.06030954 0.74500006 2.341769e-38
-0.0035381003 0.060147621 0.74300003 2.341769e-38
-0.0021228569 0.060147624 0.74300009 2.341769e-38
-0.00070761365 0.060147639 0.74300009 2.341769e-38
0.00070761761 0.060147617 0.74300009 2.341769e-38
0.0021199861 0.060066674 0.74200004 2.341769e-38
0.0035381063 0.060147632 0.74300009 2.341769e-38
0.0049533374 0.060147628 0.74300009 2.341769e-38
0.0063685612 0.060147639 0.74300003 2.341769e-38
0.0077838055 0.060147639 0.74300003 2.341769e-38
0.0091990354 0.060147636 0.74300003 2.341769e-38
0.01061428 0.060147636 0.74300003 2.341769e-38
0.012029524 0.060147636 0.74300003 2.341769e-38
0.013444755 0.060147632 0.74300003 2.341769e-38
0.01486 0.060147628 0.74300003 2.341769e-38
0.016275244 0.060147632 0.74300003 2.3417328e-38
0.017690472 0.060147628 0.74300003 2.2773401e-38
0.019105719 0.060147624 0.74300009 2.2037638e-38
0.020520963 0.060147624 0.74300009 2.2221308e-38
0.021936193 0.060147624 0.74300009 2.2404618e-38
0.023351435 0.060147632 0.74300009 2.1945082e-38
0.02483332 0.060309529 0.74500006 2.1392636e-38
0.026322873 0.060471438 0.7470001 2.2313863e-38
0.027782848 0.060552392 0.74800003 2.3231495e-38
0.029285721 0.060714297 0.75000006 2.2765855e-38
0.030714288 0.060714304 0.75000006 2.2312427e-38
0.032142863 0.060714282 0.75000006 2.2866677e-38
0.033660948 0.060876202 0.75200003 2.341769e-38
0.035093345 0.060876194 0.75200009 2.341769e-38
0.036574282 0.060957145 0.75300008 2.341769e-38
0.038008567 0.060957152 0.75300008 2.2958513e-38
0.03954763 0.06111905 0.75500005 2.2488168e-38
0.041039996 0.061200012 0.7560001 1.8700266e-38
0.042480007 0.061200012 0.7560001 1.4845305e-38
0.044152357 0.061523817 0.76000005 1.5753235e-38
0.045779984 0.061766677 0.76300001 1.6594464e-38
0.048100002 0.062900007 0.77700007 1.8616281e-38
0.049452368 0.062738098 0.77500004 2.0552388e-38
-0.036353342 0.064545721 0.7790001 1.4288529e-38
-0.034600969 0.064048573 0.77300012 1.4660574e-38
-0.033085715 0.063965723 0.77200007 1.5031858e-38
-0.031533338 0.063800007 0.7700001 1.5679364e-38
-0.029988576 0.063634284 0.76800007 1.6416588e-38
-0.028414311 0.063385725 0.76500005 1.7244214e-38
-0.026886672 0.063219994 0.76300007 1.816402e-38
-0.025366656 0.063054286 0.7610001 1.8993784e-38
-0.023885721 0.06297145 0.76000011 1.972666e-38
-0.022379059 0.06280572 0.75800002 2.0098293e-38
-0.020935254 0.062805727 0.75800008 2.0462415e-38
-0.019440006 0.062640011 0.7560001 2.1482298e-38
-0.017904758 0.062308583 0.75200009 2.2589717e-38
-0.016472381 0.062308583 0.75200003 2.2957431e-38
-0.015000015 0.062142871 0.75000006 2.3234016e-38
-0.013571425 0.062142853 0.75000006 2.3325854e-38
-0.012142856 0.062142875 0.75000006 2.341769e-38
-0.010714266 0.062142853 0.75000012 2.341769e-38
-0.0092609748 0.061977159 0.74800009 2.341769e-38
-0.0078361928 0.061977141 0.74800009 2.341769e-38
-0.0064028571 0.061894301 0.74700004 2.341769e-38
-0.0049666869 0.061728586 0.74500006 2.341769e-38
-0.0035380854 0.061562866 0.74300009 2.341769e-38
-0.0021228541 0.061562866 0.74300009 2.341769e-38
-0.00070761179 0.061562862 0.74300009 2.341769e-38
0.00070763158 0.061562862 0.74300009 2.341769e-38
0.0021199842 0.061480004 0.7420001 2.341769e-38
0.0035380877 0.06156287 0.74300003 2.341769e-38
0.0049533318 0.061562881 0.74300003 2.341769e-38
0.006368563 0.06156287 0.74300003 2.341769e-38
0.0077838073 0.061562877 0.74300003 2.341769e-38
0.0091990521 0.061562866 0.74300003 2.341769e-38
0.010614282 0.061562881 0.74300003 2.341769e-38
0.012029526 0.061562873 0.74300003 2.341769e-38
0.01344477 0.061562877 0.74300003 2.341769e-38
0.014860001 0.061562873 0.74300009 2.341769e-38
0.016275246 0.06156287 0.74300009 2.3417687e-38
0.01773808 0.061728574 0.74500006 2.2680847e-38
0.019105721 0.06156287 0.74300009 2.1852173e-38
0.020576186 0.061728567 0.74500012 2.203656e-38
0.021995205 0.061728593 0.74500006 2.2220947e-38
0.023414275 0.061728578 0.74500006 2.1575944e-38
0.024899999 0.061894298 0.74700004 2.092987e-38
0.026358075 0.061977152 0.74800003 2.1852173e-38
0.027782857 0.061977159 0.74800009 2.2866663e-38
0.029285725 0.062142864 0.75000012 2.2493934e-38
0.030714281 0.062142856 0.75000006 2.2128755e-38
0.032142852 0.062142871 0.75000006 2.2774124e-38
0.033660967 0.062308576 0.75200009 2.341769e-38
0.035140004 0.062391426 0.75300008 2.341769e-38
0.036574285 0.06239143 0.75300008 2.341769e-38
0.038109519 0.062557146 0.75500005 2.3049272e-38
0.039600015 0.062640004 0.7560001 2.2677922e-38
0.041040014 0.062640011 0.7560001 2.0921864e-38
0.042704754 0.062971428 0.76000011 1.9172285e-38
0.044210494 0.063054293 0.7610001 1.9542096e-38
0.04589998 0.063385725 0.76500005 2.0014216e-38
0.047852375 0.064048588 0.77300012 2.1020489e-38
0.049452353 0.064214289 0.77500004 2.2036827e-38
-0.038080003 0.066453338 0.7840001 1.5581368e-38
-0.036400035 0.066114299 0.78000003 1.4661616e-38
-0.034779992 0.065860003 0.77700007 1.4847477e-38
-0.033000015 0.065266684 0.77000004 1.5033999e-38
-0.031533346 0.065266669 0.77000004 1.5861935e-38
-0.029949527 0.065012388 0.76700008 1.6692794e-38
-0.028414298 0.064842872 0.76500005 1.7520425e-38
-0.026886687 0.064673334 0.76300001 1.8256922e-38
-0.025366679 0.064503804 0.7610001 1.8441332e-38
-0.023885731 0.064419061 0.76000011 1.8627141e-38
-0.022379048 0.06424953 0.75800008 1.9269618e-38
-0.020935241 0.06424953 0.75800008 1.9825311e-38
-0.019439993 0.064080015 0.75600004 2.16728e-38
-0.017928591 0.063825727 0.75300008 2.3417323e-38
-0.016472362 0.063740946 0.75200009 2.3417687e-38
-0.015039983 0.063740969 0.75200009 2.3417689e-38
-0.013607604 0.063740954 0.75200003 2.341769e-38
-0.012142864 0.063571423 0.75000006 2.341769e-38
-0.010714294 0.063571453 0.75000006 2.341769e-38
-0.0092857052 0.063571423 0.75000006 2.341769e-38
-0.0078362022 0.063401908 0.74800003 2.341769e-38
-0.0064028348 0.06331715 0.7470001 2.341769e-38
-0.0049800067 0.063317157 0.7470001 2.341769e-38
-0.0035380844 0.062978096 0.74300009 2.341769e-38
-0.002122855 0.062978104 0.74300009 2.341769e-38
-0.00070763042 0.062978104 0.74300003 2.341769e-38
0.00070761389 0.062978119 0.74300003 2.341769e-38
0.0021228453 0.062978104 0.74300003 2.341769e-38
0.0035380896 0.062978119 0.74300003 2.341769e-38
0.0049533336 0.062978111 0.74300003 2.341769e-38
0.006368564 0.062978104 0.74300003 2.341769e-38
0.0077838083 0.062978104 0.74300003 2.341769e-38
0.009199053 0.062978104 0.74300003 2.341769e-38
0.010614284 0.062978104 0.74300003 2.341769e-38
0.012029529 0.062978104 0.74300009 2.341769e-38
0.013444773 0.062978104 0.74300009 2.341769e-38
0.014860002 0.062978104 0.74300009 2.341769e-38
0.016275246 0.062978104 0.74300009 2.3416968e-38
0.017690491 0.062978104 0.74300009 2.2587573e-38
0.019105699 0.062978111 0.74300003 2.1668501e-38
0.020576183 0.063147634 0.74500012 2.1852172e-38
0.021995217 0.063147634 0.74500006 2.2036199e-38
0.023414267 0.063147634 0.74500006 2.1208243e-38
0.024933321 0.063401923 0.74800003 2.0379573e-38
0.026322862 0.063317157 0.74700004 2.1481241e-38
0.027782837 0.063401923 0.74800003 2.2495019e-38
0.029285707 0.063571446 0.75000006 2.2213773e-38
0.0307143 0.063571438 0.75000006 2.1852894e-38
0.032228578 0.063740969 0.75200003 2.2683006e-38
0.033660963 0.063740961 0.75200009 2.341769e-38
0.035140008 0.063825712 0.75300008 2.341769e-38
0.036671441 0.063995242 0.75500005 2.341769e-38
0.038109533 0.063995242 0.75500005 2.3142183e-38
0.039600022 0.064080007 0.7560001 2.2864125e-38
0.041040018 0.06408 0.75600016 2.3136721e-38
0.042704754 0.064419061 0.76000011 2.3409691e-38
0.044326674 0.064673319 0.76300007 2.341182e-38
0.04589998 0.064842872 0.76500005 2.3414342e-38
0.047852382 0.065520957 0.77300012 2.3415071e-38
0.049452376 0.065690488 0.7750001 2.3415451e-38
-0.038080007 0.067946672 0.78400004 1.5946924e-38
-0.036493346 0.067773342 0.78200006 1.3745061e-38
-0.034556184 0.066906676 0.77200007 1.5033305e-38
-0.033000004 0.06673333 0.7700001 1.6322914e-38
-0.031533338 0.066733338 0.7700001 1.7245182e-38
-0.029949533 0.066473335 0.76700008 1.8073894e-38
-0.028414309 0.06630002 0.7650001 1.8900813e-38
-0.026886677 0.066126674 0.76300007 1.9728075e-38
-0.02536667 0.065953344 0.7610001 2.0007193e-38
-0.02388574 0.065866679 0.76000005 2.0284482e-38
-0.022379065 0.065693334 0.75800008 2.0559976e-38
-0.02093523 0.065693334 0.75800008 2.0834433e-38
-0.01943999 0.065520003 0.7560001 2.1944735e-38
-0.017928574 0.065260023 0.75300008 2.3050348e-38
-0.016472364 0.065173328 0.75200009 2.3234019e-38
-0.015039985 0.065173335 0.75200009 2.341769e-38
-0.013607606 0.065173343 0.75200003 2.341769e-38
-0.012175206 0.065173328 0.75200009 2.341769e-38
-0.010714276 0.064999998 0.75000006 2.341769e-38
-0.0092857135 0.065000013 0.75000012 2.341769e-38
-0.0078361901 0.064826667 0.74800009 2.341769e-38
-0.0064114579 0.064826675 0.74800003 2.341769e-38
-0.0049799853 0.064740017 0.7470001 2.341769e-38
-0.0035476435 0.064566687 0.74500006 2.341769e-38
-0.0021285901 0.064566672 0.74500006 2.341769e-38
-0.00070762949 0.064393349 0.74300003 2.341769e-38
0.00070761668 0.064393342 0.74300003 2.341769e-38
0.0021228602 0.064393342 0.74300003 2.341769e-38
0.0035380896 0.064393342 0.74300003 2.341769e-38
0.0049533336 0.064393342 0.74300003 2.341769e-38
0.0063685649 0.064393342 0.74300003 2.341769e-38
0.0077838092 0.064393342 0.74300009 2.341769e-38
0.009199054 0.064393349 0.74300009 2.341769e-38
0.010614284 0.064393327 0.74300009 2.341769e-38
0.012029529 0.064393349 0.74300009 2.341769e-38
0.013444773 0.064393334 0.74300009 2.341769e-38
0.014860005 0.064393342 0.74300009 2.341769e-38
0.016275229 0.064393342 0.74300003 2.3417684e-38
0.017690472 0.064393356 0.74300003 2.2956347e-38
0.019157123 0.064566672 0.74500006 2.258542e-38
0.020576177 0.064566672 0.74500012 2.2679766e-38
0.021995228 0.064566672 0.74500012 2.2771959e-38
0.02347715 0.064740002 0.7470001 2.2311344e-38
0.024900008 0.064739995 0.74700004 2.1938981e-38
0.026358079 0.064826682 0.74800003 2.2403181e-38
0.027782846 0.064826675 0.74800009 2.2958504e-38
0.029285714 0.065000013 0.75000006 2.2772326e-38
0.030714292 0.065000013 0.75000012 2.2682287e-38
0.032228574 0.065173343 0.75200003 2.3050348e-38
0.033705708 0.065260008 0.75300008 2.341769e-38
0.035139993 0.065260015 0.75300008 2.341769e-38
0.036671434 0.065433338 0.75500005 2.341769e-38
0.038109526 0.065433338 0.75500005 2.3325853e-38
0.039600004 0.065520003 0.7560001 2.3142164e-38
0.041148566 0.065693341 0.75800008 2.332438e-38
0.042760968 0.065953322 0.7610001 2.3417644e-38
0.044326659 0.066126689 0.76300001 2.34162e-38
0.04589998 0.06630002 0.76500005 2.3417631e-38
-0.038079992 0.069439992 0.7840001 1.6395262e-38
-0.036493335 0.069262877 0.78200012 1.2823794e-38
-0.034556195 0.068377137 0.77200007 1.5217329e-38
-0.033000041 0.068200022 0.77000004 1.7611498e-38
-0.031533375 0.068200022 0.77000004 1.8537733e-38
-0.02994954 0.06793429 0.76700008 1.9455049e-38
-0.028414296 0.067757137 0.7650001 2.0372007e-38
-0.02688669 0.06758 0.76300001 2.1204282e-38
-0.025433332 0.067580014 0.76300007 2.1574509e-38
-0.023917142 0.067402862 0.7610001 2.1851086e-38
-0.022438105 0.06731429 0.76000005 2.1851439e-38
-0.020935247 0.067137137 0.75800008 2.1759616e-38
-0.019439986 0.066960014 0.7560001 2.22206e-38
-0.017976187 0.066871427 0.75500005 2.2682289e-38
-0.016494304 0.066694297 0.75300002 2.3049989e-38
-0.01506 0.066694289 0.75300008 2.341769e-38
-0.013607608 0.066605724 0.75200003 2.341769e-38
-0.012175208 0.066605717 0.75200009 2.341769e-38
-0.010714285 0.066428579 0.75000006 2.341769e-38
-0.0092857154 0.066428587 0.75000006 2.341769e-38
-0.0078571532 0.066428579 0.75000006 2.341769e-38
-0.0064114467 0.066251427 0.74800009 2.341769e-38
-0.0049866862 0.066251449 0.74800003 2.341769e-38
-0.0035571337 0.066162869 0.7470001 2.341769e-38
-0.0021285957 0.065985717 0.74500006 2.341769e-38
-0.00070954242 0.065985724 0.74500006 2.341769e-38
0.00070951099 0.065985709 0.74500006 2.341769e-38
0.0021228611 0.065808594 0.74300003 2.341769e-38
0.0035380924 0.065808579 0.74300009 2.341769e-38
0.0049533364 0.065808587 0.74300009 2.341769e-38
0.0063685807 0.065808579 0.74300009 2.341769e-38
0.0077838101 0.065808579 0.74300009 2.341769e-38
0.0091990549 0.065808594 0.74300009 2.341769e-38
0.010614299 0.065808579 0.74300009 2.341769e-38
0.012029511 0.065808594 0.74300003 2.341769e-38
0.013480938 0.065985724 0.74500006 2.341769e-38
0.014899991 0.065985724 0.74500006 2.341769e-38
0.016319023 0.065985724 0.74500006 2.3417687e-38
0.017738078 0.065985724 0.74500006 2.3417684e-38
0.01915713 0.065985724 0.74500006 2.3416249e-38
0.020631447 0.066162869 0.7470001 2.3417684e-38
0.022054292 0.066162869 0.74700004 2.3416966e-38
0.023477156 0.066162869 0.7470001 2.3417683e-38
0.024900019 0.066162862 0.7470001 2.3415531e-38
0.026358094 0.066251442 0.74800009 2.3417683e-38
0.027782841 0.066251442 0.74800003 2.3417686e-38
0.029285718 0.066428587 0.75000006 2.3417689e-38
0.030714288 0.066428587 0.75000006 2.3417689e-38
0.032228578 0.066605724 0.75200003 2.341769e-38
0.033660974 0.066605709 0.75200009 2.341769e-38
0.035139993 0.066694282 0.75300002 2.341769e-38
0.036574278 0.066694304 0.75300002 2.3417686e-38
0.038160011 0.066960014 0.7560001 2.3417682e-38
0.039704774 0.067137137 0.75800008 2.3417675e-38
0.041257124 0.067314312 0.76000005 2.3417669e-38
0.042760961 0.067402847 0.7610001 2.3417658e-38
0.044326667 0.06758 0.76300007 2.3417647e-38
0.046019979 0.06793429 0.76700008 2.341657e-38
0.047480937 0.067934282 0.76700008 2.3230388e-38
-0.03300003 0.069666669 0.7700001 1.3479634e-38
-0.03153336 0.069666669 0.7700001 1.5869877e-38
-0.029949546 0.069395237 0.76700008 1.8265169e-38
-0.028414307 0.069214284 0.7650001 2.0012231e-38
-0.026957164 0.069214307 0.7650001 2.1764287e-38
-0.025433324 0.069033332 0.76300007 2.2130199e-38
-0.023885759 0.068761915 0.76000005 2.2591171e-38
-0.022438116 0.068761915 0.76000005 2.2590094e-38
-0.020935236 0.068580955 0.75800008 2.2591171e-38
-0.019440003 0.068399996 0.7560001 2.286596e-38
-0.017976191 0.068309531 0.75500005 2.3050348e-38
-0.016494296 0.068128571 0.75300008 2.3234019e-38
-0.015060014 0.068128571 0.75300008 2.341769e-38
-0.01360761 0.068038106 0.75200003 2.341769e-38
-0.012175212 0.068038099 0.75200009 2.341769e-38
-0.01074286 0.068038106 0.75200009 2.341769e-38
-0.0092857238 0.067857154 0.75000006 2.341769e-38
-0.0078571346 0.067857131 0.75000012 2.341769e-38
-0.0064285644 0.067857154 0.75000006 2.341769e-38
-0.0049866741 0.067676201 0.74800009 2.341769e-38
-0.0035571319 0.067585729 0.7470001 2.341769e-38
-0.0021286013 0.067404777 0.74500006 2.341769e-38
-0.00070954801 0.067404769 0.74500006 2.341769e-38
0.00070950633 0.067404769 0.74500006 2.341769e-38
0.0021228639 0.067223832 0.74300009 2.341769e-38
0.0035381082 0.067223817 0.74300009 2.341769e-38
0.0049533374 0.067223832 0.74300009 2.341769e-38
0.0063685817 0.06722381 0.74300009 2.341769e-38
0.0077838055 0.067223832 0.74300003 2.341769e-38
0.0091990372 0.067223832 0.74300003 2.341769e-38
0.010614282 0.067223832 0.74300003 2.341769e-38
0.012029526 0.067223832 0.74300003 2.341769e-38
0.013480932 0.067404762 0.74500006 2.341769e-38
0.014899987 0.067404777 0.74500006 2.341769e-38
0.01631904 0.067404762 0.74500012 2.341769e-38
0.017738072 0.067404784 0.74500006 2.341769e-38
0.019157125 0.067404762 0.74500006 2.341769e-38
0.020631436 0.067585722 0.7470001 2.341769e-38
0.0220543 0.067585722 0.7470001 2.341769e-38
0.023508556 0.067676201 0.74800003 2.341769e-38
0.024933323 0.067676187 0.74800009 2.341769e-38
0.026358083 0.067676201 0.74800003 2.341769e-38
0.027857134 0.067857154 0.75000006 2.341769e-38
0.029285721 0.067857146 0.75000006 2.341769e-38
0.030714277 0.067857146 0.75000006 2.341769e-38
0.032228574 0.068038106 0.75200003 2.2958513e-38
0.033705711 0.068128578 0.75300002 2.2499335e-38
0.035233337 0.068309531 0.75500005 1.9917538e-38
0.03672 0.068400018 0.7560001 1.7356539e-38
0.038159996 0.068400003 0.7560001 1.8633977e-38
0.03970477 0.06858094 0.75800008 2.0019408e-38
0.041257132 0.068761908 0.76000011 2.1672454e-38
0.04287333 0.06903334 0.76300001 2.3417673e-38
0.044442829 0.069214299 0.76500005 2.3417299e-38
0.046019986 0.069395244 0.76700008 2.3416587e-38
-0.033000041 0.071133353 0.77000004 9.3229186e-39
-0.031533372 0.071133345 0.77000004 1.3196913e-38
-0.029949551 0.070856199 0.76700008 1.6967948e-38
-0.028414315 0.070671439 0.76500005 1.9646999e-38
-0.026886676 0.070486665 0.76300007 2.2309884e-38
-0.025366681 0.070301913 0.7610001 2.2774813e-38
-0.023885719 0.070209533 0.76000011 2.3231853e-38
-0.022379059 0.070024759 0.75800008 2.3325854e-38
-0.020935245 0.070024773 0.75800002 2.341769e-38
-0.019439999 0.069840014 0.7560001 2.341769e-38
-0.017976176 0.069747619 0.75500005 2.341769e-38
-0.016494282 0.069562867 0.75300008 2.341769e-38
-0.015060026 0.069562852 0.75300008 2.341769e-38
-0.013625743 0.069562867 0.75300002 2.341769e-38
-0.012175214 0.069470488 0.75200009 2.341769e-38
-0.010742863 0.069470488 0.75200009 2.341769e-38
-0.0092857052 0.069285721 0.75000006 2.341769e-38
-0.0078571644 0.069285728 0.75000006 2.341769e-38
-0.0064285747 0.069285721 0.75000006 2.341769e-38
-0.0050000041 0.069285728 0.75000006 2.341769e-38
-0.0035571449 0.069008589 0.74700004 2.341769e-38
-0.0021342824 0.069008574 0.7470001 2.341769e-38
-0.0007095536 0.068823814 0.74500006 2.341769e-38
0.00070949981 0.068823829 0.74500006 2.341769e-38
0.0021228639 0.068639055 0.74300009 2.341769e-38
0.0035381082 0.068639055 0.74300009 2.341769e-38
