# .PCD v0.7 - Point Cloud Data file format
VERSION 0.7
FIELDS x y z rgb
SIZE 4 4 4 4
TYPE F F F F
COUNT 1 1 1 1
WIDTH 977
HEIGHT 1
VIEWPOINT 0 0 0 1 0 0 0
POINTS 977
DATA ascii
0.013245726 0.020217121 0.73200005 9.9914038e-39
0.014640004 0.020217121 0.73200005 9.71231e-39
0.016078105 0.020272374 0.73400003 9.4378797e-39
0.01747619 0.020272382 0.73400003 9.7105163e-39
0.018874293 0.020272389 0.73400003 9.8977746e-39
0.020327624 0.020327613 0.73600006 1.0170411e-38
0.021729531 0.020327613 0.73600006 1.0449865e-38
0.023131443 0.020327605 0.73600006 1.0444844e-38
0.024566682 0.020355232 0.73700005 1.0449868e-38
0.025970487 0.020355232 0.73700005 1.0811112e-38
0.027374305 0.020355232 0.73700011 1.1093434e-38
0.028856207 0.020410456 0.73900002 1.2006048e-38
0.030386681 0.020493314 0.7420001 1.2839023e-38
0.031800006 0.020493329 0.74200004 1.3387166e-38
0.033258121 0.020520926 0.74300009 1.3850648e-38
0.034673356 0.020520933 0.74300003 1.4494216e-38
0.036088593 0.020520933 0.74300009 1.5132041e-38
0.037604786 0.020576172 0.74500006 1.4849718e-38
0.039128583 0.020631418 0.74700004 1.4485927e-38
0.040605716 0.020659044 0.74800003 1.7058002e-38
0.042030491 0.020659037 0.74800003 1.9533172e-38
0.04368763 0.020769514 0.75200009 1.897777e-38
0.045300025 0.020852357 0.75500011 1.8426046e-38
0.04680001 0.020879984 0.7560001 1.7507341e-38
0.048367646 0.020935237 0.75800002 1.6582492e-38
0.049942873 0.020990454 0.76000005 1.4451227e-38
0.051458117 0.021018103 0.76100004 1.2340807e-38
0.052907631 0.021018088 0.76100004 8.5421935e-39
-0.03424285 0.022585697 0.76500005 8.6819436e-39
-0.032614283 0.022467606 0.76100004 9.3258711e-39
-0.03104189 0.022379041 0.75800002 9.6020978e-39
-0.029598081 0.022379048 0.75800002 9.8797483e-39
-0.028079981 0.022319973 0.7560001 9.7868268e-39
-0.02664 0.022319987 0.7560001 9.7832591e-39
-0.025166651 0.022290461 0.75500011 9.968742e-39
-0.023665708 0.022231407 0.75300002 1.01456e-38
-0.022201909 0.022201903 0.75200003 1.0337166e-38
-0.020714277 0.022142842 0.75000012 1.0520842e-38
-0.019208558 0.022054277 0.74700004 1.0524077e-38
-0.017738087 0.021995232 0.74500006 1.0607674e-38
-0.016275218 0.021936178 0.74300003 1.098579e-38
-0.014859979 0.021936171 0.74300009 1.1356009e-38
-0.013444751 0.021936186 0.74300003 1.117378e-38
-0.01201333 0.021906659 0.7420001 1.0893249e-38
-0.010599988 0.021906652 0.7420001 1.1265969e-38
-0.009161883 0.021847613 0.74000001 1.1720483e-38
-0.0077418978 0.021818079 0.73900008 1.1819134e-38
-0.0063171303 0.021759048 0.73700005 1.1998858e-38
-0.0049266606 0.021818094 0.73900002 1.1913478e-38
-0.0035095064 0.021759033 0.73700005 1.1817699e-38
-0.0021028377 0.021729507 0.73600012 1.2283335e-38
-0.0007009416 0.021729521 0.73600006 1.282753e-38
0.0007009643 0.021729514 0.73600006 1.2832908e-38
0.0021028703 0.021729514 0.73600012 1.2919365e-38
0.0035047659 0.021729514 0.73600006 1.3203841e-38
0.004906679 0.021729514 0.73600006 1.347899e-38
0.0062914356 0.021670476 0.73400003 1.3571902e-38
0.007689537 0.021670483 0.73400003 1.3749116e-38
0.0090876194 0.021670483 0.73400003 1.3572261e-38
0.010485722 0.021670476 0.73400003 1.3385363e-38
0.011883813 0.021670483 0.73400003 1.3759162e-38
0.013281914 0.021670476 0.73400003 1.4122917e-38
0.014680017 0.021670476 0.73400003 1.4033949e-38
0.016121911 0.021729521 0.73600006 1.3937093e-38
0.017523823 0.021729514 0.73600006 1.4310535e-38
0.018925728 0.021729507 0.73600006 1.4768278e-38
0.020327624 0.021729521 0.73600006 1.4955177e-38
0.021729531 0.021729514 0.73600006 1.5137416e-38
0.023162877 0.021759048 0.73700005 1.5231765e-38
0.024566684 0.021759041 0.73700005 1.532468e-38
0.025970493 0.021759048 0.73700005 1.5325399e-38
0.02744858 0.021818087 0.73900002 1.542154e-38
0.028856212 0.021818079 0.73900008 1.5787089e-38
0.030386681 0.021906652 0.7420001 1.6160532e-38
0.031800013 0.021906652 0.7420001 1.6156946e-38
0.033258121 0.021936178 0.74300009 1.6070133e-38
0.034673352 0.021936186 0.74300003 1.5880363e-38
0.036088597 0.021936178 0.74300009 1.5696331e-38
0.037604775 0.021995232 0.745 1.5409701e-38
0.039128583 0.02205427 0.74700004 1.5043415e-38
0.040605724 0.022083797 0.74800003 1.8263378e-38
0.042030487 0.022083804 0.74800003 2.1489051e-38
0.043687638 0.022201896 0.75200009 2.1205603e-38
0.045120008 0.022201888 0.75200003 2.0937996e-38
0.046800017 0.02231998 0.7560001 2.0469139e-38
0.048367642 0.022379041 0.75800002 2.0013799e-38
0.049811449 0.022379041 0.75800002 1.8989148e-38
0.051593356 0.022526644 0.76300001 1.7890707e-38
0.053046681 0.022526659 0.76300001 1.5943504e-38
0.05450001 0.022526667 0.76300001 1.4107871e-38
-0.034153324 0.023979984 0.76300001 9.4234421e-39
-0.032614268 0.023917124 0.76100004 1.0157067e-38
-0.031123806 0.02388569 0.76000005 1.0985755e-38
-0.029676186 0.023885705 0.76000005 1.181443e-38
-0.028154271 0.023822851 0.75800002 1.1812282e-38
-0.026639996 0.023759983 0.75600004 1.172225e-38
-0.025166644 0.023728564 0.75500005 1.2182515e-38
-0.0236657 0.023665696 0.75300008 1.2550934e-38
-0.022201898 0.023634277 0.75200003 1.3105536e-38
-0.020714274 0.023571402 0.75000006 1.3565434e-38
-0.019285699 0.023571409 0.75000006 1.33832e-38
-0.017738095 0.023414284 0.745 1.319846e-38
-0.016275223 0.023351416 0.74300003 1.3569036e-38
-0.014859985 0.023351409 0.74300009 1.3937459e-38
-0.013444742 0.023351416 0.74300003 1.3752714e-38
-0.012029503 0.023351416 0.74300009 1.3479e-38
-0.01059999 0.023319967 0.7420001 1.3754864e-38
-0.0091495076 0.023225695 0.73900002 1.3940329e-38
-0.0077419044 0.023225695 0.73900002 1.4123641e-38
-0.0063342755 0.023225687 0.73900008 1.4309106e-38
-0.0049266568 0.023225695 0.73900002 1.4676087e-38
-0.0035095091 0.023162842 0.73700011 1.5046301e-38
-0.0021028377 0.023131423 0.73600006 1.5324678e-38
-0.0007009416 0.02313143 0.73600006 1.5597672e-38
0.00070096337 0.023131423 0.73600006 1.5780266e-38
0.0021028703 0.023131423 0.73600012 1.5873536e-38
0.003504765 0.02313143 0.73600006 1.6152631e-38
0.004906679 0.02313143 0.73600006 1.6428497e-38
0.006308584 0.023131423 0.73600006 1.6613963e-38
0.0077104806 0.02313143 0.73600006 1.6704005e-38
0.0091123935 0.023131423 0.73600006 1.7167846e-38
0.010485722 0.023068577 0.73400003 1.7624871e-38
0.011883823 0.023068577 0.73400003 1.7906476e-38
0.013281914 0.023068577 0.73400003 1.8177319e-38
0.014680009 0.02306857 0.73400003 1.8363859e-38
0.016121911 0.023131423 0.73600006 1.8452466e-38
0.017523823 0.023131423 0.73600006 1.9009579e-38
0.018925728 0.023131423 0.73600006 1.9556287e-38
0.020327624 0.02313143 0.73600006 1.9652428e-38
0.021729531 0.023131423 0.73600006 1.9740677e-38
0.023162873 0.023162842 0.73700011 1.9927937e-38
0.024633346 0.02322571 0.73900002 2.0108738e-38
0.026040968 0.023225695 0.73900008 1.9927938e-38
0.027448585 0.023225702 0.73900008 1.9742474e-38
0.028895251 0.023257144 0.74000001 1.9652433e-38
0.030386677 0.023319989 0.7420001 1.9468404e-38
0.03184288 0.023351423 0.74300003 1.8917751e-38
0.033347633 0.023414291 0.745 1.8273107e-38
0.034766681 0.023414291 0.74500006 1.7260047e-38
0.036282878 0.023477122 0.74700004 1.6243392e-38
0.037756197 0.023508556 0.74800003 1.5957477e-38
0.039180957 0.023508549 0.74800003 1.5596582e-38
0.040714297 0.023571424 0.75000006 1.9555186e-38
0.042255253 0.023634277 0.75200003 2.3416195e-38
0.043745734 0.023665689 0.75300002 2.34176e-38
0.045360021 0.023759976 0.7560001 2.3417606e-38
0.046800017 0.023759983 0.75600004 2.341761e-38
0.048367631 0.023822859 0.75799996 2.3416121e-38
0.050008595 0.023917139 0.76100004 2.3417502e-38
0.051593352 0.023979984 0.76300001 2.3413556e-38
0.053046677 0.023979977 0.76300001 2.3417502e-38
0.054642875 0.024042845 0.76500005 2.3407439e-38
-0.034242839 0.0255 0.76500005 1.0519368e-38
-0.032699987 0.025433317 0.76300001 1.1260181e-38
-0.031123811 0.02533333 0.76000005 1.1724052e-38
-0.029676182 0.025333323 0.76000005 1.2191856e-38
-0.028154274 0.025266662 0.75800002 1.2188643e-38
-0.026710467 0.02526667 0.75799996 1.2284786e-38
-0.025199989 0.025199972 0.7560001 1.2743607e-38
-0.023728559 0.025166661 0.75500005 1.3301077e-38
-0.022231419 0.025099993 0.75300002 1.3390043e-38
-0.02071427 0.024999976 0.75000006 1.3578736e-38
-0.019234288 0.024933316 0.74800003 1.4127956e-38
-0.017738091 0.024833336 0.74500006 1.4591079e-38
-0.016319042 0.024833329 0.74500006 1.4956269e-38
-0.01485999 0.024766654 0.74300009 1.5326481e-38
-0.013444747 0.024766646 0.74300003 1.5233569e-38
-0.012013334 0.024733312 0.74200004 1.5239309e-38
-0.010571422 0.02466666 0.74000001 1.5605216e-38
-0.0091618923 0.024666652 0.74000001 1.5978656e-38
-0.0077419002 0.024633311 0.73900002 1.6249499e-38
-0.0063342815 0.024633326 0.73900002 1.6621146e-38
-0.0049266531 0.024633318 0.73900008 1.69849e-38
-0.0035190338 0.024633318 0.73900002 1.7356547e-38
-0.0021056917 0.024566658 0.73700005 1.7537348e-38
-0.00070188503 0.024566658 0.73700005 1.7723889e-38
0.00070096337 0.024533324 0.73600006 1.7903973e-38
0.0021028703 0.024533316 0.73600006 1.8091231e-38
0.003504765 0.024533324 0.73600006 1.8272391e-38
0.004906679 0.024533324 0.73600006 1.8458573e-38
0.006308584 0.024533316 0.73600006 1.8548615e-38
0.0077104806 0.024533324 0.73600006 1.8642244e-38
0.0091123935 0.024533324 0.73600006 1.882448e-38
0.010485721 0.024466679 0.73399997 1.9009586e-38
0.011883815 0.024466671 0.73400003 1.9009227e-38
0.013281917 0.024466664 0.73400003 1.9101422e-38
0.014680008 0.024466671 0.73400003 1.9192181e-38
0.016121909 0.024533324 0.73600006 1.9285093e-38
0.017523823 0.024533324 0.73600006 1.9468405e-38
0.018925728 0.024533316 0.73600006 1.9652435e-38
0.020327624 0.024533324 0.73600006 1.9652076e-38
0.021759061 0.024566673 0.73700005 1.974427e-38
0.023162877 0.024566658 0.73700011 1.9743553e-38
0.024633341 0.024633326 0.73900008 1.974427e-38
0.026040962 0.024633333 0.73900002 1.9651717e-38
0.027485734 0.024666652 0.74000001 1.956024e-38
0.028895259 0.024666652 0.74000001 1.9651717e-38
0.030427644 0.024766646 0.74300009 1.974427e-38
0.031842873 0.024766654 0.74300003 1.9742835e-38
0.033347633 0.024833344 0.74500006 1.9742116e-38
0.034766681 0.024833336 0.74500006 1.9003125e-38
0.036282867 0.024899997 0.74700004 1.8354886e-38
0.03775619 0.024933323 0.74800003 1.8075423e-38
0.039285731 0.024999984 0.75000006 1.7891755e-38
0.040714297 0.024999991 0.75000006 2.065579e-38
0.042255249 0.025066659 0.75200009 2.3325826e-38
0.043745734 0.02509997 0.75300008 2.3232906e-38
0.045360021 0.02519998 0.7560001 2.3233985e-38
0.04680001 0.025199987 0.75600004 2.3325106e-38
0.048367634 0.02526667 0.75799996 2.3417661e-38
0.050008591 0.025366656 0.76100004 2.3417662e-38
0.051593345 0.025433317 0.76300001 2.3417666e-38
0.053046674 0.025433324 0.76300001 2.3417669e-38
0.054642878 0.0255 0.76500005 2.3417633e-38
-0.03424285 0.026957132 0.7650001 1.1710719e-38
-0.032699995 0.026886649 0.76300001 1.227001e-38
-0.031164752 0.026816182 0.76100004 1.236618e-38
-0.02967619 0.026780948 0.75999999 1.2463052e-38
-0.028228575 0.026780948 0.76000005 1.2648888e-38
-0.026710471 0.02671048 0.75800002 1.2833999e-38
-0.0252 0.026639968 0.75600004 1.3388963e-38
-0.023728559 0.026604742 0.75500011 1.3941413e-38
-0.022201898 0.02649904 0.75200003 1.3758461e-38
-0.020714281 0.026428558 0.75000006 1.3578016e-38
-0.019234292 0.026358075 0.74800003 1.4774745e-38
-0.017738089 0.026252382 0.74500006 1.5968249e-38
-0.01631904 0.026252374 0.74500006 1.6338462e-38
-0.014899984 0.026252374 0.74500006 1.6705445e-38
-0.013444752 0.026181899 0.74300003 1.6799434e-38
-0.0120295 0.026181892 0.74300009 1.6893422e-38
-0.010599994 0.026146658 0.74200004 1.7448023e-38
-0.0091618774 0.026076168 0.74000007 1.7906841e-38
-0.007741896 0.026040934 0.73900008 1.8457856e-38
-0.0063342773 0.026040934 0.73900002 1.8917391e-38
-0.0049266587 0.026040941 0.73900002 1.928509e-38
-0.0035190296 0.026040934 0.73900008 1.9560238e-38
-0.0021056954 0.025970466 0.73700011 1.9652432e-38
-0.00070188876 0.025970466 0.73700005 1.9743909e-38
0.00070191798 0.025970466 0.73700005 2.0019775e-38
0.0021057248 0.025970474 0.73700005 2.0203086e-38
0.003504765 0.02593524 0.73600006 2.0387114e-38
0.0049066716 0.025935233 0.73600006 2.0478593e-38
0.006308584 0.025935225 0.73600006 2.0478951e-38
0.0077104806 0.025935233 0.73600006 2.0478593e-38
0.0091123935 0.025935225 0.73600006 2.0386757e-38
0.010514299 0.025935225 0.73600006 2.0294563e-38
0.011916196 0.02593524 0.73600006 2.0110892e-38
0.013318102 0.025935233 0.73600006 1.9927221e-38
0.014720014 0.025935225 0.73600006 2.0018698e-38
0.016121909 0.025935233 0.73600006 2.0110533e-38
0.017523823 0.02593524 0.73600006 1.9926503e-38
0.018925728 0.025935233 0.73600006 1.9651356e-38
0.020355249 0.025970474 0.73700005 1.9742474e-38
0.021759063 0.025970474 0.73700005 1.9742831e-38
0.023225725 0.026040934 0.73900002 1.9557366e-38
0.024633335 0.026040949 0.73900002 1.9283295e-38
0.026076207 0.026076168 0.74000007 1.9282577e-38
0.027485726 0.026076183 0.74000001 1.9283296e-38
0.028895259 0.026076175 0.74000001 1.9649922e-38
0.03042764 0.026181892 0.74300009 2.0017623e-38
0.031842865 0.026181892 0.74300003 2.0658319e-38
0.033347636 0.026252382 0.74500006 2.1209681e-38
0.034766685 0.026252374 0.74500006 2.08391e-38
0.036282863 0.026322834 0.74699998 2.0376333e-38
0.037756186 0.026358098 0.74800003 2.0281267e-38
0.039285727 0.02642855 0.75000006 2.0193379e-38
0.040714294 0.02642855 0.75000006 2.1758171e-38
0.042311437 0.026534259 0.75300002 2.3230399e-38
0.043861929 0.026604742 0.75500005 2.3138195e-38
0.045360018 0.026639983 0.7560001 2.2955609e-38
0.046923824 0.026710473 0.75800002 2.3230765e-38
0.048495241 0.026780941 0.76000005 2.3416944e-38
0.05014002 0.026886649 0.76300001 2.3417659e-38
0.051593345 0.026886649 0.76300001 2.3417665e-38
0.053185735 0.026957132 0.7650001 2.341767e-38
0.054642875 0.026957139 0.76500005 2.3417656e-38
-0.034242842 0.028414287 0.7650001 1.2910677e-38
-0.032699995 0.028339989 0.76300001 1.4568766e-38
-0.031164762 0.028265715 0.76100004 1.4756053e-38
-0.029676188 0.028228559 0.76000005 1.4941528e-38
-0.028228572 0.028228559 0.76000005 1.512772e-38
-0.026710477 0.028154276 0.75800002 1.5400723e-38
-0.025166648 0.028042853 0.75500005 1.5772735e-38
-0.0236657 0.027968541 0.75300008 1.6051833e-38
-0.022201903 0.027931422 0.75200003 1.5962154e-38
-0.020714277 0.027857125 0.75000006 1.5873542e-38
-0.019234298 0.02778285 0.74800003 1.6422756e-38
-0.017785706 0.027745694 0.74700004 1.6974848e-38
-0.016319046 0.027671427 0.74500006 1.7344343e-38
-0.014899981 0.027671419 0.74500006 1.7714558e-38
-0.013444743 0.027597144 0.74300003 1.7899307e-38
-0.012029505 0.027597137 0.74300009 1.8087282e-38
-0.010599985 0.027559973 0.7420001 1.8454983e-38
-0.0091866683 0.027559988 0.74200004 1.882412e-38
-0.007752358 0.027485706 0.74000001 1.9283298e-38
-0.0063342736 0.027448557 0.73900008 1.974355e-38
-0.004926655 0.027448565 0.73900002 2.0110172e-38
-0.0035190366 0.027448565 0.73900002 2.0386037e-38
-0.0021056992 0.027374268 0.73700011 2.0569706e-38
-0.00070189248 0.027374275 0.73700005 2.0661545e-38
0.0007019217 0.027374275 0.73700005 2.0753382e-38
0.0021028684 0.027337134 0.73600006 2.0844856e-38
0.003504765 0.027337141 0.73600006 2.0844494e-38
0.0049066707 0.027337141 0.73600006 2.0937048e-38
0.006308584 0.027337141 0.73600006 2.1028885e-38
0.0077104797 0.027337141 0.73600006 2.1212198e-38
0.0091123935 0.027337141 0.73600006 2.1212556e-38
0.010514298 0.027337134 0.73600006 2.1304033e-38
0.011916196 0.027337141 0.73600006 2.1120719e-38
0.013318101 0.027337141 0.73600006 2.1028525e-38
0.014720014 0.027337141 0.73600006 2.1396226e-38
0.016121909 0.027337149 0.73600006 2.1763211e-38
0.017523823 0.027337141 0.73600006 2.1671734e-38
0.018925728 0.027337134 0.73600006 2.1579181e-38
0.020355254 0.027374282 0.73700005 2.1579897e-38
0.021759061 0.027374275 0.73700005 2.1579897e-38
0.023225728 0.02744855 0.73900008 2.1487701e-38
0.024633341 0.027448557 0.73900002 2.1303313e-38
0.026040958 0.027448565 0.73900002 2.1303672e-38
0.027485734 0.027485706 0.74000001 2.1395869e-38
0.029012397 0.027597144 0.74300003 2.1579541e-38
0.03042764 0.027597137 0.74300009 2.1763213e-38
0.031928591 0.027671427 0.74500006 2.1946526e-38
0.033437159 0.027745694 0.74700004 2.212982e-38
0.034860011 0.027745694 0.74700004 2.1941826e-38
0.036331438 0.027782843 0.74800003 2.1845691e-38
0.037756193 0.02778285 0.74800003 2.1849284e-38
0.039285719 0.027857125 0.75000006 2.1852514e-38
0.040714297 0.027857132 0.75000006 2.2587558e-38
0.042311441 0.027968548 0.75300002 2.3321155e-38
0.043745741 0.027968548 0.75300002 2.3230024e-38
0.045360014 0.028079979 0.75600004 2.3230038e-38
0.046800017 0.028079979 0.7560001 2.3323681e-38
0.048240013 0.028079964 0.75600004 2.3417305e-38
0.050140012 0.028339982 0.76300001 2.3325103e-38
0.051728591 0.028414279 0.76500005 2.3233994e-38
0.053185735 0.028414279 0.7650001 2.3325478e-38
0.054785728 0.028488562 0.76700002 2.341768e-38
-0.034242842 0.029871419 0.7650001 1.4203177e-38
-0.032699998 0.029793315 0.76300001 1.6778184e-38
-0.031246664 0.029793315 0.76300001 1.7055509e-38
-0.029715233 0.029715233 0.76100004 1.7333891e-38
-0.028265703 0.029715233 0.76100004 1.7702674e-38
-0.026710467 0.029598087 0.75800002 1.7977468e-38
-0.025166655 0.029480942 0.75500005 1.8066082e-38
-0.023665702 0.029402845 0.75300002 1.8164017e-38
-0.022201905 0.029363796 0.75200003 1.8164379e-38
-0.020714274 0.029285699 0.75000006 1.8166538e-38
-0.01923429 0.029207595 0.74800003 1.8068251e-38
-0.017785707 0.029168554 0.74700004 1.7983596e-38
-0.016319031 0.029090479 0.74500006 1.8349869e-38
-0.014899979 0.029090472 0.74500006 1.872403e-38
-0.013444749 0.029012367 0.74300003 1.8995952e-38
-0.012029511 0.029012367 0.74300009 1.9277554e-38
-0.010599987 0.028973319 0.7420001 1.9551983e-38
-0.0091866609 0.028973311 0.7420001 1.973996e-38
-0.0077523673 0.028895237 0.74000001 2.0199856e-38
-0.0063342797 0.028856188 0.73900002 2.0568274e-38
-0.0049266615 0.028856173 0.73900002 2.0934183e-38
-0.0035190324 0.028856181 0.73900008 2.121184e-38
-0.0021056987 0.028778091 0.73700005 2.1395152e-38
-0.00070188177 0.028778076 0.73700011 2.1579542e-38
0.00070191704 0.028778084 0.73700005 2.1579544e-38
0.0021028684 0.028739035 0.73600006 2.1487347e-38
0.003504765 0.028739043 0.73600006 2.1392999e-38
0.0049066697 0.028739035 0.73600006 2.1303676e-38
0.006308584 0.028739028 0.73600006 2.1579184e-38
0.0077104797 0.028739035 0.73600006 2.1855049e-38
0.009112386 0.028739043 0.73600006 2.2130197e-38
0.010514298 0.028739035 0.73600006 2.2314584e-38
0.011916194 0.028739035 0.73600006 2.2222389e-38
0.013318101 0.028739035 0.73600006 2.2039077e-38
0.014740014 0.028778091 0.73700005 2.2774121e-38
0.016143819 0.028778091 0.73700005 2.3417328e-38
0.017547626 0.028778091 0.73700005 2.3417687e-38
0.018951444 0.028778084 0.73700011 2.3417328e-38
0.020355249 0.028778076 0.73700005 2.3417687e-38
0.021759065 0.028778091 0.73700005 2.3417327e-38
0.023225721 0.028856181 0.73900002 2.3417686e-38
0.024633342 0.028856181 0.73900008 2.3324774e-38
0.026076213 0.028895229 0.74000007 2.3416608e-38
0.027560012 0.028973326 0.7420001 2.3416968e-38
0.029012388 0.029012367 0.74300003 2.3417689e-38
0.030427642 0.029012367 0.74300009 2.341733e-38
0.031928591 0.029090472 0.74500006 2.3234018e-38
0.033437163 0.029168554 0.74700004 2.295635e-38
0.034860022 0.029168554 0.74700004 2.3136065e-38
0.036331434 0.02920761 0.74800003 2.3321533e-38
0.03775619 0.02920761 0.74800003 2.3417676e-38
0.039285727 0.029285692 0.75000006 2.3416597e-38
0.040714309 0.029285692 0.75000012 2.341767e-38
0.042255253 0.029363796 0.75200003 2.3414428e-38
0.04374573 0.029402845 0.75300002 2.3414055e-38
0.04548002 0.02959808 0.75800002 2.3414784e-38
0.04692382 0.029598087 0.75799996 2.341623e-38
0.048686683 0.029793322 0.76300001 2.3416587e-38
0.050402865 0.029949509 0.76700002 2.3231121e-38
0.051863831 0.029949509 0.76700008 2.3048881e-38
-0.034242835 0.031328551 0.7650001 1.328194e-38
-0.032785695 0.031328559 0.76500005 1.6417284e-38
-0.031246664 0.031246655 0.76300001 1.6969395e-38
-0.029793324 0.031246647 0.76300001 1.743216e-38
-0.028265703 0.031164758 0.76100004 1.8073573e-38
-0.026780946 0.031123795 0.76000005 1.8628538e-38
-0.025199983 0.030959979 0.7560001 1.9085928e-38
-0.023665695 0.030837126 0.75300008 1.9638377e-38
-0.022201894 0.030796178 0.75200009 2.019226e-38
-0.020714285 0.030714281 0.75000006 2.0835485e-38
-0.019285709 0.030714281 0.75000006 2.0744027e-38
-0.017785696 0.030591413 0.74700004 2.074583e-38
-0.016362844 0.030591421 0.74700004 2.0931663e-38
-0.014899987 0.030509531 0.745 2.1121796e-38
-0.013480937 0.030509509 0.74500006 2.1209329e-38
-0.012029502 0.030427597 0.74300009 2.1393715e-38
-0.010614274 0.030427612 0.74300003 2.1485546e-38
-0.0091866469 0.030386649 0.7420001 2.15781e-38
-0.0077523668 0.030304752 0.74000001 2.176249e-38
-0.0063428367 0.030304752 0.74000007 2.203836e-38
-0.0049333074 0.030304752 0.74000007 2.2130557e-38
-0.003519038 0.030263789 0.73900002 2.2315663e-38
-0.0021057024 0.030181907 0.73700005 2.2406422e-38
-0.0007018855 0.030181892 0.73700011 2.249754e-38
0.00070192077 0.030181892 0.73700005 2.2498616e-38
0.0021057276 0.0301819 0.73700005 2.2498973e-38
0.0035095343 0.0301819 0.73700005 2.240606e-38
0.0049133408 0.0301819 0.73700005 2.2406779e-38
0.0063171578 0.030181892 0.73700011 2.2498616e-38
0.0077104797 0.030140951 0.73600006 2.2681928e-38
0.009112386 0.030140944 0.73600006 2.2774123e-38
0.010514298 0.030140944 0.73600006 2.2866317e-38
0.011916194 0.030140951 0.73600006 2.2774121e-38
0.013336211 0.0301819 0.73700011 2.2774123e-38
0.014740018 0.030181892 0.73700005 2.3049989e-38
0.016143823 0.030181892 0.73700005 2.341769e-38
0.017547632 0.0301819 0.73700005 2.341769e-38
0.018951446 0.0301819 0.73700011 2.341769e-38
0.020355253 0.030181892 0.73700005 2.341769e-38
0.021759067 0.030181892 0.73700005 2.341769e-38
0.023225727 0.030263796 0.73900002 2.3417331e-38
0.024633339 0.030263804 0.73900002 2.3416612e-38
0.026076205 0.030304752 0.74000001 2.3417328e-38
0.027560011 0.030386649 0.7420001 2.3417689e-38
0.029012391 0.03042762 0.74300003 2.341769e-38
0.030509541 0.030509524 0.74500006 2.341769e-38
0.031928595 0.030509524 0.74500006 2.3325854e-38
0.033347633 0.030509517 0.74500006 2.3234019e-38
0.034860015 0.030591421 0.74700004 2.332442e-38
0.03633143 0.030632377 0.74800003 2.341769e-38
0.037756186 0.030632377 0.74800003 2.341769e-38
0.039285723 0.030714273 0.75000006 2.3417683e-38
0.040714301 0.030714266 0.75000012 2.2129468e-38
0.042311437 0.030837126 0.75300002 2.0933437e-38
0.043861926 0.030919038 0.75500005 2.0837639e-38
0.04548002 0.031041898 0.75800002 2.075227e-38
0.046923824 0.031041905 0.75800002 2.1577005e-38
0.048686679 0.03124664 0.76300001 2.2407473e-38
0.050402876 0.031410456 0.76700002 2.2865577e-38
0.051931452 0.031451419 0.76800001 2.3231827e-38
-0.034153335 0.032700002 0.76300001 1.2445006e-38
-0.032699995 0.03269998 0.76300001 1.6044916e-38
-0.031246671 0.03269998 0.76300001 1.6788241e-38
-0.029715231 0.032614276 0.76100004 1.7521127e-38
-0.028265715 0.032614291 0.76100004 1.843912e-38
-0.026710462 0.032485709 0.75800002 1.9271395e-38
-0.025166649 0.032357141 0.75500011 2.0194072e-38
-0.023665709 0.032271408 0.75300002 2.1021673e-38
-0.022201905 0.032228559 0.75200003 2.2222715e-38
-0.020769525 0.032228559 0.75200009 2.3414794e-38
-0.019285705 0.03214284 0.75000006 2.3417675e-38
-0.017809523 0.032057136 0.74800009 2.3415528e-38
-0.016384762 0.032057121 0.74800003 2.3417684e-38
-0.014939996 0.032014288 0.74700004 2.3417686e-38
-0.013480935 0.031928554 0.74500006 2.3417689e-38
-0.012029507 0.03184285 0.74300009 2.3416968e-38
-0.010614279 0.031842858 0.74300003 2.3417684e-38
-0.009199026 0.031842843 0.74300009 2.3416968e-38
-0.007773323 0.031799987 0.7420001 2.3417686e-38
-0.0063428474 0.031714275 0.74000001 2.3417328e-38
-0.0049333172 0.031714283 0.74000001 2.341769e-38
-0.0035190347 0.031671412 0.73900002 2.341769e-38
-0.0021114151 0.03167142 0.73900002 2.341769e-38
-0.00070189993 0.031585708 0.73700005 2.3417331e-38
0.00070192449 0.031585701 0.73700011 2.341769e-38
0.0021057313 0.031585708 0.73700005 2.3417689e-38
0.003509538 0.031585701 0.73700005 2.3417689e-38
0.0049133454 0.031585708 0.73700005 2.3417689e-38
0.0063171624 0.031585701 0.73700011 2.341769e-38
0.0077104797 0.031542867 0.73600006 2.3417331e-38
0.009112386 0.03154286 0.73600006 2.341769e-38
0.010514298 0.031542853 0.73600006 2.3417689e-38
0.01193239 0.031585708 0.73700005 2.3417689e-38
0.013336207 0.031585701 0.73700011 2.341769e-38
0.014740021 0.031585701 0.73700005 2.341769e-38
0.016143827 0.031585708 0.73700005 2.341769e-38
0.017547633 0.031585708 0.73700005 2.341769e-38
0.01895144 0.031585708 0.73700005 2.341769e-38
0.020355258 0.031585701 0.73700011 2.341769e-38
0.021759065 0.031585708 0.73700005 2.341769e-38
0.023162872 0.031585708 0.73700005 2.341769e-38
0.024633342 0.031671405 0.73900002 2.3417331e-38
0.026076211 0.031714268 0.74000007 2.3417689e-38
0.027560005 0.031799987 0.74200004 2.341769e-38
0.029012391 0.031842858 0.74300003 2.341769e-38
0.030427638 0.031842835 0.74300009 2.341769e-38
0.031842876 0.031842843 0.74300003 2.341769e-38
0.033347633 0.031928577 0.74500006 2.341769e-38
0.034766693 0.031928554 0.74500006 2.341769e-38
0.036282867 0.032014288 0.74700004 2.341769e-38
0.037756197 0.032057129 0.74800003 2.3417331e-38
0.039285719 0.032142848 0.75000006 2.3416247e-38
0.040822867 0.032228567 0.75200003 2.0933093e-38
0.042311437 0.0322714 0.75300008 1.8352359e-38
0.043861926 0.032357141 0.75500005 1.8251185e-38
0.045600008 0.03257142 0.76000005 1.8075771e-38
0.04704763 0.03257142 0.76000005 1.9731326e-38
0.048686676 0.032699995 0.76300001 2.1388316e-38
-0.034153312 0.034153305 0.76300001 1.4110231e-38
-0.032699998 0.034153312 0.76300001 1.7335633e-38
-0.031246657 0.03415332 0.76300001 1.6784658e-38
-0.029715231 0.034063794 0.76100004 1.6323321e-38
-0.028228566 0.034019038 0.76000005 1.724418e-38
-0.026710467 0.033929519 0.75800002 1.8170812e-38
-0.025166659 0.033795223 0.75500005 1.8721134e-38
-0.023665702 0.033705689 0.75300002 1.9368299e-38
-0.022231419 0.033705682 0.75300002 2.0747635e-38
-0.020769512 0.033660941 0.75200009 2.2223824e-38
-0.019285716 0.033571415 0.75000006 2.2866677e-38
-0.017809527 0.033481881 0.74800003 2.341769e-38
-0.016384766 0.033481888 0.74800003 2.3142183e-38
-0.014939987 0.033437125 0.74700004 2.2958513e-38
-0.013480944 0.033347607 0.745 2.3141825e-38
-0.012029513 0.033258088 0.74300009 2.341769e-38
-0.01061427 0.033258088 0.74300003 2.341769e-38
-0.0091990316 0.03325808 0.74300009 2.341769e-38
-0.0077733253 0.033213317 0.74200004 2.341769e-38
-0.0063599981 0.033213325 0.7420001 2.341769e-38
-0.004946657 0.03321331 0.7420001 2.341769e-38
-0.0035237966 0.033123799 0.74000001 2.341769e-38
-0.002111411 0.033079036 0.73900002 2.341769e-38
-0.00070189527 0.032989517 0.73700005 2.341769e-38
0.0007019217 0.032989524 0.73700011 2.341769e-38
0.0021057285 0.032989517 0.73700005 2.341769e-38
0.0035095352 0.032989524 0.73700005 2.341769e-38
0.0049133492 0.032989517 0.73700005 2.341769e-38
0.0063171559 0.032989539 0.73700005 2.341769e-38
0.007710488 0.032944754 0.73600012 2.341769e-38
0.0091123851 0.032944746 0.73600006 2.341769e-38
0.010514298 0.032944769 0.73600006 2.341769e-38
0.011932393 0.032989539 0.73700005 2.341769e-38
0.01333621 0.032989502 0.73700011 2.341769e-38
0.014740016 0.032989509 0.73700011 2.341769e-38
0.016143823 0.032989517 0.73700005 2.341769e-38
0.01754763 0.032989517 0.73700005 2.341769e-38
0.018951437 0.032989517 0.73700005 2.341769e-38
0.020355253 0.032989509 0.73700011 2.341769e-38
0.021759069 0.032989517 0.73700005 2.341769e-38
0.023225723 0.033079028 0.73900002 2.341769e-38
0.024666687 0.033123799 0.74000001 2.341769e-38
0.026076207 0.033123799 0.74000001 2.341769e-38
0.027560005 0.033213325 0.74200004 2.341769e-38
0.029012406 0.03325808 0.74300009 2.341769e-38
0.030427642 0.033258088 0.74300009 2.341769e-38
0.031842869 0.033258088 0.74300003 2.341769e-38
0.033347636 0.033347614 0.74500006 2.341769e-38
0.034766685 0.033347622 0.74500006 2.3142183e-38
0.036282871 0.033437125 0.74700004 2.2774842e-38
0.037756197 0.033481888 0.74800003 2.2865242e-38
0.039285719 0.03357143 0.75000006 2.2958503e-38
0.040822867 0.033660941 0.75200009 2.0192665e-38
0.042423829 0.03379523 0.75500011 1.7515438e-38
0.04392001 0.033839978 0.75600004 1.6964059e-38
0.045600016 0.034019031 0.76000005 1.6414484e-38
0.04704763 0.034019031 0.76000005 1.7151321e-38
0.048686676 0.034153327 0.76300001 1.7884936e-38
-0.034242846 0.035699986 0.76500005 1.5772276e-38
-0.032785699 0.035699986 0.7650001 1.8530939e-38
-0.03124666 0.03560666 0.76300001 1.6783566e-38
-0.029715227 0.035513327 0.76100004 1.5035819e-38
-0.028228562 0.035466656 0.76000005 1.6043138e-38
-0.026710456 0.035373323 0.75800002 1.696869e-38
-0.025166644 0.035233319 0.75500011 1.7334978e-38
-0.023728548 0.035233326 0.75500011 1.7617311e-38
-0.022231411 0.03513997 0.75300008 1.9358608e-38
-0.020769527 0.035093315 0.75200003 2.1024932e-38
-0.019285712 0.034999989 0.75000006 2.2223829e-38
-0.017809518 0.034906663 0.74800003 2.3417687e-38
-0.01636284 0.034859978 0.74700004 2.2958508e-38
-0.014939987 0.034859993 0.74700004 2.2404265e-38
-0.013480941 0.034766674 0.74500006 2.2956353e-38
-0.012029503 0.034673318 0.74300009 2.3417327e-38
-0.010614276 0.034673326 0.74300003 2.341769e-38
-0.0091990372 0.034673318 0.74300009 2.341769e-38
-0.0077733272 0.034626663 0.74200004 2.341769e-38
-0.0063428418 0.034533337 0.74000001 2.341769e-38
-0.0049333116 0.034533322 0.74000001 2.341769e-38
-0.0035190361 0.034486659 0.73900002 2.341769e-38
-0.0021114165 0.034486666 0.73900002 2.341769e-38
-0.00070189202 0.034393325 0.73700005 2.341769e-38
0.00070191518 0.03439334 0.73700005 2.341769e-38
0.0021057322 0.034393311 0.73700011 2.341769e-38
0.0035095389 0.034393333 0.73700005 2.341769e-38
0.0049133454 0.034393325 0.73700005 2.341769e-38
0.0063171522 0.03439334 0.73700005 2.341769e-38
0.007710489 0.034346662 0.73600006 2.341769e-38
0.009112386 0.034346662 0.73600006 2.341769e-38
0.010528583 0.034393325 0.73700005 2.341769e-38
0.01193239 0.03439334 0.73700005 2.341769e-38
0.013336204 0.034393325 0.73700005 2.341769e-38
0.014740022 0.034393318 0.73700011 2.341769e-38
0.016143827 0.034393318 0.73700005 2.341769e-38
0.017595252 0.034486644 0.73900008 2.341769e-38
0.01895144 0.034393325 0.73700005 2.341769e-38
0.020355249 0.034393325 0.73700005 2.341769e-38
0.021818109 0.034486651 0.73900008 2.341769e-38
0.023257164 0.034533329 0.74000007 2.341769e-38
0.024666686 0.034533322 0.74000007 2.341769e-38
0.026146686 0.034626648 0.7420001 2.341769e-38
0.027560001 0.034626663 0.74200004 2.341769e-38
0.029012408 0.034673311 0.74300009 2.341769e-38
0.030509539 0.034766667 0.745 2.341769e-38
0.031928588 0.034766667 0.74500006 2.341769e-38
0.033347629 0.034766674 0.745 2.3417687e-38
0.034766689 0.034766659 0.74500006 2.2774835e-38
0.036282863 0.034859993 0.74700004 2.2125523e-38
0.037857153 0.034999996 0.75000006 2.2310624e-38
0.039285727 0.034999996 0.75000006 2.2401735e-38
0.040877156 0.035139978 0.75300002 1.9546935e-38
0.042423833 0.035233319 0.75500005 1.6596706e-38
0.043920022 0.035279974 0.7560001 1.5674748e-38
0.045600019 0.035466656 0.76000005 1.4758551e-38
0.047109544 0.035513327 0.76100004 1.4574884e-38
0.048686679 0.035606645 0.76300001 1.4392297e-38
-0.034332376 0.037254274 0.76700002 1.5774464e-38
-0.032871414 0.037254274 0.76700008 1.8630319e-38
-0.031328551 0.037157133 0.76500005 1.7612939e-38
-0.029793328 0.037059985 0.76300001 1.6503742e-38
-0.028265698 0.036962844 0.76100004 1.6964357e-38
-0.026780955 0.036914274 0.76000005 1.742714e-38
-0.025199991 0.036719985 0.75600004 1.8350536e-38
-0.023728559 0.036671408 0.75500011 1.9274639e-38
-0.022231413 0.036574259 0.75300002 2.0744374e-38
-0.020769514 0.036525711 0.75200003 2.2221655e-38
-0.019337142 0.036525719 0.75200003 2.2774483e-38
-0.017809521 0.03633143 0.74800003 2.3417686e-38
-0.016384762 0.036331423 0.74800003 2.2587215e-38
-0.014899989 0.036185719 0.745 2.1753876e-38
-0.013480938 0.036185704 0.74500006 2.2587927e-38
-0.012061899 0.036185704 0.745 2.3417683e-38
-0.010614267 0.036088556 0.74300003 2.341769e-38
-0.0091990279 0.036088578 0.74300009 2.341769e-38
-0.0077733188 0.036039978 0.7420001 2.341769e-38
-0.0063600023 0.036039986 0.74200004 2.341769e-38
-0.0049466607 0.036039978 0.74200004 2.341769e-38
-0.003523791 0.035942845 0.74000001 2.341769e-38
-0.0021114133 0.035894267 0.73900002 2.341769e-38
-0.00070379471 0.03589429 0.73900002 2.341769e-38
0.00070191053 0.035797156 0.73700005 2.341769e-38
0.002105735 0.035797119 0.73700011 2.341769e-38
0.0035095417 0.035797141 0.73700005 2.341769e-38
0.0049133482 0.035797134 0.73700005 2.341769e-38
0.006317155 0.035797149 0.73700005 2.341769e-38
0.0077209617 0.035797134 0.73700005 2.341769e-38
0.009112386 0.035748571 0.73600006 2.341769e-38
0.010528587 0.035797134 0.73700005 2.341769e-38
0.011932394 0.035797149 0.73700005 2.341769e-38
0.0133362 0.035797134 0.73700005 2.341769e-38
0.014740014 0.035797141 0.73700005 2.341769e-38
0.01614383 0.035797134 0.73700011 2.341769e-38
0.017595245 0.035894275 0.73900002 2.341769e-38
0.018951444 0.035797127 0.73700005 2.341769e-38
0.020410491 0.035894267 0.73900008 2.341769e-38
0.021818103 0.035894275 0.73900002 2.341769e-38
0.023225723 0.035894275 0.73900002 2.341769e-38
0.024666686 0.035942838 0.74000001 2.341769e-38
0.026076207 0.03594286 0.74000001 2.341769e-38
0.027560011 0.036039986 0.7420001 2.341769e-38
0.029012401 0.036088549 0.74300009 2.2774483e-38
0.030427637 0.036088564 0.74300009 2.2040158e-38
0.031928591 0.036185712 0.74500006 2.1945452e-38
0.033347633 0.036185704 0.74500006 2.185648e-38
0.034766689 0.036185697 0.74500006 2.1389403e-38
0.036331434 0.036331423 0.74800003 2.1009494e-38
0.037857156 0.036428556 0.75000006 2.1663092e-38
0.039390478 0.036525697 0.75200003 2.2402437e-38
0.040877156 0.036574267 0.75300008 1.9637683e-38
0.042423826 0.036671422 0.75500005 1.6955419e-38
0.043920018 0.03671997 0.7560001 1.6039911e-38
0.045360014 0.036719978 0.75600004 1.5124793e-38
0.047109529 0.036962859 0.76100004 1.4941129e-38
0.048686676 0.037059985 0.76300001 1.4756749e-38
0.050140012 0.037059993 0.76300001 1.4665997e-38
-0.036026653 0.038967606 0.77200001 1.281989e-38
-0.034377128 0.03876571 0.76800007 1.5775176e-38
-0.032871414 0.038715232 0.76700002 1.8717139e-38
-0.031328563 0.038614288 0.76500005 1.8350513e-38
-0.029871425 0.038614281 0.76500005 1.7979225e-38
-0.028340003 0.038513325 0.76300001 1.7883444e-38
-0.026780954 0.038361881 0.76000005 1.7798444e-38
-0.025266659 0.03826094 0.75800002 1.9365767e-38
-0.023759997 0.038159974 0.75600004 2.0836577e-38
-0.022231421 0.038008548 0.75300008 2.2121922e-38
-0.020769518 0.037958093 0.75200009 2.3322972e-38
-0.019337146 0.037958082 0.75200003 2.341769e-38
-0.017809514 0.037756179 0.74800003 2.3416607e-38
-0.016384766 0.037756175 0.74800003 2.221915e-38
-0.014939993 0.037705701 0.74700004 2.1024575e-38
-0.013480936 0.037604742 0.74500006 2.2223463e-38
-0.012061897 0.037604753 0.74500006 2.3417686e-38
-0.010642847 0.037604753 0.74500006 2.341769e-38
-0.0091990335 0.037503801 0.74300009 2.341769e-38
-0.0077837915 0.037503812 0.74300003 2.3416973e-38
-0.0063599939 0.037453309 0.7420001 2.3325496e-38
-0.0049466519 0.037453316 0.7420001 2.341769e-38
-0.003523791 0.037352368 0.74000007 2.341769e-38
-0.0021114086 0.037301891 0.73900008 2.341769e-38
-0.00070380495 0.037301891 0.73900002 2.341769e-38
0.00070382067 0.037301891 0.73900002 2.341769e-38
0.002105721 0.037200943 0.73700005 2.341769e-38
0.0035095389 0.03720095 0.73700011 2.341769e-38
0.0049133454 0.037200935 0.73700005 2.341769e-38
0.0063171596 0.037200958 0.73700005 2.341769e-38
0.0077209673 0.037200943 0.73700005 2.341769e-38
0.0091247847 0.03720095 0.73700011 2.341769e-38
0.010528591 0.037200935 0.73700005 2.341769e-38
0.011932398 0.037200958 0.73700005 2.341769e-38
0.013372398 0.037301898 0.73900002 2.341769e-38
0.01478001 0.037301905 0.73900002 2.341769e-38
0.016187629 0.037301891 0.73900008 2.341769e-38
0.017595248 0.037301876 0.73900002 2.341769e-38
0.019002868 0.037301898 0.73900002 2.341769e-38
0.02043811 0.037352376 0.74000001 2.341769e-38
0.021847641 0.037352361 0.74000001 2.341769e-38
0.023257162 0.037352376 0.74000007 2.341769e-38
0.02473334 0.037453324 0.7420001 2.341769e-38
0.026146684 0.037453324 0.7420001 2.341769e-38
0.027560009 0.037453301 0.7420001 2.3417326e-38
0.029012404 0.037503801 0.74300009 2.2039072e-38
0.03042764 0.037503801 0.74300009 2.0655439e-38
0.031842876 0.037503794 0.74300009 2.0467821e-38
0.033347636 0.037604764 0.74500006 2.0288093e-38
0.034860022 0.03770569 0.74700004 2.0100116e-38
0.036331438 0.037756175 0.74800003 1.9823886e-38
0.037857156 0.03785713 0.75000006 2.1112808e-38
0.039390489 0.037958078 0.75200009 2.2310611e-38
0.040985741 0.038109519 0.75500011 1.9829613e-38
0.042480007 0.038159985 0.75600004 1.7332103e-38
0.04403621 0.038260937 0.75800002 1.6404047e-38
0.045660015 0.03841237 0.76100004 1.5493583e-38
0.047109537 0.038412381 0.76100004 1.5308477e-38
0.048686676 0.038513318 0.76300001 1.5125519e-38
-0.036026664 0.040438097 0.77199996 1.2277846e-38
-0.034466662 0.040333334 0.77000004 1.5221286e-38
-0.032871418 0.040176183 0.76700002 1.8163622e-38
-0.031410456 0.040176179 0.76700008 1.8259058e-38
-0.029871421 0.040071417 0.76500005 1.8444159e-38
-0.028265707 0.039861891 0.76100004 1.8440927e-38
-0.026780961 0.039809521 0.76000005 1.8445973e-38
-0.025266649 0.039704766 0.75800002 1.9826756e-38
-0.023759995 0.039599989 0.75600004 2.1206805e-38
-0.022231421 0.039442837 0.75300002 2.2310989e-38
-0.02076952 0.03939046 0.75200009 2.3417684e-38
-0.019337134 0.039390463 0.75200003 2.341769e-38
-0.017809518 0.039180946 0.74800003 2.341768e-38
-0.016384771 0.039180949 0.74800003 2.2680474e-38
-0.014939982 0.039128557 0.74700004 2.1942573e-38
-0.013480944 0.039023802 0.745 2.2681571e-38
-0.012061894 0.039023802 0.74500006 2.341769e-38
-0.010642844 0.039023798 0.74500006 2.341769e-38
-0.0091990391 0.038919039 0.74300009 2.341769e-38
-0.0077837966 0.038919043 0.74300003 2.3417331e-38
-0.0063685589 0.038919047 0.74300009 2.3417331e-38
-0.0049466533 0.038866647 0.7420001 2.341769e-38
-0.0035237998 0.038761906 0.74000001 2.341769e-38
-0.0021114147 0.038709518 0.73900002 2.341769e-38
-0.00070380076 0.03870951 0.73900008 2.341769e-38
0.00070382532 0.038709514 0.73900008 2.341769e-38
0.0021114366 0.03870951 0.73900002 2.341769e-38
0.0035095427 0.038604762 0.73700011 2.341769e-38
0.0049133492 0.038604762 0.73700005 2.341769e-38
0.006334296 0.038709514 0.73900002 2.341769e-38
0.0077209626 0.038604762 0.73700005 2.341769e-38
0.0091247698 0.038604774 0.73700005 2.341769e-38
0.010528587 0.038604759 0.73700011 2.341769e-38
0.011964773 0.038709518 0.73900002 2.341769e-38
0.013372404 0.038709503 0.73900008 2.341769e-38
0.014780014 0.038709518 0.73900002 2.341769e-38
0.016143819 0.038604755 0.73700005 2.341769e-38
0.017595243 0.038709506 0.73900002 2.341769e-38
0.019002872 0.038709503 0.73900008 2.341769e-38
0.020438107 0.038761903 0.74000001 2.341769e-38
0.02184763 0.038761903 0.74000001 2.341769e-38
0.023257161 0.038761903 0.74000001 2.341769e-38
0.024733346 0.038866658 0.74200004 2.341769e-38
0.026146678 0.038866658 0.7420001 2.341769e-38
0.027560009 0.038866658 0.7420001 2.341768e-38
0.029012408 0.038919032 0.74300009 2.2586845e-38
0.030427633 0.038919043 0.74300009 2.184032e-38
0.031928584 0.039023813 0.74500006 2.1848209e-38
0.033347636 0.039023791 0.74500006 2.1850723e-38
0.034860015 0.039128561 0.74700004 2.1666696e-38
0.036331434 0.039180938 0.74800003 2.1573428e-38
0.037857149 0.039285704 0.75000006 2.2219867e-38
0.039390489 0.039390467 0.75200009 2.2866656e-38
0.040985741 0.039547615 0.75500011 1.991751e-38
0.042480022 0.039599977 0.7560001 1.7057328e-38
0.044036206 0.039704766 0.75799996 1.6689619e-38
0.045660019 0.039861903 0.76100004 1.6421996e-38
0.047109537 0.03986191 0.76100004 1.6233653e-38
0.048814308 0.040071428 0.7650001 1.6047095e-38
-0.034466673 0.0418 0.76999998 1.4668123e-38
-0.032871418 0.041637126 0.76700008 1.7520415e-38
-0.031328551 0.04152856 0.7650001 1.826085e-38
-0.029793324 0.041419987 0.76300007 1.8902261e-38
-0.028228572 0.041257136 0.76000005 1.8989431e-38
-0.026780957 0.041257143 0.76000005 1.9089896e-38
-0.025266655 0.041148566 0.75800002 2.0288442e-38
-0.023759993 0.041039992 0.75600004 2.1484105e-38
-0.022231413 0.040877122 0.75300002 2.2497892e-38
-0.02076952 0.04082286 0.75200003 2.3417327e-38
-0.019337138 0.040822852 0.75200009 2.341769e-38
-0.01785714 0.040714268 0.75000006 2.3417684e-38
-0.016384764 0.040605702 0.74800003 2.3142174e-38
-0.014939996 0.04055142 0.74700004 2.2773401e-38
-0.013480942 0.040442858 0.74500006 2.3142183e-38
-0.012061891 0.04044285 0.74500006 2.341769e-38
-0.010642852 0.040442869 0.745 2.341769e-38
-0.0091990298 0.040334277 0.74300009 2.341769e-38
-0.0077838022 0.040334281 0.74300003 2.341769e-38
-0.0063685495 0.040334273 0.74300009 2.341769e-38
-0.0049466556 0.040279988 0.7420001 2.341769e-38
-0.0035333282 0.040279984 0.7420001 2.341769e-38
-0.0021142701 0.0401714 0.74000007 2.341769e-38
-0.00070475118 0.040171433 0.74000001 2.341769e-38
0.00070381787 0.040117126 0.73900002 2.341769e-38
0.0021114394 0.04011713 0.73900008 2.341769e-38
0.003519058 0.040117126 0.73900002 2.341769e-38
0.0049266773 0.040117145 0.73900002 2.341769e-38
0.0063342988 0.040117119 0.73900008 2.341769e-38
0.0077209654 0.040008575 0.73700005 2.341769e-38
0.0091247726 0.040008571 0.73700005 2.341769e-38
0.01052859 0.040008571 0.73700011 2.341769e-38
0.011964777 0.040117122 0.73900002 2.341769e-38
0.013372396 0.04011713 0.73900002 2.341769e-38
0.014780006 0.040117133 0.73900002 2.341769e-38
0.016187629 0.040117122 0.73900008 2.341769e-38
0.017595246 0.040117122 0.73900002 2.341769e-38
0.019002866 0.040117133 0.73900002 2.341769e-38
0.020438116 0.040171422 0.74000001 2.341769e-38
0.021847637 0.040171418 0.74000007 2.341769e-38
0.023257161 0.040171418 0.74000007 2.341769e-38
0.02466668 0.040171422 0.74000001 2.341769e-38
0.026076201 0.040171426 0.74000001 2.341769e-38
0.027560007 0.040279977 0.74200004 2.3417684e-38
0.029012399 0.040334269 0.74300009 2.3233292e-38
0.030427637 0.040334273 0.74300003 2.2954197e-38
0.031928588 0.040442858 0.74500006 2.3234006e-38
0.033437155 0.040551417 0.74700004 2.3416244e-38
0.03490667 0.040605698 0.74800003 2.3325845e-38
0.036331434 0.04060572 0.74800003 2.3232217e-38
0.037857153 0.040714275 0.75000006 2.3325847e-38
0.039442874 0.040877122 0.75300008 2.3414442e-38
0.041040014 0.041039985 0.75600004 2.0099383e-38
0.042480022 0.041039981 0.7560001 1.6693929e-38
0.044036202 0.041148573 0.75799996 1.6966919e-38
0.045660019 0.041311424 0.76100004 1.7246377e-38
0.047109541 0.041311409 0.76100004 1.7156701e-38
0.048814304 0.04152856 0.7650001 1.6969071e-38
-0.034466665 0.043266665 0.76999998 1.4757447e-38
-0.032871418 0.043098088 0.76700002 1.7428221e-38
-0.031328551 0.042985711 0.7650001 1.8260131e-38
-0.02979333 0.042873316 0.76300001 1.9087368e-38
-0.028265705 0.042760946 0.76100004 1.8995531e-38
-0.026710477 0.04259238 0.75800002 1.9002724e-38
-0.025266659 0.042592376 0.75800002 2.0012215e-38
-0.023759995 0.042479981 0.7560001 2.0933093e-38
-0.022290459 0.042423803 0.75500005 2.2037281e-38
-0.020769523 0.04225523 0.75200003 2.3142181e-38
-0.019285696 0.042142831 0.75000012 2.3325854e-38
-0.017857136 0.042142842 0.75000006 2.341769e-38
-0.016384767 0.042030461 0.74800003 2.3234019e-38
-0.014939987 0.041974276 0.74700004 2.3142183e-38
-0.01348094 0.041861892 0.74500006 2.3234019e-38
-0.0120619 0.041861903 0.745 2.341769e-38
-0.01064285 0.041861899 0.74500006 2.341769e-38
-0.0091990354 0.041749511 0.74300009 2.341769e-38
-0.0077837827 0.041749503 0.74300009 2.341769e-38
-0.0063685551 0.041749507 0.74300009 2.341769e-38
-0.0049466579 0.04169333 0.7420001 2.341769e-38
-0.0035333161 0.041693326 0.7420001 2.341769e-38
-0.002114265 0.041580942 0.74000001 2.341769e-38
-0.00070474978 0.041580949 0.74000007 2.341769e-38
0.00070382253 0.04152476 0.73900002 2.341769e-38
0.0021114338 0.041524746 0.73900002 2.341769e-38
0.0035190636 0.041524757 0.73900008 2.341769e-38
0.004926682 0.041524746 0.73900002 2.341769e-38
0.0063342932 0.041524746 0.73900002 2.341769e-38
0.0077419211 0.041524746 0.73900008 2.341769e-38
0.0091495337 0.041524746 0.73900008 2.341769e-38
0.010557151 0.041524749 0.73900002 2.341769e-38
0.011964771 0.041524749 0.73900002 2.341769e-38
0.0133724 0.041524749 0.73900008 2.341769e-38
0.014780012 0.041524749 0.73900002 2.3234019e-38
0.016187621 0.041524753 0.73900002 2.3142183e-38
0.017595252 0.041524742 0.73900008 2.2222035e-38
0.01900287 0.041524749 0.73900002 2.1305474e-38
0.020438107 0.041580949 0.74000001 2.0749797e-38
0.021847636 0.041580945 0.74000001 2.0295283e-38
0.023257159 0.041580938 0.74000001 2.0656527e-38
0.024666687 0.041580945 0.74000001 2.1121803e-38
0.026146675 0.041693322 0.74200004 2.2223829e-38
0.027597157 0.041749511 0.74300003 2.341769e-38
0.029012403 0.041749503 0.74300009 2.3325854e-38
0.030509537 0.041861892 0.74500006 2.3234019e-38
0.032014303 0.041974273 0.74700004 2.3325854e-38
0.033481903 0.042030472 0.74800003 2.341769e-38
0.034906678 0.042030465 0.74800003 2.341769e-38
0.036428586 0.042142846 0.75000006 2.3325854e-38
0.03785716 0.042142846 0.75000006 2.341769e-38
0.039442874 0.042311415 0.75300002 2.3416954e-38
0.040985748 0.0424238 0.75500011 2.0191573e-38
0.042480011 0.042479981 0.7560001 1.6967999e-38
0.044036206 0.042592369 0.75799996 1.6876158e-38
0.045660019 0.042760953 0.76100004 1.6786137e-38
0.047109541 0.042760957 0.76100004 1.6786159e-38
0.048686683 0.042873316 0.76300007 1.6876911e-38
-0.034466665 0.044733323 0.77000004 1.484319e-38
-0.032871418 0.044559035 0.76700008 1.7243837e-38
-0.031328544 0.044442847 0.7650001 1.826444e-38
-0.029871421 0.044442855 0.76500005 1.9179565e-38
-0.028340004 0.044326663 0.76300001 1.9085936e-38
-0.026816184 0.044210482 0.76100004 1.890587e-38
-0.025333332 0.044152368 0.76000005 1.9640931e-38
-0.023822855 0.044036184 0.75800002 2.0380286e-38
-0.022290457 0.043861896 0.75500011 2.1667785e-38
-0.020852363 0.043861881 0.75500011 2.2865597e-38
-0.019285707 0.043571405 0.75000012 2.3142183e-38
-0.017857132 0.043571416 0.75000006 2.341769e-38
-0.016384771 0.043455232 0.74800003 2.341769e-38
-0.014939987 0.043397129 0.74700004 2.341769e-38
-0.013480937 0.043280933 0.74500006 2.341769e-38
-0.012061898 0.043280948 0.74500006 2.341769e-38
-0.010642848 0.043280944 0.74500006 2.341769e-38
-0.0092237936 0.043280948 0.745 2.341769e-38
-0.0077837887 0.04316476 0.74300009 2.341769e-38
-0.0063685612 0.043164749 0.74300009 2.341769e-38
-0.0049533076 0.043164741 0.74300009 2.341769e-38
-0.0035380798 0.043164745 0.74300009 2.341769e-38
-0.0021142752 0.042990476 0.74000001 2.341769e-38
-0.00070474559 0.042990472 0.74000001 2.341769e-38
0.00070382719 0.042932365 0.73900008 2.341769e-38
0.0021114384 0.042932361 0.73900002 2.341769e-38
0.0035190571 0.042932373 0.73900002 2.341769e-38
0.0049266866 0.042932365 0.73900008 2.341769e-38
0.0063428725 0.042990476 0.74000001 2.341769e-38
0.0077523948 0.04299048 0.74000001 2.341769e-38
0.009161924 0.042990476 0.74000001 2.341769e-38
0.010571446 0.042990472 0.74000001 2.341769e-38
0.01198097 0.042990468 0.74000007 2.341769e-38
0.013426676 0.04310666 0.74200004 2.341769e-38
0.014800021 0.042990454 0.74000007 2.3142183e-38
0.016187627 0.042932373 0.73900002 2.2771603e-38
0.017595245 0.042932369 0.73900002 2.0930937e-38
0.019080013 0.043106645 0.7420001 1.9089564e-38
0.020438114 0.042990461 0.74000001 1.8164753e-38
0.021847637 0.042990457 0.74000007 1.7157791e-38
0.023320017 0.043106649 0.7420001 1.7974625e-38
0.024733352 0.043106645 0.7420001 1.8727255e-38
0.026146684 0.043106645 0.7420001 2.1121803e-38
0.027597159 0.04316476 0.74300003 2.341769e-38
0.029012403 0.04316476 0.74300009 2.341769e-38
0.030591441 0.043397132 0.74700004 2.341769e-38
0.032014295 0.043397121 0.74700004 2.341769e-38
0.033481907 0.043455228 0.74800003 2.341769e-38
0.035000011 0.043571413 0.75000006 2.341769e-38
0.036428586 0.043571405 0.75000006 2.341769e-38
0.037857156 0.043571424 0.75000006 2.341769e-38
0.039390482 0.043687604 0.75200009 2.3414436e-38
