# .PCD v0.7 - Point Cloud Data file format
VERSION 0.7
FIELDS x y z rgb
SIZE 4 4 4 4
TYPE F F F F
COUNT 1 1 1 1
WIDTH 970
HEIGHT 1
VIEWPOINT 0 0 0 1 0 0 0
POINTS 970
DATA ascii
0.01572 0.0067371204 0.78600001 2.1028527e-38
0.017217159 0.0067371279 0.78600001 2.1120721e-38
-0.026433328 0.0083076134 0.79300004 1.8182705e-38
-0.024985714 0.0083285421 0.79500002 1.7631692e-38
-0.023471421 0.008328557 0.79500002 1.7723528e-38
-0.021957135 0.0083285421 0.79500002 1.7907557e-38
-0.020442847 0.008328557 0.79500002 1.7447661e-38
-0.018928563 0.0083285496 0.79500002 1.708032e-38
-0.017414283 0.0083285496 0.79500002 1.7079962e-38
-0.015899988 0.008328557 0.79500002 1.707996e-38
-0.014385711 0.008328557 0.79500002 1.7630972e-38
-0.012871415 0.008328557 0.79500002 1.8181985e-38
-0.011328567 0.0083076134 0.79300004 1.8916669e-38
-0.0098180948 0.0083076134 0.79300004 1.9743547e-38
-0.0082866568 0.0082866699 0.79100001 1.9743188e-38
-0.0067799878 0.0082866699 0.79100001 1.9742471e-38
-0.0052866582 0.008307606 0.79300004 2.1028884e-38
-0.0037857092 0.008328557 0.79500002 2.23153e-38
-0.0022599879 0.0082866624 0.79099995 2.213127e-38
-0.0007514272 0.0082657039 0.78899997 2.203836e-38
0.00075142935 0.0082657039 0.78900003 2.2314584e-38
0.0022542856 0.0082656965 0.78900003 2.2682284e-38
0.003757142 0.0082656965 0.78900003 2.2498612e-38
0.0052400148 0.0082342774 0.78600001 2.2314582e-38
0.0067371484 0.0082342625 0.78600001 2.1946882e-38
0.0082342923 0.0082342774 0.78600001 2.1579182e-38
0.0097314399 0.0082342699 0.78600001 2.1947242e-38
0.011200001 0.0082133338 0.78400004 2.2407137e-38
0.012725717 0.0082342699 0.78600001 2.1671734e-38
0.014186658 0.0082133189 0.78400004 2.1028168e-38
0.01572001 0.0082342625 0.78600001 2.1028525e-38
0.017217143 0.0082342699 0.78600001 2.1028885e-38
0.018714303 0.0082342699 0.78600001 2.011053e-38
-0.026433332 0.0098180771 0.79300004 1.7539498e-38
-0.024859989 0.0097933337 0.79100001 1.58861e-38
-0.023412377 0.0098180845 0.79300004 1.5701712e-38
-0.021901902 0.009818092 0.79300004 1.5426921e-38
-0.020391431 0.0098180845 0.79300004 1.5150339e-38
-0.018880947 0.0098180845 0.79300004 1.4875551e-38
-0.017370475 0.0098180845 0.79300004 1.5518041e-38
-0.015860002 0.0098180696 0.79300004 1.6161605e-38
-0.014349518 0.0098180845 0.79300004 1.7263271e-38
-0.012839045 0.009818092 0.79300004 1.8365656e-38
-0.011328572 0.009818092 0.79300004 1.9651353e-38
-0.0097933216 0.0097933263 0.79100001 2.093705e-38
-0.0082866615 0.0097933263 0.79100001 2.093705e-38
-0.0067799925 0.0097933114 0.79100001 2.093705e-38
-0.0052733244 0.0097933337 0.79100001 2.1580257e-38
-0.0037666608 0.0097933337 0.79099995 2.2223105e-38
-0.00225428 0.0097685605 0.78899997 2.2223105e-38
-0.00075142353 0.0097685531 0.78899997 2.2130911e-38
0.00075047428 0.0097561702 0.78800005 2.2314941e-38
0.0022457214 0.0097314194 0.78600001 2.2406776e-38
0.003752375 0.0097561777 0.78800005 2.2222747e-38
0.0052399989 0.0097314194 0.78600001 2.194724e-38
0.0067371572 0.0097314194 0.78600001 2.157954e-38
0.0082342904 0.0097314194 0.78600001 2.1211839e-38
0.0097314483 0.0097314119 0.78600001 2.1395151e-38
0.011200006 0.0097066611 0.78400004 2.1487704e-38
0.012725716 0.0097314119 0.78600001 2.139551e-38
0.014222859 0.0097314194 0.78600001 2.1212198e-38
0.015720008 0.0097314045 0.78600001 2.1028527e-38
0.01721715 0.0097314194 0.78600001 2.0845214e-38
0.018714286 0.0097314119 0.78600001 2.0845214e-38
0.020023823 0.0089761838 0.72500002 1.9376923e-38
0.021404771 0.0089761764 0.72500002 1.7906839e-38
-0.024797143 0.011271402 0.78900003 1.6252725e-38
-0.023353323 0.011299998 0.79100001 1.6437112e-38
-0.021846663 0.011299983 0.79100001 1.6713336e-38
-0.020339992 0.011299998 0.79100001 1.6804813e-38
-0.018833324 0.011299998 0.79100001 1.6988126e-38
-0.017326657 0.011300005 0.79100001 1.7815004e-38
-0.015819995 0.01129999 0.79100001 1.8641523e-38
-0.014313335 0.011299998 0.79100001 1.9468041e-38
-0.012806656 0.011299998 0.79099995 2.0294201e-38
-0.011271425 0.011271417 0.78900003 2.0753738e-38
-0.0097933272 0.011299998 0.79100001 2.1304392e-38
-0.0082866652 0.01129999 0.79100001 2.1212914e-38
-0.0067628552 0.01127141 0.78900003 2.1212198e-38
-0.0052733184 0.01129999 0.79100001 2.1304751e-38
-0.0037666503 0.011299998 0.79100001 2.1396227e-38
-0.0022542763 0.011271417 0.78899997 2.1212555e-38
-0.00075048098 0.011257119 0.78800011 2.1028525e-38
0.0007485713 0.011228554 0.78600001 2.0937048e-38
0.0022457296 0.011228554 0.78600001 2.0845213e-38
0.0037428632 0.011228547 0.78600001 2.130439e-38
0.0052400068 0.011228554 0.78600001 2.1855405e-38
0.0067199944 0.011199981 0.78400004 2.194724e-38
0.0082133301 0.011199996 0.78400004 2.2038717e-38
0.009706676 0.011200011 0.78400004 2.1947239e-38
0.011199998 0.011199988 0.78400004 2.1947239e-38
0.012693345 0.011200003 0.78399998 2.1487703e-38
0.014186666 0.011199988 0.78400004 2.1120362e-38
0.015680002 0.011200003 0.78400004 2.0936691e-38
0.018642867 0.010357134 0.72500002 2.0386037e-38
0.020023815 0.010357127 0.72500002 1.9008863e-38
0.021404777 0.010357134 0.72500002 1.7539855e-38
0.022785725 0.010357134 0.72500002 1.7631692e-38
0.024166686 0.010357127 0.72500002 1.7815004e-38
0.025547633 0.010357141 0.72500002 1.6988844e-38
0.043861914 0.010785699 0.755 8.114939e-39
0.045360014 0.010799982 0.75600004 8.2975436e-39
-0.026299994 0.012774274 0.78900003 1.671298e-38
-0.024765711 0.012758076 0.78800011 1.6621143e-38
-0.023264756 0.012758076 0.78800005 1.7264709e-38
-0.021791426 0.012774259 0.78900003 1.7907199e-38
-0.020288568 0.012774274 0.78900003 1.845857e-38
-0.018785713 0.012774259 0.78900003 1.9009225e-38
-0.017282845 0.012774274 0.78899997 2.0019774e-38
-0.015779998 0.012774274 0.78899997 2.1029604e-38
-0.014313322 0.012806661 0.79100001 2.1580974e-38
-0.01280666 0.012806669 0.79100001 2.2131629e-38
-0.011271428 0.012774274 0.78900003 2.1856481e-38
-0.0097685726 0.012774266 0.78900003 2.1580616e-38
-0.0082657076 0.012774274 0.78900003 2.1489139e-38
-0.0067542824 0.012758091 0.78800005 2.1396586e-38
-0.0052599953 0.012774274 0.78900003 2.0937767e-38
-0.0037428453 0.012725703 0.78599995 2.0478231e-38
-0.0022400084 0.012693323 0.78400004 2.0202725e-38
-0.00074856391 0.012725696 0.78600001 1.9926859e-38
0.00074667414 0.012693331 0.78400004 1.9559159e-38
0.0022342927 0.012660936 0.78200006 1.9191815e-38
0.0037238169 0.012660928 0.78200006 2.0477512e-38
0.0052133519 0.012660943 0.78200006 2.1671732e-38
0.0067028613 0.012660936 0.78200006 2.2314941e-38
0.0081923865 0.012660936 0.78200006 2.2865954e-38
0.0096819205 0.012660928 0.78200001 2.2590806e-38
0.011171445 0.012660943 0.78200006 2.2314581e-38
0.012660969 0.012660943 0.78200006 2.1671732e-38
0.014150479 0.012660936 0.78200006 2.093705e-38
0.015640013 0.01266095 0.78200001 2.0753379e-38
0.018642861 0.011738077 0.72500002 2.0019055e-38
0.020023823 0.011738077 0.72500002 1.8641165e-38
0.021404771 0.011738084 0.72500002 1.7172515e-38
0.022817148 0.011754282 0.72600001 1.7540217e-38
0.024166681 0.011738084 0.72499996 1.7815723e-38
0.025547627 0.011738084 0.72499996 1.7723888e-38
0.026928591 0.011738084 0.72499996 1.7539858e-38
0.042423815 0.012223795 0.75500005 8.5756019e-39
0.043861918 0.01222381 0.755 8.3908295e-39
0.04536001 0.012239978 0.75600004 8.1128217e-39
0.046738114 0.012223803 0.755 7.7426182e-39
0.048176207 0.012223803 0.75500005 7.2845225e-39
0.049482856 0.012191422 0.75300002 7.7505216e-39
-0.026266657 0.01425904 0.78800005 1.6438191e-38
-0.024765711 0.014259025 0.78800005 1.6805533e-38
-0.023264756 0.01425904 0.78800005 1.7723886e-38
-0.021708559 0.014222845 0.78600001 1.8733359e-38
-0.020262854 0.01425904 0.78800005 1.9192896e-38
-0.018666666 0.014186658 0.78400004 1.9652073e-38
-0.017260954 0.01425904 0.78800005 2.0570427e-38
-0.015759993 0.014259025 0.78800005 2.1488064e-38
-0.014259048 0.01425904 0.78800005 2.1396945e-38
-0.01277428 0.01427713 0.78899997 2.1304392e-38
-0.011271425 0.014277138 0.78900003 2.0754095e-38
-0.0097561833 0.014259025 0.78800005 2.0202366e-38
-0.0082552377 0.014259033 0.78800005 1.9376564e-38
-0.0067371391 0.014222845 0.78600001 1.8641162e-38
-0.0052399957 0.01422286 0.78600001 1.8549327e-38
-0.0037333386 0.014186658 0.78400004 1.8457491e-38
-0.0022285543 0.014114276 0.78000003 1.8366015e-38
-0.00073998934 0.014059991 0.77700001 1.8273462e-38
0.00074288098 0.014114283 0.77999997 1.8732998e-38
0.0022285932 0.014114276 0.77999997 1.9283652e-38
0.0037143058 0.014114276 0.78000003 2.0477871e-38
0.0052000186 0.014114276 0.78000003 2.1579897e-38
0.006685731 0.014114276 0.78000003 2.2223104e-38
0.0081714541 0.014114268 0.77999997 2.2774118e-38
0.009657166 0.014114276 0.77999997 2.2223105e-38
0.011142879 0.014114268 0.77999997 2.1763211e-38
0.012660968 0.014150463 0.78200006 2.130439e-38
0.014150478 0.014150456 0.78200006 2.0844856e-38
0.015640013 0.01415047 0.78200001 2.0019054e-38
0.017285718 0.013137132 0.72600001 1.8917389e-38
0.018668575 0.013137139 0.72599995 1.8642243e-38
0.020051438 0.013137132 0.72600001 1.7723529e-38
0.021434298 0.013137132 0.72599995 1.689737e-38
0.022817144 0.013137124 0.72600001 1.6438192e-38
0.024200017 0.013137132 0.72599995 1.5979015e-38
0.025582867 0.013137124 0.72600001 1.570315e-38
0.027374288 0.013336197 0.73700005 1.5428002e-38
0.034906667 0.013535224 0.74800003 1.2660023e-38
0.036331438 0.013535231 0.74800003 1.1458985e-38
0.037756197 0.013535224 0.74800003 1.0717484e-38
0.040877145 0.013625704 0.75300002 9.3146089e-39
0.042423815 0.013661899 0.75500005 8.6649361e-39
0.043861918 0.013661891 0.755 8.4808965e-39
0.045359995 0.013679981 0.7560001 8.2961577e-39
0.046738114 0.013661906 0.755 6.8196236e-39
0.048176207 0.013661891 0.75500005 5.4410233e-39
0.049614307 0.013661899 0.755 4.9825703e-39
0.051052403 0.013661899 0.75500005 4.623468e-39
-0.029598095 0.015159972 0.75800002 1.5060301e-38
-0.028042842 0.015099995 0.75500005 1.5244331e-38
-0.026534285 0.01506 0.75299996 1.5335449e-38
-0.026266668 0.015759975 0.78800011 1.6162686e-38
-0.024765713 0.01575999 0.78800005 1.6897368e-38
-0.023205707 0.015719987 0.78600001 1.8274901e-38
-0.021708569 0.015719987 0.78600001 1.9560598e-38
-0.020211415 0.01571998 0.78600001 1.992794e-38
-0.018666666 0.01568 0.78400004 2.0203446e-38
-0.017217143 0.01571998 0.78600001 2.1121801e-38
-0.015719991 0.015719995 0.78600001 2.1947961e-38
-0.014222858 0.015719973 0.78600001 2.1213635e-38
-0.012725707 0.015719987 0.78600001 2.0478593e-38
-0.011257145 0.015759975 0.78800005 1.9652432e-38
-0.0097314222 0.015719995 0.78600001 1.8733718e-38
-0.0082342885 0.015719973 0.78600001 1.7356544e-38
-0.0067371307 0.015719987 0.78600001 1.5886459e-38
-0.0052399971 0.01571998 0.78600001 1.6161248e-38
-0.0037238006 0.015639983 0.78200006 1.6345637e-38
-0.0022199913 0.015539996 0.77699995 1.6438189e-38
-0.00073807919 0.015500009 0.77499998 1.6529666e-38
0.00074001262 0.015539989 0.77700001 1.7999393e-38
0.002220002 0.015540004 0.77700001 1.9376567e-38
0.0037000019 0.015539989 0.77700001 2.0478951e-38
0.0051800059 0.015539989 0.77700001 2.1488783e-38
0.0063085784 0.014719993 0.73600006 2.213199e-38
0.0077104815 0.014719993 0.73600006 2.2683002e-38
0.0091123851 0.014719985 0.73600006 2.1948318e-38
0.010514288 0.01472 0.73600006 2.112144e-38
0.017285714 0.014519975 0.72600001 1.7540217e-38
0.018720014 0.014560014 0.72799999 1.7172875e-38
0.020106671 0.014559999 0.72800004 1.689737e-38
0.021522855 0.014579989 0.72900009 1.6529668e-38
0.022974292 0.014619984 0.73100001 1.5336165e-38
0.024400009 0.014639996 0.73199999 1.4049393e-38
0.025970487 0.014739998 0.73700005 1.3682051e-38
0.027374299 0.014739998 0.73699999 1.3312557e-38
0.028856203 0.01478 0.73899996 1.3122429e-38
0.030304762 0.01479999 0.74000001 1.2943421e-38
0.031800013 0.014839984 0.74199998 1.2481374e-38
0.033258092 0.014859989 0.74300003 1.2017174e-38
0.034766678 0.014899984 0.74500006 1.2012509e-38
0.036282856 0.014939979 0.74700004 1.1913841e-38
0.037756193 0.014959991 0.74800003 1.0987936e-38
0.039285719 0.014999986 0.75000006 9.9643587e-39
0.040877141 0.01506 0.75299996 9.3988815e-39
0.042423826 0.015099995 0.755 8.7560401e-39
0.043861922 0.015099995 0.75500005 8.6634955e-39
0.04536001 0.015119977 0.75600004 8.4754959e-39
0.046800014 0.015119985 0.75600004 5.9822833e-39
0.048239999 0.015119992 0.75600004 3.500218e-39
-0.032485723 0.016603798 0.75800002 9.6276575e-39
-0.031041915 0.016603783 0.75800002 1.0455253e-38
-0.0295981 0.016603783 0.75800002 1.1293252e-38
-0.028079996 0.016559988 0.75600004 1.1563378e-38
-0.026604746 0.016538098 0.755 1.1752071e-38
-0.024900002 0.016362846 0.74700004 1.2667556e-38
-0.023477141 0.016362838 0.74700004 1.3499456e-38
-0.023205709 0.017217129 0.78600001 1.4508212e-38
-0.021653336 0.017173328 0.78400004 1.5611673e-38
-0.020159995 0.017173335 0.78400004 1.5978297e-38
-0.017690478 0.016275227 0.74300003 1.6438192e-38
-0.017260946 0.017260946 0.78800005 1.6989205e-38
-0.015760003 0.017260924 0.78800005 1.7540218e-38
-0.014222849 0.017217122 0.78600001 1.7448383e-38
-0.011964755 0.016187601 0.73900002 1.7264712e-38
-0.01055713 0.016187608 0.73900002 1.7081041e-38
-0.009731424 0.017217137 0.78600001 1.689737e-38
-0.0082133273 0.017173342 0.78399998 1.6346357e-38
-0.0067199985 0.017173328 0.78400004 1.5703508e-38
-0.0052399882 0.017217129 0.78600001 1.5794985e-38
-0.0037428553 0.017217137 0.78600001 1.5979015e-38
-0.0022142716 0.016976185 0.77500004 1.6254521e-38
-0.00073617825 0.016932368 0.77300006 1.6530028e-38
0.00073810841 0.016976185 0.77500004 1.6989205e-38
0.0022142858 0.016976185 0.77500004 1.7448383e-38
0.0035047673 0.016121894 0.73600006 1.790756e-38
0.0049133394 0.016143814 0.73700005 1.8274902e-38
0.0063085738 0.016121894 0.73600006 1.8366738e-38
0.0077104778 0.016121902 0.73600006 1.8550407e-38
0.0091123814 0.016121887 0.73600006 1.8090511e-38
0.010514284 0.016121894 0.73600006 1.7632052e-38
0.011916202 0.016121894 0.73600006 1.7356189e-38
0.013245722 0.016034275 0.73200005 1.7172876e-38
0.014640016 0.016034268 0.73199999 1.6346357e-38
0.016034296 0.016034275 0.73199999 1.5519837e-38
0.018797142 0.016012371 0.73100001 1.506066e-38
0.020189526 0.016012363 0.73100001 1.4875913e-38
0.021670485 0.016078077 0.73400003 1.4691164e-38
0.023131428 0.016121887 0.73600006 1.4232344e-38
0.024533331 0.016121894 0.73600006 1.3863927e-38
0.026040966 0.016187616 0.73900002 1.3497304e-38
0.027448593 0.016187608 0.73900002 1.3129603e-38
0.028895242 0.016209513 0.74000001 1.2849075e-38
0.030386684 0.016253322 0.74199998 1.2578949e-38
0.031800009 0.016253322 0.74200004 1.2201563e-38
0.033258099 0.016275235 0.74300003 1.1830632e-38
0.034766681 0.016319044 0.74500006 1.2007844e-38
0.036282863 0.016362846 0.74700004 1.2186102e-38
0.037756201 0.016384751 0.74799997 1.0523704e-38
0.039285734 0.01642856 0.75 8.8540511e-39
0.040877149 0.016494274 0.75299996 8.4769098e-39
0.042423829 0.016538084 0.755 8.2053732e-39
0.043861922 0.016538084 0.75500005 8.1132028e-39
0.045359999 0.016559988 0.75600004 8.1131496e-39
0.046800002 0.016559988 0.75600004 5.5244819e-39
0.048240006 0.016559988 0.75600004 3.0338028e-39
-0.03248572 0.018047601 0.75800002 4.3678894e-39
-0.031041909 0.018047608 0.75800002 5.9305459e-39
-0.029598102 0.018047594 0.75800002 7.5028757e-39
-0.028079998 0.017999984 0.75600004 7.8723757e-39
-0.026604744 0.017976187 0.755 8.1521855e-39
-0.025066664 0.017904758 0.75200003 9.1638109e-39
-0.023477141 0.017785706 0.74700004 1.0088264e-38
-0.022054281 0.017785706 0.74700004 1.0830482e-38
-0.020631429 0.017785698 0.74700004 1.156158e-38
-0.019157134 0.017738082 0.74500006 1.2118332e-38
-0.017690483 0.017690465 0.74300003 1.2575002e-38
-0.01625333 0.01766666 0.74200004 1.2856608e-38
-0.01479999 0.017619029 0.74000001 1.3128527e-38
-0.01339047 0.017619036 0.74000001 1.3591292e-38
-0.011964755 0.017595217 0.73900002 1.4047241e-38
-0.010557128 0.017595217 0.73900002 1.4601482e-38
-0.0091247549 0.017547615 0.73700005 1.5058149e-38
-0.0077209398 0.017547622 0.73699999 1.5336166e-38
-0.0063171359 0.017547615 0.73700005 1.5517685e-38
-0.0049133217 0.017547607 0.73699999 1.5519837e-38
-0.0035095147 0.017547622 0.73699999 1.5517685e-38
-0.0021028474 0.01752381 0.73600006 1.607085e-38
-0.00070094434 0.017523818 0.73600006 1.6528952e-38
0.00070096622 0.01752381 0.73600006 1.607085e-38
0.0021028693 0.01752381 0.73600006 1.5518042e-38
0.0035047724 0.017523803 0.73600006 1.5336165e-38
0.0049133492 0.017547615 0.73699999 1.5059941e-38
0.0063085798 0.01752381 0.73600006 1.4693318e-38
0.0076895403 0.017476179 0.73400003 1.4324181e-38
0.0090628657 0.017428569 0.73200005 1.4231268e-38
0.010457146 0.017428562 0.73200005 1.4049033e-38
0.01185144 0.017428569 0.73200005 1.3865363e-38
0.013227612 0.017404735 0.73100007 1.3589498e-38
0.014640014 0.017428555 0.73199999 1.3315068e-38
0.016078118 0.017476179 0.73399997 1.3039203e-38
0.017428577 0.017428562 0.73200005 1.2947367e-38
0.018874289 0.017476164 0.73400003 1.2854097e-38
0.020272397 0.017476171 0.73400003 1.2854456e-38
0.021729531 0.01752381 0.73600006 1.2762261e-38
0.023162859 0.017547622 0.73700005 1.3221796e-38
0.024566675 0.017547615 0.73699999 1.3587705e-38
0.026040966 0.017595224 0.73900002 1.3312916e-38
0.027485717 0.017619036 0.74000001 1.2938035e-38
0.028895246 0.017619036 0.74000001 1.2565665e-38
0.030386681 0.01766666 0.74200004 1.2196532e-38
0.031842854 0.017690465 0.74300003 1.1915287e-38
0.033258103 0.017690472 0.74300003 1.1641577e-38
0.03476667 0.017738082 0.74500012 1.2002465e-38
0.03628286 0.017785698 0.74700004 1.2370135e-38
0.037756197 0.01780951 0.74800003 1.0065964e-38
0.039285723 0.017857127 0.75000006 7.7512937e-39
0.040822864 0.017904758 0.75200003 7.6334991e-39
0.042311423 0.017928563 0.75299996 7.5578192e-39
0.043861907 0.017976172 0.75500005 7.6543294e-39
0.045360006 0.017999977 0.75600004 7.6474869e-39
0.046799991 0.017999977 0.75600004 5.1517589e-39
0.048239999 0.017999977 0.75600004 2.5882557e-39
-0.032485727 0.019491389 0.75800002 5.6406383e-39
-0.031041911 0.019491397 0.75800008 6.6583986e-39
-0.029519996 0.019439988 0.75600004 7.5789171e-39
-0.02808 0.01943998 0.75600004 7.9534436e-39
-0.026604749 0.019414276 0.755 8.4115449e-39
-0.025066664 0.019337133 0.75200003 8.9693724e-39
-0.023571415 0.019285701 0.75000006 9.5218203e-39
-0.022054279 0.019208565 0.74700004 9.618678e-39
-0.020576181 0.019157141 0.74500006 9.7054927e-39
-0.019157132 0.019157127 0.74500006 1.0172205e-38
-0.017690474 0.019105703 0.74300003 1.072394e-38
-0.016253324 0.019079991 0.74199998 1.1004114e-38
-0.014799993 0.019028559 0.74000001 1.1280338e-38
-0.013390474 0.019028559 0.74000001 1.1466518e-38
-0.011964754 0.019002847 0.73900002 1.174095e-38
-0.010528566 0.018951431 0.73700005 1.2202997e-38
-0.0091247521 0.018951431 0.73699999 1.2571416e-38
-0.0077209491 0.018951431 0.73700005 1.2938756e-38
-0.006317134 0.018951416 0.73699999 1.3214982e-38
-0.0049133198 0.018951423 0.73699999 1.321534e-38
-0.0035095152 0.018951423 0.73700005 1.3214982e-38
-0.0021028521 0.018925697 0.73600006 1.3584475e-38
-0.00070094899 0.018925704 0.73600006 1.4045804e-38
0.00070096157 0.018925712 0.73600006 1.3768504e-38
0.0021028656 0.018925704 0.73600006 1.3491922e-38
0.0035095287 0.018951423 0.73699999 1.3585908e-38
0.0049133333 0.018951416 0.73700005 1.3679897e-38
0.006317148 0.018951423 0.73699999 1.3586986e-38
0.0077104783 0.018925704 0.73600006 1.3402597e-38
0.0091123823 0.018925704 0.73600006 1.349479e-38
0.010514285 0.018925704 0.73600006 1.3680974e-38
0.011916203 0.018925704 0.73600006 1.3405469e-38
0.013318107 0.018925712 0.73600006 1.3219286e-38
0.014680017 0.018874273 0.73400003 1.3036692e-38
0.016078107 0.018874273 0.73400003 1.2853379e-38
0.017476214 0.01887428 0.73400003 1.2483526e-38
0.018874304 0.018874265 0.73399997 1.2206944e-38
0.020272397 0.018874273 0.73399997 1.1654496e-38
0.021729527 0.018925712 0.73600006 1.120034e-38
0.02316287 0.018951423 0.73699999 1.1560149e-38
0.024566673 0.018951423 0.73700005 1.2023273e-38
0.026040969 0.019002832 0.73900002 1.2384875e-38
0.027485721 0.019028559 0.74000001 1.2836149e-38
0.02889525 0.019028559 0.74000001 1.3387151e-38
0.030427629 0.019105703 0.74300003 1.402247e-38
0.031842861 0.01910571 0.74300003 1.4030725e-38
0.033347625 0.019157134 0.74500006 1.4032167e-38
0.034860007 0.019208558 0.74700004 1.4031457e-38
0.036282867 0.019208558 0.74700004 1.4032502e-38
0.037756193 0.019234277 0.74800003 1.3559662e-38
0.039285719 0.019285701 0.75 1.3175672e-38
0.040822849 0.01933714 0.75200003 1.353928e-38
0.042311434 0.019362852 0.75299996 1.3900882e-38
0.043861922 0.019414276 0.75500005 1.3447444e-38
0.045479991 0.019491404 0.75800002 1.3068264e-38
0.046923805 0.019491404 0.75800002 1.1326618e-38
0.04836762 0.019491412 0.75800002 9.6739382e-39
-0.03248572 0.020935215 0.75800002 6.9306106e-39
-0.030960003 0.020879976 0.7560001 7.30014e-39
-0.029520001 0.020879969 0.75600004 7.6707274e-39
-0.028042844 0.02085238 0.755 8.1349426e-39
-0.026604749 0.020852372 0.75500005 8.5952074e-39
-0.024999993 0.020714276 0.75 8.7803232e-39
-0.023508573 0.020659037 0.74800003 8.8750299e-39
-0.022054285 0.02063141 0.74700004 8.4162126e-39
-0.020631427 0.02063141 0.74700004 7.8659185e-39
-0.01915713 0.020576179 0.74500006 8.3247372e-39
-0.017690482 0.020520948 0.74300003 8.7892985e-39
-0.016253326 0.020493329 0.74199998 9.0637302e-39
-0.014799987 0.02043809 0.74000001 9.3446177e-39
-0.013372373 0.020410463 0.73900002 9.4364532e-39
-0.011964753 0.020410471 0.73900002 9.439323e-39
-0.010528564 0.02035524 0.73699999 9.8063063e-39
-0.0091247614 0.02035524 0.73700005 1.0084683e-38
-0.0077209459 0.020355232 0.73699999 1.054099e-38
-0.0063171317 0.02035524 0.73699999 1.0912637e-38
-0.0049133273 0.020355232 0.73700005 1.091192e-38
-0.0035095133 0.02035524 0.73699999 1.0823313e-38
-0.0021028456 0.02032762 0.73600006 1.1189578e-38
-0.00070094247 0.02032762 0.73600006 1.1558714e-38
0.00070096808 0.020327628 0.73600006 1.1556562e-38
0.0021028712 0.020327613 0.73600006 1.1467953e-38
0.0035047743 0.020327613 0.73600006 1.1927131e-38
0.0049133422 0.02035524 0.73700005 1.229806e-38
0.0063171573 0.02035524 0.73699999 1.2387745e-38
0.0077104848 0.02032762 0.73600006 1.2481014e-38
0.0091123879 0.020327628 0.73600006 1.2847997e-38
0.010514291 0.020327628 0.73600006 1.321749e-38
0.011916195 0.020327605 0.73600006 1.3039917e-38
0.013318113 0.020327613 0.73600006 1.2849429e-38
0.014680021 0.020272359 0.73400003 1.2759387e-38
0.016121918 0.02032762 0.73600006 1.266109e-38
0.017523823 0.02032762 0.73600006 1.2109716e-38
0.018925726 0.020327628 0.73600006 1.1462563e-38
0.02032763 0.02032762 0.73600006 1.0539903e-38
0.021759065 0.02035524 0.73699999 9.5304298e-39
0.02316287 0.020355232 0.73700005 9.9792041e-39
0.024633344 0.020410463 0.73900002 1.0359822e-38
0.026076199 0.020438083 0.74000001 1.1550818e-38
0.027485726 0.020438083 0.74000001 1.2656786e-38
0.028973347 0.020493336 0.74199998 1.4307311e-38
0.030427611 0.02052094 0.74300003 1.587318e-38
0.031842846 0.020520948 0.74300003 1.6152993e-38
0.033347629 0.020576179 0.74500006 1.6428144e-38
0.03486 0.020631425 0.74700004 1.6059012e-38
0.036331423 0.020659029 0.74800003 1.559371e-38
0.037857164 0.020714268 0.75000006 1.7056236e-38
0.039285731 0.020714268 0.75000006 1.8526581e-38
0.040877137 0.020797126 0.75300002 1.944663e-38
0.042423815 0.02085238 0.75500005 2.0268476e-38
0.043920007 0.020879991 0.75600004 1.9349754e-38
0.045479998 0.020935223 0.75800002 1.8426746e-38
0.046923801 0.020935215 0.75800002 1.7595931e-38
-0.032485723 0.022379018 0.75800008 8.4939384e-39
-0.031041915 0.022379018 0.75800008 8.6776416e-39
-0.029519994 0.022319987 0.75600004 8.8624112e-39
-0.028042836 0.022290476 0.755 8.7745428e-39
-0.026604747 0.022290468 0.75500005 8.595199e-39
-0.025066664 0.022201896 0.75200003 8.4086792e-39
-0.023571411 0.02214285 0.75000006 8.1389152e-39
-0.022142848 0.022142842 0.75000006 7.5836003e-39
-0.020631431 0.022054277 0.74700004 7.1287276e-39
-0.01915714 0.021995232 0.74500012 7.7712173e-39
-0.01769048 0.021936193 0.74300003 8.4223166e-39
-0.016253322 0.021906644 0.74199998 8.6031178e-39
-0.014839999 0.021906644 0.74200004 8.791811e-39
-0.013390471 0.021847606 0.74000001 8.7892999e-39
-0.011964751 0.021818087 0.73900002 8.8857989e-39
-0.010557124 0.021818087 0.73899996 9.1580768e-39
-0.0091495169 0.021818087 0.73900002 9.4396818e-39
-0.0077209366 0.021759048 0.73699999 9.6204829e-39
-0.0063171401 0.021759048 0.73700005 9.7169819e-39
-0.004913325 0.021759048 0.73699999 9.8988592e-39
-0.0035095217 0.021759048 0.73700005 9.9967932e-39
-0.0021028502 0.021729514 0.73600006 9.8063063e-39
-0.00070190267 0.021759033 0.73700005 9.6265813e-39
0.00070096343 0.021729514 0.73600006 1.0083248e-38
0.0021057336 0.021759048 0.73699999 1.0549241e-38
0.0035095371 0.021759056 0.73700005 1.0822236e-38
0.0049133515 0.021759056 0.73699999 1.1196753e-38
0.0063171559 0.021759048 0.73700005 1.1097025e-38
0.0077104801 0.021729514 0.73600006 1.1010212e-38
0.0091247745 0.021759033 0.73700005 1.1555484e-38
0.010528574 0.021759048 0.73699999 1.2015378e-38
0.011932378 0.021759041 0.73700005 1.201394e-38
0.013318108 0.021729521 0.73600006 1.2011069e-38
0.014720012 0.021729521 0.73600006 1.2102901e-38
0.016121915 0.021729514 0.73600006 1.2279391e-38
0.017547626 0.021759048 0.73699999 1.3111643e-38
0.018951429 0.021759041 0.73700005 1.3932424e-38
0.020355245 0.021759048 0.73699999 1.4122911e-38
0.021759048 0.021759041 0.73700005 1.4300125e-38
0.023162862 0.021759048 0.73699999 1.4860106e-38
0.024633346 0.021818087 0.73900002 1.5416507e-38
0.026076203 0.021847613 0.74000001 1.6061513e-38
0.027485715 0.021847606 0.74000001 1.6707596e-38
0.028973343 0.021906659 0.74199998 1.7350449e-38
0.030386681 0.021906652 0.74200004 1.7999396e-38
0.031842854 0.021936186 0.74300003 1.7813214e-38
0.033258095 0.021936178 0.74300003 1.7632054e-38
0.034859996 0.02205427 0.74700004 1.6977724e-38
0.03633143 0.022083804 0.74799997 1.6329475e-38
0.03785716 0.022142842 0.75000006 1.862857e-38
0.039285731 0.022142828 0.75000006 2.0938038e-38
0.040877149 0.022231422 0.75300002 2.1391781e-38
0.042423822 0.022290468 0.75500005 2.1856321e-38
0.043919995 0.022319987 0.75600004 2.1390308e-38
0.045600023 0.022438087 0.76000005 2.0937609e-38
0.047109529 0.022467613 0.76100004 2.0469124e-38
0.048559051 0.022467621 0.76100004 2.0109217e-38
-0.034063809 0.023917131 0.76100004 9.7817485e-39
-0.03257142 0.023885705 0.75999999 1.0056917e-38
-0.031041916 0.023822844 0.75800002 1.0054427e-38
-0.029519992 0.023759983 0.75600004 1.0056943e-38
-0.028079996 0.023759983 0.75600004 9.321188e-39
-0.026604753 0.023728572 0.75500005 8.5890361e-39
-0.025100002 0.023665711 0.75300002 8.0280011e-39
-0.023634279 0.023634285 0.75200003 7.3912623e-39
-0.022142848 0.023571409 0.75000006 6.8334432e-39
-0.020659046 0.023508564 0.74800003 6.2903251e-39
-0.019208573 0.02347713 0.74700004 7.1172075e-39
-0.017690478 0.023351431 0.74300003 7.9494737e-39
-0.016275236 0.023351431 0.74300003 8.0427511e-39
-0.014839986 0.023319997 0.74199998 8.1345852e-39
-0.013444757 0.023351423 0.74300003 8.2264207e-39
-0.011980955 0.023257121 0.74000001 8.2285731e-39
-0.010557124 0.023225695 0.73899996 8.5001336e-39
-0.0091495151 0.02322571 0.73900002 8.7828161e-39
-0.007741889 0.02322571 0.73899996 8.6920596e-39
-0.0063342806 0.023225702 0.73900002 8.5098291e-39
-0.0049266545 0.02322571 0.73900002 8.8782529e-39
-0.0035095124 0.023162849 0.73699999 9.1516042e-39
-0.002102854 0.023131423 0.73600006 8.4115379e-39
-0.00070189429 0.023162857 0.73699999 7.5907609e-39
0.00070095924 0.023131415 0.73600006 8.6005954e-39
0.0021057178 0.023162857 0.73700005 9.5272012e-39
0.003509532 0.023162864 0.73699999 9.7994791e-39
0.0049133357 0.023162857 0.73700005 9.9867375e-39
0.0063171503 0.023162857 0.73699999 9.7930234e-39
0.0077104867 0.02313143 0.73600006 9.5297152e-39
0.0091247689 0.023162857 0.73699999 1.0164674e-38
0.010528574 0.023162857 0.73700005 1.0815415e-38
0.011932387 0.023162857 0.73700005 1.098904e-38
0.013336202 0.023162849 0.73699999 1.109128e-38
0.014720017 0.023131423 0.73600006 1.1545435e-38
0.016143821 0.023162857 0.73699999 1.1921025e-38
0.017547624 0.023162857 0.73700005 1.4125075e-38
0.01895144 0.023162857 0.73699999 1.6334149e-38
0.020355243 0.023162857 0.73700005 1.7718856e-38
0.021759057 0.023162857 0.73699999 1.9093518e-38
0.023162872 0.023162849 0.73699999 1.97439e-38
0.024633346 0.023225695 0.73900002 2.038424e-38
0.026076196 0.023257121 0.74000001 2.0570785e-38
0.027560014 0.023319982 0.74199998 2.0661186e-38
0.028973339 0.023319989 0.74200004 2.0387116e-38
0.030427622 0.023351423 0.74300003 2.0019415e-38
0.031928573 0.023414269 0.74500012 1.9468761e-38
0.033481911 0.023508564 0.74799997 1.8820168e-38
0.03490667 0.023508564 0.74800003 1.7982165e-38
0.036428582 0.023571402 0.75000006 1.7067025e-38
0.037857149 0.023571417 0.75000006 2.0190854e-38
0.039442863 0.023665711 0.75299996 2.3322552e-38
0.040877145 0.023665719 0.75300002 2.3417579e-38
0.042423818 0.023728557 0.75500005 2.3417575e-38
0.043920003 0.023759976 0.7560001 2.3417572e-38
0.045660008 0.023917131 0.76100004 2.3417589e-38
0.047109529 0.023917139 0.76100004 2.3417606e-38
0.048686672 0.023979984 0.76300001 2.3417198e-38
0.050402876 0.024105713 0.76699996 2.3417509e-38
-0.034153339 0.025433317 0.76300001 1.0704043e-38
-0.032571416 0.025333337 0.75999999 1.1529496e-38
-0.031041911 0.025266647 0.75800002 1.1713894e-38
-0.029519998 0.025199987 0.75600004 1.1897911e-38
-0.02808 0.02519998 0.75600004 1.1901844e-38
-0.026604751 0.025166661 0.75500005 1.1900791e-38
-0.0251 0.0251 0.75300002 1.05179e-38
-0.023665713 0.025099985 0.75300002 9.1360806e-39
-0.022201903 0.025066659 0.75200003 8.8613098e-39
-0.020714276 0.024999991 0.75000006 8.6740585e-39
-0.019208571 0.024899982 0.74700004 9.3208586e-39
-0.01769047 0.024766669 0.74300003 1.0052687e-38
-0.016275244 0.024766661 0.74300003 9.9655288e-39
-0.014860008 0.024766646 0.74300003 9.8654425e-39
-0.013426663 0.024733305 0.74200004 1.0335022e-38
-0.01198095 0.024666652 0.74000001 1.0699853e-38
-0.010557132 0.024633326 0.73900002 1.0890338e-38
-0.0091495141 0.024633333 0.73900002 1.1070426e-38
-0.0077418885 0.024633318 0.73899996 1.1075811e-38
-0.0063342792 0.024633311 0.73900002 1.1068289e-38
-0.0049266531 0.024633326 0.73900002 1.1350981e-38
-0.0035095217 0.024566658 0.73700005 1.1615364e-38
-0.0021028493 0.024533331 0.73600006 1.1626122e-38
-0.00070189242 0.024566665 0.73699999 1.1530705e-38
0.00070096483 0.024533331 0.73600006 1.2922592e-38
0.0021057266 0.024566658 0.73699999 1.4393395e-38
0.0035047724 0.024533324 0.73600006 1.4490612e-38
0.0049133459 0.024566665 0.73699999 1.4668186e-38
0.0063171489 0.024566658 0.73700005 1.4583883e-38
0.007710482 0.024533324 0.73600006 1.4589629e-38
0.0091247782 0.024566665 0.73699999 1.4864782e-38
0.010528583 0.024566673 0.73700005 1.5235713e-38
0.011932397 0.024566665 0.73699999 1.5600185e-38
0.0133362 0.024566658 0.73700005 1.5972912e-38
0.014740014 0.024566665 0.73699999 1.6062957e-38
0.016143819 0.024566658 0.73700005 1.6254521e-38
0.017547633 0.024566665 0.73699999 1.7352242e-38
0.018951438 0.024566665 0.73700005 1.8458573e-38
0.020355253 0.024566673 0.73700005 1.9008151e-38
0.021759069 0.024566665 0.73699999 1.9652435e-38
0.023225719 0.024633326 0.73900002 1.9927582e-38
0.024666674 0.024666652 0.74000007 2.0203448e-38
0.026076199 0.024666652 0.74000001 2.020273e-38
0.027560012 0.02473332 0.74200004 2.029528e-38
0.028973347 0.024733327 0.74199998 2.0293484e-38
0.030509531 0.024833322 0.74500006 2.0293843e-38
0.032014292 0.024899989 0.74700004 2.047536e-38
0.033481907 0.024933323 0.74800003 2.0747989e-38
0.034906667 0.024933316 0.74800003 2.0286653e-38
0.036428582 0.024999991 0.75000006 1.9826751e-38
0.037958097 0.025066659 0.75200003 2.1297905e-38
0.039442871 0.0251 0.75299996 2.2866622e-38
0.04098573 0.025166661 0.75500005 2.2865885e-38
0.042480014 0.025199994 0.75600004 2.2866614e-38
0.043920014 0.025199987 0.75600004 2.3141055e-38
0.045600019 0.025333337 0.75999999 2.3325817e-38
0.047109533 0.025366664 0.76100004 2.3417665e-38
0.048686665 0.025433309 0.76300001 2.3417668e-38
0.05027144 0.025499977 0.76500005 2.3417669e-38
0.051728591 0.025499977 0.76500005 2.3417662e-38
0.053185724 0.025499992 0.76500005 2.3417654e-38
-0.034153339 0.026886657 0.76300001 1.162853e-38
-0.032571409 0.026780955 0.75999999 1.3004274e-38
-0.031041913 0.026710458 0.75800002 1.3373774e-38
-0.02951999 0.026639983 0.75600004 1.3743613e-38
-0.028079996 0.026639983 0.75600004 1.4487251e-38
-0.026604747 0.026604757 0.755 1.5214084e-38
-0.025099996 0.026534274 0.75300002 1.3006487e-38
-0.023665709 0.026534274 0.75300002 1.079814e-38
-0.022201905 0.026499033 0.75200003 1.0892856e-38
-0.020714279 0.02642855 0.75000006 1.0981102e-38
-0.019234281 0.02635809 0.74799997 1.1530675e-38
-0.017738085 0.026252374 0.74500006 1.208529e-38
-0.016275235 0.026181906 0.74300003 1.1900914e-38
-0.014859999 0.026181899 0.74300003 1.1627203e-38
-0.013426658 0.026146665 0.74199998 1.2456593e-38
-0.011980953 0.026076168 0.74000001 1.3194865e-38
-0.010557132 0.026040934 0.73900002 1.3291364e-38
-0.0091495123 0.026040941 0.73900002 1.3382124e-38
-0.0077418871 0.026040949 0.73899996 1.3563646e-38
-0.0063342778 0.026040941 0.73900002 1.3659074e-38
-0.0049266517 0.026040949 0.73900002 1.3933869e-38
-0.0035190328 0.026040934 0.73899996 1.4118254e-38
-0.0021057047 0.025970481 0.73699999 1.4855089e-38
-0.0007019008 0.025970474 0.73700005 1.5502604e-38
0.00070192083 0.025970466 0.73699999 1.7349003e-38
0.0021057252 0.025970459 0.73700005 1.9185354e-38
0.0035047673 0.025935233 0.73600006 1.9285081e-38
0.0049133445 0.025970474 0.73700005 1.9278983e-38
0.0063171592 0.025970474 0.73700005 1.9468754e-38
0.007720958 0.025970481 0.73699999 1.9649558e-38
0.0091247773 0.025970474 0.73700005 1.965243e-38
0.010528577 0.025970474 0.73699999 1.9558443e-38
0.011932381 0.025970466 0.73700005 2.0203443e-38
0.013336196 0.025970481 0.73699999 2.0753023e-38
0.01474 0.025970474 0.73700005 2.0662625e-38
0.016143814 0.025970474 0.73699999 2.0570788e-38
0.017547617 0.025970474 0.73700005 2.0570787e-38
0.018951433 0.025970481 0.73700005 2.0478593e-38
0.020410495 0.026040941 0.73899996 2.0386757e-38
0.021818111 0.026040941 0.73900002 2.0202369e-38
0.023257138 0.026076175 0.74000001 2.0109816e-38
0.024666665 0.02607616 0.74000007 1.9926503e-38
0.026146667 0.026146658 0.74199998 1.9925429e-38
0.027560018 0.026146673 0.74199998 1.9833592e-38
0.028973341 0.02614665 0.74199998 2.0197346e-38
0.030509533 0.026252374 0.74500006 2.0475723e-38
0.032014288 0.026322849 0.74700004 2.1574879e-38
0.033481903 0.02635809 0.74800003 2.2587576e-38
0.034906674 0.026358075 0.74799997 2.2589726e-38
0.036428586 0.026428543 0.75000006 2.2494645e-38
0.037958093 0.026499033 0.75200003 2.2490683e-38
0.039442856 0.026534274 0.75300002 2.2404219e-38
0.040985733 0.026604749 0.75500005 2.2404211e-38
0.042480003 0.026639983 0.75600004 2.2312737e-38
0.044036191 0.026710451 0.75800002 2.2769765e-38
0.045660011 0.026816182 0.76100004 2.3231101e-38
0.047109533 0.026816182 0.76100004 2.3325098e-38
0.048686668 0.026886649 0.76300001 2.3417652e-38
0.050402865 0.027027629 0.76699996 2.3417655e-38
0.051728588 0.026957124 0.76500005 2.3417654e-38
-0.034242857 0.028414264 0.76500005 1.1440587e-38
-0.032571416 0.028228574 0.75999999 1.2179219e-38
-0.031041903 0.028154269 0.75800002 1.2363609e-38
-0.029519999 0.028079987 0.75600004 1.2552645e-38
-0.028079998 0.028079987 0.75600004 1.3012525e-38
-0.026604747 0.02804286 0.755 1.3564315e-38
-0.025099998 0.027968571 0.75299996 1.2365491e-38
-0.023665709 0.027968563 0.75300002 1.1167329e-38
-0.022201898 0.027931429 0.75200003 1.1446784e-38
-0.020714274 0.027857132 0.75000006 1.1816624e-38
-0.019234285 0.027782843 0.74800003 1.218467e-38
-0.017738087 0.027671412 0.74500006 1.246844e-38
-0.016319038 0.027671412 0.74500006 1.2281194e-38
-0.014860007 0.027597129 0.74300003 1.2194385e-38
-0.013426661 0.027559981 0.74199998 1.2743248e-38
-0.012013329 0.027559981 0.74200004 1.3301436e-38
-0.010571429 0.027485684 0.74000001 1.440418e-38
-0.0091495104 0.027448572 0.73899996 1.551051e-38
-0.007741896 0.027448565 0.73900002 1.6153359e-38
-0.0063342773 0.027448557 0.73900002 1.6713699e-38
-0.0049266499 0.027448565 0.73899996 1.679836e-38
-0.0035190417 0.027448565 0.73900002 1.6987053e-38
-0.0021057057 0.02737429 0.73700005 1.7350449e-38
-0.00070189801 0.027374282 0.73699999 1.7815725e-38
0.00070190546 0.027374275 0.73700005 1.8824122e-38
0.0021057201 0.027374282 0.73699999 1.9836106e-38
0.0035047738 0.027337134 0.73600006 1.9927941e-38
0.0049133389 0.027374282 0.73699999 2.0019777e-38
0.0063171536 0.027374297 0.73699999 2.0019777e-38
0.007720958 0.027374275 0.73700005 2.0111612e-38
0.0091247717 0.027374282 0.73699999 2.0111253e-38
0.010528576 0.027374282 0.73700005 2.0203448e-38
0.011932391 0.027374282 0.73699999 2.0478595e-38
0.013336195 0.027374282 0.73700005 2.0754461e-38
0.014740009 0.027374282 0.73699999 2.0845579e-38
0.016187642 0.027448565 0.73899996 2.1029247e-38
0.017547628 0.027374282 0.73700005 2.112108e-38
0.019002868 0.027448557 0.73900002 2.1304392e-38
0.020410495 0.027448565 0.73899996 2.1488061e-38
0.02184763 0.027485698 0.74000001 2.1671016e-38
0.023257142 0.027485691 0.74000001 2.1671734e-38
0.024666669 0.027485684 0.74000007 2.1671735e-38
0.026146689 0.027559996 0.74199998 2.1671735e-38
0.027560014 0.027559996 0.74199998 2.1671737e-38
0.029012391 0.027597137 0.74300003 2.1762856e-38
0.030509535 0.027671419 0.74500006 2.1948322e-38
0.032014281 0.027745709 0.74700004 2.24979e-38
0.0334819 0.02778285 0.74800003 2.3050348e-38
0.035000015 0.027857125 0.75000006 2.2682647e-38
0.036428582 0.027857125 0.75000006 2.2407474e-38
0.0379581 0.027931422 0.75200003 2.2586815e-38
0.039442867 0.027968563 0.75300002 2.2682241e-38
0.040985715 0.028042845 0.75500005 2.2773002e-38
0.042480007 0.028079987 0.7560001 2.2862679e-38
0.044036187 0.028154269 0.75800008 2.3046343e-38
0.045660015 0.028265707 0.76100004 2.3320059e-38
0.047233328 0.028339975 0.76300001 2.3415842e-38
0.048686661 0.028339982 0.76300001 2.3417638e-38
0.050468579 0.028525718 0.76800001 2.3325447e-38
0.051863831 0.028488576 0.76699996 2.3233974e-38
-0.034242846 0.029871412 0.76500005 1.1251509e-38
-0.03257142 0.029676184 0.76000005 1.1257613e-38
-0.031041915 0.029598072 0.75800008 1.125726e-38
-0.029519996 0.029519983 0.75600004 1.1262299e-38
-0.028079996 0.029519983 0.75600004 1.162894e-38
-0.026604746 0.029480942 0.755 1.190807e-38
-0.025099995 0.029402867 0.75299996 1.1723e-38
-0.023665713 0.029402852 0.75300002 1.145001e-38
-0.022201909 0.029363804 0.75200003 1.2093581e-38
-0.020714277 0.029285692 0.75000006 1.2647098e-38
-0.019285699 0.029285692 0.75000006 1.2739284e-38
-0.017785715 0.029168554 0.74700004 1.2836506e-38
-0.016319036 0.029090464 0.74500006 1.2744319e-38
-0.014899991 0.029090472 0.74500006 1.265392e-38
-0.01344477 0.029012367 0.74300003 1.3020906e-38
-0.012013324 0.028973326 0.74199998 1.3303228e-38
-0.010571431 0.028895214 0.74000001 1.5512663e-38
-0.0091618933 0.028895229 0.74000001 1.762703e-38
-0.0077418946 0.028856181 0.73900002 1.873372e-38
-0.0063342755 0.028856181 0.73900002 1.9742474e-38
-0.0049266494 0.028856196 0.73899996 1.9742474e-38
-0.0035190403 0.028856188 0.73900002 1.9743191e-38
-0.0021057038 0.028778091 0.73699999 1.992794e-38
-0.00070189987 0.028778084 0.73700005 2.0019415e-38
0.00070191524 0.028778099 0.73699999 2.0203085e-38
0.002105729 0.028778106 0.73699999 2.0386397e-38
0.0035095334 0.028778099 0.73700005 2.0570428e-38
0.0049133478 0.028778091 0.73699999 2.0662264e-38
0.0063171526 0.028778084 0.73700005 2.0570069e-38
0.0077209668 0.028778091 0.73699999 2.0477875e-38
0.0091247717 0.028778091 0.73700005 2.0661187e-38
0.010557163 0.028856188 0.73900002 2.0753382e-38
0.011964774 0.028856188 0.73899996 2.0753023e-38
0.01337239 0.028856181 0.73900002 2.0661187e-38
0.014780017 0.028856173 0.73899996 2.111929e-38
0.016187644 0.028856181 0.73899996 2.1487707e-38
0.017619042 0.028895214 0.74000007 2.1763213e-38
0.01902858 0.028895229 0.74000001 2.2039079e-38
0.020438107 0.028895229 0.74000001 2.2589733e-38
0.021847619 0.028895214 0.74000001 2.3141463e-38
0.023257148 0.028895207 0.74000001 2.3325852e-38
0.024733348 0.028973334 0.74199998 2.3417328e-38
0.026146688 0.028973326 0.74199998 2.3417689e-38
0.027597142 0.029012382 0.74300003 2.341733e-38
0.029090479 0.029090457 0.74500012 2.341769e-38
0.030591434 0.029168561 0.74700004 2.341769e-38
0.032057151 0.029207602 0.74799997 2.341769e-38
0.0334819 0.029207602 0.74800003 2.3417689e-38
0.035000015 0.029285714 0.75 2.2866676e-38
0.036428574 0.029285699 0.75000006 2.2312056e-38
0.037958093 0.029363804 0.75200003 2.2674716e-38
0.03944286 0.029402852 0.75300002 2.2954889e-38
0.04098573 0.029480949 0.755 2.314215e-38
0.042480007 0.02951999 0.75600004 2.3322587e-38
0.044036184 0.029598072 0.75800002 2.341585e-38
0.045660004 0.029715218 0.76100004 2.3415135e-38
0.047233336 0.029793315 0.76300001 2.3416932e-38
0.048814304 0.029871412 0.76500005 2.341693e-38
0.050468571 0.029988572 0.76800001 2.3232182e-38
0.051863808 0.029949524 0.76700002 2.3048515e-38
-0.031041911 0.031041883 0.75800002 1.4016969e-38
-0.029598102 0.031041883 0.75800002 1.3925901e-38
-0.028080003 0.030959979 0.75600004 1.4202891e-38
-0.026639998 0.030959979 0.75600004 1.4480922e-38
-0.025099991 0.030837141 0.75299996 1.4482727e-38
-0.023665706 0.030837141 0.75299996 1.4488833e-38
-0.022201903 0.030796178 0.75200003 1.4945865e-38
-0.020714272 0.030714281 0.75000006 1.5408629e-38
-0.019285703 0.030714281 0.75 1.5499744e-38
-0.017785713 0.030591413 0.74700004 1.5598037e-38
-0.016362863 0.030591398 0.74700004 1.541006e-38
-0.014899988 0.030509509 0.74500006 1.5134913e-38
-0.013480941 0.030509517 0.74500006 1.5595167e-38
-0.012029517 0.03042762 0.74300003 1.5968969e-38
-0.010599995 0.030386657 0.74199998 1.7256461e-38
-0.0091618951 0.030304745 0.74000001 1.8638297e-38
-0.0077418932 0.030263796 0.73900002 1.9371902e-38
-0.0063428571 0.030304745 0.74000001 2.0106943e-38
-0.0049333298 0.030304752 0.74000001 2.0384242e-38
-0.0035190398 0.030263796 0.73900002 2.0754456e-38
-0.0021057122 0.0301819 0.73700005 2.0845576e-38
-0.00070189708 0.0301819 0.73699999 2.0936691e-38
0.00070192409 0.030181907 0.73699999 2.1120359e-38
0.0021057285 0.030181907 0.73700005 2.1303673e-38
0.0035095422 0.030181907 0.73699999 2.1488061e-38
0.0049133324 0.0301819 0.73700005 2.1671734e-38
0.0063171471 0.030181907 0.73699999 2.1671375e-38
0.007720951 0.0301819 0.73700005 2.1762852e-38
0.0091495374 0.030263789 0.73900002 2.1855405e-38
0.010557164 0.030263796 0.73899996 2.2038717e-38
0.011964765 0.030263789 0.73900002 2.2039076e-38
0.013372391 0.030263804 0.73900002 2.2038718e-38
0.014800008 0.030304745 0.74000001 2.2222748e-38
0.016209519 0.030304745 0.74000001 2.2498615e-38
0.017619057 0.030304752 0.74000001 2.2590452e-38
0.019028584 0.030304752 0.74000001 2.2774124e-38
0.020438096 0.030304737 0.74000001 2.3049989e-38
0.021847624 0.030304737 0.74000001 2.3325854e-38
0.023320019 0.030386657 0.74199998 2.3325854e-38
0.024733344 0.030386671 0.74199998 2.341769e-38
0.026146682 0.030386664 0.74200004 2.341769e-38
0.027597152 0.030427627 0.74300003 2.341769e-38
0.029168582 0.030591428 0.74700004 2.3417331e-38
0.030591441 0.030591413 0.74700004 2.341769e-38
0.032057151 0.030632369 0.74799997 2.341769e-38
0.033481911 0.030632362 0.74800003 2.3417689e-38
0.035000019 0.030714266 0.75000006 2.2772685e-38
0.036428589 0.030714273 0.75 2.2033325e-38
0.037958097 0.030796185 0.75199997 2.1848924e-38
0.039442871 0.030837141 0.75300002 2.1666692e-38
0.040985733 0.030919038 0.755 2.1205725e-38
0.042592376 0.031041883 0.75800008 2.0747618e-38
0.044036187 0.03104189 0.75800002 2.0839447e-38
0.045660004 0.031164758 0.76100004 2.1028503e-38
0.047233336 0.031246655 0.76300001 2.1669202e-38
-0.031041922 0.032485686 0.75800008 1.6777056e-38
-0.029598096 0.032485709 0.75800002 1.659377e-38
-0.028079996 0.032399982 0.75600004 1.6774955e-38
-0.026639996 0.03239999 0.75600004 1.6963313e-38
-0.025166646 0.032357134 0.755 1.7237768e-38
-0.023665711 0.032271422 0.75299996 1.7517939e-38
-0.022201899 0.032228559 0.75200003 1.7792012e-38
-0.020714281 0.032142833 0.75000006 1.8072892e-38
-0.019285699 0.03214284 0.75000006 1.8253328e-38
-0.017809523 0.032057136 0.74800003 1.8350201e-38
-0.016362863 0.032014266 0.74700004 1.7978928e-38
-0.014940001 0.032014273 0.74700004 1.7615175e-38
-0.013480943 0.031928562 0.74500006 1.8163678e-38
-0.012061896 0.031928562 0.74500006 1.863147e-38
-0.010614282 0.03184285 0.74300003 1.9089575e-38
-0.0091866562 0.031800002 0.74199998 1.9553059e-38
-0.0077523715 0.031714268 0.74000001 2.0007934e-38
-0.0063342727 0.03167142 0.73899996 2.0381733e-38
-0.0049333321 0.031714253 0.74000001 2.1116776e-38
-0.003519038 0.03167142 0.73900002 2.1762853e-38
-0.0021057103 0.031585716 0.73699999 2.185469e-38
-0.00070189522 0.031585723 0.73699999 2.1854329e-38
0.00070190872 0.031585701 0.73700005 2.2037279e-38
0.0021057234 0.031585716 0.73699999 2.2222028e-38
0.0035095278 0.031585708 0.73700005 2.2406059e-38
0.0049133413 0.031585708 0.73699999 2.2589731e-38
0.0063171457 0.031585716 0.73700005 2.2772328e-38
0.0077209603 0.031585716 0.73699999 2.2957434e-38
0.0091495384 0.031671412 0.73900002 2.3141822e-38
0.010528579 0.031585708 0.73700005 2.3325493e-38
0.011964766 0.031671427 0.73900002 2.3417687e-38
0.013372393 0.031671412 0.73900002 2.3417328e-38
0.014799997 0.031714268 0.74000001 2.3417689e-38
0.016209526 0.031714261 0.74000001 2.3417689e-38
0.017619062 0.031714283 0.74000001 2.341769e-38
0.019028574 0.031714268 0.74000001 2.341769e-38
0.020438103 0.031714261 0.74000001 2.341769e-38
0.02184763 0.031714268 0.74000001 2.341769e-38
0.023320016 0.031799987 0.74199998 2.341769e-38
0.02473334 0.03179998 0.74199998 2.341769e-38
0.026146678 0.031799987 0.74200004 2.341769e-38
0.02759715 0.031842843 0.74300003 2.3325496e-38
0.029168576 0.032014281 0.74700004 2.332442e-38
0.030591436 0.032014281 0.74700004 2.3325496e-38
0.032057147 0.032057129 0.74800003 2.341769e-38
0.033481903 0.032057144 0.74799997 2.341733e-38
0.035000008 0.03214284 0.75000006 2.2589017e-38
0.036428589 0.032142833 0.75000006 2.1759257e-38
0.037958093 0.032228574 0.75200003 2.1021335e-38
0.039442867 0.03227143 0.75299996 2.0284132e-38
0.041039996 0.032399975 0.75600004 1.9174565e-38
0.042704776 0.032571435 0.75999999 1.8075411e-38
0.044152405 0.03257142 0.75999999 1.8349123e-38
0.045660008 0.032614283 0.76100004 1.8537101e-38
0.047233332 0.032699995 0.76300001 1.9915711e-38
-0.031041909 0.033929497 0.75800002 1.7608597e-38
-0.029598098 0.033929497 0.75800002 1.7886259e-38
-0.028154297 0.033929504 0.75800002 1.8255755e-38
-0.026639992 0.033839986 0.75600004 1.8716762e-38
-0.025166655 0.033795238 0.755 1.8623886e-38
-0.023728563 0.03379523 0.75500005 1.8624958e-38
-0.022231428 0.033705711 0.75299996 1.8994088e-38
-0.020769523 0.033660941 0.75200003 1.9367517e-38
-0.019285711 0.033571415 0.75000006 1.9639424e-38
-0.017809525 0.033481888 0.74800003 1.9917113e-38
-0.016384762 0.033481903 0.74799997 2.0193368e-38
-0.014940001 0.033437118 0.74700004 2.0561072e-38
-0.013480941 0.033347599 0.74500006 2.0746539e-38
-0.012061892 0.033347599 0.74500006 2.1027434e-38
-0.010614282 0.033258103 0.74300003 2.1301152e-38
-0.0091990549 0.033258095 0.74300003 2.1486263e-38
-0.0077523747 0.033123806 0.74000001 2.1669223e-38
-0.0063428548 0.033123784 0.74000001 2.1947961e-38
-0.0049333349 0.033123784 0.74000001 2.2222392e-38
-0.0035238082 0.033123784 0.74000007 2.2590809e-38
-0.002105701 0.032989517 0.73699999 2.2589731e-38
-0.00070189708 0.032989517 0.73700005 2.267977e-38
0.00070191757 0.032989524 0.73699999 2.2773038e-38
0.002105722 0.032989524 0.73700005 2.2865235e-38
0.0035095366 0.032989532 0.73699999 2.2957431e-38
0.0049133413 0.032989524 0.73700005 2.304891e-38
0.0063171545 0.032989524 0.73699999 2.3141107e-38
0.0077209692 0.032989517 0.73699999 2.3234019e-38
0.0091247736 0.032989517 0.73700005 2.3325853e-38
0.010528589 0.032989532 0.73699999 2.341769e-38
0.011964768 0.033079036 0.73900002 2.341769e-38
0.013372393 0.033079036 0.73899996 2.341769e-38
0.014800003 0.033123791 0.74000001 2.341769e-38
0.01620953 0.033123791 0.74000001 2.341769e-38
