# .PCD v0.7 - Point Cloud Data file format
VERSION 0.7
FIELDS x y z rgb
SIZE 4 4 4 4
TYPE F F F F
COUNT 1 1 1 1
WIDTH 969
HEIGHT 1
VIEWPOINT 0 0 0 1 0 0 0
POINTS 969
DATA ascii
-0.0037857248 0.0068142787 0.79500008 2.2498253e-38
-0.0022714394 0.0068142936 0.79500008 2.1763569e-38
-0.0007571397 0.0068142861 0.79500008 2.0937048e-38
0.00075903483 0.0068314299 0.79700011 2.1855403e-38
0.0022799799 0.0068399906 0.7980001 2.2681923e-38
0.0037952187 0.0068314075 0.79700011 2.1672092e-38
0.0053199753 0.0068399906 0.7980001 2.0661542e-38
0.0068399739 0.0068399832 0.79800016 2.1764285e-38
0.0083809365 0.0068571344 0.80000007 2.2774118e-38
0.0098799802 0.0068399906 0.7980001 2.2407135e-38
0.011399977 0.0068399832 0.79800016 2.2039076e-38
0.012725703 0.0067371503 0.78600001 2.2039434e-38
0.014222834 0.0067371354 0.78600007 2.2039434e-38
0.015719991 0.0067371354 0.78600007 2.112108e-38
0.017655229 0.0069085583 0.80600017 2.0202366e-38
0.019095229 0.0068742856 0.80200011 1.9926859e-38
0.020622836 0.0068742707 0.80200016 1.9651712e-38
0.022150468 0.0068742707 0.80200011 1.9192535e-38
0.023530463 0.0068314224 0.79700011 1.8733358e-38
0.024922857 0.0067971572 0.7930001 1.845857e-38
0.026433321 0.0067971423 0.7930001 1.809087e-38
0.027943809 0.0067971498 0.7930001 1.7907559e-38
0.029379984 0.0067799911 0.79100007 1.7632052e-38
0.030808564 0.0067628548 0.78900009 1.7448383e-38
0.032311417 0.0067628548 0.78900009 1.7264712e-38
0.033814274 0.0067628548 0.78900015 1.7264712e-38
0.035317138 0.0067628548 0.78900009 1.7264712e-38
0.036819987 0.0067628622 0.78900009 1.7356547e-38
0.038322844 0.0067628473 0.78900015 1.7442927e-38
-0.018380957 0.0080876201 0.77200007 2.2039074e-38
-0.01691048 0.0080876201 0.77200007 2.1120719e-38
-0.0066171531 0.0080876201 0.77200007 2.0752661e-38
-0.0051466688 0.0080876201 0.77200007 2.1671734e-38
-0.0037857131 0.0083285794 0.79500008 2.2682283e-38
-0.0022657311 0.0083076134 0.7930001 2.2039076e-38
-0.00075524329 0.0083076283 0.7930001 2.1487345e-38
0.00075521955 0.0083076209 0.7930001 2.1763568e-38
0.0022657076 0.0083076209 0.7930001 2.2131269e-38
0.0037666552 0.0082866549 0.79100007 2.1396226e-38
0.0053133192 0.0083495229 0.79700011 2.075266e-38
0.0068314057 0.008349508 0.79700011 2.1212555e-38
0.0083495034 0.0083495155 0.79700011 2.1579898e-38
0.0097066658 0.0082133263 0.7840001 2.1855405e-38
0.011171428 0.0081923828 0.78200006 2.2130553e-38
0.012725707 0.0082342923 0.78600007 2.2130911e-38
0.014222837 0.0082342774 0.78600007 2.2130911e-38
0.015719978 0.0082342923 0.78600007 2.1671732e-38
0.017655231 0.00844381 0.80600011 2.1212196e-38
0.01909522 0.0084018931 0.80200011 2.0569706e-38
0.020622851 0.0084019005 0.80200011 2.0018695e-38
0.021321893 0.0080876127 0.77200007 1.9284011e-38
0.022792371 0.0080876276 0.77200007 1.8549328e-38
0.024859995 0.0082866624 0.79100007 1.8274181e-38
0.026366645 0.0082866699 0.79100007 1.7998674e-38
0.027802842 0.0082657114 0.78900009 1.7723168e-38
0.029305696 0.0082657114 0.78900009 1.7539858e-38
-0.019800017 0.0095333233 0.77000016 2.0477512e-38
-0.018380957 0.0095580965 0.77200007 2.1488061e-38
-0.01691048 0.0095580965 0.77200007 2.1121078e-38
-0.015440004 0.0095580816 0.77200007 2.0661543e-38
-0.013969527 0.0095580891 0.77200007 2.1947958e-38
-0.012499049 0.0095580965 0.77200007 2.3141819e-38
-0.011028584 0.0095580816 0.77200013 2.3050342e-38
-0.0095581058 0.0095580965 0.77200013 2.2957788e-38
-0.0080876295 0.0095580891 0.77200007 2.2223463e-38
-0.0066171526 0.0095580891 0.77200007 2.1396227e-38
-0.0051200171 0.0095085576 0.76800013 2.213127e-38
-0.0036523957 0.0094961971 0.76700008 2.2865954e-38
-0.0022600119 0.0097933337 0.79100007 2.2406776e-38
-0.00075335056 0.0097933263 0.79100007 2.1946882e-38
0.00075331522 0.0097933412 0.79100007 2.1763211e-38
0.0022657015 0.0098180994 0.7930001 2.1488061e-38
0.0037666571 0.0097933263 0.79100007 2.1211837e-38
0.0052733226 0.0097933337 0.79100007 2.0844495e-38
0.0067371265 0.0097314343 0.78600007 2.0660824e-38
0.0082133338 0.0097066611 0.7840001 2.0385677e-38
0.009706662 0.0097066611 0.78400004 2.1303674e-38
0.011171423 0.0096818954 0.78200012 2.2222388e-38
0.012660955 0.0096818954 0.78200006 2.2222389e-38
0.014186658 0.0097066686 0.7840001 2.2130911e-38
0.015680002 0.0097066686 0.7840001 2.213091e-38
0.0213219 0.0095580891 0.77200007 1.9375846e-38
0.022792378 0.0095580965 0.77200007 1.8365656e-38
0.024262855 0.0095580965 0.77200007 1.8089792e-38
0.026299987 0.0097685754 0.78900009 1.7814644e-38
0.02776761 0.0097561926 0.78800005 1.7630615e-38
0.029045705 0.0096818954 0.78200012 1.7355827e-38
0.030418089 0.0096447542 0.7790001 1.726471e-38
0.031820003 0.0096200034 0.77700001 1.7172875e-38
0.034780003 0.0096200034 0.77700001 1.6621503e-38
0.036259986 0.009619996 0.77700007 1.6988488e-38
0.042179994 0.0096200034 0.77700007 1.2453604e-38
0.043659993 0.0096200109 0.77700001 7.4768396e-39
-0.024105724 0.010957144 0.76700008 1.8732999e-38
-0.022644773 0.010957137 0.76700008 1.891667e-38
-0.021183817 0.010957137 0.76700008 1.910034e-38
-0.019800017 0.010999985 0.7700001 1.9559516e-38
-0.018333344 0.010999992 0.7700001 2.0019052e-38
-0.016910488 0.011028565 0.77200007 1.9743187e-38
-0.01544001 0.011028565 0.77200007 1.95588e-38
-0.013969533 0.011028573 0.77200007 2.0661543e-38
-0.012499057 0.011028573 0.77200007 2.1855763e-38
-0.011028579 0.011028565 0.77200007 2.1855763e-38
-0.0095580956 0.011028573 0.77200007 2.1855405e-38
-0.0080666803 0.010999985 0.77000016 2.1579897e-38
-0.0066000088 0.011 0.7700001 2.139551e-38
-0.0051200083 0.01097142 0.76800007 2.1855405e-38
-0.0036524008 0.010957137 0.76700008 2.2314941e-38
-0.0021942982 0.010971412 0.76800007 2.2223105e-38
-0.00075334444 0.011299983 0.79100013 2.2130553e-38
0.00075140555 0.011271417 0.78900009 2.2039076e-38
0.0022599827 0.01129999 0.79100007 2.1855405e-38
0.0037666587 0.011299998 0.79100007 2.1763568e-38
0.005239985 0.011228569 0.78600001 2.1579538e-38
0.0067371302 0.011228576 0.78600007 2.1487703e-38
0.0082133301 0.011199988 0.7840001 2.1395867e-38
0.009706663 0.011199996 0.7840001 2.1763568e-38
0.011171428 0.01117143 0.78200012 2.2222747e-38
0.012660949 0.01117143 0.78200012 2.2314584e-38
0.01418667 0.011200003 0.7840001 2.2406418e-38
0.015679998 0.011200003 0.78400004 2.1947239e-38
0.021266665 0.011 0.7700001 1.9743188e-38
0.022733331 0.010999992 0.7700001 1.9008504e-38
0.024199985 0.010999985 0.77000016 1.8641521e-38
0.026299985 0.011271417 0.78900015 1.8366375e-38
0.02745048 0.011128575 0.77900004 1.7998674e-38
0.028934289 0.011128575 0.77900004 1.7631333e-38
0.030261898 0.011071429 0.7750001 1.7448021e-38
0.031738084 0.011071451 0.77500004 1.726435e-38
0.033128556 0.011042856 0.77300012 1.7356543e-38
0.034690477 0.011071436 0.77500004 1.7448023e-38
0.036166649 0.011071444 0.7750001 1.7631695e-38
0.037642848 0.011071444 0.77500004 1.7815725e-38
0.039119039 0.011071429 0.7750001 1.6896294e-38
0.040699989 0.011100002 0.77700007 1.588281e-38
0.042180002 0.011100009 0.77700007 1.1626384e-38
0.043659996 0.011100009 0.77700001 7.2863597e-39
0.046619996 0.011100017 0.77700001 8.48123e-39
0.048099991 0.011100017 0.77700001 8.0184778e-39
-0.024200007 0.012466669 0.7700001 1.8457852e-38
-0.022733342 0.012466669 0.7700001 1.8641523e-38
-0.02121144 0.012434274 0.76800007 1.8733357e-38
-0.019748587 0.012434267 0.76800007 1.8641162e-38
-0.018285729 0.012434274 0.76800013 1.8457491e-38
-0.016822878 0.012434267 0.76800007 1.8457133e-38
-0.015440009 0.012499042 0.77200007 1.8365297e-38
-0.013933343 0.012466654 0.7700001 1.9467325e-38
-0.012466678 0.012466654 0.7700001 2.0569708e-38
-0.011000006 0.012466662 0.7700001 2.0661185e-38
-0.0095333336 0.012466662 0.7700001 2.0753379e-38
-0.0080666794 0.012466662 0.77000016 2.1028885e-38
-0.0066000069 0.012466662 0.7700001 2.1304392e-38
-0.0051466748 0.012499042 0.77200013 2.1580257e-38
-0.0036666698 0.012466669 0.7700001 2.1763928e-38
-0.0022000156 0.012466654 0.77000016 2.2039434e-38
-0.00075144909 0.012774274 0.78900015 2.2314582e-38
0.0007504684 0.012758106 0.78800011 2.2314941e-38
0.0022542686 0.012774281 0.78900009 2.2222747e-38
0.0037523641 0.012758091 0.78800011 2.2314941e-38
0.0052399887 0.012725718 0.78600007 2.2314581e-38
0.0067199972 0.012693331 0.7840001 2.231494e-38
0.0082133412 0.012693346 0.7840001 2.2314581e-38
0.0097066602 0.012693331 0.7840001 2.2223105e-38
0.011171422 0.012660943 0.78200012 2.2130911e-38
0.012660953 0.012660958 0.78200006 2.2406419e-38
0.014150474 0.01266095 0.78200012 2.2681924e-38
0.015639996 0.012660943 0.78200012 2.1855046e-38
0.019799987 0.012466654 0.7700001 2.0569349e-38
0.021321904 0.012499034 0.77200007 2.011053e-38
0.02279238 0.012499027 0.77200007 1.9559517e-38
0.024262857 0.012499042 0.77200007 1.9192893e-38
0.025766658 0.012515239 0.77300012 1.8825552e-38
0.027379995 0.012580007 0.77700007 1.8366735e-38
0.02885999 0.012580007 0.77700001 1.7907199e-38
0.030261898 0.012547627 0.77500004 1.7631335e-38
0.031738088 0.012547635 0.7750001 1.7264352e-38
0.033214275 0.012547635 0.77500004 1.7723888e-38
0.034779996 0.012580015 0.77700001 1.8183065e-38
0.036259986 0.01258 0.77700007 1.8274902e-38
0.037642851 0.01254762 0.7750001 1.8366738e-38
0.039219983 0.012580007 0.77700007 1.6346357e-38
0.040699981 0.012580007 0.77700007 1.4303283e-38
0.042179991 0.012580007 0.77700001 1.0698648e-38
0.043659993 0.012580007 0.77700007 7.1069626e-39
0.045139991 0.012580007 0.77700007 7.7476026e-39
0.046619989 0.012580007 0.77700001 8.3893945e-39
-0.024200007 0.013933331 0.7700001 1.8917029e-38
-0.022733342 0.013933331 0.7700001 1.9009222e-38
-0.021211438 0.013897128 0.76800007 1.9192534e-38
-0.019748589 0.013897136 0.76800013 1.9192534e-38
-0.018285727 0.013897128 0.76800007 1.9192534e-38
-0.016822869 0.013897128 0.76800007 1.8825192e-38
-0.015360018 0.013897128 0.76800013 1.8457493e-38
-0.013897158 0.013897128 0.76800007 1.8824835e-38
-0.012434297 0.013897143 0.76800007 1.9100699e-38
-0.010971447 0.013897128 0.76800013 1.9192174e-38
-0.0095333438 0.013933316 0.77000016 1.9192175e-38
-0.0080666784 0.013933323 0.77000016 1.9467682e-38
-0.006600006 0.013933323 0.7700001 1.9650994e-38
-0.0051466711 0.013969526 0.77200007 1.9926858e-38
-0.0036666689 0.013933331 0.7700001 2.0293843e-38
-0.0022000144 0.013933316 0.77000016 2.0569708e-38
-0.00073810312 0.014023818 0.77500004 2.093705e-38
0.0007466682 0.014186665 0.7840001 2.1212556e-38
0.0022457051 0.01422286 0.78600001 2.1487704e-38
0.003742836 0.014222845 0.78600007 2.1488063e-38
0.0052266647 0.014186658 0.7840001 2.1395869e-38
0.0067199934 0.014186665 0.7840001 2.1579897e-38
0.0082133375 0.014186665 0.78400004 2.1763211e-38
0.0097066564 0.014186665 0.7840001 2.194724e-38
0.011171426 0.014150478 0.78200012 2.2130553e-38
0.012660947 0.014150463 0.78200012 2.2406776e-38
0.014150479 0.014150478 0.78200006 2.2682283e-38
0.01564 0.01415047 0.78200012 2.2314941e-38
0.019800002 0.013933331 0.7700001 2.1028527e-38
0.021404749 0.014023818 0.77500004 2.0294201e-38
0.022821898 0.013987638 0.77300006 1.9559159e-38
0.024294276 0.013987623 0.77300012 1.928437e-38
0.025766652 0.013987616 0.77300012 1.8917029e-38
0.027309513 0.014023826 0.7750001 1.8550406e-38
0.028785713 0.014023826 0.77500004 1.8183065e-38
0.030261887 0.014023811 0.7750001 1.790756e-38
0.031738088 0.014023826 0.77500004 1.7632054e-38
0.033214275 0.014023811 0.7750001 1.7356547e-38
0.034779992 0.014059998 0.77700007 1.7172876e-38
0.036259994 0.014060013 0.77700007 1.5885386e-38
0.037739988 0.014060013 0.77700001 1.4601482e-38
0.039119024 0.014023811 0.7750001 1.357479e-38
0.039128575 0.013517141 0.74700004 1.2540446e-38
0.040605709 0.013535246 0.74800003 1.0144351e-38
0.042030483 0.013535231 0.74800009 7.6543574e-39
0.045139994 0.014060013 0.77700001 8.1145789e-39
0.048048548 0.013625711 0.75300008 5.3498773e-39
-0.029519998 0.01512 0.75600004 1.5060301e-38
-0.027968587 0.015059993 0.75300014 1.6621863e-38
-0.0265343 0.01506 0.75300008 1.8183065e-38
-0.023634296 0.015039995 0.75200003 1.9285091e-38
-0.022201922 0.015039995 0.75200009 1.9468761e-38
-0.021211447 0.015359983 0.76800013 1.9560596e-38
-0.019748587 0.015359983 0.76800007 1.9744267e-38
-0.018261911 0.015339993 0.76700008 1.9927938e-38
-0.016800962 0.01534 0.76700008 1.928509e-38
-0.015340015 0.015339993 0.76700008 1.8550047e-38
-0.013879058 0.015339993 0.76700008 1.8090512e-38
-0.012418108 0.01534 0.76700008 1.7631333e-38
-0.010971446 0.015359983 0.76800007 1.7630615e-38
-0.0095333429 0.0154 0.77000016 1.7631332e-38
-0.0080666775 0.015399992 0.7700001 1.7814644e-38
-0.0065828748 0.015359975 0.76800007 1.7998315e-38
-0.0051333332 0.015400007 0.7700001 1.8365299e-38
-0.0036666784 0.015399992 0.77000016 1.8732639e-38
-0.0021942966 0.01535999 0.76800007 1.9191458e-38
-0.00073524314 0.015439995 0.77200007 1.9559159e-38
0.00074666477 0.01568 0.78400004 2.0202007e-38
0.0022399984 0.015679985 0.7840001 2.075302e-38
0.0037523662 0.015760005 0.78800011 2.0661185e-38
0.0052399808 0.015720002 0.78600007 2.0477514e-38
0.0067200051 0.015679993 0.7840001 2.0844856e-38
0.0082133235 0.01568 0.7840001 2.1212198e-38
0.0097066676 0.01568 0.7840001 2.1671734e-38
0.011171419 0.015639998 0.78200012 2.2130911e-38
0.012660951 0.015639998 0.78200012 2.2407135e-38
0.021404753 0.015500002 0.7750001 2.0478951e-38
0.022821894 0.015460014 0.77300012 1.9560238e-38
0.024294272 0.015459999 0.77300012 1.928509e-38
0.02576666 0.015459999 0.77300006 1.9009585e-38
0.027239038 0.015460007 0.77300012 1.8734078e-38
0.028711427 0.015460007 0.77300006 1.8458573e-38
0.030183803 0.015460014 0.77300012 1.8183067e-38
0.031738091 0.015500009 0.7750001 1.790756e-38
0.033214275 0.015500009 0.77500004 1.7081041e-38
0.034690466 0.015500002 0.7750001 1.6157664e-38
0.036166649 0.015500009 0.77500004 1.349264e-38
0.03764284 0.015499994 0.7750001 1.0729319e-38
0.039119042 0.015499994 0.7750001 1.0811106e-38
0.039128583 0.014940009 0.74700004 1.0797718e-38
0.040605709 0.014959998 0.74800009 9.5000679e-39
0.04203048 0.014959998 0.74800009 8.207541e-39
0.04804856 0.015059993 0.75300008 3.4108796e-39
-0.030919058 0.016538084 0.75500017 1.100519e-38
-0.02940288 0.016494267 0.75300014 1.1569835e-38
-0.027931437 0.016472384 0.75200003 1.2853021e-38
-0.026499067 0.016472377 0.75200009 1.423414e-38
-0.025066677 0.016472377 0.75200009 1.4691524e-38
-0.0236343 0.016472384 0.75200009 1.5244331e-38
-0.022201914 0.016472384 0.75200009 1.6070492e-38
-0.020769531 0.016472377 0.75200003 1.6989205e-38
-0.019234292 0.016384766 0.74800009 1.7264712e-38
-0.018214298 0.016757146 0.7650001 1.7540218e-38
-0.016757155 0.016757138 0.7650001 1.7356547e-38
-0.015300009 0.016757131 0.7650001 1.7264712e-38
-0.013879051 0.016800955 0.76700002 1.7632054e-38
-0.012418103 0.016800962 0.76700008 1.7999396e-38
-0.010957154 0.016800955 0.76700008 1.79072e-38
-0.009533342 0.016866669 0.77000016 1.7815723e-38
-0.0080666766 0.016866662 0.7700001 1.7999034e-38
-0.006582866 0.016822852 0.76800007 1.8274899e-38
-0.0051200236 0.016822837 0.76800013 1.8641883e-38
-0.0036666777 0.016866654 0.77000016 1.91007e-38
-0.0021943026 0.016822852 0.76800007 1.9376205e-38
-0.0007333479 0.016866662 0.7700001 1.9743188e-38
0.00073333172 0.016866662 0.7700001 2.0019052e-38
0.0021999865 0.016866662 0.77000016 2.02942e-38
0.0036666514 0.016866662 0.7700001 2.0386035e-38
0.004906646 0.016121909 0.73600012 2.0569349e-38
0.0063085612 0.016121909 0.73600012 2.0661543e-38
0.0082133347 0.017173328 0.7840001 2.075302e-38
0.0097066648 0.017173342 0.78400004 2.0845573e-38
0.022821892 0.016932383 0.77300012 1.7540218e-38
0.023162847 0.016143806 0.73700011 1.7081041e-38
0.024533318 0.016121902 0.73600012 1.6530028e-38
0.025970461 0.016143814 0.73700011 1.6070133e-38
0.027374264 0.016143814 0.73700011 1.5519837e-38
0.028856179 0.016187623 0.73900008 1.5148549e-38
0.030386653 0.01625333 0.7420001 1.4693318e-38
0.031799998 0.016253345 0.7420001 1.3950024e-38
0.033258095 0.016275249 0.74300009 1.3209959e-38
0.034673329 0.016275249 0.74300003 1.1919597e-38
0.036088578 0.016275257 0.74300003 1.071604e-38
0.03760476 0.016319059 0.74500006 1.0160354e-38
0.039128564 0.016362861 0.7470001 9.6038509e-39
0.040605709 0.016384758 0.74800009 8.6703198e-39
0.042142842 0.016428582 0.75000012 7.6543925e-39
0.043687604 0.016472369 0.75200009 7.9299018e-39
0.045119997 0.016472384 0.75200009 8.205348e-39
0.04804856 0.016494274 0.75300014 3.5898366e-39
-0.032271452 0.017928556 0.75300014 5.472802e-39
-0.030837158 0.017928571 0.75300008 6.7574325e-39
-0.029402869 0.017928571 0.75300008 8.0585564e-39
-0.027931437 0.017904758 0.75200009 9.169552e-39
-0.026428588 0.017857142 0.75000012 1.0179384e-38
-0.025000006 0.017857142 0.75000012 1.0645018e-38
-0.023571443 0.017857142 0.75000012 1.1103839e-38
-0.022142872 0.017857134 0.75000012 1.2763695e-38
-0.020659056 0.01780951 0.74800009 1.4323465e-38
-0.019234288 0.017809525 0.74800009 1.4785153e-38
-0.017738091 0.017738096 0.74500006 1.515106e-38
-0.016253345 0.017666668 0.7420001 1.5519837e-38
-0.014800018 0.017619044 0.74000007 1.5886462e-38
-0.013390493 0.017619058 0.74000007 1.7172876e-38
-0.011964779 0.017595232 0.73900008 1.8366738e-38
-0.010557156 0.017595232 0.73900008 1.8183067e-38
-0.0091495328 0.017595246 0.73900002 1.7907559e-38
-0.0077419197 0.017595232 0.73900008 1.8183065e-38
-0.006334296 0.017595232 0.73900002 1.8458572e-38
-0.0049266829 0.017595239 0.73900008 1.9009585e-38
-0.0035095434 0.017547615 0.73700011 1.9468762e-38
-0.0021028789 0.017523795 0.73600018 1.9652432e-38
-0.00070097769 0.01752381 0.73600018 1.9835744e-38
0.00069904601 0.017476194 0.73400009 1.9836103e-38
0.0020971349 0.017476194 0.73400009 1.9743909e-38
0.0036666524 0.018333323 0.7700001 2.0203445e-38
0.0049066544 0.017523803 0.73600012 2.0570428e-38
0.0063085547 0.017523803 0.73600012 2.0478951e-38
0.018797141 0.01740475 0.73100007 1.6529669e-38
0.020189505 0.017404757 0.73100007 1.607085e-38
0.02172951 0.017523803 0.73600018 1.5518402e-38
0.023162844 0.017547615 0.73700011 1.4785153e-38
0.024533313 0.01752381 0.73600012 1.40476e-38
0.025970459 0.017547615 0.73700011 1.3312557e-38
0.027374268 0.01754763 0.73700011 1.2571056e-38
0.028856168 0.017595232 0.73900008 1.2013943e-38
0.030386647 0.017666668 0.74200016 1.146616e-38
0.031799994 0.017666675 0.7420001 1.0815421e-38
0.033258095 0.01769048 0.74300009 1.0173288e-38
0.034673329 0.01769048 0.74300009 1.0443412e-38
0.036185708 0.017738089 0.74500012 1.0620238e-38
0.037705716 0.017785713 0.7470001 9.5102918e-39
0.039128572 0.017785713 0.7470001 8.4009721e-39
0.040714268 0.017857134 0.75000012 7.7389931e-39
0.042142849 0.017857142 0.75000012 7.1022444e-39
0.043687608 0.017904766 0.75200009 7.379546e-39
0.045299996 0.017976195 0.75500011 7.648933e-39
0.046614278 0.017928578 0.75300008 5.7124745e-39
0.048176188 0.017976187 0.75500011 3.6946103e-39
-0.032271441 0.019362845 0.75300008 6.6598307e-39
-0.030796202 0.019337155 0.75200009 7.3984789e-39
-0.029363817 0.019337147 0.75200003 8.1349594e-39
-0.027857162 0.019285716 0.75000012 8.4172846e-39
-0.026428582 0.019285716 0.75000012 8.7806819e-39
-0.024933346 0.01923427 0.74800009 9.1584271e-39
-0.023477143 0.019208573 0.74700004 9.5279243e-39
-0.022054285 0.019208573 0.74700004 1.0452739e-38
-0.020576198 0.019157141 0.74500012 1.1377912e-38
-0.019157145 0.019157141 0.74500012 1.1744896e-38
-0.017690487 0.01910571 0.74300009 1.2023631e-38
-0.016209543 0.019028567 0.74000007 1.229842e-38
-0.014800026 0.019028552 0.74000013 1.2577873e-38
-0.013390491 0.019028582 0.74000007 1.3402599e-38
-0.011964775 0.01900287 0.73900008 1.4325976e-38
-0.010557151 0.01900287 0.73900002 1.4323823e-38
-0.0091495384 0.019002855 0.73900008 1.4325976e-38
-0.0077419137 0.01900287 0.73900008 1.4508212e-38
-0.0063171564 0.018951431 0.73700011 1.4785153e-38
-0.0049266769 0.019002855 0.73900008 1.5058507e-38
-0.0035095359 0.018951438 0.73700011 1.5428002e-38
-0.0021028752 0.018925719 0.73600012 1.5792833e-38
-0.00070096651 0.018925719 0.73600012 1.6162686e-38
0.00069904694 0.018874295 0.73400009 1.6162327e-38
0.0020971359 0.018874288 0.73400003 1.6162686e-38
0.0035047322 0.018925704 0.73600018 1.6345998e-38
0.0049066469 0.018925712 0.73600018 1.6621863e-38
0.0063085486 0.018925712 0.73600012 1.6435681e-38
0.014680002 0.01887428 0.73400009 1.4507494e-38
0.016121883 0.018925719 0.73600012 1.4142305e-38
0.017476194 0.018874288 0.73400009 1.3770658e-38
0.018874284 0.018874303 0.73400003 1.3313992e-38
0.02032759 0.018925704 0.73600018 1.3217134e-38
0.021759026 0.018951431 0.73700011 1.3217493e-38
0.023162851 0.018951431 0.73700011 1.2665045e-38
0.024566652 0.018951423 0.73700011 1.220515e-38
0.026040945 0.019002855 0.73900008 1.1649473e-38
0.027374268 0.018951423 0.73700011 1.1182401e-38
0.028856184 0.019002855 0.73900008 1.1093072e-38
0.030386653 0.019080013 0.7420001 1.1096305e-38
0.031842858 0.019105725 0.74300003 1.0354808e-38
0.033347622 0.019157141 0.74500012 9.7141106e-39
0.034766663 0.019157149 0.74500012 9.7033459e-39
0.036185708 0.019157141 0.74500006 9.7901115e-39
0.037705712 0.019208565 0.74700004 1.1992321e-38
0.039128583 0.019208573 0.7470001 1.4188713e-38
0.040605716 0.019234285 0.74800009 1.3817656e-38
0.042142838 0.019285716 0.75000012 1.3533181e-38
0.043687608 0.019337133 0.75200009 1.3170144e-38
0.045299988 0.019414276 0.75500017 1.2788112e-38
0.046738088 0.019414283 0.75500011 1.1511761e-38
0.048176177 0.019414276 0.75500017 1.0313606e-38
-0.033795252 0.020852372 0.75500011 7.5752808e-39
-0.032357153 0.020852387 0.75500011 7.7611126e-39
-0.03083716 0.020797141 0.75300008 7.9490968e-39
-0.029363822 0.020769529 0.75200009 8.1342195e-39
-0.027931444 0.020769529 0.75200009 7.7676118e-39
-0.026499061 0.020769529 0.75200003 7.3109524e-39
-0.02493334 0.020659037 0.74800009 7.5886183e-39
-0.023477143 0.02063144 0.74700004 7.8677135e-39
-0.022054285 0.020631433 0.74700004 8.1414264e-39
-0.020576188 0.020576179 0.74500006 8.4259026e-39
-0.019157143 0.020576194 0.74500006 8.7006916e-39
-0.017690478 0.020520963 0.74300003 8.8901037e-39
-0.016209539 0.020438097 0.74000007 9.0723398e-39
-0.014800021 0.02043809 0.74000007 9.2606743e-39
-0.013390498 0.020438097 0.74000013 9.7169819e-39
-0.011964775 0.020410478 0.73900002 1.0183693e-38
-0.010557162 0.020410486 0.73900008 1.0460634e-38
-0.0091495384 0.020410478 0.73900008 1.0736499e-38
-0.0077209608 0.020355247 0.73700011 1.0921605e-38
-0.0063171601 0.02035524 0.73700011 1.1013082e-38
-0.0049133403 0.02035524 0.73700005 1.1194959e-38
-0.0035095392 0.02035524 0.73700011 1.1287512e-38
-0.0021028733 0.020327605 0.73600012 1.1927848e-38
-0.00070097303 0.020327613 0.73600012 1.2483885e-38
0.0006990488 0.020272382 0.73400009 1.2487831e-38
0.002091419 0.020217143 0.73200011 1.2485679e-38
0.0034857099 0.020217143 0.73200011 1.2578948e-38
0.0049066525 0.02032762 0.73600012 1.2666478e-38
0.0062657064 0.020189524 0.73100007 1.2387743e-38
0.0076580858 0.020189516 0.73100007 1.2114391e-38
0.0090628518 0.02021715 0.73200011 1.1837449e-38
0.010485719 0.020272382 0.73400003 1.147226e-38
0.011883807 0.020272382 0.73400003 1.1380064e-38
0.013281911 0.020272397 0.73400003 1.1194957e-38
0.014679989 0.020272374 0.73400009 1.0918733e-38
0.016078092 0.020272374 0.73400009 1.0641791e-38
0.017476197 0.020272382 0.73400009 1.0361623e-38
0.018874284 0.020272382 0.73400003 1.0088269e-38
0.020327609 0.020327613 0.73600012 1.0449512e-38
0.021729508 0.02032762 0.73600012 1.0821516e-38
0.023131408 0.02032762 0.73600012 1.0544575e-38
0.02456666 0.02035524 0.73700011 1.0267632e-38
0.026040945 0.020410486 0.73900002 9.9896129e-39
0.027374275 0.02035524 0.73700005 9.7123128e-39
0.028856181 0.020410478 0.73900008 1.017149e-38
0.030386664 0.020493343 0.7420001 1.0627796e-38
0.031842854 0.020520963 0.74300003 9.8855777e-39
0.033347618 0.020576186 0.74500006 9.1512483e-39
0.034860004 0.020631425 0.74700004 9.0497242e-39
0.03628286 0.02063144 0.74700004 8.9657388e-39
0.037756186 0.020659052 0.74800009 1.4480133e-38
0.039180946 0.020659037 0.74800009 1.9994493e-38
0.040714286 0.02071429 0.75000006 1.999406e-38
0.042142838 0.02071429 0.75000012 1.9899711e-38
0.043687612 0.020769536 0.75200003 1.8980277e-38
0.045299992 0.020852387 0.75500011 1.7966852e-38
-0.033839997 0.02232001 0.75600004 7.9400948e-39
-0.03235716 0.022290468 0.75500017 7.6663806e-39
-0.03091906 0.022290483 0.75500011 7.7614433e-39
-0.029363813 0.022201903 0.75200003 7.9505261e-39
-0.027931446 0.022201903 0.75200009 7.5824961e-39
-0.026499063 0.022201903 0.75200009 7.2187554e-39
-0.025000017 0.022142857 0.75000012 7.4939172e-39
-0.023477145 0.022054277 0.7470001 7.8655625e-39
-0.022054289 0.02205427 0.7470001 8.3236624e-39
-0.02057619 0.021995232 0.74500012 8.8807739e-39
-0.019157145 0.021995246 0.74500012 8.9740443e-39
-0.017666683 0.021906674 0.7420001 9.1609453e-39
-0.016209537 0.021847613 0.74000007 9.5311585e-39
-0.014840006 0.021906674 0.7420001 9.9914122e-39
-0.013390495 0.021847621 0.74000007 1.0176877e-38
-0.011964777 0.021818094 0.73900008 1.0363776e-38
-0.010557154 0.021818094 0.73900008 1.0546729e-38
-0.0091495309 0.021818109 0.73900002 1.0726814e-38
-0.007720964 0.021759041 0.73700011 1.1006266e-38
-0.0063171531 0.021759056 0.73700005 1.1282849e-38
-0.0049133506 0.021759041 0.73700011 1.1375043e-38
-0.003509542 0.021759048 0.73700011 1.1466518e-38
-0.0021028807 0.021729514 0.73600018 1.1558711e-38
-0.00069905451 0.021670483 0.73400009 1.1652342e-38
0.00069904927 0.021670476 0.73400009 1.1837449e-38
0.002102843 0.021729521 0.73600012 1.1927131e-38
0.0035047438 0.021729521 0.73600012 1.1743817e-38
0.004906645 0.021729521 0.73600012 1.1557276e-38
0.0063085603 0.021729521 0.73600012 1.1282487e-38
0.0076895268 0.021670476 0.73400009 1.1100611e-38
0.0091123609 0.021729521 0.73600012 1.1007701e-38
0.010514278 0.021729521 0.73600012 1.0916223e-38
0.011916168 0.021729521 0.73600018 1.054601e-38
0.013281912 0.021670491 0.73400003 1.0267632e-38
0.014719984 0.021729514 0.73600018 9.9006459e-39
0.016121883 0.021729529 0.73600018 9.4403936e-39
0.017523784 0.021729514 0.73600018 9.6233485e-39
0.0189257 0.021729529 0.73600018 9.7169777e-39
0.020327602 0.021729521 0.73600012 1.0079656e-38
0.021729503 0.021729521 0.73600012 1.0359826e-38
0.023162842 0.021759056 0.73700005 1.0537756e-38
0.02463332 0.021818101 0.73900002 1.0810749e-38
0.026040934 0.021818087 0.73900008 1.2191147e-38
0.027448557 0.021818101 0.73900008 1.3659084e-38
0.028895222 0.021847606 0.74000013 1.421297e-38
0.030386658 0.021906666 0.7420001 1.484792e-38
0.031799994 0.021906674 0.7420001 1.2920444e-38
0.033258099 0.021936201 0.74300003 1.1077273e-38
0.03476667 0.021995239 0.74500012 1.0710284e-38
0.03628286 0.022054277 0.7470001 1.0440125e-38
0.037705716 0.02205427 0.7470001 1.6054253e-38
0.039180957 0.022083797 0.74800009 2.1764533e-38
0.040605713 0.022083811 0.74800009 2.1666218e-38
0.042142842 0.022142842 0.75000012 2.1672671e-38
0.043687608 0.022201896 0.75200009 2.1206313e-38
0.045179993 0.022231422 0.75300008 2.0754281e-38
0.046614271 0.022231422 0.75300014 2.0470493e-38
-0.033929527 0.023822874 0.75800008 8.3081402e-39
-0.032399997 0.023760013 0.75600004 7.5748828e-39
-0.030960003 0.023760013 0.75600004 7.6634813e-39
-0.029480968 0.023728572 0.75500011 7.6699553e-39
-0.027931441 0.023634285 0.75200009 7.3930307e-39
-0.026499057 0.023634285 0.75200003 7.0278523e-39
-0.025000021 0.023571417 0.75000012 7.3941293e-39
-0.023508571 0.023508564 0.74800009 7.7639852e-39
-0.022083815 0.023508564 0.74800009 8.4979545e-39
-0.020576188 0.023414277 0.74500006 9.2394726e-39
-0.019157143 0.023414291 0.74500006 9.3377849e-39
-0.017690483 0.023351446 0.74300009 9.3395856e-39
-0.01625335 0.023319997 0.7420001 1.0083605e-38
-0.014840011 0.023320012 0.7420001 1.0721071e-38
-0.013390493 0.023257144 0.74000007 1.0635333e-38
-0.011980968 0.023257136 0.74000007 1.053955e-38
-0.010557154 0.023225725 0.73900002 1.0636049e-38
-0.0091495411 0.023225717 0.73900008 1.0723582e-38
-0.0077419174 0.023225732 0.73900008 1.1094156e-38
-0.0063171554 0.023162864 0.73700011 1.1462574e-38
-0.0049133543 0.023162857 0.73700011 1.1555843e-38
-0.0035095345 0.023162857 0.73700011 1.1646601e-38
-0.0020971382 0.023068585 0.73400003 1.1279259e-38
-0.00069715461 0.023005709 0.73200011 1.0821157e-38
0.00069905067 0.023068585 0.73400009 1.1098459e-38
0.0020971401 0.02306857 0.73400009 1.137217e-38
0.0034952438 0.023068585 0.73400003 1.0911198e-38
0.0048933318 0.023068585 0.73400003 1.0359825e-38
0.0062914351 0.023068577 0.73400003 1.0175794e-38
0.0076895142 0.023068577 0.73400009 9.9914052e-39
0.0090876175 0.023068577 0.73400009 1.0176152e-38
0.010514271 0.023131423 0.73600012 1.0265475e-38
0.01188381 0.023068585 0.73400003 9.8034266e-39
0.013281913 0.023068577 0.73400003 9.3442491e-39
0.014679992 0.023068577 0.73400009 8.7914411e-39
0.016121889 0.023131423 0.73600012 8.241147e-39
0.017523794 0.023131415 0.73600018 8.7903677e-39
0.018925693 0.023131423 0.73600018 9.3435303e-39
0.020327594 0.023131415 0.73600018 9.6086307e-39
0.021729495 0.02313143 0.73600018 9.8923908e-39
0.023162838 0.023162857 0.73700011 1.0619185e-38
0.024566663 0.023162857 0.73700005 1.1273502e-38
0.026040949 0.023225717 0.73900008 1.4488092e-38
0.027448572 0.023225725 0.73900002 1.7618034e-38
0.02889521 0.023257136 0.74000007 1.8357384e-38
0.030386653 0.023320004 0.7420001 1.8995936e-38
0.03184285 0.023351438 0.74300009 1.6054699e-38
0.033258099 0.023351446 0.74300009 1.3013719e-38
0.034859996 0.023477137 0.7470001 1.2457679e-38
0.036282852 0.023477145 0.7470001 1.1823767e-38
0.037756193 0.023508571 0.74800009 1.762408e-38
0.039180953 0.023508564 0.74800009 2.3415454e-38
0.040714279 0.023571432 0.75000012 2.3417605e-38
0.042255238 0.023634285 0.75200009 2.3417595e-38
0.0437457 0.023665704 0.75300014 2.3417585e-38
0.045179989 0.023665719 0.75300008 2.3417585e-38
0.046799988 0.023760006 0.7560001 2.3417583e-38
-0.033929531 0.025266662 0.75800008 9.8765029e-39
-0.032400008 0.025200009 0.7560001 9.7839345e-39
-0.030959999 0.025200017 0.75600004 9.6928011e-39
-0.029480966 0.025166668 0.75500011 9.6006111e-39
-0.027968593 0.0251 0.75300014 9.4162268e-39
-0.026534298 0.025100008 0.75300008 9.3193775e-39
-0.025066677 0.025066666 0.75200009 9.5066442e-39
-0.023571447 0.024999991 0.75000012 9.7778529e-39
-0.022083819 0.024933331 0.74800009 9.5963399e-39
-0.020631429 0.024899997 0.74700004 9.5070548e-39
-0.019157145 0.024833322 0.74500012 9.6046678e-39
-0.017690483 0.024766676 0.74300009 9.7858417e-39
-0.016253347 0.024733335 0.74200016 9.7883654e-39
-0.014840008 0.02473335 0.7420001 9.7854928e-39
-0.013390489 0.024666682 0.74000007 9.7897948e-39
-0.011964773 0.024633341 0.73900002 9.7883598e-39
-0.01055716 0.024633341 0.73900008 1.0159648e-38
-0.0091495365 0.024633341 0.73900008 1.0529148e-38
-0.0077209603 0.024566665 0.73700011 1.0809681e-38
-0.0063171592 0.024566673 0.73700011 1.118312e-38
-0.0049133468 0.024566673 0.73700011 1.0903307e-38
-0.0035047764 0.024533331 0.73600012 1.0631029e-38
-0.0020971373 0.024466679 0.73400003 1.0536681e-38
-0.00069905171 0.024466664 0.73400009 1.0539553e-38
0.00069904508 0.024466671 0.73400009 1.1826326e-38
0.0020971401 0.024466671 0.73400009 1.3204933e-38
0.0034952438 0.024466664 0.73400003 1.2651406e-38
0.0048933327 0.024466679 0.73400003 1.2101109e-38
0.0062914365 0.024466679 0.73400003 1.2649967e-38
0.0076895151 0.024466671 0.73400009 1.3195956e-38
0.0091123637 0.024533331 0.73600018 1.3567959e-38
0.010514264 0.024533324 0.73600012 1.3839878e-38
0.011916164 0.024533331 0.73600012 1.4028211e-38
0.01331808 0.024533331 0.73600012 1.4207937e-38
0.01471998 0.024533339 0.73600012 1.4030006e-38
0.016121881 0.024533339 0.73600012 1.3932432e-38
0.017523797 0.024533324 0.73600012 1.4950874e-38
0.018925697 0.024533339 0.73600012 1.5961777e-38
0.020355221 0.024566665 0.73700011 1.6053607e-38
0.021759033 0.024566665 0.73700011 1.6052538e-38
0.023162834 0.024566673 0.73700011 1.6423473e-38
0.024633322 0.024633333 0.73900008 1.6798688e-38
0.026040945 0.024633348 0.73900002 1.8451348e-38
0.027448559 0.024633333 0.73900008 2.0110846e-38
0.028895229 0.02466666 0.74000007 2.0109052e-38
0.030427614 0.024766684 0.74300003 2.0111588e-38
0.03184285 0.024766669 0.74300009 1.7067409e-38
0.033347618 0.024833336 0.74500012 1.4118266e-38
0.034860004 0.024900004 0.74700004 1.4208303e-38
0.03628286 0.024899997 0.74700004 1.4303338e-38
0.037756193 0.024933331 0.74800003 1.872289e-38
0.039180949 0.024933316 0.74800009 2.3048864e-38
0.040714264 0.024999991 0.75000012 2.3140359e-38
0.042255219 0.025066666 0.75200009 2.332581e-38
0.043745708 0.0251 0.75300008 2.3324718e-38
0.045359995 0.025200009 0.7560001 2.3325824e-38
0.046799995 0.025200002 0.7560001 2.3417687e-38
-0.035793345 0.027027614 0.76700008 1.0887778e-38
-0.033929531 0.02671048 0.75800008 1.1444919e-38
-0.032485709 0.026710488 0.75800002 1.190337e-38
-0.030960012 0.026640005 0.7560001 1.172292e-38
-0.029519998 0.026640013 0.75600004 1.1536021e-38
-0.028042875 0.026604757 0.75500011 1.1535305e-38
-0.026534308 0.026534289 0.75300014 1.153458e-38
-0.025066681 0.026499055 0.75200009 1.1627124e-38
-0.023571448 0.026428565 0.75000012 1.1715731e-38
-0.022083813 0.02635809 0.74800009 1.0786255e-38
-0.020631429 0.026322864 0.74700004 9.7872052e-39
-0.019157138 0.026252389 0.74500006 9.9708944e-39
-0.017690493 0.026181914 0.74300009 1.0153136e-38
-0.016253343 0.02614668 0.7420001 9.4988151e-39
-0.014840013 0.026146673 0.7420001 8.8656356e-39
-0.013390487 0.026076198 0.74000007 8.9502797e-39
-0.011980969 0.02607619 0.74000007 9.0518037e-39
-0.010557152 0.026040956 0.73900008 9.6849678e-39
-0.009149529 0.026040964 0.73900002 1.034325e-38
-0.0077209705 0.025970474 0.73700011 1.0615178e-38
-0.0063171517 0.025970489 0.73700011 1.0806032e-38
-0.0049133496 0.025970474 0.73700011 1.0150996e-38
-0.0035047838 0.02593524 0.73600012 9.5192909e-39
-0.0020971354 0.025864765 0.73400003 9.8805583e-39
-0.00069905078 0.025864765 0.73400009 1.0261144e-38
0.00069904601 0.025864765 0.73400009 1.2645968e-38
0.0020971424 0.025864772 0.73400003 1.494869e-38
0.0034952457 0.025864772 0.73400003 1.4387654e-38
0.0048933346 0.025864772 0.73400003 1.3753771e-38
0.0062914384 0.025864772 0.73400003 1.5126278e-38
0.0076895161 0.025864765 0.73400009 1.6419514e-38
0.0090876194 0.025864758 0.73400009 1.6968381e-38
0.010514257 0.02593524 0.73600018 1.743294e-38
0.011916172 0.025935233 0.73600018 1.8261974e-38
0.013318073 0.02593524 0.73600018 1.8998454e-38
0.014719973 0.025935233 0.73600012 1.9371899e-38
0.016121889 0.025935233 0.73600012 1.9643818e-38
0.01752379 0.025935233 0.73600012 2.1118567e-38
0.018925689 0.025935233 0.73600012 2.2586138e-38
0.020355228 0.025970481 0.73700011 2.2407488e-38
0.021759029 0.025970474 0.73700011 2.2219157e-38
0.023225699 0.026040964 0.73900008 2.2223823e-38
0.024633322 0.026040964 0.73900002 2.2222019e-38
0.026076183 0.026076183 0.74000007 2.2407474e-38
0.027485691 0.026076198 0.74000007 2.2497873e-38
0.028973322 0.026146673 0.7420001 2.1856459e-38
0.030427612 0.026181921 0.74300003 2.1208599e-38
0.031842861 0.026181914 0.74300003 1.8169071e-38
0.033347618 0.026252374 0.74500006 1.5133824e-38
0.034860011 0.026322871 0.74700004 1.5953518e-38
0.036331423 0.02635809 0.74800009 1.6786481e-38
0.037756193 0.02635809 0.74800009 1.9732019e-38
0.039285716 0.02642858 0.75000006 2.2677928e-38
0.040822845 0.026499048 0.75200009 2.2953073e-38
0.042311415 0.026534289 0.75300008 2.3138186e-38
0.043861885 0.026604764 0.75500011 2.3228952e-38
0.045479994 0.026710473 0.75800008 2.3231477e-38
0.046923809 0.02671048 0.75800008 2.3325838e-38
-0.035700005 0.028414294 0.7650001 1.1804e-38
-0.034019057 0.028228566 0.76000011 1.1901263e-38
-0.032485712 0.028154291 0.75800002 1.1998119e-38
-0.031041909 0.028154284 0.75800008 1.2182148e-38
-0.029520012 0.028079994 0.7560001 1.2367252e-38
-0.028042873 0.02804286 0.75500011 1.255128e-38
-0.026534297 0.027968563 0.75300008 1.2738155e-38
-0.025066676 0.027931429 0.75200009 1.3105472e-38
-0.023571447 0.02785714 0.75000012 1.3569666e-38
-0.022083811 0.027782865 0.74800009 1.3380249e-38
-0.020631438 0.027745709 0.7470001 1.3292001e-38
-0.019157147 0.027671419 0.74500012 1.3471007e-38
-0.017690483 0.027597159 0.74300003 1.3653242e-38
-0.016253341 0.027560018 0.7420001 1.3745793e-38
-0.014860012 0.027597152 0.74300009 1.3931946e-38
-0.013426682 0.027560003 0.7420001 1.3747886e-38
-0.011980968 0.027485713 0.74000007 1.3569241e-38
-0.010557152 0.02744858 0.73900002 1.4946778e-38
-0.0091495384 0.027448565 0.73900008 1.6329702e-38
-0.0077209631 0.027374297 0.73700005 1.6419038e-38
-0.0063171545 0.027374282 0.73700011 1.6600578e-38
-0.0049133431 0.027374297 0.73700005 1.5127642e-38
-0.0035047829 0.027337134 0.73600018 1.3751591e-38
-0.0020971354 0.027262866 0.73400003 1.4583537e-38
-0.00069904892 0.027262844 0.73400009 1.5509008e-38
0.00069904694 0.027262859 0.73400009 1.7254182e-38
0.0020971433 0.027262859 0.73400003 1.9096674e-38
0.0034952462 0.027262866 0.73400003 1.881547e-38
0.004893335 0.027262859 0.73400003 1.854283e-38
0.0063085584 0.027337141 0.73600012 1.9093123e-38
0.0077104601 0.027337149 0.73600012 1.9744237e-38
0.0091123609 0.027337149 0.73600012 2.0014375e-38
0.010514276 0.027337141 0.73600012 2.0294549e-38
0.011916176 0.027337149 0.73600012 2.0659384e-38
0.013318066 0.027337134 0.73600018 2.1029961e-38
0.014719983 0.027337126 0.73600018 2.1120726e-38
0.016121883 0.027337141 0.73600018 2.1213638e-38
0.017523784 0.027337134 0.73600018 2.1763934e-38
0.018951423 0.027374282 0.73700011 2.2315664e-38
0.020355225 0.02737429 0.73700011 2.1856128e-38
0.021759037 0.02737429 0.73700011 2.1397309e-38
0.023225699 0.02744858 0.73900008 2.139695e-38
0.024633313 0.02744858 0.73900008 2.1397309e-38
0.026076175 0.027485698 0.74000013 2.0751232e-38
0.02748571 0.027485721 0.74000007 2.0197704e-38
0.029012376 0.027597152 0.74300009 2.0381729e-38
0.030427609 0.027597152 0.74300009 2.0564681e-38
0.031928565 0.027671427 0.74500012 1.9274678e-38
0.033437137 0.027745716 0.7470001 1.8079724e-38
0.034859996 0.027745709 0.7470001 1.8626414e-38
0.036331434 0.027782857 0.74800009 1.9177788e-38
0.037857126 0.02785714 0.75000012 2.1114587e-38
0.039285704 0.027857147 0.75000012 2.3049567e-38
0.040822841 0.027931437 0.75200009 2.3139227e-38
0.042311426 0.027968563 0.75300008 2.3320775e-38
0.043861885 0.028042853 0.75500011 2.3321879e-38
0.045599997 0.028228566 0.76000005 2.3321162e-38
0.047047608 0.028228574 0.76000005 2.3415148e-38
-0.035700012 0.029871419 0.7650001 1.2632254e-38
-0.034063824 0.02971524 0.7610001 1.2358225e-38
-0.032571446 0.029676192 0.76000005 1.199593e-38
-0.031041911 0.029598102 0.75800008 1.2548404e-38
-0.029520009 0.029519998 0.7560001 1.3101937e-38
-0.028080009 0.029520005 0.7560001 1.3472159e-38
-0.026534304 0.029402845 0.75300014 1.3840567e-38
-0.025066679 0.029363804 0.75200009 1.4578828e-38
-0.023571439 0.029285721 0.75000012 1.5317453e-38
-0.022083813 0.029207617 0.74800009 1.6056439e-38
-0.020659044 0.029207617 0.74800003 1.6786102e-38
-0.01915714 0.029090486 0.74500006 1.6967265e-38
-0.017690483 0.029012397 0.74300003 1.7154882e-38
-0.016275236 0.029012389 0.74300003 1.8082207e-38
-0.014860015 0.029012397 0.74300009 1.8903687e-38
-0.013426678 0.028973341 0.7420001 1.8448799e-38
-0.012013339 0.028973341 0.7420001 1.7988548e-38
-0.01057145 0.028895244 0.74000013 2.0111531e-38
-0.0091495309 0.028856203 0.73900008 2.2218729e-38
-0.0077209668 0.028778099 0.73700011 2.2313798e-38
-0.0063171545 0.028778099 0.73700005 2.2305556e-38
-0.004913345 0.028778099 0.73700011 2.019048e-38
-0.0035095448 0.028778099 0.73700011 1.7990398e-38
-0.0021028714 0.02873905 0.73600012 1.9376924e-38
-0.00069904799 0.028660953 0.73400009 2.066008e-38
0.00069904694 0.028660968 0.73400009 2.1948259e-38
0.0020971433 0.02866096 0.73400003 2.3232901e-38
0.0034952322 0.028660968 0.73400003 2.3233998e-38
0.0049066506 0.028739043 0.73600018 2.3232203e-38
0.0063085523 0.02873905 0.73600018 2.314216e-38
0.0077104527 0.028739043 0.73600012 2.3050331e-38
0.0091123683 0.028739043 0.73600012 2.3050338e-38
0.010528551 0.028778099 0.73700011 2.305034e-38
0.011932363 0.028778099 0.73700011 2.3050342e-38
0.01333618 0.028778099 0.73700011 2.295851e-38
0.014739991 0.028778099 0.73700011 2.2866677e-38
0.016143793 0.028778106 0.73700011 2.2774842e-38
0.017547604 0.028778106 0.73700011 2.24075e-38
0.01895142 0.028778099 0.73700011 2.2039437e-38
0.020355232 0.028778113 0.73700011 2.1303676e-38
0.021759033 0.028778099 0.73700011 2.0477874e-38
0.023225714 0.02885621 0.73900002 2.0477875e-38
0.024666652 0.028895229 0.74000007 2.0475721e-38
0.026076179 0.028895244 0.74000007 1.9185718e-38
0.027559988 0.028973341 0.7420001 1.7900018e-38
0.029012376 0.029012382 0.74300009 1.8907336e-38
0.030509522 0.029090486 0.74500006 1.9920395e-38
0.03192858 0.029090479 0.74500006 2.0468537e-38
0.033437148 0.029168569 0.7470001 2.0929491e-38
0.034906663 0.029207617 0.74800009 2.1202828e-38
0.03633143 0.029207617 0.74800009 2.1481932e-38
0.03785713 0.029285714 0.75000012 2.2499307e-38
0.039285708 0.029285714 0.75000012 2.3415494e-38
0.040822852 0.029363818 0.75200009 2.3416555e-38
0.042311411 0.029402845 0.75300008 2.3414059e-38
0.043919992 0.029519998 0.7560001 2.341587e-38
0.045659993 0.029715225 0.7610001 2.3415508e-38
0.047109514 0.029715225 0.7610001 2.3415507e-38
-0.035700008 0.031328559 0.7650001 1.4570427e-38
-0.034063835 0.03116475 0.7610001 1.4201688e-38
-0.032571446 0.031123795 0.76000011 1.3925516e-38
-0.031123823 0.03112381 0.76000005 1.4109597e-38
-0.029598096 0.031041913 0.75800002 1.438656e-38
-0.028080007 0.030960001 0.7560001 1.4572045e-38
-0.026604779 0.030919038 0.75500011 1.4848632e-38
-0.025066674 0.0307962 0.75200003 1.5404672e-38
-0.023571441 0.030714281 0.75000012 1.6053976e-38
-0.022083817 0.030632384 0.74800009 1.6328762e-38
-0.020631429 0.030591436 0.7470001 1.6695751e-38
-0.019157149 0.030509524 0.74500012 1.697198e-38
-0.017690485 0.030427627 0.74300009 1.7161035e-38
-0.016275238 0.030427642 0.74300003 1.771205e-38
-0.014860006 0.030427635 0.74300003 1.8264137e-38
-0.013426684 0.030386671 0.7420001 1.8080465e-38
-0.012013345 0.030386679 0.7420001 1.7804603e-38
-0.010571446 0.030304745 0.74000007 1.9003846e-38
-0.0091619305 0.03030476 0.74000013 2.0201294e-38
-0.0077419197 0.030263811 0.73900008 2.0291333e-38
-0.0063342964 0.030263811 0.73900008 2.0383167e-38
-0.0049133496 0.0301819 0.73700011 1.9554852e-38
-0.0035095382 0.030181915 0.73700011 1.8734077e-38
-0.0021028779 0.030140951 0.73600012 1.9468405e-38
-0.00070096931 0.030140951 0.73600012 2.0295283e-38
0.00070093892 0.030140959 0.73600012 2.1672816e-38
0.0021028393 0.030140951 0.73600012 2.2958513e-38
0.0035047443 0.030140936 0.73600018 2.2958513e-38
0.004906645 0.030140944 0.73600018 2.2958513e-38
0.0063085463 0.030140951 0.73600018 2.2865601e-38
0.0077104615 0.030140944 0.73600018 2.2774842e-38
0.0091123618 0.030140951 0.73600018 2.2591171e-38
0.010528558 0.030181922 0.73700005 2.2499335e-38
0.01193236 0.030181907 0.73700011 2.2223829e-38
0.013336186 0.030181922 0.73700011 2.1948322e-38
0.014739988 0.030181907 0.73700011 2.185541e-38
0.016143799 0.030181907 0.73700005 2.1764651e-38
0.0175476 0.030181915 0.73700011 2.1763216e-38
0.018951412 0.030181915 0.73700005 2.1763212e-38
0.020355228 0.030181915 0.73700011 2.15781e-38
0.021818088 0.030263819 0.73900002 2.139515e-38
0.023225702 0.030263811 0.73900008 2.1578822e-38
0.024666656 0.03030476 0.74000007 2.1852173e-38
0.026076179 0.030304752 0.74000007 2.1300797e-38
0.027559999 0.030386679 0.7420001 2.0656155e-38
0.029012371 0.030427627 0.74300003 2.1208602e-38
0.030509526 0.030509517 0.74500012 2.166993e-38
0.031928573 0.030509524 0.74500012 2.1944358e-38
0.03343714 0.030591428 0.74700004 2.2221643e-38
0.034860011 0.030591421 0.74700004 2.1298609e-38
0.036331426 0.030632377 0.74800003 2.0476052e-38
0.037857134 0.030714281 0.75000012 2.0749063e-38
0.039285697 0.030714288 0.75000012 2.1022769e-38
0.040822845 0.030796193 0.75200009 2.0836219e-38
0.042423788 0.030919038 0.75500011 2.0655781e-38
0.043919999 0.030960009 0.7560001 2.0839814e-38
0.04566 0.031164758 0.7610001 2.1121057e-38
0.047109511 0.031164743 0.7610001 2.1761749e-38
-0.035700012 0.032785714 0.7650001 1.6410399e-38
-0.034063827 0.032614268 0.7610001 1.613673e-38
-0.032571442 0.032571428 0.76000005 1.5765098e-38
-0.031041913 0.032485723 0.75800002 1.5761168e-38
-0.029520011 0.032399997 0.7560001 1.5673638e-38
-0.028042868 0.032357156 0.75500011 1.5764399e-38
-0.026534293 0.03227143 0.75300008 1.5769085e-38
-0.025066677 0.032228574 0.75200009 1.6228645e-38
-0.023571439 0.032142855 0.75000012 1.6692846e-38
-0.022083811 0.032057144 0.74800009 1.6692849e-38
-0.020631429 0.032014281 0.74700004 1.6602462e-38
-0.01915714 0.031928569 0.74500006 1.6879776e-38
-0.017738096 0.031928577 0.74500006 1.7157438e-38
-0.01627524 0.031842873 0.74300009 1.7432947e-38
-0.014860007 0.031842873 0.74300003 1.7618771e-38
-0.013426682 0.031800002 0.7420001 1.7620207e-38
-0.012013343 0.031800009 0.7420001 1.7621283e-38
-0.010600015 0.031800002 0.7420001 1.7897507e-38
-0.0091619259 0.03171429 0.74000007 1.8083691e-38
-0.0077419132 0.031671427 0.73900008 1.8267003e-38
-0.0063343002 0.031671427 0.73900008 1.8452466e-38
-0.0049266769 0.031671427 0.73900008 1.8911285e-38
-0.003509541 0.031585723 0.73700011 1.9373694e-38
-0.002102877 0.031542845 0.73600012 1.9650998e-38
-0.00070096931 0.03154286 0.73600012 1.9927582e-38
0.00070093147 0.031542853 0.73600012 2.1305474e-38
0.0021028467 0.03154286 0.73600012 2.268192e-38
0.0035047475 0.03154286 0.73600012 2.2682986e-38
0.0049066488 0.031542853 0.73600012 2.2676173e-38
0.0063085491 0.031542867 0.73600012 2.258721e-38
0.0077209412 0.031585723 0.73700011 2.2401393e-38
0.0091247531 0.031585723 0.73700011 2.2223826e-38
0.010528554 0.031585723 0.73700011 2.1947962e-38
0.011932367 0.031585723 0.73700005 2.1489145e-38
0.013336183 0.031585708 0.73700011 2.0936338e-38
0.014739994 0.031585723 0.73700005 2.0841991e-38
0.016143795 0.031585716 0.73700011 2.0660473e-38
0.017547596 0.031585716 0.73700011 2.1025662e-38
0.018951409 0.031585716 0.73700011 2.1394436e-38
0.020355225 0.031585708 0.73700011 2.1850025e-38
0.021759037 0.031585723 0.73700011 2.2221313e-38
0.023225702 0.031671442 0.73900008 2.2773763e-38
0.024633314 0.031671427 0.73900008 2.323258e-38
0.026076168 0.031714275 0.74000007 2.3325849e-38
0.027559996 0.031800009 0.7420001 2.3416248e-38
0.029090483 0.031928577 0.74500006 2.3417683e-38
0.030509528 0.031928569 0.74500006 2.3416964e-38
0.031928573 0.031928577 0.74500006 2.3417682e-38
0.033437148 0.032014288 0.74700004 2.3413715e-38
0.034860004 0.032014288 0.74700004 2.1385779e-38
0.036331426 0.032057136 0.74800009 1.9366486e-38
0.037857134 0.032142855 0.75000006 1.899772e-38
0.03939046 0.032228574 0.75200009 1.8535311e-38
0.040877126 0.032271422 0.75300008 1.8158279e-38
0.042479988 0.03239999 0.7560001 1.7798832e-38
0.044152368 0.032571435 0.76000011 1.8349848e-38
0.045659989 0.032614261 0.7610001 1.881297e-38
0.047109511 0.032614276 0.7610001 2.0102612e-38
-0.035793342 0.034332387 0.76700008 1.5584273e-38
-0.034153353 0.034153327 0.76300007 1.5584319e-38
-0.032614302 0.034063816 0.7610001 1.55843e-38
-0.031123817 0.034019053 0.76000005 1.5676473e-38
-0.0295981 0.033929534 0.75800008 1.5863354e-38
-0.028080011 0.033840001 0.7560001 1.6506543e-38
-0.026534302 0.033705711 0.75300008 1.7153021e-38
-0.025066681 0.033660941 0.75200009 1.7335298e-38
-0.023571441 0.033571422 0.75000012 1.7520411e-38
-0.02214287 0.03357143 0.75000012 1.7703011e-38
-0.020659052 0.033481896 0.74800009 1.7978181e-38
-0.019234285 0.033481911 0.74800009 1.7979639e-38
-0.017738096 0.033347622 0.74500012 1.807399e-38
-0.016319044 0.033347607 0.74500012 1.82591e-38
-0.014860008 0.033258103 0.74300009 1.8443491e-38
-0.013444767 0.033258103 0.74300003 1.8904822e-38
-0.012013339 0.03321334 0.7420001 1.9457986e-38
-0.01060001 0.033213332 0.7420001 2.0103344e-38
-0.0091619231 0.033123806 0.74000007 2.0743686e-38
-0.0077419132 0.033079058 0.73900002 2.0840188e-38
-0.0063343002 0.033079065 0.73900008 2.0932382e-38
-0.0049266769 0.033079058 0.73900002 2.111641e-38
-0.0035095336 0.032989539 0.73700011 2.1299727e-38
-0.0021028761 0.032944754 0.73600018 2.0566841e-38
-0.00070097583 0.032944754 0.73600018 1.992794e-38
