# .PCD v0.7 - Point Cloud Data file format
VERSION 0.7
FIELDS x y z rgb
SIZE 4 4 4 4
TYPE F F F F
COUNT 1 1 1 1
WIDTH 984
HEIGHT 1
VIEWPOINT 0 0 0 1 0 0 0
POINTS 984
DATA ascii
0.043687616 0.016472369 0.75200003 8.2046796e-39
-0.032485712 0.018047594 0.75800002 8.3142919e-39
-0.031041903 0.018047608 0.75800002 8.594127e-39
-0.029598096 0.018047594 0.75800002 8.8717943e-39
-0.028079987 0.017999992 0.75599998 9.0565499e-39
-0.026639989 0.017999992 0.75599998 9.1505378e-39
-0.025166655 0.017976187 0.75500005 9.0640847e-39
-0.02363429 0.017904758 0.75200003 8.9729681e-39
-0.022201905 0.017904766 0.75200003 8.974403e-39
-0.020714289 0.017857134 0.75000006 8.9751219e-39
-0.019234266 0.017809518 0.74799997 9.064805e-39
-0.017738089 0.017738096 0.74500006 9.1638165e-39
-0.016275236 0.01769048 0.74300003 9.5304411e-39
-0.014839992 0.017666675 0.74199998 9.8113285e-39
-0.013390467 0.017619036 0.74000001 1.0087194e-38
-0.011980947 0.017619036 0.74000001 1.0364494e-38
-0.010557136 0.017595224 0.73900002 1.054386e-38
-0.0091495095 0.017595224 0.73899996 1.0642512e-38
-0.0077419002 0.017595224 0.73900002 1.0823671e-38
-0.0063171349 0.017547622 0.73700005 1.0919812e-38
-0.0049133198 0.017547615 0.73699999 1.0917301e-38
-0.0035095157 0.017547615 0.73699999 1.0921247e-38
-0.0021028484 0.01752381 0.73600006 1.1197112e-38
-0.00070094434 0.017523818 0.736 1.1380783e-38
0.00069905282 0.017476171 0.73400003 1.1656289e-38
0.0020971519 0.017476171 0.73400003 1.1841036e-38
0.0034952264 0.017476164 0.73400003 1.1841395e-38
0.0048933253 0.017476164 0.73400003 1.1841395e-38
0.0062914249 0.017476171 0.73400003 1.1931436e-38
0.007689524 0.017476179 0.73400003 1.1933589e-38
0.0090876231 0.017476179 0.73399997 1.1932513e-38
0.010485712 0.017476171 0.73400003 1.1931078e-38
0.011916194 0.017523818 0.73600006 1.1835655e-38
0.01328191 0.017476164 0.73400003 1.1655213e-38
0.014679994 0.017476171 0.73400003 1.1469031e-38
0.016121913 0.01752381 0.736 1.1286795e-38
0.017523823 0.01752381 0.736 1.1467595e-38
0.018925736 0.017523818 0.736 1.1653418e-38
0.020327631 0.017523818 0.736 1.1834938e-38
0.021729542 0.017523818 0.736 1.1928564e-38
0.023162862 0.01754763 0.73699999 1.1743816e-38
0.024566675 0.0175476 0.73700005 1.1466873e-38
0.025970498 0.017547615 0.73699999 1.1281767e-38
0.027374296 0.017547615 0.73700005 1.1003748e-38
0.0287781 0.017547622 0.73699999 1.0910476e-38
0.030263828 0.017595239 0.73899996 1.0722858e-38
0.031714294 0.017619021 0.74000001 1.0166462e-38
0.033213336 0.01766666 0.74199998 9.6172459e-39
0.034673337 0.01769048 0.74299997 1.0350498e-38
0.036088578 0.017690487 0.74299997 1.0994425e-38
0.037604772 0.017738082 0.745 1.0901516e-38
0.039180975 0.017809518 0.74799997 1.0709875e-38
0.040605739 0.017809525 0.74799997 9.315402e-39
0.042142872 0.017857134 0.75 7.9338534e-39
0.043687623 0.017904758 0.75200003 7.3788229e-39
0.045300018 0.01797618 0.755 6.7269949e-39
-0.032571431 0.019542865 0.76000005 8.3121115e-39
-0.031041896 0.019491404 0.75800002 8.3157409e-39
-0.029598089 0.019491419 0.75800002 8.2289445e-39
-0.028079987 0.019439988 0.75599998 8.318643e-39
-0.026639991 0.019439995 0.75599998 8.3204366e-39
-0.025166662 0.019414268 0.755 8.2303948e-39
-0.023634287 0.01933714 0.75200003 8.0506699e-39
-0.022201905 0.01933714 0.75199997 8.2346996e-39
-0.020714281 0.019285716 0.75 8.4219579e-39
-0.019234268 0.019234285 0.74799997 8.5119997e-39
-0.017738087 0.019157141 0.745 8.6117274e-39
-0.016275225 0.019105725 0.74299997 8.8857989e-39
-0.014799991 0.019028559 0.74000001 9.1674039e-39
-0.013372371 0.019002847 0.73899996 9.4389643e-39
-0.011964754 0.01900284 0.73900002 9.7166232e-39
-0.010557134 0.019002847 0.73900002 1.0084683e-38
-0.0091495188 0.019002847 0.73900002 1.0552111e-38
-0.0077418992 0.019002847 0.73900002 1.0732912e-38
-0.0063171261 0.018951423 0.73699999 1.08269e-38
-0.0049133226 0.018951416 0.73700005 1.0915866e-38
-0.0035095077 0.018951438 0.73699999 1.0917659e-38
-0.002102853 0.018925697 0.73600006 1.082403e-38
-0.00070094247 0.018925704 0.73600006 1.0638924e-38
0.00069904025 0.018874265 0.73400003 1.1007701e-38
0.0020971398 0.018874265 0.73400003 1.1376478e-38
0.0034952287 0.018874265 0.73400003 1.128536e-38
0.0048933281 0.018874265 0.73400003 1.1286436e-38
0.0062914267 0.018874273 0.73400003 1.1100613e-38
0.0076895258 0.018874273 0.73400003 1.0922323e-38
0.009087625 0.018874265 0.73399997 1.100806e-38
0.010485714 0.018874265 0.73400003 1.1006984e-38
0.011916214 0.018925719 0.736 1.0912996e-38
0.013281898 0.018874265 0.73400003 1.0734347e-38
0.014679996 0.018874265 0.73400003 1.0639283e-38
0.016121922 0.018925719 0.73600006 1.046171e-38
0.01752382 0.018925704 0.73600006 1.0914431e-38
0.018925728 0.018925712 0.736 1.1375402e-38
0.020327626 0.018925719 0.736 1.1557638e-38
0.021759065 0.018951423 0.73699999 1.1742381e-38
0.023162862 0.018951416 0.73700005 1.192246e-38
0.024566686 0.018951431 0.73699999 1.2015012e-38
0.025970481 0.018951423 0.73700005 1.21029e-38
0.027448578 0.01900284 0.73900002 1.2097157e-38
0.028856209 0.019002847 0.73900002 1.2927977e-38
0.030263819 0.01900284 0.73900002 1.3750911e-38
0.031800013 0.019079998 0.74199998 1.3478993e-38
0.033213347 0.019079991 0.74199998 1.3110222e-38
0.034673337 0.019105718 0.74300003 1.320565e-38
0.036088578 0.019105718 0.74299997 1.3387889e-38
0.03760476 0.019157134 0.74500006 1.2832932e-38
0.039180972 0.019234285 0.74799997 1.2368652e-38
0.040605735 0.01923427 0.74799997 1.3092853e-38
0.042142861 0.019285709 0.75 1.3813808e-38
0.043571424 0.019285701 0.75000006 1.2895355e-38
0.045300018 0.019414291 0.755 1.1959781e-38
0.046738103 0.019414268 0.75500005 1.1325542e-38
0.048240013 0.019439995 0.75599998 1.0774171e-38
-0.032614283 0.021018095 0.76100004 8.3102968e-39
-0.031123811 0.020990476 0.75999999 7.9433416e-39
-0.029598091 0.020935208 0.75800002 7.5795856e-39
-0.028154284 0.020935215 0.75800002 7.577073e-39
-0.026710475 0.020935223 0.75800002 7.4884759e-39
-0.025166661 0.02085238 0.755 7.3030211e-39
-0.02363429 0.020769507 0.75200003 7.124378e-39
-0.022201911 0.020769507 0.75200003 7.4920857e-39
-0.020714285 0.020714283 0.75 7.860864e-39
-0.019234274 0.020659037 0.74800003 7.9494723e-39
-0.017738087 0.020576186 0.74500006 8.0492125e-39
-0.016253324 0.020493329 0.74199998 8.3250918e-39
-0.014799997 0.020438083 0.74000001 8.5101963e-39
-0.01337238 0.020410463 0.73900002 8.7842664e-39
-0.011964753 0.020410471 0.73900002 8.9718849e-39
-0.010557137 0.020410456 0.73900002 9.7097988e-39
-0.0091495179 0.020410463 0.73900002 1.0448067e-38
-0.0077418918 0.020410463 0.73899996 1.0637118e-38
-0.0063171359 0.020355232 0.73699999 1.0724291e-38
-0.0049133208 0.02035524 0.73699999 1.0817204e-38
-0.0035095161 0.02035524 0.73699999 1.0907605e-38
-0.00210284 0.020327628 0.736 1.0450221e-38
-0.00070093595 0.02032762 0.736 9.8988494e-39
0.00069904351 0.020272367 0.73400003 1.0358744e-38
0.0020971426 0.020272374 0.73400003 1.0817922e-38
0.003495232 0.020272359 0.73400003 1.0728239e-38
0.0048933313 0.020272352 0.73400003 1.0635686e-38
0.0062914304 0.020272359 0.73400003 1.0261529e-38
0.0076895291 0.020272359 0.73400003 9.8999284e-39
0.0090876287 0.020272367 0.73400003 9.9860242e-39
0.010485703 0.020272359 0.73400003 1.0081087e-38
0.011883803 0.020272367 0.73400003 9.9827928e-39
0.013318106 0.02032762 0.736 9.8066566e-39
0.014720016 0.020327628 0.736 9.7087255e-39
0.016121928 0.020327628 0.736 9.6262184e-39
0.017523814 0.02032762 0.73600006 1.0352652e-38
0.018925725 0.02032762 0.73600006 1.1004468e-38
0.020327637 0.02032762 0.73600006 1.1277464e-38
0.021729531 0.020327613 0.73600006 1.1555123e-38
0.02316287 0.02035524 0.73699999 1.209609e-38
0.024566682 0.02035524 0.73700005 1.2565312e-38
0.025970491 0.020355247 0.73699999 1.2926196e-38
0.027374301 0.02035524 0.73700005 1.3208159e-38
0.02885621 0.020410478 0.73899996 1.5044867e-38
0.030304782 0.020438083 0.74000001 1.6793329e-38
0.031800009 0.020493321 0.74199998 1.6704365e-38
0.033258099 0.020520963 0.74299997 1.6612532e-38
0.034673333 0.020520948 0.74300003 1.6156945e-38
0.036088575 0.02052094 0.74300003 1.5689874e-38
0.037604764 0.020576194 0.745 1.4856537e-38
0.039128583 0.020631425 0.74699998 1.3936674e-38
0.040605731 0.020659044 0.74799997 1.6873902e-38
0.042142864 0.020714276 0.75000006 1.9717884e-38
0.043687627 0.020769514 0.75200003 1.8520746e-38
0.04536001 0.020879984 0.75599998 1.7231086e-38
0.046800006 0.020879991 0.75599998 1.7229993e-38
0.048240002 0.020879984 0.75599998 1.7226018e-38
-0.03261428 0.022467628 0.76099998 9.5027037e-39
-0.031123806 0.022438094 0.75999999 9.6910495e-39
-0.029598083 0.022379033 0.75799996 9.875061e-39
-0.02807999 0.022319987 0.75600004 9.9690307e-39
-0.026639996 0.022319995 0.75600004 1.0059092e-38
-0.025166657 0.022290468 0.755 9.9712209e-39
-0.023665713 0.02223143 0.75300002 9.7846926e-39
-0.022201903 0.022201911 0.75200003 1.0064158e-38
-0.020769535 0.022201888 0.75200003 1.0334645e-38
-0.019285712 0.022142842 0.75 1.0618046e-38
-0.017738087 0.021995224 0.74500006 1.098398e-38
-0.016275236 0.021936193 0.74300003 1.0895041e-38
-0.014839997 0.021906652 0.74199998 1.0793877e-38
-0.013390473 0.021847606 0.74000001 1.0893243e-38
-0.011980943 0.021847606 0.73999995 1.1074764e-38
-0.010557137 0.021818087 0.73900002 1.1449282e-38
-0.0091495095 0.021818087 0.73900002 1.1903794e-38
-0.0077419011 0.021818087 0.73900002 1.2093918e-38
-0.0063342745 0.021818087 0.73900002 1.2361176e-38
-0.0049266648 0.021818079 0.73900002 1.2553458e-38
-0.0035190389 0.021818079 0.73900002 1.2731389e-38
-0.0021028456 0.021729521 0.736 1.2648522e-38
-0.00070094247 0.021729521 0.736 1.2554893e-38
0.00070096948 0.021729529 0.736 1.292654e-38
0.0021028656 0.021729536 0.736 1.3288142e-38
0.0035047766 0.021729536 0.736 1.3664811e-38
0.0048933337 0.021670453 0.73400003 1.403108e-38
0.0062914328 0.021670453 0.73400003 1.3942474e-38
0.0076895175 0.021670461 0.73400003 1.3940323e-38
0.0091123963 0.021729521 0.73600006 1.4034671e-38
0.010514293 0.021729521 0.73600006 1.4215111e-38
0.011916203 0.021729529 0.73600006 1.4309812e-38
0.013318115 0.021729529 0.736 1.4494565e-38
0.014720012 0.021729529 0.736 1.4589633e-38
0.016121922 0.021729529 0.736 1.4686133e-38
0.017523833 0.021729529 0.736 1.5142801e-38
0.01892573 0.021729529 0.736 1.5604131e-38
0.020327641 0.021729529 0.736 1.587892e-38
0.021729527 0.021729521 0.73600006 1.6246624e-38
0.02316287 0.021759041 0.73700005 1.642958e-38
0.024566675 0.021759063 0.73699999 1.6713339e-38
0.025970489 0.021759041 0.73700005 1.6707959e-38
0.02737431 0.021759048 0.73699999 1.6713699e-38
0.028856201 0.021818079 0.73900002 1.7536272e-38
0.030263821 0.021818087 0.73900002 1.8458573e-38
0.031800006 0.021906652 0.74199998 1.7996885e-38
0.033258099 0.021936193 0.74299997 1.7540218e-38
0.034673344 0.021936193 0.74299997 1.6893065e-38
0.036088586 0.021936201 0.74299997 1.6246266e-38
0.037604772 0.021995224 0.74500006 1.6145458e-38
0.039128594 0.02205427 0.74699998 1.6147903e-38
0.040605728 0.022083804 0.74799997 1.8908284e-38
0.04203048 0.022083797 0.74799997 2.158084e-38
0.043571431 0.02214285 0.75000006 2.0930817e-38
0.045360018 0.022319987 0.75600004 2.0386945e-38
0.046800014 0.022319995 0.75599998 2.0377943e-38
0.048495248 0.022438101 0.75999999 2.038542e-38
0.050140008 0.022526659 0.76300001 1.8990611e-38
0.051593337 0.022526659 0.76300001 1.7707409e-38
0.053046666 0.022526659 0.76300001 1.6034981e-38
-0.032614276 0.023917139 0.76099998 1.0704129e-38
-0.031164769 0.023917131 0.76100004 1.1442778e-38
-0.029676182 0.023885727 0.75999999 1.2179245e-38
-0.028154278 0.023822837 0.75800002 1.2456893e-38
-0.026639998 0.023759991 0.75600004 1.2642376e-38
-0.025166655 0.023728564 0.755 1.2554505e-38
-0.02372857 0.023728557 0.75500005 1.246124e-38
-0.022201912 0.023634277 0.75200003 1.2644918e-38
-0.020769527 0.02363427 0.75200003 1.2831101e-38
-0.019285714 0.023571424 0.75000006 1.3388214e-38
-0.017738095 0.023414277 0.74500006 1.3843458e-38
-0.016275236 0.023351431 0.74300003 1.3477565e-38
-0.01486 0.023351438 0.74300003 1.301444e-38
-0.013426669 0.023319997 0.74200004 1.3104122e-38
-0.01198095 0.023257121 0.74000001 1.3109504e-38
-0.010571418 0.023257129 0.74000001 1.3292818e-38
-0.0091495188 0.023225695 0.73900002 1.3385727e-38
-0.0077418927 0.023225702 0.73900002 1.3656569e-38
-0.0063342736 0.02322571 0.73899996 1.3937457e-38
-0.0049266638 0.023225702 0.73900002 1.4212607e-38
-0.003519038 0.02322571 0.73899996 1.4490983e-38
-0.0021028512 0.023131438 0.73600006 1.4857249e-38
-0.00070189056 0.023162857 0.73699999 1.5229254e-38
0.00070096343 0.023131423 0.73600006 1.5504761e-38
0.0021028749 0.02313143 0.736 1.5690225e-38
0.0035047715 0.02313143 0.736 1.6611091e-38
0.0048933364 0.023068547 0.73400003 1.7440122e-38
0.0062914211 0.023068555 0.73400003 1.7721011e-38
0.0076895207 0.023068562 0.73400003 1.7901813e-38
0.0091124009 0.023131438 0.736 1.8180549e-38
0.010514287 0.023131423 0.73600006 1.8360631e-38
0.011916198 0.02313143 0.73600006 1.8730483e-38
0.013318108 0.02313143 0.73600006 1.909675e-38
0.014720006 0.02313143 0.73600006 1.9468758e-38
0.016121916 0.023131438 0.73600006 1.9742472e-38
0.017523827 0.023131423 0.736 2.0019772e-38
0.018925725 0.023131423 0.736 2.020165e-38
0.020355256 0.023162864 0.73699999 2.0570785e-38
0.021759054 0.023162864 0.73700005 2.08445e-38
0.023162877 0.023162849 0.73699999 2.0846295e-38
0.024566675 0.023162849 0.73700005 2.0846295e-38
0.026040971 0.02322571 0.73900002 2.0570788e-38
0.027485723 0.023257129 0.74000001 2.0203087e-38
0.028895242 0.023257121 0.74000001 2.0111609e-38
0.030386673 0.023319997 0.74199998 2.0019415e-38
0.031842858 0.023351423 0.74300003 1.9284733e-38
0.033258099 0.023351423 0.74300003 1.8456778e-38
0.034766678 0.023414284 0.74500006 1.7628108e-38
0.036185715 0.023414277 0.74500006 1.6702557e-38
0.037705734 0.023477145 0.74699998 1.7515065e-38
0.039180979 0.023508556 0.74799997 1.835412e-38
0.04071429 0.023571424 0.75 2.0938052e-38
0.042142868 0.023571417 0.75 2.3417247e-38
0.043687627 0.023634285 0.75200003 2.3417602e-38
0.045360006 0.023759991 0.75600004 2.3417589e-38
0.046923824 0.023822851 0.75800002 2.3417576e-38
0.048495248 0.023885727 0.75999999 2.3417187e-38
0.050008576 0.023917146 0.76100004 2.3417516e-38
0.05159333 0.023979992 0.76300001 2.3413203e-38
0.05318572 0.024042845 0.76500005 2.3416782e-38
0.054785717 0.024105713 0.76700002 2.3404937e-38
-0.034153331 0.025433324 0.76299995 1.0242089e-38
-0.032700013 0.025433317 0.76300001 1.1166568e-38
-0.031164765 0.025366664 0.76100004 1.1721909e-38
-0.029676184 0.025333345 0.75999999 1.2279377e-38
-0.02815428 0.025266647 0.75800002 1.2463045e-38
-0.026639992 0.025199987 0.75600004 1.2743232e-38
-0.025166655 0.025166661 0.755 1.2835084e-38
-0.023665702 0.025099993 0.75299996 1.3023777e-38
-0.022201909 0.025066666 0.75200003 1.3481161e-38
-0.02076952 0.025066674 0.75199997 1.3946078e-38
-0.019285718 0.024999984 0.75000006 1.4034685e-38
-0.017738093 0.024833329 0.74500006 1.4125803e-38
-0.016319038 0.024833336 0.74500006 1.4403103e-38
-0.01486 0.024766646 0.74300003 1.4774391e-38
-0.013426656 0.02473332 0.74199998 1.4957704e-38
-0.012013324 0.024733327 0.74199998 1.5149267e-38
-0.010571426 0.024666652 0.74000001 1.5420468e-38
-0.0091618951 0.02466666 0.73999995 1.570028e-38
-0.0077418927 0.024633318 0.73899996 1.6063317e-38
-0.0063342829 0.024633311 0.73900002 1.6438192e-38
-0.0049266564 0.024633326 0.73900002 1.6708318e-38
-0.0035190473 0.024633318 0.73900002 1.6989205e-38
-0.0021057047 0.024566665 0.73699999 1.7351525e-38
-0.00070189987 0.024566665 0.73700005 1.7723889e-38
0.00070191477 0.024566673 0.73699999 1.7903973e-38
0.0021057266 0.02456665 0.73699999 1.8091231e-38
0.0035047655 0.024533331 0.736 1.8547898e-38
0.0049133468 0.024566665 0.73699999 1.9101422e-38
0.0063085882 0.024533331 0.736 1.919254e-38
0.0077104843 0.024533331 0.736 1.9285093e-38
0.0091247633 0.024566658 0.73700005 1.9375852e-38
0.010514307 0.024533346 0.736 1.9560599e-38
0.011916203 0.024533331 0.736 1.9651358e-38
0.013318114 0.024533339 0.736 1.9836106e-38
0.01472 0.024533324 0.73600006 2.0019418e-38
0.016143823 0.024566665 0.73699999 2.0295283e-38
0.01754762 0.024566665 0.73700005 2.0294924e-38
0.018951444 0.024566673 0.73699999 2.0295283e-38
0.020355256 0.024566673 0.73700005 2.0386401e-38
0.021759063 0.024566665 0.73699999 2.057079e-38
0.023225719 0.024633326 0.73900002 2.0478237e-38
0.024666673 0.02466666 0.74000001 2.0478953e-38
0.026076207 0.024666652 0.74000001 2.0294204e-38
0.027485726 0.024666652 0.74000001 2.0110173e-38
0.028895246 0.024666645 0.74000001 2.0569349e-38
0.030386668 0.024733342 0.74199998 2.1028528e-38
0.031842869 0.024766676 0.74299997 2.0477515e-38
0.03334764 0.024833322 0.745 1.992471e-38
0.03476667 0.024833314 0.74500006 1.9463023e-38
0.036282878 0.024900004 0.74699998 1.8909821e-38
0.037756197 0.024933323 0.74800003 1.8993368e-38
0.039285708 0.024999991 0.75000006 1.9182089e-38
0.040714279 0.024999984 0.75000006 2.1208954e-38
0.042255249 0.025066659 0.75199997 2.3231839e-38
0.043687612 0.025066651 0.75200003 2.3324383e-38
0.045300011 0.025166661 0.755 2.3417662e-38
0.04680001 0.025199994 0.75600004 2.3417669e-38
0.048240002 0.025199987 0.75600004 2.3417666e-38
0.050140001 0.025433317 0.76300001 2.3417662e-38
0.051593326 0.025433324 0.76300001 2.3417663e-38
0.053185731 0.0255 0.76500005 2.3417663e-38
0.054785721 0.025566667 0.76699996 2.3417649e-38
0.056246676 0.02556666 0.76700002 2.2954869e-38
-0.034153335 0.026886664 0.76299995 1.1251185e-38
-0.032699998 0.026886657 0.76299995 1.1534613e-38
-0.031164763 0.026816189 0.76100004 1.1906648e-38
-0.029715236 0.026816189 0.76099998 1.227794e-38
-0.028228575 0.026780955 0.76000005 1.2555603e-38
-0.026710473 0.026710458 0.75800002 1.2741441e-38
-0.025166661 0.026604757 0.755 1.3202067e-38
-0.023665717 0.026534274 0.75300002 1.3572279e-38
-0.022201912 0.026499026 0.75200003 1.4309833e-38
-0.020714287 0.026428558 0.75 1.5046669e-38
-0.019234277 0.026358083 0.74800003 1.4770804e-38
-0.017785702 0.026322849 0.74699998 1.4405256e-38
-0.016319048 0.026252367 0.74500006 1.5418316e-38
-0.014859998 0.026181899 0.74299997 1.6431376e-38
-0.013444755 0.026181914 0.74299997 1.6802664e-38
-0.012013328 0.026146665 0.74199998 1.7170006e-38
-0.010599995 0.026146665 0.74199998 1.7539499e-38
-0.0091619007 0.02607616 0.74000001 1.7905765e-38
-0.0077419025 0.026040934 0.73900002 1.8366736e-38
-0.0063342759 0.026040941 0.73900002 1.8825914e-38
-0.0049266559 0.026040949 0.73899996 1.9193256e-38
-0.0035190403 0.026040934 0.73900002 1.9468404e-38
-0.0021057066 0.025970481 0.73700005 1.9836103e-38
-0.00070189149 0.025970481 0.73699999 2.0203086e-38
0.00070191338 0.025970466 0.73700005 2.0387114e-38
0.0021057355 0.025970474 0.73699999 2.0478591e-38
0.0035095329 0.025970474 0.73699999 2.0570787e-38
0.004913344 0.025970474 0.73700005 2.0662262e-38
0.0063171517 0.025970481 0.73699999 2.0662621e-38
0.0077104801 0.025935233 0.73600006 2.0570068e-38
0.0091247717 0.025970481 0.73699999 2.0661187e-38
0.010528583 0.025970466 0.73700005 2.0661905e-38
0.011916198 0.02593524 0.736 2.0570428e-38
0.01331811 0.025935248 0.736 2.0478234e-38
0.014720021 0.025935248 0.736 2.0661546e-38
0.016143823 0.025970474 0.73700005 2.0753382e-38
0.01754763 0.025970489 0.73699999 2.0568634e-38
0.018951442 0.025970481 0.73699999 2.0293845e-38
0.020355249 0.025970474 0.73699999 2.0292771e-38
0.021759061 0.025970474 0.73699999 2.0201651e-38
0.023225719 0.026040941 0.73900002 2.0200216e-38
0.024666667 0.02607616 0.74000001 2.0109456e-38
0.026076211 0.026076183 0.74000001 2.0108738e-38
0.027560016 0.026146673 0.74199998 2.001762e-38
0.028973347 0.02614665 0.74199998 2.1026736e-38
0.030427624 0.026181899 0.74300003 2.2038718e-38
0.031842865 0.026181906 0.74299997 2.1763571e-38
0.033347629 0.026252374 0.74500006 2.1393355e-38
0.03476667 0.026252374 0.74500006 2.1297569e-38
0.036282871 0.026322864 0.74699998 2.1111356e-38
0.037756208 0.026358083 0.74800003 2.0550268e-38
0.039285719 0.026428565 0.75 1.9916408e-38
0.040714286 0.026428565 0.75000006 2.1483015e-38
0.042255245 0.02649904 0.75200003 2.3045647e-38
0.04374573 0.026534297 0.75299996 2.3229671e-38
0.045300011 0.026604749 0.755 2.3416213e-38
0.046800014 0.026639983 0.75600004 2.3417651e-38
0.04824001 0.026639983 0.75600004 2.3417648e-38
0.050271433 0.026957117 0.76500005 2.3417647e-38
0.051728576 0.026957124 0.76500005 2.3417658e-38
0.053185716 0.026957132 0.76500005 2.3417669e-38
0.054785728 0.027027629 0.76699996 2.3417662e-38
0.057782866 0.027062848 0.76800001 2.3417596e-38
-0.034153335 0.028339989 0.76299995 1.3093974e-38
-0.032699998 0.028340004 0.76299995 1.3834433e-38
-0.03116476 0.028265715 0.76099998 1.4112843e-38
-0.029715236 0.028265707 0.76099998 1.4482348e-38
-0.028228574 0.028228574 0.75999999 1.4667824e-38
-0.026710475 0.028154261 0.75800002 1.4943702e-38
-0.025099995 0.027968578 0.75299996 1.5036983e-38
-0.023665708 0.027968571 0.75299996 1.5222448e-38
-0.022201907 0.027931429 0.75200003 1.5685213e-38
-0.020714289 0.027857132 0.75000006 1.6149413e-38
-0.019234272 0.027782843 0.74800003 1.6057935e-38
-0.017785693 0.027745716 0.74699998 1.6060447e-38
-0.016319046 0.027671427 0.74500006 1.6611101e-38
-0.01489999 0.027671419 0.74500006 1.7260048e-38
-0.013444755 0.027597144 0.74299997 1.7626673e-38
-0.012029513 0.027597152 0.74299997 1.799509e-38
-0.0106 0.027559988 0.74200004 1.836243e-38
-0.0091619045 0.027485684 0.74000001 1.8730848e-38
-0.0077419016 0.027448565 0.73900002 1.9007431e-38
-0.006334275 0.027448557 0.73899996 1.9376567e-38
-0.0049266587 0.02744855 0.73900002 1.9650997e-38
-0.0035190394 0.027448565 0.73900002 2.0018337e-38
-0.0021056982 0.027374297 0.73699999 2.0477872e-38
-0.00070189335 0.027374282 0.73699999 2.0937048e-38
0.00070192129 0.027374282 0.73699999 2.0936688e-38
0.0021057187 0.027374275 0.73699999 2.1027808e-38
0.0035095306 0.027374282 0.73700005 2.130439e-38
0.0049133385 0.02737429 0.73699999 2.1671374e-38
0.0063171503 0.02737429 0.73700005 2.1579537e-38
0.0077209724 0.027374282 0.73699999 2.1487703e-38
0.0091247698 0.027374275 0.73700005 2.1671732e-38
0.010528577 0.027374282 0.73699999 2.1855045e-38
0.011932388 0.027374282 0.73700005 2.1855762e-38
0.013336211 0.02737429 0.73699999 2.1946882e-38
0.014740008 0.02737429 0.73700005 2.194724e-38
0.01614383 0.027374282 0.73699999 2.2038717e-38
0.017547628 0.027374282 0.73699999 2.194724e-38
0.01895145 0.027374282 0.73699999 2.1855406e-38
0.020355247 0.027374282 0.73699999 2.1855406e-38
0.021759059 0.027374275 0.73700005 2.1855405e-38
0.023225721 0.027448565 0.73899996 2.1763209e-38
0.024666671 0.027485698 0.74000001 2.1762493e-38
0.02607619 0.027485691 0.74000001 2.1762852e-38
0.027560009 0.027559988 0.74199998 2.1762855e-38
0.029012391 0.027597144 0.74299997 2.2222751e-38
0.030427624 0.027597137 0.74300003 2.2774839e-38
0.03184285 0.027597144 0.74300003 2.2590089e-38
0.033347633 0.027671427 0.745 2.2403897e-38
0.034766674 0.027671434 0.745 2.2311334e-38
0.036282871 0.027745701 0.74699998 2.2218399e-38
0.037756193 0.02778285 0.74800003 2.1571937e-38
0.039285708 0.02785714 0.75000006 2.1022018e-38
0.040714301 0.027857132 0.75 2.2126213e-38
0.042255234 0.027931422 0.75200003 2.3227874e-38
0.043745726 0.027968578 0.75299996 2.3321857e-38
0.045360006 0.028079987 0.75600004 2.3415842e-38
0.046800006 0.028079979 0.75600004 2.3416555e-38
0.048240013 0.028079987 0.75600004 2.3417631e-38
0.050271422 0.028414264 0.76500005 2.3417272e-38
0.05172858 0.028414264 0.76500005 2.3417652e-38
0.05318572 0.028414272 0.76500005 2.3417314e-38
0.054857157 0.028525718 0.76799995 2.3325839e-38
-0.034153327 0.029793315 0.76300001 1.4937833e-38
-0.032699998 0.029793322 0.76300001 1.604098e-38
-0.031164756 0.029715233 0.76099998 1.6319401e-38
-0.029715233 0.02971524 0.76099998 1.6597418e-38
-0.028154278 0.029598072 0.75800002 1.6872564e-38
-0.026710467 0.029598087 0.75800002 1.7057668e-38
-0.025166655 0.029480949 0.755 1.696332e-38
-0.023665704 0.029402852 0.75299996 1.6876524e-38
-0.022201909 0.029363804 0.75200003 1.7059136e-38
-0.020714283 0.029285707 0.75 1.7157071e-38
-0.019234275 0.029207617 0.74800003 1.7434015e-38
-0.017785693 0.029168561 0.74699998 1.761733e-38
-0.016319046 0.029090464 0.74500006 1.7888536e-38
-0.014899999 0.029090472 0.74500006 1.8081177e-38
-0.013444755 0.029012382 0.74300003 1.844852e-38
-0.012029521 0.029012389 0.74299997 1.8726179e-38
-0.010600002 0.028973326 0.74200004 1.9091727e-38
-0.0091619007 0.028895214 0.74000001 1.9463734e-38
-0.0077418941 0.028856181 0.73900002 1.9647766e-38
-0.006342853 0.028895222 0.74000001 1.9832871e-38
-0.0049333326 0.028895222 0.74000001 2.0199855e-38
-0.0035190394 0.028856188 0.73899996 2.0568992e-38
-0.0021057066 0.028778091 0.73699999 2.1119647e-38
-0.00070190267 0.028778091 0.73700005 2.1671376e-38
0.0007019199 0.028778099 0.73699999 2.1578465e-38
0.0021057173 0.028778099 0.73700005 2.1487705e-38
0.0035095394 0.028778099 0.73699999 2.2038718e-38
0.0049133366 0.028778084 0.73700005 2.2589731e-38
0.0063171592 0.028778091 0.73699999 2.249682e-38
0.0077209566 0.028778084 0.73700005 2.2406419e-38
0.0091247782 0.028778106 0.73699999 2.2682286e-38
0.010528576 0.028778099 0.73700005 2.2957792e-38
0.011932398 0.028778099 0.73699999 2.3141822e-38
0.013336196 0.028778099 0.73700005 2.3325493e-38
0.014740018 0.028778091 0.73699999 2.3325852e-38
0.016143816 0.028778091 0.73699999 2.3325493e-38
0.017547628 0.028778091 0.73700005 2.3417687e-38
0.018951435 0.028778099 0.73699999 2.3417328e-38
0.020355245 0.028778091 0.73700005 2.3417689e-38
0.021759069 0.028778099 0.73699999 2.3417328e-38
0.023225727 0.028856173 0.73900002 2.3417687e-38
0.024666673 0.028895222 0.74000001 2.3417328e-38
0.026076196 0.028895222 0.74000001 2.3417687e-38
0.027560007 0.028973334 0.74199998 2.341733e-38
0.029012391 0.029012375 0.74299997 2.341769e-38
0.030427633 0.029012382 0.74299997 2.3417689e-38
0.031842861 0.029012389 0.74299997 2.3417687e-38
0.033347625 0.029090472 0.74500006 2.3416966e-38
0.034860011 0.029168569 0.74699998 2.3417677e-38
0.036282878 0.029168569 0.74699998 2.3324034e-38
0.037756201 0.029207617 0.74800003 2.2680814e-38
0.039285712 0.029285699 0.75000006 2.2035456e-38
0.04071429 0.029285707 0.75000006 2.2771935e-38
0.042255234 0.029363796 0.75200003 2.3414063e-38
0.043745726 0.02940286 0.75300002 2.3414421e-38
0.04536001 0.029519983 0.75600004 2.3415496e-38
0.04692382 0.029598065 0.75800002 2.3415137e-38
0.048367627 0.02959808 0.75799996 2.3416929e-38
0.051863823 0.029949531 0.76699996 2.3416575e-38
-0.034153335 0.031246662 0.76300001 1.3556328e-38
-0.032700006 0.031246647 0.76300001 1.4112419e-38
-0.031164754 0.031164765 0.76099998 1.5124817e-38
-0.029715238 0.03116475 0.76100004 1.623508e-38
-0.028265715 0.03116475 0.76100004 1.6877197e-38
-0.026710479 0.031041875 0.75800002 1.7522542e-38
-0.025166653 0.030919038 0.755 1.8441959e-38
-0.023665702 0.030837148 0.75299996 1.9271741e-38
-0.022201909 0.030796178 0.75200003 1.9730952e-38
-0.020714285 0.030714281 0.75 2.0281969e-38
-0.019234279 0.030632362 0.74800003 2.037632e-38
-0.017785702 0.030591428 0.74699998 2.0463858e-38
-0.01636285 0.030591406 0.74699998 2.0652557e-38
-0.014899997 0.030509509 0.74500006 2.0747624e-38
-0.013444764 0.030427612 0.74300003 2.0932015e-38
-0.012029521 0.03042762 0.74300003 2.1113535e-38
-0.010599989 0.030386664 0.74199998 2.1300436e-38
-0.0091618961 0.030304737 0.74000001 2.148698e-38
-0.0077418927 0.030263804 0.73899996 2.15781e-38
-0.0063428488 0.030304752 0.74000001 2.1667785e-38
-0.0049333284 0.030304745 0.74000001 2.1854326e-38
-0.0035238091 0.030304737 0.74000001 2.2039795e-38
-0.0021057085 0.0301819 0.73700005 2.2314945e-38
-0.00070189335 0.030181907 0.73699999 2.2591169e-38
0.0007019185 0.0301819 0.73700005 2.2498616e-38
0.0021057257 0.030181915 0.73699999 2.2498975e-38
0.003509538 0.0301819 0.73700005 2.2774481e-38
0.0049133459 0.0301819 0.73699999 2.3050347e-38
0.0063171578 0.0301819 0.73700005 2.2957794e-38
0.007720965 0.030181907 0.73699999 2.2958513e-38
0.0091247773 0.030181907 0.73700005 2.3050348e-38
0.010528585 0.030181915 0.73699999 2.3234019e-38
0.011932395 0.030181915 0.73699999 2.3325854e-38
0.013336193 0.030181885 0.73700005 2.341769e-38
0.014740015 0.0301819 0.73699999 2.341769e-38
0.016143812 0.0301819 0.73700005 2.341769e-38
0.017595256 0.030263804 0.73900002 2.341769e-38
0.018951433 0.030181907 0.73700005 2.341769e-38
0.020355254 0.0301819 0.73699999 2.341769e-38
0.021759052 0.0301819 0.73700005 2.341769e-38
0.023225727 0.030263796 0.73900002 2.341769e-38
0.024633346 0.030263804 0.73899996 2.341769e-38
0.026076198 0.030304745 0.74000001 2.341769e-38
0.027560003 0.030386657 0.74199998 2.341769e-38
0.029012391 0.030427612 0.74300003 2.341769e-38
0.030427633 0.03042762 0.74300003 2.341769e-38
0.031928584 0.030509517 0.74500006 2.341769e-38
0.033347625 0.030509517 0.74500006 2.341769e-38
0.034860019 0.030591413 0.74699998 2.341769e-38
0.036282871 0.030591421 0.74699998 2.3417687e-38
0.037756201 0.030632369 0.74800003 2.2221671e-38
0.039285716 0.030714288 0.75 2.1116045e-38
0.040714275 0.030714266 0.75000006 2.0930925e-38
0.042255238 0.030796185 0.75200003 2.0660083e-38
0.043745723 0.030837148 0.75299996 2.0840167e-38
0.045480005 0.03104189 0.75800002 2.1028504e-38
0.047047634 0.031123824 0.75999999 2.1576649e-38
0.048686665 0.03124667 0.76299995 2.2223799e-38
0.051931448 0.031451426 0.76799995 2.3416573e-38
-0.034242861 0.032785691 0.76500005 1.217231e-38
-0.032700006 0.032699995 0.76300001 1.2175594e-38
-0.031246664 0.032699995 0.76300001 1.4016303e-38
-0.029715238 0.032614276 0.76100004 1.5770859e-38
-0.028265711 0.032614291 0.76099998 1.6877903e-38
-0.026710469 0.032485709 0.75799996 1.7981375e-38
-0.025099991 0.032271437 0.75299996 1.982599e-38
-0.023665709 0.032271422 0.75299996 2.1664157e-38
-0.022201905 0.032228567 0.75199997 2.2495004e-38
-0.020714283 0.03214284 0.75000006 2.3321527e-38
-0.019285714 0.032142848 0.75 2.3325836e-38
-0.0177857 0.032014281 0.74699998 2.3322252e-38
-0.016362848 0.032014273 0.74699998 2.3417679e-38
-0.014899988 0.031928577 0.745 2.3415887e-38
-0.013444753 0.031842865 0.74299997 2.3417682e-38
-0.012029529 0.031842858 0.74300003 2.3415529e-38
-0.010614286 0.031842858 0.74300003 2.3417683e-38
-0.0091866618 0.031799994 0.74199998 2.3417326e-38
-0.0077523724 0.031714275 0.74000001 2.3417686e-38
-0.006342852 0.031714275 0.74000001 2.341661e-38
-0.0049333251 0.031714253 0.74000001 2.3417686e-38
-0.0035190398 0.031671412 0.73900002 2.3417687e-38
-0.0021057001 0.031585716 0.73699999 2.341769e-38
-0.00070189522 0.031585716 0.73700005 2.341769e-38
0.00070191245 0.031585708 0.73699999 2.341769e-38
0.0021057234 0.031585708 0.73700005 2.341769e-38
0.003509531 0.031585716 0.73699999 2.341769e-38
0.0049133431 0.031585716 0.73700005 2.341769e-38
0.0063171508 0.031585716 0.73699999 2.341769e-38
0.0077209626 0.031585716 0.73700005 2.341769e-38
0.0091247847 0.031585716 0.73699999 2.341769e-38
0.010528582 0.031585708 0.73699999 2.341769e-38
0.011932394 0.031585708 0.73700005 2.341769e-38
0.013372393 0.031671412 0.73900002 2.341769e-38
0.014780002 0.031671405 0.73900002 2.341769e-38
0.016143821 0.031585723 0.73699999 2.341769e-38
0.017595256 0.031671427 0.73899996 2.341769e-38
0.01895144 0.031585708 0.73699999 2.341769e-38
0.020355253 0.031585708 0.73700005 2.341769e-38
0.021759059 0.031585716 0.73699999 2.341769e-38
0.023225727 0.031671412 0.73900002 2.341769e-38
0.024633335 0.03167142 0.73900002 2.341769e-38
0.026076201 0.031714275 0.74000001 2.341769e-38
0.027559998 0.031799987 0.74199998 2.341769e-38
0.029012389 0.03184285 0.74300003 2.341769e-38
0.030427618 0.03184285 0.74300003 2.341769e-38
0.031928577 0.031928554 0.74500006 2.341769e-38
0.033437159 0.032014281 0.74699998 2.341769e-38
0.034860011 0.032014295 0.74699998 2.341769e-38
0.036331445 0.032057136 0.74799997 2.341768e-38
0.037756197 0.032057129 0.74800003 2.185611e-38
0.039285719 0.032142848 0.75 2.0193378e-38
0.040822856 0.032228567 0.75199997 1.9083812e-38
0.042311434 0.032271415 0.75300002 1.7892465e-38
0.043861911 0.032357134 0.755 1.8257659e-38
0.045600004 0.032571428 0.76000005 1.8535678e-38
0.047047619 0.032571442 0.75999999 1.9730975e-38
0.048686672 0.032699987 0.76300001 2.0929498e-38
-0.034242857 0.034242846 0.76500005 1.2264118e-38
-0.032785714 0.034242854 0.76500005 1.2534297e-38
-0.031246671 0.034153327 0.76300001 1.4383973e-38
-0.029793328 0.03415332 0.76300001 1.6228939e-38
-0.028265709 0.034063801 0.76099998 1.613926e-38
-0.026710471 0.033929504 0.75800002 1.604567e-38
-0.025166657 0.033795238 0.755 1.7427545e-38
-0.023665708 0.033705719 0.75299996 1.8818721e-38
-0.022201909 0.033660948 0.75200003 2.1027089e-38
-0.020714292 0.033571422 0.75000006 2.332585e-38
-0.019285718 0.033571422 0.75000006 2.2588301e-38
-0.017809512 0.033481903 0.74799997 2.1764651e-38
-0.016362848 0.033437133 0.74699998 2.2130917e-38
-0.014899996 0.033347622 0.74500006 2.24075e-38
-0.013444753 0.033258095 0.74299997 2.286596e-38
-0.012029519 0.033258103 0.74299997 2.3325854e-38
-0.010614287 0.033258088 0.74300003 2.3325854e-38
-0.0091866646 0.033213325 0.74199998 2.3325854e-38
-0.0077733332 0.033213325 0.74199998 2.341769e-38
-0.0063599912 0.033213332 0.74199998 2.341769e-38
-0.0049466593 0.033213325 0.74199998 2.341769e-38
-0.0035238003 0.033123791 0.74000001 2.341769e-38
-0.0021057094 0.032989517 0.73700005 2.341769e-38
-0.00070189429 0.032989517 0.73699999 2.341769e-38
0.00070191012 0.032989509 0.73700005 2.341769e-38
0.0021057322 0.032989532 0.73699999 2.341769e-38
0.0035095296 0.032989524 0.73700005 2.341769e-38
0.0049133524 0.032989532 0.73699999 2.341769e-38
0.0063171494 0.032989532 0.73699999 2.341769e-38
0.0077209715 0.032989517 0.73699999 2.341769e-38
0.009124768 0.032989517 0.73699999 2.341769e-38
0.01052858 0.032989517 0.73700005 2.341769e-38
0.011932388 0.032989524 0.73699999 2.341769e-38
0.013372393 0.033079036 0.73899996 2.341769e-38
0.014780002 0.033079043 0.73900002 2.341769e-38
0.016187636 0.03307905 0.73900002 2.341769e-38
0.017595245 0.033079036 0.73900002 2.341769e-38
0.019002864 0.033079043 0.73900002 2.341769e-38
0.020410487 0.033079028 0.73900002 2.341769e-38
0.021818107 0.033079043 0.73900002 2.341769e-38
0.023225727 0.03307905 0.73899996 2.341769e-38
0.024633335 0.033079036 0.73900002 2.341769e-38
0.026076207 0.033123799 0.74000001 2.341769e-38
0.027560009 0.033213317 0.74200004 2.341769e-38
0.029012386 0.033258095 0.74299997 2.341769e-38
0.030509539 0.033347607 0.74500006 2.341769e-38
0.031928577 0.033347622 0.74500006 2.341769e-38
0.03343717 0.033437133 0.74699998 2.341769e-38
0.034860022 0.03343714 0.74699998 2.3234019e-38
0.036331441 0.033481896 0.74799997 2.2958497e-38
0.037756208 0.033481896 0.74800003 2.074546e-38
0.039285719 0.033571407 0.75000006 1.8442398e-38
0.040822852 0.033660941 0.75200003 1.7612291e-38
0.042423826 0.033795238 0.755 1.687367e-38
0.043920014 0.033839986 0.75599998 1.6873677e-38
0.045600001 0.034019046 0.75999999 1.6869731e-38
0.047047623 0.034019046 0.76000005 1.7335005e-38
-0.032785721 0.035699986 0.76500005 1.2910992e-38
-0.03116476 0.035513334 0.76100004 1.4848535e-38
-0.029715236 0.035513327 0.76099998 1.6688487e-38
-0.028265705 0.035513327 0.76099998 1.5403878e-38
-0.026710475 0.035373315 0.75800002 1.402313e-38
-0.025166655 0.035233341 0.755 1.4928226e-38
-0.023665706 0.035140015 0.75299996 1.5871722e-38
-0.022201909 0.035093337 0.75199997 1.965243e-38
-0.020714277 0.035000004 0.75 2.3322976e-38
-0.01928572 0.034999982 0.75000006 2.17528e-38
-0.017809508 0.03490667 0.74799997 2.0196619e-38
-0.016362846 0.034860007 0.74699998 2.0841621e-38
-0.014899986 0.034766667 0.745 2.1392634e-38
-0.013444764 0.034673333 0.74300003 2.2312426e-38
-0.012029519 0.034673341 0.74299997 2.3232937e-38
-0.010614277 0.034673348 0.74299997 2.3234018e-38
-0.0091866618 0.034626648 0.74199998 2.3233659e-38
-0.00777333 0.034626663 0.74200004 2.3325854e-38
-0.0063599944 0.03462667 0.74199998 2.341769e-38
-0.0049466626 0.034626655 0.74199998 2.341769e-38
-0.0035238049 0.034533322 0.74000001 2.341769e-38
-0.0021114231 0.034486651 0.73900002 2.341769e-38
-0.00070189708 0.034393333 0.73700005 2.341769e-38
0.00070191803 0.034393333 0.73699999 2.341769e-38
0.0021057299 0.034393333 0.73700005 2.341769e-38
0.0035095375 0.034393325 0.73699999 2.341769e-38
0.0049133496 0.03439334 0.73699999 2.341769e-38
0.0063171471 0.034393318 0.73700005 2.341769e-38
0.0077209692 0.034393333 0.73699999 2.341769e-38
0.009124767 0.034393325 0.73700005 2.341769e-38
0.010528589 0.034393333 0.73699999 2.341769e-38
0.011932386 0.034393333 0.73700005 2.341769e-38
0.013372384 0.034486659 0.73900002 2.341769e-38
0.014780018 0.034486659 0.73900002 2.341769e-38
0.016187627 0.034486644 0.73900002 2.341769e-38
0.017619064 0.034533337 0.74000001 2.341769e-38
0.019002866 0.034486666 0.73899996 2.341769e-38
0.020410489 0.034486666 0.73900002 2.341769e-38
0.021818109 0.034486666 0.73900002 2.341769e-38
0.023225719 0.034486659 0.73900002 2.341769e-38
0.02473334 0.034626663 0.74199998 2.341769e-38
0.026146671 0.034626648 0.74199998 2.341769e-38
0.027597141 0.034673341 0.74300003 2.341769e-38
0.029090486 0.034766667 0.74500006 2.341769e-38
0.030591436 0.03486 0.74700004 2.341769e-38
0.03201431 0.034860007 0.74699998 2.341769e-38
0.033437163 0.03486 0.74699998 2.341769e-38
0.03486003 0.034860007 0.74699998 2.2958513e-38
0.036331438 0.03490667 0.74799997 2.2491416e-38
0.037756193 0.034906663 0.74800003 1.963301e-38
0.039285708 0.034999989 0.75000006 1.6694282e-38
0.040877156 0.035139993 0.75300002 1.6232604e-38
0.042423829 0.035233334 0.755 1.577019e-38
0.043920007 0.035280004 0.75600004 1.5492885e-38
0.045600004 0.035466678 0.75999999 1.5125906e-38
0.047047626 0.035466664 0.75999999 1.5035511e-38
-0.034556188 0.03749714 0.77199996 1.2541159e-38
-0.033000007 0.037399992 0.76999998 1.3004289e-38
-0.031451419 0.037302852 0.76800001 1.4203896e-38
-0.029949518 0.037254296 0.76699996 1.5497147e-38
-0.028340003 0.03706 0.76300001 1.6692463e-38
-0.026780954 0.036914274 0.76000005 1.7887749e-38
-0.025199994 0.036719993 0.75600004 1.862278e-38
-0.02372857 0.036671422 0.75500005 1.9455086e-38
-0.022231413 0.036574289 0.75299996 2.139408e-38
-0.020769525 0.036525704 0.75200003 2.3417677e-38
-0.019337146 0.036525711 0.75200003 2.1572704e-38
-0.01780951 0.036331415 0.74799997 1.9824602e-38
-0.016384756 0.036331423 0.74800003 2.0194455e-38
-0.014899995 0.036185704 0.74500006 2.0651841e-38
-0.013480946 0.036185704 0.74500006 2.184965e-38
-0.0120619 0.036185712 0.74500006 2.3049259e-38
-0.010642853 0.036185727 0.74500006 2.3233297e-38
-0.0091990419 0.036088586 0.74299997 2.3324418e-38
-0.007783805 0.036088578 0.74299997 2.3417331e-38
-0.0063685728 0.036088564 0.74300003 2.341769e-38
-0.0049466593 0.036039993 0.74199998 2.341769e-38
-0.0035333277 0.036039993 0.74199998 2.341769e-38
-0.0021114147 0.035894282 0.73899996 2.341769e-38
-0.00070188777 0.035797149 0.73699999 2.341769e-38
0.00070191664 0.035797149 0.73699999 2.341769e-38
0.0021057243 0.035797141 0.73699999 2.341769e-38
0.0035095362 0.035797134 0.73699999 2.341769e-38
0.0049133338 0.035797134 0.73700005 2.341769e-38
0.0063171559 0.035797141 0.73699999 2.341769e-38
0.0077209524 0.035797134 0.73700005 2.341769e-38
0.0091247745 0.035797149 0.73699999 2.341769e-38
0.010528587 0.035797141 0.73700005 2.341769e-38
0.011932394 0.035797134 0.73699999 2.341769e-38
0.013372384 0.035894275 0.73900002 2.341769e-38
0.014780018 0.035894275 0.73899996 2.341769e-38
0.016187627 0.035894282 0.73900002 2.341769e-38
0.017619053 0.035942845 0.74000001 2.341769e-38
0.019002857 0.035894267 0.73900002 2.341769e-38
0.020438109 0.035942845 0.74000001 2.341769e-38
0.0218181 0.035894267 0.73900002 2.341769e-38
0.023225719 0.035894282 0.73900002 2.341769e-38
0.024733337 0.036039986 0.74199998 2.341769e-38
0.026146669 0.036039986 0.74200004 2.341769e-38
0.027597141 0.036088556 0.74300003 2.341769e-38
0.029090477 0.036185712 0.74500006 2.341769e-38
0.030509531 0.036185697 0.74500006 2.341769e-38
0.032014295 0.03628286 0.74699998 2.341769e-38
0.033437148 0.03628286 0.74699998 2.341769e-38
0.034906689 0.036331415 0.74799997 2.2771972e-38
0.036428574 0.036428556 0.75000006 2.2119758e-38
0.037857149 0.036428563 0.75 2.0278347e-38
0.039390471 0.036525704 0.75200003 1.8529545e-38
0.040877149 0.036574289 0.75299996 1.7611208e-38
0.042423829 0.03667143 0.755 1.66853e-38
0.04392001 0.036719985 0.75600004 1.595239e-38
0.045600008 0.036914289 0.76000005 1.5309193e-38
0.047109533 0.036962852 0.76099998 1.5218085e-38
-0.03460094 0.039018098 0.773 1.26283e-38
-0.033000007 0.038866658 0.77000004 1.3095748e-38
-0.031451423 0.038765717 0.76799995 1.3649652e-38
-0.029871425 0.038614266 0.76500005 1.4206078e-38
-0.028340001 0.038513314 0.76300001 1.7980694e-38
-0.026780948 0.038361914 0.75999999 2.1662365e-38
-0.025266662 0.038260937 0.75800002 2.231203e-38
-0.02376 0.038159996 0.75600004 2.2954185e-38
-0.022290463 0.03810953 0.755 2.3234019e-38
-0.02079713 0.038008582 0.75299996 2.3415168e-38
-0.019337149 0.037958086 0.75200003 2.1387242e-38
-0.017857144 0.037857119 0.75000006 1.9366861e-38
-0.016384752 0.037756179 0.74800003 1.9643085e-38
-0.014939984 0.037705731 0.74699998 1.9917517e-38
-0.013480945 0.037604772 0.745 2.1384375e-38
-0.012029517 0.037503827 0.74299997 2.2863078e-38
-0.010642853 0.037604749 0.74500006 2.3142182e-38
-0.0091990493 0.037503809 0.74300003 2.341733e-38
-0.0077838064 0.037503805 0.74299997 2.341769e-38
-0.0063685626 0.037503809 0.74299997 2.341769e-38
-0.004946663 0.037453324 0.74199998 2.341769e-38
-0.0035333314 0.037453316 0.74200004 2.341769e-38
-0.0021142766 0.037352376 0.74000001 2.341769e-38
-0.00070379791 0.037301898 0.73900002 2.341769e-38
0.00070382212 0.037301898 0.73899996 2.341769e-38
0.0021057215 0.03720095 0.73699999 2.341769e-38
0.0035095338 0.037200943 0.73700005 2.341769e-38
0.0049133413 0.03720095 0.73699999 2.341769e-38
0.0063171536 0.03720095 0.73700005 2.341769e-38
0.0077209612 0.037200958 0.73699999 2.341769e-38
0.0091247726 0.037200958 0.73700005 2.341769e-38
0.01052858 0.03720095 0.73699999 2.341769e-38
0.011964765 0.037301898 0.73900002 2.341769e-38
0.0133724 0.037301891 0.73899996 2.341769e-38
0.014780009 0.037301891 0.73900002 2.341769e-38
0.016187629 0.037301898 0.73900002 2.341769e-38
0.017619057 0.037352368 0.74000001 2.341769e-38
0.019080009 0.037453316 0.74199998 2.341769e-38
0.02043811 0.037352368 0.74000001 2.341769e-38
0.0218181 0.037301905 0.73900002 2.341769e-38
0.023320002 0.037453324 0.74199998 2.341769e-38
0.024733333 0.037453316 0.74199998 2.341769e-38
0.026146665 0.037453309 0.74200004 2.341769e-38
0.027560009 0.037453331 0.74199998 2.341769e-38
0.029012391 0.037503812 0.74299997 2.341769e-38
0.030591438 0.037705705 0.74699998 2.341769e-38
0.032014303 0.037705705 0.74699998 2.341769e-38
0.033481918 0.037756186 0.74799997 2.341769e-38
0.035000015 0.037857138 0.75 2.2591171e-38
0.036428574 0.037857141 0.75 2.1757806e-38
0.037857141 0.037857138 0.75000006 2.10152e-38
0.039390475 0.0379581 0.75200003 2.0281251e-38
0.040985722 0.038109526 0.755 1.8905887e-38
0.042480003 0.038159989 0.75600004 1.7520452e-38
0.04403621 0.038260937 0.75799996 1.6505945e-38
0.04566 0.038412377 0.76099998 1.5495037e-38
0.047109533 0.038412374 0.76099998 1.5401051e-38
0.048686668 0.038513314 0.76300001 1.5218447e-38
-0.034600943 0.040490475 0.773 1.3187174e-38
-0.033000004 0.040333327 0.77000004 1.3835079e-38
-0.031533331 0.040333319 0.76999998 1.4200661e-38
-0.029871428 0.040071402 0.76500005 1.447155e-38
-0.028340003 0.039966647 0.76300001 1.8073627e-38
-0.026780948 0.039809532 0.75999999 2.1672803e-38
-0.025266655 0.039704747 0.75800002 2.2406423e-38
-0.023759997 0.039599985 0.75600004 2.3142183e-38
-0.02229047 0.039547618 0.755 2.3325854e-38
-0.020797139 0.039442852 0.75300002 2.341768e-38
-0.019337144 0.039390467 0.75200003 2.2402815e-38
-0.017857146 0.039285697 0.75 2.1387961e-38
-0.016428581 0.039285693 0.75000006 2.1574143e-38
-0.014959986 0.039180949 0.74799997 2.1664545e-38
-0.013517134 0.039128568 0.74700004 2.24021e-38
-0.0120619 0.039023802 0.74500006 2.3142175e-38
-0.010642851 0.039023802 0.74500006 2.3325854e-38
-0.0091990503 0.038919035 0.74300003 2.341769e-38
-0.0077838069 0.038919043 0.74300003 2.341769e-38
-0.0063685705 0.038919047 0.74299997 2.341769e-38
-0.0049466677 0.038866654 0.74199998 2.341769e-38
-0.0035333249 0.038866665 0.74199998 2.341769e-38
-0.002114272 0.038761888 0.74000001 2.341769e-38
-0.00070475158 0.038761891 0.74000001 2.341769e-38
0.00070381234 0.038709503 0.73900002 2.341769e-38
0.0021114459 0.03870951 0.73900002 2.341769e-38
0.0035095436 0.038604762 0.73699999 2.341769e-38
0.0049133413 0.038604762 0.73700005 2.341769e-38
0.0063342941 0.038709525 0.73899996 2.341769e-38
0.0077209594 0.038604762 0.73700005 2.341769e-38
0.0091247819 0.038604762 0.73699999 2.341769e-38
0.010528579 0.038604759 0.73700005 2.341769e-38
0.011964765 0.038709518 0.73900002 2.341769e-38
0.01337239 0.038709506 0.73900002 2.341769e-38
0.014840009 0.038866658 0.74199998 2.341769e-38
0.016187629 0.038709521 0.73899996 2.341769e-38
0.017619051 0.038761884 0.74000001 2.341769e-38
0.019080004 0.038866654 0.74200004 2.341769e-38
0.020493349 0.038866661 0.74199998 2.341769e-38
0.021847622 0.038761884 0.74000001 2.341769e-38
0.02332001 0.038866669 0.74199998 2.341769e-38
0.024733329 0.03886665 0.74199998 2.341769e-38
0.026146686 0.038866661 0.74199998 2.341769e-38
0.02759715 0.038919039 0.74299997 2.341769e-38
0.029168595 0.039128572 0.74699998 2.2774842e-38
0.030591447 0.039128572 0.74699998 2.2131993e-38
0.032014299 0.039128572 0.74699998 2.2038005e-38
0.033481929 0.039180953 0.74799997 2.1948322e-38
0.034906682 0.039180946 0.74799997 2.2220959e-38
0.036331445 0.039180961 0.74799997 2.2499314e-38
0.037857141 0.039285697 0.75000006 2.2125853e-38
0.039390482 0.039390478 0.75199997 2.1755297e-38
0.040985722 0.039547615 0.755 1.9548391e-38
0.042480007 0.039599985 0.75600004 1.7434019e-38
0.044036202 0.039704751 0.75800002 1.6692157e-38
0.045660004 0.039861917 0.76099998 1.6048942e-38
0.047109537 0.039861906 0.76099998 1.6140411e-38
-0.034600943 0.041962855 0.773 1.374071e-38
-0.032914281 0.041691419 0.76799995 1.4570134e-38
-0.031451415 0.041691426 0.76799995 1.4663081e-38
-0.029793337 0.041419979 0.76300001 1.476105e-38
-0.028265711 0.041311424 0.76099998 1.8169759e-38
-0.026780948 0.04125715 0.75999999 2.1574502e-38
-0.025266664 0.041148543 0.75800002 2.249825e-38
-0.023822857 0.041148547 0.75800002 2.3325492e-38
-0.022319991 0.04104 0.75599998 2.341769e-38
-0.020852374 0.040985707 0.755 2.3417684e-38
-0.019362856 0.04087713 0.75300002 2.341768e-38
-0.017904768 0.040822841 0.75200003 2.3415169e-38
-0.016428566 0.040714275 0.75 2.3416963e-38
-0.014939992 0.040551413 0.74699998 2.3415528e-38
-0.013517132 0.040551424 0.74699998 2.3417682e-38
-0.012061898 0.040442862 0.745 2.3417686e-38
-0.010642849 0.040442862 0.745 2.341769e-38
-0.0092238113 0.040442854 0.74500006 2.341769e-38
-0.0077838073 0.040334281 0.74300003 2.341769e-38
-0.006368571 0.040334288 0.74300003 2.341769e-38
-0.0049533276 0.040334292 0.74300003 2.341769e-38
-0.0035333291 0.040280003 0.74199998 2.341769e-38
-0.0021142859 0.040171403 0.74000001 2.341769e-38
-0.00070474879 0.040171415 0.74000001 2.341769e-38
0.00070477161 0.040171422 0.74000001 2.341769e-38
0.0021114468 0.040117141 0.73899996 2.341769e-38
0.0035190557 0.040117137 0.73900002 2.341769e-38
0.0049266759 0.04011713 0.73899996 2.341769e-38
0.0063342992 0.040117122 0.73900002 2.341769e-38
0.0077209682 0.040008575 0.73699999 2.341769e-38
0.0091247661 0.040008571 0.73700005 2.341769e-38
0.010557147 0.040117137 0.73900002 2.341769e-38
0.011964781 0.040117126 0.73899996 2.341769e-38
0.013372391 0.040117137 0.73900002 2.341769e-38
0.014840005 0.040279996 0.74199998 2.341769e-38
0.016209535 0.040171411 0.74000001 2.341769e-38
0.01766667 0.040279992 0.74199998 2.341769e-38
0.019080011 0.040279988 0.74199998 2.341769e-38
0.020493343 0.040279988 0.74199998 2.341769e-38
0.021906676 0.040279992 0.74199998 2.341769e-38
0.023320008 0.040279988 0.74199998 2.341769e-38
0.02473334 0.040279992 0.74200004 2.341769e-38
0.026146682 0.040279984 0.74199998 2.341769e-38
0.02759715 0.040334277 0.74300003 2.3417682e-38
