# .PCD v0.7 - Point Cloud Data file format
VERSION 0.7
FIELDS x y z rgb
SIZE 4 4 4 4
TYPE F F F F
COUNT 1 1 1 1
WIDTH 974
HEIGHT 1
VIEWPOINT 0 0 0 1 0 0 0
POINTS 974
DATA ascii
-0.016472405 0.042255238 0.75200003 1.2245865e-38
-0.015000049 0.042142857 0.75000006 1.4264176e-38
-0.013535252 0.04203048 0.74800003 1.4929707e-38
-0.012094271 0.041974276 0.74700004 1.5686278e-38
-0.010671452 0.041974265 0.74700004 1.825947e-38
-0.0092238402 0.041861884 0.74500006 2.0938129e-38
-0.0078048045 0.041861884 0.74500012 2.2130558e-38
-0.0063857315 0.041861899 0.74500006 2.341769e-38
-0.0049534002 0.0417495 0.74300003 2.341769e-38
-0.0035381345 0.041749515 0.74300003 2.341769e-38
-0.002120004 0.041693341 0.74200004 2.341769e-38
-0.00070666231 0.04169333 0.74199998 2.341769e-38
0.00070664391 0.041693334 0.74200004 2.341769e-38
0.0021199835 0.041693337 0.74200004 2.341769e-38
0.003533327 0.041693337 0.74199998 2.3325854e-38
0.0049466314 0.041693341 0.74200004 2.3234019e-38
0.006359973 0.04169333 0.74200004 2.3141466e-38
0.0077733165 0.041693341 0.74199998 2.3050348e-38
0.0091866804 0.041693326 0.74200004 2.3049631e-38
0.010599985 0.041693337 0.74200004 2.3142183e-38
0.012013327 0.041693341 0.74200004 2.323366e-38
0.01342667 0.041693337 0.74200004 2.3234019e-38
0.014839973 0.041693319 0.74200004 2.3325854e-38
0.016253317 0.041693334 0.74200004 2.341769e-38
0.01766666 0.041693345 0.74200004 2.341769e-38
0.019080002 0.041693334 0.74199998 2.341769e-38
0.020520903 0.041749511 0.74300003 2.341769e-38
0.021936134 0.041749515 0.74300003 2.341769e-38
0.023351397 0.041749503 0.74300003 2.341769e-38
0.02483331 0.041861892 0.74500006 2.341769e-38
0.026322853 0.041974276 0.74700004 2.341769e-38
0.027782852 0.042030483 0.74800003 2.341769e-38
0.029207619 0.042030476 0.74800003 2.341769e-38
0.03071424 0.042142861 0.75000012 2.341769e-38
0.032142792 0.042142849 0.75000006 2.341769e-38
0.033660933 0.042255238 0.75200003 2.3417689e-38
0.035093315 0.042255227 0.75200003 2.2680491e-38
0.036525678 0.04225523 0.75200003 2.1941484e-38
0.038109493 0.042423792 0.75500005 2.0467793e-38
0.039599996 0.042479999 0.75600004 1.8899412e-38
0.041257083 0.042704761 0.76000005 1.7518648e-38
0.042760957 0.04276095 0.76100004 1.6141836e-38
0.044210475 0.042760946 0.76100004 1.6324433e-38
0.045779958 0.042873334 0.76300001 1.659996e-38
0.04723328 0.042873323 0.76300001 1.6509937e-38
-0.040857177 0.045314271 0.78000003 1.5387251e-38
-0.039320953 0.045256183 0.77900004 7.3868342e-39
-0.037740063 0.045139983 0.77700007 8.4899713e-39
-0.036073375 0.044907615 0.77300006 9.5981196e-39
-0.034466673 0.044733331 0.77000004 1.0430404e-38
-0.032914277 0.044617131 0.76800001 1.1258021e-38
-0.031451434 0.044617131 0.76800001 1.1627537e-38
-0.029949564 0.044559032 0.76700002 1.1994512e-38
-0.028414339 0.04444284 0.76500005 1.190231e-38
-0.026816189 0.04421046 0.76100004 1.1813701e-38
-0.02526669 0.044036184 0.75800002 1.0893551e-38
-0.023822904 0.044036176 0.75800002 9.8581781e-39
-0.022320008 0.043920007 0.75599998 4.9596157e-39
-0.020852402 0.043861888 0.75500005 1.1283255e-40
-0.019414309 0.043861881 0.75500005 6.6525762e-39
-0.017904792 0.043687608 0.75200003 1.3170748e-38
-0.016472433 0.043687623 0.75200003 1.1240413e-38
-0.015000029 0.04357142 0.75000006 9.2203799e-39
-0.013535251 0.043455236 0.74800003 8.5559977e-39
-0.012110483 0.043455224 0.74800003 7.8485746e-39
-0.010671421 0.043397136 0.74700004 1.3087501e-38
-0.009248578 0.043397121 0.74700004 1.8336168e-38
-0.0078047933 0.043280933 0.74500012 2.0932368e-38
-0.0063857408 0.043280929 0.74500006 2.3413733e-38
-0.0049533686 0.043164745 0.74300003 2.341769e-38
-0.003538142 0.043164749 0.74300003 2.341769e-38
-0.0021200413 0.043106653 0.74200004 2.341769e-38
-0.00070667535 0.04310666 0.74200004 2.341769e-38
0.00070666627 0.043106668 0.74200004 2.341769e-38
0.0021200096 0.043106664 0.74200004 2.341769e-38
0.0035333121 0.043106664 0.74200004 2.3325854e-38
0.0049466556 0.04310666 0.74200004 2.3141466e-38
0.0063599972 0.043106664 0.74200004 2.2863088e-38
0.0077733407 0.043106668 0.74199998 2.2589377e-38
0.009186645 0.043106664 0.74200004 2.277233e-38
0.010599987 0.043106675 0.74200004 2.286596e-38
0.012013329 0.043106668 0.74199998 2.2957436e-38
0.013426633 0.043106649 0.74200004 2.3049989e-38
0.014839976 0.043106668 0.74200004 2.3234019e-38
0.016253341 0.043106671 0.74200004 2.341769e-38
0.017666683 0.043106664 0.74200004 2.341769e-38
0.01910565 0.043164752 0.74300003 2.341769e-38
0.020520877 0.043164741 0.74300003 2.341769e-38
0.021936145 0.043164752 0.74300003 2.341769e-38
0.023414247 0.043280937 0.74500012 2.341769e-38
0.024833322 0.043280937 0.74500006 2.341769e-38
0.026322823 0.043397136 0.74700004 2.341769e-38
0.027782829 0.043455221 0.74800003 2.341769e-38
0.029285662 0.043571427 0.75000006 2.341769e-38
0.030714238 0.043571424 0.75000006 2.341769e-38
0.032142811 0.043571427 0.75000012 2.341769e-38
0.033660907 0.043687608 0.75200003 2.3417686e-38
0.035093289 0.043687604 0.75200003 2.2590803e-38
0.036574263 0.043745697 0.75300002 2.1666699e-38
0.038109519 0.0438619 0.75500005 2.0282698e-38
0.039547637 0.043861903 0.75500005 1.8808291e-38
0.041148532 0.044036176 0.75800002 1.724169e-38
0.042704709 0.044152379 0.76000005 1.567942e-38
0.044210453 0.044210471 0.76100004 1.6044978e-38
0.045899987 0.044442847 0.76500005 1.6323359e-38
0.04735712 0.044442836 0.76500005 1.6141125e-38
-0.034466654 0.0462 0.77000004 1.1535699e-38
-0.032914273 0.046080001 0.76800001 1.2732789e-38
-0.031410512 0.046019983 0.76700002 1.2640236e-38
-0.029949568 0.046019983 0.76700002 1.2546247e-38
-0.028340057 0.045779996 0.76300007 1.2730274e-38
-0.026886731 0.045779992 0.76300007 1.3005074e-38
-0.025333386 0.045599986 0.76000005 1.3284178e-38
-0.023822915 0.045479991 0.75800002 1.3641736e-38
-0.022379091 0.045479987 0.75800002 9.7680438e-39
-0.020879995 0.045359999 0.75599998 5.9132147e-39
-0.019440018 0.045360006 0.75600004 1.1080145e-38
-0.017904814 0.045119997 0.75200003 1.6237277e-38
-0.016428646 0.044999983 0.75000012 1.3268761e-38
-0.015000071 0.044999987 0.75000012 1.0351446e-38
-0.013535274 0.044879995 0.74800003 1.1806361e-38
-0.012110506 0.044880006 0.74800003 1.3258143e-38
-0.010671453 0.044819996 0.74700004 1.122986e-38
-0.0092485705 0.044819992 0.74700004 9.2031258e-39
-0.0078257257 0.044819992 0.74700004 1.5576828e-38
-0.0063857296 0.044699997 0.74500006 2.1937895e-38
-0.0049666939 0.044699982 0.74500006 2.2675831e-38
-0.0035476582 0.044699982 0.74500012 2.341769e-38
-0.0021200171 0.044520006 0.74200004 2.341769e-38
-0.00070667535 0.044519994 0.74200004 2.341769e-38
0.00070666627 0.044519998 0.74199998 2.341769e-38
0.0021199724 0.044519998 0.74200004 2.341769e-38
0.0035333121 0.044520006 0.74200004 2.3325854e-38
0.0049466556 0.044519998 0.74199998 2.3325853e-38
0.0063599618 0.044519994 0.74200004 2.3141104e-38
0.0077733239 0.044519991 0.74200004 2.304927e-38
0.0091866674 0.044520002 0.74200004 2.3049631e-38
0.010600011 0.044519994 0.74200004 2.3142183e-38
0.012013313 0.044519994 0.74200004 2.323366e-38
0.013426657 0.044520006 0.74200004 2.3234019e-38
0.014859961 0.044579983 0.74300003 2.3325854e-38
0.01627519 0.044579986 0.74300003 2.341769e-38
0.017690416 0.044579972 0.74300009 2.341769e-38
0.019105684 0.04457999 0.74300003 2.341769e-38
0.020520911 0.044579998 0.74300003 2.341769e-38
0.021936137 0.044579986 0.74300003 2.341769e-38
0.023414239 0.044699982 0.74500006 2.341769e-38
0.02490001 0.044819981 0.74700004 2.341769e-38
0.026358064 0.044879984 0.74800003 2.341769e-38
0.027782829 0.044879995 0.74800003 2.341769e-38
0.029285681 0.044999987 0.75000006 2.341769e-38
0.030714257 0.044999994 0.75000006 2.341769e-38
0.032228522 0.045120001 0.75200003 2.341769e-38
0.033660904 0.045119986 0.75200003 2.3417684e-38
0.035139963 0.045179989 0.75300002 2.231027e-38
0.036574271 0.045179978 0.75300002 2.1208242e-38
0.038109522 0.045299996 0.75500005 2.1113175e-38
0.039599981 0.045359995 0.75600004 2.1013058e-38
0.041148525 0.045479991 0.75800002 1.8805388e-38
0.042704716 0.045599993 0.76000005 1.6595613e-38
0.04421043 0.045659989 0.76100004 1.6505229e-38
0.045899961 0.04589998 0.76500005 1.6507369e-38
0.047357097 0.045899983 0.7650001 1.6509509e-38
-0.034466669 0.047666658 0.77000004 1.2733158e-38
-0.032914307 0.047542844 0.76800001 1.4202883e-38
-0.031451441 0.047542855 0.76800001 1.3653664e-38
-0.029949574 0.047480933 0.76700002 1.3100858e-38
-0.028414324 0.047357131 0.76500005 1.3651157e-38
-0.026886735 0.047233328 0.76300007 1.411716e-38
-0.025366716 0.047109511 0.76100004 1.5779536e-38
-0.023885725 0.047047611 0.76000005 1.7419963e-38
-0.022379078 0.046923812 0.75800002 1.4558299e-38
-0.020880023 0.04680001 0.75600004 1.1724376e-38
-0.019440023 0.046799995 0.75600004 1.5517675e-38
-0.017904777 0.046552371 0.75200003 1.925456e-38
-0.016472418 0.046552379 0.75200003 1.5246053e-38
-0.015000075 0.046428565 0.75000012 1.1347325e-38
-0.0135715 0.046428569 0.75000012 1.5059825e-38
-0.012142886 0.046428565 0.75000006 1.869552e-38
-0.010685722 0.046304766 0.74799997 9.3709312e-39
-0.009248578 0.046242844 0.74700004 1.1786462e-40
-0.0078048138 0.046119031 0.74500006 1.0326032e-38
-0.0063857408 0.046119031 0.74500006 2.0452322e-38
-0.0049667051 0.046119034 0.74500006 2.1929215e-38
-0.0035476694 0.046119038 0.74500012 2.3410469e-38
-0.0021200152 0.045933329 0.74199998 2.341769e-38
-0.00070664927 0.04593334 0.74200004 2.341769e-38
0.00070665509 0.04593334 0.74200004 2.341769e-38
0.0021199966 0.045933332 0.74200004 2.341769e-38
0.0035333401 0.045933336 0.74200004 2.341769e-38
0.0049532661 0.045995224 0.74300009 2.341769e-38
0.0063685318 0.045995224 0.74300003 2.3417689e-38
0.0077837585 0.045995224 0.74300003 2.3417331e-38
0.0091989869 0.045995228 0.74300003 2.341769e-38
0.010599975 0.045933336 0.74200004 2.341769e-38
0.012013317 0.04593334 0.74200004 2.341769e-38
0.013444707 0.045995224 0.74300003 2.341769e-38
0.014859935 0.045995228 0.74300003 2.341769e-38
0.016275201 0.045995228 0.74300003 2.341769e-38
0.017690428 0.045995235 0.74300003 2.341769e-38
0.019105654 0.045995239 0.74300003 2.341769e-38
0.020520885 0.045995224 0.74300003 2.341769e-38
0.021995217 0.046119027 0.74500006 2.341769e-38
0.02341425 0.046119034 0.74500012 2.341769e-38
0.024899978 0.046242841 0.74700004 2.341769e-38
0.026322821 0.046242844 0.74700004 2.341769e-38
0.027782848 0.046304762 0.74800003 2.341769e-38
0.02928564 0.046428554 0.75000012 2.341769e-38
0.030796139 0.046552375 0.75200003 2.341769e-38
0.032228559 0.046552371 0.75200003 2.341769e-38
0.0337057 0.046614271 0.75300002 2.3413733e-38
0.035233345 0.046738096 0.75500005 2.2024351e-38
0.036671396 0.046738081 0.75500005 2.0655076e-38
0.03816 0.046799999 0.75600004 2.1948312e-38
0.039599955 0.046799995 0.75600004 2.3225743e-38
0.041257117 0.047047623 0.76000005 2.0370936e-38
0.042760935 0.047109511 0.76099998 1.7429684e-38
0.044326674 0.047233336 0.76300001 1.705588e-38
0.045899943 0.047357127 0.7650001 1.6599211e-38
0.047357112 0.047357127 0.76500005 1.6877583e-38
0.048814245 0.04735712 0.76500005 1.7061976e-38
-0.034556229 0.04926094 0.77200001 1.0524092e-38
-0.032914303 0.04900571 0.76800001 1.1814451e-38
-0.031451441 0.049005706 0.76800001 1.2367256e-38
-0.029949557 0.04894188 0.76700002 1.2919711e-38
-0.028414348 0.048814259 0.76500005 1.3749466e-38
-0.026886715 0.048686665 0.76300007 1.4583886e-38
-0.025366675 0.04855904 0.76100004 1.5410414e-38
-0.023917159 0.048559036 0.76100004 1.614939e-38
-0.022379087 0.048367608 0.75800002 1.5681949e-38
-0.020880027 0.048240006 0.75600004 1.5132031e-38
-0.019440012 0.048240002 0.75600004 1.716319e-38
-0.017904801 0.047984753 0.75200003 1.908881e-38
-0.01647242 0.04798476 0.75200003 1.463509e-38
-0.01504006 0.047984757 0.75200003 1.0150275e-38
-0.013571505 0.047857128 0.75000006 1.5323252e-38
-0.01214293 0.047857136 0.75000012 2.0470957e-38
-0.010685722 0.047729518 0.74800003 1.5292548e-38
-0.0092609776 0.047729529 0.74800003 1.014192e-38
-0.0078257257 0.047665697 0.74700004 1.4650162e-38
-0.0063857278 0.04753809 0.74500006 1.9258399e-38
-0.0049666921 0.047538079 0.74500006 1.9532789e-38
-0.0035476563 0.047538083 0.74500012 1.9917444e-38
-0.0021200282 0.047346659 0.74200004 2.1207181e-38
-0.00070668838 0.04734667 0.74200004 2.2591171e-38
0.00070665509 0.047346666 0.74200004 2.2958513e-38
0.0021199984 0.047346674 0.74199998 2.341769e-38
0.0035333009 0.047346674 0.74200004 2.341769e-38
0.0049466444 0.047346666 0.74200004 2.341769e-38
0.0063685058 0.04741047 0.74300003 2.341769e-38
0.0077837324 0.047410458 0.74300003 2.341769e-38
0.0091989981 0.047410477 0.74300003 2.341769e-38
0.010614225 0.047410462 0.74300003 2.341769e-38
0.012029476 0.047410466 0.74300009 2.341769e-38
0.013444702 0.04741047 0.74300009 2.341769e-38
0.014859968 0.047410466 0.74300003 2.341769e-38
0.016275194 0.047410458 0.74300003 2.341769e-38
0.017690424 0.047410462 0.74300003 2.341769e-38
0.01910565 0.047410466 0.74300009 2.341769e-38
0.020520914 0.047410462 0.74300003 2.341769e-38
0.021995205 0.047538079 0.74500006 2.341769e-38
0.023414241 0.047538083 0.74500006 2.341769e-38
0.024900008 0.047665708 0.74700004 2.341769e-38
0.026322851 0.047665708 0.74700004 2.341769e-38
0.027782848 0.047729522 0.74800003 2.341769e-38
0.029285658 0.047857128 0.75000012 2.341769e-38
0.030796174 0.047984768 0.75200003 2.341769e-38
0.032228537 0.047984757 0.75200003 2.341769e-38
0.033705711 0.048048556 0.75300002 2.3417675e-38
0.035233308 0.048176173 0.75500005 2.2216263e-38
0.0366714 0.048176184 0.75500005 2.1020623e-38
0.038159974 0.048239995 0.75600004 2.2220599e-38
0.039704744 0.048367612 0.75800002 2.3325496e-38
0.041257091 0.048495229 0.76000005 2.1391569e-38
0.042760961 0.048559029 0.76100004 1.9553399e-38
0.044326629 0.048686653 0.76300007 1.7979614e-38
0.045779992 0.048686668 0.76300001 1.6415187e-38
0.047233317 0.048686661 0.76300001 1.6692134e-38
-0.034556229 0.050731413 0.77200001 8.4050022e-39
-0.032999992 0.050599996 0.76999998 9.4223939e-39
-0.031533323 0.050600003 0.77000004 1.1080842e-38
-0.029949563 0.050402831 0.76700002 1.2737477e-38
-0.028414331 0.050271418 0.76500005 1.3935294e-38
-0.026957199 0.05027141 0.76500005 1.5038403e-38
-0.025366696 0.050008561 0.76100004 1.49455e-38
-0.02391718 0.050008558 0.76100004 1.4858681e-38
-0.022438154 0.049942855 0.76000005 1.6703637e-38
-0.020880016 0.049680006 0.75600004 1.8536051e-38
-0.01944004 0.049680002 0.75600004 1.8729775e-38
-0.017904829 0.049417138 0.75200003 1.8889674e-38
-0.016472407 0.049417142 0.75200003 1.387199e-38
-0.015040024 0.049417127 0.75200003 8.96032e-39
-0.013571486 0.049285706 0.75000012 1.5611314e-38
-0.012142911 0.04928571 0.75000012 2.2208675e-38
-0.010685743 0.049154293 0.74800003 2.1185841e-38
-0.0092609776 0.049154285 0.74800003 2.0163823e-38
-0.0078257183 0.049088564 0.74700004 1.9057504e-38
-0.0063857371 0.048957128 0.74500006 1.7955458e-38
-0.0049667032 0.048957128 0.74500006 1.7117439e-38
-0.0035476675 0.048957132 0.74500012 1.6317168e-38
-0.0021200282 0.048760004 0.74200004 1.8994449e-38
-0.00070666231 0.048760004 0.74200004 2.1659139e-38
0.0007066793 0.048760001 0.74199998 2.2591152e-38
0.0021199835 0.048760001 0.74200004 2.3415885e-38
0.0035333252 0.048759997 0.74200004 2.3417687e-38
0.0049532717 0.048825692 0.74300003 2.3417328e-38
0.0063685374 0.048825711 0.74300003 2.3417687e-38
0.007783764 0.0488257 0.74300003 2.341733e-38
0.0091989907 0.048825704 0.74300003 2.3417689e-38
0.010614219 0.048825692 0.74300003 2.341769e-38
0.012029486 0.048825704 0.74300003 2.341769e-38
0.013444712 0.048825711 0.74300003 2.341769e-38
0.014859941 0.0488257 0.74300003 2.341769e-38
0.016275167 0.048825692 0.74300003 2.341769e-38
0.017690435 0.0488257 0.74300003 2.341769e-38
0.019105662 0.048825704 0.74300003 2.341769e-38
0.020520888 0.0488257 0.74300003 2.341769e-38
0.021995218 0.048957128 0.74500006 2.341769e-38
0.023477158 0.049088556 0.74700004 2.341769e-38
0.024899978 0.04908856 0.74700004 2.341769e-38
0.026358061 0.049154289 0.74800003 2.341769e-38
0.027782826 0.049154282 0.74800003 2.341769e-38
0.029285654 0.049285702 0.75000006 2.341769e-38
0.030796152 0.049417138 0.75200003 2.341769e-38
0.032228533 0.049417123 0.75200009 2.341769e-38
0.033705696 0.049482841 0.75300002 2.3416242e-38
0.035233311 0.049614277 0.75500005 2.2401736e-38
0.036720011 0.049680006 0.75599998 2.1391194e-38
0.038159985 0.049680002 0.75600004 2.2403904e-38
0.039704733 0.049811423 0.75800002 2.3416607e-38
0.041257098 0.049942859 0.76000005 2.2499331e-38
0.042760938 0.05000855 0.76100004 2.1566963e-38
0.044326629 0.050139993 0.76300007 1.8894384e-38
0.046079982 0.050468564 0.76800001 1.6140045e-38
0.04754287 0.050468553 0.76800001 1.6506319e-38
-0.034556203 0.052201889 0.77200001 9.0467156e-39
-0.033000011 0.052066658 0.77000004 9.6950011e-39
-0.031451412 0.051931437 0.76800001 1.1077971e-38
-0.029949568 0.051863797 0.76700002 1.2554526e-38
-0.028414333 0.051728565 0.7650001 1.3197385e-38
-0.026957162 0.051728562 0.76500005 1.393387e-38
-0.025433395 0.051593337 0.76300001 1.356474e-38
-0.023917161 0.051458091 0.76100004 1.319776e-38
-0.02243812 0.05139048 0.76000005 1.3657657e-38
-0.020935297 0.051255226 0.75800002 1.4211181e-38
-0.019440005 0.051119998 0.75600004 1.5779918e-38
-0.017928597 0.050917123 0.75300002 1.7347087e-38
-0.016472429 0.050849527 0.75200003 1.5668086e-38
-0.015040047 0.050849512 0.75200003 1.4023073e-38
-0.013607664 0.05084952 0.75200009 1.7616628e-38
-0.012142914 0.050714284 0.75000006 2.1189176e-38
-0.010714339 0.050714277 0.75000012 1.9800094e-38
-0.0092609981 0.050579045 0.74800003 1.8514367e-38
-0.0078361938 0.05057906 0.74799997 1.8049062e-38
-0.0064028436 0.05051142 0.74700004 1.7673469e-38
-0.0049666902 0.050376177 0.74500006 1.8141974e-38
-0.0035476545 0.050376177 0.74500012 1.8698396e-38
-0.0021229321 0.050240938 0.74300003 1.9623953e-38
-0.00070766627 0.050240938 0.74300003 2.0530882e-38
0.00070756034 0.050240945 0.74300003 2.1657354e-38
0.0021227887 0.05024093 0.74300003 2.2768005e-38
0.0035380153 0.050240938 0.74300003 2.3047471e-38
0.004953281 0.050240938 0.74300003 2.3324773e-38
0.0063685076 0.050240938 0.74300003 2.3325131e-38
0.0077837361 0.050240945 0.74300003 2.3324774e-38
0.0091990018 0.050240941 0.74300003 2.3325134e-38
0.010614228 0.050240938 0.74300003 2.3325853e-38
0.012029479 0.050240934 0.74300003 2.341769e-38
0.013444708 0.050240941 0.74300009 2.341769e-38
0.014859973 0.050240934 0.74300003 2.341769e-38
0.016275201 0.050240941 0.74300003 2.341769e-38
0.017690429 0.050240934 0.74300003 2.341769e-38
0.019105654 0.050240934 0.74300009 2.341769e-38
0.020576157 0.050376173 0.74500012 2.341769e-38
0.021995209 0.050376177 0.74500006 2.341769e-38
0.023477128 0.050511416 0.74700004 2.341769e-38
0.02490001 0.050511423 0.74700004 2.341769e-38
0.0263581 0.050579049 0.74800003 2.341769e-38
0.027782867 0.050579045 0.74800003 2.341769e-38
0.029285673 0.05071428 0.75000012 2.341769e-38
0.030714225 0.050714269 0.75000006 2.341769e-38
0.032228548 0.05084952 0.75200003 2.341769e-38
0.033660933 0.050849523 0.75200003 2.3417682e-38
0.035233337 0.051052377 0.75500005 2.2588284e-38
0.036671426 0.051052369 0.75500005 2.1667418e-38
0.038159959 0.051119991 0.75600004 2.1484464e-38
0.039704725 0.051255237 0.75800002 2.1305461e-38
0.041257065 0.051390469 0.76000005 1.9823542e-38
0.04270472 0.051390477 0.76000005 1.83416e-38
0.044326626 0.051593333 0.76300007 1.7333183e-38
0.046199992 0.052066665 0.77000004 1.6417351e-38
-0.033000004 0.053533327 0.77000004 9.8757644e-39
-0.031451445 0.053394277 0.76800001 1.1072878e-38
-0.029949572 0.053324748 0.76700002 1.2272875e-38
-0.028488595 0.053324763 0.76700002 1.2548776e-38
-0.026957184 0.053185701 0.76500005 1.2826078e-38
-0.025433376 0.053046659 0.76300007 1.2181796e-38
-0.023917157 0.052907608 0.76100004 1.1537874e-38
-0.022379093 0.052699048 0.75800002 1.0700955e-38
-0.020935304 0.052699037 0.75800002 9.7940912e-39
-0.019440033 0.052559998 0.75600004 1.2830772e-38
-0.017928574 0.052351419 0.75300002 1.5774095e-38
-0.016472431 0.05228189 0.75200009 1.7431004e-38
-0.015040033 0.052281909 0.75200003 1.9084444e-38
-0.013607649 0.052281898 0.75200003 1.9643033e-38
-0.012142917 0.052142862 0.75000006 2.0077046e-38
-0.010714343 0.052142851 0.75000006 1.8493906e-38
-0.0092857676 0.052142844 0.75000012 1.6853775e-38
-0.0078361901 0.052003801 0.74800003 1.7134659e-38
-0.0064114491 0.052003808 0.74800003 1.7321586e-38
-0.0049799932 0.051934276 0.74700004 1.9169804e-38
-0.0035571484 0.051934276 0.74700004 2.1009416e-38
-0.0021228986 0.051656179 0.74300003 2.018006e-38
-0.00070767 0.051656168 0.74300003 1.9357512e-38
0.00070755661 0.051656172 0.74300003 2.0739734e-38
0.0021228222 0.051656187 0.74300003 2.2034048e-38
0.0035380488 0.051656175 0.74300003 2.2679775e-38
0.0049532773 0.051656179 0.74300003 2.323294e-38
0.0063685039 0.051656168 0.74300009 2.3233657e-38
0.0077837696 0.051656187 0.74300003 2.32333e-38
0.0091989962 0.051656172 0.74300003 2.3232224e-38
0.010614225 0.051656179 0.74300003 2.323366e-38
0.01202949 0.05165619 0.74300003 2.3325854e-38
0.013444717 0.051656179 0.74300003 2.341769e-38
0.014859944 0.051656172 0.74300003 2.341769e-38
0.016275173 0.051656175 0.74300003 2.341769e-38
0.017738076 0.051795233 0.74500006 2.341769e-38
0.019157112 0.051795218 0.74500006 2.341769e-38
0.020631433 0.051934276 0.74700004 2.341769e-38
0.0220838 0.052003805 0.74800003 2.341769e-38
0.023508567 0.052003808 0.74800003 2.341769e-38
0.024933312 0.052003808 0.74800003 2.341769e-38
0.026358077 0.052003812 0.74800003 2.341769e-38
0.027857093 0.052142866 0.75000006 2.341769e-38
0.029285667 0.052142851 0.75000006 2.341769e-38
0.030796165 0.052281894 0.75200003 2.341769e-38
0.032228526 0.052281909 0.75200003 2.341769e-38
0.033840001 0.052560002 0.75600004 2.3417686e-38
0.035233337 0.052490465 0.755 2.2682998e-38
0.036719993 0.052560009 0.75599998 2.1942924e-38
0.038260914 0.052699033 0.75800008 2.0560361e-38
0.039809506 0.052838102 0.76000005 1.9179956e-38
0.041311417 0.052907608 0.76100004 1.7147377e-38
0.042873297 0.053046666 0.76300001 1.5127712e-38
0.044442836 0.053185698 0.76500005 1.5862393e-38
0.046200018 0.053533334 0.77000004 1.6599594e-38
-0.033085745 0.055142857 0.77200001 9.9639748e-39
-0.031451441 0.054857127 0.76800001 1.0704747e-38
-0.029988578 0.054857139 0.76800001 1.1537068e-38
-0.028488576 0.054785691 0.76700002 1.1997025e-38
-0.026957169 0.054642841 0.76500005 1.2363647e-38
-0.025433376 0.054499999 0.76300001 1.2824613e-38
-0.023885773 0.054285705 0.76000005 1.3284871e-38
-0.0223791 0.054142859 0.75800002 1.2362932e-38
-0.020935254 0.054142855 0.75800002 1.1443523e-38
-0.019440021 0.054000001 0.75599998 1.3096226e-38
-0.017928567 0.053785704 0.75300002 1.4845027e-38
-0.016472418 0.053714283 0.75200003 1.6967985e-38
-0.015040036 0.053714275 0.75200003 1.9179524e-38
-0.013607675 0.053714283 0.75200003 1.7507066e-38
-0.012142899 0.053571418 0.75000006 1.5838564e-38
-0.010714323 0.053571429 0.75000006 1.657572e-38
-0.0092857713 0.053571422 0.75000006 1.7312935e-38
-0.0078362124 0.053428575 0.74800003 1.7594558e-38
-0.0064114453 0.053428564 0.74800003 1.7879806e-38
-0.0049866801 0.053428572 0.74800003 2.0007145e-38
-0.0035571409 0.053357143 0.74700004 2.2223791e-38
-0.0021229247 0.053071413 0.74300003 2.1850747e-38
-0.00070765882 0.053071424 0.74300003 2.1397309e-38
0.00070756779 0.053071413 0.74300003 2.1944735e-38
0.0021227961 0.053071421 0.74300003 2.2591171e-38
0.0035380227 0.053071406 0.74300003 2.2957795e-38
0.0049532885 0.053071424 0.74300003 2.3325854e-38
0.0063685151 0.053071428 0.74300003 2.3325854e-38
0.0077837436 0.053071413 0.74300003 2.3325854e-38
0.0091989702 0.053071406 0.74300003 2.3325496e-38
0.010614236 0.053071417 0.74300003 2.3325854e-38
0.012029485 0.053071421 0.74300003 2.341769e-38
0.013444713 0.053071409 0.74300003 2.341769e-38
0.01485994 0.053071417 0.74300009 2.341769e-38
0.016275207 0.053071409 0.74300003 2.341769e-38
0.017738089 0.053214274 0.74500006 2.341769e-38
0.019157125 0.053214267 0.74500012 2.341769e-38
0.020631403 0.053357136 0.74700004 2.341769e-38
0.022083778 0.053428568 0.74800003 2.341769e-38
0.023508545 0.053428572 0.74800003 2.341769e-38
0.024933312 0.053428575 0.74800003 2.341769e-38
0.026358081 0.053428572 0.74800003 2.341769e-38
0.027857112 0.053571422 0.75000006 2.341769e-38
0.029285664 0.053571433 0.75000006 2.341769e-38
0.030796139 0.053714279 0.75200003 2.341769e-38
0.032228559 0.053714279 0.75200003 2.341769e-38
0.033839975 0.053999998 0.75600004 2.341769e-38
0.035279989 0.054000013 0.75599998 2.2406063e-38
0.0368171 0.054142859 0.75800002 2.1391551e-38
0.038260907 0.054142848 0.75800008 2.028341e-38
0.039809477 0.054285713 0.76000005 1.9267114e-38
0.041311402 0.054357134 0.76100004 1.7609044e-38
0.042873293 0.054500006 0.76300001 1.5954586e-38
0.044442814 0.054642845 0.7650001 1.641593e-38
0.0462 0.054999992 0.77000004 1.6966943e-38
-0.033085719 0.05661333 0.77200001 9.9686859e-39
-0.031451438 0.056319993 0.76800001 1.0429303e-38
-0.029988576 0.056320008 0.76800001 1.0800623e-38
-0.028488582 0.056246657 0.76700002 1.1354898e-38
-0.026957193 0.056099989 0.76500005 1.1904828e-38
-0.02543338 0.055953339 0.76300001 1.3468535e-38
-0.023917163 0.055806663 0.76100004 1.5030098e-38
-0.022438111 0.055733331 0.76000005 1.4113896e-38
-0.020935263 0.05558667 0.75800002 1.3095098e-38
-0.019440025 0.05543999 0.75600004 1.3449169e-38
-0.017928582 0.055219986 0.75300002 1.3833707e-38
-0.01647242 0.055146664 0.75200003 1.6507317e-38
-0.01504006 0.055146664 0.75200003 1.9151463e-38
-0.013607638 0.055146672 0.75200003 1.5366408e-38
-0.012142902 0.055 0.75000006 1.1610513e-38
-0.010714327 0.055 0.75000006 1.4749097e-38
-0.0092857527 0.054999992 0.75000006 1.7776805e-38
-0.0078362105 0.054853331 0.74800003 1.8050884e-38
-0.0064114677 0.054853342 0.74800003 1.8342599e-38
-0.0049867006 0.054853331 0.74800003 2.0938094e-38
-0.0035619335 0.054853328 0.74800003 2.3417672e-38
-0.002122893 0.054486647 0.74300003 2.341769e-38
-0.00070766627 0.054486655 0.74300003 2.341769e-38
0.0007075622 0.054486658 0.74300003 2.3234019e-38
0.0021227887 0.054486647 0.74300009 2.3050348e-38
0.0035380544 0.054486647 0.74300003 2.3234019e-38
0.004953281 0.054486651 0.74300003 2.341769e-38
0.0063685095 0.054486655 0.74300003 2.341769e-38
0.0077837752 0.054486655 0.74300003 2.341769e-38
0.0091990018 0.054486662 0.74300003 2.341769e-38
0.01061423 0.054486647 0.74300003 2.341769e-38
0.012029457 0.054486651 0.74300003 2.341769e-38
0.013444723 0.054486651 0.74300003 2.341769e-38
0.014859949 0.054486655 0.74300003 2.341769e-38
0.016275179 0.054486662 0.74300003 2.341769e-38
0.017738078 0.054633327 0.74500006 2.341769e-38
0.019157114 0.054633316 0.74500006 2.341769e-38
0.020631433 0.054779988 0.74700004 2.341769e-38
0.022083819 0.054853342 0.74800003 2.341769e-38
0.023508586 0.054853335 0.74800003 2.341769e-38
0.024999943 0.054999992 0.75000012 2.341769e-38
0.026428519 0.054999977 0.75000012 2.341769e-38
0.027857073 0.054999992 0.75000012 2.341769e-38
0.029363792 0.055146664 0.75200003 2.341769e-38
0.030796176 0.055146672 0.75200003 2.341769e-38
0.032271411 0.055219993 0.75300002 2.341769e-38
0.033839986 0.055440001 0.75599998 2.3417684e-38
0.035279986 0.055440005 0.75600004 2.2131264e-38
0.036817111 0.055586655 0.75800002 2.0745108e-38
0.038260896 0.055586658 0.75800002 2.0097584e-38
0.039809484 0.055733342 0.75999999 1.936038e-38
0.041419927 0.055953331 0.76300001 1.8066784e-38
0.042873289 0.055953346 0.76300001 1.6692856e-38
0.044442829 0.056099989 0.76500005 1.6971608e-38
0.046199981 0.056466669 0.77000004 1.7248185e-38
-0.031615239 0.058083802 0.77200001 1.1075441e-38
-0.030066671 0.057933331 0.77000004 1.1442787e-38
-0.028525706 0.057782847 0.76800001 1.1813002e-38
-0.026957192 0.057557132 0.7650001 1.2177106e-38
-0.02543336 0.05740666 0.76300001 1.2548741e-38
-0.023917161 0.057256181 0.76100004 1.2916799e-38
-0.022438139 0.057180945 0.76000005 1.3742241e-38
-0.020935273 0.05703048 0.75800002 1.4567307e-38
-0.019440014 0.056880012 0.75599998 1.4841359e-38
-0.017928598 0.056654274 0.75300002 1.512509e-38
-0.016472405 0.05657905 0.75200003 1.501565e-38
-0.015040022 0.05657905 0.75200003 1.4807493e-38
-0.013571498 0.056428559 0.75000012 1.3343412e-38
-0.012142923 0.056428559 0.75000012 1.178375e-38
-0.010714333 0.056428567 0.75000006 1.2899154e-38
-0.0092857564 0.05642857 0.75000006 1.4014449e-38
-0.0078571821 0.056428563 0.75000006 1.4925266e-38
-0.0064114286 0.056278091 0.74800003 1.5950958e-38
-0.0049866615 0.056278098 0.74800003 1.9644184e-38
-0.0035619168 0.05627811 0.74800003 2.341769e-38
-0.0021229209 0.055901896 0.74300003 2.341769e-38
-0.00070769421 0.055901889 0.74300003 2.341769e-38
0.00070757151 0.0559019 0.74300003 2.3325854e-38
0.002122798 0.055901889 0.74300003 2.323366e-38
0.0035380265 0.055901896 0.74300003 2.3325854e-38
0.0049532531 0.055901896 0.74300003 2.341769e-38
0.0063685188 0.0559019 0.74300003 2.341769e-38
0.0077837454 0.055901889 0.74300003 2.341769e-38
0.0091989739 0.055901889 0.74300003 2.341769e-38
0.01061424 0.055901904 0.74300003 2.341769e-38
0.012029489 0.055901892 0.74300003 2.323366e-38
0.013444719 0.055901896 0.74300003 2.3050348e-38
0.014859946 0.055901885 0.74300009 2.2771972e-38
0.016275212 0.055901896 0.74300003 2.2591171e-38
0.017738091 0.056052364 0.74500006 2.2587942e-38
0.019208558 0.056202844 0.74700004 2.2591171e-38
0.020631403 0.056202844 0.74700004 2.3050348e-38
0.022083797 0.056278102 0.74800003 2.341769e-38
0.023508564 0.056278095 0.74800003 2.341769e-38
0.024999941 0.056428567 0.75000006 2.341769e-38
0.026428515 0.056428559 0.75000012 2.341769e-38
0.027857091 0.056428563 0.75000012 2.341769e-38
0.029363768 0.056579039 0.75200003 2.341769e-38
0.030796152 0.056579046 0.75200003 2.341769e-38
0.032271393 0.056654274 0.75300002 2.341769e-38
0.033795238 0.056804754 0.75500005 2.3417679e-38
0.035233326 0.05680475 0.755 2.1850366e-38
0.036817104 0.057030465 0.75800002 2.0277673e-38
0.038260888 0.057030473 0.75800002 1.9822073e-38
0.039809458 0.057180949 0.76000005 1.9366835e-38
0.041311394 0.057256188 0.76100004 1.8073596e-38
0.042873297 0.057406656 0.76300007 1.6788277e-38
0.044559028 0.057707619 0.76700002 1.6881207e-38
0.046080008 0.057782851 0.76800001 1.7070967e-38
-0.031615239 0.059554275 0.77200001 1.1722583e-38
-0.030144779 0.059554271 0.77200001 1.2090664e-38
-0.028599979 0.059399996 0.77000004 1.2277224e-38
-0.026957178 0.059014276 0.76500005 1.2458734e-38
-0.025433362 0.05886 0.76300001 1.1631846e-38
-0.023917181 0.058705706 0.76100004 1.0806742e-38
-0.022438131 0.058628581 0.76000005 1.3463136e-38
-0.02093526 0.058474295 0.75800002 1.6040603e-38
-0.019440018 0.058320004 0.75600004 1.6223533e-38
-0.017928593 0.058088556 0.75300002 1.639748e-38
-0.016472429 0.058011435 0.75200003 1.3439336e-38
-0.015040046 0.05801142 0.75200003 1.05038e-38
-0.013571479 0.057857126 0.75000012 1.1231997e-38
-0.012142926 0.057857141 0.75000012 1.1971381e-38
-0.010714351 0.05785713 0.75000012 1.1140952e-38
-0.0092857601 0.057857148 0.75000006 1.0229086e-38
-0.0078571858 0.057857137 0.75000006 1.1868884e-38
-0.0064286115 0.057857141 0.75000006 1.3468179e-38
-0.0050000353 0.057857133 0.75000006 1.845391e-38
-0.0035714833 0.057857141 0.75000006 2.3416614e-38
-0.0021285852 0.057471417 0.74500006 2.341769e-38
-0.00070954941 0.057471424 0.74500006 2.341769e-38
0.00070756965 0.05731713 0.74300003 2.341769e-38
0.0021227943 0.057317119 0.74300003 2.341769e-38
0.00353806 0.057317134 0.74300003 2.341769e-38
0.0049532866 0.057317138 0.74300003 2.341769e-38
0.0063685151 0.057317127 0.74300003 2.341769e-38
0.0078047393 0.057471417 0.74500012 2.341769e-38
0.0091990074 0.05731713 0.74300003 2.341769e-38
0.010614234 0.057317134 0.74300003 2.3417313e-38
0.012029462 0.057317123 0.74300003 2.3048158e-38
0.013444689 0.057317127 0.74300009 2.2673275e-38
0.014859955 0.057317123 0.74300003 2.2212657e-38
0.016275182 0.05731713 0.74300003 2.1657693e-38
0.017738082 0.057471424 0.74500006 2.1752035e-38
0.01920855 0.057625696 0.74700004 2.1752783e-38
0.020659029 0.057702854 0.74800003 2.2591171e-38
0.022083797 0.057702858 0.74800003 2.341769e-38
0.023508566 0.057702851 0.74800003 2.341769e-38
0.024999959 0.057857141 0.75000006 2.341769e-38
0.026428511 0.057857133 0.75000006 2.341769e-38
0.027857088 0.057857145 0.75000006 2.341769e-38
0.029363766 0.05801142 0.75200003 2.341769e-38
0.030796129 0.058011428 0.75200003 2.341769e-38
0.0322714 0.05808856 0.75300002 2.341769e-38
0.033795204 0.058242846 0.75500005 2.3416245e-38
0.035373308 0.058474287 0.75800002 2.1574502e-38
0.036914241 0.058628578 0.75999999 1.9732398e-38
0.038361859 0.058628567 0.76000005 1.9545485e-38
0.039861903 0.058705695 0.76100004 1.9269613e-38
0.041311421 0.058705702 0.76100004 1.8072155e-38
0.042873293 0.058859996 0.76300007 1.6876147e-38
0.044442821 0.059014276 0.76500005 1.6876872e-38
0.046080012 0.059245717 0.76800001 1.6783234e-38
-0.033128604 0.061103798 0.77300006 1.1071477e-38
-0.031615276 0.061024744 0.77200007 1.1352719e-38
-0.030144781 0.061024748 0.77200001 1.172548e-38
-0.028599996 0.060866669 0.77000004 1.2368006e-38
-0.027062874 0.060708568 0.76800001 1.3105194e-38
-0.025500029 0.060471423 0.76500005 1.3292085e-38
-0.024042899 0.060471412 0.76500005 1.3480741e-38
-0.022438139 0.060076181 0.76000005 1.4485512e-38
-0.020990508 0.060076196 0.76000005 1.5591812e-38
-0.019491483 0.059918094 0.75800002 1.5763614e-38
-0.017976213 0.059680946 0.75500005 1.5934323e-38
-0.016472431 0.059443798 0.75200003 1.4653242e-38
-0.015040033 0.059443813 0.75200003 1.3372244e-38
-0.013607649 0.059443802 0.75200003 1.1333602e-38
-0.012142907 0.059285711 0.75000012 9.320364e-39
-0.010714355 0.059285708 0.75000006 1.1241701e-38
-0.0092857806 0.059285708 0.75000012 1.3075251e-38
-0.0078572044 0.0592857 0.75000012 1.5293002e-38
-0.0064286133 0.059285719 0.75000006 1.7425366e-38
-0.005000039 0.059285711 0.75000006 2.0472138e-38
-0.0035714647 0.059285715 0.75000006 2.341769e-38
-0.002137172 0.059127614 0.74800003 2.341769e-38
-0.00070956058 0.058890473 0.74500006 2.341769e-38
0.00070947513 0.058890462 0.74500006 2.341769e-38
0.0021228055 0.058732361 0.74300003 2.341769e-38
0.0035475856 0.058890458 0.74500006 2.341769e-38
0.0049532605 0.058732368 0.74300003 2.341769e-38
0.0063856961 0.058890462 0.74500006 2.341769e-38
0.00780473 0.058890466 0.74500006 2.341769e-38
0.0092485594 0.05904856 0.74700004 2.341769e-38
0.010614208 0.058732364 0.74300003 2.3417652e-38
0.012029496 0.058732361 0.74300003 2.0830795e-38
0.013444723 0.058732361 0.74300003 1.8248626e-38
0.014899985 0.058890469 0.74500006 1.7688272e-38
0.016319022 0.058890462 0.74500012 1.7135457e-38
0.017738093 0.058890473 0.74500006 1.8057749e-38
0.01920856 0.059048563 0.74700004 1.8882176e-38
0.020659011 0.05912761 0.74800003 2.1201441e-38
0.022083774 0.059127618 0.74800003 2.341769e-38
0.023508543 0.05912761 0.74800003 2.341769e-38
0.024999954 0.059285719 0.75000006 2.341769e-38
0.026428528 0.059285711 0.75000006 2.3234019e-38
0.027857084 0.059285715 0.75000006 2.3142183e-38
0.029363781 0.059443817 0.75200003 2.3049989e-38
0.030837141 0.059522845 0.75300002 2.3050348e-38
0.032271389 0.059522849 0.75300002 2.3234019e-38
0.033839967 0.059760012 0.75600004 2.341768e-38
0.035280004 0.059760008 0.75599998 2.1943998e-38
0.036914255 0.060076173 0.76000005 2.0469949e-38
0.038361866 0.060076196 0.76000005 1.963875e-38
0.039861884 0.060155217 0.7610001 1.8808636e-38
0.041311439 0.060155235 0.76100004 1.7238814e-38
0.042873289 0.060313318 0.76300007 1.567581e-38
0.044326615 0.060313329 0.76300007 1.6222511e-38
0.045899928 0.060471416 0.76500005 1.6862483e-38
-0.033128593 0.06257619 0.77300006 1.0796687e-38
-0.031615276 0.062495224 0.77200001 1.107543e-38
-0.030144794 0.062495232 0.77200007 1.1354195e-38
-0.028600013 0.062333334 0.77000004 1.2548087e-38
-0.027062846 0.062171414 0.76800001 1.3660157e-38
-0.025566684 0.062090464 0.76699996 1.4858682e-38
-0.024042919 0.061928563 0.76500005 1.6051802e-38
-0.022467645 0.061604746 0.76100004 1.5589373e-38
-0.020990536 0.061523803 0.76000005 1.5129818e-38
-0.019491468 0.061361887 0.75800002 1.5305219e-38
-0.017976187 0.061119046 0.75500005 1.5400979e-38
-0.016494315 0.060957141 0.75300002 1.5866952e-38
-0.015060033 0.060957134 0.75300002 1.6214918e-38
-0.013607672 0.060876191 0.75200003 1.1409694e-38
-0.012175291 0.060876179 0.75200003 6.6478566e-39
-0.010742869 0.060876191 0.75200003 1.1338259e-38
-0.0092857825 0.060714286 0.75000006 1.5940127e-38
-0.0078572081 0.060714278 0.75000012 1.8711027e-38
-0.0064286338 0.060714267 0.75000012 2.1385065e-38
-0.00500008 0.060714282 0.75000012 2.24075e-38
-0.0035618981 0.060552388 0.74800003 2.341769e-38
-0.0021371553 0.060552385 0.74799997 2.341769e-38
-0.00071238622 0.060552388 0.74799997 2.341769e-38
0.00071238086 0.060552381 0.74800003 2.341769e-38
0.0021342793 0.060471427 0.74700004 2.341769e-38
0.0035475967 0.060309507 0.74500006 2.341769e-38
0.0049666325 0.060309511 0.74500012 2.341769e-38
0.0063857073 0.060309522 0.74500006 2.341769e-38
0.007804743 0.060309511 0.74500012 2.341769e-38
0.0092485519 0.060471416 0.74700004 2.341769e-38
0.010642827 0.060309518 0.74500006 2.3409376e-38
0.012061863 0.060309518 0.74500006 1.8608756e-38
0.013480899 0.060309507 0.74500012 1.3820016e-38
0.014899974 0.060309507 0.74500006 1.3247815e-38
0.01631901 0.060309511 0.74500006 1.2621114e-38
0.017809514 0.060552381 0.74799997 1.436994e-38
0.019234281 0.060552385 0.74800003 1.603451e-38
0.020659048 0.060552388 0.74800003 1.9731301e-38
0.022083815 0.060552381 0.74800003 2.3414435e-38
0.023571361 0.060714278 0.75000012 2.341769e-38
0.024999974 0.06071429 0.75000006 2.341769e-38
0.026428524 0.060714282 0.75000006 2.3142183e-38
0.027857102 0.060714275 0.75000006 2.2773763e-38
0.029402843 0.060957134 0.75300002 2.2681207e-38
0.030837124 0.060957134 0.75300002 2.2589733e-38
0.032357138 0.061119039 0.75500005 2.3050348e-38
0.033840001 0.061200015 0.75599998 2.3417327e-38
0.035279978 0.0612 0.75600004 2.2313502e-38
0.036817096 0.061361905 0.75800002 2.1207151e-38
0.038361836 0.061523803 0.76000005 1.9823142e-38
0.039861903 0.061604749 0.76100004 1.8346192e-38
0.041311421 0.061604757 0.76100004 1.6398226e-38
0.042873289 0.061766662 0.76300007 1.4385712e-38
0.044326611 0.061766651 0.76300007 1.5658112e-38
-0.033128623 0.064048544 0.77300006 9.0532457e-39
-0.031615272 0.063965701 0.77200001 1.0248563e-38
-0.030144794 0.063965693 0.77200007 1.1445676e-38
-0.028599991 0.063800007 0.76999998 1.2738211e-38
-0.02713332 0.063800007 0.77000004 1.4036113e-38
-0.025566665 0.063551411 0.76700002 1.5043441e-38
-0.024042882 0.063385703 0.76500005 1.5961787e-38
-0.0225267 0.063220009 0.76300001 1.6420237e-38
-0.02101811 0.063054286 0.76100004 1.6787931e-38
-0.019491479 0.062805712 0.75800002 1.7245667e-38
-0.017976224 0.062557131 0.75500005 1.7711307e-38
-0.01653811 0.062557131 0.75500005 1.6236562e-38
-0.015060024 0.062391419 0.75300002 1.4752087e-38
-0.013625741 0.062391415 0.75300002 1.0039019e-38
-0.012175276 0.062308572 0.75200003 5.4515345e-39
-0.010742893 0.062308576 0.75200003 1.1064964e-38
-0.0093105091 0.062308569 0.75200003 1.668669e-38
-0.007878148 0.062308561 0.75200003 1.9453624e-38
-0.0064286357 0.062142849 0.75000012 2.2221281e-38
-0.0050000614 0.062142849 0.75000012 2.2774124e-38
-0.0035619205 0.061977144 0.74800003 2.341769e-38
-0.0021371515 0.061977141 0.74800003 2.341769e-38
-0.00071238622 0.061977144 0.74800003 2.341769e-38
0.00071235851 0.061977156 0.74800003 2.341769e-38
0.0021371255 0.061977148 0.74800003 2.341769e-38
0.0035475874 0.061728559 0.74500006 2.341769e-38
0.0049666231 0.061728563 0.74500012 2.341769e-38
0.0064028548 0.061894283 0.74700004 2.341769e-38
0.0078256996 0.061894268 0.74700004 2.341769e-38
0.0092485594 0.061894283 0.74700004 2.341769e-38
0.010671402 0.061894268 0.74700004 2.3417602e-38
0.012061876 0.061728552 0.74500006 1.8703052e-38
0.013480914 0.061728552 0.74500012 1.3991431e-38
0.014899986 0.061728552 0.74500006 1.3624417e-38
0.016362855 0.061894268 0.74700004 1.3261398e-38
0.017809518 0.061977148 0.74800003 1.4821185e-38
0.019208558 0.061894286 0.74700004 1.6480369e-38
0.020659026 0.061977152 0.74800003 1.9912406e-38
0.022142805 0.062142845 0.75000012 2.3417635e-38
0.023571357 0.062142853 0.75000012 2.341769e-38
0.024999931 0.062142842 0.75000012 2.341769e-38
0.026499011 0.062308565 0.75200003 2.3049629e-38
0.027931372 0.062308561 0.75200003 2.2679772e-38
0.029402828 0.062391408 0.75300002 2.2864513e-38
0.030837135 0.062391412 0.75300002 2.3046396e-38
0.032357141 0.062557131 0.75500005 2.3232943e-38
0.033839975 0.062640004 0.75600004 2.341769e-38
0.035373304 0.062805712 0.75800002 2.2865601e-38
0.036914237 0.062971428 0.76000005 2.231313e-38
0.038361888 0.062971428 0.76000005 2.1572326e-38
0.03986188 0.063054271 0.76100004 2.0833606e-38
0.041419961 0.063220009 0.76300001 1.9818661e-38
0.042873286 0.063220002 0.76300001 1.8901699e-38
0.044442832 0.063385695 0.76500005 1.9543069e-38
-0.033128615 0.065520942 0.77300006 7.2997294e-39
-0.031615272 0.065436177 0.77200001 9.419859e-39
-0.030144792 0.06543617 0.77200001 1.1444581e-38
-0.028600007 0.065266669 0.77000004 1.2922596e-38
-0.027133336 0.065266669 0.77000004 1.4396629e-38
-0.025600016 0.065097138 0.76800001 1.513311e-38
-0.024042906 0.064842835 0.76500005 1.5868514e-38
-0.022526702 0.064673342 0.76300001 1.7157442e-38
-0.021018106 0.064503804 0.76100004 1.8443494e-38
-0.019542903 0.064419046 0.76000005 1.9269293e-38
-0.01800001 0.064080015 0.75599998 2.0007923e-38
-0.016538106 0.063995235 0.75500005 1.6615391e-38
-0.015060039 0.063825704 0.75300002 1.3181552e-38
-0.013625733 0.063825697 0.75300002 8.6338497e-39
-0.01217528 0.063740954 0.75200003 4.1618971e-39
-0.010742919 0.063740946 0.75200003 1.0783027e-38
-0.009310496 0.063740946 0.75200003 1.7422822e-38
-0.0078781126 0.063740954 0.75200003 2.0195481e-38
-0.0064457515 0.063740954 0.75200003 2.2953094e-38
-0.0050000651 0.063571416 0.75000006 2.3234019e-38
-0.0035619168 0.063401908 0.74800003 2.341769e-38
-0.0021371739 0.063401893 0.74800003 2.341769e-38
-0.00071240671 0.0634019 0.74800003 2.3417687e-38
0.00071236037 0.063401893 0.74800003 2.3417684e-38
0.0021342793 0.063317135 0.74700004 2.3414815e-38
0.0035571 0.063317135 0.74700004 2.3417684e-38
0.004979982 0.063317135 0.74700004 2.3417687e-38
0.006402825 0.06331712 0.74700004 2.341769e-38
0.0078257071 0.063317135 0.74700004 2.341769e-38
0.0092485519 0.063317135 0.74700004 2.341769e-38
0.010671434 0.063317135 0.74700004 2.340792e-38
0.012094256 0.063317135 0.74700004 1.8793821e-38
0.013517138 0.063317135 0.74700004 1.4182637e-38
0.014959983 0.063401908 0.74800003 1.3996777e-38
0.016362865 0.063317135 0.74700004 1.3807036e-38
0.017809493 0.063401893 0.74800003 1.5356429e-38
0.019234261 0.0634019 0.74800003 1.6864246e-38
0.020659029 0.063401908 0.74800003 2.0203393e-38
0.0221428 0.063571423 0.75000006 2.3417663e-38
0.023571376 0.063571408 0.75000012 2.341769e-38
0.024999928 0.063571423 0.75000006 2.341769e-38
0.026498988 0.063740939 0.75200003 2.3050348e-38
0.027931409 0.063740954 0.75200003 2.259045e-38
0.029402848 0.063825697 0.75300002 2.3050342e-38
0.030919049 0.063995235 0.75500005 2.3416611e-38
0.032357104 0.063995235 0.75500005 2.341769e-38
0.033840008 0.064080007 0.75599998 2.341769e-38
0.035373293 0.064249523 0.75800002 2.341769e-38
0.036914244 0.064419061 0.76000005 2.3415521e-38
0.0383619 0.064419046 0.76000005 2.3319722e-38
0.039861899 0.064503804 0.76100004 2.3228539e-38
0.041419957 0.064673334 0.76300001 2.3324614e-38
0.042985681 0.064842835 0.76500005 2.3412483e-38
0.04461715 0.065097138 0.76800001 2.3413538e-38
-0.03308573 0.066906661 0.77200001 1.0881999e-38
-0.03161525 0.066906653 0.77200001 1.1622802e-38
-0.030144788 0.066906646 0.77200001 1.2449015e-38
-0.028600002 0.06673333 0.77000004 1.3005818e-38
-0.027133351 0.066733345 0.77000004 1.3657632e-38
-0.025600011 0.066559985 0.76800001 1.4117166e-38
-0.024042889 0.06629999 0.76500005 1.4671062e-38
-0.022526706 0.066126682 0.76300001 1.5684854e-38
-0.021018129 0.065953314 0.76100004 1.6702219e-38
-0.019542895 0.065866664 0.76000005 1.7065615e-38
-0.018000014 0.065520003 0.75600004 1.7435105e-38
-0.016560037 0.065520003 0.75600004 1.558978e-38
-0.015059995 0.065259993 0.75300002 1.3827266e-38
-0.013625749 0.065259978 0.75300002 1.1239668e-38
-0.012175265 0.065173335 0.75200003 8.7691044e-39
-0.010742881 0.06517332 0.75200003 1.4108144e-38
-0.0093105203 0.065173328 0.75200003 1.9546171e-38
-0.0078781368 0.065173335 0.75200003 2.0557439e-38
-0.0064457534 0.065173328 0.75200009 2.1569463e-38
-0.0050000483 0.064999998 0.75000012 2.2494672e-38
-0.0035619391 0.06482666 0.74800003 2.341769e-38
-0.0021371348 0.064826667 0.74800003 2.341769e-38
-0.00071236759 0.064826652 0.74800003 2.3417684e-38
0.00071237714 0.064826682 0.74799997 2.276371e-38
0.0021371422 0.064826667 0.74799997 2.2029026e-38
0.0035571298 0.064739987 0.74700004 2.2676896e-38
0.0049866764 0.064826667 0.74800003 2.3325849e-38
0.0064114211 0.064826682 0.74799997 2.341769e-38
0.0078361882 0.064826667 0.74799997 2.341769e-38
0.0092609553 0.06482666 0.74799997 2.2129482e-38
0.010671404 0.064739995 0.74700004 2.093052e-38
0.012094286 0.064739987 0.74700004 1.7222582e-38
0.013517128 0.064739972 0.74700004 1.36223e-38
0.014959999 0.06482666 0.74799997 1.3253478e-38
0.016384766 0.064826667 0.74800003 1.2889044e-38
0.017809533 0.064826675 0.74800003 1.6487168e-38
0.019234277 0.064826667 0.74799997 2.0191883e-38
0.020659044 0.06482666 0.74799997 2.1761781e-38
0.022142798 0.064999998 0.75000006 2.341769e-38
0.023571372 0.064999983 0.75000006 2.341769e-38
0.025066642 0.065173328 0.75200003 2.341769e-38
0.026499026 0.065173328 0.75200003 2.3234019e-38
0.027968552 0.065259993 0.75300002 2.3050348e-38
0.02940286 0.065259986 0.75300002 2.3234019e-38
0.030919015 0.065433323 0.75500005 2.341769e-38
0.03235713 0.065433323 0.75500005 2.341769e-38
0.033839982 0.065520003 0.75600004 2.341769e-38
0.035373308 0.065693334 0.75800002 2.3049989e-38
0.036914241 0.065866664 0.76000005 2.277483e-38
0.038412362 0.065953337 0.76100004 2.3047813e-38
0.039861877 0.065953329 0.76100004 2.3323639e-38
0.041528523 0.066299975 0.76500005 2.341651e-38
0.04315431 0.06656 0.76800001 2.3417588e-38
0.044733334 0.066733316 0.77000004 2.3415795e-38
-0.03308573 0.068377137 0.77200001 1.4388608e-38
-0.031615246 0.06837713 0.77200001 1.3924046e-38
-0.030066691 0.0682 0.77000004 1.3373397e-38
-0.028600018 0.068199992 0.77000004 1.3176819e-38
-0.02706285 0.068022847 0.76800001 1.2915306e-38
-0.025600007 0.068022855 0.76800001 1.3190099e-38
-0.024042914 0.06775713 0.76500005 1.3375954e-38
-0.022526685 0.067580014 0.76300001 1.4208605e-38
-0.02101811 0.067402855 0.76100004 1.4942575e-38
-0.019542901 0.067314282 0.76000005 1.4947243e-38
-0.018047659 0.067137137 0.75800002 1.4849299e-38
-0.016560026 0.066960007 0.75599998 1.4664541e-38
-0.015120027 0.066959992 0.75600004 1.4376793e-38
-0.013680013 0.066960007 0.75599998 1.3820354e-38
-0.01222382 0.06687142 0.75500005 1.3273699e-38
-0.010785729 0.066871427 0.755 1.7517198e-38
-0.0093228696 0.066694282 0.75300002 2.1657686e-38
-0.0078885993 0.066694267 0.75300002 2.0918696e-38
-0.0064457385 0.066605702 0.75200003 2.0093261e-38
-0.0050133551 0.066605702 0.75200003 2.1757427e-38
-0.0035619223 0.066251434 0.74800003 2.3412285e-38
-0.0021371553 0.066251442 0.74800003 2.341769e-38
-0.00071238994 0.066251427 0.74800003 2.3409422e-38
0.00071237714 0.066251434 0.74800003 2.2007121e-38
0.0021371441 0.066251442 0.74800003 2.0644296e-38
0.0035618888 0.066251442 0.74800003 2.1934657e-38
0.004986654 0.066251427 0.74800003 2.3229339e-38
0.006411423 0.066251434 0.74800003 2.3325854e-38
0.0078361901 0.066251442 0.74800003 2.3416942e-38
0.0092609329 0.066251442 0.74800003 2.09352e-38
0.0106857 0.066251427 0.74800003 1.8324643e-38
0.012110466 0.066251427 0.74800003 1.5727719e-38
0.013535234 0.066251442 0.74800003 1.3067332e-38
0.014959999 0.066251427 0.74800003 1.2506248e-38
0.016384745 0.066251427 0.74800003 1.1981494e-38
0.017809512 0.066251434 0.74800003 1.7695457e-38
0.019285688 0.066428572 0.75000006 2.3407599e-38
0.020714242 0.066428579 0.75000006 2.341769e-38
0.022142816 0.066428572 0.75000006 2.341769e-38
