# .PCD v0.7 - Point Cloud Data file format
VERSION 0.7
FIELDS x y z rgb
SIZE 4 4 4 4
TYPE F F F F
COUNT 1 1 1 1
WIDTH 989
HEIGHT 1
VIEWPOINT 0 0 0 1 0 0 0
POINTS 989
DATA ascii
0.021522857 0.013191432 0.72900003 1.8366016e-38
0.022911435 0.013191432 0.72900003 1.8549687e-38
-0.030796206 0.015039995 0.75199997 8.1439347e-39
-0.029363822 0.015039995 0.75199997 9.8055832e-39
-0.027857136 0.015000001 0.75 1.1010207e-38
-0.026428567 0.014999993 0.75 1.2204788e-38
-0.024933344 0.014959991 0.74800003 1.3132114e-38
-0.023508571 0.014959998 0.74800003 1.4046882e-38
-0.022054283 0.014939994 0.74700004 1.4693318e-38
-0.020576203 0.014899999 0.745 1.5242896e-38
-0.019105718 0.014859989 0.74300003 1.5703508e-38
-0.01769048 0.014860004 0.74300003 1.607085e-38
-0.016275242 0.014860004 0.74300003 1.6621862e-38
-0.014799994 0.01479999 0.74000001 1.7172875e-38
-0.013372391 0.014779985 0.73900002 1.7172875e-38
-0.011964772 0.01478 0.73899996 1.7081039e-38
-0.010557157 0.01478 0.73899996 1.7172875e-38
-0.0077209445 0.014739998 0.73700005 1.7540217e-38
-0.006317128 0.01473999 0.73700005 1.7815363e-38
0.017357146 0.014579996 0.72900003 1.6345638e-38
0.018745711 0.014579996 0.72900003 1.6529668e-38
0.020134289 0.014579996 0.72900003 1.7448381e-38
0.021522855 0.014580011 0.72900003 1.8274901e-38
0.022911435 0.014580004 0.72900003 1.8550407e-38
-0.030837141 0.016494289 0.75299996 6.7527634e-39
-0.029363809 0.016472377 0.75199997 6.7520473e-39
-0.027857145 0.016428582 0.75 7.7755109e-39
-0.026428562 0.016428582 0.75 8.8814885e-39
-0.024999991 0.016428567 0.75000006 9.5300823e-39
-0.023508573 0.016384758 0.74800003 1.0271223e-38
-0.022054281 0.016362853 0.74699998 1.0638924e-38
-0.0205762 0.016319051 0.74500006 1.1105276e-38
-0.019157149 0.016319051 0.745 1.1562301e-38
-0.017666662 0.016253315 0.74200004 1.2121924e-38
-0.016209519 0.01620952 0.74000001 1.2852303e-38
-0.01478001 0.016187608 0.73900002 1.3591292e-38
-0.013372381 0.016187608 0.73900002 1.4140152e-38
-0.011932384 0.016143799 0.73700005 1.4693318e-38
-0.010528566 0.016143799 0.73700005 1.506066e-38
-0.0091247503 0.016143799 0.73700005 1.5428002e-38
-0.0077209473 0.016143799 0.73700005 1.5979015e-38
-0.0063171303 0.016143791 0.73700005 1.6530028e-38
-0.0049133236 0.016143799 0.73700005 1.689737e-38
-0.0035047706 0.016121909 0.73600006 1.7264712e-38
-0.0021028647 0.016121909 0.736 1.7356547e-38
-0.00070095883 0.016121909 0.736 1.7448383e-38
0.013191432 0.015968569 0.72900003 1.6438192e-38
0.014620003 0.016012385 0.73100001 1.6529669e-38
0.016012382 0.016012393 0.73099995 1.6713699e-38
0.017404763 0.016012385 0.73100001 1.6621863e-38
0.018797152 0.016012378 0.73100001 1.6621863e-38
0.020189529 0.016012385 0.73100001 1.6805534e-38
0.021670477 0.016078092 0.73400003 1.7081041e-38
0.023068571 0.016078107 0.73400003 1.689737e-38
0.025935235 0.016121902 0.736 1.6438192e-38
0.027337132 0.016121902 0.736 1.607085e-38
0.028739031 0.016121902 0.736 1.5519837e-38
0.038919043 0.016275227 0.74299997 1.1269158e-38
0.040334273 0.016275242 0.74299997 1.0339265e-38
-0.030796191 0.017904751 0.75200003 5.3694534e-39
-0.029363811 0.017904751 0.75200003 3.6281719e-39
-0.02785714 0.017857142 0.75 4.5504785e-39
-0.026428571 0.017857142 0.75 5.470644e-39
-0.025 0.017857142 0.75000006 5.9269684e-39
-0.023508573 0.017809525 0.74800003 6.3954715e-39
-0.022054285 0.017785706 0.74700004 6.6688242e-39
-0.020576205 0.017738089 0.745 6.9522242e-39
-0.019157156 0.017738096 0.745 7.5025226e-39
-0.017666664 0.01766666 0.74200004 8.0628626e-39
-0.016209526 0.017619044 0.74000001 9.0741292e-39
-0.014780005 0.017595232 0.73900002 9.996789e-39
-0.013372387 0.017595239 0.73899996 1.1102402e-38
-0.011964772 0.017595232 0.73899996 1.2206941e-38
-0.01052857 0.017547615 0.73700005 1.2948443e-38
-0.0091247521 0.017547607 0.73700005 1.3586987e-38
-0.0077209463 0.017547615 0.73699999 1.4417811e-38
-0.0063171433 0.017547615 0.73700005 1.5150343e-38
-0.0049066865 0.01752381 0.736 1.5611673e-38
-0.0034952473 0.017476201 0.73400003 1.597758e-38
-0.0020914318 0.017428584 0.73200005 1.6438192e-38
-0.0006971432 0.017428577 0.73199999 1.689737e-38
0.00069619174 0.017404765 0.73099995 1.7448383e-38
0.002088574 0.017404757 0.73100001 1.790756e-38
0.0076685743 0.017428577 0.73200005 1.8366738e-38
0.0090628564 0.017428584 0.73200005 1.8091231e-38
0.011835239 0.017404765 0.73099995 1.7632054e-38
0.013191429 0.017357141 0.72900003 1.7448383e-38
0.01462001 0.017404765 0.73100001 1.7356547e-38
0.01601238 0.017404765 0.73100001 1.7172876e-38
0.017404769 0.017404765 0.73100001 1.6989205e-38
0.018797148 0.017404772 0.73099995 1.6713699e-38
0.020189529 0.017404765 0.73100001 1.6254521e-38
0.021670477 0.017476201 0.73400003 1.5795344e-38
0.023131412 0.017523803 0.736 1.5336166e-38
0.02453333 0.017523795 0.73600006 1.4875195e-38
0.025935235 0.01752381 0.736 1.441781e-38
0.027337134 0.017523825 0.736 1.395684e-38
0.028739031 0.017523818 0.736 1.322395e-38
0.030181916 0.017547607 0.73700005 1.2484602e-38
0.031585719 0.017547615 0.73700005 1.2206226e-38
0.036039989 0.017666668 0.74199998 1.1373608e-38
0.037503801 0.017690465 0.74299997 1.1093438e-38
0.038919043 0.017690472 0.74299997 1.080566e-38
0.040334281 0.01769048 0.74299997 9.5988118e-39
0.041861895 0.017738104 0.745 8.3015541e-39
0.043280937 0.017738104 0.745 7.3766621e-39
-0.030837147 0.019362852 0.75299996 6.5636358e-39
-0.029363822 0.019337155 0.75199997 5.3712191e-39
-0.027857136 0.019285724 0.75 5.8322e-39
-0.026428565 0.019285716 0.75000006 6.2888958e-39
-0.024999995 0.019285724 0.75000006 6.6602119e-39
-0.023477146 0.019208565 0.74700004 7.1226151e-39
-0.021995239 0.019157141 0.745 7.4002698e-39
-0.020576203 0.019157149 0.745 7.6747057e-39
-0.019105725 0.019105718 0.74299997 7.7726438e-39
-0.017666666 0.019080006 0.74200004 7.9606196e-39
-0.016209511 0.019028544 0.74000001 8.7903663e-39
-0.01478001 0.019002847 0.73900002 9.7094401e-39
-0.013372381 0.019002847 0.73900002 1.0172922e-38
-0.011932375 0.018951416 0.73700005 1.0634615e-38
-0.010528558 0.018951416 0.73700005 1.1004471e-38
-0.0091247661 0.018951416 0.73699999 1.1461139e-38
-0.0077209491 0.018951416 0.73700005 1.1833503e-38
-0.006308577 0.018925712 0.736 1.2204791e-38
-0.0048933346 0.018874288 0.73400003 1.2388462e-38
-0.0034952399 0.018874288 0.73399997 1.2574644e-38
-0.0020885619 0.018797144 0.73100001 1.2941986e-38
-0.00069619046 0.018797152 0.73099995 1.3223232e-38
0.00069619733 0.018797144 0.73100001 1.3679181e-38
0.0020914304 0.018822871 0.73200005 1.4142305e-38
0.0034857125 0.018822864 0.73200005 1.432203e-38
0.0048933271 0.018874288 0.73399997 1.4509647e-38
0.0062914211 0.018874295 0.73399997 1.4506418e-38
0.0076685688 0.018822864 0.73200005 1.4509647e-38
0.0090628574 0.018822871 0.73199999 1.4322747e-38
0.010442866 0.018797137 0.73100001 1.4142305e-38
0.011835245 0.018797144 0.73100001 1.4140152e-38
0.013191427 0.01874572 0.72900003 1.4142305e-38
0.014620006 0.018797159 0.73100001 1.3956481e-38
0.016012387 0.018797144 0.73100001 1.3774963e-38
0.017404765 0.018797152 0.73099995 1.3772452e-38
0.018797146 0.018797144 0.73100001 1.3774963e-38
0.020189526 0.018797144 0.73099995 1.3680258e-38
0.02167047 0.018874295 0.73399997 1.3683127e-38
0.023131413 0.018925726 0.736 1.3402957e-38
0.024533318 0.018925726 0.736 1.3125297e-38
0.025935236 0.018925712 0.736 1.3033819e-38
0.027337134 0.018925719 0.736 1.2849432e-38
0.028739033 0.018925712 0.736 1.2665404e-38
0.030181913 0.018951409 0.73700005 1.2478504e-38
0.031585731 0.018951416 0.73700005 1.1926056e-38
0.033123817 0.019028567 0.74000001 1.1465085e-38
0.03462667 0.019079998 0.74200004 1.0910126e-38
0.036039997 0.019079998 0.74199998 1.0362342e-38
0.037503805 0.019105703 0.74299997 1.1454682e-38
0.038919043 0.019105703 0.74299997 1.2547292e-38
0.040442847 0.019157149 0.745 1.3276864e-38
0.041861888 0.019157149 0.745 1.4085718e-38
0.043455228 0.019234277 0.74800003 1.3261262e-38
0.045180008 0.019362859 0.75300002 1.2420394e-38
0.046738099 0.019414283 0.75500005 1.141953e-38
0.048176195 0.019414291 0.75500005 1.0497947e-38
0.049679998 0.019440003 0.75600004 1.0041998e-38
0.051119998 0.019440003 0.75600004 9.6735851e-39
0.052560002 0.019439995 0.75600004 8.0144519e-39
-0.032400001 0.020879991 0.75600004 8.3110171e-39
-0.030919047 0.020852387 0.75500005 7.6667365e-39
-0.029402854 0.020797148 0.75299996 7.0260474e-39
-0.027931441 0.020769522 0.75200003 7.0256971e-39
-0.026499057 0.020769522 0.75200003 7.0253552e-39
-0.024999989 0.020714283 0.75000006 7.3934329e-39
-0.023508569 0.020659029 0.74800003 7.7629286e-39
-0.021995259 0.020576209 0.745 8.0427427e-39
-0.020576209 0.020576209 0.745 8.3175458e-39
-0.019105731 0.020520955 0.74299997 8.1367586e-39
-0.017666666 0.020493329 0.74200004 7.8641234e-39
-0.016209519 0.02043809 0.74000001 8.6009612e-39
-0.014780005 0.020410456 0.73900002 9.3385136e-39
-0.013372387 0.020410463 0.73899996 9.1534077e-39
-0.011964772 0.020410478 0.73899996 8.9740443e-39
-0.010528572 0.02035524 0.73700005 9.1577181e-39
-0.009124754 0.020355232 0.73700005 9.2517046e-39
-0.0077104825 0.020327613 0.73600006 9.2502682e-39
-0.0063085766 0.020327613 0.736 9.163455e-39
-0.004893342 0.020272389 0.73399997 9.1623788e-39
-0.0034952478 0.020272404 0.73399997 9.1659661e-39
-0.0020885735 0.020189524 0.73099995 9.3482022e-39
-0.00069618487 0.020189531 0.73100001 9.5358206e-39
0.00069618615 0.020189539 0.73099995 9.9020864e-39
0.0020885759 0.020189531 0.73100001 1.0273374e-38
0.0034809543 0.020189539 0.73099995 1.0544217e-38
0.0048733344 0.020189531 0.73100001 1.0825106e-38
0.0062742773 0.02021715 0.73199999 1.073076e-38
0.007668566 0.020217158 0.73199999 1.064287e-38
0.0090504829 0.020189531 0.73100001 1.0548165e-38
0.01044286 0.020189531 0.73099995 1.036844e-38
0.011835243 0.020189531 0.73100001 1.0551393e-38
0.01322762 0.020189531 0.73099995 1.0735782e-38
0.014620001 0.020189524 0.73100001 1.0551752e-38
0.016012382 0.020189531 0.73099995 1.0369516e-38
0.017404763 0.020189539 0.73100001 1.0551035e-38
0.018822856 0.02021715 0.73199999 1.0735782e-38
0.020217137 0.020217158 0.73199999 1.119209e-38
0.021611428 0.02021715 0.73199999 1.1562301e-38
0.023131421 0.020327628 0.736 1.1466879e-38
0.024533318 0.02032762 0.736 1.1376478e-38
0.025935231 0.020327613 0.73600006 1.1558354e-38
0.027337132 0.02032762 0.736 1.1742744e-38
0.028739041 0.020327613 0.736 1.2109727e-38
0.03018192 0.020355225 0.73700011 1.2382721e-38
0.031671427 0.020410471 0.73900002 1.1646243e-38
0.033213336 0.020493336 0.74199998 1.0907252e-38
0.03462667 0.020493329 0.74199998 1.0163955e-38
0.036039997 0.020493329 0.74199998 9.3399359e-39
0.037503805 0.020520948 0.74300003 1.1815538e-38
0.038919043 0.020520948 0.74299997 1.4299692e-38
0.040551428 0.020631418 0.74700004 1.7059351e-38
0.04197428 0.020631418 0.74700004 1.9808618e-38
0.043455224 0.020659044 0.74799997 1.9161766e-38
0.045300007 0.020852387 0.75500005 1.8424582e-38
0.04673811 0.02085238 0.75500005 1.7688473e-38
0.048239991 0.020880014 0.75600004 1.6858683e-38
0.049679998 0.020880014 0.75600004 1.4732794e-38
0.051119991 0.020880014 0.75600004 1.2526952e-38
-0.032399993 0.022320002 0.75600004 9.2336741e-39
-0.030960001 0.02232001 0.75600004 9.327306e-39
-0.029402858 0.022231437 0.75300002 9.325518e-39
-0.027931437 0.022201911 0.75199997 8.9578229e-39
-0.026499057 0.022201911 0.75199997 8.6790948e-39
-0.024999999 0.022142865 0.75000006 8.8638476e-39
-0.023571415 0.022142857 0.75000006 9.0439397e-39
-0.022083813 0.022083804 0.74800003 8.7727464e-39
-0.020576207 0.021995239 0.745 8.5890978e-39
-0.019105719 0.021936201 0.74299997 8.2250068e-39
-0.017666666 0.021906659 0.74200004 7.8601802e-39
-0.016209528 0.021847621 0.74000001 8.2307535e-39
-0.014780011 0.021818087 0.73900002 8.6963868e-39
-0.013336183 0.021759033 0.73700005 8.6002451e-39
-0.011964767 0.021818079 0.73900002 8.5116396e-39
-0.010528559 0.021759033 0.73700005 8.6020416e-39
-0.0091247577 0.021759041 0.73700005 8.7910908e-39
-0.0077209398 0.021759048 0.73700005 8.6052646e-39
-0.0063085761 0.021729529 0.73600006 8.5159402e-39
-0.0049066702 0.021729529 0.736 8.6978175e-39
-0.0034952548 0.021670483 0.73399997 8.8839996e-39
-0.0020971608 0.021670491 0.73399997 9.1587887e-39
-0.00069618953 0.021581918 0.73099995 9.5272083e-39
0.00069619174 0.021581903 0.73100001 9.8073797e-39
0.0020971384 0.021670491 0.73399997 1.0178309e-38
0.0034809525 0.021581903 0.73100001 1.0177592e-38
0.00487334 0.021581903 0.73100001 1.0179387e-38
0.0062914137 0.021670491 0.73399997 1.026943e-38
0.0076580998 0.021581911 0.73100001 1.0364494e-38
0.0090504792 0.021581918 0.73099995 1.0270147e-38
0.010485706 0.021670491 0.73399997 1.0180105e-38
0.0118838 0.021670491 0.73399997 1.0178312e-38
0.013245712 0.021611445 0.73199999 1.0177236e-38
0.014639994 0.021611452 0.73199999 9.9020864e-39
0.016034285 0.021611445 0.73199999 9.6301687e-39
0.017428577 0.021611437 0.73200005 9.9028053e-39
0.018822858 0.02161143 0.73200005 1.008827e-38
0.020217149 0.02161143 0.73200005 1.0269789e-38
0.021729514 0.021729521 0.736 1.0550317e-38
0.023131421 0.021729529 0.736 1.0546012e-38
0.02453332 0.021729529 0.736 1.05496e-38
0.025935235 0.021729514 0.73600006 1.0358754e-38
0.027337136 0.021729529 0.736 1.026943e-38
0.028739039 0.021729529 0.736 1.0999092e-38
0.030181915 0.021759048 0.73700005 1.1827045e-38
0.031714287 0.021847606 0.74000001 1.2466662e-38
0.033123806 0.021847606 0.73999995 1.3200622e-38
0.034626666 0.021906674 0.74199998 1.3015511e-38
0.036039997 0.021906674 0.74199998 1.2732451e-38
0.037503805 0.021936186 0.74300003 1.4574521e-38
0.038919043 0.021936193 0.74300003 1.632688e-38
0.040442854 0.021995224 0.74500006 1.8999388e-38
0.04197428 0.022054285 0.74699998 2.1672635e-38
0.043571427 0.022142865 0.75 2.1297373e-38
0.04518 0.022231422 0.75300002 2.0937944e-38
0.046738103 0.022290476 0.75500005 2.0560937e-38
0.048176199 0.022290468 0.75500005 2.0199252e-38
0.049679998 0.022320002 0.75600004 1.9082793e-38
0.051458083 0.022467636 0.76100004 1.7982207e-38
0.053046659 0.022526681 0.76299995 1.6128283e-38
0.054499991 0.022526674 0.76299995 1.4293351e-38
0.055953328 0.022526674 0.76299995 1.3824472e-38
-0.033929519 0.023822859 0.75800002 9.6071397e-39
-0.032485716 0.023822859 0.75800002 1.0158873e-38
-0.030959995 0.023759998 0.75600004 1.0899657e-38
-0.029480955 0.023728579 0.75500005 1.1629331e-38
-0.027968565 0.023665719 0.75300002 1.0984702e-38
-0.026499057 0.023634285 0.75199997 1.0248943e-38
-0.025066676 0.023634285 0.75199997 1.024679e-38
-0.023571424 0.023571424 0.75000006 1.0246073e-38
-0.022083817 0.023508571 0.74800003 9.598561e-39
-0.020631438 0.023477145 0.74700004 8.8685517e-39
-0.019157153 0.023414291 0.745 8.3143228e-39
-0.017690485 0.023351438 0.74299997 7.7668887e-39
-0.016209511 0.023257136 0.74000001 7.9484003e-39
-0.014780016 0.02322571 0.73899996 8.0445434e-39
-0.013372387 0.023225702 0.73899996 8.0398841e-39
-0.01193238 0.023162849 0.73700005 7.9519932e-39
-0.010557144 0.023225717 0.73900002 8.131358e-39
-0.0091247447 0.023162842 0.73700005 8.2321703e-39
-0.0077209431 0.023162834 0.73700011 8.0474329e-39
-0.0063085761 0.023131423 0.73600006 7.8673478e-39
-0.0049066702 0.02313143 0.736 8.2293074e-39
-0.003504778 0.02313143 0.736 8.6020304e-39
-0.0020971436 0.023068577 0.73400003 9.0594156e-39
-0.0006990566 0.023068577 0.73400003 9.4328546e-39
0.00069619826 0.022974297 0.73100001 9.8048601e-39
0.0020971319 0.023068577 0.73399997 1.0078932e-38
0.0034809581 0.02297429 0.73100001 9.8084461e-39
0.0048733363 0.02297429 0.73099995 9.4368007e-39
0.0062657176 0.022974283 0.73100001 9.7115897e-39
0.0076580951 0.02297429 0.73099995 9.9881724e-39
0.0090504782 0.022974297 0.73100001 9.9878151e-39
0.010457143 0.023005717 0.73200005 9.8959782e-39
0.011851433 0.023005717 0.73200005 9.8041427e-39
0.013245715 0.023005717 0.73200005 9.618678e-39
0.014639997 0.023005709 0.73200005 9.2488249e-39
0.016034286 0.023005724 0.73200005 8.8836353e-39
0.017428571 0.023005724 0.73200005 9.1577083e-39
0.018874282 0.023068577 0.73399997 9.4346483e-39
0.020217141 0.023005724 0.73199999 9.431777e-39
0.021729514 0.023131415 0.73600006 9.4364405e-39
0.023131423 0.023131423 0.736 9.5250489e-39
0.024533318 0.023131438 0.736 9.6168801e-39
0.025935227 0.023131445 0.736 9.1487316e-39
0.027374292 0.023162849 0.73699999 8.6956567e-39
0.028778097 0.023162842 0.73700005 9.9738245e-39
0.030263806 0.023225695 0.73900002 1.1177363e-38
0.03171429 0.023257136 0.74000001 1.3375667e-38
0.033213343 0.023319997 0.74200004 1.5500434e-38
0.034626666 0.023319997 0.74199998 1.5872432e-38
0.036040004 0.023319989 0.74200004 1.6141118e-38
0.037503805 0.023351431 0.74300003 1.723991e-38
0.038919043 0.023351431 0.74300003 1.8353396e-38
0.040551431 0.023477137 0.74700004 2.0938042e-38
0.042030469 0.023508564 0.74800003 2.3417589e-38
0.043571435 0.023571432 0.75 2.3417579e-38
0.045179997 0.023665711 0.75299996 2.3417585e-38
0.046799995 0.023759998 0.75600004 2.341759e-38
0.048239995 0.023759998 0.75600004 2.3416476e-38
0.049942859 0.023885727 0.75999999 2.3417513e-38
0.051593319 0.023980007 0.76299995 2.341321e-38
0.053046659 0.023980014 0.76299995 2.3417516e-38
0.054499988 0.023980007 0.76299995 2.3407085e-38
-0.034019053 0.025333337 0.75999999 1.1258414e-38
-0.032485709 0.02526667 0.75800002 1.1446392e-38
-0.031041903 0.02526667 0.75800002 1.1724409e-38
-0.029520003 0.025200002 0.75600004 1.1909535e-38
-0.027968565 0.025100015 0.75299996 1.1817001e-38
-0.026534287 0.025100008 0.75300002 1.1635837e-38
-0.025066676 0.025066674 0.75200003 1.1818068e-38
-0.023571428 0.025000013 0.75 1.1911689e-38
-0.022083819 0.024933323 0.74800003 1.1632944e-38
-0.020631427 0.024899997 0.74700004 1.1267397e-38
-0.019157149 0.024833322 0.74500006 1.089611e-38
-0.01766667 0.02473332 0.74199998 1.0433686e-38
-0.016209522 0.024666652 0.74000001 1.0528014e-38
-0.014800007 0.024666674 0.73999995 1.0524435e-38
-0.013372382 0.024633326 0.73900002 1.0710266e-38
-0.011964767 0.024633326 0.73900002 1.0981822e-38
-0.010528565 0.024566658 0.73700005 1.1355258e-38
-0.0091247587 0.024566665 0.73699999 1.1815533e-38
-0.0077209417 0.024566658 0.73700005 1.191277e-38
-0.0063171391 0.02456665 0.73700005 1.200317e-38
-0.0049066693 0.024533331 0.73600006 1.2278673e-38
-0.003504778 0.024533331 0.736 1.255167e-38
-0.0020971505 0.024466679 0.73400003 1.2648169e-38
-0.00069905614 0.024466679 0.73399997 1.2830045e-38
0.0006961936 0.024366669 0.73100001 1.264673e-38
0.0020971319 0.024466686 0.73399997 1.2451937e-38
0.0034809534 0.024366677 0.73099995 1.2278309e-38
0.0048933299 0.024466671 0.73400003 1.2087822e-38
0.0062914239 0.024466671 0.73400003 1.2462697e-38
0.0076685715 0.024399996 0.73200005 1.2826812e-38
0.0090628536 0.024400018 0.73200005 1.2740358e-38
0.010457143 0.024400011 0.73200005 1.2734618e-38
0.011851426 0.024400011 0.73199999 1.2648162e-38
0.013245716 0.024400003 0.73199999 1.2458394e-38
0.014639998 0.024400011 0.73199999 1.2279028e-38
0.016078092 0.024466671 0.73399997 1.2181811e-38
0.017523803 0.024533324 0.736 1.2555969e-38
0.0189257 0.024533331 0.736 1.2917929e-38
0.020327607 0.024533339 0.736 1.2923666e-38
0.021729523 0.024533339 0.73600006 1.2921515e-38
0.023131421 0.024533339 0.736 1.4026769e-38
0.024533322 0.024533339 0.736 1.5213449e-38
0.025970478 0.024566673 0.73699999 1.4853633e-38
0.027374296 0.024566665 0.73700005 1.4389801e-38
0.028778104 0.024566665 0.73700005 1.5499369e-38
0.030304769 0.024666667 0.74000001 1.6603533e-38
0.031714283 0.024666667 0.73999995 1.715776e-38
0.033213343 0.024733327 0.74200004 1.7716659e-38
0.034626666 0.024733342 0.74199998 1.6793633e-38
0.036088567 0.024766669 0.74300003 1.5964255e-38
0.037503805 0.024766669 0.74300003 1.7062345e-38
0.039023798 0.024833336 0.745 1.8173347e-38
0.040551428 0.024899997 0.74700004 2.0751207e-38
0.042030465 0.024933331 0.74800003 2.341767e-38
0.043571431 0.025000006 0.75 2.3416959e-38
0.045300007 0.025166668 0.75500005 2.3417668e-38
0.046799999 0.025200002 0.75600004 2.3417658e-38
0.048239991 0.025200002 0.75600004 2.3417665e-38
0.050008569 0.025366679 0.76100004 2.341767e-38
0.051593322 0.025433347 0.76299995 2.3417668e-38
0.053046659 0.025433347 0.76299995 2.3417665e-38
0.054499991 0.025433339 0.76299995 2.3417626e-38
-0.034019049 0.026780948 0.76000005 1.3002549e-38
-0.032485709 0.026710466 0.75800002 1.2729917e-38
-0.031041903 0.026710466 0.75800002 1.245836e-38
-0.029519999 0.026639991 0.75599998 1.2185392e-38
-0.028042851 0.026604764 0.75500005 1.2646029e-38
-0.02660476 0.026604764 0.75500005 1.3015881e-38
-0.025066676 0.026499055 0.75199997 1.3294616e-38
-0.023571422 0.026428573 0.75 1.3568682e-38
-0.022083821 0.02635809 0.74800003 1.3661589e-38
-0.020631425 0.026322857 0.74700004 1.3660873e-38
-0.019157156 0.026252396 0.745 1.3385367e-38
-0.01769048 0.026181899 0.74299997 1.3110928e-38
-0.016253332 0.026146665 0.74200004 1.3113788e-38
-0.014799991 0.026076175 0.74000001 1.3019087e-38
-0.013372387 0.026040949 0.73899996 1.3478627e-38
-0.011964774 0.026040949 0.73900002 1.3937802e-38
-0.010557145 0.026040941 0.73900002 1.4676431e-38
-0.0091247614 0.025970481 0.73700005 1.53218e-38
-0.007720944 0.025970474 0.73700005 1.5693458e-38
-0.0063085854 0.025935248 0.736 1.6056853e-38
-0.0049066688 0.02593524 0.73600006 1.623837e-38
-0.0035047771 0.025935248 0.736 1.6424193e-38
-0.0020971426 0.025864765 0.73399997 1.6335229e-38
-0.00069905707 0.025864772 0.73399997 1.6240164e-38
0.00069903693 0.02586478 0.73399997 1.549938e-38
0.0020971319 0.025864787 0.73399997 1.4765413e-38
0.0034952362 0.025864772 0.73400003 1.4764694e-38
0.0048933299 0.02586478 0.73400003 1.4766847e-38
0.0062914239 0.025864772 0.73399997 1.5224948e-38
0.0076685706 0.02579429 0.73199999 1.559516e-38
0.0090628527 0.025794305 0.73199999 1.5595161e-38
0.010457135 0.025794312 0.73199999 1.5595877e-38
0.011851427 0.025794297 0.73200005 1.5503683e-38
0.013245717 0.02579429 0.73200005 1.5320012e-38
0.014639998 0.025794297 0.73200005 1.5410773e-38
0.016078087 0.025864772 0.73399997 1.5412567e-38
0.017476181 0.02586478 0.73399997 1.5874255e-38
0.018925702 0.025935248 0.736 1.6331996e-38
0.020327607 0.025935248 0.736 1.6331636e-38
0.021729514 0.02593524 0.736 1.6333071e-38
0.023162873 0.025970459 0.73700005 1.8630754e-38
0.024566675 0.025970466 0.73700005 2.0835877e-38
0.025970481 0.025970459 0.73700005 2.0478936e-38
0.027374299 0.025970459 0.73700005 2.0104782e-38
0.028856186 0.026040941 0.73900002 2.1029957e-38
0.030304756 0.026076183 0.73999995 2.1942923e-38
0.031799994 0.026146665 0.74199998 2.0935237e-38
0.03321334 0.026146658 0.74200004 1.9829262e-38
0.034626666 0.026146665 0.74199998 1.7804572e-38
0.036088556 0.026181921 0.74299997 1.5778806e-38
0.037604753 0.026252389 0.745 1.6871499e-38
0.039128572 0.026322849 0.74700004 1.7894608e-38
0.040605716 0.026358098 0.74800003 2.0659004e-38
0.042030465 0.026358105 0.74799997 2.3415138e-38
0.043687616 0.026499063 0.75199997 2.3415131e-38
0.045299999 0.026604764 0.75500005 2.3324376e-38
0.046799999 0.026639998 0.75600004 2.3416932e-38
0.048240006 0.026639991 0.75600004 2.3417293e-38
0.050271433 0.026957147 0.76500005 2.3417655e-38
0.051593322 0.026886672 0.76299995 2.3417658e-38
0.053185716 0.026957154 0.76500005 2.3417662e-38
0.05464286 0.026957154 0.76500005 2.3417649e-38
-0.034063824 0.028265715 0.76099998 1.3460626e-38
-0.032571439 0.028228574 0.75999999 1.327804e-38
-0.031041907 0.028154284 0.75800002 1.3834442e-38
-0.029519999 0.028079987 0.75600004 1.4390869e-38
-0.028079994 0.028079994 0.75600004 1.4576365e-38
-0.026604751 0.028042853 0.75500005 1.4670356e-38
-0.025066676 0.027931437 0.75199997 1.4671435e-38
-0.023571432 0.027857147 0.75 1.4763271e-38
-0.022083813 0.02778285 0.74800003 1.4672511e-38
-0.02063144 0.027745716 0.74699998 1.4676099e-38
-0.019157151 0.027671434 0.745 1.4400951e-38
-0.017690485 0.027597137 0.74299997 1.4132978e-38
-0.016253334 0.027559988 0.74200004 1.4038631e-38
-0.014840008 0.027560011 0.74199998 1.385783e-38
-0.013390484 0.027485713 0.73999995 1.4405256e-38
-0.011980943 0.027485698 0.74000001 1.5052409e-38
-0.01055714 0.027448565 0.73900002 1.615587e-38
-0.0091247503 0.027374268 0.73700005 1.7264712e-38
-0.0077209473 0.027374268 0.73700005 1.7444795e-38
-0.0063171294 0.027374282 0.73700011 1.7628825e-38
-0.0049133236 0.02737429 0.73700005 1.7719226e-38
-0.0035047766 0.027337141 0.73600006 1.790756e-38
-0.0020971501 0.027262859 0.73399997 1.7996526e-38
-0.00069905614 0.027262881 0.73399997 1.8183067e-38
0.00069903786 0.027262874 0.73399997 1.7902538e-38
0.0020971422 0.027262859 0.73400003 1.7631695e-38
0.0034952352 0.027262866 0.73400003 1.7718867e-38
0.0048933225 0.027262859 0.73399997 1.7723889e-38
0.0062914165 0.027262866 0.73399997 1.7902897e-38
0.0076895105 0.027262881 0.73399997 1.8091231e-38
0.0090876054 0.027262881 0.73399997 1.8178762e-38
0.010485711 0.027262866 0.73400003 1.8274902e-38
0.011883804 0.027262866 0.73400003 1.8270956e-38
0.013245708 0.027188584 0.73199999 1.8366738e-38
0.014679992 0.027262866 0.73399997 1.8362433e-38
0.016078087 0.027262874 0.73399997 1.8366738e-38
0.017476181 0.027262866 0.73399997 1.854718e-38
0.0189257 0.027337141 0.736 1.8825915e-38
0.020327607 0.027337149 0.736 1.8730492e-38
0.021729512 0.027337156 0.736 1.873408e-38
0.023162859 0.02737429 0.73700005 1.97414e-38
0.024566678 0.027374282 0.73700005 2.0846296e-38
0.025970489 0.027374275 0.73700005 2.0662625e-38
0.027448563 0.027448565 0.73899996 2.057079e-38
0.028895235 0.027485713 0.73999995 2.0569713e-38
0.030386675 0.027559996 0.74200004 2.057079e-38
0.031799994 0.027560011 0.74199998 2.001547e-38
0.03321334 0.027560003 0.74200004 1.9462664e-38
0.034673322 0.027597144 0.74299997 1.8263063e-38
0.03608856 0.027597144 0.74299997 1.7158506e-38
0.037604753 0.027671441 0.745 1.7610846e-38
0.039128568 0.027745724 0.74700004 1.7986081e-38
0.040605709 0.02778285 0.74800003 2.0749036e-38
0.042142857 0.027857155 0.75 2.3412965e-38
0.043687616 0.027931437 0.75199997 2.3414739e-38
0.045300011 0.02804286 0.755 2.3415473e-38
0.046800002 0.028079994 0.75600004 2.3416565e-38
0.048240002 0.028079994 0.75600004 2.3416206e-38
0.050402865 0.028488576 0.76700002 2.3416205e-38
0.051863812 0.028488576 0.76700002 2.3417649e-38
-0.035699997 0.029871441 0.76500005 1.3920121e-38
-0.034063809 0.029715247 0.76100004 1.3920144e-38
-0.032571435 0.029676199 0.75999999 1.3832612e-38
-0.031041905 0.029598095 0.75799996 1.5209785e-38
-0.029598093 0.029598095 0.75800002 1.6594877e-38
-0.028080003 0.029519998 0.75600004 1.6505581e-38
-0.026534295 0.02940286 0.75299996 1.6322996e-38
-0.025066664 0.029363811 0.75200003 1.6140769e-38
-0.023571426 0.029285721 0.75 1.5865266e-38
-0.022083815 0.029207624 0.74800003 1.5773074e-38
-0.020631429 0.029168576 0.74700004 1.5684479e-38
-0.019157158 0.029090486 0.745 1.5409342e-38
-0.017690489 0.029012382 0.74299997 1.5138858e-38
-0.016275251 0.029012375 0.74299997 1.4957339e-38
-0.014840009 0.028973334 0.74199998 1.4680398e-38
-0.013426671 0.028973326 0.74200004 1.5415083e-38
-0.011980953 0.028895237 0.74000001 1.606439e-38
-0.010557145 0.028856188 0.73900002 1.7629184e-38
-0.0091247521 0.028778084 0.73700005 1.9099268e-38
-0.0077209356 0.028778076 0.73700011 1.9192538e-38
-0.0063085835 0.028739043 0.736 1.9191819e-38
-0.0049133264 0.028778091 0.73700005 1.928509e-38
-0.0035095091 0.028778084 0.73700005 1.9284731e-38
-0.0021028703 0.02873905 0.736 1.9652432e-38
-0.00070096442 0.028739043 0.736 2.0019774e-38
0.00070093403 0.028739043 0.736 2.029528e-38
0.0020971356 0.028660968 0.73400003 2.0478593e-38
0.0034952296 0.028660968 0.73399997 2.0570788e-38
0.0049066544 0.028739057 0.736 2.0662624e-38
0.0063085528 0.028739057 0.736 2.0570788e-38
0.0076895105 0.028660968 0.73399997 2.0478234e-38
0.0090876138 0.02866096 0.73400003 2.0754099e-38
0.010485709 0.028660953 0.73400003 2.093813e-38
0.011883802 0.028660968 0.73399997 2.1121801e-38
0.013281897 0.028660968 0.73399997 2.1305113e-38
0.014679992 0.028660975 0.73399997 2.1305471e-38
0.016121894 0.028739057 0.736 2.1213277e-38
0.017523794 0.02873905 0.736 2.1213635e-38
0.01892571 0.02873905 0.73600006 2.1213635e-38
0.020327609 0.028739043 0.736 2.11218e-38
0.021729516 0.02873905 0.736 2.1029604e-38
0.023162866 0.028778084 0.73700005 2.0937769e-38
0.024566671 0.028778099 0.73700005 2.0845936e-38
0.025970489 0.028778091 0.73700005 2.0937414e-38
0.027448574 0.028856188 0.73900002 2.0936334e-38
0.028973332 0.028973334 0.74199998 2.0015105e-38
0.030386679 0.028973334 0.74200004 1.9096391e-38
0.031799994 0.028973334 0.74199998 1.9093164e-38
0.033258088 0.029012382 0.74299997 1.8999885e-38
0.034673326 0.029012389 0.74299997 1.8810466e-38
0.036185704 0.029090479 0.745 1.853028e-38
0.037705708 0.029168569 0.74699998 1.8334757e-38
0.039180953 0.029207617 0.74800003 1.8075402e-38
0.040605713 0.029207617 0.74800003 2.0753707e-38
0.042142857 0.029285721 0.75 2.3414412e-38
0.043687601 0.029363811 0.75199997 2.3415119e-38
0.045359988 0.029519998 0.75599998 2.3415131e-38
0.046923805 0.029598095 0.75799996 2.3417296e-38
0.048367608 0.029598095 0.75799996 2.3416216e-38
0.050402854 0.029949524 0.76699996 2.3413702e-38
0.051863801 0.029949524 0.76699996 2.3324389e-38
-0.035606675 0.031246684 0.76299995 1.3830792e-38
-0.034063816 0.031164765 0.76099998 1.4569432e-38
-0.032571442 0.031123824 0.75999999 1.5309486e-38
-0.031123813 0.031123817 0.76000005 1.6504052e-38
-0.029598091 0.031041913 0.75799996 1.7701882e-38
-0.02808 0.030960009 0.75600004 1.7426756e-38
-0.026604757 0.030919038 0.75500005 1.7056922e-38
-0.025066676 0.030796193 0.75199997 1.6874344e-38
-0.023634292 0.030796193 0.75199997 1.6600278e-38
-0.022083817 0.030632369 0.74800003 1.6691041e-38
-0.020631427 0.030591428 0.74700004 1.6787204e-38
-0.019157156 0.030509531 0.745 1.7615539e-38
-0.017690478 0.03042762 0.74300003 1.83513e-38
-0.01627524 0.030427612 0.74300003 1.8169781e-38
-0.014860004 0.03042762 0.74299997 1.8072926e-38
-0.013426672 0.030386664 0.74200004 1.7988625e-38
-0.01201333 0.030386671 0.74199998 1.7997598e-38
-0.01055715 0.030263804 0.73899996 1.8728697e-38
-0.0091495356 0.030263819 0.73899996 1.946338e-38
-0.0077419067 0.030263811 0.73899996 1.9557366e-38
-0.0063171312 0.030181907 0.73700005 1.9742831e-38
-0.0049133291 0.0301819 0.73700005 1.9741395e-38
-0.0035095124 0.030181892 0.73700005 1.9834665e-38
-0.0021028698 0.030140959 0.736 1.9926501e-38
-0.00070096395 0.030140951 0.736 2.0019054e-38
0.00070093496 0.030140966 0.736 2.0293484e-38
0.0021028512 0.030140951 0.73600006 2.0478232e-38
0.0035047496 0.030140951 0.736 2.0661545e-38
0.0049066553 0.030140951 0.736 2.0845574e-38
0.0063085537 0.030140951 0.736 2.0753021e-38
0.0077104717 0.030140944 0.73600006 2.0660469e-38
0.0091123702 0.030140966 0.736 2.0844856e-38
0.010514276 0.030140959 0.736 2.1029963e-38
0.011916175 0.030140966 0.736 2.1120724e-38
0.013318092 0.030140951 0.73600006 2.1212558e-38
0.01471999 0.030140951 0.736 2.1304033e-38
0.016121896 0.030140951 0.736 2.1303674e-38
0.017523795 0.030140951 0.736 2.1488063e-38
0.018925712 0.030140951 0.73600006 2.1764287e-38
0.020327611 0.030140944 0.736 2.1671732e-38
0.021729516 0.030140966 0.736 2.1579179e-38
0.02316287 0.030181892 0.73700005 2.1487701e-38
0.024566678 0.030181885 0.73700005 2.1488064e-38
0.025970479 0.0301819 0.73699999 2.1486992e-38
0.027448567 0.030263811 0.73899996 2.1486984e-38
0.028973328 0.030386664 0.74199998 2.1024928e-38
0.030386675 0.030386664 0.74200004 2.05636e-38
0.031842843 0.030427627 0.74299997 2.0931302e-38
0.033258088 0.03042762 0.74299997 2.1204639e-38
0.034673322 0.03042762 0.74299997 2.0468144e-38
0.036185704 0.030509531 0.745 1.972556e-38
0.037705719 0.030591421 0.74700004 1.8619219e-38
0.039180961 0.030632377 0.74800003 1.7614787e-38
0.040714294 0.030714281 0.75 1.8998435e-38
0.04225523 0.0307962 0.75199997 2.038242e-38
0.043745711 0.030837148 0.75299996 2.0471739e-38
0.045360003 0.030959994 0.75600004 2.0657572e-38
0.046923812 0.031041913 0.75800002 2.1484817e-38
-0.035606693 0.032700017 0.76299995 1.3648566e-38
-0.034063827 0.032614298 0.76099998 1.5216598e-38
-0.032571435 0.032571435 0.75999999 1.6780677e-38
-0.031041911 0.032485716 0.75800002 1.7794819e-38
-0.029598093 0.032485723 0.75799996 1.8807529e-38
-0.028079996 0.032399997 0.75600004 1.8350872e-38
-0.026604751 0.032357149 0.75500005 1.7795559e-38
-0.025066676 0.032228582 0.75199997 1.7607946e-38
-0.023634294 0.032228582 0.75199997 1.7333869e-38
-0.022142846 0.032142863 0.75000006 1.7603271e-38
-0.020659048 0.032057144 0.74800003 1.7890281e-38
-0.019157153 0.031928562 0.745 1.9730242e-38
-0.017690483 0.031842858 0.74300003 2.1571272e-38
-0.016275246 0.031842865 0.74300003 2.1481245e-38
-0.014860009 0.031842858 0.74300003 2.1387961e-38
-0.013426674 0.031799994 0.74200004 2.0651828e-38
-0.012029532 0.031842858 0.74299997 1.9919666e-38
-0.010599994 0.031799987 0.74200004 1.9824615e-38
-0.0091619054 0.031714283 0.74000001 1.9737444e-38
-0.0077419016 0.03167142 0.73900002 2.0014386e-38
-0.006334288 0.03167142 0.73900002 2.0198417e-38
-0.004913317 0.031585693 0.73700005 2.0286308e-38
-0.0035095259 0.031585701 0.73699999 2.0291329e-38
-0.0021028693 0.03154286 0.73600006 2.0199133e-38
-0.00070096302 0.03154286 0.736 2.0015103e-38
0.00070094242 0.03154286 0.736 2.0289892e-38
0.0021028409 0.03154286 0.736 2.0476435e-38
0.0035047506 0.031542845 0.73600006 2.0751585e-38
0.0049066562 0.031542853 0.736 2.0935974e-38
0.0063085621 0.031542867 0.736 2.0843421e-38
0.0077104606 0.031542875 0.736 2.0751944e-38
0.0091123693 0.03154286 0.73600006 2.0934897e-38
0.010514275 0.031542853 0.736 2.1120003e-38
0.011916181 0.03154286 0.736 2.111857e-38
0.01331808 0.031542867 0.736 2.1119286e-38
0.014719989 0.03154286 0.736 2.1302239e-38
0.016121896 0.031542853 0.736 2.1395151e-38
0.017523794 0.031542853 0.736 2.185433e-38
0.01892571 0.03154286 0.73600006 2.2222748e-38
0.020327609 0.031542853 0.73600006 2.2221672e-38
0.021729516 0.03154286 0.736 2.2130194e-38
0.023162866 0.031585708 0.73700005 2.2129834e-38
0.024566673 0.031585716 0.73700005 2.2037642e-38
0.025970483 0.031585708 0.73700005 2.2035493e-38
0.027448572 0.031671412 0.73900002 2.2036923e-38
0.028973328 0.031800002 0.74199998 2.2033692e-38
0.030386675 0.031799994 0.74200004 2.2036204e-38
0.031842846 0.03184285 0.74299997 2.2771965e-38
0.033258092 0.031842843 0.74299997 2.3414795e-38
0.034766648 0.031928584 0.745 2.213195e-38
0.036282856 0.032014273 0.74700004 2.0827594e-38
0.037756182 0.032057136 0.74800003 1.8984782e-38
0.039180957 0.032057129 0.74800003 1.7152385e-38
0.04071429 0.032142863 0.75 1.7242795e-38
0.042255234 0.032228567 0.75199997 1.724853e-38
0.043861914 0.032357134 0.75500005 1.7614791e-38
0.045479998 0.032485709 0.75800002 1.7894245e-38
0.046923812 0.032485709 0.75800002 1.9548722e-38
-0.035606667 0.034153335 0.76300001 1.3464905e-38
-0.034153342 0.034153335 0.76300001 1.5123699e-38
-0.032614287 0.034063801 0.76100004 1.6781424e-38
-0.031123811 0.034019046 0.76000005 1.7795224e-38
-0.029598096 0.033929534 0.75800002 1.8718597e-38
-0.028080007 0.033840001 0.75600004 1.8811145e-38
-0.026604757 0.033795245 0.75500005 1.8901179e-38
-0.025066663 0.033660956 0.75200003 1.8624229e-38
-0.023634294 0.033660956 0.75200003 1.835086e-38
-0.022142855 0.03357143 0.75000006 1.9360674e-38
-0.02065905 0.033481911 0.74800003 2.0378422e-38
-0.019208567 0.03343714 0.74700004 2.1299312e-38
-0.017738109 0.033347629 0.745 2.2130885e-38
-0.01631905 0.033347622 0.745 2.231351e-38
-0.014860013 0.033258103 0.74300003 2.2407467e-38
-0.013444775 0.033258095 0.74300003 2.2035072e-38
-0.012029537 0.033258095 0.74299997 2.1663805e-38
-0.010599995 0.033213332 0.74200004 2.1666337e-38
-0.0091618989 0.033123799 0.74000001 2.1575222e-38
-0.0077419071 0.033079036 0.73900002 2.1669213e-38
-0.0063342936 0.033079043 0.73900002 2.1852528e-38
-0.0049266792 0.03307905 0.73900002 2.1852889e-38
-0.0035095133 0.032989517 0.73700005 2.185468e-38
-0.0021028679 0.032944754 0.73600006 2.1761048e-38
-0.00070096209 0.032944761 0.736 2.1756026e-38
0.00070094335 0.032944769 0.736 2.1852884e-38
0.0021028419 0.032944776 0.736 2.1947235e-38
0.003504758 0.032944769 0.73600006 2.2038716e-38
0.0049066562 0.032944769 0.736 2.222131e-38
0.0063085621 0.032944761 0.736 2.2130192e-38
0.0077104615 0.032944769 0.736 2.2130551e-38
0.0091123702 0.032944761 0.73600006 2.2222387e-38
0.010514276 0.032944769 0.736 2.2314582e-38
0.011916182 0.032944761 0.736 2.2314223e-38
0.01331808 0.032944761 0.736 2.2313506e-38
0.014719989 0.032944754 0.73600006 2.2313863e-38
0.016121896 0.032944754 0.736 2.240606e-38
0.017523801 0.032944776 0.736 2.259045e-38
0.018925702 0.032944776 0.736 2.2866676e-38
0.020327611 0.032944761 0.73600006 2.2774123e-38
0.021759059 0.032989509 0.73700005 2.2773763e-38
0.023162859 0.032989517 0.73700005 2.2773401e-38
0.024633333 0.033079043 0.73900002 2.2772326e-38
0.026040941 0.03307905 0.73899996 2.2773044e-38
0.027485717 0.033123806 0.74000001 2.277484e-38
0.028973334 0.03321334 0.74199998 2.2773407e-38
0.030427614 0.033258095 0.74300003 2.2774842e-38
0.03184285 0.033258088 0.74300003 2.3049631e-38
0.033258088 0.033258103 0.74300003 2.341767e-38
0.034766655 0.033347622 0.745 2.0370219e-38
0.036282856 0.03343714 0.74700004 1.7416775e-38
0.037756182 0.033481903 0.74800003 1.733319e-38
0.039180953 0.033481896 0.74800003 1.7246379e-38
0.040714286 0.033571422 0.75 1.6875809e-38
0.04231143 0.033705711 0.75299996 1.6509538e-38
0.043861907 0.03379523 0.75500005 1.6508456e-38
0.045479991 0.033929542 0.75799996 1.660244e-38
0.046923812 0.033929527 0.75800002 1.7244924e-38
-0.035700012 0.035699993 0.76500005 1.3281945e-38
-0.034153346 0.035606667 0.76300001 1.5032225e-38
-0.032614291 0.035513349 0.76099998 1.678071e-38
-0.031123819 0.035466678 0.75999999 1.77016e-38
-0.029598083 0.035373338 0.75800002 1.862641e-38
-0.028080005 0.035280004 0.75600004 1.9273203e-38
-0.026604764 0.035233334 0.75500005 1.9914253e-38
-0.025099998 0.035140015 0.75300002 1.9637309e-38
-0.02363429 0.035093345 0.75199997 1.9272119e-38
-0.02214285 0.035000004 0.75000006 2.1109548e-38
-0.020659054 0.034906685 0.74800003 2.2861251e-38
-0.019208582 0.03486 0.74699998 2.2774093e-38
-0.017738106 0.034766681 0.745 2.2682272e-38
-0.016319057 0.034766674 0.745 2.3050347e-38
-0.014860001 0.034673341 0.74300003 2.3417314e-38
-0.013444765 0.034673341 0.74300003 2.3417659e-38
-0.012029526 0.034673333 0.74300003 2.3415517e-38
-0.010599996 0.034626663 0.74199998 2.341768e-38
-0.0091619082 0.034533329 0.73999995 2.3416247e-38
-0.007741902 0.034486666 0.73900002 2.3417683e-38
-0.0063342885 0.034486666 0.73900002 2.3416608e-38
-0.0049266843 0.034486674 0.73899996 2.3417686e-38
-0.0035095166 0.034393333 0.73700005 2.3417326e-38
-0.0021028786 0.03434667 0.736 2.3417683e-38
-0.00070096256 0.03434667 0.73600006 2.3415531e-38
0.00070094335 0.034346677 0.736 2.3417683e-38
0.0021028428 0.03434667 0.736 2.3417326e-38
0.0035047487 0.034346685 0.736 2.3417687e-38
0.0049066572 0.03434667 0.736 2.341697e-38
0.0063085631 0.03434667 0.736 2.3417687e-38
0.0077104606 0.03434667 0.736 2.3417328e-38
0.0091123767 0.034346655 0.73600006 2.3417687e-38
0.010514275 0.034346662 0.736 2.3417328e-38
0.011916183 0.034346655 0.736 2.3417687e-38
0.013318081 0.034346677 0.736 2.3417328e-38
0.01471999 0.03434667 0.73600006 2.3417687e-38
0.016121896 0.03434667 0.736 2.3417328e-38
0.017523803 0.03434667 0.736 2.3417689e-38
0.018925702 0.03434667 0.736 2.3417689e-38
0.020355245 0.03439334 0.73699999 2.341769e-38
0.021759056 0.034393325 0.73700005 2.341733e-38
0.023162866 0.034393318 0.73700005 2.3417687e-38
0.024633329 0.034486666 0.73900002 2.341697e-38
0.026040947 0.034486659 0.73900002 2.3417689e-38
0.027485715 0.034533344 0.73999995 2.3417689e-38
0.029012376 0.034673326 0.74300003 2.341769e-38
0.030427614 0.034673326 0.74300003 2.341769e-38
0.031842843 0.034673326 0.74300003 2.341769e-38
0.033258088 0.034673326 0.74300003 2.331219e-38
0.034766655 0.034766659 0.74500006 1.8697782e-38
0.036282856 0.034859985 0.74700004 1.4020648e-38
0.037756179 0.03490667 0.74800003 1.5684829e-38
0.039180953 0.03490667 0.74800003 1.7244228e-38
0.040714294 0.035000004 0.75 1.6503793e-38
0.042423807 0.035233341 0.75500005 1.5677625e-38
0.043920007 0.035280012 0.75600004 1.5490718e-38
0.045360003 0.035280012 0.75600004 1.5218089e-38
-0.035606667 0.037060015 0.76299995 1.3279429e-38
-0.034153346 0.037060015 0.76299995 1.4571974e-38
-0.032614302 0.036962882 0.76099998 1.5954195e-38
-0.031123815 0.036914304 0.76000005 1.6231519e-38
-0.029676197 0.036914304 0.75999999 1.6607831e-38
-0.028154284 0.036817133 0.75800002 1.8077557e-38
-0.026640007 0.036720008 0.75600004 1.9456885e-38
-0.025066676 0.036525711 0.75199997 1.954872e-38
-0.023634292 0.036525719 0.75200003 1.9643085e-38
-0.022142844 0.036428571 0.75000006 2.1023863e-38
-0.020714274 0.036428563 0.75000006 2.2499332e-38
-0.019234298 0.036331423 0.74799997 2.2313153e-38
-0.017738102 0.036185712 0.745 2.2222751e-38
-0.016319051 0.036185712 0.745 2.2774121e-38
-0.014860007 0.036088571 0.74300003 2.3324418e-38
-0.013444769 0.036088578 0.74300003 2.3325496e-38
-0.012029531 0.036088571 0.74300003 2.341769e-38
-0.010599998 0.036040008 0.74199998 2.341769e-38
-0.0091866693 0.036040008 0.74199998 2.341769e-38
-0.0077523761 0.035942852 0.74000001 2.341769e-38
-0.0063342941 0.035894282 0.73900002 2.341769e-38
-0.0049266797 0.03589429 0.73900002 2.341769e-38
-0.0035190501 0.03589429 0.73900002 2.341769e-38
-0.0021057122 0.035797141 0.73699999 2.341769e-38
-0.00070190273 0.035797149 0.73700005 2.341769e-38
0.00070191472 0.035797141 0.73700005 2.341769e-38
0.0021057243 0.035797141 0.73700005 2.341769e-38
0.0035095338 0.035797134 0.73700005 2.341769e-38
0.0049066581 0.035748564 0.73600006 2.341769e-38
0.0063171508 0.035797134 0.73700005 2.341769e-38
0.0077209584 0.035797127 0.73700005 2.341769e-38
0.0091123693 0.035748586 0.736 2.341769e-38
0.010514278 0.035748579 0.73600006 2.341769e-38
0.011916184 0.035748579 0.736 2.341769e-38
0.013318082 0.035748571 0.736 2.341769e-38
0.014719988 0.035748579 0.736 2.341769e-38
0.016121898 0.035748564 0.73600006 2.341769e-38
0.017523805 0.035748586 0.736 2.341769e-38
0.018925702 0.035748586 0.736 2.341769e-38
0.020355241 0.035797149 0.73700005 2.341769e-38
0.021759059 0.035797149 0.73700005 2.341769e-38
0.02316287 0.035797141 0.73700005 2.341769e-38
0.024633335 0.03589429 0.73900002 2.341769e-38
0.026076192 0.035942852 0.73999995 2.341769e-38
0.027560001 0.036040001 0.74200004 2.341769e-38
0.028973334 0.036040001 0.74199998 2.341769e-38
0.03042762 0.036088564 0.74300003 2.341769e-38
0.031842858 0.036088564 0.74300003 1.9822833e-38
0.033258095 0.036088564 0.74300003 1.6327298e-38
0.034766648 0.036185719 0.745 1.474847e-38
0.036331426 0.036331415 0.74800003 1.3191612e-38
0.037756186 0.036331408 0.74800003 1.5590495e-38
0.039180949 0.036331423 0.74799997 1.8072542e-38
0.040605709 0.036331423 0.74800003 1.7242411e-38
0.042423822 0.036671415 0.75500005 1.6409785e-38
0.043919999 0.03672 0.75600004 1.5952034e-38
0.045479994 0.036817141 0.75800002 1.5582917e-38
-0.035699997 0.038614281 0.76500005 1.3187585e-38
-0.034153346 0.038513348 0.76299995 1.4113151e-38
-0.032614302 0.038412392 0.76100004 1.5031517e-38
-0.031123819 0.038361914 0.75999999 1.4845346e-38
-0.029676195 0.038361903 0.76000005 1.4576658e-38
-0.028154287 0.038260959 0.75800002 1.6787888e-38
-0.026640005 0.038160011 0.75600004 1.8993037e-38
-0.025166659 0.038109519 0.75500005 1.9548736e-38
-0.023634303 0.0379581 0.75199997 2.0009352e-38
-0.022201924 0.0379581 0.75199997 2.1027082e-38
-0.02071427 0.037857126 0.75000006 2.2035842e-38
-0.019234288 0.037756186 0.74800003 2.1940424e-38
-0.017738109 0.037604779 0.745 2.176142e-38
-0.016319059 0.037604775 0.745 2.2498257e-38
-0.014860012 0.037503812 0.74300003 2.3141466e-38
-0.013444774 0.037503809 0.74300003 2.3325854e-38
-0.012029535 0.037503816 0.74300003 2.341769e-38
-0.010614297 0.037503812 0.74300003 2.341769e-38
-0.0091866609 0.037453324 0.74200004 2.341769e-38
-0.0077733342 0.037453331 0.74199998 2.341769e-38
-0.0063428604 0.037352376 0.74000001 2.341769e-38
-0.0049266848 0.037301913 0.73899996 2.341769e-38
-0.0035190557 0.037301905 0.73899996 2.341769e-38
-0.002105715 0.037200943 0.73700005 2.341769e-38
-0.0007018976 0.037200935 0.73700005 2.341769e-38
0.00070191099 0.037200935 0.73700005 2.341769e-38
0.002105729 0.03720095 0.73700005 2.341769e-38
0.0035095282 0.037200958 0.73700005 2.341769e-38
0.0049133375 0.03720095 0.73700005 2.341769e-38
0.0063171471 0.03720095 0.73700005 2.341769e-38
0.007720965 0.037200943 0.73700005 2.341769e-38
0.0091247745 0.037200935 0.73700005 2.341769e-38
0.010528575 0.037200943 0.73700005 2.341769e-38
0.011932382 0.03720095 0.73700005 2.341769e-38
0.0133362 0.037200943 0.73700005 2.341769e-38
0.014740011 0.037200943 0.73700005 2.341769e-38
0.016143821 0.037200928 0.73700005 2.341769e-38
0.01754762 0.03720095 0.73700005 2.341769e-38
0.018951437 0.037200943 0.73700005 2.341769e-38
0.020355247 0.037200943 0.73700005 2.341769e-38
0.021759057 0.037200943 0.73700005 2.341769e-38
0.023257148 0.037352376 0.74000001 2.341769e-38
0.024666669 0.037352383 0.73999995 2.341769e-38
0.026076192 0.037352368 0.74000001 2.341769e-38
0.027559998 0.037453331 0.74199998 2.341769e-38
0.029012365 0.037503816 0.74299997 2.341769e-38
0.030427603 0.037503816 0.74299997 2.3404357e-38
0.03184285 0.037503801 0.74300003 1.6312158e-38
0.03334761 0.037604768 0.745 9.2343747e-39
0.034906659 0.037756193 0.74800003 1.077729e-38
0.036428571 0.037857138 0.75 1.2364011e-38
0.037857149 0.037857138 0.75 1.5595879e-38
0.039442852 0.038008582 0.75299996 1.8809387e-38
0.040985715 0.038109519 0.75500005 1.7983567e-38
0.042479999 0.038160004 0.75600004 1.7060548e-38
0.044036195 0.038260955 0.75800002 1.6508459e-38
0.045479994 0.038260955 0.75800002 1.5953859e-38
0.046923809 0.038260955 0.75800002 1.5674049e-38
-0.035700005 0.040071435 0.76500005 1.2543292e-38
-0.034153346 0.039966676 0.76299995 1.3738987e-38
-0.032614294 0.03986191 0.76099998 1.4845675e-38
-0.031123813 0.03980954 0.75999999 1.4752761e-38
-0.029676199 0.03980954 0.75999999 1.4656985e-38
-0.028154274 0.039704759 0.75800002 1.5676149e-38
-0.026639989 0.039600004 0.75600004 1.6688893e-38
-0.025166657 0.039547618 0.75500005 1.7059506e-38
-0.023634294 0.039390489 0.75199997 1.7430787e-38
-0.022201911 0.039390493 0.75199997 1.8168691e-38
-0.020714289 0.039285723 0.75 1.8911275e-38
-0.01923429 0.039180953 0.74800003 1.9368307e-38
-0.017738106 0.03902382 0.745 1.9832871e-38
-0.016319057 0.039023817 0.745 2.0750515e-38
-0.014860011 0.03891905 0.74299997 2.1763934e-38
-0.013444773 0.038919047 0.74299997 2.2591171e-38
-0.012029524 0.038919039 0.74300003 2.341769e-38
-0.010614286 0.038919054 0.74300003 2.341769e-38
-0.0091866618 0.038866661 0.74200004 2.341769e-38
-0.0077733351 0.038866676 0.74199998 2.341769e-38
-0.0063428539 0.038761891 0.73999995 2.341769e-38
-0.0049333288 0.038761899 0.74000001 2.341769e-38
-0.0035190505 0.038709514 0.73900002 2.341769e-38
-0.0021057038 0.038604759 0.73700005 2.341769e-38
-0.00070189388 0.038604755 0.73700005 2.341769e-38
0.00070191658 0.038604751 0.73700005 2.341769e-38
0.002105715 0.038604766 0.73700005 2.341769e-38
0.0035095329 0.038604759 0.73700005 2.341769e-38
0.0049133413 0.038604762 0.73700005 2.341769e-38
0.0063085649 0.038552381 0.73600006 2.341769e-38
0.0077104634 0.038552385 0.736 2.341769e-38
0.0091247661 0.038604762 0.73700005 2.341769e-38
0.010528577 0.038604759 0.73700005 2.341769e-38
0.011932387 0.038604751 0.73700005 2.341769e-38
0.013336197 0.038604748 0.73700005 2.341769e-38
0.014740014 0.038604751 0.73700005 2.341769e-38
0.016143814 0.038604759 0.73700005 2.341769e-38
0.017547624 0.038604766 0.73700005 2.341769e-38
0.018951433 0.038604762 0.73700005 2.341769e-38
0.020410474 0.038709525 0.73900002 2.341769e-38
0.02181809 0.038709514 0.73900002 2.341769e-38
0.023257146 0.038761895 0.73999995 2.341769e-38
0.02466668 0.038761895 0.74000001 2.341769e-38
0.026146667 0.038866673 0.74199998 2.341769e-38
0.027560005 0.038866661 0.74199998 2.341769e-38
0.029090466 0.039023813 0.745 2.0648276e-38
0.030427605 0.038919054 0.74299997 1.7795875e-38
0.032014284 0.039128564 0.74700004 1.2539966e-38
0.03343714 0.039128572 0.74700004 7.2960763e-39
0.034906656 0.039180961 0.74799997 9.1335639e-39
