# .PCD v0.7 - Point Cloud Data file format
VERSION 0.7
FIELDS x y z rgb
SIZE 4 4 4 4
TYPE F F F F
COUNT 1 1 1 1
WIDTH 975
HEIGHT 1
VIEWPOINT 0 0 0 1 0 0 0
POINTS 975
DATA ascii
-0.028228555 0.044152375 0.76000005 2.1206796e-38
-0.026710462 0.044036172 0.75800008 2.1667418e-38
-0.025199987 0.043920003 0.75599998 2.2495741e-38
-0.023728561 0.043861896 0.75500011 2.3324773e-38
-0.02223143 0.043745704 0.75300008 2.3050344e-38
-0.020769514 0.043687612 0.75200003 2.2771246e-38
-0.019285701 0.043571416 0.75000006 2.240426e-38
-0.017809499 0.043455228 0.74800003 2.1931432e-38
-0.016362868 0.04339714 0.7470001 2.0459176e-38
-0.014940007 0.043397136 0.74700004 1.88775e-38
-0.013517146 0.043397147 0.74700004 1.6294241e-38
-0.012061894 0.043280948 0.74500006 1.3633883e-38
-0.010642841 0.043280952 0.74500006 1.0320633e-38
-0.0091990372 0.043164764 0.74300003 7.0181511e-39
-0.0077837948 0.043164756 0.74300003 3.5822219e-39
-0.0063685663 0.043164764 0.74300003 1.1110755e-40
-0.0049466547 0.043106657 0.74200004 9.2433851e-41
-0.0035333158 0.04310666 0.74200004 1.0498948e-40
-0.0021142792 0.042990472 0.74000001 1.1431513e-40
-0.00070474937 0.042990461 0.74000001 1.0790699e-40
0.00070476544 0.042990465 0.74000001 9.8600965e-39
0.0021142811 0.042990454 0.74000007 1.9637717e-38
0.0035238191 0.042990468 0.74000001 2.1397309e-38
0.004933347 0.042990465 0.74000001 2.3141825e-38
0.0063428497 0.042990468 0.74000001 2.3325854e-38
0.0077419318 0.042932391 0.73899996 2.341769e-38
0.009149557 0.04293238 0.73900002 2.3325854e-38
0.01057143 0.042990476 0.74000001 2.3225393e-38
0.012013348 0.043106645 0.74200004 1.8883277e-38
0.013426686 0.043106649 0.7420001 1.458604e-38
0.014840016 0.043106668 0.74200004 1.8091231e-38
0.016253356 0.043106657 0.74200004 2.1478732e-38
0.017666694 0.04310666 0.74200004 2.0643951e-38
0.019080004 0.043106664 0.74200004 1.9827126e-38
0.020493342 0.043106664 0.74200004 1.928509e-38
0.021906681 0.043106653 0.74200004 1.861026e-38
0.023320019 0.04310666 0.7420001 9.6433311e-39
0.02473335 0.04310666 0.74200004 7.7155493e-40
0.026181942 0.043164779 0.74300003 1.0822556e-38
0.02767146 0.043280948 0.74500006 2.0835139e-38
0.029168587 0.043397151 0.74700004 2.0100818e-38
0.030632393 0.043455236 0.74800003 1.9355683e-38
0.032057159 0.043455228 0.74800003 1.7965547e-38
0.033571444 0.043571427 0.75000006 1.648182e-38
0.035000015 0.043571427 0.75000006 1.6016176e-38
0.036428593 0.043571424 0.75 1.5581813e-38
0.038109548 0.043861914 0.75500005 1.6051814e-38
0.039547652 0.043861903 0.75500005 1.6417335e-38
0.041148592 0.044036184 0.75800002 1.5954545e-38
0.042760964 0.044210471 0.76100004 1.5495749e-38
0.044210497 0.044210479 0.76100004 1.6046786e-38
0.04578004 0.044326674 0.76299995 1.6507751e-38
-0.03433235 0.046020009 0.76700002 1.7704438e-38
-0.032699961 0.045780003 0.76300001 1.9094178e-38
-0.031164758 0.045660008 0.76100004 1.9641973e-38
-0.029676171 0.04559999 0.76000005 2.0283043e-38
-0.028228559 0.04559999 0.76000005 2.1022406e-38
-0.026710477 0.045479979 0.75800008 2.1852166e-38
-0.025200006 0.045359991 0.75600004 2.2588655e-38
-0.023759995 0.045359984 0.75600004 2.3325847e-38
-0.022290464 0.045299999 0.75500011 2.2312067e-38
-0.020769525 0.045120001 0.75200003 2.1293977e-38
-0.019285705 0.045000002 0.75000006 2.0544578e-38
-0.017809523 0.04487998 0.74800003 1.9790846e-38
-0.016384743 0.044879992 0.74800003 1.6750912e-38
-0.014940009 0.044820003 0.74700004 1.3777688e-38
-0.013517146 0.044820007 0.74700004 1.3056227e-38
-0.012094285 0.044820003 0.74700004 1.2219369e-38
-0.010642848 0.044699997 0.74500006 1.363822e-38
-0.0092237964 0.044700004 0.74500006 1.4931431e-38
-0.0078047439 0.044700004 0.74500006 1.1612419e-38
-0.0063685449 0.044580001 0.74300003 8.3228301e-39
-0.004946663 0.044519983 0.74200004 8.4932139e-39
-0.0035333047 0.044520002 0.74200004 8.7525817e-39
-0.002114296 0.04439998 0.74000007 6.2683626e-39
-0.00070474565 0.04439998 0.74000001 3.771997e-39
0.00070477009 0.044399984 0.74000001 1.0145289e-38
0.0021142848 0.044399995 0.74000007 1.6530018e-38
0.003523821 0.044399995 0.74000001 1.8917392e-38
0.0049333498 0.04439998 0.74000001 2.1304397e-38
0.0063428525 0.044399988 0.74000001 2.1671739e-38
0.0077523803 0.044399988 0.74000007 2.2040158e-38
0.0091619315 0.044399988 0.74000001 2.1301169e-38
0.010600032 0.044519994 0.74200004 2.057078e-38
0.012013342 0.044519987 0.74200004 1.8998803e-38
0.01342668 0.044519991 0.74200004 1.7440481e-38
0.01484002 0.044519998 0.74200004 1.891237e-38
0.01625333 0.044519987 0.74200004 2.0384954e-38
0.017666668 0.044519994 0.7420001 2.0007555e-38
0.019080028 0.044519994 0.74200004 1.9634483e-38
0.020493366 0.044519998 0.74200004 1.9918248e-38
0.021906676 0.044519991 0.74200004 2.0185836e-38
0.023351442 0.044580005 0.74300003 1.5670445e-38
0.024766684 0.044580009 0.74300003 1.1088028e-38
0.026181929 0.044580001 0.74300003 1.5692029e-38
0.027671436 0.044700008 0.74500006 2.0291324e-38
0.029168565 0.044820007 0.7470001 1.9455465e-38
0.030632403 0.044879992 0.74800003 1.8718957e-38
0.032057147 0.044879984 0.74800003 1.7596452e-38
0.033571444 0.044999994 0.75000006 1.6475372e-38
0.035000026 0.044999994 0.75000006 1.7772504e-38
0.0365257 0.045119986 0.75200009 1.9071196e-38
0.038109533 0.045300007 0.75500005 1.954516e-38
0.039600011 0.045359999 0.75600004 1.9914618e-38
0.041148581 0.045479991 0.75800002 1.8257955e-38
0.042760957 0.045660011 0.76100004 1.6688527e-38
0.04421049 0.045660008 0.76100004 1.6597795e-38
0.045900024 0.045900002 0.76500005 1.6504164e-38
-0.032699984 0.047233332 0.76300001 1.899588e-38
-0.031164754 0.047109533 0.76100004 1.9458297e-38
-0.02967618 0.047047615 0.76000005 1.9825662e-38
-0.028228551 0.047047608 0.76000005 2.0930579e-38
-0.026710469 0.046923798 0.75800002 2.1944005e-38
-0.025199991 0.046799991 0.75599998 2.2680131e-38
-0.023759995 0.046800002 0.75600004 2.3324404e-38
-0.022290461 0.046738103 0.75500005 2.1577726e-38
-0.02079713 0.046614286 0.75300002 1.9723025e-38
-0.019337147 0.046552356 0.75200009 1.8688388e-38
-0.017857134 0.046428565 0.75000006 1.7580986e-38
-0.016384747 0.046304759 0.74800003 1.3159975e-38
-0.014960003 0.046304755 0.74800003 8.7428342e-39
-0.013535223 0.046304751 0.74800003 9.8415629e-39
-0.012094292 0.046242852 0.7470001 1.0868726e-38
-0.010671432 0.046242848 0.74700004 1.6896979e-38
-0.0092238039 0.046119053 0.74500006 2.2847255e-38
-0.0078047523 0.046119045 0.74500006 1.9613623e-38
-0.0063685598 0.045995247 0.74300003 1.6413372e-38
-0.0049533155 0.045995235 0.74300003 1.6988063e-38
-0.0035333158 0.045933325 0.74200004 1.7418176e-38
-0.0021142932 0.045809496 0.74000007 1.2433941e-38
-0.00070474192 0.045809519 0.74000001 7.4791419e-39
0.00070477382 0.045809511 0.74000001 1.0418967e-38
0.0021142904 0.045809511 0.74000001 1.3391449e-38
0.0035238052 0.045809504 0.74000007 1.6438189e-38
0.0049466807 0.045933329 0.74200004 1.9464813e-38
0.0063600196 0.045933317 0.74200004 2.0108737e-38
0.0077733593 0.045933325 0.74200004 2.0657596e-38
0.0091866693 0.045933329 0.74200004 1.9268225e-38
0.010600007 0.045933321 0.74200004 1.7902171e-38
0.012013348 0.045933306 0.7420001 1.9101053e-38
0.013426677 0.045933329 0.74200004 2.0290255e-38
0.014840016 0.045933329 0.74200004 1.9823909e-38
0.016253356 0.045933329 0.74200004 1.9278987e-38
0.017666694 0.045933332 0.74200004 1.9366512e-38
0.019080004 0.045933325 0.74200004 1.9369028e-38
0.020520968 0.045995235 0.74300003 2.0567199e-38
0.021936212 0.045995243 0.74300003 2.1759253e-38
0.023351427 0.04599525 0.74300003 2.1580233e-38
0.024766671 0.045995243 0.74300003 2.1390119e-38
0.026252393 0.046119045 0.74500006 2.0566126e-38
0.027745705 0.046242855 0.7470001 1.9643088e-38
0.029207647 0.046304759 0.74800003 1.8894035e-38
0.030632392 0.046304759 0.74800003 1.8068199e-38
0.032142874 0.046428576 0.75 1.7317696e-38
0.033571456 0.046428572 0.75000006 1.6489746e-38
0.035093341 0.046552368 0.75200009 1.9527855e-38
0.03652573 0.046552368 0.75200003 2.2575333e-38
0.03816 0.046799999 0.75600004 2.3050341e-38
0.039600007 0.046799988 0.75600004 2.3413001e-38
0.041257169 0.047047615 0.76000005 2.0657201e-38
0.042760976 0.047109533 0.76100004 1.7799896e-38
0.044326704 0.047233336 0.76300001 1.7150947e-38
0.045900032 0.047357131 0.7650001 1.6415544e-38
-0.032614265 0.048559062 0.76100004 1.8624586e-38
-0.0311238 0.048495229 0.76000005 1.9454706e-38
-0.029676173 0.048495226 0.76000005 2.0284123e-38
-0.028228559 0.048495233 0.76000005 2.0932022e-38
-0.026710469 0.048367601 0.75800002 2.1669577e-38
-0.025199996 0.048240002 0.75600004 2.2312427e-38
-0.023760015 0.048239991 0.75600004 2.2958489e-38
-0.022290455 0.048176199 0.75500005 2.1757077e-38
-0.020797133 0.048048574 0.75300002 2.0637731e-38
-0.019337159 0.047984738 0.75200009 1.8694734e-38
-0.017857119 0.047857139 0.75000006 1.6848387e-38
-0.016384758 0.047729507 0.74800003 1.5557716e-38
-0.014959995 0.047729515 0.74800003 1.4263322e-38
-0.013535228 0.047729515 0.74800003 1.2966416e-38
-0.012094293 0.047665715 0.74700004 1.177164e-38
-0.010671431 0.047665723 0.74700004 1.7153863e-38
-0.0092237759 0.047538105 0.745 2.2497526e-38
-0.0078047598 0.047538105 0.74500006 1.8697457e-38
-0.0063857064 0.047538102 0.74500006 1.4850786e-38
-0.0049533304 0.047410466 0.74300003 1.7533044e-38
-0.0035380656 0.047410484 0.74300003 2.029383e-38
-0.0021199808 0.047346666 0.74200004 1.7705916e-38
-0.00070665486 0.047346659 0.74200004 1.5137724e-38
0.00070668396 0.047346652 0.74200004 1.5401723e-38
0.0021200078 0.047346655 0.74200004 1.5596557e-38
0.0035333466 0.047346666 0.74200004 1.7992573e-38
0.0049466845 0.047346652 0.7420001 2.0374555e-38
0.0063600158 0.047346659 0.74200004 2.1209322e-38
0.0077733537 0.047346659 0.74200004 2.2040145e-38
0.0091866935 0.047346666 0.74200004 2.1300077e-38
0.010600003 0.047346659 0.74200004 2.056576e-38
0.012013342 0.047346652 0.74200004 2.1212203e-38
0.013426682 0.047346655 0.74200004 2.1764651e-38
0.01484002 0.047346659 0.7420001 2.1302245e-38
0.01625333 0.047346655 0.74200004 2.0754102e-38
0.01766669 0.047346666 0.74200004 2.0474648e-38
0.019080028 0.047346659 0.74200004 2.0203448e-38
0.020493338 0.047346666 0.74200004 2.102925e-38
0.021936217 0.047410477 0.74300003 2.1764651e-38
0.023351461 0.047410484 0.74300003 2.1764292e-38
0.024766676 0.047410481 0.74300003 2.1764651e-38
0.026252419 0.047538113 0.745 2.1486633e-38
0.027745703 0.047665711 0.74700004 2.1208589e-38
0.029207636 0.047729507 0.74800003 2.0099003e-38
0.030632403 0.047729522 0.74800003 1.8995146e-38
0.032142881 0.047857139 0.75000006 1.796734e-38
0.033660952 0.047984753 0.75200003 1.6862854e-38
0.035093345 0.047984738 0.75200009 1.9726666e-38
0.036671463 0.048176203 0.75500005 2.2591158e-38
0.038160015 0.048239999 0.75600004 2.2958513e-38
0.039704762 0.048367597 0.75800008 2.341769e-38
0.041311432 0.048559047 0.76100004 2.1393363e-38
0.042760964 0.048559055 0.76100004 1.9366137e-38
0.044326715 0.048686676 0.76299995 1.7795218e-38
0.045900017 0.048814278 0.7650001 1.6232221e-38
-0.032699961 0.050140016 0.76299995 1.816433e-38
-0.03124664 0.050140005 0.76300001 1.945219e-38
-0.029676177 0.049942847 0.76000005 2.0651808e-38
-0.028228551 0.049942855 0.76000005 2.1027061e-38
-0.026710467 0.049811408 0.75800008 2.1297545e-38
-0.025199996 0.049680002 0.75600004 2.1940752e-38
-0.023759998 0.049679991 0.75600004 2.2494274e-38
-0.022320002 0.049680002 0.75600004 2.2037963e-38
-0.020852359 0.049614292 0.75500005 2.155969e-38
-0.019337136 0.049417134 0.75200003 1.8787682e-38
-0.017857121 0.04928571 0.75000006 1.6027596e-38
-0.016428549 0.049285725 0.75000006 1.7866819e-38
-0.014959983 0.049154278 0.74800003 1.9686646e-38
-0.013535218 0.049154289 0.74800003 1.6172479e-38
-0.012094295 0.049088575 0.74700004 1.2627253e-38
-0.010671433 0.049088567 0.74700004 1.7448383e-38
-0.0092237834 0.048957154 0.745 2.2110063e-38
-0.0078047318 0.048957162 0.745 1.7643798e-38
-0.0063856803 0.048957154 0.745 1.3286322e-38
-0.0049533229 0.048825722 0.74300003 1.8183067e-38
-0.0035380805 0.048825722 0.74300003 2.3049981e-38
-0.0021199901 0.048759993 0.74200004 2.2958494e-38
-0.00070666603 0.048759986 0.74200004 2.2764765e-38
0.00070669421 0.048760001 0.74200004 2.0269765e-38
0.002120018 0.048759997 0.74200004 1.7805655e-38
0.0035333429 0.048760001 0.74200004 1.9560596e-38
0.0049466798 0.048759993 0.74200004 2.1301882e-38
0.0063600214 0.048759993 0.74200004 2.2313506e-38
0.0077733314 0.048759989 0.74200004 2.3325489e-38
0.0091866693 0.048759989 0.74200004 2.3325847e-38
0.010600029 0.048759997 0.74200004 2.3232939e-38
0.012013368 0.048760004 0.74200004 2.3234019e-38
0.013426677 0.048759993 0.74200004 2.3234019e-38
0.014840018 0.048759997 0.74200004 2.2774842e-38
0.016253356 0.048760001 0.74200004 2.2222033e-38
0.017666666 0.048759997 0.74200004 2.1666713e-38
0.019105718 0.048825726 0.74300003 2.1028531e-38
0.020520963 0.048825715 0.74300003 2.1397309e-38
0.021936206 0.048825722 0.74300003 2.1763929e-38
0.023351448 0.048825715 0.74300003 2.1947956e-38
0.024833346 0.048957147 0.745 2.2036923e-38
0.026322838 0.049088564 0.74700004 2.2407497e-38
0.02778288 0.049154274 0.74800003 2.276907e-38
0.029207647 0.04915427 0.74800003 2.1389357e-38
0.030714311 0.049285706 0.75000006 1.990346e-38
0.032142881 0.049285717 0.75 1.8601593e-38
0.033660956 0.049417134 0.75200003 1.723953e-38
0.035140019 0.049482856 0.75300008 1.9924329e-38
0.03672 0.049680002 0.75600004 2.2495374e-38
0.038160007 0.049679991 0.75600004 2.2958507e-38
0.0397048 0.049811412 0.75800002 2.3417327e-38
0.041257162 0.049942847 0.76000005 2.2223826e-38
0.042760961 0.050008569 0.76100004 2.0923033e-38
0.044326704 0.050140005 0.76300001 1.8522726e-38
0.045900021 0.050271433 0.76500005 1.6048196e-38
-0.032785706 0.051728573 0.7650001 1.7703715e-38
-0.031246632 0.051593341 0.76300001 1.8071424e-38
-0.029676169 0.051390473 0.76000005 1.8538142e-38
-0.028228555 0.051390465 0.76000005 1.880935e-38
-0.026780926 0.051390473 0.76000005 1.9083422e-38
-0.02526664 0.051255234 0.75800002 1.9361079e-38
-0.023822833 0.05125523 0.75800002 1.9733095e-38
-0.022319987 0.051120002 0.75600004 1.9544053e-38
-0.020879991 0.051119991 0.75600004 1.9448567e-38
-0.019414261 0.051052384 0.75500005 1.7322295e-38
-0.017857121 0.050714288 0.75 1.5107795e-38
-0.016428553 0.050714273 0.75000006 1.5009099e-38
-0.014959973 0.050579038 0.74800003 1.5015957e-38
-0.013535229 0.050579034 0.74800003 1.592933e-38
-0.012110462 0.050579049 0.74800003 1.6871451e-38
-0.010685697 0.050579045 0.74800003 1.9460872e-38
-0.0092237908 0.050376195 0.745 2.2033622e-38
-0.0078047384 0.050376203 0.745 1.8610878e-38
-0.0063856868 0.050376199 0.745 1.5232773e-38
-0.0049666334 0.050376207 0.745 1.873121e-38
-0.0035380935 0.050240956 0.74300003 2.2315664e-38
-0.0021199798 0.050173335 0.74200004 2.2591171e-38
-0.00070665486 0.050173324 0.74200004 2.2866676e-38
0.00070668396 0.050173316 0.74200004 2.1207177e-38
0.0021200087 0.05017332 0.74200004 1.9560598e-38
0.0035333326 0.050173327 0.74200004 2.0938132e-38
0.0049466779 0.050173327 0.74200004 2.2315664e-38
0.0063600158 0.05017332 0.74200004 2.2131633e-38
0.0077733556 0.050173327 0.74200004 2.2040158e-38
0.0091866935 0.050173331 0.74200004 2.2315305e-38
0.010600003 0.050173327 0.74200004 2.2499335e-38
0.012013342 0.050173312 0.74200004 2.2591169e-38
0.013426682 0.050173316 0.74200004 2.2591171e-38
0.01484002 0.050173324 0.7420001 2.24075e-38
0.01625335 0.050173331 0.74200004 2.2131632e-38
0.017690489 0.050240945 0.74300003 2.1487344e-38
0.019105732 0.050240953 0.74300003 2.0754458e-38
0.020520948 0.050240945 0.74300003 1.9927224e-38
0.021936189 0.050240953 0.74300003 1.9006709e-38
0.023351455 0.050240964 0.74300003 1.8816214e-38
0.024833353 0.050376195 0.74500006 1.8721872e-38
0.026322868 0.050511427 0.7470001 1.8995589e-38
0.027782861 0.050579038 0.74800003 1.9275012e-38
0.029207626 0.050579045 0.74800003 1.8067846e-38
0.030714292 0.050714284 0.75000006 1.6953965e-38
0.032142896 0.05071428 0.75000006 1.6583378e-38
0.033705737 0.050917137 0.75300002 1.6232936e-38
0.035233349 0.051052388 0.75500005 1.8906247e-38
0.036671456 0.051052392 0.75500005 2.1568765e-38
0.038160022 0.051119991 0.75600004 2.0654003e-38
0.039704788 0.051255219 0.75800002 1.9742108e-38
0.041148577 0.051255226 0.75800002 1.8905188e-38
0.04276095 0.051458094 0.76100004 1.7977478e-38
0.044326711 0.051593345 0.76300001 1.7242407e-38
0.046200007 0.052066661 0.77000004 1.6601366e-38
-0.03278571 0.053185701 0.7650001 1.723913e-38
-0.031328544 0.053185713 0.76500005 1.6775645e-38
-0.029715221 0.052907627 0.76100004 1.6315392e-38
-0.028265703 0.052907627 0.76100004 1.6588389e-38
-0.026780933 0.052838095 0.76000005 1.6868928e-38
-0.025266651 0.052699044 0.75800002 1.687109e-38
-0.023822846 0.052699037 0.75800002 1.6867501e-38
-0.022320006 0.05255999 0.75600004 1.7140136e-38
-0.020879997 0.052559994 0.75600004 1.7324487e-38
-0.019414278 0.052490469 0.75500005 1.5760736e-38
-0.017857123 0.052142855 0.75000006 1.4181564e-38
-0.016428549 0.052142866 0.75 1.2229668e-38
-0.01499998 0.052142851 0.75000006 1.0234055e-38
-0.01353522 0.052003797 0.74800003 1.5657746e-38
-0.012110453 0.052003812 0.74800003 2.1005114e-38
-0.01067142 0.051934287 0.74700004 2.1489145e-38
-0.0092485799 0.051934287 0.7470001 2.1936083e-38
-0.0078257173 0.051934283 0.74700004 1.9533969e-38
-0.0064028567 0.051934291 0.74700004 1.7069877e-38
-0.0049666408 0.051795252 0.745 1.928509e-38
-0.0035475893 0.05179524 0.745 2.1481969e-38
-0.0021199891 0.051586658 0.7420001 2.2223829e-38
-0.00070664554 0.051586661 0.74200004 2.295851e-38
0.00070668024 0.051586658 0.74200004 2.2131989e-38
0.0021200189 0.051586658 0.74200004 2.1304753e-38
0.0035333419 0.051586661 0.74200004 2.2315664e-38
0.0049466798 0.051586654 0.74200004 2.3234019e-38
0.0063600196 0.051586647 0.74200004 2.2040156e-38
0.0077733295 0.051586654 0.74200004 2.0753023e-38
0.0091866879 0.051586669 0.74200004 2.1304395e-38
0.010600028 0.051586658 0.74200004 2.176429e-38
0.012013338 0.051586654 0.74200004 2.1855766e-38
0.013426675 0.051586654 0.74200004 2.1947961e-38
0.014860012 0.051656201 0.74300003 2.2040156e-38
0.016275253 0.05165619 0.74300003 2.2039077e-38
0.017690497 0.051656198 0.74300003 2.1304749e-38
0.01910574 0.05165619 0.74300003 2.0477872e-38
0.020520983 0.051656198 0.74300003 1.8366015e-38
0.021995254 0.051795237 0.74500006 1.6244467e-38
0.023477145 0.05193428 0.7470001 1.5772012e-38
0.024900004 0.051934291 0.7470001 1.5313181e-38
0.026358103 0.052003805 0.74800003 1.5485717e-38
0.027782869 0.052003797 0.74800003 1.5675768e-38
0.029285746 0.052142851 0.75000006 1.4836259e-38
0.030714322 0.052142862 0.75000006 1.4004371e-38
0.032228567 0.052281898 0.75200003 1.4636471e-38
0.033705723 0.052351423 0.75300002 1.5214459e-38
0.035233364 0.052490477 0.75500011 1.7898924e-38
0.036720011 0.052559987 0.75600004 2.0558207e-38
0.038159993 0.052559994 0.75600004 1.8346982e-38
0.039704774 0.052699029 0.75800008 1.605325e-38
0.041311439 0.052907623 0.76100004 1.5585824e-38
0.042873383 0.053046674 0.76299995 1.5038378e-38
0.044617157 0.053394273 0.76800001 1.6051058e-38
0.046320029 0.053672377 0.77200001 1.7061261e-38
-0.032785695 0.05464286 0.76500005 1.6412223e-38
-0.031246644 0.054499999 0.76300001 1.5206152e-38
-0.029715234 0.054357138 0.76100004 1.4002601e-38
-0.028265722 0.054357138 0.76100004 1.4648674e-38
-0.026780926 0.054285705 0.76000005 1.539127e-38
-0.025266664 0.054142851 0.75800008 1.5113272e-38
-0.023822844 0.05414284 0.75800008 1.4919185e-38
-0.022319991 0.054000009 0.75600004 1.4829489e-38
-0.020852365 0.053928569 0.75500005 1.4743742e-38
-0.019362841 0.053785715 0.75300002 1.3910397e-38
-0.017904766 0.053714268 0.75200009 1.3076325e-38
-0.016428554 0.053571418 0.75000006 1.3355397e-38
-0.01495999 0.053428568 0.74800003 1.3737079e-38
-0.013535223 0.05342856 0.74800003 1.5848568e-38
-0.012110477 0.05342856 0.74800003 1.8063854e-38
-0.010671441 0.053357139 0.7470001 1.9634139e-38
-0.0092485789 0.053357136 0.74700004 2.1197131e-38
-0.0078047393 0.053214293 0.74500006 1.8993431e-38
-0.0063856877 0.0532143 0.74500006 1.6890904e-38
-0.0049666492 0.053214297 0.74500006 1.7428647e-38
-0.0035475977 0.053214286 0.745 1.7971053e-38
-0.0021228436 0.053071424 0.74300003 1.8903401e-38
-0.00070761505 0.053071417 0.74300003 1.9836103e-38
0.00070762832 0.053071424 0.74300003 1.9374053e-38
0.0021200087 0.052999988 0.7420001 1.8914519e-38
0.003533354 0.053000003 0.74200004 1.9374058e-38
0.0049466779 0.052999996 0.74200004 1.974427e-38
0.0063600158 0.052999999 0.74200004 1.992507e-38
0.0077733556 0.052999992 0.74200004 2.0106586e-38
0.0091866655 0.052999996 0.74200004 2.029133e-38
0.010614295 0.053071424 0.74300003 2.0570784e-38
0.012013344 0.052999992 0.74200004 2.0753021e-38
0.01344478 0.053071432 0.74300003 2.1029245e-38
0.014860024 0.053071424 0.74300003 2.1303676e-38
0.01627524 0.053071421 0.74300003 2.166994e-38
0.017690482 0.053071428 0.74300003 2.1210761e-38
0.019105725 0.053071432 0.74300003 2.0751224e-38
0.020576209 0.053214289 0.74500006 1.9555566e-38
0.021995261 0.053214293 0.74500006 1.844493e-38
0.023477145 0.053357139 0.7470001 1.8074358e-38
0.024933349 0.053428568 0.74800003 1.7700887e-38
0.026358115 0.053428564 0.74800003 1.7514315e-38
0.027857173 0.053571418 0.75000006 1.7329803e-38
0.029285748 0.053571429 0.75 1.5108768e-38
0.030796207 0.053714279 0.75200003 1.2987985e-38
0.03222857 0.053714279 0.75200003 1.5198538e-38
0.033795264 0.053928573 0.75500005 1.7415248e-38
0.035233367 0.053928576 0.75500005 1.8995566e-38
0.036720023 0.054000005 0.75600004 2.056107e-38
0.038260993 0.054142851 0.75800002 1.8624627e-38
0.039809555 0.054285709 0.76000005 1.6691421e-38
0.041311428 0.054357149 0.76100004 1.6415559e-38
0.042873371 0.054500002 0.76300001 1.6141473e-38
0.044617143 0.054857139 0.76800001 1.6693907e-38
0.046320006 0.05514285 0.77200001 1.724565e-38
-0.032785695 0.056099989 0.76500005 1.5573839e-38
-0.031246651 0.055953328 0.76300001 1.3633432e-38
-0.029715236 0.055806663 0.76100004 1.1700579e-38
-0.028265718 0.055806663 0.76100004 1.2795427e-38
-0.026780929 0.055733331 0.76000005 1.3821782e-38
-0.025266662 0.055586644 0.75800008 1.3362627e-38
-0.023822859 0.055586651 0.75800008 1.2897693e-38
-0.022319995 0.055439997 0.75600004 1.251455e-38
-0.020879993 0.055439997 0.75599998 1.2158337e-38
-0.019362843 0.055219997 0.75300002 1.2060411e-38
-0.017904757 0.055146668 0.75200003 1.188894e-38
-0.016428558 0.055 0.75000006 1.4561859e-38
-0.014959981 0.054853324 0.74800003 1.7136465e-38
-0.013535234 0.054853328 0.74800003 1.6119443e-38
-0.012110467 0.054853324 0.74800003 1.5117176e-38
-0.010671442 0.054779999 0.74700004 1.7785458e-38
-0.0092485808 0.054779992 0.74700004 2.0455913e-38
-0.0078047467 0.054633334 0.74500006 1.853495e-38
-0.0063856943 0.054633345 0.74500006 1.6597789e-38
-0.0049666427 0.054633334 0.74500006 1.5475668e-38
-0.0035476042 0.054633345 0.74500006 1.4385859e-38
-0.0021228381 0.054486666 0.74300003 1.5490057e-38
-0.00070664461 0.054413326 0.74200004 1.6609661e-38
0.00070763484 0.054486677 0.74300003 1.6612888e-38
0.002120018 0.054413322 0.74200004 1.6523206e-38
0.0035333419 0.05441333 0.74200004 1.6429937e-38
0.0049466817 0.054413319 0.74200004 1.6249135e-38
0.0063599916 0.05441333 0.74200004 1.7809259e-38
0.00777335 0.054413326 0.74199998 1.9369742e-38
0.0091990661 0.054486655 0.74300003 1.936687e-38
0.010614309 0.054486662 0.74300003 1.9279699e-38
0.012029525 0.054486673 0.74300003 1.9739595e-38
0.013444767 0.054486662 0.74300003 2.0107655e-38
0.014860011 0.054486655 0.74300003 2.0658668e-38
0.016275255 0.054486658 0.74300003 2.1208962e-38
0.017738132 0.054633342 0.745 2.1116409e-38
0.019105732 0.054486673 0.74300003 2.1025291e-38
0.020576207 0.054633342 0.745 2.0843055e-38
0.022054281 0.054779992 0.7470001 2.0561804e-38
0.023477145 0.054779999 0.74700004 2.0287371e-38
0.024933357 0.054853331 0.74800003 2.0002846e-38
0.026428599 0.055 0.75000006 1.9448553e-38
0.027857155 0.055 0.75000006 1.8884544e-38
0.029363796 0.055146668 0.75200009 1.5465027e-38
0.030796207 0.055146664 0.75200003 1.1982884e-38
0.032271449 0.05522 0.75300002 1.5755028e-38
0.033795267 0.055366669 0.75500005 1.9538275e-38
0.035280008 0.055440005 0.75600004 2.0014368e-38
0.036719989 0.055439997 0.75600004 2.0466006e-38
0.038260978 0.055586658 0.75800002 1.88987e-38
0.039809536 0.055733334 0.76000005 1.7336786e-38
0.041420043 0.055953331 0.76300001 1.7243881e-38
0.042873383 0.055953342 0.76300001 1.7152398e-38
0.044559065 0.056246668 0.76700002 1.7337497e-38
0.046200033 0.056466673 0.76999998 1.743077e-38
-0.032871399 0.057707623 0.76700002 1.4465687e-38
-0.031328548 0.057557151 0.76500005 1.3357527e-38
-0.029793302 0.057406668 0.76300001 1.2247609e-38
-0.02833998 0.057406668 0.76300001 1.3724509e-38
-0.026780937 0.057180956 0.76000005 1.5206457e-38
-0.025266642 0.057030458 0.75800002 1.5115361e-38
-0.023822837 0.057030465 0.75800002 1.5109959e-38
-0.022319995 0.056879997 0.75600004 1.4736139e-38
-0.020879999 0.056880005 0.75600004 1.4365954e-38
-0.019414283 0.056804765 0.75500011 1.4185896e-38
-0.017904755 0.056579031 0.75200003 1.410234e-38
-0.016428556 0.056428563 0.75000006 1.5669311e-38
-0.014999988 0.056428567 0.75000006 1.7240178e-38
-0.013535226 0.056278087 0.74800003 1.6586185e-38
-0.012110459 0.056278083 0.74800003 1.6030458e-38
-0.010671428 0.056202859 0.74700004 1.6122242e-38
-0.0092485668 0.056202855 0.74700004 1.6315705e-38
-0.0078047533 0.056052379 0.74500006 1.7326718e-38
-0.0063857017 0.056052387 0.74500006 1.8427654e-38
-0.0049666502 0.056052387 0.74500006 1.695827e-38
-0.0035475967 0.05605239 0.74500006 1.549432e-38
-0.002122852 0.055901907 0.74300003 1.623191e-38
-0.00070760853 0.055901896 0.74300003 1.6978792e-38
0.00070762087 0.055901907 0.74300003 1.7807107e-38
0.0021228641 0.055901896 0.74300003 1.8726538e-38
0.0035381084 0.055901904 0.74300003 1.8452466e-38
0.0049533499 0.055901892 0.74300003 1.817624e-38
0.0063685654 0.055901904 0.74300003 1.8818725e-38
0.0077838292 0.055901907 0.74299997 1.9461212e-38
0.0091990717 0.055901915 0.74300003 1.9277178e-38
0.010614315 0.055901904 0.74300003 1.9094227e-38
0.01202953 0.055901911 0.74300003 1.9094229e-38
0.013444774 0.055901904 0.74300003 1.9094588e-38
0.014860016 0.055901911 0.74300003 1.8635051e-38
0.016275261 0.0559019 0.74300003 1.8268427e-38
0.017738109 0.056052387 0.745 1.826699e-38
0.019157164 0.05605239 0.745 1.8359546e-38
0.020631419 0.056202859 0.7470001 1.835883e-38
0.022054281 0.056202851 0.74700004 1.844779e-38
0.023508601 0.056278095 0.74800003 1.9275022e-38
0.024933346 0.056278076 0.74800009 2.0095371e-38
0.026428582 0.056428563 0.75000006 1.9447788e-38
0.027857158 0.056428563 0.75000006 1.8794498e-38
0.029363796 0.056579031 0.75200009 1.4738272e-38
0.030837143 0.056654286 0.75300002 1.0702277e-38
0.032357175 0.056804754 0.75500005 1.5582216e-38
0.033795252 0.056804761 0.75500005 2.0376323e-38
0.035280023 0.056880005 0.75600004 2.0191581e-38
0.036817145 0.057030458 0.75800002 2.0002525e-38
0.038361914 0.057180945 0.76000005 1.8531717e-38
0.039861906 0.057256188 0.76100004 1.7155273e-38
0.041420054 0.057406675 0.76299995 1.6969102e-38
0.042873375 0.05740666 0.76300001 1.6876908e-38
0.044617172 0.057782851 0.76800001 1.6969818e-38
0.046200018 0.057933331 0.77000004 1.6974836e-38
-0.03287141 0.059168573 0.76700002 1.3270019e-38
-0.031328551 0.059014279 0.76500005 1.3082717e-38
-0.029871421 0.059014268 0.7650001 1.2805448e-38
-0.028339967 0.058860011 0.76300001 1.4649005e-38
-0.026816191 0.058705717 0.76100004 1.6497218e-38
-0.025333317 0.05862857 0.76000005 1.6965745e-38
-0.023822851 0.058474272 0.75800002 1.7324095e-38
-0.022320013 0.05831999 0.75600004 1.6954219e-38
-0.020879984 0.058320004 0.75600004 1.64893e-38
-0.019414278 0.058242865 0.75500005 1.6397824e-38
-0.017904768 0.05801142 0.75200003 1.6306715e-38
-0.01642856 0.057857148 0.75000006 1.6864913e-38
-0.014999986 0.057857145 0.75000006 1.7322651e-38
-0.013535216 0.057702851 0.74800003 1.7137543e-38
-0.01211047 0.057702851 0.74800003 1.6851612e-38
-0.010685705 0.057702847 0.74800003 1.444916e-38
-0.0092485677 0.057625715 0.74700004 1.2072923e-38
-0.0078257071 0.057625707 0.74700004 1.6211628e-38
-0.0064028651 0.057625707 0.7470001 2.0264997e-38
-0.0049800044 0.057625718 0.74700004 1.8435153e-38
-0.0035571428 0.057625715 0.74700004 1.6599922e-38
-0.0021228297 0.057317149 0.74300003 1.6964796e-38
-0.00070760201 0.057317153 0.74300003 1.7252502e-38
0.00070764229 0.057317145 0.74300003 1.9094239e-38
0.0021228706 0.057317153 0.74300003 2.0841624e-38
0.003538115 0.057317145 0.74300003 2.0477153e-38
0.0049533593 0.057317149 0.74300003 2.0106939e-38
0.0063686008 0.057317141 0.74300003 1.9828201e-38
0.0077838162 0.057317149 0.74300003 1.9463011e-38
0.0091990605 0.057317141 0.74300003 1.9186071e-38
0.010614302 0.057317141 0.74300003 1.8819447e-38
0.012029545 0.057317138 0.74300003 1.844816e-38
0.013444761 0.057317145 0.74300003 1.8084047e-38
0.014900012 0.057471428 0.74500006 1.670257e-38
0.016319066 0.057471436 0.74500006 1.5236788e-38
0.017738117 0.057471443 0.74500006 1.5415794e-38
0.019157169 0.057471436 0.74500006 1.5603771e-38
0.020631418 0.057625704 0.74700004 1.5967887e-38
0.022083817 0.057702843 0.74800003 1.6339528e-38
0.02350859 0.057702843 0.74800003 1.8269144e-38
0.02500001 0.057857145 0.75000006 2.019263e-38
0.026428612 0.057857141 0.75000006 1.9453244e-38
0.027857166 0.057857148 0.75000006 1.8705265e-38
0.0293638 0.058011413 0.75200009 1.4083334e-38
0.030837156 0.058088567 0.75300002 9.4162619e-39
0.032357179 0.058242854 0.75500005 1.5311348e-38
0.033795256 0.058242861 0.75500005 2.1199593e-38
0.035279993 0.058320001 0.75600004 2.0373086e-38
0.036817163 0.058474276 0.75800008 1.9541903e-38
0.038361922 0.05862857 0.76000005 1.8253695e-38
0.039861921 0.05870571 0.76100004 1.6876163e-38
0.041420043 0.058860004 0.76300001 1.6783611e-38
0.042985741 0.059014276 0.7650001 1.6599221e-38
0.044617135 0.059245706 0.76800001 1.6598504e-38
0.046200026 0.059399996 0.76999998 1.650628e-38
-0.032871407 0.060629524 0.76700002 1.1886017e-38
-0.031328551 0.06047143 0.7650001 1.1426069e-38
-0.029871402 0.060471427 0.76500005 1.1059148e-38
-0.028339958 0.060313351 0.76299995 1.2536471e-38
-0.026816187 0.060155243 0.76100004 1.4116353e-38
-0.025366675 0.060155246 0.76100004 1.5676861e-38
-0.023822848 0.059918083 0.75800008 1.7327723e-38
-0.022319999 0.059759989 0.75600004 1.7049678e-38
-0.020880003 0.059759993 0.75600004 1.676984e-38
-0.019414257 0.059680965 0.75500005 1.6674031e-38
-0.017904764 0.059443802 0.75200003 1.6483894e-38
-0.016472388 0.05944379 0.75200009 1.538437e-38
-0.014999991 0.059285708 0.75000006 1.4282719e-38
-0.013571401 0.059285723 0.75000006 1.4646491e-38
-0.012142847 0.059285708 0.75000006 1.5013124e-38
-0.010685693 0.059127606 0.74800003 1.4273426e-38
-0.0092609283 0.059127614 0.74800003 1.3529325e-38
-0.0078361817 0.059127603 0.74800003 1.6490213e-38
-0.0064114174 0.059127614 0.74800003 1.944485e-38
-0.0049866503 0.059127606 0.74800003 1.8900411e-38
-0.0035571447 0.059048574 0.74700004 1.8352677e-38
-0.0021228455 0.058732372 0.74300003 1.8445639e-38
-0.00070760015 0.058732383 0.74300003 1.854322e-38
0.00070762739 0.058732387 0.74300003 2.0198774e-38
0.0021228706 0.058732379 0.74300003 2.1854327e-38
0.0035381 0.058732372 0.74300003 2.1120003e-38
0.0049533434 0.058732376 0.74300003 2.0384958e-38
0.0063685877 0.058732379 0.74300003 2.0659385e-38
0.0077838292 0.058732376 0.74300003 2.0845573e-38
0.009223829 0.058890477 0.745 2.0476802e-38
0.010642882 0.058890488 0.745 2.001834e-38
0.012061933 0.058890499 0.745 1.9832874e-38
0.013480966 0.058890477 0.74500006 1.9560598e-38
0.014900019 0.058890469 0.74500006 1.8914881e-38
0.01631907 0.058890481 0.74500006 1.8366736e-38
0.017738122 0.058890484 0.74500006 1.8271312e-38
0.019157175 0.058890481 0.74500006 1.8273825e-38
0.020631418 0.059048578 0.74700004 1.8639374e-38
0.022083808 0.059127599 0.74800003 1.9101417e-38
0.023508571 0.05912761 0.74800003 1.9923985e-38
0.025000039 0.059285723 0.75 2.0749066e-38
0.026428591 0.059285715 0.75000006 2.0379566e-38
0.027931437 0.059443794 0.75200009 1.9918589e-38
0.029402874 0.059522863 0.75300002 1.5759081e-38
0.030837171 0.059522856 0.75300002 1.1527085e-38
0.032357164 0.059680946 0.75500011 1.5954171e-38
0.033840027 0.059760008 0.75600004 2.0471705e-38
0.035280008 0.059760001 0.75600004 1.9635875e-38
0.036817171 0.059918087 0.75800002 1.8895457e-38
0.038361933 0.060076177 0.76000005 1.7422865e-38
0.039861914 0.06015525 0.76100004 1.6046758e-38
0.041528594 0.060471434 0.76500005 1.604603e-38
0.043098114 0.060629509 0.76700002 1.6137506e-38
0.04461715 0.060708568 0.76800001 1.622647e-38
0.046200011 0.060866665 0.77000004 1.640937e-38
-0.034466673 0.062333342 0.77000004 1.2809418e-38
-0.032999985 0.062333342 0.76999998 1.0416293e-38
-0.031451434 0.062171433 0.76800001 9.8595178e-39
-0.029871421 0.06192857 0.76500005 9.3103251e-39
-0.028414257 0.06192857 0.76500005 1.050457e-38
-0.026886627 0.061766677 0.76300001 1.1620984e-38
-0.025366668 0.061604768 0.76100004 1.4481196e-38
-0.023822859 0.061361887 0.75800008 1.7324486e-38
-0.022379022 0.061361905 0.75800002 1.7238725e-38
-0.020879988 0.0612 0.75600004 1.704607e-38
-0.019414254 0.06111905 0.75500005 1.6860588e-38
-0.017928567 0.060957134 0.75300008 1.666972e-38
-0.016472379 0.060876183 0.75200003 1.3905307e-38
-0.01504 0.060876187 0.75200003 1.1150258e-38
-0.01357142 0.060714271 0.75000006 1.2152214e-38
-0.01214283 0.060714286 0.75000006 1.3081355e-38
-0.010714277 0.060714271 0.75000006 1.400978e-38
-0.0092609534 0.06055237 0.74800003 1.4926684e-38
-0.0078361733 0.060552377 0.74800003 1.6775219e-38
-0.0064114081 0.060552374 0.74800003 1.8625262e-38
-0.0049866624 0.06055237 0.74800009 1.9368258e-38
-0.0035571307 0.060471434 0.74700004 2.0102609e-38
-0.0021285526 0.060309529 0.74500006 1.9921833e-38
-0.00070951495 0.060309526 0.74500006 1.9740317e-38
0.00070953753 0.060309533 0.74500006 2.13026e-38
0.0021228772 0.060147632 0.74299997 2.2773402e-38
0.0035381196 0.060147624 0.74300003 2.1763572e-38
0.004953349 0.060147632 0.74300003 2.0661186e-38
0.0063685924 0.060147624 0.74300003 2.1487345e-38
0.0077838367 0.060147628 0.74300003 2.2223108e-38
0.0092238374 0.060309537 0.745 2.1764651e-38
0.010642891 0.060309533 0.745 2.1212558e-38
0.012061942 0.060309537 0.745 2.1120361e-38
0.013480995 0.060309529 0.745 2.1028887e-38
0.014900026 0.060309529 0.74500006 2.1213637e-38
0.016319051 0.060309522 0.74500006 2.1396587e-38
0.017785694 0.060471434 0.7470001 2.1211839e-38
0.019208554 0.06047143 0.74700004 2.0937411e-38
0.020659048 0.060552377 0.74800003 2.1397309e-38
0.022083815 0.060552374 0.74800003 2.1763572e-38
0.023508582 0.06055237 0.74800003 2.1575954e-38
0.025000021 0.060714278 0.75000006 2.1302955e-38
0.026428595 0.06071429 0.75 2.1213628e-38
0.027931413 0.060876179 0.75200009 2.110922e-38
0.029402886 0.060957149 0.75300002 1.7414977e-38
0.030919064 0.061119042 0.75500005 1.3649339e-38
0.032357167 0.061119046 0.75500005 1.6689931e-38
0.033839989 0.0612 0.75600004 1.9631184e-38
0.035373341 0.061361898 0.75800002 1.8894353e-38
0.036914308 0.06152381 0.76000005 1.8157496e-38
0.0384124 0.061604764 0.76100004 1.6679499e-38
0.039966702 0.061766665 0.76300001 1.5218747e-38
0.041528605 0.061928567 0.7650001 1.5399198e-38
0.042985756 0.061928563 0.76500005 1.5585023e-38
0.044617165 0.062171429 0.76800001 1.5944474e-38
0.046200011 0.062333345 0.77000004 1.6321457e-38
-0.03446665 0.063800007 0.77000004 1.124137e-38
-0.032871414 0.063551433 0.76700002 9.2220755e-39
-0.031410459 0.063551426 0.76700002 9.6787503e-39
-0.029871408 0.063385703 0.7650001 1.0134329e-38
-0.028414257 0.063385718 0.76500005 1.0781471e-38
-0.026886635 0.063219987 0.76300001 1.1421862e-38
-0.025366666 0.063054293 0.76100004 1.271658e-38
-0.023885692 0.062971435 0.76000005 1.3913291e-38
-0.022379033 0.062805712 0.75800002 1.400654e-38
-0.020880006 0.062639989 0.75600004 1.4100882e-38
-0.01944001 0.062639996 0.75600004 1.4099442e-38
-0.017904758 0.062308569 0.75200009 1.4011159e-38
-0.016472375 0.062308569 0.75200003 1.2714665e-38
-0.015039998 0.062308554 0.75200009 1.1423961e-38
-0.013571403 0.062142868 0.75000006 1.1237077e-38
-0.01214285 0.062142853 0.75000006 1.1058829e-38
-0.01071426 0.062142853 0.75000006 1.0605073e-38
-0.0092857061 0.062142849 0.75000006 1.0066317e-38
-0.0078361789 0.061977141 0.74800003 1.4393048e-38
-0.0064114193 0.061977137 0.74800009 1.882017e-38
-0.0049866522 0.061977137 0.74800003 1.9371187e-38
-0.0035571512 0.061894286 0.7470001 2.0012243e-38
-0.0021285396 0.061728586 0.745 2.0751232e-38
-0.00070950843 0.061728567 0.74500006 2.1489145e-38
0.00070953101 0.061728578 0.74500006 2.2223111e-38
0.0021285824 0.061728574 0.74500006 2.3050348e-38
0.0035381075 0.061562866 0.74300003 2.2498976e-38
0.0049533499 0.061562859 0.74300003 2.1947246e-38
0.0063685793 0.061562851 0.74300003 2.2314945e-38
0.0077838227 0.061562859 0.74300003 2.2591169e-38
0.0091990661 0.061562862 0.74300003 2.2315304e-38
0.01061428 0.061562855 0.74300003 2.2130194e-38
0.01206192 0.061728586 0.745 2.1027803e-38
0.013480972 0.061728574 0.745 1.9925423e-38
0.014900025 0.061728586 0.745 2.1028887e-38
0.016319076 0.061728582 0.745 2.2222388e-38
0.017785721 0.061894279 0.7470001 2.2130908e-38
0.01920858 0.06189429 0.74700004 2.2039436e-38
0.020659059 0.061977137 0.74800003 2.2131993e-38
0.022083825 0.061977133 0.74800003 2.2223829e-38
0.023571448 0.062142856 0.75000006 2.1947246e-38
0.025000032 0.06214286 0.75000006 2.1764651e-38
0.026499052 0.062308561 0.75200003 2.0568637e-38
0.027931415 0.062308561 0.75200009 1.9368649e-38
0.029402871 0.06239143 0.75300002 1.7328509e-38
0.030919068 0.062557146 0.75500005 1.5301654e-38
0.032357175 0.062557146 0.75500005 1.6223938e-38
0.033840008 0.062639996 0.75600004 1.7233764e-38
0.035373352 0.062805712 0.75800008 1.7877323e-38
0.036914319 0.062971413 0.76000005 1.8619854e-38
0.038412388 0.063054308 0.76100004 1.8991455e-38
0.039966714 0.063220002 0.76300001 1.9360974e-38
0.041528586 0.06338571 0.7650001 1.9452476e-38
0.042985737 0.06338571 0.76500005 1.9541805e-38
0.04461715 0.063634291 0.76800001 1.9727991e-38
0.046320029 0.063965708 0.77200001 1.9918802e-38
-0.032914296 0.065097138 0.76800001 7.9302493e-39
-0.031410471 0.06501238 0.76700002 9.4989945e-39
-0.029871404 0.064842865 0.76500005 1.096803e-38
-0.028414274 0.06484285 0.7650001 1.1156752e-38
-0.026886638 0.064673349 0.76300001 1.1243188e-38
-0.025366662 0.064503819 0.76100004 1.0865783e-38
-0.023885684 0.064419046 0.76000005 1.0500236e-38
-0.022379031 0.064249516 0.75800008 1.086471e-38
-0.020935226 0.064249516 0.75800008 1.1148093e-38
-0.019439995 0.06408 0.75600004 1.1240988e-38
-0.017928571 0.063825712 0.75300002 1.1334625e-38
-0.016472373 0.063740939 0.75200003 1.1518305e-38
-0.01504001 0.063740939 0.75200009 1.160548e-38
-0.013607612 0.063740954 0.75200003 1.0313686e-38
-0.012142832 0.063571438 0.75 9.031995e-39
-0.010714279 0.063571416 0.75000006 7.1020749e-39
-0.0092856884 0.063571431 0.75000006 5.1897229e-39
-0.0078571336 0.063571408 0.75000006 1.2093578e-38
-0.0064114239 0.0634019 0.74800003 1.8908421e-38
-0.0049866568 0.063401893 0.74800003 1.9375134e-38
-0.003557153 0.063317142 0.7470001 1.9832877e-38
-0.0021285461 0.063147627 0.745 2.158098e-38
-0.00070949446 0.063147634 0.745 2.3234019e-38
0.00070955802 0.063147634 0.745 2.3234019e-38
0.002128589 0.063147627 0.74500006 2.3234019e-38
0.0035476275 0.063147619 0.74500006 2.3234019e-38
0.0049533565 0.062978096 0.74299997 2.323366e-38
0.0063857185 0.063147627 0.74500006 2.3142183e-38
0.0077838283 0.062978096 0.74300003 2.2958513e-38
0.0092238225 0.063147619 0.74500006 2.2958513e-38
0.010642876 0.063147634 0.74500006 2.2957431e-38
0.012061927 0.063147627 0.74500006 2.0935252e-38
0.01348098 0.063147634 0.745 1.8822681e-38
0.014900031 0.063147634 0.745 2.093813e-38
0.016362861 0.06331715 0.7470001 2.2958151e-38
0.017785721 0.063317135 0.74700004 2.3050344e-38
0.019234303 0.063401885 0.74800003 2.3050347e-38
0.02065907 0.0634019 0.74800003 2.2866677e-38
0.022142874 0.063571438 0.75 2.2683006e-38
0.023571458 0.063571423 0.75000006 2.24075e-38
0.025000032 0.063571423 0.75000006 2.2130544e-38
0.026499055 0.063740939 0.75200009 1.9835003e-38
0.027931437 0.063740939 0.75200003 1.7517904e-38
0.029480975 0.063995242 0.75500005 1.722908e-38
0.030919053 0.063995227 0.75500005 1.6863523e-38
0.032399993 0.06408 0.75600004 1.5854402e-38
0.033929523 0.064249501 0.75800008 1.4840275e-38
0.035373341 0.064249516 0.75800008 1.6944609e-38
0.0369143 0.064419039 0.76000005 1.8991177e-38
0.038412388 0.064503819 0.76100004 2.1213164e-38
0.039966695 0.064673349 0.76299995 2.3413279e-38
0.041637156 0.06501238 0.76700002 2.3416158e-38
0.043098126 0.06501238 0.76700008 2.3412211e-38
0.044617161 0.065097138 0.76800001 2.3415438e-38
-0.034466658 0.066733323 0.77000004 1.0683123e-38
-0.032914281 0.066560008 0.76800001 9.2177091e-39
-0.031451415 0.066560008 0.76800001 1.0138582e-38
-0.02987141 0.06629999 0.76500005 1.0969114e-38
-0.028414279 0.066299997 0.7650001 1.2353169e-38
-0.026886649 0.066126674 0.76300001 1.3824241e-38
-0.025433306 0.066126674 0.76300001 1.2433704e-38
-0.023917139 0.065953344 0.76100004 1.113189e-38
-0.022438083 0.065866649 0.76000011 1.0769594e-38
-0.020935241 0.065693319 0.75800008 1.040653e-38
-0.019439993 0.065520003 0.75599998 1.0316101e-38
-0.017976169 0.065433331 0.75500005 1.0221448e-38
-0.016494269 0.065260001 0.75300002 1.0685341e-38
-0.015040007 0.065173328 0.75200009 1.1237419e-38
-0.013607623 0.065173328 0.75200003 1.0224347e-38
-0.012142838 0.064999998 0.75000006 9.305712e-39
-0.010714263 0.064999998 0.75000006 9.0327951e-39
-0.009285694 0.064999998 0.75000006 8.7623529e-39
-0.0078571187 0.065000013 0.75000006 1.3654788e-38
-0.006428564 0.064999998 0.75000006 1.8640092e-38
-0.0049999757 0.064999998 0.75000006 1.9005281e-38
-0.0035571521 0.064740002 0.74700004 1.9464818e-38
-0.0021342924 0.064740002 0.74700004 2.1209333e-38
-0.00070950191 0.064566672 0.745 2.2958513e-38
0.00071143091 0.064740002 0.74700004 2.2866677e-38
0.002128602 0.064566679 0.745 2.2774842e-38
0.003547634 0.064566679 0.74500006 2.2866318e-38
0.0049666725 0.064566672 0.74500006 2.3050348e-38
0.006385725 0.064566672 0.74500006 2.2866677e-38
0.0078047765 0.064566672 0.74500006 2.2774842e-38
0.00922383 0.064566687 0.74500006 2.2683006e-38
0.010642881 0.064566672 0.74500006 2.2591166e-38
0.012061934 0.064566672 0.74500006 2.0935612e-38
0.013480987 0.064566679 0.74500006 1.9186078e-38
0.014939996 0.06473998 0.7470001 2.1028173e-38
0.016362859 0.064739987 0.74700004 2.2958513e-38
0.017785721 0.064740002 0.74700004 2.2315305e-38
0.019234313 0.064826652 0.74800003 2.1764651e-38
0.020659078 0.06482666 0.74800003 2.1579545e-38
0.022142885 0.064999998 0.75000006 2.1305474e-38
0.023571458 0.064999998 0.75 2.0105155e-38
0.025066664 0.06517332 0.75200003 1.9004537e-38
0.026499055 0.065173313 0.75200009 1.6777498e-38
0.027931441 0.065173328 0.75200003 1.4649077e-38
0.029480979 0.065433331 0.75500005 1.5850409e-38
0.030919056 0.065433338 0.75500005 1.7048218e-38
0.032400008 0.065520003 0.75599998 1.5480918e-38
0.033929557 0.065693319 0.75800002 1.4011218e-38
0.035466678 0.065866649 0.76000005 1.7511038e-38
0.036962844 0.065953329 0.76100004 2.1023431e-38
0.038513392 0.066126682 0.76300001 2.2222e-38
0.04007145 0.066300005 0.7650001 2.3417648e-38
0.041691437 0.06656 0.76800001 2.3416922e-38
0.043154281 0.066560008 0.76800001 2.3417634e-38
0.044733342 0.066733323 0.77000004 2.3415833e-38
-0.03446665 0.068200007 0.76999998 1.1699092e-38
-0.032914285 0.068022855 0.76800001 1.0507026e-38
-0.031410467 0.06793429 0.76700002 1.0776435e-38
-0.029871412 0.067757137 0.7650001 1.0975218e-38
-0.028414261 0.067757145 0.76500005 1.3645668e-38
-0.02688664 0.067580014 0.76300001 1.6307785e-38
-0.025433298 0.067580014 0.76300001 1.4004686e-38
-0.02391714 0.067402869 0.76100004 1.1697636e-38
-0.022438088 0.067314275 0.76000011 1.0674489e-38
-0.020935217 0.067137122 0.75800002 9.6696769e-39
-0.019439999 0.066960007 0.75600004 9.3956011e-39
-0.017976163 0.066871434 0.75500005 9.1172654e-39
-0.01649427 0.066694289 0.75300002 9.9481289e-39
-0.015059989 0.066694289 0.75300002 1.0776086e-38
-0.013607622 0.066605702 0.75200003 1.0224e-38
-0.012175243 0.066605687 0.75200009 9.5855205e-39
-0.010742859 0.066605702 0.75200003 1.0960248e-38
-0.0093104821 0.066605702 0.75200009 1.2353592e-38
-0.0078571234 0.066428572 0.75000006 1.5305988e-38
-0.0064457208 0.066605702 0.75200003 1.8257284e-38
-0.0049999924 0.066428572 0.75000006 1.8724357e-38
-0.00355714 0.066162854 0.74700004 1.9085248e-38
-0.0021342784 0.066162854 0.74700004 2.0832999e-38
-0.00071141671 0.066162869 0.74700004 2.2581098e-38
0.00071142439 0.06616284 0.7470001 2.2407466e-38
0.0021342859 0.066162854 0.74700004 2.221412e-38
0.0035571465 0.066162862 0.74700004 2.249789e-38
0.0049800081 0.066162854 0.74700004 2.2769811e-38
0.0064028697 0.066162847 0.74700004 2.2682999e-38
0.0078257108 0.066162854 0.7470001 2.2590449e-38
0.0092485715 0.066162854 0.74700004 2.2407497e-38
0.010671431 0.066162854 0.74700004 2.222131e-38
0.012094295 0.066162847 0.74700004 2.0937763e-38
0.01353525 0.066251427 0.74800003 1.9557006e-38
0.014959996 0.066251412 0.74800003 2.1213638e-38
0.016384762 0.066251419 0.74800003 2.2865954e-38
0.017809557 0.066251427 0.74800003 2.167173e-38
0.01923432 0.066251427 0.74800003 2.0473556e-38
0.020714311 0.066428572 0.75000006 2.0197684e-38
0.022142887 0.066428587 0.75 1.9911749e-38
0.023571439 0.066428587 0.75000006 1.7887038e-38
0.025000043 0.066428579 0.75000006 1.5750781e-38
0.026499033 0.066605687 0.75200009 1.3804293e-38
0.027968593 0.066694289 0.75300008 1.1802176e-38
0.029480964 0.06687142 0.75500011 1.4566534e-38
0.030919064 0.066871434 0.75500005 1.7229386e-38
0.032400001 0.066959992 0.75600004 1.5193562e-38
0.033929545 0.067137137 0.75800002 1.3095033e-38
0.035373364 0.067137122 0.75800002 1.8065325e-38
0.036962863 0.067402855 0.76100004 2.3042394e-38
0.038513355 0.06758 0.76300001 2.3233974e-38
0.040176202 0.06793429 0.76700008 2.3415861e-38
0.041637164 0.067934275 0.76700002 2.3415512e-38
0.043154296 0.068022847 0.76800001 2.34173e-38
0.044733346 0.068200007 0.77000004 2.3417654e-38
-0.032914285 0.069485702 0.76800001 1.354875e-38
-0.031410459 0.069395244 0.76700002 1.3550179e-38
-0.029871415 0.069214284 0.7650001 1.3652802e-38
-0.028414264 0.069214284 0.76500005 1.4938524e-38
-0.026886627 0.069033347 0.76299995 1.6225673e-38
-0.025433306 0.06903334 0.76300001 1.4839548e-38
-0.023917152 0.068852387 0.76100004 1.345832e-38
-0.022438081 0.0687619 0.76000011 1.2803525e-38
-0.02093523 0.06858094 0.75800002 1.2150653e-38
-0.019439984 0.068399996 0.75600004 1.0763096e-38
-0.018000003 0.068399996 0.75600004 9.474916e-39
-0.016538067 0.068309546 0.75500005 1.1138386e-38
-0.015099976 0.068309531 0.75500005 1.2889017e-38
-0.013625707 0.068128571 0.75300008 1.326642e-38
-0.012175235 0.068038091 0.75200003 1.3545565e-38
-0.010742858 0.068038091 0.75200003 1.3177913e-38
-0.0093104793 0.068038091 0.75200009 1.2824218e-38
-0.0078571215 0.067857161 0.75000006 1.4380414e-38
-0.0064285528 0.067857146 0.75000006 1.5950952e-38
-0.0049999775 0.067857139 0.75000006 1.6497309e-38
-0.00355714 0.067585722 0.74700004 1.6951119e-38
-0.0021342803 0.067585722 0.74700004 1.8151451e-38
-0.00071143906 0.067585707 0.7470001 1.9257413e-38
0.00071142253 0.067585722 0.74700004 1.9350315e-38
0.002134284 0.067585707 0.74700004 1.9431771e-38
0.0035571447 0.067585707 0.74700004 1.935072e-38
0.0049800063 0.067585714 0.74700004 1.9265704e-38
0.0064028474 0.067585714 0.7470001 2.0096531e-38
0.0078257089 0.067585707 0.74700004 2.0935252e-38
0.0092485715 0.067585707 0.74700004 1.9551266e-38
0.010671432 0.067585714 0.74700004 1.8081537e-38
0.012094295 0.067585722 0.74700004 1.8170857e-38
0.013535241 0.067676179 0.74800003 1.8267721e-38
0.014960007 0.067676172 0.74800003 2.0291694e-38
0.016384773 0.067676187 0.74800003 2.2313861e-38
0.017857164 0.067857131 0.75000006 2.0930937e-38
0.019285738 0.067857146 0.75000006 1.9637693e-38
0.020714294 0.067857139 0.75000006 1.8161852e-38
0.022142868 0.067857131 0.75000006 1.6582662e-38
0.02357145 0.067857131 0.75000006 1.5367585e-38
0.02506667 0.068038091 0.75200003 1.4235442e-38
