# .PCD v0.7 - Point Cloud Data file format
VERSION 0.7
FIELDS x y z rgb
SIZE 4 4 4 4
TYPE F F F F
COUNT 1 1 1 1
WIDTH 980
HEIGHT 1
VIEWPOINT 0 0 0 1 0 0 0
POINTS 980
DATA ascii
0.0035047492 0.018925726 0.736 1.3312198e-38
0.0049066362 0.018925726 0.736 1.3404392e-38
0.006308557 0.018925719 0.73600006 1.3035974e-38
0.0076895016 0.018874288 0.73399997 1.276262e-38
0.0091123655 0.018925726 0.73600006 1.1932872e-38
0.010485713 0.018874288 0.73400003 1.1196394e-38
0.011883806 0.018874295 0.73400003 1.1470466e-38
0.013281902 0.01887428 0.73400003 1.1751353e-38
0.014719984 0.018925719 0.73600006 1.1286436e-38
0.016121883 0.018925719 0.736 1.0921247e-38
0.017547611 0.018951423 0.73700005 1.1192807e-38
0.018951416 0.018951431 0.73700005 1.1562301e-38
0.020355241 0.018951423 0.73700005 1.1835297e-38
0.021818073 0.019002862 0.73899996 1.2207301e-38
0.02322571 0.01900284 0.73900002 1.2107572e-38
0.024633324 0.019002862 0.73900002 1.2102901e-38
0.026076185 0.019028567 0.74000001 1.2748613e-38
0.027485708 0.019028567 0.74000001 1.3387156e-38
0.028895227 0.019028574 0.74000001 1.3665891e-38
0.030427625 0.019105703 0.74300009 1.4030006e-38
0.03184285 0.01910571 0.74300003 1.43091e-38
0.03334761 0.019157149 0.745 1.4585691e-38
0.034859989 0.019208558 0.74700004 1.4955193e-38
0.036331423 0.019234277 0.74799997 1.5235347e-38
0.037857134 0.019285694 0.75000006 1.4119314e-38
0.039285727 0.019285686 0.75000006 1.2997755e-38
0.040822864 0.019337147 0.75200003 1.3542508e-38
0.042311452 0.019362845 0.75300002 1.4078455e-38
0.043861907 0.019414283 0.755 1.335238e-38
0.045360018 0.019439988 0.75600004 1.2609087e-38
-0.032571413 0.020990469 0.76000005 6.1937672e-39
-0.031041911 0.02093523 0.75799996 6.9320652e-39
-0.029519988 0.020879976 0.75600004 7.6696372e-39
-0.028042873 0.02085238 0.75500005 8.1317028e-39
-0.026604779 0.020852372 0.75500005 8.5012069e-39
-0.025066685 0.020769522 0.75199997 8.784258e-39
-0.023634305 0.020769529 0.75199997 8.9664955e-39
-0.022142863 0.020714276 0.75000006 9.1526804e-39
-0.020659057 0.020659037 0.74799997 9.3370745e-39
-0.019234302 0.020659037 0.74800003 9.6158166e-39
-0.017690493 0.02052094 0.74300003 9.7998449e-39
-0.016253352 0.020493329 0.74199998 1.0447357e-38
-0.014840023 0.020493336 0.74199998 1.0998011e-38
-0.013426694 0.020493336 0.74199998 1.1368942e-38
-0.011980972 0.02043809 0.74000001 1.1645885e-38
-0.010571453 0.02043809 0.74000001 1.1557279e-38
-0.0091495281 0.020410478 0.73899996 1.1464726e-38
-0.0077418927 0.020410463 0.73900002 1.1928926e-38
-0.0063342783 0.020410478 0.73899996 1.2387027e-38
-0.004913351 0.02035524 0.73700005 1.2299855e-38
-0.0035095236 0.020355225 0.73700005 1.2204074e-38
-0.0021028921 0.020327628 0.736 1.2112238e-38
-0.00070097047 0.020327613 0.736 1.2021119e-38
0.00070093077 0.020327613 0.736 1.2387743e-38
0.0021028386 0.02032762 0.73600006 1.2663967e-38
0.0035047389 0.020327613 0.736 1.3127448e-38
0.0049066464 0.020327613 0.73600006 1.3488689e-38
0.0063085486 0.02032762 0.736 1.2753643e-38
0.0077104694 0.020327613 0.73600006 1.1926048e-38
0.0091123572 0.020327613 0.736 1.0732904e-38
0.010514257 0.02032762 0.736 9.5350962e-39
0.01191618 0.020327613 0.736 1.0083239e-38
0.013318066 0.02032762 0.736 1.0635686e-38
0.014719988 0.020327613 0.73600006 9.9835089e-39
0.016121874 0.020327613 0.736 9.2552835e-39
0.017547606 0.02035524 0.73700005 9.7984072e-39
0.018951429 0.020355232 0.73700005 1.0265835e-38
0.020355234 0.020355232 0.73700005 1.0719632e-38
0.021818085 0.020410471 0.73899996 1.1186703e-38
0.0232257 0.020410471 0.73899996 1.1362485e-38
0.024633314 0.020410478 0.73899996 1.1556556e-38
0.026076185 0.02043809 0.74000001 1.3485099e-38
0.027485704 0.02043809 0.74000001 1.541759e-38
0.02897332 0.020493329 0.74200004 1.6064385e-38
0.030427614 0.02052094 0.74300003 1.6613604e-38
0.031842865 0.020520948 0.74300003 1.6983459e-38
0.033347622 0.020576194 0.74500006 1.7350086e-38
0.034860004 0.020631418 0.74700004 1.7168571e-38
0.036282871 0.02063141 0.74700004 1.6978787e-38
0.037857153 0.020714261 0.75000006 1.6510625e-38
0.039285712 0.020714261 0.75000006 1.5954835e-38
0.040822841 0.020769522 0.75199997 1.8158055e-38
0.04231143 0.020797133 0.75300002 2.0356017e-38
0.043861907 0.020852372 0.755 1.9341171e-38
0.045360018 0.020879991 0.75600004 1.8241289e-38
-0.032571405 0.022438079 0.76000005 7.0170189e-39
-0.031041883 0.022379048 0.75800002 7.572722e-39
-0.029519988 0.02231998 0.75600004 8.1248336e-39
-0.028079988 0.02231998 0.75600004 7.9433374e-39
-0.02660477 0.022290461 0.75500005 7.8518817e-39
-0.025099991 0.0222314 0.75300002 7.4892242e-39
-0.02363429 0.022201911 0.75200003 7.0325621e-39
-0.02214288 0.022142842 0.75000006 7.3984719e-39
-0.020659052 0.022083804 0.74799997 7.6765008e-39
-0.019208577 0.022054277 0.74700004 8.2303934e-39
-0.017690483 0.021936186 0.74300003 8.6967469e-39
-0.01625336 0.021906666 0.74199998 9.246325e-39
-0.014840031 0.021906666 0.74199998 9.7991316e-39
-0.013390479 0.021847613 0.74000001 9.9828012e-39
-0.01198096 0.021847613 0.74000001 1.0266201e-38
-0.01057144 0.021847606 0.74000001 9.7108835e-39
-0.0091495337 0.021818094 0.73899996 9.1620229e-39
-0.0077419188 0.021818101 0.73899996 9.8027189e-39
-0.0063343043 0.021818109 0.73899996 1.0357678e-38
-0.0049266689 0.021818094 0.73900002 1.0081813e-38
-0.0035190538 0.021818094 0.73899996 9.8077412e-39
-0.0021057243 0.021759056 0.73699999 1.0174724e-38
-0.00070191204 0.021759041 0.73700005 1.0641075e-38
0.00070189376 0.021759041 0.73700005 1.1002676e-38
0.0021057201 0.021759041 0.73700005 1.1463287e-38
0.003504751 0.021729521 0.73600006 1.1918517e-38
0.0049066511 0.021729529 0.736 1.2372667e-38
0.0063085384 0.021729529 0.736 1.2467006e-38
0.007710461 0.021729521 0.73600006 1.2556689e-38
0.0091123618 0.021729529 0.736 1.2376964e-38
0.01051427 0.021729521 0.73600006 1.2188989e-38
0.01191617 0.021729529 0.736 1.3297472e-38
0.013318078 0.021729514 0.73600006 1.4397701e-38
0.014740002 0.021759041 0.73700005 1.4217256e-38
0.016143793 0.021759048 0.73700005 1.4032513e-38
0.01754762 0.021759048 0.73700005 1.4494206e-38
0.018951425 0.021759041 0.73700005 1.4952666e-38
0.02035523 0.021759048 0.73700005 1.5323237e-38
0.021818092 0.021818087 0.73900002 1.5784213e-38
0.023257138 0.021847613 0.74000001 1.5970042e-38
0.024666658 0.021847621 0.74000001 1.625452e-38
0.026076196 0.021847606 0.74000001 1.6985618e-38
0.027485715 0.021847613 0.74000001 1.7815725e-38
0.02897333 0.021906666 0.74199998 1.7906125e-38
0.030427611 0.021936186 0.74300003 1.8091231e-38
0.031928569 0.021995232 0.74500006 1.7997602e-38
0.033347607 0.021995239 0.745 1.790756e-38
0.034860007 0.022054255 0.74700004 1.7626314e-38
0.036282849 0.02205427 0.74699998 1.7256088e-38
0.03775619 0.022083789 0.74800003 1.7985376e-38
0.039285708 0.022142842 0.75000006 1.872358e-38
0.040714301 0.022142842 0.75000012 2.028651e-38
0.042255238 0.022201918 0.75200003 2.1948175e-38
0.043861896 0.022290468 0.75500005 2.138821e-38
0.04548002 0.022379033 0.75800002 2.084615e-38
0.046923812 0.022379041 0.75799996 2.0744971e-38
-0.032700002 0.023979977 0.76300001 7.7542322e-39
-0.031123804 0.02388569 0.76000005 8.1255412e-39
-0.029598096 0.023822837 0.75800002 8.4932518e-39
-0.028079992 0.023759976 0.75600004 7.8486194e-39
-0.026639992 0.023759991 0.75600004 7.2086548e-39
-0.02510001 0.023665696 0.75300002 6.1956085e-39
-0.023634301 0.023634285 0.75199997 5.0968098e-39
-0.022201916 0.023634292 0.75199997 5.547735e-39
-0.020714276 0.023571409 0.75000006 6.016262e-39
-0.01923429 0.023508556 0.74800003 6.8402941e-39
-0.017738106 0.023414291 0.74500006 7.5853757e-39
-0.016275242 0.023351416 0.74300003 8.0420365e-39
-0.014860009 0.023351416 0.74300003 8.5055215e-39
-0.013426663 0.023320004 0.74200004 8.6805844e-39
-0.012013335 0.023319997 0.74200004 8.7821098e-39
-0.010571429 0.023257121 0.74000001 7.8573019e-39
-0.0091495393 0.023225702 0.73900002 6.8546462e-39
-0.0077419248 0.023225695 0.73899996 7.5785696e-39
-0.0063343109 0.02322571 0.73899996 8.326168e-39
-0.004926696 0.02322571 0.73899996 7.8612508e-39
-0.0035190668 0.02322571 0.73899996 7.4103241e-39
-0.0021057094 0.023162849 0.73700005 8.3215044e-39
-0.00070191763 0.023162857 0.73700005 9.1602208e-39
0.00070190773 0.023162842 0.73700005 9.7019067e-39
0.0021057145 0.023162849 0.73700005 1.0170771e-38
0.0035095194 0.023162857 0.73700005 1.0711024e-38
0.0049066427 0.02313143 0.736 1.1273515e-38
0.0063171373 0.023162849 0.73700005 1.2185411e-38
0.0077104508 0.023131438 0.736 1.3113452e-38
0.0091123721 0.02313143 0.73600006 1.4028578e-38
0.010514274 0.02313143 0.736 1.4862631e-38
0.011932387 0.023162849 0.73700005 1.6519616e-38
0.013336192 0.023162849 0.73700005 1.8082612e-38
0.014739999 0.023162864 0.73700005 1.8454616e-38
0.016143808 0.023162849 0.73700005 1.8728689e-38
0.017547613 0.023162849 0.73700005 1.919325e-38
0.018951418 0.023162857 0.73700005 1.9556646e-38
0.020355243 0.023162857 0.73700005 1.9927934e-38
0.021818077 0.023225725 0.73899996 2.0292409e-38
0.023225714 0.023225702 0.73900002 2.0662624e-38
0.024666654 0.023257136 0.74000001 2.093813e-38
0.026076173 0.023257136 0.74000001 2.0570788e-38
0.027559992 0.023320004 0.74199998 2.0111252e-38
0.028973335 0.023320004 0.74199998 1.9836103e-38
0.030427603 0.023351423 0.74300003 1.9468043e-38
0.031928558 0.023414291 0.745 1.9007432e-38
0.03343714 0.02347713 0.74700004 1.845534e-38
0.034860007 0.023477122 0.74700004 1.7989704e-38
0.036331423 0.023508556 0.74800003 1.7529079e-38
0.037857149 0.023571417 0.75000006 1.9542632e-38
0.039390478 0.02363427 0.75200003 2.1481904e-38
0.040822845 0.023634285 0.75199997 2.2499236e-38
0.042311449 0.023665681 0.75300002 2.3417599e-38
0.043861907 0.023728572 0.75500005 2.3417607e-38
0.045480005 0.023822851 0.75800002 2.3417597e-38
0.04704763 0.023885705 0.76000005 2.3417589e-38
0.048559058 0.023917146 0.76100004 2.3416832e-38
0.05027141 0.024042852 0.76499999 2.3417512e-38
-0.034242868 0.0255 0.76500005 7.8464306e-39
-0.032614298 0.025366664 0.76099998 8.3095682e-39
-0.031123821 0.02533333 0.76000005 8.6783591e-39
-0.029598093 0.025266662 0.75800002 9.1396876e-39
-0.028154282 0.025266655 0.75800002 9.4173437e-39
-0.026639994 0.025199987 0.75600004 9.6932159e-39
-0.025166675 0.025166661 0.755 9.5113456e-39
-0.023665721 0.025099978 0.75300002 9.2329622e-39
-0.022201905 0.025066674 0.75199997 9.6939263e-39
-0.02071429 0.024999984 0.75000006 1.0244976e-38
-0.019234287 0.024933323 0.74800003 1.0709569e-38
-0.017738119 0.024833336 0.745 1.1262006e-38
-0.016275262 0.024766669 0.74300003 1.1448894e-38
-0.01486 0.024766669 0.74300003 1.1632571e-38
-0.013426673 0.024733335 0.74200004 1.1725128e-38
-0.012029533 0.024766669 0.74300003 1.1814461e-38
-0.010571417 0.024666652 0.74000001 1.2187191e-38
-0.0091618979 0.024666652 0.74000001 1.2555612e-38
-0.007741903 0.024633318 0.73900002 1.3016943e-38
-0.0063342885 0.024633326 0.73900002 1.3475763e-38
-0.0049266736 0.024633333 0.73899996 1.3294962e-38
-0.0035190585 0.024633333 0.73899996 1.3110215e-38
-0.002105728 0.024566658 0.73700005 1.3849204e-38
-0.00070190273 0.02456665 0.73700005 1.4679671e-38
0.00070190214 0.024566665 0.73700005 1.5046654e-38
0.0021057089 0.024566665 0.73700005 1.5510142e-38
0.0035095203 0.024566658 0.73700005 1.5784217e-38
0.004913325 0.024566658 0.73700005 1.6069771e-38
0.0063171317 0.024566673 0.73699999 1.6522853e-38
0.0077104555 0.024533331 0.736 1.6989205e-38
0.0091247503 0.024566658 0.73700005 1.7534837e-38
0.010528575 0.024566658 0.73700005 1.8091231e-38
0.011932381 0.024566665 0.73700005 1.8823404e-38
0.013336186 0.024566665 0.73700005 1.9652435e-38
0.014739998 0.024566658 0.73700005 1.9651358e-38
0.016143804 0.024566665 0.73700005 1.974427e-38
0.017595222 0.024633341 0.73899996 1.9835747e-38
0.019002859 0.024633341 0.73900002 1.9927941e-38
0.020410473 0.024633333 0.73899996 2.0111253e-38
0.021818088 0.024633333 0.73899996 2.0387119e-38
0.023257131 0.024666652 0.74000001 2.0478237e-38
0.024733324 0.024733335 0.74199998 2.0662265e-38
0.026146654 0.024733335 0.74199998 2.0569711e-38
0.027559998 0.024733335 0.74199998 2.0569709e-38
0.029012391 0.024766646 0.74300009 2.0753379e-38
0.030509526 0.024833329 0.74500006 2.1029245e-38
0.031928584 0.024833329 0.74500006 2.0937051e-38
0.033437144 0.024899989 0.74700004 2.0936331e-38
0.034906659 0.024933338 0.74799997 2.0749427e-38
0.036331426 0.024933331 0.74800003 2.0470682e-38
0.037857149 0.024999991 0.75000006 2.1114596e-38
0.039390475 0.025066674 0.75199997 2.1671706e-38
0.040877156 0.025099985 0.75300002 2.2498222e-38
0.042423822 0.025166668 0.75500005 2.3325818e-38
0.04392001 0.02519998 0.75600004 2.3324742e-38
0.045480005 0.025266662 0.75799996 2.3325817e-38
0.047047634 0.025333315 0.76000005 2.3325815e-38
0.04855907 0.025366664 0.76100004 2.3417663e-38
0.050271407 0.025500007 0.76499999 2.3417675e-38
0.051728562 0.0255 0.76500005 2.3417675e-38
-0.034153353 0.026886649 0.76300001 8.5900913e-39
-0.032614272 0.026816189 0.76100004 8.8634664e-39
-0.031123815 0.026780933 0.76000005 9.3219475e-39
-0.029598111 0.026710473 0.75799996 9.6957508e-39
-0.028079996 0.026639983 0.75600004 1.0987192e-38
-0.026639996 0.026639991 0.75600004 1.2182857e-38
-0.025099996 0.026534267 0.75300002 1.2831097e-38
-0.023665691 0.026534267 0.75300002 1.3379595e-38
-0.022201912 0.026499048 0.75199997 1.3933475e-38
-0.020714305 0.026428558 0.75000006 1.4393387e-38
-0.0192343 0.026358083 0.74799997 1.4674292e-38
-0.017738109 0.026252382 0.74500006 1.4948717e-38
-0.016319038 0.026252382 0.74500006 1.4859387e-38
-0.014859999 0.026181899 0.74300009 1.4768631e-38
-0.013444765 0.026181892 0.74300009 1.4773297e-38
-0.012013325 0.026146658 0.74200004 1.4771147e-38
-0.010599997 0.026146665 0.74200004 1.652069e-38
-0.0091619138 0.026076175 0.74000001 1.8265924e-38
-0.0077419295 0.026040949 0.73899996 1.8457489e-38
-0.0063343146 0.026040956 0.73899996 1.8543584e-38
-0.0049266792 0.026040941 0.73900002 1.8640083e-38
-0.0035190501 0.026040941 0.73899996 1.8727973e-38
-0.0021057141 0.025970466 0.73700005 1.9468755e-38
-0.00070190831 0.025970474 0.73700005 2.0200211e-38
0.00070189842 0.025970474 0.73699999 2.0478947e-38
0.0021057099 0.025970474 0.73700005 2.0751944e-38
0.0035095147 0.025970474 0.73700005 2.0846293e-38
0.0049133417 0.025970459 0.73700011 2.0845936e-38
0.0063171457 0.025970466 0.73700005 2.0846295e-38
0.0077209375 0.025970474 0.73700005 2.0845935e-38
0.0091247642 0.025970474 0.73700005 2.11218e-38
0.010528569 0.025970466 0.73700005 2.1305112e-38
0.011932376 0.025970474 0.73700005 2.1213635e-38
0.013336187 0.025970474 0.73700005 2.1121441e-38
0.014739992 0.025970466 0.73700005 2.0938129e-38
0.016143797 0.025970474 0.73699999 2.075374e-38
0.01759523 0.026040941 0.73899996 2.0569352e-38
0.019002846 0.026040964 0.73899996 2.0294204e-38
0.020410459 0.026040949 0.73899996 2.0384963e-38
0.021847626 0.02607619 0.74000001 2.0385681e-38
0.023257146 0.026076175 0.74000001 2.0384605e-38
0.024733314 0.026146665 0.74199998 2.0293487e-38
0.026146656 0.026146673 0.74199998 2.0659752e-38
0.027559986 0.026146673 0.74199998 2.1028169e-38
0.02901238 0.026181899 0.74300003 2.1762494e-38
0.030509513 0.026252389 0.745 2.2498615e-38
0.031928569 0.026252382 0.745 2.2958511e-38
0.033437148 0.026322834 0.74700004 2.3417327e-38
0.034906663 0.026358098 0.74799997 2.3417684e-38
0.036331419 0.02635809 0.74800003 2.3415161e-38
0.037857134 0.026428565 0.75000006 2.2681182e-38
0.039390486 0.026499048 0.75200003 2.1852853e-38
0.040877163 0.026534259 0.75300002 2.2587163e-38
0.042423818 0.026604757 0.75500005 2.3230015e-38
0.04392001 0.026639983 0.75600004 2.3228945e-38
0.045600023 0.026780941 0.76000005 2.3139626e-38
0.047047619 0.026780948 0.76000005 2.3325096e-38
0.048686657 0.026886649 0.76300001 2.3417652e-38
0.050271414 0.026957147 0.76500005 2.3417655e-38
0.051863808 0.027027607 0.76700002 2.3417669e-38
-0.034153353 0.028339989 0.76300001 1.0513621e-38
-0.032614276 0.028265715 0.76100004 1.0976773e-38
-0.031123826 0.028228566 0.76000005 1.1255177e-38
-0.029598085 0.028154284 0.75800002 1.1538228e-38
-0.028154297 0.028154291 0.75799996 1.2275794e-38
-0.026639996 0.028079987 0.75600004 1.3107708e-38
-0.025166685 0.028042868 0.755 1.3383586e-38
-0.023665709 0.027968556 0.75300002 1.3663038e-38
-0.022201929 0.027931422 0.75200003 1.403038e-38
-0.020714292 0.027857132 0.75000006 1.4404538e-38
-0.019234294 0.02778285 0.74799997 1.4678969e-38
-0.017738122 0.027671434 0.745 1.5050615e-38
-0.016319051 0.027671427 0.745 1.5416164e-38
-0.014900009 0.027671427 0.74500006 1.5881081e-38
-0.013444757 0.027597137 0.74300003 1.6064034e-38
-0.012013334 0.027559996 0.74200004 1.6343846e-38
-0.010600005 0.027559996 0.74200004 1.7261124e-38
-0.0091619221 0.027485706 0.74000001 1.8274902e-38
-0.0077419071 0.027448572 0.73899996 1.8366379e-38
-0.0063428641 0.027485698 0.74000001 1.8550409e-38
-0.0049333447 0.027485698 0.74000001 1.8641168e-38
-0.0035190631 0.02744858 0.73899996 1.873408e-38
-0.0021057206 0.027374275 0.73700005 1.9284734e-38
-0.00070191483 0.027374282 0.73699999 1.9836106e-38
0.00070191239 0.027374282 0.73700005 2.0019059e-38
0.0021057043 0.027374275 0.73700005 2.0295283e-38
0.0035095296 0.027374268 0.73700005 2.0570072e-38
0.0049133352 0.027374282 0.73700005 2.0846295e-38
0.0063171401 0.027374282 0.73700005 2.0845217e-38
0.0077209524 0.027374268 0.73700005 2.0936692e-38
0.0091247587 0.027374282 0.73700005 2.1212196e-38
0.010528564 0.02737429 0.73700005 2.1487704e-38
0.01193239 0.027374282 0.73700005 2.1579898e-38
0.013336182 0.027374275 0.73700005 2.157954e-38
0.014739988 0.02737429 0.73699999 2.1579898e-38
0.016187603 0.027448572 0.73899996 2.1487345e-38
0.017619045 0.027485706 0.74000001 2.1671732e-38
0.019002855 0.027448565 0.73899996 2.1855046e-38
0.020410469 0.027448572 0.73899996 2.1855405e-38
0.021847602 0.027485721 0.74000001 2.194724e-38
0.023257142 0.027485698 0.74000001 2.1855405e-38
0.024733322 0.027560011 0.74199998 2.1855047e-38
0.026146648 0.027560011 0.74199998 2.2038718e-38
0.027597129 0.027597137 0.74300003 2.222275e-38
0.029090462 0.027671427 0.745 2.259045e-38
0.030509522 0.027671427 0.74500006 2.2958152e-38
0.03192858 0.027671419 0.74500006 2.3234019e-38
0.033437129 0.027745694 0.74700004 2.341769e-38
0.034906656 0.027782857 0.74799997 2.341769e-38
0.036331423 0.02778285 0.74800003 2.3417676e-38
0.037857153 0.027857132 0.75000006 2.2403883e-38
0.03939046 0.027931429 0.75199997 2.1481552e-38
0.040877145 0.027968556 0.75300002 2.2402389e-38
0.042423792 0.02804286 0.755 2.3318962e-38
0.04392001 0.028079979 0.75600004 2.3229288e-38
0.045480013 0.028154284 0.75800002 2.3138183e-38
0.047047637 0.028228551 0.76000005 2.3324376e-38
0.048495252 0.028228559 0.76000005 2.3417641e-38
0.050402854 0.028488562 0.76700002 2.3417635e-38
0.051931433 0.02852571 0.76800001 2.3417663e-38
-0.034019034 0.029676184 0.76000005 1.243745e-38
-0.032571439 0.029676177 0.76000005 1.3091456e-38
-0.031123793 0.029676177 0.76000005 1.3274806e-38
-0.029676177 0.029676177 0.76000005 1.3374901e-38
-0.028154271 0.029598087 0.75800002 1.3652927e-38
-0.026639996 0.029519983 0.75600004 1.3931332e-38
-0.025166677 0.029480949 0.75500005 1.3931721e-38
-0.023665708 0.029402845 0.75300002 1.3935671e-38
-0.022201939 0.029363811 0.75199997 1.4120062e-38
-0.020714289 0.029285699 0.75000006 1.4308754e-38
-0.019234288 0.029207602 0.74799997 1.4677528e-38
-0.017738113 0.029090479 0.74500006 1.5046306e-38
-0.016319042 0.029090472 0.74500006 1.596574e-38
-0.01490002 0.029090479 0.745 1.6889476e-38
-0.013444777 0.029012367 0.74300003 1.734973e-38
-0.012029515 0.029012375 0.74300003 1.7811417e-38
-0.010600015 0.028973334 0.74200004 1.7996523e-38
-0.009161911 0.028895237 0.74000001 1.8180912e-38
-0.0077523924 0.028895237 0.74000001 1.8366017e-38
-0.0063428734 0.028895244 0.74000001 1.8457853e-38
-0.0049333344 0.028895229 0.74000001 1.863973e-38
-0.0035190687 0.028856196 0.73899996 1.8732283e-38
-0.0021057252 0.028778091 0.73699999 1.9099265e-38
-0.00070189993 0.028778076 0.73700005 1.937513e-38
0.0007018919 0.028778091 0.73700005 1.9649561e-38
0.0021057192 0.028778084 0.73700005 1.9834308e-38
0.0035095231 0.028778091 0.73700005 2.0292052e-38
0.0049133296 0.028778084 0.73700005 2.0752663e-38
0.0063171419 0.028778091 0.73700005 2.0935616e-38
0.0077209477 0.028778091 0.73700005 2.1027809e-38
0.0091247531 0.028778091 0.73700005 2.1394075e-38
0.01052858 0.028778084 0.73700005 2.1671018e-38
0.011932371 0.028778091 0.73700005 2.1854331e-38
0.013372383 0.028856188 0.73900002 2.203872e-38
0.014779998 0.028856188 0.73899996 2.2130555e-38
0.016187612 0.028856188 0.73899996 2.222275e-38
0.017619042 0.028895237 0.74000001 2.2866315e-38
0.019028563 0.028895237 0.74000001 2.3417328e-38
0.020438079 0.028895237 0.74000001 2.3417687e-38
0.021847611 0.028895237 0.74000001 2.3417328e-38
0.023257131 0.028895237 0.74000001 2.3417687e-38
0.024733312 0.028973341 0.74199998 2.3417328e-38
0.026181893 0.029012375 0.74300003 2.3417689e-38
0.027597139 0.029012375 0.74300003 2.341733e-38
0.029090472 0.029090479 0.74500006 2.3417689e-38
0.03059143 0.029168554 0.74700004 2.341769e-38
0.032014266 0.029168576 0.74700004 2.341769e-38
0.033481911 0.029207617 0.74800003 2.341769e-38
0.034906659 0.029207617 0.74800003 2.341769e-38
0.036428556 0.029285699 0.75000006 2.3416242e-38
0.037857149 0.029285692 0.75000006 2.2218421e-38
0.039390475 0.029363811 0.75200003 2.1023106e-38
0.04087716 0.029402837 0.75300002 2.2221613e-38
0.0424238 0.029480956 0.755 2.3414045e-38
0.04392001 0.029519983 0.75600004 2.3322934e-38
0.045600012 0.029676184 0.76000005 2.3139272e-38
0.047109526 0.029715233 0.76099998 2.3325105e-38
0.048941899 0.029949516 0.76700002 2.3417652e-38
0.050402861 0.029949509 0.76700002 2.3417645e-38
0.051931415 0.029988579 0.76799995 2.3416944e-38
-0.034019049 0.031123802 0.76000005 1.3369025e-38
-0.032614276 0.031164758 0.76099998 1.4941395e-38
-0.031123789 0.031123802 0.76000005 1.5307347e-38
-0.029715229 0.031164758 0.76099998 1.5767967e-38
-0.028079996 0.030959979 0.75600004 1.5859808e-38
-0.02664 0.030959986 0.75600004 1.6042449e-38
-0.0252 0.030959986 0.75600004 1.6229752e-38
-0.023634279 0.030796185 0.75200003 1.65067e-38
-0.022201924 0.030796185 0.75200003 1.6509577e-38
-0.020714303 0.030714281 0.75000006 1.6604637e-38
-0.019234313 0.030632384 0.74800003 1.6602839e-38
-0.017785728 0.030591421 0.74700004 1.6603561e-38
-0.016362848 0.030591421 0.74700004 1.7342194e-38
-0.014940017 0.030591428 0.74699998 1.8085129e-38
-0.013480942 0.030509517 0.74500006 1.8727618e-38
-0.012029534 0.030427605 0.74300003 1.9371902e-38
-0.010614302 0.030427605 0.74300003 1.9371542e-38
-0.0091866674 0.030386664 0.74199998 1.9463736e-38
-0.0077523803 0.03030476 0.74000001 1.9924347e-38
-0.0063600107 0.030386671 0.74200004 2.047859e-38
-0.0049333419 0.03030476 0.74000001 2.0753379e-38
-0.0035238017 0.03030476 0.74000001 2.1119643e-38
-0.0021114454 0.030263804 0.73899996 2.1211836e-38
-0.00070191949 0.0301819 0.73700005 2.1394431e-38
0.00070190866 0.030181892 0.73700005 2.1487342e-38
0.0021057127 0.0301819 0.73700005 2.1671374e-38
0.0035095194 0.0301819 0.73700005 2.1855045e-38
0.0049133445 0.0301819 0.73700005 2.2130553e-38
0.0063171354 0.030181892 0.73700005 2.2130553e-38
0.0077209421 0.030181907 0.73699999 2.2222388e-38
0.009124768 0.0301819 0.73700005 2.2406059e-38
0.010528559 0.0301819 0.73700005 2.259045e-38
0.011932386 0.030181885 0.73700011 2.2682287e-38
0.013372371 0.030263819 0.73899996 2.2774481e-38
0.014780006 0.030263804 0.73900002 2.2774123e-38
0.016209515 0.03030476 0.74000001 2.286596e-38
0.017619055 0.030304752 0.74000001 2.3141825e-38
0.019028574 0.030304752 0.74000001 2.341769e-38
0.020438094 0.03030476 0.74000001 2.341769e-38
0.021847611 0.03030476 0.74000001 2.341769e-38
0.023319995 0.030386671 0.74200004 2.341769e-38
0.024733337 0.030386657 0.74200004 2.341769e-38
0.026181908 0.03042762 0.74300009 2.341769e-38
0.027597154 0.030427597 0.74300009 2.341769e-38
0.029090475 0.030509524 0.745 2.341769e-38
0.030591434 0.030591406 0.74700004 2.341769e-38
0.032014281 0.030591413 0.74700004 2.341769e-38
0.033437148 0.030591421 0.74700004 2.341769e-38
0.034906652 0.030632377 0.74800003 2.341769e-38
0.036331434 0.030632377 0.74800003 2.3417679e-38
0.037857149 0.030714273 0.75000006 2.2033677e-38
0.039390463 0.030796193 0.75199997 2.0650756e-38
0.04087716 0.030837119 0.75300002 2.056286e-38
0.042423807 0.030919045 0.755 2.0567883e-38
0.04392001 0.030959979 0.75600004 2.0471027e-38
0.045600034 0.031123802 0.76000005 2.0382786e-38
0.047109537 0.031164758 0.76100004 2.1300789e-38
0.048814263 0.031328589 0.76499999 2.2223801e-38
-0.032614283 0.032614291 0.76100004 1.668844e-38
-0.031164763 0.032614276 0.76100004 1.742927e-38
-0.029715234 0.032614283 0.76100004 1.8069615e-38
-0.02808 0.032399982 0.75600004 1.8159664e-38
-0.026710477 0.032485716 0.75800002 1.8162189e-38
-0.0252 0.03239999 0.75600004 1.8621022e-38
-0.02372859 0.032357149 0.75500005 1.8992319e-38
-0.022231437 0.032271408 0.75300002 1.88987e-38
-0.02071429 0.032142848 0.75000006 1.8808637e-38
-0.019285718 0.03214284 0.75000006 1.8525219e-38
-0.017809523 0.032057136 0.74800003 1.8163991e-38
-0.016384788 0.032057129 0.74800003 1.871466e-38
-0.014940001 0.032014288 0.74700004 1.9181745e-38
-0.013480955 0.031928562 0.745 2.001151e-38
-0.012061913 0.031928562 0.74500006 2.0839463e-38
-0.010614294 0.031842858 0.74300003 2.0837311e-38
-0.0091990596 0.031842843 0.74300003 2.074691e-38
-0.0077733481 0.031800002 0.74199998 2.1571995e-38
-0.00636002 0.031799994 0.74199998 2.240462e-38
-0.0049466635 0.031800009 0.74199998 2.295851e-38
-0.003523825 0.03171429 0.74000001 2.3417328e-38
-0.002111438 0.031671427 0.73900002 2.3417686e-38
-0.00070382311 0.031671427 0.73899996 2.3416968e-38
0.00070190214 0.031585708 0.73700005 2.3417686e-38
0.0021057071 0.031585708 0.73700005 2.3417327e-38
0.0035095343 0.031585693 0.73700005 2.3417687e-38
0.004913325 0.031585708 0.73700005 2.3417328e-38
0.0063171298 0.031585716 0.73699999 2.3417687e-38
0.007720957 0.031585708 0.73700005 2.3417328e-38
0.0091247484 0.031585708 0.73700005 2.3417687e-38
0.010528576 0.031585701 0.73700005 2.3417689e-38
0.01193238 0.031585708 0.73700005 2.341769e-38
0.013372366 0.031671435 0.73899996 2.341769e-38
0.014779979 0.031671442 0.73899996 2.341769e-38
0.016209511 0.031714283 0.74000001 2.341769e-38
0.017619031 0.031714283 0.74000001 2.341769e-38
0.019028571 0.031714268 0.74000001 2.341769e-38
0.02043809 0.031714268 0.74000001 2.341769e-38
0.021847622 0.031714275 0.74000001 2.341769e-38
0.023320002 0.031799987 0.74200004 2.341769e-38
0.024733331 0.031799987 0.74200004 2.341769e-38
0.026181901 0.031842843 0.74300003 2.341769e-38
0.027597148 0.03184285 0.74300003 2.341769e-38
0.029090481 0.031928569 0.74500006 2.341769e-38
0.030591415 0.032014281 0.74700004 2.341769e-38
0.032014281 0.032014273 0.74700004 2.341769e-38
0.033481888 0.032057144 0.74799997 2.341769e-38
0.034906656 0.032057136 0.74800003 2.341769e-38
0.036428578 0.03214284 0.75000006 2.3415525e-38
0.037857145 0.032142848 0.75000006 2.1848212e-38
0.039390475 0.032228567 0.75200003 2.0283417e-38
0.040985711 0.032357141 0.755 1.8994128e-38
0.042480007 0.032399982 0.75600004 1.7616592e-38
0.044036202 0.032485709 0.75800002 1.7609773e-38
0.045660011 0.032614283 0.76099998 1.7616229e-38
0.047109533 0.032614276 0.76100004 1.9362896e-38
-0.03116476 0.034063809 0.76099998 1.5864141e-38
-0.029676201 0.034019031 0.76000005 1.7339257e-38
-0.028228553 0.034019038 0.76000005 1.8441648e-38
-0.026710471 0.033929527 0.75799996 1.9549397e-38
-0.0252 0.033839986 0.75600004 2.0191511e-38
-0.02376 0.033839971 0.75600004 2.0931948e-38
-0.022231409 0.033705689 0.75300002 2.0837972e-38
-0.02076954 0.033660956 0.75199997 2.0838653e-38
-0.019337159 0.033660956 0.75199997 1.9820892e-38
-0.01785714 0.033571415 0.75000006 1.8812523e-38
-0.016384782 0.033481888 0.74800003 1.9546516e-38
-0.014959997 0.033481888 0.74800003 2.0282667e-38
-0.013517135 0.033437133 0.74700004 2.1206435e-38
-0.012061924 0.033347629 0.745 2.2126225e-38
-0.010614312 0.033258095 0.74300003 2.2126583e-38
-0.0091990512 0.033258095 0.74300003 2.212479e-38
-0.007773357 0.033213325 0.74199998 2.2494645e-38
-0.0063600005 0.03321334 0.74199998 2.2955989e-38
-0.0049466728 0.033213325 0.74199998 2.3141466e-38
-0.0035238268 0.033123799 0.74000001 2.341769e-38
-0.0021114501 0.033079058 0.73899996 2.341769e-38
-0.00070381473 0.033079043 0.73900002 2.341769e-38
0.00070189656 0.032989532 0.73700005 2.3325854e-38
0.002105722 0.032989509 0.73700005 2.3325854e-38
0.0035095129 0.032989532 0.73700005 2.3325854e-38
0.0049133194 0.032989524 0.73699999 2.341769e-38
0.0063171466 0.032989532 0.73700005 2.341769e-38
0.0077209505 0.032989517 0.73700005 2.341769e-38
0.0091247633 0.032989524 0.73700011 2.341769e-38
0.01052857 0.032989509 0.73700005 2.341769e-38
0.011932374 0.032989532 0.73700005 2.3325854e-38
0.013372375 0.033079058 0.73900002 2.3234019e-38
0.014779988 0.033079036 0.73899996 2.3325854e-38
0.016187603 0.033079058 0.73899996 2.341769e-38
0.017619044 0.033123806 0.74000001 2.341769e-38
0.019028565 0.033123799 0.74000001 2.341769e-38
0.020438084 0.033123806 0.74000001 2.341769e-38
0.021906663 0.033213317 0.74200004 2.341769e-38
0.023320006 0.033213325 0.74200004 2.341769e-38
0.024733333 0.033213325 0.74200004 2.341769e-38
0.026181897 0.033258088 0.74300003 2.341769e-38
0.027597142 0.033258088 0.74300003 2.341769e-38
0.029090473 0.033347622 0.745 2.341769e-38
0.030591415 0.03343714 0.74700004 2.341769e-38
0.032014284 0.033437118 0.74700004 2.341769e-38
0.033481888 0.033481896 0.74799997 2.341769e-38
0.034906663 0.033481903 0.74800003 2.341769e-38
0.036428574 0.033571415 0.75000006 2.3417677e-38
0.037857134 0.033571422 0.75000006 2.1850363e-38
0.039390467 0.033660963 0.75199997 2.0191583e-38
0.040985707 0.033795245 0.75500005 1.8350208e-38
0.042480025 0.033839971 0.7560001 1.6600663e-38
0.044036195 0.033929527 0.75799996 1.6598502e-38
0.045660004 0.034063816 0.76100004 1.6599569e-38
0.047109541 0.034063801 0.76100004 1.7242766e-38
-0.031164763 0.035513334 0.76100004 1.4292863e-38
-0.029676193 0.035466649 0.76000005 1.6506622e-38
-0.028154282 0.035373338 0.75800002 1.8718228e-38
-0.026710471 0.03537333 0.75800002 2.0835471e-38
-0.025200002 0.035279989 0.75600004 2.1846742e-38
-0.023759974 0.035279982 0.75600004 2.2770848e-38
-0.022290478 0.035233341 0.75500005 2.2774446e-38
-0.020769548 0.03509333 0.75199997 2.2769042e-38
-0.019337146 0.03509333 0.75200003 2.1107012e-38
-0.017857157 0.034999989 0.75000006 1.9457217e-38
-0.016384777 0.034906648 0.74800003 2.046814e-38
-0.014960012 0.034906678 0.74799997 2.1390818e-38
-0.013517167 0.034859993 0.74700004 2.2404616e-38
-0.012061916 0.034766652 0.74500006 2.3323688e-38
-0.010642846 0.034766674 0.74500006 2.3417676e-38
-0.0091990503 0.034673318 0.74300009 2.3415882e-38
-0.007783839 0.034673333 0.74300003 2.3417677e-38
-0.006368577 0.034673333 0.74300003 2.3416966e-38
-0.0049466812 0.034626678 0.74199998 2.341769e-38
-0.0035238157 0.034533322 0.74000001 2.341769e-38
-0.0021114417 0.034486674 0.73899996 2.341769e-38
-0.00070382684 0.034486674 0.73899996 2.3417683e-38
0.00070378621 0.034486674 0.73899996 2.332584e-38
0.0021057024 0.034393318 0.73700005 2.3140024e-38
0.0035095091 0.03439334 0.73699999 2.3325854e-38
0.0049133343 0.034393325 0.73700005 2.341769e-38
0.0063171401 0.03439334 0.73700005 2.341769e-38
0.0077209524 0.034393318 0.73700005 2.341769e-38
0.0091247577 0.03439334 0.73700005 2.341769e-38
0.010528564 0.034393325 0.73700005 2.3325854e-38
0.011932389 0.03439334 0.73700005 2.3141825e-38
0.013372361 0.034486666 0.73899996 2.2957795e-38
0.014779994 0.034486674 0.73900002 2.323366e-38
0.016209522 0.034533329 0.74000001 2.341769e-38
0.017619042 0.034533329 0.74000001 2.341769e-38
0.019028561 0.034533337 0.74000001 2.341769e-38
0.020493325 0.034626663 0.74200004 2.341769e-38
0.021906668 0.034626655 0.74200004 2.341769e-38
0.023319995 0.034626655 0.74200004 2.341769e-38
0.024733322 0.034626663 0.74200004 2.341769e-38
0.02618189 0.034673326 0.74300003 2.341769e-38
0.027671423 0.034766667 0.74500006 2.341769e-38
0.029168552 0.034859985 0.74700004 2.341769e-38
0.030591419 0.034859993 0.74700004 2.341769e-38
0.032014299 0.034859978 0.74700004 2.341769e-38
0.033481881 0.03490667 0.74800003 2.341769e-38
0.034906667 0.034906656 0.74800003 2.341769e-38
0.036428571 0.034999989 0.75000006 2.3416603e-38
0.038008578 0.035139985 0.75300002 2.1759967e-38
0.039442852 0.035139985 0.75300002 2.0098666e-38
0.040985718 0.035233341 0.75500005 1.7797386e-38
0.042480025 0.035279982 0.7560001 1.5495397e-38
0.044036206 0.035373323 0.75800002 1.5584001e-38
0.045600012 0.035466664 0.76000005 1.5585076e-38
0.047109529 0.035513334 0.76099998 1.5123388e-38
-0.032785736 0.037157141 0.76499999 1.2899866e-38
-0.031246694 0.037059985 0.76300001 1.4842053e-38
-0.029715238 0.036962859 0.76100004 1.6777807e-38
-0.02822856 0.036914274 0.76000005 1.8902254e-38
-0.026780942 0.036914274 0.76000005 2.111494e-38
-0.025266657 0.036817141 0.75800002 2.2035832e-38
-0.023760004 0.03671997 0.75600004 2.2958503e-38
-0.022290489 0.036671437 0.755 2.2958154e-38
-0.020797139 0.036574267 0.75300002 2.3050338e-38
-0.019337153 0.036525719 0.75199997 2.1757098e-38
-0.017857144 0.036428563 0.75000006 2.05636e-38
-0.016428579 0.036428563 0.75000006 2.1300439e-38
-0.014940009 0.03628283 0.74700004 2.2040152e-38
-0.013480949 0.036185704 0.74500006 2.2682289e-38
-0.012061927 0.036185712 0.745 2.341769e-38
-0.010642858 0.036185712 0.745 2.341769e-38
-0.0091990419 0.036088571 0.74300003 2.341769e-38
-0.0077838097 0.036088556 0.74300003 2.341769e-38
-0.0063685761 0.036088556 0.74300009 2.341769e-38
-0.0049466905 0.036039993 0.74199998 2.341769e-38
-0.0035333477 0.036040001 0.74199998 2.341769e-38
-0.0021142841 0.035942845 0.74000001 2.341769e-38
-0.00070476468 0.035942852 0.74000001 2.3417676e-38
0.00070475385 0.035942852 0.74000001 2.3046374e-38
0.0021142734 0.03594286 0.74000001 2.2581829e-38
0.003519045 0.035894275 0.73900002 2.3048196e-38
0.0049266596 0.03589429 0.73900002 2.341769e-38
0.0063171401 0.035797141 0.73700005 2.341769e-38
0.0077209468 0.035797134 0.73700005 2.341769e-38
0.0091247512 0.035797149 0.73700005 2.341769e-38
0.010528578 0.035797134 0.73700005 2.341769e-38
0.011964754 0.035894282 0.73899996 2.3325137e-38
0.013372367 0.03589429 0.73899996 2.3231149e-38
0.014800003 0.035942845 0.74000001 2.3325137e-38
0.01620952 0.035942852 0.74000001 2.341769e-38
0.017619055 0.035942852 0.74000001 2.341769e-38
0.019079989 0.036039993 0.74199998 2.341769e-38
0.020493334 0.036040001 0.74199998 2.341769e-38
0.021906661 0.036040001 0.74199998 2.341769e-38
0.023319988 0.036039993 0.74200004 2.341769e-38
0.024733331 0.036039993 0.74200004 2.341769e-38
0.02614666 0.036039993 0.74200004 2.341769e-38
0.02767141 0.036185719 0.745 2.341769e-38
0.029168569 0.036282852 0.74700004 2.341769e-38
0.030591432 0.036282845 0.74700004 2.341769e-38
0.032014266 0.036282852 0.74700004 2.341769e-38
0.033481888 0.036331415 0.74799997 2.341769e-38
0.03490667 0.036331415 0.74800003 2.341769e-38
0.036525711 0.036525719 0.75200003 2.3417682e-38
0.037958089 0.036525726 0.75200003 2.2034758e-38
0.039442871 0.036574259 0.75300002 2.0646084e-38
0.040985726 0.03667143 0.75500005 1.8254394e-38
0.042480025 0.036719985 0.7560001 1.5764077e-38
0.043920003 0.036719985 0.75600004 1.5859501e-38
0.045660004 0.036962859 0.76099998 1.5951705e-38
0.047109526 0.036962859 0.76100004 1.5676207e-38
-0.032785736 0.038614281 0.76500005 1.3644967e-38
-0.031246694 0.038513325 0.76300001 1.5305921e-38
-0.029715242 0.03841237 0.76100004 1.6967587e-38
-0.028265713 0.038412377 0.76099998 1.9182061e-38
-0.026780957 0.038361888 0.76000005 2.1297175e-38
-0.025266649 0.038260944 0.75800002 2.2222374e-38
-0.023759978 0.038159978 0.75600004 2.3141456e-38
-0.022290479 0.03810953 0.755 2.3232225e-38
-0.020797137 0.038008552 0.75300002 2.3231499e-38
-0.019337142 0.037958086 0.75200003 2.249071e-38
-0.017857138 0.037857123 0.75000006 2.1667779e-38
-0.016428566 0.037857123 0.75000006 2.2129469e-38
-0.01496003 0.037756197 0.74799997 2.258973e-38
-0.013480962 0.037604749 0.745 2.3049989e-38
-0.01206192 0.037604749 0.74500006 2.341769e-38
-0.01064285 0.037604749 0.74500006 2.341769e-38
-0.0092238272 0.037604757 0.745 2.341769e-38
-0.0077838008 0.037503816 0.74300003 2.341769e-38
-0.0063685677 0.037503816 0.74300003 2.341769e-38
-0.0049533346 0.037503798 0.74300003 2.341769e-38
-0.0035333431 0.037453331 0.74199998 2.341769e-38
-0.0021200145 0.037453331 0.74199998 2.341769e-38
-0.000706686 0.037453339 0.74199998 2.3416242e-38
0.00070665654 0.037453339 0.74199998 2.2768361e-38
0.0021142715 0.037352368 0.74000001 2.2035123e-38
0.0035238049 0.037352376 0.74000001 2.2774842e-38
0.0049333242 0.037352376 0.74000001 2.341769e-38
0.0063428632 0.037352368 0.74000001 2.341769e-38
0.0077418978 0.037301898 0.73899996 2.341769e-38
0.0091495132 0.037301905 0.73899996 2.341769e-38
0.010557128 0.037301905 0.73899996 2.341769e-38
0.011964764 0.037301898 0.73900002 2.341769e-38
0.013372376 0.037301913 0.73900002 2.3416973e-38
0.014799979 0.037352376 0.74000001 2.341769e-38
0.016253324 0.037453331 0.74199998 2.341769e-38
0.017666666 0.037453331 0.74199998 2.341769e-38
0.019079994 0.037453339 0.74199998 2.341769e-38
0.020493323 0.037453339 0.74199998 2.341769e-38
0.021906666 0.037453339 0.74199998 2.341769e-38
0.023319995 0.037453331 0.74199998 2.341769e-38
0.024766667 0.037503801 0.74300003 2.341769e-38
0.026181901 0.037503798 0.74300003 2.341769e-38
0.027671421 0.037604764 0.74500006 2.341769e-38
0.029168567 0.037705701 0.74700004 2.341769e-38
0.030632377 0.037756193 0.74800003 2.341769e-38
0.032014281 0.037705712 0.74700004 2.341769e-38
0.033481896 0.03775619 0.74800003 2.341769e-38
0.035 0.037857123 0.75000006 2.341769e-38
0.036525704 0.037958097 0.75199997 2.3417686e-38
0.038008578 0.038008563 0.75300002 2.2315656e-38
0.039442886 0.038008552 0.75300002 2.1203211e-38
0.040985718 0.03810953 0.75500005 1.8626062e-38
0.042592384 0.038260963 0.75799996 1.604857e-38
0.044036191 0.038260948 0.75799996 1.6229372e-38
0.045779999 0.038513318 0.76300001 1.6320846e-38
0.047233328 0.038513325 0.76300001 1.613538e-38
-0.032785725 0.040071428 0.76500005 1.3646775e-38
-0.03124669 0.039966654 0.76300001 1.4202845e-38
-0.02971522 0.039861895 0.76100004 1.4767852e-38
-0.028228572 0.039809514 0.76000005 1.6235429e-38
-0.026780952 0.039809514 0.76000005 1.7710208e-38
-0.025266672 0.039704777 0.75799996 1.927467e-38
-0.023760004 0.039599992 0.75600004 2.0937763e-38
-0.022290498 0.039547622 0.755 2.1762857e-38
-0.020797156 0.039442852 0.75300002 2.2591165e-38
-0.019337149 0.039390475 0.75199997 2.2034764e-38
-0.017857155 0.039285697 0.75000006 2.1487338e-38
-0.016428581 0.039285697 0.75000006 2.2036916e-38
-0.014960025 0.039180953 0.74800003 2.2587578e-38
-0.013517148 0.039128557 0.74700004 2.2957436e-38
-0.012094289 0.039128564 0.74700004 2.341769e-38
-0.010642862 0.039023809 0.745 2.341769e-38
-0.0092238197 0.039023802 0.74500006 2.341769e-38
-0.007783819 0.038919047 0.74300003 2.341769e-38
-0.0063685863 0.038919054 0.74300003 2.341769e-38
-0.0049533253 0.038919035 0.74300003 2.341769e-38
-0.0035380928 0.038919047 0.74300003 2.341769e-38
-0.0021200089 0.038866676 0.74199998 2.341769e-38
-0.00070668041 0.038866669 0.74199998 2.341768e-38
0.00070664723 0.038866673 0.74199998 2.2863069e-38
0.0021199898 0.038866673 0.74199998 2.2218796e-38
0.0035333175 0.038866673 0.74199998 2.2680854e-38
0.0049333223 0.038761891 0.74000001 2.3142183e-38
0.0063428408 0.038761903 0.74000001 2.3234019e-38
0.0077419062 0.03870951 0.73900002 2.341769e-38
0.0091495216 0.038709529 0.73900002 2.341769e-38
0.010557136 0.038709514 0.73899996 2.341769e-38
0.011964751 0.038709532 0.73899996 2.341769e-38
0.013372364 0.038709518 0.73899996 2.341769e-38
0.014839986 0.038866665 0.74199998 2.341769e-38
0.016253328 0.038866669 0.74199998 2.341769e-38
0.017666655 0.038866669 0.74199998 2.341769e-38
0.019079981 0.038866669 0.74199998 2.341769e-38
0.020493325 0.038866669 0.74199998 2.341769e-38
0.021906657 0.038866676 0.74199998 2.341769e-38
0.023319999 0.038866673 0.74199998 2.341769e-38
0.024766663 0.038919047 0.74300003 2.341769e-38
0.026181893 0.038919043 0.74300003 2.341769e-38
0.027671408 0.039023813 0.745 2.341769e-38
0.029207597 0.039180957 0.74799997 2.341769e-38
0.030632379 0.039180949 0.74800003 2.341769e-38
0.032142866 0.039285686 0.75000006 2.341769e-38
0.033571422 0.039285697 0.75000006 2.341769e-38
0.034999996 0.039285704 0.75000006 2.341769e-38
0.036428574 0.039285697 0.75000006 2.341769e-38
0.037958097 0.039390478 0.75200003 2.2497183e-38
0.039442867 0.039442845 0.75300002 2.1664198e-38
0.040985715 0.039547622 0.75500005 1.8995577e-38
0.042592395 0.039704755 0.75800002 1.6329477e-38
0.04415239 0.039809529 0.76000005 1.641593e-38
0.045660011 0.039861903 0.76100004 1.6507035e-38
0.047233328 0.039966654 0.76300001 1.6507381e-38
-0.032785743 0.041528586 0.76500005 1.3555276e-38
-0.031246686 0.04141999 0.76300001 1.3090731e-38
-0.029676182 0.041257136 0.76000005 1.2549787e-38
-0.028228564 0.041257136 0.76000005 1.3281985e-38
-0.026780946 0.041257132 0.76000005 1.4022771e-38
-0.025266645 0.041148569 0.75800002 1.6319379e-38
-0.023822857 0.041148581 0.75799996 1.8629649e-38
-0.022290489 0.040985707 0.755 2.0289898e-38
-0.020852393 0.040985711 0.755 2.1943289e-38
-0.019362867 0.040877122 0.75300002 2.15702e-38
-0.01785714 0.040714271 0.75000006 2.1207884e-38
-0.016428597 0.040714271 0.75000006 2.1851096e-38
-0.01496002 0.040605716 0.74800003 2.2497177e-38
-0.013517153 0.040551417 0.74699998 2.2958513e-38
-0.012094301 0.040551428 0.74700004 2.341769e-38
-0.010671423 0.040551405 0.74700004 2.341769e-38
-0.0092238309 0.040442858 0.745 2.341769e-38
-0.0078047621 0.040442854 0.745 2.341769e-38
-0.0063685779 0.040334281 0.74300003 2.341769e-38
-0.0049533448 0.040334288 0.74300003 2.341769e-38
-0.0035380984 0.040334284 0.74300003 2.341769e-38
-0.0021200173 0.040280014 0.74199998 2.341769e-38
-0.00070668879 0.040280014 0.74199998 2.3416967e-38
0.00070665189 0.040280014 0.74199998 2.2955633e-38
0.0021199815 0.040280003 0.74199998 2.2404621e-38
0.003533324 0.040279996 0.74199998 2.2587936e-38
0.0049466514 0.040280011 0.74199998 2.2771969e-38
0.006359979 0.040279992 0.74199998 2.3050348e-38
0.0077418941 0.040117141 0.73899996 2.3325854e-38
0.0091495095 0.040117145 0.73899996 2.3325496e-38
0.010557145 0.040117137 0.73900002 2.3325854e-38
0.011980951 0.040171415 0.74000001 2.341769e-38
0.01342665 0.040280003 0.74199998 2.341769e-38
0.014839993 0.040280003 0.74199998 2.341769e-38
0.016253321 0.040280003 0.74199998 2.341769e-38
0.017666647 0.040279999 0.74199998 2.341769e-38
0.019079989 0.040280007 0.74199998 2.341769e-38
0.020493316 0.040280007 0.74199998 2.341769e-38
0.021906657 0.040280007 0.74199998 2.341769e-38
0.023319988 0.040280007 0.74199998 2.341769e-38
0.024766659 0.040334277 0.74300003 2.341769e-38
0.026181908 0.040334281 0.74300003 2.341769e-38
0.027597139 0.040334277 0.74300003 2.341769e-38
0.029207604 0.040605716 0.74799997 2.341769e-38
0.030714301 0.040714275 0.75000012 2.341769e-38
0.032142863 0.04071426 0.75000006 2.341769e-38
0.033571422 0.040714271 0.75000006 2.341769e-38
0.035093326 0.04082286 0.75200003 2.341769e-38
0.036525704 0.040822856 0.75199997 2.341769e-38
0.038008586 0.040877126 0.75300002 2.2774842e-38
0.039442871 0.040877126 0.75300002 2.2032246e-38
0.040985703 0.040985715 0.755 1.9270706e-38
0.042592388 0.041148573 0.75800002 1.6510255e-38
0.044152394 0.041257128 0.76000005 1.6597064e-38
0.045779992 0.041419983 0.76300001 1.6692131e-38
0.047233332 0.04141999 0.76300001 1.6879753e-38
-0.032785736 0.042985726 0.76499999 1.5303715e-38
-0.031246683 0.042873316 0.76300001 1.5488095e-38
-0.029793344 0.042873319 0.76300001 1.5578185e-38
-0.0282657 0.042760946 0.76100004 1.613319e-38
-0.026780961 0.04270475 0.76000005 1.6677006e-38
-0.025266668 0.04259238 0.75800002 1.7790846e-38
-0.023822857 0.04259238 0.75800002 1.8900464e-38
-0.02231998 0.042479996 0.75600004 2.0747994e-38
-0.020852385 0.042423815 0.75500005 2.2587208e-38
-0.019362837 0.042311404 0.75300002 2.1940047e-38
-0.017904792 0.042255245 0.75199997 2.1392271e-38
-0.016428564 0.042142842 0.75000012 2.2037279e-38
-0.01499999 0.042142846 0.75000006 2.2683002e-38
-0.01353523 0.042030472 0.74800003 2.3050348e-38
-0.012094285 0.041974269 0.74700004 2.3325854e-38
-0.010671455 0.04197428 0.74700004 2.341769e-38
-0.0092238234 0.041861899 0.74500006 2.341769e-38
-0.0078047537 0.041861892 0.74500006 2.341769e-38
-0.006385732 0.041861907 0.745 2.341769e-38
-0.0049533364 0.041749515 0.74300003 2.341769e-38
-0.003538104 0.041749522 0.74300003 2.341769e-38
-0.0021199922 0.041693334 0.74200004 2.341769e-38
-0.00070668507 0.04169333 0.74199998 2.341769e-38
0.00070664351 0.041693352 0.74199998 2.3141466e-38
0.0021199852 0.041693334 0.74199998 2.2958507e-38
0.0035333147 0.041693334 0.74199998 2.3047466e-38
0.0049466561 0.041693334 0.74199998 2.313321e-38
0.0063599856 0.041693334 0.74199998 2.3231867e-38
0.0077733132 0.04169333 0.74199998 2.341769e-38
0.0091618905 0.041580956 0.74000001 2.341769e-38
0.010557133 0.04152476 0.73899996 2.341769e-38
0.011980942 0.04158096 0.74000001 2.341769e-38
0.013426656 0.041693337 0.74199998 2.341769e-38
0.014839984 0.041693334 0.74199998 2.341769e-38
0.016253324 0.041693341 0.74199998 2.341769e-38
0.017666655 0.041693341 0.74199998 2.341769e-38
0.019105716 0.041749515 0.74300003 2.341769e-38
0.020493323 0.041693322 0.74199998 2.341769e-38
0.021906652 0.041693345 0.74199998 2.341769e-38
0.02335144 0.041749518 0.74300003 2.341769e-38
0.024766656 0.041749511 0.74300003 2.341769e-38
0.026181886 0.041749526 0.74300003 2.341769e-38
0.02767144 0.041861903 0.74500006 2.341769e-38
0.029207608 0.042030476 0.74799997 2.341769e-38
0.030714288 0.042142835 0.75000006 2.341769e-38
0.032142863 0.042142838 0.75000006 2.341769e-38
0.033571422 0.042142849 0.75000006 2.341769e-38
0.035093319 0.042255245 0.75199997 2.341769e-38
0.0365257 0.042255245 0.75199997 2.341769e-38
0.038008582 0.042311415 0.75300002 2.2497183e-38
0.039547618 0.042423818 0.755 2.1572341e-38
0.041040022 0.042479981 0.75600004 1.8901908e-38
0.04259238 0.042592388 0.75799996 1.6231855e-38
0.044152401 0.04270475 0.76000005 1.6140013e-38
0.045779996 0.042873323 0.76300001 1.6049633e-38
0.047233339 0.042873316 0.76300001 1.6418071e-38
-0.032785729 0.044442855 0.76500005 1.705326e-38
-0.031328581 0.044442862 0.76500005 1.7887344e-38
-0.029793343 0.044326659 0.76300001 1.8622063e-38
-0.02834001 0.044326659 0.76300001 1.8995897e-38
-0.0268162 0.044210482 0.76100004 1.9358204e-38
-0.02533333 0.044152372 0.76000005 1.9267072e-38
-0.023822851 0.044036184 0.75800002 1.9182809e-38
-0.022319982 0.043919995 0.75600004 2.1213634e-38
-0.020852402 0.0438619 0.75500005 2.313786e-38
-0.019362856 0.043745704 0.75300002 2.230236e-38
-0.017904779 0.043687627 0.75200003 2.1482666e-38
-0.016428579 0.043571405 0.75000006 2.2222384e-38
-0.015000006 0.04357142 0.75000006 2.2864878e-38
-0.013535226 0.043455221 0.74800003 2.3049988e-38
-0.012094298 0.043397125 0.74700004 2.3233659e-38
-0.01067144 0.04339714 0.74700004 2.3325853e-38
-0.0092485882 0.043397132 0.74700004 2.341769e-38
-0.0078047658 0.043280959 0.745 2.341769e-38
-0.0063857236 0.043280952 0.74500006 2.341769e-38
-0.0049666534 0.043280948 0.74500006 2.341769e-38
-0.0035380882 0.043164749 0.74300003 2.341769e-38
-0.0021200024 0.04310666 0.74200004 2.341769e-38
-0.00070667389 0.043106657 0.74200004 2.341769e-38
0.00070666865 0.043106657 0.74200004 2.341769e-38
0.0021199973 0.043106657 0.74200004 2.3417687e-38
0.0035333398 0.04310666 0.74200004 2.3417684e-38
0.0049466672 0.04310666 0.74200004 2.3415535e-38
0.0063599958 0.04310666 0.74200004 2.341769e-38
0.0077733384 0.043106668 0.74200004 2.341769e-38
0.009186646 0.043106668 0.74199998 2.341769e-38
0.010599989 0.043106668 0.74199998 2.341769e-38
0.012013318 0.043106668 0.74199998 2.341769e-38
0.013426646 0.043106675 0.74199998 2.341769e-38
0.014859997 0.04316476 0.74300003 2.341769e-38
0.016253315 0.043106657 0.74199998 2.341769e-38
0.017666658 0.043106671 0.74199998 2.341769e-38
0.019105708 0.04316476 0.74300003 2.341769e-38
