# .PCD v0.7 - Point Cloud Data file format
VERSION 0.7
FIELDS x y z rgb
SIZE 4 4 4 4
TYPE F F F F
COUNT 1 1 1 1
WIDTH 972
HEIGHT 1
VIEWPOINT 0 0 0 1 0 0 0
POINTS 972
DATA ascii
-0.038967621 0.052201919 0.77200007 1.0774968e-38
-0.037400007 0.052066661 0.7700001 1.124064e-38
-0.035840001 0.051931445 0.76800001 1.1798078e-38
-0.034242865 0.051728584 0.76500005 1.1887729e-38
-0.032700006 0.051593333 0.76300007 1.2075003e-38
-0.03124667 0.051593326 0.76300007 1.1332082e-38
-0.029793335 0.051593319 0.76300007 1.0594488e-38
-0.028340003 0.051593333 0.76300007 1.1326977e-38
-0.026886668 0.051593337 0.76300007 1.2060008e-38
-0.025266668 0.05125523 0.75800008 1.5393847e-38
-0.023760002 0.051119998 0.7560001 1.8805026e-38
-0.022290478 0.051052388 0.75500011 1.4194589e-38
-0.020880001 0.051120006 0.7560001 9.6975655e-39
-0.019362858 0.050917145 0.75300008 1.3387173e-38
-0.017857144 0.05071428 0.75000012 1.6989205e-38
-0.016428573 0.050714284 0.75000012 1.7992221e-38
-0.014960001 0.050579041 0.74800009 1.8909853e-38
-0.013571429 0.05071428 0.75000012 1.8631828e-38
-0.012110477 0.050579049 0.74800009 1.8366732e-38
-0.010685715 0.050579045 0.74800003 1.9100704e-38
-0.0092485724 0.05051142 0.7470001 1.9836106e-38
-0.0078257155 0.050511416 0.7470001 2.0844502e-38
-0.0064028576 0.050511427 0.7470001 2.1856487e-38
-0.0049666669 0.050376184 0.74500012 2.2131993e-38
-0.0035476193 0.050376181 0.74500006 2.2499335e-38
-0.0021200001 0.050173331 0.7420001 2.2866677e-38
-0.00070666673 0.050173331 0.7420001 2.3234019e-38
0.00070666673 0.050173346 0.7420001 2.3050348e-38
0.0021200001 0.050173339 0.7420001 2.2866673e-38
0.0035333338 0.050173324 0.7420001 2.1209325e-38
0.0049466668 0.050173342 0.7420001 1.9649561e-38
0.0063600005 0.050173335 0.7420001 2.1121085e-38
0.0077733342 0.050173335 0.7420001 2.2683006e-38
0.0091866683 0.05017335 0.74200004 2.0386401e-38
0.010600002 0.050173331 0.7420001 1.8183067e-38
0.012013335 0.050173331 0.7420001 1.93737e-38
0.013444763 0.050240949 0.74300009 2.0662625e-38
0.014860001 0.05024096 0.74300009 2.1672816e-38
0.016275238 0.050240956 0.74300003 2.277482e-38
0.017690478 0.050240956 0.74300003 2.0553887e-38
0.019105716 0.050240953 0.74300009 1.8360977e-38
0.020520953 0.050240956 0.74300009 1.9546967e-38
0.021995239 0.050376177 0.74500012 2.0640262e-38
0.023477145 0.050511423 0.7470001 1.9614523e-38
0.024900002 0.050511435 0.7470001 1.8703791e-38
0.026322858 0.050511427 0.7470001 2.0464898e-38
0.027782859 0.050579049 0.74800003 2.2223796e-38
0.029207621 0.050579045 0.74800003 2.2496824e-38
0.03071429 0.05071428 0.75000012 2.2683006e-38
0.03227143 0.050917141 0.75300002 2.2496465e-38
0.033705715 0.050917152 0.75300002 2.2404609e-38
0.035233334 0.051052373 0.75500017 2.0831546e-38
0.036671426 0.051052373 0.75500011 1.9267128e-38
0.038160004 0.051119998 0.75600004 1.964094e-38
0.039704766 0.051255241 0.75800008 1.9925419e-38
0.041148573 0.051255248 0.75800002 1.9180334e-38
0.042704765 0.051390491 0.76000005 1.8433431e-38
0.044152383 0.051390477 0.76000011 1.7425728e-38
0.045660004 0.051458102 0.7610001 1.64177e-38
-0.034242861 0.053185727 0.76500005 1.0407613e-38
-0.032700006 0.05304667 0.76300007 1.0318309e-38
-0.031246671 0.053046666 0.76300007 9.5746772e-39
-0.02987143 0.053185727 0.76500005 8.8485776e-39
-0.028414287 0.05318572 0.76500005 9.1244176e-39
-0.026886668 0.053046651 0.76300013 9.4082408e-39
-0.025266668 0.052699056 0.75800002 1.3830402e-38
-0.023760002 0.05255999 0.7560001 1.8245724e-38
-0.022290476 0.05249048 0.75500011 1.7887035e-38
-0.020852383 0.052490469 0.75500011 1.7418552e-38
-0.019362859 0.052351434 0.75300008 1.4942961e-38
-0.017857144 0.052142862 0.75000012 1.2465571e-38
-0.016428573 0.052142859 0.75000012 1.541078e-38
-0.015000001 0.052142851 0.75000012 1.8264135e-38
-0.013571429 0.052142866 0.75000012 1.8634344e-38
-0.012110477 0.052003816 0.74800009 1.9005277e-38
-0.010685715 0.052003808 0.74800009 2.057079e-38
-0.0092485724 0.051934291 0.7470001 2.2039797e-38
-0.0078257145 0.051934287 0.7470001 2.1489142e-38
-0.0064028576 0.051934283 0.7470001 2.0844858e-38
-0.0049800002 0.051934283 0.7470001 2.1672813e-38
-0.0035476196 0.051795233 0.74500012 2.2406779e-38
-0.0021228574 0.051656194 0.74300003 2.2866674e-38
-0.00070666673 0.051586665 0.7420001 2.3234018e-38
0.00070666679 0.051586676 0.7420001 2.3234019e-38
0.0021200001 0.051586661 0.7420001 2.3142182e-38
0.0035333335 0.051586673 0.7420001 2.1948318e-38
0.0049466668 0.051586673 0.7420001 2.075374e-38
0.0063600009 0.051586669 0.7420001 2.1397308e-38
0.0077733342 0.051586654 0.7420001 2.1946167e-38
0.0091990484 0.051656194 0.74300003 1.7536985e-38
0.010614286 0.051656194 0.74300003 1.3124215e-38
0.012029525 0.051656187 0.74300003 1.5690944e-38
0.013444763 0.051656194 0.74300009 1.817445e-38
0.014860001 0.05165619 0.74300009 2.0295278e-38
0.01627524 0.051656201 0.74300003 2.2403179e-38
0.01769048 0.051656198 0.74300003 2.2774099e-38
0.019105718 0.051656187 0.74300009 2.3130296e-38
0.020576192 0.05179524 0.74500012 2.0911871e-38
0.022054287 0.051934283 0.7470001 1.8701305e-38
0.023477145 0.051934294 0.7470001 1.9065002e-38
0.024933334 0.052003808 0.74800009 1.9352424e-38
0.026358098 0.052003805 0.74800009 2.1397277e-38
0.027782859 0.052003816 0.74800009 2.3417673e-38
0.029285718 0.052142859 0.75000012 2.3142183e-38
0.030796193 0.052281905 0.75200003 2.2863447e-38
0.03227143 0.052351434 0.75300008 2.2123022e-38
0.033795241 0.052490462 0.75500017 2.1385788e-38
0.035233337 0.052490469 0.75500011 1.8796058e-38
0.036720004 0.052559994 0.7560001 1.6135363e-38
0.038260955 0.052699044 0.75800008 1.6320493e-38
0.039704766 0.052699041 0.75800008 1.641915e-38
0.041257147 0.052838106 0.76000005 1.613827e-38
0.042704765 0.052838095 0.76000005 1.5864544e-38
0.04432667 0.053046659 0.76300007 1.6325144e-38
0.046320003 0.053672392 0.77200007 1.6784328e-38
-0.034242865 0.054642871 0.7650001 1.1146256e-38
-0.032700002 0.054500006 0.76300007 1.1327442e-38
-0.031328578 0.05464286 0.76500005 1.1330696e-38
-0.02987143 0.054642871 0.76500005 1.1335351e-38
-0.028414287 0.054642867 0.76500005 1.1705555e-38
-0.026886668 0.054499988 0.76300007 1.2076477e-38
-0.02526667 0.054142859 0.75800008 1.3546555e-38
-0.023760002 0.053999998 0.7560001 1.5113953e-38
-0.022320002 0.05399999 0.7560001 1.6127467e-38
-0.020852383 0.053928562 0.75500011 1.7227696e-38
-0.019362858 0.053785712 0.75300008 1.4559799e-38
-0.017904762 0.053714275 0.75200009 1.1978752e-38
-0.016428573 0.053571429 0.75000012 1.3560435e-38
-0.015000001 0.053571429 0.75000012 1.5234281e-38
-0.013571429 0.053571429 0.75000012 1.5875694e-38
-0.012110477 0.053428564 0.74800009 1.6612892e-38
-0.010685715 0.053428564 0.74800009 1.6890195e-38
-0.0092485724 0.053357147 0.7470001 1.7262557e-38
-0.0078257145 0.053357139 0.7470001 1.8085843e-38
-0.0064028576 0.053357139 0.7470001 1.8911647e-38
-0.0049800002 0.053357143 0.7470001 1.9463377e-38
-0.0035476196 0.053214282 0.74500006 2.0016184e-38
-0.0021228574 0.053071432 0.74300003 2.0475361e-38
-0.00070761907 0.053071436 0.74300003 2.0846293e-38
0.00070666679 0.052999996 0.7420001 2.1028532e-38
0.0021200001 0.052999996 0.7420001 2.1213638e-38
0.0035333335 0.053000003 0.7420001 2.0753743e-38
0.0049466672 0.053000007 0.7420001 2.0294923e-38
0.0063600009 0.053000003 0.7420001 2.0475721e-38
0.0077733342 0.052999999 0.7420001 2.0749074e-38
0.0091990484 0.053071439 0.74300009 1.8450673e-38
0.010614287 0.053071436 0.74300003 1.6238366e-38
0.012029526 0.053071432 0.74300003 1.6237284e-38
0.013444764 0.053071436 0.74300009 1.6140429e-38
0.014860002 0.053071432 0.74300009 1.8164041e-38
0.016275238 0.053071428 0.74300003 2.0186935e-38
0.017690478 0.053071428 0.74300003 2.009797e-38
0.019105716 0.053071424 0.74300009 2.009611e-38
0.020576192 0.053214278 0.74500012 1.7592447e-38
0.022054287 0.053357136 0.7470001 1.5014605e-38
0.023508573 0.053428575 0.74800003 1.5378725e-38
0.024933334 0.05342856 0.74800009 1.5855905e-38
0.026358098 0.053428572 0.74800009 1.9641673e-38
0.027782859 0.053428568 0.74800009 2.341769e-38
0.029285718 0.053571429 0.75000012 2.3324778e-38
0.030796194 0.053714298 0.75200003 2.3137517e-38
0.032357145 0.053928562 0.75500017 2.2770531e-38
0.033795241 0.053928569 0.75500011 2.240313e-38
0.035280004 0.05399999 0.7560001 1.8798887e-38
0.036817145 0.054142863 0.75800008 1.5116891e-38
0.038260955 0.054142859 0.75800008 1.5952054e-38
0.039704766 0.054142866 0.75800008 1.6781812e-38
0.041311432 0.05435716 0.7610001 1.6692137e-38
0.042873338 0.054500002 0.76300007 1.6510617e-38
0.04432667 0.054499995 0.76300007 1.6693209e-38
0.046320003 0.055142865 0.77200007 1.696585e-38
-0.034242865 0.056100015 0.76500005 1.1796299e-38
-0.032785721 0.056100011 0.7650001 1.2346965e-38
-0.031410482 0.056246657 0.76700008 1.3084891e-38
-0.02987143 0.056100015 0.7650001 1.3728091e-38
-0.028414287 0.056100011 0.7650001 1.4194077e-38
-0.026886668 0.055953339 0.76300007 1.4645727e-38
-0.025266668 0.05558667 0.75800008 1.3257081e-38
-0.023822859 0.05558667 0.75800002 1.1887129e-38
-0.02232 0.055439997 0.7560001 1.4463952e-38
-0.020852381 0.055366658 0.75500011 1.7037871e-38
-0.019362858 0.055220012 0.75300008 1.4273494e-38
-0.017904762 0.055146687 0.75200003 1.1432379e-38
-0.016472382 0.055146664 0.75200009 1.1801561e-38
-0.015000001 0.055 0.75000012 1.2098597e-38
-0.013571429 0.054999996 0.75000012 1.3204574e-38
-0.012110477 0.054853328 0.74800003 1.4220146e-38
-0.010685715 0.054853331 0.74800009 1.3298203e-38
-0.0092485724 0.054780003 0.7470001 1.2384868e-38
-0.0078257145 0.054779999 0.7470001 1.4680394e-38
-0.0064028576 0.054779995 0.7470001 1.6886236e-38
-0.0049800002 0.054779995 0.7470001 1.7252141e-38
-0.0035476196 0.054633331 0.74500012 1.7623073e-38
-0.0021228576 0.054486662 0.74300003 1.8080101e-38
-0.00070761907 0.054486677 0.74300003 1.8452106e-38
0.00070666673 0.054413341 0.7420001 1.8820167e-38
0.0021200001 0.054413337 0.7420001 1.9189303e-38
0.0035333335 0.054413337 0.7420001 1.9465885e-38
0.0049466672 0.054413337 0.7420001 1.9739956e-38
0.0063600009 0.054413337 0.7420001 1.9645608e-38
0.0077733342 0.054413334 0.7420001 1.9462654e-38
0.0091990493 0.05448667 0.74300009 1.9461938e-38
0.010614287 0.054486677 0.74300003 1.9365077e-38
0.012029526 0.054486677 0.74300003 1.6787941e-38
0.013444764 0.054486666 0.74300009 1.4118238e-38
0.014860002 0.054486658 0.74300009 1.6033852e-38
0.016275238 0.054486673 0.74300003 1.7884886e-38
0.017738096 0.054633331 0.74500012 1.7518235e-38
0.019157143 0.054633327 0.74500012 1.7035004e-38
0.020576192 0.054633327 0.74500012 1.416405e-38
0.022054285 0.054779995 0.7470001 1.1327176e-38
0.023508573 0.054853342 0.74800003 1.1763018e-38
0.024933334 0.054853339 0.74800003 1.226533e-38
0.026358098 0.054853324 0.74800009 1.7896081e-38
0.027857145 0.055000003 0.75000012 2.341482e-38
0.029285716 0.055000003 0.75000006 2.341769e-38
0.030796194 0.055146664 0.75200003 2.3416612e-38
0.032357141 0.055366661 0.75500011 2.3417687e-38
0.033840001 0.05543999 0.7560001 2.3407233e-38
0.035373334 0.055586677 0.75800008 1.8787786e-38
0.036914289 0.055733342 0.76000005 1.4107789e-38
0.038361907 0.055733338 0.76000005 1.56805e-38
0.039809525 0.055733345 0.76000005 1.7152745e-38
0.041311432 0.055806674 0.7610001 1.7154547e-38
0.042760957 0.055806674 0.7610001 1.7154912e-38
0.04432667 0.05595332 0.76300007 1.7155275e-38
0.046200003 0.056466658 0.7700001 1.7062359e-38
-0.034242861 0.057557158 0.76500005 1.1522247e-38
-0.032785717 0.057557166 0.76500005 1.2811531e-38
-0.03145143 0.057782874 0.76800001 1.2901571e-38
-0.029949527 0.057707619 0.76700008 1.3083443e-38
-0.028414289 0.057557151 0.7650001 1.2899767e-38
-0.026886666 0.057406671 0.76300007 1.2809744e-38
-0.025333336 0.05718096 0.76000005 1.2157946e-38
-0.023822859 0.057030484 0.75800008 1.150864e-38
-0.022320002 0.05687999 0.7560001 1.3358264e-38
-0.020852385 0.056804754 0.75500011 1.5114652e-38
-0.019414289 0.056804761 0.75500011 1.5020339e-38
-0.017904764 0.05657905 0.75200003 1.5022909e-38
-0.016472384 0.056579046 0.75200003 1.456917e-38
-0.015000001 0.056428574 0.75000012 1.4215114e-38
-0.013571429 0.056428585 0.75000012 1.5320379e-38
-0.012142858 0.05642857 0.75000012 1.6336665e-38
-0.010714286 0.056428567 0.75000012 1.5689509e-38
-0.0092609534 0.056278095 0.74800009 1.5042712e-38
-0.0078361919 0.056278091 0.74800009 1.6331635e-38
-0.0064028576 0.056202851 0.7470001 1.7527643e-38
-0.0049800002 0.05620287 0.7470001 1.7894979e-38
-0.0035571433 0.056202851 0.7470001 1.8266273e-38
-0.0021228576 0.055901904 0.74300003 1.8541784e-38
-0.00070761907 0.055901922 0.74300003 1.881729e-38
0.00070761907 0.055901907 0.74300009 1.9002395e-38
0.0021228574 0.055901904 0.74300009 1.9277542e-38
0.0035380954 0.0559019 0.74300003 1.9370811e-38
0.0049533341 0.055901915 0.74300003 1.9461212e-38
0.0063685724 0.0559019 0.74300009 1.9553765e-38
0.0077838106 0.055901911 0.74300009 1.9554844e-38
0.0091990493 0.055901911 0.74300009 1.8910922e-38
0.010614287 0.055901904 0.74300003 1.8268432e-38
0.012029526 0.055901904 0.74300003 1.8077585e-38
0.013444764 0.055901907 0.74300009 1.7887422e-38
0.014900001 0.056052372 0.74500012 1.8528799e-38
0.01627524 0.055901915 0.74300003 1.9178052e-38
0.017738096 0.056052379 0.74500006 1.7869701e-38
0.019157143 0.056052364 0.74500012 1.6545652e-38
0.020631431 0.056202855 0.7470001 1.398541e-38
0.022083811 0.056278083 0.74800009 1.1437649e-38
0.023508573 0.056278098 0.74800009 1.4001823e-38
0.024933334 0.056278091 0.74800003 1.6494404e-38
0.026358098 0.056278106 0.74800003 2.0007937e-38
0.027857145 0.056428567 0.75000012 2.341769e-38
0.029285716 0.056428563 0.75000012 2.341769e-38
0.030796193 0.056579042 0.75200003 2.341769e-38
0.03227143 0.056654289 0.75300008 2.341769e-38
0.033839997 0.056880008 0.75600004 2.3417648e-38
0.03537333 0.057030477 0.75800008 1.8704221e-38
0.036914285 0.057180949 0.76000005 1.4009152e-38
0.038361903 0.057180956 0.76000005 1.5586159e-38
0.039861906 0.057256199 0.7610001 1.7156697e-38
0.041311432 0.057256192 0.7610001 1.7062716e-38
0.042873338 0.05740666 0.76300007 1.7064164e-38
0.04455905 0.057707615 0.76700008 1.6879428e-38
0.046080004 0.057782877 0.76800001 1.6789013e-38
-0.033000007 0.059400011 0.7700001 1.3268937e-38
-0.031451434 0.059245717 0.76800001 1.2810118e-38
-0.029949525 0.059168585 0.76700002 1.2346607e-38
-0.028414287 0.059014309 0.76500005 1.1604003e-38
-0.026957145 0.059014294 0.7650001 1.0872217e-38
-0.025333336 0.058628581 0.76000005 1.1056276e-38
-0.023822859 0.058474295 0.75800008 1.1148118e-38
-0.022320002 0.058319997 0.7560001 1.2161902e-38
-0.020880001 0.058319997 0.7560001 1.3181803e-38
-0.019414287 0.058242857 0.75500011 1.5854027e-38
-0.017904762 0.058011431 0.75200003 1.8520899e-38
-0.016472382 0.058011439 0.75200003 1.7420364e-38
-0.015000001 0.057857148 0.75000012 1.6326963e-38
-0.013571429 0.057857145 0.75000012 1.7433669e-38
-0.012142858 0.057857145 0.75000012 1.8447801e-38
-0.010714286 0.057857152 0.75000012 1.8080815e-38
-0.0092857145 0.057857152 0.75000012 1.7710245e-38
-0.0078361919 0.057702843 0.74800009 1.7983958e-38
-0.006411429 0.057702854 0.74800009 1.8170854e-38
-0.0049866671 0.057702851 0.74800009 1.8533173e-38
-0.0035619051 0.057702865 0.74800009 1.8909126e-38
-0.0021228574 0.057317149 0.74300003 1.9003116e-38
-0.00070761907 0.057317149 0.74300003 1.9094952e-38
0.00070761907 0.057317138 0.74300009 1.9186429e-38
0.0021228576 0.057317145 0.74300009 1.9278264e-38
0.0035380956 0.057317145 0.74300003 1.9277905e-38
0.0049533341 0.057317156 0.74300003 1.918607e-38
0.0063685724 0.057317145 0.74300009 1.9460859e-38
0.0077838106 0.057317141 0.74300009 1.9646325e-38
0.0092238104 0.057471413 0.74500012 1.8450673e-38
0.010642858 0.057471428 0.74500012 1.7163895e-38
0.012061905 0.057471424 0.74500012 1.9457626e-38
0.013480953 0.057471436 0.74500006 2.1659066e-38
0.014900001 0.057471421 0.74500012 2.1107233e-38
0.01631905 0.057471417 0.74500012 2.0454008e-38
0.017738096 0.057471417 0.74500012 1.8236351e-38
0.019157143 0.057471424 0.74500012 1.6016537e-38
0.020631431 0.057625707 0.7470001 1.3793855e-38
0.022083811 0.057702851 0.74800009 1.1523071e-38
0.023508573 0.057702847 0.74800009 1.6129186e-38
0.024933334 0.057702858 0.74800009 2.0737173e-38
0.026428573 0.057857141 0.75000012 2.2131993e-38
0.027857145 0.057857152 0.75000012 2.341769e-38
0.029363811 0.058011431 0.75200003 2.341769e-38
0.030796193 0.058011428 0.75200003 2.341769e-38
0.03227143 0.058088575 0.75300002 2.341769e-38
0.033840001 0.058320001 0.75600004 2.3315772e-38
0.035373334 0.058474287 0.75800008 1.8602348e-38
0.036962859 0.058705721 0.7610001 1.3921973e-38
0.038412385 0.058705717 0.7610001 1.558937e-38
0.039861906 0.058705725 0.7610001 1.7152014e-38
0.041420002 0.058859989 0.76300007 1.7058749e-38
0.042873338 0.058859996 0.76300007 1.6875445e-38
0.04455905 0.059168577 0.76700002 1.6692143e-38
0.046080004 0.059245728 0.76800007 1.6505928e-38
-0.034556195 0.061024766 0.77200007 9.5854953e-39
-0.033000007 0.060866676 0.77000004 1.1063473e-38
-0.03145143 0.060708579 0.76800001 1.0969126e-38
-0.029949527 0.060629521 0.76700008 1.0878315e-38
-0.028414287 0.060471438 0.76500005 1.0594147e-38
-0.026957145 0.060471449 0.76500005 1.0315093e-38
-0.025433335 0.060313333 0.76300007 1.0410913e-38
-0.023822859 0.059918098 0.75800008 1.0507784e-38
-0.022320002 0.059760004 0.75600004 1.1610898e-38
-0.020880001 0.059759986 0.7560001 1.2810159e-38
-0.019414287 0.059680957 0.75500011 1.4938894e-38
-0.017904762 0.059443809 0.75200003 1.7153044e-38
-0.016472382 0.059443802 0.75200003 1.6878665e-38
-0.015040002 0.059443817 0.75200003 1.6697168e-38
-0.013607621 0.059443809 0.75200003 1.798683e-38
-0.012142858 0.059285715 0.75000012 1.9367947e-38
-0.010714286 0.059285726 0.75000012 1.8999884e-38
-0.0092857145 0.059285708 0.75000012 1.8723304e-38
-0.0078571439 0.059285723 0.75000012 1.9184636e-38
-0.0064114295 0.059127606 0.74800009 1.964812e-38
-0.0049866671 0.059127606 0.74800009 1.955485e-38
-0.0035619051 0.059127614 0.74800009 1.9558796e-38
-0.0021285717 0.058890466 0.74500012 1.937333e-38
-0.00070761907 0.058732394 0.74300003 1.9280419e-38
0.00070761913 0.058732379 0.74300009 1.9923628e-38
0.0021228574 0.05873239 0.74300009 2.0656877e-38
0.0035380954 0.058732387 0.74300003 1.992291e-38
0.0049533336 0.058732387 0.74300003 1.9186433e-38
0.0063685719 0.058732372 0.74300009 1.9555568e-38
0.0078047635 0.058890481 0.74500012 2.0016541e-38
0.0092238104 0.058890473 0.74500012 1.9555213e-38
0.010642858 0.058890473 0.74500006 1.9090647e-38
0.012061905 0.058890462 0.74500012 2.019446e-38
0.013480953 0.058890473 0.74500012 2.1388154e-38
0.014900001 0.058890469 0.74500012 2.1104229e-38
0.01631905 0.058890481 0.74500012 2.0905956e-38
0.017785715 0.059048556 0.7470001 1.7420617e-38
0.019208573 0.059048571 0.7470001 1.4020926e-38
0.020631431 0.059048563 0.7470001 1.2154815e-38
0.022083813 0.059127614 0.74800003 1.0333559e-38
0.023508575 0.059127614 0.74800009 1.6230429e-38
0.024933336 0.059127614 0.74800009 2.2131965e-38
0.026428575 0.059285711 0.75000012 2.2774842e-38
0.027857147 0.059285726 0.75000012 2.341769e-38
0.029363813 0.059443809 0.75200009 2.3325854e-38
0.030796194 0.059443805 0.75200003 2.3234019e-38
0.032357141 0.059680961 0.75500011 2.2773048e-38
0.033840001 0.059760004 0.75600004 2.2407464e-38
0.035373334 0.059918091 0.75800008 1.7964887e-38
0.036962859 0.060155239 0.7610001 1.3547451e-38
0.038412385 0.060155246 0.7610001 1.4939686e-38
0.039861906 0.060155246 0.7610001 1.6415516e-38
0.041420002 0.060313322 0.76300007 1.6136068e-38
0.042873338 0.060313337 0.76300007 1.5951327e-38
0.04455905 0.060629517 0.76700008 1.640764e-38
0.046080008 0.060708575 0.76800007 1.6866411e-38
-0.034556195 0.062495254 0.77200007 8.0152422e-39
-0.033000004 0.062333342 0.7700001 8.7553254e-39
-0.03145143 0.062171441 0.76800001 9.0326438e-39
-0.029949525 0.062090483 0.76700008 9.3074202e-39
-0.028414287 0.061928581 0.76500005 9.5796841e-39
-0.026957145 0.061928593 0.76500005 9.7630258e-39
-0.025366668 0.061604772 0.7610001 9.7648489e-39
-0.023822859 0.061361909 0.75800008 9.7670363e-39
-0.022320002 0.061199993 0.75600004 1.1055637e-38
-0.020880001 0.061200008 0.75600004 1.2361092e-38
-0.019414289 0.061119039 0.75500011 1.4030662e-38
-0.017928572 0.060957156 0.75300008 1.5687672e-38
-0.016472384 0.060876198 0.75200003 1.6335568e-38
-0.015040001 0.060876194 0.75200003 1.6979504e-38
-0.01360762 0.060876191 0.75200003 1.8632554e-38
-0.012175239 0.060876202 0.75200003 2.0196625e-38
-0.010714286 0.060714286 0.75000012 1.9919322e-38
-0.0092857145 0.060714282 0.75000012 1.9645612e-38
-0.0078571439 0.060714297 0.75000012 2.0382449e-38
-0.0064285719 0.06071429 0.75000012 2.1119645e-38
-0.0049866675 0.060552374 0.74800009 2.0662262e-38
-0.0035571433 0.060471434 0.7470001 2.0110529e-38
-0.0021342861 0.06047143 0.7470001 1.9742468e-38
-0.0007095238 0.060309526 0.74500012 1.9374769e-38
0.00070952391 0.060309511 0.74500012 2.0753738e-38
0.0021228574 0.060147617 0.74300009 2.2038358e-38
0.0035380954 0.060147617 0.74300003 2.0662262e-38
0.0049533341 0.060147628 0.74300003 1.919074e-38
0.0063857152 0.060309514 0.74500006 1.9742112e-38
0.0078047626 0.060309514 0.74500012 2.0293843e-38
0.0092485733 0.060471427 0.7470001 2.0662262e-38
0.01067143 0.060471423 0.7470001 2.0933818e-38
0.012061905 0.060309522 0.74500012 2.1024572e-38
0.013517145 0.06047143 0.7470001 2.1021262e-38
0.014940002 0.06047143 0.7470001 2.1199471e-38
0.016362859 0.060471416 0.7470001 2.1291e-38
0.017785715 0.060471427 0.7470001 1.6610311e-38
0.019208573 0.060471423 0.7470001 1.189116e-38
0.02065905 0.060552385 0.74800009 1.0470192e-38
0.022083813 0.060552381 0.74800003 9.1364618e-39
0.023508575 0.060552392 0.74800003 1.6327289e-38
0.025000004 0.06071429 0.75000012 2.3412281e-38
0.026428575 0.060714286 0.75000012 2.341769e-38
0.027857147 0.060714282 0.75000012 2.3417689e-38
0.029363811 0.060876202 0.75200003 2.3234016e-38
0.030837145 0.060957149 0.75300002 2.2949534e-38
0.032357141 0.061119042 0.75500011 2.2216997e-38
0.033840001 0.0612 0.75600004 2.1373221e-38
0.035373334 0.061361901 0.75800008 1.7209735e-38
0.036914289 0.061523806 0.76000011 1.3091485e-38
0.038412385 0.061604764 0.7610001 1.4390095e-38
0.039966669 0.061766665 0.76300007 1.5585391e-38
0.041420002 0.061766658 0.76300007 1.5301634e-38
0.042985719 0.061928593 0.76500005 1.4938568e-38
0.044617146 0.062171441 0.76800007 1.6120203e-38
0.046200007 0.062333342 0.77000004 1.723802e-38
-0.034556195 0.063965723 0.77200007 8.7480499e-39
-0.033000004 0.063799992 0.7700001 8.3793108e-39
-0.03145143 0.063634306 0.76800001 8.3832933e-39
-0.029949527 0.063551426 0.76700002 8.4730016e-39
-0.028414287 0.063385725 0.7650001 8.8418037e-39
-0.026957145 0.063385725 0.76500005 9.2084479e-39
-0.025366668 0.063054308 0.7610001 8.7482138e-39
-0.023885716 0.062971428 0.76000005 8.3827216e-39
-0.022379048 0.06280572 0.75800008 1.0141643e-38
-0.020879999 0.062639996 0.75600004 1.1823778e-38
-0.019439999 0.062639996 0.7560001 1.3756668e-38
-0.017928572 0.062391445 0.75300002 1.559804e-38
-0.016472382 0.062308561 0.75200003 1.7531965e-38
-0.015040002 0.062308576 0.75200003 1.9374416e-38
-0.013607621 0.062308572 0.75200003 2.0292413e-38
-0.01217524 0.062308583 0.75200003 2.1305472e-38
-0.010714285 0.06214286 0.75000012 2.0842706e-38
-0.0092857135 0.062142868 0.75000012 2.038353e-38
-0.0078571429 0.062142868 0.75000012 2.1027815e-38
-0.0064285723 0.062142853 0.75000012 2.1764651e-38
-0.0049866675 0.061977152 0.74800003 2.139695e-38
-0.0035571433 0.06189429 0.7470001 2.1029247e-38
-0.0021342861 0.06189429 0.7470001 2.0018336e-38
-0.0007095238 0.061728563 0.74500012 1.9099265e-38
0.0007114287 0.061894298 0.7470001 2.0570069e-38
0.0021228574 0.061562862 0.74300009 2.2131992e-38
0.0035476193 0.061728567 0.74500006 2.1488426e-38
0.0049666674 0.061728571 0.74500012 2.0844858e-38
0.0063857152 0.061728563 0.74500012 2.1212558e-38
0.0078047635 0.061728563 0.74500012 2.1580619e-38
0.0092485733 0.061894286 0.7470001 2.1856125e-38
0.01067143 0.061894283 0.7470001 2.2131629e-38
0.012094287 0.06189429 0.7470001 2.1945444e-38
0.013517145 0.06189429 0.7470001 2.1850025e-38
0.014940002 0.061894286 0.7470001 2.19433e-38
0.016362859 0.061894272 0.7470001 2.2040156e-38
0.017785715 0.061894283 0.7470001 1.6969113e-38
0.019234288 0.061977141 0.74800009 1.1881142e-38
0.02065905 0.061977137 0.74800009 1.2705797e-38
0.022083813 0.061977133 0.74800009 1.3557473e-38
0.023508575 0.061977148 0.74800003 1.8259782e-38
0.025000004 0.062142849 0.75000012 2.2955257e-38
0.026428575 0.06214286 0.75000012 2.3047478e-38
0.027857147 0.062142856 0.75000012 2.3234016e-38
0.029402861 0.062391426 0.75300008 2.3041733e-38
0.030837147 0.062391438 0.75300008 2.2837243e-38
0.032357145 0.062557153 0.75500011 2.1095942e-38
0.033840001 0.062639996 0.75600004 1.9342417e-38
0.035373334 0.062805727 0.75800008 1.768001e-38
0.036914289 0.062971428 0.76000011 1.6125984e-38
0.038412385 0.063054293 0.76100004 1.779481e-38
0.039966669 0.063219994 0.76300007 1.9540757e-38
0.041420002 0.063219979 0.76300007 1.9359233e-38
0.042985719 0.063385725 0.76500005 1.9177291e-38
0.044617146 0.063634299 0.76800007 1.9727163e-38
-0.036260001 0.065860003 0.77700007 1.0960423e-38
-0.034556195 0.065436199 0.77200007 9.4809542e-39
-0.033000004 0.065266676 0.77000004 7.9222955e-39
-0.031533334 0.065266669 0.77000004 7.8315699e-39
-0.029949525 0.06501238 0.76700008 7.6461206e-39
-0.028488573 0.06501238 0.76700008 8.1053135e-39
-0.026957145 0.06484288 0.7650001 8.5619967e-39
-0.025433335 0.064673327 0.76300007 7.8208737e-39
-0.023917144 0.064503819 0.7610001 7.0037542e-39
-0.022379048 0.06424953 0.75800008 9.1203483e-39
-0.020935239 0.06424953 0.75800008 1.1263446e-38
-0.019440001 0.06408 0.75600004 1.3390043e-38
-0.017928574 0.063825719 0.75300008 1.5506563e-38
-0.016472382 0.063740954 0.75200009 1.8636502e-38
-0.015040002 0.063740954 0.75200003 2.1762497e-38
-0.013607621 0.063740954 0.75200003 2.2040158e-38
-0.01217524 0.063740961 0.75200003 2.2315305e-38
-0.010742859 0.063740961 0.75200003 2.167102e-38
-0.0092857145 0.063571431 0.75000012 2.1027813e-38
-0.0078571439 0.063571423 0.75000012 2.1672814e-38
-0.0064285719 0.063571423 0.75000012 2.2314945e-38
-0.0050000004 0.063571438 0.75000012 2.2131993e-38
-0.0035571433 0.06331715 0.7470001 2.1855765e-38
-0.0021342859 0.063317142 0.7470001 2.0293482e-38
-0.00071142858 0.063317142 0.7470001 1.8731204e-38
0.00071142876 0.06331715 0.7470001 2.0478232e-38
0.0021285715 0.063147604 0.74500012 2.2131632e-38
0.0035476193 0.063147619 0.74500012 2.2314945e-38
0.0049800007 0.063317142 0.7470001 2.2406779e-38
0.0064028581 0.063317142 0.7470001 2.2591168e-38
0.0078257145 0.063317157 0.7470001 2.2774839e-38
0.0092485724 0.063317135 0.7470001 2.3050347e-38
0.01067143 0.06331715 0.7470001 2.3234016e-38
0.012094287 0.06331715 0.7470001 2.2958508e-38
0.013517145 0.063317142 0.7470001 2.2589734e-38
0.014940002 0.063317142 0.7470001 2.2683006e-38
0.016362859 0.063317142 0.7470001 2.2680132e-38
0.017809527 0.063401908 0.74800003 1.7252506e-38
0.019234288 0.063401908 0.74800003 1.1805825e-38
0.02065905 0.063401908 0.74800009 1.4914193e-38
0.022142861 0.063571423 0.75000012 1.7973135e-38
0.023571432 0.063571423 0.75000012 2.0198383e-38
0.025000004 0.063571423 0.75000012 2.2397777e-38
0.026428575 0.063571431 0.75000012 2.2766919e-38
0.027931433 0.063740969 0.75200003 2.3043874e-38
0.02940286 0.063825719 0.75300008 2.2861652e-38
0.030919051 0.063995235 0.75500011 2.2665394e-38
0.032357145 0.063995227 0.75500011 1.9987069e-38
0.033929527 0.064249516 0.75800008 1.7227678e-38
0.035373334 0.064249516 0.75800008 1.8224933e-38
0.036914289 0.064419046 0.76000011 1.9170923e-38
0.038412385 0.064503819 0.7610001 2.1305394e-38
0.039966669 0.064673327 0.76300007 2.3412581e-38
0.041637145 0.065012395 0.76700002 2.3417595e-38
0.0430981 0.065012395 0.76700002 2.3412892e-38
0.044617146 0.065097146 0.76800001 2.3414646e-38
-0.036353339 0.067513332 0.7790001 1.17023e-38
-0.034556195 0.066906676 0.77200001 1.0684155e-38
-0.033000004 0.066733345 0.7700001 9.6700496e-39
-0.031533334 0.066733338 0.7700001 8.1006248e-39
-0.029949525 0.066473335 0.76700008 6.6334162e-39
-0.028488573 0.066473335 0.76700008 8.5648371e-39
-0.02702762 0.066473335 0.76700008 1.0490528e-38
-0.025500001 0.066300005 0.7650001 1.0126429e-38
-0.023917144 0.065953344 0.76100004 9.7627651e-39
-0.022379048 0.065693334 0.75800008 1.1062542e-38
-0.020935239 0.065693334 0.75800008 1.2464132e-38
-0.019440001 0.065519996 0.75600004 1.3750928e-38
-0.017928572 0.065260001 0.75300008 1.513671e-38
-0.016472384 0.065173328 0.75200009 1.6975929e-38
-0.015040001 0.065173328 0.75200009 1.8825196e-38
-0.01360762 0.065173343 0.75200003 1.937083e-38
-0.012175239 0.065173343 0.75200003 1.9927941e-38
-0.010714286 0.065000013 0.75000012 2.0197349e-38
-0.0092857145 0.064999998 0.75000012 2.056756e-38
-0.0078571439 0.064999998 0.75000012 2.1211124e-38
-0.0064285723 0.065000013 0.75000012 2.1853257e-38
-0.0050000004 0.065000013 0.75000012 2.1763932e-38
-0.003557143 0.064740002 0.7470001 2.1764647e-38
-0.0021342859 0.064740002 0.7470001 2.056827e-38
-0.00071142858 0.064739995 0.7470001 1.9369388e-38
0.00071142876 0.064739987 0.7470001 2.0752301e-38
0.0021285715 0.064566672 0.74500012 2.2223824e-38
0.0035476193 0.064566672 0.74500006 2.2407139e-38
0.0049666674 0.064566657 0.74500012 2.259081e-38
0.0064028576 0.064740002 0.7470001 2.2683003e-38
0.0078257145 0.064739987 0.7470001 2.2682646e-38
0.0092485724 0.064740002 0.7470001 2.2774842e-38
0.010671429 0.064739987 0.7470001 2.2774842e-38
0.012110477 0.064826652 0.74800003 2.2591171e-38
0.013535239 0.064826667 0.74800003 2.24075e-38
0.014960001 0.064826667 0.74800009 2.1764292e-38
0.016384766 0.064826667 0.74800009 2.1213631e-38
0.017809527 0.064826667 0.74800009 1.7426845e-38
0.019234288 0.064826652 0.74800003 1.3736181e-38
0.02065905 0.064826652 0.74800003 1.6498752e-38
0.022142859 0.064999998 0.75000012 1.9365041e-38
0.02357143 0.064999998 0.75000012 1.9821007e-38
0.025000002 0.065000005 0.75000012 2.0271918e-38
0.02649905 0.065173328 0.75200009 1.9715508e-38
0.027931431 0.065173328 0.75200003 1.927143e-38
0.029480955 0.065433338 0.75500011 2.0837328e-38
0.030919051 0.065433338 0.75500017 2.24957e-38
0.032400001 0.065519996 0.7560001 2.0919023e-38
0.033929527 0.065693349 0.75800008 1.9345623e-38
0.035466667 0.065866679 0.76000005 1.971691e-38
0.036962859 0.065953329 0.7610001 2.0200503e-38
0.038513336 0.066126667 0.76300007 2.1855717e-38
0.040071432 0.06630002 0.76500005 2.3417628e-38
0.041691434 0.066560015 0.76800007 2.3417258e-38
0.043154292 0.06656003 0.76800007 2.3417603e-38
0.044733338 0.066733345 0.7700001 2.3416153e-38
-0.036073338 0.068465739 0.77300006 1.2349475e-38
-0.034556191 0.068377152 0.77200001 1.1883089e-38
-0.033000007 0.068200022 0.77000004 1.1420667e-38
-0.031533338 0.068200015 0.77000004 8.4507042e-39
-0.029988576 0.068022877 0.76800001 5.5345712e-39
-0.028488573 0.067934304 0.76700002 9.0297053e-39
-0.027062861 0.068022877 0.76800001 1.2433724e-38
-0.025500001 0.067757159 0.76500005 1.2523055e-38
-0.023980001 0.067579992 0.76300007 1.2528131e-38
-0.022438098 0.06731429 0.76000005 1.3086729e-38
-0.020935239 0.067137137 0.75800008 1.3547733e-38
-0.01949143 0.067137152 0.75800008 1.4104517e-38
-0.018000001 0.066960014 0.75600004 1.4655906e-38
-0.016538097 0.066871434 0.75500011 1.5304511e-38
-0.015060002 0.066694304 0.75300008 1.5860183e-38
-0.013607621 0.066605709 0.75200003 1.6689568e-38
-0.01217524 0.066605724 0.75200003 1.7517538e-38
-0.010742859 0.066605717 0.75200003 1.8806481e-38
-0.0093104774 0.066605732 0.75200003 2.000575e-38
-0.0078571439 0.066428587 0.75000012 2.0658312e-38
-0.0064285723 0.066428587 0.75000012 2.1301521e-38
-0.0050000008 0.066428587 0.75000012 2.148914e-38
-0.0035619049 0.066251419 0.74800009 2.1671015e-38
-0.0021371429 0.066251427 0.74800003 2.0844853e-38
-0.00071142864 0.066162869 0.7470001 1.9924707e-38
0.0007114287 0.066162854 0.7470001 2.11218e-38
0.0021342859 0.066162869 0.7470001 2.2223827e-38
0.003557143 0.066162854 0.7470001 2.2499335e-38
0.0049800007 0.066162854 0.7470001 2.277484e-38
0.0064028581 0.066162854 0.7470001 2.2683005e-38
0.0078257145 0.066162854 0.7470001 2.2591171e-38
0.0092609534 0.066251427 0.74800009 2.2499335e-38
0.010685715 0.066251427 0.74800009 2.2314945e-38
0.012110477 0.066251427 0.74800009 2.2315661e-38
0.013535239 0.066251434 0.74800003 2.2219157e-38
0.014960001 0.066251442 0.74800003 2.0936681e-38
0.016384766 0.066251434 0.74800009 1.9631931e-38
0.017809527 0.066251427 0.74800009 1.75968e-38
0.019285716 0.066428579 0.75000012 1.557355e-38
0.020714287 0.066428579 0.75000012 1.8162525e-38
0.022142859 0.066428572 0.75000012 2.0737149e-38
0.02357143 0.066428587 0.75000012 1.9448585e-38
0.025000002 0.066428587 0.75000012 1.8048445e-38
0.026428573 0.066428572 0.75000012 1.6735118e-38
0.027968574 0.066694289 0.75300008 1.5393861e-38
0.029402861 0.066694297 0.75300008 1.8903383e-38
0.030919049 0.06687142 0.75500011 2.2308452e-38
0.032400001 0.066960007 0.7560001 2.184782e-38
0.033840001 0.066959992 0.7560001 2.1380369e-38
0.035373334 0.067137122 0.75800008 2.1279901e-38
0.036962859 0.067402869 0.76100004 2.1200652e-38
0.038513336 0.06758 0.76300007 2.2314907e-38
0.040071432 0.067757159 0.76500005 2.3416919e-38
0.041528575 0.067757159 0.76500005 2.341583e-38
0.043154292 0.068022877 0.76800001 2.3417265e-38
0.044733338 0.068200022 0.77000004 2.3417626e-38
-0.036073338 0.069938123 0.77300006 1.3366504e-38
-0.034556191 0.069847628 0.77200007 1.2911984e-38
-0.033000007 0.069666661 0.7700001 1.2463865e-38
-0.031533338 0.069666669 0.7700001 1.1616833e-38
-0.029988574 0.069485739 0.76800001 1.0789955e-38
-0.028488573 0.069395244 0.76700008 1.2538058e-38
-0.02702762 0.069395252 0.76700008 1.4294053e-38
-0.025433335 0.069033332 0.76300007 1.4007067e-38
-0.023980001 0.069033317 0.76300013 1.3729423e-38
-0.022467621 0.068852402 0.7610001 1.3262368e-38
-0.02099048 0.0687619 0.76000005 1.2789959e-38
-0.01949143 0.068580955 0.75800008 1.3255993e-38
-0.018000001 0.068400003 0.75600004 1.3709826e-38
-0.016560001 0.068399988 0.7560001 1.4549295e-38
-0.015060002 0.068128586 0.75300008 1.5468358e-38
-0.01360762 0.068038106 0.75200009 1.6031198e-38
-0.012175239 0.068038106 0.75200003 1.6482157e-38
-0.010742858 0.068038106 0.75200003 1.6772403e-38
-0.0093104765 0.068038091 0.75200003 1.714303e-38
-0.0078780958 0.068038106 0.75200003 1.8437393e-38
-0.0064285719 0.067857161 0.75000012 1.9827126e-38
-0.0050000004 0.067857154 0.75000012 1.8447804e-38
-0.0035619049 0.067676187 0.74800009 1.7166411e-38
-0.0021371429 0.067676187 0.74800009 1.6701851e-38
-0.00071142864 0.067585722 0.7470001 1.6342048e-38
0.0007114287 0.067585707 0.7470001 1.882161e-38
0.0021285715 0.067404754 0.74500012 2.1397309e-38
0.003557143 0.067585722 0.7470001 2.0932751e-38
0.0049800007 0.067585714 0.7470001 2.0387119e-38
0.0064028581 0.067585707 0.7470001 2.019699e-38
0.0078257155 0.067585707 0.7470001 2.0111612e-38
0.0092609534 0.067676201 0.74800003 1.9736378e-38
0.010685715 0.067676194 0.74800009 1.9374414e-38
0.012110477 0.067676187 0.74800009 1.8257319e-38
0.013535239 0.067676187 0.74800009 1.7155639e-38
0.014960001 0.067676201 0.74800003 1.595172e-38
0.016384766 0.067676194 0.74800003 1.464837e-38
0.017857144 0.067857154 0.75000012 1.509671e-38
0.019285716 0.067857154 0.75000012 1.5553405e-38
0.020714287 0.067857146 0.75000012 1.787838e-38
0.022142859 0.067857131 0.75000012 2.0186811e-38
0.023634287 0.068038106 0.75200003 1.8144176e-38
0.025066668 0.068038106 0.75200003 1.6105859e-38
0.026534287 0.068128578 0.75300008 1.6752653e-38
0.02804286 0.068309531 0.75500011 1.7410265e-38
0.029520003 0.068399996 0.75600004 2.0097584e-38
0.030960005 0.068399996 0.75600004 2.2680465e-38
0.032400001 0.068399996 0.7560001 2.0196252e-38
0.034019049 0.0687619 0.76000005 1.781279e-38
0.035466667 0.068761908 0.76000005 1.8251834e-38
0.036962859 0.068852395 0.7610001 1.8711771e-38
0.038513336 0.06903334 0.76300007 2.0648608e-38
0.040176194 0.069395244 0.76700008 2.2591127e-38
0.04169143 0.069485724 0.76800001 2.3048853e-38
0.043154288 0.069485717 0.76800001 2.3417647e-38
0.044733338 0.069666669 0.77000004 2.3417663e-38
-0.034556191 0.071318112 0.77200007 1.3934045e-38
-0.033000007 0.07113333 0.7700001 1.338337e-38
-0.031533338 0.071133338 0.7700001 1.4670841e-38
-0.029988576 0.070948593 0.76800001 1.5948283e-38
-0.028488575 0.070856191 0.76700008 1.6039038e-38
-0.02702762 0.070856199 0.76700008 1.6040458e-38
-0.025500001 0.070671432 0.76500005 1.5482254e-38
-0.023980001 0.07048665 0.76300007 1.4927651e-38
-0.022467621 0.07030192 0.7610001 1.3534692e-38
-0.02099048 0.070209526 0.76000005 1.2066749e-38
-0.01949143 0.070024773 0.75800008 1.2420091e-38
-0.017999999 0.069839999 0.75600004 1.2703164e-38
-0.016559999 0.069840007 0.75600004 1.3898136e-38
-0.015100001 0.069747619 0.75500011 1.5104219e-38
-0.013607621 0.06947048 0.75200003 1.5300471e-38
-0.01217524 0.06947048 0.75200009 1.5484874e-38
-0.010742858 0.06947048 0.75200003 1.4842038e-38
-0.0093104765 0.069470488 0.75200003 1.4203857e-38
-0.0078780958 0.069470488 0.75200003 1.6212045e-38
-0.0064285723 0.069285728 0.75000012 1.8254006e-38
-0.0050000008 0.069285728 0.75000012 1.5492539e-38
-0.0035619049 0.069100939 0.74800009 1.265354e-38
-0.0021371429 0.069100946 0.74800009 1.2637767e-38
-0.00071238092 0.069100946 0.74800009 1.2658932e-38
0.00071238104 0.069100946 0.74800003 1.6608219e-38
0.0021342859 0.069008574 0.7470001 2.0559644e-38
0.003557143 0.069008574 0.7470001 1.9263891e-38
0.0049800002 0.069008574 0.7470001 1.7984283e-38
0.0064028576 0.069008566 0.7470001 1.77902e-38
0.0078257155 0.069008566 0.7470001 1.7519656e-38
0.0092609534 0.069100946 0.74800003 1.6959257e-38
0.010685715 0.069100946 0.74800003 1.6304218e-38
0.012110477 0.069100946 0.74800009 1.4183041e-38
0.01357143 0.069285706 0.75000012 1.2070834e-38
0.014960001 0.069100946 0.74800009 1.0882005e-38
0.016428573 0.069285735 0.75000012 9.6680458e-39
0.017857144 0.069285728 0.75000012 1.2588476e-38
0.019285716 0.069285713 0.75000012 1.5567069e-38
0.020769527 0.06947048 0.75200009 1.7610804e-38
0.022201909 0.06947048 0.75200003 1.9622891e-38
0.023634288 0.06947048 0.75200003 1.6835856e-38
0.025100002 0.069562867 0.75300002 1.409374e-38
0.026604766 0.069747619 0.75500017 1.6759157e-38
0.028042858 0.069747619 0.75500011 1.9447175e-38
0.029520003 0.069840007 0.75600004 2.1304369e-38
0.030960005 0.069839999 0.75600004 2.3043821e-38
0.032485716 0.070024759 0.75800008 1.8627784e-38
0.034019046 0.070209518 0.76000005 1.4112383e-38
0.035466667 0.070209533 0.76000005 1.5202176e-38
0.037060004 0.070486672 0.76300013 1.6218165e-38
0.038614288 0.070671424 0.7650001 1.8976877e-38
0.040176194 0.070856191 0.76700002 2.1752761e-38
0.04169143 0.070948601 0.76800001 2.2587545e-38
0.043266669 0.071133338 0.7700001 2.3416935e-38
0.044849526 0.071318105 0.77200001 2.3417654e-38
-0.036073338 0.072882861 0.77300006 1.5042485e-38
-0.034556191 0.072788581 0.77200007 1.1911543e-38
-0.033000004 0.072600007 0.77000004 8.8831477e-39
-0.031533334 0.0726 0.77000004 1.1454923e-38
-0.029988574 0.072411448 0.76800007 1.411958e-38
-0.028488573 0.072317153 0.76700002 1.5404192e-38
-0.026957145 0.072128579 0.7650001 1.6693087e-38
-0.025500001 0.072128594 0.7650001 1.7333752e-38
-0.023980001 0.07193999 0.76300007 1.8066623e-38
-0.022467621 0.071751446 0.76100004 1.7327615e-38
-0.020990478 0.071657158 0.76000005 1.6593588e-38
-0.01949143 0.071468562 0.75800008 1.6488419e-38
-0.01804762 0.071468569 0.75800008 1.6477688e-38
-0.016560001 0.071280003 0.75600004 1.6023922e-38
-0.015120001 0.071280003 0.75600004 1.5566241e-38
-0.013661907 0.071185708 0.75500011 1.4659786e-38
-0.012175239 0.070902862 0.75200009 1.3753981e-38
-0.010742858 0.070902862 0.75200009 1.4214588e-38
-0.0093104765 0.070902854 0.75200003 1.4770576e-38
-0.0078780958 0.070902869 0.75200003 1.6789833e-38
-0.0064457152 0.070902877 0.75200003 1.8820723e-38
-0.0050000004 0.070714287 0.75000012 1.7897453e-38
-0.0035619049 0.070525721 0.74800003 1.7072391e-38
-0.0021371429 0.070525713 0.74800009 1.7069183e-38
-0.00071238098 0.070525713 0.74800009 1.7169267e-38
0.00071238104 0.070525713 0.74800009 1.9002745e-38
0.0021342859 0.070431434 0.7470001 2.0928397e-38
0.0035619049 0.070525721 0.74800003 2.0192253e-38
0.0049866671 0.070525721 0.74800009 1.9454681e-38
0.006411429 0.070525713 0.74800009 1.8809303e-38
0.007836191 0.070525713 0.74800009 1.8156292e-38
0.0092609534 0.070525713 0.74800009 1.7409292e-38
0.010685715 0.070525706 0.74800003 1.6629066e-38
0.012110477 0.070525721 0.74800003 1.5727229e-38
0.01357143 0.07071428 0.75000012 1.4787024e-38
0.015000002 0.070714295 0.75000012 1.481145e-38
0.016428575 0.070714302 0.75000012 1.4879308e-38
0.017857146 0.070714287 0.75000012 1.7125748e-38
0.019285718 0.070714287 0.75000012 1.9453607e-38
0.020769525 0.070902862 0.75200003 2.0373442e-38
0.022201907 0.070902862 0.75200009 2.1378536e-38
0.023665715 0.070997149 0.75300008 1.8517211e-38
0.025100002 0.070997164 0.75300008 1.5673968e-38
0.026604766 0.071185708 0.75500011 1.6503426e-38
0.028042858 0.071185708 0.75500011 1.7355074e-38
0.029520003 0.071280003 0.75600004 1.835775e-38
0.030960005 0.071279995 0.75600004 1.9460043e-38
0.032485716 0.071468577 0.75800008 1.7882247e-38
0.033929527 0.071468577 0.75800008 1.6193666e-38
0.035466667 0.071657166 0.76000005 1.6667881e-38
0.037060004 0.071940005 0.76300007 1.703279e-38
0.038614288 0.072128594 0.76500005 1.9069751e-38
0.040228575 0.072411448 0.76800001 2.1201741e-38
0.041800007 0.072600007 0.77000004 2.2219866e-38
0.043266673 0.072600022 0.77000004 2.3325822e-38
0.044849526 0.072788566 0.77200007 2.3233971e-38
-0.036073338 0.074355245 0.77300006 1.5683893e-38
-0.034466669 0.074066669 0.7700001 9.969629e-39
-0.033000004 0.074066676 0.7700001 4.2787359e-39
-0.031533334 0.074066669 0.7700001 8.3288626e-39
-0.029949527 0.073778108 0.76700002 1.2278523e-38
-0.028488575 0.073778108 0.76700008 1.4856391e-38
-0.026957145 0.073585734 0.76500005 1.7335941e-38
-0.025433335 0.07339333 0.76300007 1.9276675e-38
-0.023980001 0.073393323 0.76300007 2.1108735e-38
-0.022526668 0.073393337 0.76300007 2.1115207e-38
-0.021018097 0.073200956 0.76100004 2.1107285e-38
-0.019491432 0.072912395 0.75800008 2.0645927e-38
-0.018047621 0.07291238 0.75800008 2.0178506e-38
-0.016560001 0.072720006 0.75600004 1.8153467e-38
-0.015120001 0.072720006 0.75600004 1.6040543e-38
-0.013680001 0.072719991 0.7560001 1.401802e-38
-0.012223811 0.072623789 0.75500011 1.2013779e-38
-0.010757145 0.07243143 0.75300008 1.3675067e-38
-0.0093228584 0.07243143 0.75300008 1.5238765e-38
-0.0078780958 0.072335251 0.75200003 1.726451e-38
-0.0064457147 0.072335243 0.75200003 1.9283883e-38
-0.0050133336 0.072335243 0.75200003 2.0387056e-38
-0.0035714291 0.072142854 0.75000012 2.1395106e-38
-0.0021428575 0.072142869 0.75000012 2.1489108e-38
-0.00071238092 0.07195048 0.74800009 2.1580215e-38
0.00071428582 0.072142862 0.75000012 2.1489087e-38
0.0021371429 0.071950473 0.74800009 2.1302905e-38
0.0035619049 0.071950473 0.74800003 2.1121747e-38
0.0049866671 0.07195048 0.74800003 2.0934471e-38
0.006411429 0.071950465 0.74800009 1.9836016e-38
0.007836191 0.07195048 0.74800009 1.8723884e-38
0.0092609534 0.07195048 0.74800009 1.7892998e-38
0.010685715 0.07195048 0.74800009 1.7044593e-38
0.012110477 0.071950473 0.74800003 1.7309693e-38
0.01357143 0.072142869 0.75000012 1.7495895e-38
0.014960001 0.07195048 0.74800009 1.8789864e-38
0.016428575 0.072142869 0.75000012 2.0080254e-38
0.017904762 0.072335243 0.75200003 2.1672696e-38
0.019285718 0.072142854 0.75000012 2.3226763e-38
0.020769525 0.072335258 0.75200003 2.314214e-38
0.022201907 0.072335251 0.75200003 2.3033008e-38
0.023665715 0.07243143 0.75300008 2.0088454e-38
0.025166668 0.072623804 0.75500011 1.7141512e-38
0.026604764 0.072623819 0.75500011 1.6132802e-38
0.02804286 0.072623812 0.75500011 1.5131591e-38
0.029520003 0.072720006 0.7560001 1.5494641e-38
0.030960005 0.072720006 0.75600004 1.5868026e-38
0.032485716 0.072912388 0.75800008 1.7155462e-38
0.033929527 0.072912395 0.75800008 1.8329937e-38
0.035513334 0.073200956 0.7610001 1.8150557e-38
0.037060004 0.073393345 0.76300007 1.7865731e-38
0.03871524 0.0737781 0.76700008 1.9250806e-38
0.040228579 0.073874295 0.76800001 2.054913e-38
0.041800003 0.074066661 0.7700001 2.1856422e-38
0.043266669 0.074066676 0.7700001 2.3134595e-38
0.044849526 0.074259043 0.77200007 2.2958468e-38
-0.029949525 0.075239047 0.76700008 7.2178432e-39
-0.028414287 0.075042874 0.76500005 8.4106691e-39
-0.026957145 0.075042866 0.76500005 9.701761e-39
-0.025433335 0.07484667 0.76300007 1.2370385e-38
-0.024042858 0.075042874 0.76500005 1.504837e-38
-0.022526668 0.074846655 0.76300007 1.5870274e-38
-0.021018097 0.074650474 0.7610001 1.6706483e-38
-0.019542858 0.07455238 0.76000005 1.7618384e-38
-0.01804762 0.074356198 0.75800008 1.8641471e-38
-0.016559999 0.074159995 0.75600004 1.7616913e-38
-0.015120002 0.074159995 0.75600004 1.6699233e-38
-0.013680002 0.074159995 0.75600004 1.4861762e-38
-0.012223811 0.0740619 0.75500011 1.3036892e-38
-0.010785716 0.0740619 0.75500011 1.3955607e-38
-0.0093228584 0.073865719 0.75300002 1.4876847e-38
-0.0078885732 0.073865719 0.75300008 1.5887052e-38
-0.0064542862 0.073865727 0.75300008 1.6897274e-38
-0.0050133336 0.073767632 0.75200003 1.7356483e-38
-0.0035714291 0.073571429 0.75000012 1.7907501e-38
-0.0021428575 0.073571444 0.75000012 1.8183012e-38
-0.00071428571 0.073571436 0.75000012 1.8458502e-38
0.00071428588 0.073571436 0.75000012 1.8366648e-38
0.0021428573 0.073571436 0.75000012 1.8274838e-38
0.0035619049 0.07337524 0.74800009 1.8274863e-38
0.0049866675 0.07337524 0.74800003 1.8366683e-38
0.0064114295 0.073375233 0.74800003 1.873401e-38
0.007836191 0.073375218 0.74800009 1.9193183e-38
0.0092609534 0.073375233 0.74800009 1.9189591e-38
0.010685715 0.073375225 0.74800009 1.9193156e-38
0.012110477 0.07337524 0.74800009 1.9088383e-38
0.01357143 0.073571444 0.75000012 1.9004449e-38
0.015000002 0.073571436 0.75000012 1.8444117e-38
0.016428575 0.073571436 0.75000012 1.7907455e-38
0.017857146 0.073571429 0.75000012 1.7527557e-38
0.019285718 0.073571429 0.75000012 1.7158454e-38
0.020797145 0.073865712 0.75300008 1.5495401e-38
0.02223143 0.073865727 0.75300008 1.3839054e-38
0.023665717 0.073865727 0.75300008 1.3182134e-38
0.025166668 0.0740619 0.75500011 1.2537871e-38
0.026604764 0.074061893 0.75500011 1.4390026e-38
0.028080003 0.074159995 0.7560001 1.6319654e-38
0.029520003 0.074160002 0.7560001 1.4763835e-38
0.031041909 0.074356206 0.75800002 1.3198669e-38
0.032485716 0.074356191 0.75800008 1.2451053e-38
0.034019049 0.07455238 0.76000005 1.1717443e-38
0.035513334 0.074650489 0.7610001 1.170381e-38
0.037060004 0.074846677 0.76300007 1.1701955e-38
0.03871524 0.075239047 0.76700002 1.1058686e-38
0.040228575 0.075337172 0.76800001 1.0519971e-38
0.04169143 0.075337164 0.76800001 1.1071442e-38
-0.021073332 0.076299995 0.76300007 1.2177399e-38
-0.019542858 0.076000005 0.76000005 1.4571233e-38
-0.01804762 0.075799994 0.75800008 1.6961844e-38
-0.016603811 0.075799994 0.75800008 1.7156655e-38
-0.015160001 0.075800002 0.75800002 1.7335264e-38
-0.013680002 0.075599998 0.75600004 1.5692232e-38
-0.012240002 0.075600013 0.75600004 1.395022e-38
-0.010785715 0.075499997 0.75500011 1.4233969e-38
-0.0093476195 0.075500011 0.75500011 1.4413715e-38
-0.0079095243 0.075500004 0.75500011 1.4509519e-38
-0.0064542862 0.075300016 0.75300002 1.4506303e-38
-0.0050200005 0.075300001 0.75300008 1.441771e-38
-0.0035714291 0.075000003 0.75000012 1.4322271e-38
-0.0021428575 0.075000018 0.75000012 1.4785019e-38
-0.00071428576 0.07500001 0.75000012 1.5242408e-38
0.00071428582 0.074999996 0.75000012 1.5244208e-38
0.0021428573 0.074999996 0.75000012 1.5241343e-38
0.0035714288 0.075000003 0.75000012 1.5519727e-38
0.0050000004 0.075000018 0.75000012 1.5702338e-38
0.0064285719 0.07500001 0.75000012 1.7723812e-38
0.0078571439 0.07500001 0.75000012 1.9651989e-38
0.0092857154 0.074999988 0.75000012 2.0478859e-38
0.010714287 0.075000003 0.75000012 2.1299639e-38
0.012142858 0.075000003 0.75000012 2.0846202e-38
0.01357143 0.07500001 0.75000012 2.0369077e-38
0.015000002 0.07500001 0.75000012 1.8074613e-38
