# .PCD v0.7 - Point Cloud Data file format
VERSION 0.7
FIELDS x y z rgb
SIZE 4 4 4 4
TYPE F F F F
COUNT 1 1 1 1
WIDTH 982
HEIGHT 1
VIEWPOINT 0 0 0 1 0 0 0
POINTS 982
DATA ascii
0.029090475 0.0447 0.74500012 2.1276283e-38
0.03059143 0.044819992 0.7470001 1.9227903e-38
0.032057144 0.044879992 0.74800003 1.7866495e-38
0.033481907 0.044879984 0.74800003 1.6494042e-38
0.035 0.044999991 0.75000006 1.6039945e-38
0.036428571 0.044999987 0.75000012 1.5493608e-38
0.037958097 0.045120005 0.75200009 1.8262676e-38
0.039390478 0.045119997 0.75200003 2.1015572e-38
0.040985718 0.045299996 0.75500005 1.862281e-38
0.042423811 0.045299996 0.75500011 1.6228285e-38
0.043861911 0.045299988 0.75500005 1.623045e-38
0.045660008 0.045659997 0.76100004 1.6326591e-38
0.047109529 0.045659997 0.76100004 1.6508469e-38
-0.034242857 0.047357142 0.76500005 1.5951625e-38
-0.032699995 0.047233324 0.76300001 1.5953068e-38
-0.031246668 0.047233321 0.76300001 1.6781031e-38
-0.029793333 0.047233321 0.76300007 1.7519698e-38
-0.028265717 0.047109511 0.76100004 1.9735983e-38
-0.026816193 0.047109514 0.7610001 2.1849997e-38
-0.02526667 0.046923809 0.75800008 2.1297193e-38
-0.02376 0.046799988 0.75600004 2.0656143e-38
-0.022290479 0.046738084 0.75500005 2.2039776e-38
-0.020797143 0.046614267 0.75300008 2.3415882e-38
-0.019337142 0.04655239 0.75200003 2.3415532e-38
-0.017809523 0.046304759 0.74800009 2.3417328e-38
-0.016362857 0.046242841 0.7470001 2.341769e-38
-0.014900001 0.046119027 0.74500012 2.3416973e-38
-0.013480952 0.046119034 0.74500006 2.341769e-38
-0.012061906 0.046119027 0.74500012 2.341769e-38
-0.010642858 0.046119038 0.74500006 2.341769e-38
-0.0091990465 0.045995217 0.74300009 2.341769e-38
-0.0077838106 0.045995213 0.74300009 2.341769e-38
-0.0063600005 0.045933325 0.74200004 2.341769e-38
-0.0049466663 0.045933332 0.74200004 2.341769e-38
-0.0035238094 0.045809507 0.74000007 2.341769e-38
-0.0021142855 0.0458095 0.74000007 2.341769e-38
-0.00070476194 0.045809515 0.74000007 2.341769e-38
0.00070476194 0.045809519 0.74000001 2.341769e-38
0.0021142857 0.045809515 0.74000007 2.341769e-38
0.0035238096 0.045809519 0.74000007 2.341769e-38
0.004933333 0.045809511 0.74000007 2.341769e-38
0.0063428576 0.045809515 0.74000007 2.341769e-38
0.0077523803 0.045809515 0.74000001 2.341769e-38
0.0091619045 0.0458095 0.74000007 2.341769e-38
0.010557143 0.045747608 0.73900002 2.341769e-38
0.011964763 0.045747615 0.73900002 2.341769e-38
0.013390476 0.045809504 0.74000007 2.341769e-38
0.01478 0.045747612 0.73900002 2.341769e-38
0.016209522 0.045809511 0.74000007 2.341769e-38
0.017619047 0.045809515 0.74000007 2.341769e-38
0.019028572 0.045809511 0.74000007 2.341769e-38
0.020438097 0.0458095 0.74000007 2.341769e-38
0.021906668 0.045933317 0.7420001 2.341769e-38
0.023320001 0.045933325 0.74200004 2.341769e-38
0.024733335 0.045933336 0.74200004 2.341769e-38
0.026146665 0.045933329 0.74200004 2.341769e-38
0.027597142 0.045995206 0.74300009 2.3407568e-38
0.029090477 0.046119031 0.74500012 2.1265499e-38
0.030509524 0.046119038 0.74500006 1.9152227e-38
0.032014284 0.046242841 0.7470001 1.9902e-38
0.033481907 0.046304755 0.74800003 2.063206e-38
0.035 0.046428565 0.75000012 1.8056042e-38
0.036428574 0.046428557 0.75000012 1.5499366e-38
0.037958093 0.046552382 0.75200003 1.9376914e-38
0.039390478 0.046552379 0.75200009 2.3226104e-38
0.040877145 0.046614267 0.75300008 1.9914996e-38
0.042423811 0.046738088 0.75500005 1.6603885e-38
0.043920003 0.04679998 0.7560001 1.6687818e-38
0.045660004 0.047109514 0.7610001 1.6783967e-38
0.047109526 0.047109511 0.7610001 1.6786126e-38
0.048559051 0.047109526 0.76100004 1.6784335e-38
-0.034153327 0.048686661 0.76300001 1.6043823e-38
-0.032699995 0.048686661 0.76300001 1.5583957e-38
-0.03124667 0.048686657 0.76300007 1.5585418e-38
-0.02971524 0.048559032 0.7610001 1.5679784e-38
-0.028265717 0.04855904 0.76100004 1.7341451e-38
-0.02678095 0.048495222 0.76000005 1.9004533e-38
-0.025266668 0.048367623 0.75800008 1.8906956e-38
-0.023760002 0.048239976 0.7560001 1.8908048e-38
-0.022290478 0.048176184 0.75500005 2.0840555e-38
-0.020797143 0.048048552 0.75300008 2.2866677e-38
-0.019337142 0.047984753 0.75200003 2.2957795e-38
-0.017809525 0.047729522 0.74800003 2.3050348e-38
-0.016384764 0.047729518 0.74800009 2.3234019e-38
-0.014940001 0.047665704 0.74700004 2.341769e-38
-0.013517144 0.0476657 0.7470001 2.3417689e-38
-0.012061905 0.047538076 0.74500012 2.341769e-38
-0.010642858 0.047538083 0.74500006 2.341769e-38
-0.0091990465 0.047410462 0.74300009 2.341769e-38
-0.0077838101 0.047410458 0.74300009 2.341769e-38
-0.0063685724 0.047410451 0.74300009 2.341769e-38
-0.0049466668 0.047346659 0.74200004 2.341769e-38
-0.0035333331 0.047346652 0.7420001 2.341769e-38
-0.0021142857 0.047219027 0.74000007 2.341769e-38
-0.00070476194 0.047219031 0.74000007 2.341769e-38
0.00070476189 0.047219031 0.74000007 2.341769e-38
0.0021142855 0.047219034 0.74000007 2.341769e-38
0.0035238096 0.047219031 0.74000007 2.341769e-38
0.004933333 0.047219038 0.74000007 2.341769e-38
0.0063428576 0.047219042 0.74000007 2.341769e-38
0.0077523803 0.047219038 0.74000007 2.341769e-38
0.0091619054 0.047219045 0.74000007 2.341769e-38
0.01057143 0.047219023 0.74000007 2.341769e-38
0.011980955 0.047219023 0.74000007 2.341769e-38
0.013390476 0.047219034 0.74000001 2.341769e-38
0.01478 0.047155224 0.73900002 2.341769e-38
0.016209522 0.047219031 0.74000007 2.341769e-38
0.017619047 0.047219031 0.74000007 2.341769e-38
0.019028571 0.047219034 0.74000007 2.341769e-38
0.020438096 0.047219042 0.74000007 2.341769e-38
0.021906668 0.047346674 0.74200004 2.341769e-38
0.023320001 0.047346659 0.74200004 2.341769e-38
0.024733335 0.047346663 0.74200004 2.341769e-38
0.026146665 0.047346659 0.7420001 2.341769e-38
0.027597142 0.047410455 0.74300009 2.3417602e-38
0.029090477 0.047538079 0.74500012 1.9988748e-38
0.03059143 0.0476657 0.7470001 1.6489375e-38
0.03205714 0.047729511 0.74800003 1.8426949e-38
0.03357143 0.047857128 0.75000012 2.0270138e-38
0.035000004 0.047857136 0.75000012 1.7602984e-38
0.036525715 0.047984764 0.75200003 1.5039848e-38
0.037958097 0.047984757 0.75200003 1.9092453e-38
0.039442856 0.04804856 0.75300008 2.313752e-38
0.040985718 0.048176188 0.75500005 2.1115704e-38
0.042479999 0.048239976 0.7560001 1.9094572e-38
0.044036195 0.048367631 0.75800002 1.7795568e-38
0.045780007 0.048686646 0.76300001 1.6508093e-38
0.047233339 0.048686661 0.76300007 1.6601736e-38
-0.034153327 0.050139997 0.76300007 1.604311e-38
-0.032699991 0.050139997 0.76300007 1.521589e-38
-0.03124667 0.05013999 0.76300007 1.4479789e-38
-0.029793333 0.050139979 0.76300007 1.3748348e-38
-0.028265715 0.050008558 0.7610001 1.4945093e-38
-0.026816191 0.050008569 0.76100004 1.6051061e-38
-0.02526667 0.049811419 0.75800008 1.6602071e-38
-0.023760002 0.049679983 0.7560001 1.715597e-38
-0.022290476 0.049614266 0.75500011 1.9731684e-38
-0.020797143 0.049482841 0.75300008 2.2218784e-38
-0.019337142 0.049417142 0.75200003 2.2498962e-38
-0.017857142 0.049285695 0.75000012 2.2677975e-38
-0.01638476 0.049154282 0.74800003 2.3050345e-38
-0.014940001 0.04908856 0.7470001 2.3417689e-38
-0.013480952 0.048957147 0.74500006 2.341769e-38
-0.012094287 0.04908856 0.7470001 2.3325854e-38
-0.010642858 0.048957136 0.74500006 2.341769e-38
-0.0091990465 0.048825704 0.74300009 2.341769e-38
-0.0077838101 0.048825685 0.74300009 2.341769e-38
-0.0063685724 0.048825704 0.74300009 2.341769e-38
-0.0049466663 0.048759993 0.74200004 2.341769e-38
-0.0035333333 0.048759997 0.74200004 2.341769e-38
-0.0021142855 0.048628569 0.74000007 2.341769e-38
-0.00070476189 0.048628561 0.74000007 2.341769e-38
0.00070666673 0.048759993 0.7420001 2.341769e-38
0.0021199996 0.048760001 0.74200004 2.341769e-38
0.0035238098 0.04862855 0.74000007 2.341769e-38
0.0049466668 0.048760004 0.74200004 2.341769e-38
0.0063600009 0.048759993 0.74200004 2.341769e-38
0.0077733332 0.048760004 0.7420001 2.341769e-38
0.0091866655 0.048759997 0.74200004 2.341769e-38
0.01057143 0.048628561 0.74000007 2.341769e-38
0.011980954 0.048628565 0.74000007 2.341769e-38
0.013390476 0.048628546 0.74000007 2.341769e-38
0.014779999 0.048562855 0.73900002 2.341769e-38
0.016209522 0.048628557 0.74000001 2.341769e-38
0.017619047 0.048628554 0.74000007 2.341769e-38
0.019028571 0.048628561 0.74000007 2.341769e-38
0.020438097 0.048628554 0.74000007 2.341769e-38
0.021906668 0.048759993 0.74200004 2.341769e-38
0.023320001 0.048759989 0.7420001 2.341769e-38
0.024733335 0.048759993 0.74200004 2.3417669e-38
0.026181905 0.048825689 0.74300009 2.3417648e-38
0.027597142 0.048825696 0.74300009 2.3403237e-38
0.029168572 0.049088564 0.7470001 1.8598672e-38
0.030591428 0.04908856 0.7470001 1.3822886e-38
0.032057144 0.049154278 0.74800009 1.6862444e-38
0.033571426 0.049285699 0.75000012 1.9895196e-38
0.035 0.04928571 0.75000012 1.7229482e-38
0.036525711 0.049417142 0.75200003 1.4481977e-38
0.038008574 0.049482834 0.75300008 1.8724014e-38
0.03944286 0.049482845 0.75300008 2.2953838e-38
0.040985715 0.049614284 0.75500005 2.2315663e-38
0.042480003 0.04967998 0.7560001 2.1565885e-38
0.043920003 0.049679976 0.7560001 1.8891151e-38
0.046020001 0.050402842 0.76700008 1.6232595e-38
0.047480956 0.05040285 0.76700002 1.6419146e-38
-0.034153331 0.051593315 0.76300007 1.5859083e-38
-0.03278571 0.05172858 0.76500005 1.5308079e-38
-0.031328566 0.051728565 0.76500005 1.4756355e-38
-0.029793333 0.051593326 0.76300001 1.4297188e-38
-0.028414285 0.051728565 0.76500005 1.4941121e-38
-0.026886664 0.051593326 0.76300007 1.5673289e-38
-0.025266668 0.051255234 0.75800008 1.5769424e-38
-0.023822859 0.051255241 0.75800002 1.595311e-38
-0.02232 0.051119976 0.7560001 1.8534205e-38
-0.020797143 0.050917126 0.75300002 2.1022032e-38
-0.019337142 0.050849523 0.75200009 1.9913564e-38
-0.017857142 0.050714269 0.75000012 1.8806527e-38
-0.016384762 0.050579045 0.74800003 2.111498e-38
-0.01496 0.050579041 0.74800003 2.3417687e-38
-0.013535238 0.050579049 0.74800003 2.341769e-38
-0.012094286 0.050511401 0.7470001 2.341769e-38
-0.010671429 0.050511412 0.7470001 2.341769e-38
-0.0092238104 0.050376177 0.74500012 2.341769e-38
-0.0077838101 0.050240938 0.74300009 2.341769e-38
-0.0063857147 0.050376181 0.74500012 2.341769e-38
-0.0049533332 0.050240941 0.74300009 2.341769e-38
-0.0035380952 0.050240934 0.74300009 2.341769e-38
-0.0021199998 0.050173327 0.7420001 2.341769e-38
-0.00070666673 0.050173331 0.74200004 2.341769e-38
0.00070666667 0.050173342 0.74200004 2.341769e-38
0.0021199996 0.05017332 0.74200004 2.341769e-38
0.0035333333 0.050173342 0.74200004 2.341769e-38
0.0049466668 0.05017332 0.7420001 2.341769e-38
0.0063600005 0.050173327 0.74200004 2.341769e-38
0.0077733323 0.05017332 0.7420001 2.341769e-38
0.0091866655 0.050173327 0.74200004 2.341769e-38
0.01057143 0.050038084 0.74000007 2.341769e-38
0.011980955 0.050038092 0.74000001 2.341769e-38
0.013390476 0.050038084 0.74000007 2.341769e-38
0.014800001 0.050038092 0.74000007 2.341769e-38
0.016209522 0.050038069 0.74000007 2.341769e-38
0.017619047 0.050038092 0.74000007 2.341769e-38
0.019028572 0.050038084 0.74000001 2.341769e-38
0.020493334 0.05017332 0.7420001 2.341769e-38
0.021906668 0.050173327 0.74200004 2.341769e-38
0.023320001 0.050173335 0.74200004 2.2865242e-38
0.024733335 0.050173327 0.7420001 2.2315622e-38
0.026181905 0.050240926 0.74300009 2.129355e-38
0.027671428 0.050376177 0.74500006 2.0188979e-38
0.029090477 0.050376192 0.74500006 1.7777186e-38
0.03059143 0.050511412 0.74700004 1.5279667e-38
0.032057144 0.050579041 0.74800009 1.6581125e-38
0.033481907 0.050579049 0.74800003 1.7871878e-38
0.035 0.05071428 0.75000012 1.6489714e-38
0.036428571 0.050714277 0.75000012 1.5015371e-38
0.037958097 0.050849527 0.75200003 1.7427893e-38
0.039547618 0.051052369 0.75500005 1.9832496e-38
0.040985718 0.05105238 0.75500011 1.927038e-38
0.042480003 0.051119976 0.7560001 1.8707152e-38
0.044152386 0.051390465 0.76000011 1.7700172e-38
0.046020005 0.051863819 0.76700002 1.6693933e-38
0.047480959 0.051863801 0.76700002 1.6877967e-38
-0.032871421 0.053324766 0.76700002 1.5307005e-38
-0.03132857 0.05318572 0.76500005 1.5124419e-38
-0.029871428 0.05318572 0.76500005 1.4848202e-38
-0.028414285 0.053185705 0.76500005 1.5031881e-38
-0.026886664 0.053046662 0.76300007 1.5215551e-38
-0.02526667 0.052699044 0.75800008 1.5032596e-38
-0.023822861 0.052699052 0.75800002 1.4760336e-38
-0.022290478 0.052490469 0.75500005 1.7338566e-38
-0.020797143 0.052351415 0.75300002 1.9819919e-38
-0.019337142 0.052281901 0.75200003 1.732637e-38
-0.017857142 0.052142855 0.75000006 1.4856514e-38
-0.016384762 0.052003797 0.74800009 1.9184997e-38
-0.014960001 0.052003801 0.74800003 2.3415532e-38
-0.013535238 0.052003801 0.74800009 2.341769e-38
-0.012110478 0.052003808 0.74800003 2.341769e-38
-0.010671428 0.051934268 0.7470001 2.341769e-38
-0.0092238104 0.051795226 0.74500012 2.341769e-38
-0.007804763 0.051795229 0.74500006 2.341769e-38
-0.0063857152 0.051795229 0.74500012 2.341769e-38
-0.0049533332 0.051656172 0.74300009 2.341769e-38
-0.0035476191 0.051795229 0.74500012 2.341769e-38
-0.0021199998 0.051586669 0.74200004 2.341769e-38
-0.00070666667 0.051586661 0.7420001 2.341769e-38
0.00070666673 0.051586673 0.74200004 2.341769e-38
0.0021199998 0.051586665 0.7420001 2.341769e-38
0.0035333333 0.051586658 0.74200004 2.341769e-38
0.0049466668 0.051586669 0.7420001 2.341769e-38
0.0063600009 0.051586658 0.74200004 2.341769e-38
0.0077733323 0.051586665 0.74200004 2.341769e-38
0.0091619054 0.051447604 0.74000007 2.341769e-38
0.01057143 0.051447608 0.74000001 2.341769e-38
0.011980955 0.0514476 0.74000007 2.341769e-38
0.013390476 0.051447611 0.74000007 2.341769e-38
0.014800001 0.051447604 0.74000007 2.341769e-38
0.016209522 0.051447608 0.74000007 2.341769e-38
0.017619047 0.051447619 0.74000007 2.341769e-38
0.01908 0.051586654 0.74200004 2.341769e-38
0.020493334 0.051586665 0.74200004 2.341769e-38
0.021936191 0.051656172 0.74300009 2.3416227e-38
0.023351431 0.051656172 0.74300009 2.2310227e-38
0.024833335 0.051795229 0.74500012 2.1193448e-38
0.02625238 0.051795229 0.74500006 1.9067915e-38
0.027745714 0.051934265 0.7470001 1.6954254e-38
0.029168572 0.051934287 0.74700004 1.6857745e-38
0.030591428 0.051934265 0.7470001 1.6767342e-38
0.03205714 0.052003808 0.74800003 1.6311031e-38
0.033571426 0.052142855 0.75000012 1.5846847e-38
0.035 0.052142851 0.75000012 1.5750365e-38
0.036525715 0.052281909 0.75200003 1.557643e-38
0.038008571 0.052351411 0.75300002 1.6140049e-38
0.039547626 0.052490465 0.75500011 1.6602817e-38
0.04104 0.052559976 0.7560001 1.6226511e-38
0.042704768 0.052838087 0.76000005 1.5863111e-38
0.044210482 0.052907616 0.76100004 1.6508826e-38
0.046020001 0.053324766 0.76700002 1.7152398e-38
-0.032871425 0.054785714 0.76700002 1.4937872e-38
-0.03132857 0.054642852 0.76500005 1.4846763e-38
-0.029871428 0.054642852 0.7650001 1.484677e-38
-0.028414285 0.054642864 0.76500005 1.5123717e-38
-0.026886666 0.054499984 0.76300007 1.5399944e-38
-0.02526667 0.054142855 0.75800008 1.5216274e-38
-0.023760002 0.053999986 0.7560001 1.5032986e-38
-0.022290479 0.053928565 0.75500011 1.7522611e-38
-0.020797141 0.053785697 0.75300008 2.0103318e-38
-0.019337142 0.053714294 0.75200003 1.7701948e-38
-0.01785714 0.053571425 0.75000012 1.5312454e-38
-0.016384762 0.053428564 0.74800003 1.936687e-38
-0.01496 0.053428568 0.74800009 2.3417683e-38
-0.013535237 0.05342856 0.74800003 2.341769e-38
-0.012110477 0.05342856 0.74800009 2.341769e-38
-0.010671428 0.053357136 0.74700004 2.341769e-38
-0.0092238095 0.053214274 0.74500006 2.341769e-38
-0.0078047626 0.053214282 0.74500006 2.341769e-38
-0.0063857152 0.053214274 0.74500006 2.341769e-38
-0.0049533332 0.053071409 0.74300009 2.341769e-38
-0.0035380949 0.053071402 0.74300009 2.341769e-38
-0.0021199996 0.053000003 0.74200004 2.341769e-38
-0.00070666667 0.052999996 0.7420001 2.341769e-38
0.00070666673 0.053000003 0.74200004 2.341769e-38
0.0021199996 0.052999992 0.74200004 2.341769e-38
0.0035333333 0.053000003 0.74200004 2.341769e-38
0.0049466663 0.052999996 0.74200004 2.341769e-38
0.0063600005 0.052999988 0.7420001 2.341769e-38
0.0077523803 0.052857134 0.74000007 2.341769e-38
0.0091619045 0.052857127 0.74000007 2.341769e-38
0.01057143 0.052857123 0.74000007 2.341769e-38
0.011980954 0.052857127 0.74000007 2.341769e-38
0.013390476 0.052857134 0.74000001 2.341769e-38
0.0148 0.052857131 0.74000007 2.341769e-38
0.016253332 0.053000003 0.7420001 2.341769e-38
0.017666666 0.052999996 0.74200004 2.2683006e-38
0.01908 0.052999988 0.7420001 2.2040158e-38
0.020520953 0.053071424 0.74300003 2.2218089e-38
0.021936191 0.053071402 0.74300009 2.249892e-38
0.023351431 0.053071413 0.74300009 2.0828605e-38
0.024833336 0.053214274 0.74500012 1.9242604e-38
0.026322855 0.053357139 0.7470001 1.8323844e-38
0.027745713 0.053357121 0.7470001 1.7304701e-38
0.029168572 0.053357128 0.7470001 1.7504887e-38
0.03063238 0.05342856 0.74800003 1.7702567e-38
0.03205714 0.053428557 0.74800009 1.6491863e-38
0.033571426 0.053571425 0.75000012 1.5199351e-38
0.035 0.053571422 0.75000012 1.5572431e-38
0.036574289 0.053785704 0.75300008 1.5950231e-38
0.038109526 0.053928562 0.75500005 1.6507038e-38
0.039547622 0.053928573 0.75500005 1.7151309e-38
0.041040003 0.053999968 0.7560001 1.6875431e-38
0.042704765 0.054285694 0.76000011 1.6601012e-38
0.044210479 0.054357145 0.76100004 1.687653e-38
0.045900002 0.054642849 0.76500005 1.7243879e-38
-0.032871421 0.056246664 0.76700002 1.4479048e-38
-0.03132857 0.056100007 0.76500005 1.466201e-38
-0.02987143 0.056099992 0.76500005 1.484748e-38
-0.028414285 0.056099989 0.76500005 1.5216623e-38
-0.026886664 0.055953316 0.76300007 1.5492494e-38
-0.025333337 0.055733312 0.76000011 1.5399945e-38
-0.02376 0.055439994 0.7560001 1.5311003e-38
-0.022290478 0.055366658 0.75500005 1.7799554e-38
-0.020797143 0.055219982 0.75300008 2.0280167e-38
-0.019337142 0.055146672 0.75200003 1.7973856e-38
-0.01785714 0.054999996 0.75000012 1.5683379e-38
-0.016428569 0.054999992 0.75000012 1.9552697e-38
-0.01496 0.054853335 0.74800003 2.3415892e-38
-0.013535237 0.054853331 0.74800009 2.341769e-38
-0.012110477 0.054853328 0.74800003 2.341769e-38
-0.010671429 0.054779992 0.7470001 2.341769e-38
-0.0092238104 0.054633323 0.74500006 2.341769e-38
-0.0078047626 0.054633316 0.74500012 2.341769e-38
-0.0063857152 0.054633327 0.74500006 2.341769e-38
-0.0049666669 0.054633331 0.74500006 2.341769e-38
-0.0035476189 0.054633327 0.74500006 2.341769e-38
-0.0021200001 0.054413334 0.74200004 2.341769e-38
-0.00070666673 0.054413341 0.74200004 2.341769e-38
0.00070666673 0.054413337 0.7420001 2.341769e-38
0.0021199996 0.054413341 0.74200004 2.341769e-38
0.0035333331 0.054413326 0.7420001 2.341769e-38
0.0049466668 0.054413341 0.74200004 2.341769e-38
0.0063600009 0.054413319 0.7420001 2.341769e-38
0.0077523794 0.054266661 0.74000007 2.341769e-38
0.0091619054 0.054266643 0.74000007 2.341769e-38
0.01057143 0.054266658 0.74000007 2.341769e-38
0.012013334 0.054413337 0.74200004 2.341769e-38
0.013426666 0.054413334 0.7420001 2.341769e-38
0.01484 0.054413341 0.74200004 2.341769e-38
0.016253332 0.054413319 0.7420001 2.3417659e-38
0.017666666 0.054413341 0.74200004 2.2040097e-38
0.019105716 0.054486647 0.74300009 2.0551714e-38
0.020520953 0.054486655 0.74300009 2.1007301e-38
0.021936191 0.054486647 0.74300015 2.1471819e-38
0.023351431 0.054486655 0.74300009 1.9446735e-38
0.024833335 0.054633323 0.74500012 1.7319075e-38
0.026322858 0.054779977 0.7470001 1.7496272e-38
0.027745716 0.054779988 0.7470001 1.7685335e-38
0.029207619 0.054853335 0.74800009 1.8153851e-38
0.03063238 0.054853342 0.74800003 1.8608365e-38
0.032057144 0.054853324 0.74800003 1.6570766e-38
0.033571426 0.054999996 0.75000012 1.4557236e-38
0.035093337 0.055146672 0.75200003 1.5389889e-38
0.036574285 0.055219993 0.75300008 1.6229351e-38
0.038109526 0.055366658 0.75500011 1.6970522e-38
0.039547622 0.055366654 0.75500005 1.7704836e-38
0.04104 0.055439975 0.7560001 1.7522949e-38
0.042760961 0.055806663 0.7610001 1.7246016e-38
0.044326674 0.055953328 0.76300001 1.7336425e-38
0.045900002 0.056099992 0.76500005 1.7338941e-38
-0.034332383 0.057707611 0.76700008 1.512332e-38
-0.032871425 0.057707611 0.76700008 1.4755268e-38
-0.03132857 0.057557147 0.76500005 1.4847468e-38
-0.029871428 0.057557151 0.76500005 1.4940028e-38
-0.028414285 0.057557147 0.76500005 1.5216976e-38
-0.026886664 0.057406664 0.76300001 1.5493926e-38
-0.025333339 0.057180945 0.76000005 1.5308827e-38
-0.023822859 0.057030488 0.75800002 1.5215582e-38
-0.022290476 0.056804754 0.75500005 1.7706285e-38
-0.020797143 0.056654271 0.75300008 2.0193348e-38
-0.019337142 0.05657905 0.75200003 1.797743e-38
-0.017857142 0.056428567 0.75000012 1.5863818e-38
-0.016428571 0.056428567 0.75000012 1.9644178e-38
-0.01496 0.056278098 0.74800003 2.3417687e-38
-0.013535238 0.056278095 0.74800003 2.341769e-38
-0.012110477 0.056278091 0.74800009 2.341769e-38
-0.010671429 0.056202844 0.7470001 2.341769e-38
-0.0092238095 0.056052368 0.74500006 2.341769e-38
-0.0078047616 0.056052364 0.74500012 2.341769e-38
-0.0063857147 0.056052372 0.74500006 2.341769e-38
-0.0049666665 0.056052364 0.74500012 2.341769e-38
-0.0035476193 0.056052372 0.74500006 2.341769e-38
-0.0021199998 0.055826664 0.7420001 2.341769e-38
-0.00070666673 0.055826657 0.74200004 2.341769e-38
0.00070666673 0.055826668 0.7420001 2.341769e-38
0.0021199996 0.055826657 0.74200004 2.341769e-38
0.0035333333 0.055826657 0.7420001 2.341769e-38
0.0049466663 0.05582666 0.74200004 2.341769e-38
0.0063600005 0.055826664 0.74200004 2.341769e-38
0.0077523803 0.055676181 0.74000007 2.341769e-38
0.0091866665 0.055826668 0.74200004 2.341769e-38
0.0106 0.055826664 0.7420001 2.341769e-38
0.012013334 0.055826653 0.74200004 2.341769e-38
0.013426666 0.055826664 0.7420001 2.341769e-38
0.01484 0.055826657 0.74200004 2.341769e-38
0.016253332 0.05582666 0.74200004 2.341763e-38
0.017666666 0.055826657 0.7420001 2.0915051e-38
0.019105716 0.055901885 0.74300009 1.8404996e-38
0.020520953 0.055901881 0.74300009 1.9987359e-38
0.021936191 0.055901885 0.74300009 2.1557148e-38
0.023414288 0.056052376 0.74500006 2.0544064e-38
0.024833335 0.056052372 0.74500012 1.9519535e-38
0.026322857 0.056202844 0.7470001 1.9344127e-38
0.027745714 0.056202844 0.7470001 1.9072573e-38
0.029207619 0.056278098 0.74800003 1.7967684e-38
0.03063238 0.056278091 0.74800009 1.686313e-38
0.032142855 0.056428578 0.75000012 1.4646147e-38
0.03357143 0.056428559 0.75000012 1.2445754e-38
0.035093337 0.056579039 0.75200003 1.4478761e-38
0.036671426 0.056804758 0.75500011 1.651457e-38
0.038109526 0.056804769 0.75500005 1.6971239e-38
0.039600004 0.056879986 0.7560001 1.7337855e-38
0.041040003 0.056879967 0.7560001 1.724637e-38
0.042760957 0.057256188 0.76100004 1.724853e-38
0.044326674 0.057406664 0.76300001 1.6972311e-38
0.045900002 0.057557147 0.76500005 1.6792232e-38
-0.03433238 0.059168562 0.76700008 1.5304486e-38
-0.032785714 0.059014291 0.76500005 1.4939656e-38
-0.031328566 0.059014276 0.76500005 1.4940734e-38
-0.02987143 0.059014276 0.7650001 1.4940737e-38
-0.028414285 0.059014287 0.76500005 1.5216606e-38
-0.026886664 0.058859989 0.76300007 1.5492844e-38
-0.02536667 0.058705714 0.7610001 1.5309905e-38
-0.023822859 0.058474287 0.75800002 1.5035851e-38
-0.022290478 0.05824285 0.75500011 1.7524396e-38
-0.020797143 0.058088556 0.75300008 2.0003936e-38
-0.019337142 0.058011428 0.75200009 1.7970621e-38
-0.017857142 0.057857141 0.75000012 1.5959604e-38
-0.016428569 0.057857137 0.75000012 1.9742832e-38
-0.01496 0.057702851 0.74800009 2.341733e-38
-0.013535238 0.057702862 0.74800003 2.341769e-38
-0.012110477 0.057702858 0.74800009 2.341769e-38
-0.010671429 0.0576257 0.7470001 2.341769e-38
-0.0092485724 0.057625696 0.7470001 2.341769e-38
-0.0078047626 0.057471413 0.74500012 2.341769e-38
-0.0063857152 0.057471421 0.74500006 2.341769e-38
-0.0049666669 0.057471413 0.74500012 2.341769e-38
-0.0035476191 0.057471421 0.74500006 2.341769e-38
-0.0021228569 0.057317123 0.74300009 2.341769e-38
-0.00070666673 0.057240002 0.74200004 2.341769e-38
0.00070666673 0.057239994 0.74200004 2.341769e-38
0.0021199998 0.057239987 0.74200004 2.341769e-38
0.0035333333 0.057239998 0.74200004 2.341769e-38
0.0049466663 0.057239991 0.7420001 2.341769e-38
0.0063600005 0.057239994 0.74200004 2.341769e-38
0.0077523803 0.057085697 0.74000007 2.341769e-38
0.0091866665 0.057239998 0.74200004 2.341769e-38
0.010600001 0.057240009 0.74200004 2.341769e-38
0.012013334 0.057240002 0.74200004 2.341769e-38
0.013426667 0.057239994 0.74200004 2.341768e-38
0.01484 0.057240006 0.7420001 2.3417669e-38
0.01625333 0.057239994 0.74200004 2.3405426e-38
0.017690476 0.057317119 0.74300009 1.9797608e-38
0.019105716 0.057317112 0.74300009 1.6216039e-38
0.020520953 0.057317123 0.74300009 1.8980087e-38
0.021936191 0.057317115 0.74300009 2.1653685e-38
0.023414288 0.057471424 0.74500006 2.1744408e-38
0.024833335 0.057471421 0.74500012 2.1743717e-38
0.026322857 0.0576257 0.7470001 2.1104124e-38
0.027782857 0.057702854 0.74800003 2.0453009e-38
0.029207619 0.057702854 0.74800009 1.7780437e-38
0.03063238 0.057702858 0.74800003 1.5107498e-38
0.032142855 0.057857148 0.75000012 1.2704685e-38
0.033571426 0.05785713 0.75000012 1.0332822e-38
0.035093337 0.058011428 0.75200003 1.3565076e-38
0.03667143 0.05824285 0.75500005 1.6784687e-38
0.038160004 0.058319978 0.7560001 1.6877586e-38
0.039600004 0.058319975 0.7560001 1.696942e-38
0.041148573 0.058474291 0.75800002 1.7059461e-38
0.042760957 0.058705717 0.76100004 1.7153087e-38
0.04432667 0.058859982 0.76300007 1.66957e-38
0.045780007 0.058859982 0.76300007 1.6230062e-38
-0.034332376 0.060629509 0.76700008 1.5489237e-38
-0.032871421 0.060629509 0.76700008 1.5032927e-38
-0.03132857 0.060471434 0.76500005 1.4755983e-38
-0.029871428 0.060471434 0.76500005 1.4573029e-38
-0.028414285 0.06047143 0.76500005 1.5032205e-38
-0.026886664 0.060313325 0.76300007 1.5583239e-38
-0.02536667 0.060155228 0.76100004 1.5399948e-38
-0.023822859 0.059918098 0.75800002 1.5215931e-38
-0.02232 0.059759978 0.7560001 1.7615862e-38
-0.020852383 0.059680954 0.75500005 2.0011108e-38
-0.019362856 0.059522841 0.75300008 1.7884533e-38
-0.01790476 0.059443802 0.75200003 1.5863469e-38
-0.016428569 0.059285693 0.75000012 1.9645619e-38
-0.015 0.059285715 0.75000012 2.341769e-38
-0.013535238 0.05912761 0.74800009 2.341769e-38
-0.012110477 0.059127621 0.74800003 2.341769e-38
-0.010685715 0.059127618 0.74800009 2.341769e-38
-0.0092485715 0.059048563 0.74700004 2.341769e-38
-0.007804763 0.058890462 0.74500012 2.341769e-38
-0.0063857152 0.058890469 0.74500006 2.341769e-38
-0.0049666669 0.058890462 0.74500012 2.341769e-38
-0.0035476191 0.058890469 0.74500006 2.341769e-38
-0.0021228571 0.058732353 0.74300015 2.341769e-38
-0.00070666673 0.058653321 0.7420001 2.341769e-38
0.00070666673 0.058653329 0.74200004 2.341769e-38
0.0021199996 0.058653325 0.7420001 2.341769e-38
0.0035333333 0.058653329 0.74200004 2.341769e-38
0.0049466668 0.058653321 0.7420001 2.341769e-38
0.0063600009 0.058653329 0.74200004 2.341769e-38
0.0077733332 0.058653336 0.74200004 2.341769e-38
0.0091866665 0.058653317 0.74200004 2.341769e-38
0.010600001 0.05865334 0.74200004 2.341769e-38
0.012013334 0.058653317 0.7420001 2.341769e-38
0.013426667 0.058653325 0.74200004 2.3417669e-38
0.014860001 0.058732361 0.74300009 2.2769777e-38
0.016275236 0.058732368 0.74300009 2.2213711e-38
0.017690476 0.058732364 0.74300009 1.9623631e-38
0.019105714 0.058732368 0.74300009 1.7140163e-38
0.020520953 0.058732353 0.74300009 1.9356088e-38
0.021995237 0.058890469 0.74500006 2.1578029e-38
0.023414288 0.058890458 0.74500012 2.1664077e-38
0.024833335 0.058890466 0.74500006 2.1668065e-38
0.026322857 0.059048556 0.74700004 2.037129e-38
0.027782856 0.059127618 0.74800003 1.9079815e-38
0.029207617 0.059127614 0.74800003 1.6584435e-38
0.03063238 0.05912761 0.74800009 1.4183408e-38
0.032142855 0.059285723 0.75000012 1.2067214e-38
0.033660952 0.059443813 0.75200003 1.0054807e-38
0.03514 0.059522837 0.75300008 1.3097296e-38
0.036671426 0.059680946 0.75500005 1.6140754e-38
0.03816 0.059759986 0.7560001 1.6509502e-38
0.03970477 0.059918091 0.75800002 1.6878285e-38
0.041311432 0.060155235 0.76100004 1.6504851e-38
0.042760957 0.060155235 0.7610001 1.6138932e-38
0.04432667 0.060313322 0.76300007 1.6409404e-38
0.045780003 0.060313318 0.76300007 1.658517e-38
-0.034377143 0.062171411 0.76800001 1.5669664e-38
-0.032871425 0.06209046 0.76700008 1.5029334e-38
-0.031410471 0.062090471 0.76700002 1.4569087e-38
-0.029949525 0.062090471 0.76700002 1.4111335e-38
-0.028339999 0.061766643 0.76300007 1.4939638e-38
-0.026886664 0.061766658 0.76300007 1.5675068e-38
-0.02536667 0.061604757 0.76100004 1.5582903e-38
-0.023822859 0.061361909 0.75800002 1.5403549e-38
-0.022320002 0.061199971 0.7560001 1.7712364e-38
-0.020852383 0.061119035 0.75500005 1.9911734e-38
-0.019414287 0.061119031 0.75500011 1.7784792e-38
-0.01790476 0.060876194 0.75200003 1.5682302e-38
-0.016428571 0.060714278 0.75000006 1.9557729e-38
-0.015000001 0.060714286 0.75000012 2.3416973e-38
-0.013571428 0.060714267 0.75000012 2.341769e-38
-0.012110477 0.060552374 0.74800009 2.341769e-38
-0.010685714 0.060552381 0.74800003 2.341769e-38
-0.0092485715 0.060471419 0.7470001 2.341769e-38
-0.0078047626 0.060309507 0.74500012 2.341769e-38
-0.0063857152 0.060309514 0.74500006 2.341769e-38
-0.0049666669 0.060309507 0.74500012 2.341769e-38
-0.0035380949 0.060147598 0.74300009 2.341769e-38
-0.0021228574 0.060147606 0.74300009 2.341769e-38
-0.00070761907 0.06014761 0.74300003 2.341769e-38
0.00070666673 0.060066663 0.74200004 2.341769e-38
0.0021199996 0.060066666 0.74200004 2.341769e-38
0.0035333331 0.060066663 0.74200004 2.341769e-38
0.0049466668 0.06006667 0.74200004 2.341769e-38
0.0063600009 0.060066663 0.7420001 2.341769e-38
0.0077523803 0.059904743 0.74000007 2.341769e-38
0.0091866655 0.060066663 0.7420001 2.341769e-38
0.0106 0.060066655 0.74200004 2.341769e-38
0.012013333 0.060066648 0.7420001 2.341769e-38
0.013444762 0.060147595 0.74300009 2.341299e-38
0.01486 0.060147617 0.74300009 2.221407e-38
0.016275236 0.060147598 0.74300009 2.0916141e-38
0.017690476 0.060147602 0.74300009 1.94349e-38
0.019105714 0.060147595 0.74300009 1.7964498e-38
0.020520953 0.060147606 0.74300009 1.9725197e-38
0.021995237 0.060309514 0.74500006 2.1474005e-38
0.023414286 0.060309507 0.74500012 2.1574437e-38
0.024833333 0.060309518 0.74500006 2.1565103e-38
0.026358094 0.060552388 0.74800003 1.9633324e-38
0.027782857 0.060552374 0.74800009 1.7595687e-38
0.029285714 0.060714286 0.75000012 1.5385142e-38
0.030714286 0.060714267 0.75000012 1.3171033e-38
0.032142855 0.060714293 0.75000012 1.1417179e-38
0.033660956 0.060876206 0.75200003 9.6831237e-39
0.035140004 0.060957137 0.75300008 1.2628374e-38
0.036671426 0.061119042 0.75500011 1.5491042e-38
0.03816 0.061199978 0.7560001 1.6141408e-38
0.0396 0.061199985 0.75600004 1.6692064e-38
0.041311428 0.061604764 0.76100004 1.5941957e-38
0.042760953 0.061604746 0.76100004 1.5124031e-38
0.044326674 0.061766643 0.76300007 1.6034118e-38
0.045780007 0.061766654 0.76300007 1.6961441e-38
-0.034377139 0.063634276 0.76800001 1.5581759e-38
-0.032871425 0.063551418 0.76700002 1.5121164e-38
-0.031328566 0.063385718 0.7650001 1.4753121e-38
-0.029871428 0.06338571 0.7650001 1.4383967e-38
-0.028340001 0.063219979 0.76300007 1.4846354e-38
-0.026816189 0.063054293 0.76100004 1.5308796e-38
-0.025366668 0.063054278 0.7610001 1.5215561e-38
-0.023822861 0.06280572 0.75800002 1.5123381e-38
-0.02232 0.062639974 0.7560001 1.7431479e-38
-0.020852383 0.062557131 0.75500011 1.9730211e-38
-0.019362856 0.062391419 0.75300002 1.7606488e-38
-0.01790476 0.062308576 0.75200009 1.558472e-38
-0.016472381 0.062308569 0.75200003 1.9461229e-38
-0.015000001 0.062142842 0.75000012 2.341769e-38
-0.013571429 0.062142853 0.75000006 2.341769e-38
-0.012110477 0.061977137 0.74800003 2.341769e-38
-0.010685714 0.061977133 0.74800009 2.341769e-38
-0.0092485724 0.061894275 0.7470001 2.341769e-38
-0.0078257136 0.061894268 0.7470001 2.341769e-38
-0.0063857147 0.061728567 0.74500006 2.341769e-38
-0.0049666665 0.061728559 0.74500006 2.341769e-38
-0.0035380949 0.061562836 0.74300009 2.341769e-38
-0.0021228571 0.061562836 0.74300009 2.341769e-38
-0.00070761901 0.06156284 0.74300009 2.341769e-38
0.00070761901 0.061562851 0.74300003 2.341769e-38
0.0021228571 0.061562844 0.74300009 2.341769e-38
0.0035333335 0.061479993 0.7420001 2.341769e-38
0.0049466663 0.061480001 0.74200004 2.341769e-38
0.0063600005 0.061479993 0.7420001 2.341769e-38
0.0077733323 0.061480001 0.74200004 2.341769e-38
0.0091866665 0.061479993 0.74200004 2.341769e-38
0.0106 0.061480004 0.74200004 2.341769e-38
0.012013334 0.061479993 0.74200004 2.3140031e-38
0.013444762 0.061562836 0.74300009 2.276618e-38
0.01486 0.061562844 0.74300009 2.0734984e-38
0.016275236 0.061562832 0.74300003 1.8699857e-38
0.017690476 0.061562847 0.74300009 1.7314754e-38
0.019105714 0.061562836 0.74300009 1.6017266e-38
0.020576192 0.061728552 0.74500012 1.6859616e-38
0.021995239 0.061728559 0.74500006 1.7691539e-38
0.023414288 0.061728556 0.74500012 1.769192e-38
0.024900004 0.061894272 0.7470001 1.7690072e-38
0.026358094 0.061977126 0.74800009 1.5932944e-38
0.027782856 0.061977133 0.74800003 1.4264088e-38
0.029285714 0.062142842 0.75000012 1.3720573e-38
0.030714286 0.062142853 0.75000006 1.3168132e-38
0.032142855 0.062142849 0.75000012 1.2251935e-38
0.033660952 0.062308565 0.75200009 1.1335409e-38
0.03514 0.062391426 0.75300002 1.3270804e-38
0.03672 0.062639967 0.7560001 1.530876e-38
0.038160004 0.062639982 0.7560001 1.7707599e-38
0.039704766 0.062805712 0.75800002 2.0102137e-38
0.041311432 0.063054278 0.7610001 1.96365e-38
0.042760957 0.063054293 0.76100004 1.9268061e-38
0.04432667 0.063219979 0.76300007 1.9726499e-38
-0.034377147 0.065097123 0.76800001 1.5491371e-38
-0.032785714 0.064842857 0.76500005 1.5215147e-38
-0.031328566 0.064842857 0.76500005 1.4938566e-38
-0.02987143 0.064842857 0.76500005 1.4663778e-38
-0.028339999 0.064673319 0.76300007 1.4845298e-38
-0.026886664 0.064673334 0.76300001 1.4940022e-38
-0.025366668 0.064503804 0.76100004 1.4939321e-38
-0.023822859 0.06424953 0.75800002 1.4852885e-38
-0.022379046 0.06424953 0.75800002 1.7252106e-38
-0.020879999 0.064079985 0.75600004 1.9542595e-38
-0.019414287 0.063995235 0.75500005 1.7509283e-38
-0.01790476 0.063740954 0.75200003 1.5408229e-38
-0.016428571 0.063571423 0.75000012 1.9468764e-38
-0.015 0.063571416 0.75000012 2.341769e-38
-0.013571427 0.063571423 0.75000012 2.341769e-38
-0.012110477 0.0634019 0.74800003 2.341769e-38
-0.010714285 0.063571416 0.75000012 2.341769e-38
-0.0092609525 0.063401908 0.74800003 2.341769e-38
-0.0078257136 0.06331712 0.7470001 2.341769e-38
-0.0064028581 0.063317128 0.7470001 2.341769e-38
-0.0049666669 0.063147604 0.74500006 2.341769e-38
-0.0035380949 0.062978067 0.74300009 2.341769e-38
-0.0021228571 0.062978074 0.74300009 2.341769e-38
-0.00070666679 0.062893331 0.74200004 2.341769e-38
0.00070666667 0.062893324 0.7420001 2.341769e-38
0.0021199998 0.062893331 0.74200004 2.341769e-38
0.0035333331 0.062893339 0.74200004 2.341769e-38
0.0049466668 0.062893331 0.74200004 2.341769e-38
0.0063600009 0.062893331 0.74200004 2.341769e-38
0.0077733323 0.062893331 0.7420001 2.341769e-38
0.0091990475 0.062978067 0.74300009 2.341769e-38
0.010614286 0.062978074 0.74300009 2.3417679e-38
0.012013334 0.062893324 0.74200004 2.277482e-38
0.013444762 0.062978074 0.74300009 2.2113992e-38
0.01486 0.062978074 0.74300009 1.9259157e-38
0.016275236 0.062978074 0.74300009 1.6401478e-38
0.017690476 0.062978089 0.74300003 1.5291185e-38
0.019105714 0.062978067 0.74300009 1.4098781e-38
0.02057619 0.063147619 0.74500012 1.4004815e-38
0.021995237 0.063147612 0.74500006 1.3823245e-38
0.023414288 0.063147604 0.74500012 1.3811356e-38
0.024900004 0.063317135 0.7470001 1.3812069e-38
0.026358094 0.063401908 0.74800003 1.2327272e-38
0.027782856 0.063401885 0.74800009 1.0865076e-38
0.029285714 0.063571416 0.75000012 1.1973199e-38
0.030714286 0.063571423 0.75000012 1.3081324e-38
0.032142855 0.063571423 0.75000012 1.3086348e-38
0.033660956 0.063740939 0.75200003 1.2989506e-38
0.035140004 0.063825697 0.75300008 1.3993613e-38
0.036720004 0.06407997 0.7560001 1.5031109e-38
0.038160004 0.06407997 0.7560001 1.9277827e-38
0.039809525 0.064419039 0.76000011 2.3413644e-38
0.041311428 0.064503796 0.7610001 2.3417583e-38
0.042873342 0.064673312 0.76300007 2.3411834e-38
0.044326674 0.064673327 0.76300001 2.3411824e-38
-0.034377143 0.066559985 0.76800001 1.6228578e-38
-0.032699998 0.066126674 0.76300007 1.6779218e-38
-0.031246668 0.06612666 0.76300007 1.6689519e-38
-0.029793331 0.06612666 0.76300007 1.6507306e-38
-0.028339999 0.066126667 0.76300001 1.659701e-38
-0.026816191 0.065953322 0.7610001 1.6594499e-38
-0.02536667 0.065953329 0.76100004 1.6504814e-38
-0.023885716 0.065866657 0.76000011 1.6412642e-38
-0.022379048 0.065693349 0.75800002 1.8076464e-38
-0.020879999 0.065519981 0.7560001 1.9638378e-38
-0.019414287 0.065433316 0.75500011 1.7606511e-38
-0.01790476 0.065173328 0.75200003 1.5681589e-38
-0.016428569 0.064999998 0.75000012 1.9555218e-38
-0.015 0.06499999 0.75000012 2.341769e-38
-0.013571428 0.064999998 0.75000012 2.341769e-38
-0.012110477 0.064826652 0.74800009 2.341769e-38
-0.010714286 0.064999998 0.75000006 2.341769e-38
-0.0092609525 0.06482666 0.74800009 2.341769e-38
-0.0078257136 0.064739987 0.7470001 2.341769e-38
-0.0064028581 0.064739972 0.7470001 2.341769e-38
-0.0049800002 0.064739995 0.74700004 2.341769e-38
-0.0035380949 0.064393304 0.74300009 2.341769e-38
-0.0021228571 0.064393304 0.74300009 2.341769e-38
-0.00070666679 0.064306661 0.74200004 2.341769e-38
0.00070761907 0.064393304 0.74300009 2.341769e-38
0.0021228571 0.064393312 0.74300009 2.341769e-38
0.0035380952 0.064393297 0.74300009 2.341769e-38
0.0049533332 0.064393312 0.74300009 2.341769e-38
0.0063685724 0.064393312 0.74300003 2.341769e-38
0.0077733332 0.064306661 0.7420001 2.341769e-38
0.0091990475 0.064393312 0.74300009 2.341769e-38
0.010614286 0.064393304 0.74300009 2.3417669e-38
0.012029525 0.064393312 0.74300009 2.0826164e-38
0.013444762 0.064393304 0.74300009 1.8237518e-38
0.01486 0.064393312 0.74300009 1.732236e-38
0.016275236 0.064393304 0.74300009 1.6395758e-38
0.017738095 0.064566657 0.74500012 1.6032725e-38
0.019157141 0.064566672 0.74500006 1.5673991e-38
0.02057619 0.064566649 0.74500012 1.6222849e-38
0.022054287 0.064739972 0.74700004 1.6856246e-38
0.023477145 0.064739987 0.7470001 1.537886e-38
0.024900002 0.064739987 0.74700004 1.3990254e-38
0.026358096 0.064826652 0.74800003 1.2050993e-38
0.027782857 0.064826667 0.74800003 1.0130371e-38
0.029285714 0.06499999 0.75000012 1.2710762e-38
0.030714288 0.064999998 0.75000012 1.5383675e-38
0.032228574 0.065173328 0.75200003 1.5294346e-38
0.033705711 0.065259993 0.75300008 1.5287886e-38
0.035233337 0.065433346 0.75500005 1.5660247e-38
0.03672 0.065519981 0.75600004 1.6043462e-38
0.03816 0.065519981 0.7560001 1.9734548e-38
0.039861906 0.065953337 0.76100004 2.341764e-38
0.041419998 0.066126652 0.76300007 2.3417626e-38
0.042873338 0.06612666 0.76300001 2.341727e-38
0.044442859 0.06629999 0.7650001 2.341512e-38
-0.034242857 0.067757145 0.76500005 1.705765e-38
-0.032785714 0.067757145 0.76500005 1.8347286e-38
-0.03132857 0.06775713 0.76500005 1.8349432e-38
-0.029793333 0.067579985 0.76300001 1.8350875e-38
-0.028339999 0.06758 0.76300007 1.8348731e-38
-0.026816191 0.067402855 0.7610001 1.8256897e-38
-0.02536667 0.067402847 0.7610001 1.8164345e-38
-0.023885718 0.067314282 0.76000011 1.7984633e-38
-0.022379048 0.067137145 0.75800002 1.8911251e-38
-0.020880001 0.066959985 0.7560001 1.972771e-38
-0.019414285 0.066871427 0.75500005 1.7780493e-38
-0.017928569 0.066694252 0.75300008 1.5868129e-38
-0.016472381 0.066605717 0.75200003 1.9652435e-38
-0.01504 0.066605717 0.75200003 2.341769e-38
-0.013571428 0.066428572 0.75000012 2.341769e-38
-0.012175239 0.066605717 0.75200003 2.341769e-38
-0.010714286 0.066428572 0.75000012 2.341769e-38
-0.0092857135 0.066428557 0.75000012 2.341769e-38
-0.0078361901 0.066251419 0.74800009 2.341769e-38
-0.006411429 0.066251442 0.74800003 2.341769e-38
-0.0049866666 0.066251427 0.74800009 2.341769e-38
-0.0035476189 0.065985702 0.74500012 2.341769e-38
-0.0021228569 0.065808557 0.74300009 2.341769e-38
-0.00070761913 0.06580855 0.74300009 2.341769e-38
0.00070761901 0.065808564 0.74300009 2.341769e-38
0.0021228574 0.065808557 0.74300009 2.341769e-38
0.0035380952 0.065808564 0.74300009 2.341769e-38
0.0049533332 0.065808542 0.74300009 2.341769e-38
0.0063685724 0.065808564 0.74300009 2.341769e-38
0.0077838097 0.065808557 0.74300003 2.341769e-38
0.0091990475 0.065808564 0.74300009 2.341769e-38
0.010614286 0.065808557 0.74300009 2.340581e-38
0.012029525 0.06580855 0.74300009 1.8874619e-38
0.013480951 0.065985702 0.74500012 1.4283197e-38
0.0149 0.065985709 0.74500006 1.5304863e-38
0.016319046 0.065985702 0.74500012 1.6311471e-38
0.017738093 0.065985709 0.74500006 1.6769937e-38
0.019157141 0.065985695 0.74500006 1.7149845e-38
0.020631431 0.066162854 0.74700004 1.8540301e-38
0.022054287 0.066162832 0.7470001 1.9903039e-38
0.023477145 0.066162854 0.74700004 1.7041345e-38
0.024900004 0.06616284 0.7470001 1.4086815e-38
0.026358096 0.066251419 0.74800009 1.1663569e-38
0.027782857 0.066251427 0.74800003 9.3060287e-39
0.029207619 0.066251427 0.74800009 1.353876e-38
0.030714288 0.066428572 0.75000012 1.7691074e-38
0.03222857 0.066605717 0.75200003 1.760317e-38
0.033660952 0.066605717 0.75200003 1.7506677e-38
0.035233334 0.066871427 0.75500005 1.7316194e-38
0.03667143 0.06687142 0.75500011 1.7061561e-38
0.03816 0.06695997 0.7560001 2.0291295e-38
0.039861906 0.06740284 0.7610001 2.3416559e-38
0.041420002 0.06758 0.76300001 2.3417624e-38
0.042985715 0.067757145 0.76500005 2.341764e-38
0.044559054 0.067934282 0.76700008 2.3325819e-38
-0.034242857 0.069214299 0.76500005 1.4659206e-38
-0.032785714 0.069214284 0.76500005 1.4957673e-38
-0.031328574 0.069214284 0.76500005 1.6884783e-38
-0.029793333 0.069033325 0.76300007 1.8912693e-38
-0.028340001 0.069033325 0.76300007 1.9643784e-38
-0.026886666 0.069033325 0.76300007 2.0378831e-38
-0.02536667 0.068852372 0.7610001 2.0469952e-38
-0.023885716 0.0687619 0.76000011 2.0561792e-38
-0.02237905 0.068580955 0.75800002 2.1023485e-38
-0.020879999 0.068399981 0.7560001 2.1479048e-38
-0.019439999 0.068399966 0.7560001 2.0554568e-38
-0.017928569 0.068128556 0.75300008 1.9541547e-38
-0.016472381 0.068038076 0.75200003 2.1484481e-38
-0.01504 0.068038091 0.75200009 2.341769e-38
-0.013607618 0.068038091 0.75200003 2.341769e-38
-0.012175239 0.068038099 0.75200009 2.341769e-38
-0.010714286 0.067857146 0.75000012 2.341769e-38
-0.0092857145 0.067857131 0.75000012 2.341769e-38
-0.0078361901 0.067676194 0.74800003 2.341769e-38
-0.006411429 0.067676179 0.74800009 2.341769e-38
-0.0049866666 0.067676201 0.74800003 2.341769e-38
-0.0035476193 0.067404747 0.74500012 2.341769e-38
-0.0021228571 0.067223787 0.74300009 2.341769e-38
-0.00070761907 0.067223795 0.74300009 2.341769e-38
0.00070761913 0.067223787 0.74300009 2.341769e-38
0.0021228569 0.067223795 0.74300009 2.341769e-38
0.0035380949 0.067223787 0.74300009 2.341769e-38
0.0049533332 0.06722378 0.74300009 2.341769e-38
0.0063685724 0.067223795 0.74300009 2.341769e-38
0.0077838097 0.067223787 0.74300009 2.341769e-38
0.0091990475 0.067223802 0.74300009 2.2771972e-38
0.010614286 0.067223787 0.74300009 2.2127984e-38
0.012029525 0.067223795 0.74300009 1.8238544e-38
0.013480952 0.067404747 0.74500012 1.4358518e-38
0.0149 0.067404754 0.74500006 1.5110802e-38
0.016319046 0.067404747 0.74500012 1.5856973e-38
0.017785713 0.067585707 0.7470001 1.7514682e-38
0.019208571 0.067585699 0.74700004 1.9084158e-38
0.020659046 0.067676194 0.74800003 1.9734202e-38
0.022083811 0.067676172 0.74800009 2.0285886e-38
0.023508573 0.067676201 0.74800003 1.8893957e-38
0.024933334 0.067676179 0.74800009 1.7600303e-38
0.026428571 0.067857154 0.75000012 1.6489244e-38
0.027857145 0.067857131 0.75000012 1.5483426e-38
0.029363809 0.068038091 0.75200009 1.7884129e-38
0.030796191 0.068038091 0.75200003 2.0290124e-38
0.032271426 0.068128556 0.75300008 2.0007058e-38
0.033795241 0.068309523 0.75500005 1.9819813e-38
0.03528 0.068399981 0.7560001 1.9541808e-38
0.036817141 0.06858094 0.75800008 1.9371096e-38
0.038260952 0.068580955 0.75800008 2.1394392e-38
0.039809529 0.068761893 0.76000011 2.3417633e-38
0.041420002 0.06903334 0.76300007 2.3417263e-38
0.042985715 0.069214284 0.76500005 2.3417649e-38
0.044617146 0.069485709 0.76800001 2.3417319e-38
-0.034242857 0.070671432 0.7650001 1.2244491e-38
-0.032785714 0.070671409 0.7650001 1.1444166e-38
-0.03132857 0.070671424 0.76500005 1.5502153e-38
-0.029793331 0.070486665 0.76300007 1.9452897e-38
-0.028339999 0.070486642 0.76300007 2.1025962e-38
-0.026816189 0.070301905 0.76100004 2.2492471e-38
-0.025366668 0.070301905 0.76100004 2.2774806e-38
-0.023885718 0.070209503 0.76000011 2.3048172e-38
-0.022379048 0.070024766 0.75800002 2.3142171e-38
-0.020880001 0.069839984 0.7560001 2.3231483e-38
-0.019414285 0.069747604 0.75500005 2.323398e-38
-0.017928571 0.06956283 0.75300008 2.3229336e-38
-0.016472379 0.069470488 0.75200003 2.3325854e-38
-0.01504 0.069470473 0.75200003 2.341769e-38
-0.013607618 0.06947048 0.75200009 2.341769e-38
-0.012175239 0.06947048 0.75200003 2.341769e-38
-0.010742858 0.069470473 0.75200003 2.341769e-38
-0.0092857145 0.069285706 0.75000012 2.341769e-38
-0.0078571429 0.069285728 0.75000012 2.341769e-38
-0.0064114295 0.069100961 0.74800003 2.341769e-38
-0.0049866671 0.069100939 0.74800009 2.341769e-38
-0.0035476191 0.068823792 0.74500012 2.341769e-38
-0.0021228571 0.068639025 0.74300009 2.341769e-38
-0.00070761907 0.06863904 0.74300009 2.341769e-38
0.00070761907 0.068639025 0.74300009 2.341769e-38
0.0021228571 0.06863904 0.74300009 2.341769e-38
0.0035380952 0.068639033 0.74300009 2.341769e-38
0.0049533332 0.068639025 0.74300009 2.341769e-38
0.0063685724 0.068639033 0.74300009 2.341769e-38
0.0077838097 0.068639025 0.74300009 2.3415895e-38
0.0091990475 0.06863904 0.74300009 2.2124816e-38
0.010642857 0.068823814 0.74500012 2.0832963e-38
0.012061905 0.068823799 0.74500006 1.7592477e-38
0.013517142 0.069008544 0.7470001 1.4377161e-38
0.01494 0.069008559 0.7470001 1.4923156e-38
0.016362857 0.069008544 0.7470001 1.5401021e-38
0.017785713 0.069008559 0.7470001 1.8256206e-38
0.019208573 0.069008552 0.7470001 2.1019896e-38
0.020659048 0.069100946 0.74800003 2.0842339e-38
0.022083811 0.069100954 0.74800009 2.0655408e-38
0.023508573 0.069100946 0.74800003 2.0831875e-38
0.024933336 0.069100961 0.74800003 2.1017651e-38
0.026358096 0.069100939 0.74800009 2.1393556e-38
0.027857145 0.069285706 0.75000012 2.1662649e-38
0.029363811 0.069470473 0.75200003 2.2315586e-38
0.030796193 0.06947048 0.75200009 2.2865507e-38
0.032271426 0.069562837 0.75300008 2.2499226e-38
0.033795238 0.069747604 0.75500011 2.202857e-38
0.03528 0.069839992 0.7560001 2.1843466e-38
0.036817141 0.070024773 0.75800008 2.166664e-38
0.038361903 0.070209518 0.76000005 2.2589688e-38
0.039809525 0.070209511 0.76000011 2.3416925e-38
0.041311432 0.070301898 0.76100004 2.3416565e-38
0.042985719 0.070671417 0.76500005 2.3417288e-38
0.044617146 0.070948571 0.76800001 2.3417651e-38
-0.03132857 0.072128564 0.7650001 9.7774255e-39
-0.029793333 0.071939997 0.76300007 1.0248852e-38
-0.028414285 0.072128579 0.76500005 1.1909117e-38
-0.026816191 0.071751408 0.7610001 1.3668003e-38
-0.025366668 0.071751431 0.76100004 1.6057541e-38
-0.023885716 0.071657136 0.76000011 1.855039e-38
-0.022379048 0.071468577 0.75800002 1.9372623e-38
-0.020879999 0.071279973 0.7560001 2.0203448e-38
-0.019414287 0.071185701 0.75500011 2.1485916e-38
-0.017976189 0.071185708 0.75500005 2.2774842e-38
-0.016494285 0.070997134 0.75300008 2.3050348e-38
-0.015040001 0.070902862 0.75200003 2.341769e-38
-0.01360762 0.070902862 0.75200003 2.341769e-38
-0.01217524 0.070902854 0.75200009 2.341769e-38
-0.010742859 0.070902869 0.75200003 2.341769e-38
-0.0093104765 0.070902847 0.75200003 2.341769e-38
-0.007857142 0.07071428 0.75000012 2.341769e-38
-0.006411429 0.070525721 0.74800003 2.341769e-38
-0.0049866666 0.070525721 0.74800003 2.341769e-38
-0.0035476191 0.070242845 0.74500006 2.341769e-38
-0.0021228571 0.07005427 0.74300009 2.341769e-38
