# .PCD v0.7 - Point Cloud Data file format
VERSION 0.7
FIELDS x y z rgb
SIZE 4 4 4 4
TYPE F F F F
COUNT 1 1 1 1
WIDTH 978
HEIGHT 1
VIEWPOINT 0 0 0 1 0 0 0
POINTS 978
DATA ascii
0.034906667 0.034906678 0.74800003 2.3142181e-38
0.036428556 0.035000026 0.75 2.2767287e-38
0.038008567 0.035140008 0.75300002 2.0003594e-38
0.039547618 0.035233349 0.75500005 1.7243509e-38
0.041148566 0.035373345 0.75800002 1.5863467e-38
0.04270475 0.035466678 0.76000005 1.4483068e-38
0.044152368 0.035466671 0.76000005 1.4667102e-38
0.045660004 0.035513319 0.7610001 1.4848973e-38
-0.034153346 0.037060007 0.76300001 1.5859851e-38
-0.032614291 0.036962852 0.7610001 1.6593102e-38
-0.031164778 0.036962867 0.76100004 1.7610108e-38
-0.02971524 0.036962867 0.7610001 1.8630721e-38
-0.028154299 0.036817163 0.75800002 1.9182829e-38
-0.026604772 0.036671445 0.75500005 1.9650614e-38
-0.025100015 0.036574289 0.75300002 1.9093141e-38
-0.023634296 0.036525719 0.75200003 1.8640735e-38
-0.022201929 0.036525726 0.75200003 1.6693131e-38
-0.020714292 0.036428578 0.75000006 1.4764612e-38
-0.019234288 0.036331438 0.74800003 1.7708395e-38
-0.017785713 0.036282867 0.74700004 2.0740375e-38
-0.016319063 0.036185719 0.74500006 1.8799604e-38
-0.014900015 0.036185712 0.74500006 1.6855638e-38
-0.013444775 0.036088578 0.74300003 1.2904563e-38
-0.012029526 0.036088578 0.74300003 8.8484053e-39
-0.010614291 0.036088578 0.74300003 6.4632215e-39
-0.009186672 0.036040008 0.74200004 4.0855389e-39
-0.0077733342 0.036040016 0.74200004 5.4594798e-39
-0.0063600102 0.036040023 0.74200004 6.8402353e-39
-0.0049333395 0.035942867 0.74000001 7.851855e-39
-0.0035238185 0.03594286 0.74000007 8.8606302e-39
-0.0021114436 0.035894297 0.73900002 1.190521e-38
-0.00070382806 0.03589429 0.73899996 1.5037673e-38
0.00070188928 0.035797149 0.73699999 1.8076505e-38
0.0021057033 0.035797141 0.73700005 2.1121794e-38
0.0035095064 0.035797149 0.73699999 2.2314588e-38
0.0049133208 0.035797156 0.73700005 2.341769e-38
0.0063171349 0.035797141 0.73700005 2.341769e-38
0.0077209389 0.035797156 0.73700005 2.341769e-38
0.0091247512 0.035797134 0.73700005 2.341769e-38
0.010528555 0.035797156 0.73699999 2.341769e-38
0.011932369 0.035797149 0.73700005 2.341769e-38
0.01337237 0.035894297 0.73900002 2.341769e-38
0.014779985 0.03589429 0.73899996 2.341769e-38
0.016187603 0.035894305 0.73899996 2.341769e-38
0.01761904 0.035942867 0.74000001 2.341769e-38
0.019002836 0.035894297 0.73899996 2.341769e-38
0.020410461 0.035894297 0.73899996 2.341769e-38
0.021847615 0.035942852 0.74000001 2.341769e-38
0.023257127 0.03594286 0.74000001 2.341769e-38
0.024733327 0.036040008 0.74200004 2.341768e-38
0.026181901 0.036088586 0.74300003 2.3416594e-38
0.027671419 0.036185719 0.74500012 2.3321893e-38
0.029168578 0.036282867 0.74700004 2.3324408e-38
0.030632375 0.036331445 0.74800003 2.3415173e-38
0.032057147 0.036331445 0.74800003 2.286596e-38
0.033481907 0.036331452 0.74800003 2.2407498e-38
0.034999996 0.036428586 0.75000006 2.2127327e-38
0.036525715 0.036525719 0.75200003 2.1937173e-38
0.038008559 0.036574304 0.75300002 1.9636956e-38
0.039442856 0.036574282 0.75300002 1.7423578e-38
0.04104 0.036720015 0.75600004 1.659706e-38
0.042704742 0.036914311 0.75999999 1.5856286e-38
0.044152364 0.036914304 0.75999999 1.5582222e-38
0.045659997 0.036962867 0.76100004 1.5394603e-38
-0.034153339 0.038513351 0.76300001 1.7610084e-38
-0.032614306 0.038412374 0.76100004 1.8159299e-38
-0.031164769 0.038412385 0.7610001 1.8806448e-38
-0.029715255 0.038412385 0.76100004 1.9358198e-38
-0.028080005 0.038160026 0.75600004 1.9456153e-38
-0.026640002 0.038160022 0.75600004 1.9537221e-38
-0.025166683 0.038109533 0.755 1.7239177e-38
-0.023665722 0.038008567 0.75300002 1.492781e-38
-0.022201911 0.037958115 0.75200003 1.1700598e-38
-0.020714298 0.037857156 0.75000006 8.4042749e-39
-0.019234288 0.037756208 0.74800003 1.4678216e-38
-0.017785711 0.037705712 0.74700004 2.0925524e-38
-0.016319059 0.03760476 0.74500012 1.9356053e-38
-0.01490001 0.037604757 0.74500012 1.7791627e-38
-0.013480959 0.037604764 0.74500006 1.3658676e-38
-0.01202953 0.037503816 0.74300003 9.5020339e-39
-0.010614306 0.037503824 0.74299997 4.7961738e-39
-0.0091990558 0.037503839 0.74300003 1.2619533e-40
-0.0077733356 0.037453353 0.74200004 2.5074611e-39
-0.0063600112 0.037453339 0.74200004 4.8166159e-39
-0.004946663 0.037453339 0.74200004 2.6975794e-39
-0.0035238133 0.037352391 0.74000001 5.0145045e-40
-0.0021114501 0.037301913 0.73899996 3.9890763e-39
-0.00070382433 0.037301913 0.73900002 7.4964031e-39
0.00070379104 0.037301905 0.73899996 1.3187691e-38
0.0021114096 0.037301913 0.73899996 1.8811172e-38
0.0035190347 0.037301913 0.73900002 2.1117814e-38
0.0049133226 0.037200965 0.73700005 2.3409406e-38
0.0063171266 0.037200965 0.73699999 2.3417665e-38
0.0077209407 0.037200958 0.73700005 2.3417677e-38
0.009124754 0.03720095 0.73700005 2.341769e-38
0.010557129 0.037301913 0.73900002 2.341769e-38
0.011964747 0.037301913 0.73900002 2.341769e-38
0.013372363 0.037301905 0.73899996 2.341769e-38
0.014799985 0.037352383 0.74000001 2.341769e-38
0.016209504 0.037352391 0.74000001 2.341769e-38
0.01761904 0.037352383 0.74000007 2.341769e-38
0.019028567 0.037352398 0.74000001 2.341769e-38
0.020410456 0.037301928 0.73899996 2.341769e-38
0.021847608 0.037352398 0.74000001 2.341769e-38
0.023319995 0.037453346 0.74200004 2.341769e-38
0.024766658 0.037503816 0.74299997 2.3417686e-38
0.026252376 0.037604757 0.74500012 2.3325845e-38
0.027671412 0.037604764 0.74500006 2.3232936e-38
0.029168574 0.037705708 0.74700004 2.3325849e-38
0.030632377 0.037756208 0.74799997 2.3416963e-38
0.032142852 0.037857153 0.75000006 2.2407487e-38
0.033481896 0.037756201 0.74800003 2.1299004e-38
0.035 0.03785716 0.75000006 2.1205376e-38
0.036525708 0.037958104 0.75200003 2.1113525e-38
0.038008567 0.038008586 0.75300002 1.9367559e-38
0.039442852 0.038008578 0.75300002 1.7521519e-38
0.041040011 0.038160007 0.7560001 1.7336769e-38
0.042760957 0.038412385 0.7610001 1.7148802e-38
0.044210467 0.038412388 0.76100004 1.659457e-38
0.045780003 0.038513348 0.76300001 1.5951709e-38
-0.034242861 0.040071435 0.76500005 1.4753474e-38
-0.03270001 0.039966669 0.76300001 1.4208551e-38
-0.03104192 0.039704774 0.75800002 1.419814e-38
-0.029598106 0.039704774 0.75800002 1.4295018e-38
-0.028080009 0.039600018 0.75600004 1.2074845e-38
-0.026640007 0.039600022 0.75600004 9.8643284e-39
-0.025166674 0.03954763 0.75500005 8.6607728e-39
-0.023665732 0.039442867 0.75300002 7.538236e-39
-0.022201924 0.039390482 0.75200003 5.8901549e-39
-0.020714298 0.039285734 0.75 4.2289786e-39
-0.019285733 0.039285734 0.75 1.2641008e-38
-0.017785724 0.039128575 0.74699998 2.102996e-38
-0.016362865 0.039128575 0.74699998 1.9826765e-38
-0.014900017 0.039023813 0.74500006 1.863291e-38
-0.01348097 0.039023813 0.74500006 1.6138649e-38
-0.012029535 0.038919047 0.74300003 1.3643978e-38
-0.010614295 0.038919061 0.74299997 9.9658483e-39
-0.0091990605 0.038919065 0.74300003 6.2884866e-39
-0.0077838255 0.038919054 0.74300003 9.2351174e-39
-0.0063685756 0.03891905 0.74300003 1.2272502e-38
-0.004946664 0.038866676 0.74200004 8.5850873e-39
-0.0035333403 0.038866673 0.74200004 4.9170905e-39
-0.0021142976 0.038761918 0.74000001 9.7923045e-39
-0.00070476031 0.038761903 0.74000007 1.4577066e-38
0.00070379477 0.038709529 0.73900002 1.696944e-38
0.0021114096 0.038709536 0.73899996 1.926602e-38
0.0035190282 0.038709525 0.73899996 1.5586117e-38
0.0049266536 0.038709525 0.73900002 1.1816934e-38
0.006334262 0.03870954 0.73899996 1.4121807e-38
0.0077418881 0.03870954 0.73899996 1.6437808e-38
0.0091495151 0.038709529 0.73900002 1.8726188e-38
0.010557123 0.03870954 0.73899996 2.1121803e-38
0.011964748 0.038709529 0.73899996 2.2222394e-38
0.013390464 0.038761914 0.74000001 2.341769e-38
0.014799994 0.038761895 0.74000007 2.341769e-38
0.01620952 0.038761903 0.74000001 2.341769e-38
0.01761904 0.038761914 0.74000001 2.341769e-38
0.019028559 0.038761918 0.74000001 2.341769e-38
0.020438084 0.03876191 0.74000001 2.341769e-38
0.021847613 0.038761906 0.74000007 2.341769e-38
0.02335142 0.038919061 0.74299997 2.341769e-38
0.024766654 0.038919054 0.74300003 2.341769e-38
0.026252372 0.039023809 0.74500006 2.341769e-38
0.027745711 0.03912859 0.74699998 2.3325854e-38
0.029207615 0.039180961 0.74800003 2.2956719e-38
0.03063238 0.039180957 0.74800003 2.2499322e-38
0.032142852 0.039285727 0.75000006 2.2402809e-38
0.033571418 0.039285734 0.75 2.2297345e-38
0.035 0.039285734 0.75000006 2.2124439e-38
0.036525711 0.039390486 0.75200003 2.2035826e-38
0.038008559 0.039442882 0.75300002 1.97324e-38
0.039547611 0.039547637 0.755 1.7427896e-38
0.041148573 0.039704762 0.75800002 1.7152024e-38
0.042760953 0.03986191 0.76100004 1.6879039e-38
0.044210467 0.039861921 0.76100004 1.6600674e-38
0.045780007 0.039966669 0.76300001 1.632658e-38
-0.034242876 0.041528579 0.76500005 1.1977192e-38
-0.032700002 0.041420005 0.76300001 1.0134018e-38
-0.031041916 0.041148588 0.75800002 9.6665828e-39
-0.029598102 0.041148584 0.75800002 9.2102864e-39
-0.028080005 0.041040011 0.7560001 4.6841694e-39
-0.026640013 0.041040022 0.75600004 1.1033964e-40
-0.025166675 0.040985733 0.75500005 9.2410029e-41
-0.023665719 0.040877145 0.75300002 9.8114715e-41
-0.022201916 0.040822875 0.75200003 9.305883e-41
-0.020769538 0.040822871 0.75200003 1.1181661e-40
-0.019285738 0.040714301 0.75 1.062601e-38
-0.017809534 0.040605728 0.74800003 2.1113187e-38
-0.016362851 0.040551435 0.74700004 2.0287739e-38
-0.014900012 0.040442862 0.74500012 1.9455123e-38
-0.013480965 0.040442858 0.74500012 1.8618562e-38
-0.012061903 0.040442854 0.74500012 1.7794169e-38
-0.010614299 0.040334295 0.74299997 1.5134141e-38
-0.0091990503 0.040334295 0.74300003 1.236868e-38
-0.0077838148 0.040334284 0.74300003 1.6055023e-38
-0.0063685803 0.040334281 0.74300003 1.9626188e-38
-0.0049466649 0.040280011 0.74200004 1.445361e-38
-0.0035333417 0.040280022 0.74200004 9.3309452e-39
-0.0021142962 0.040171433 0.74000007 1.5501895e-38
-0.00070477009 0.04017143 0.74000001 2.1662401e-38
0.00070474937 0.04017143 0.74000001 2.0754444e-38
0.0021114133 0.040117156 0.73900002 1.9723412e-38
0.0035190282 0.040117152 0.73899996 9.9593995e-39
0.0049266471 0.040117156 0.73899996 2.2663761e-40
0.0063428516 0.040171437 0.74000001 4.8141146e-39
0.0077418806 0.040117152 0.73899996 9.4180849e-39
0.0091495067 0.040117152 0.73899996 1.4111021e-38
0.010571416 0.040171441 0.74000001 1.8704601e-38
0.011980946 0.040171422 0.74000007 2.1115294e-38
0.013390472 0.04017143 0.74000001 2.3405105e-38
0.014839993 0.040280025 0.74200004 2.3417683e-38
0.016209509 0.04017143 0.74000001 2.3415892e-38
0.017666666 0.040280014 0.74200004 2.341769e-38
0.019079996 0.040280007 0.74200004 2.341769e-38
0.020493327 0.040280014 0.74200004 2.341769e-38
0.021906666 0.040280011 0.74200004 2.341769e-38
0.023351416 0.040334292 0.74299997 2.341769e-38
0.024766658 0.040334299 0.74300003 2.341769e-38
0.026252376 0.040442862 0.74500012 2.341769e-38
0.027745716 0.040551428 0.74700004 2.3415896e-38
0.029207617 0.040605739 0.74800003 2.2492518e-38
0.030714279 0.040714301 0.75 2.1578821e-38
0.032142844 0.040714309 0.75 2.2498246e-38
0.033660941 0.040822875 0.75200003 2.332118e-38
0.035093334 0.040822864 0.75200003 2.3142174e-38
0.036525711 0.040822867 0.75200009 2.2862351e-38
0.038008563 0.04087716 0.75300002 2.0098666e-38
0.0396 0.041040007 0.75600004 1.7243507e-38
0.041257132 0.041257169 0.75999999 1.6872211e-38
0.042873334 0.041420009 0.76300001 1.6508823e-38
0.044326674 0.041420005 0.76300001 1.6601742e-38
0.045780007 0.041420009 0.76300001 1.6693924e-38
-0.034242883 0.042985722 0.76499999 1.1406037e-38
-0.03270001 0.042873338 0.76300001 9.6432218e-39
-0.031246673 0.04287333 0.76300001 1.0396195e-38
-0.029793333 0.042873345 0.76300001 1.1134467e-38
-0.028154299 0.042592391 0.75800002 9.0297837e-39
-0.026640002 0.042480022 0.75600004 6.8304192e-39
-0.025100023 0.042311437 0.75300002 5.0748052e-39
-0.023665728 0.042311437 0.75300002 3.4131511e-39
-0.022201914 0.042255256 0.75200003 1.7511382e-39
-0.020769535 0.042255253 0.75200003 1.0034698e-40
-0.019285729 0.042142879 0.75000006 1.0436958e-38
-0.017809534 0.042030491 0.74800003 2.0754456e-38
-0.016362863 0.041974299 0.74700004 1.9917528e-38
-0.014900018 0.041861918 0.74500006 1.9178898e-38
-0.013480972 0.041861918 0.74500006 1.9181049e-38
-0.01206191 0.04186191 0.74500006 1.9188577e-38
-0.010642863 0.041861907 0.74500006 1.6237996e-38
-0.009199054 0.04174953 0.74300003 1.3373887e-38
-0.0077838199 0.041749533 0.74300003 1.6881225e-38
-0.00636857 0.041749522 0.74300003 2.0386373e-38
-0.0049533453 0.04174953 0.74299997 1.5766589e-38
-0.003538111 0.041749537 0.74300003 1.1175201e-38
-0.002114292 0.041580956 0.74000001 1.6516396e-38
-0.0007047808 0.041580964 0.74000001 2.1948322e-38
0.00070474658 0.04158096 0.74000001 2.0659038e-38
0.0021142827 0.041580953 0.74000007 1.9270701e-38
0.0035238022 0.041580964 0.74000001 9.6867629e-39
0.0049333209 0.041580968 0.74000001 2.133547e-40
0.0063428478 0.04158096 0.74000001 3.1520864e-39
0.0077523673 0.041580968 0.74000001 6.1664868e-39
0.0091618942 0.041580964 0.74000001 1.0131528e-38
0.010571424 0.041580956 0.74000007 1.4153299e-38
0.012013329 0.041693345 0.74200004 1.4923162e-38
0.013426661 0.04169336 0.74200004 1.5751878e-38
0.014839993 0.041693345 0.74200004 1.5494352e-38
0.016253332 0.041693345 0.74200004 1.5328985e-38
0.017666664 0.041693352 0.74200004 1.8168359e-38
0.019079994 0.04169336 0.74200004 2.1029967e-38
0.020493325 0.041693348 0.74200004 2.2219882e-38
0.021906668 0.041693352 0.74200004 2.341769e-38
0.02335142 0.041749533 0.74300003 2.341769e-38
0.024766661 0.04174953 0.74300003 2.341769e-38
0.026252368 0.041861907 0.74500006 2.341769e-38
0.02774572 0.041974295 0.74700004 2.3417689e-38
0.029207615 0.042030506 0.74799997 2.2956716e-38
0.030714273 0.042142879 0.75000006 2.2498616e-38
0.032142844 0.042142883 0.75 2.2958154e-38
0.033660945 0.042255256 0.75200003 2.341769e-38
0.035093337 0.042255249 0.75200003 2.3142183e-38
0.036574271 0.042311434 0.75299996 2.2866303e-38
0.038109522 0.042423815 0.75500005 1.9729171e-38
0.039704755 0.042592391 0.75799996 1.6594918e-38
0.041257136 0.042704768 0.76000005 1.6229361e-38
0.042873334 0.042873334 0.76300001 1.5865252e-38
0.044326674 0.042873327 0.76300001 1.6141121e-38
0.045779999 0.042873345 0.76300001 1.6417342e-38
-0.03424288 0.044442873 0.76499999 1.0837058e-38
-0.032699998 0.044326674 0.76300001 9.103698e-39
-0.031246664 0.044326667 0.76300001 1.1140258e-38
-0.029793341 0.04432667 0.76300001 1.3085674e-38
-0.028154293 0.044036202 0.75800002 1.337877e-38
-0.02671049 0.04403621 0.75800002 1.35499e-38
-0.025166679 0.043861922 0.755 1.014734e-38
-0.02366573 0.043745715 0.75300002 6.6407016e-39
-0.022201911 0.043687627 0.75200003 3.3984487e-39
-0.020769542 0.04368763 0.75200003 1.2042899e-40
-0.019285735 0.043571454 0.75000006 1.0266177e-38
-0.017809534 0.043455247 0.74800003 2.0282711e-38
-0.016384766 0.043455251 0.74800003 1.9540142e-38
-0.01494 0.043397151 0.74700004 1.8813711e-38
-0.013517142 0.043397158 0.74700004 1.9645613e-38
-0.012061906 0.043280944 0.74500012 2.0473922e-38
-0.010642858 0.043280955 0.74500012 1.74394e-38
-0.0092238216 0.043280963 0.74500006 1.4306955e-38
-0.0078047751 0.04328097 0.74500006 1.770882e-38
-0.0063685849 0.043164779 0.74299997 2.1018469e-38
-0.0049533495 0.043164771 0.74300003 1.6959398e-38
-0.0035381003 0.043164767 0.74300003 1.2928335e-38
-0.0021143027 0.042990487 0.74000001 1.7623437e-38
-0.00070477568 0.042990491 0.74000001 2.2220954e-38
0.0007047531 0.042990472 0.74000007 2.057079e-38
0.0021142799 0.04299048 0.74000001 1.8801132e-38
0.0035237984 0.042990487 0.74000001 9.4873315e-39
0.0049333191 0.042990495 0.74000001 1.2296114e-40
0.006342845 0.042990491 0.74000001 1.5065738e-39
0.0077523747 0.042990483 0.74000007 2.8801728e-39
0.0091619007 0.042990476 0.74000001 6.2784575e-39
0.010599998 0.043106675 0.74200004 9.6849833e-39
0.012013329 0.043106679 0.74200004 8.8559555e-39
0.013426659 0.043106679 0.74200004 8.0412167e-39
0.014839991 0.043106679 0.74200004 7.661619e-39
0.01625333 0.043106679 0.74200004 7.21683e-39
0.017666662 0.043106671 0.74200004 1.2895962e-38
0.019079994 0.043106679 0.74200004 1.8519838e-38
0.020493325 0.043106686 0.74199998 2.092194e-38
0.02193618 0.043164779 0.74299997 2.3319013e-38
0.023351422 0.043164775 0.74300003 2.341769e-38
0.024766658 0.043164767 0.74300003 2.341769e-38
0.026252376 0.043280952 0.74500006 2.341769e-38
0.027745709 0.043397158 0.74699998 2.341769e-38
0.029207619 0.043455254 0.74800003 2.3417689e-38
0.030714281 0.043571446 0.75000006 2.341769e-38
0.032228567 0.043687645 0.75200003 2.341769e-38
0.033660945 0.043687619 0.75200003 2.341769e-38
0.035139997 0.04374573 0.75300002 2.3142183e-38
0.036574285 0.043745726 0.75300002 2.2769444e-38
0.038109522 0.043861914 0.755 1.9356089e-38
0.039704751 0.044036202 0.75800002 1.5864169e-38
0.041257121 0.044152405 0.75999999 1.5585414e-38
0.042873334 0.044326674 0.76299995 1.5219878e-38
0.044326667 0.044326667 0.76300001 1.5679786e-38
0.046019994 0.044559047 0.76700002 1.6048208e-38
-0.034153346 0.045780007 0.76300001 1.1588932e-38
-0.032699998 0.045779999 0.76300001 1.0579534e-38
-0.031164767 0.045660008 0.7610001 1.2073013e-38
-0.029793337 0.045779999 0.76300001 1.3658273e-38
-0.02822859 0.045600012 0.76000005 1.1903016e-38
-0.026710486 0.045480005 0.75800002 1.0158869e-38
-0.025200009 0.045360014 0.75600004 1.1353097e-38
-0.023728579 0.045300014 0.75500005 1.2541883e-38
-0.022231445 0.045180012 0.75300002 9.2196092e-39
-0.02076954 0.045120019 0.75200003 5.9100043e-39
-0.019337147 0.045120019 0.75200003 1.1263787e-38
-0.017809534 0.044880018 0.74799997 1.6610354e-38
-0.016384766 0.04488001 0.74800003 1.6053621e-38
-0.014940003 0.044820003 0.74700004 1.5604853e-38
-0.013517144 0.044819996 0.74700004 1.7349373e-38
-0.012061911 0.044700015 0.74500006 1.9101419e-38
-0.010642865 0.044700012 0.74500006 1.7437256e-38
-0.0092238178 0.044700008 0.74500006 1.5685207e-38
-0.007804771 0.044700008 0.74500006 1.7436898e-38
-0.0063857241 0.044699997 0.74500006 1.919325e-38
-0.0049533397 0.044580016 0.74300003 1.7712759e-38
-0.0035381049 0.044580005 0.74300003 1.6240877e-38
-0.002120008 0.044520024 0.74200004 1.7896065e-38
-0.00070667325 0.044520013 0.74200004 1.9557364e-38
0.00070475123 0.044399999 0.74000001 1.9277201e-38
0.002114278 0.044400007 0.74000001 1.9079878e-38
0.0035237966 0.04440001 0.74000001 1.1523878e-38
0.0049333265 0.04440001 0.74000007 4.0693848e-39
0.0063600005 0.044520017 0.74200004 7.2925618e-39
0.0077733239 0.04452002 0.74200004 1.0518337e-38
0.0091866609 0.044520017 0.74199998 1.2921538e-38
0.010599996 0.044520009 0.74200004 1.5328975e-38
0.012013327 0.044520006 0.74200004 1.4851844e-38
0.013426657 0.044520009 0.74200004 1.4405062e-38
0.014859992 0.04458002 0.74300003 1.3197767e-38
0.01625333 0.044520017 0.74200004 1.1990704e-38
0.01766666 0.044520009 0.74200004 1.5653432e-38
0.019079993 0.044520013 0.74200004 1.932368e-38
0.02052094 0.044580009 0.74299997 2.0357603e-38
0.021936184 0.044580009 0.74300003 2.1477257e-38
0.023351418 0.044580016 0.74300003 2.2493595e-38
0.024766661 0.044580013 0.74300003 2.341769e-38
0.026252378 0.044699997 0.74500012 2.341769e-38
0.027745724 0.044820003 0.74700004 2.341769e-38
0.029207621 0.044880014 0.74800003 2.2771972e-38
0.030714275 0.04500002 0.75000006 2.2040158e-38
0.03222857 0.045120008 0.75200003 2.2773765e-38
0.033571415 0.045000024 0.75000006 2.341769e-38
0.035139993 0.045180015 0.75300002 2.3234019e-38
0.036671419 0.045300014 0.755 2.3142167e-38
0.038160007 0.045359999 0.7560001 2.138759e-38
0.039704755 0.045480017 0.75800002 1.9634792e-38
0.041257136 0.045600023 0.76000005 1.8072841e-38
0.042873338 0.045779999 0.76300001 1.6411931e-38
0.04432667 0.045780007 0.76300001 1.6321551e-38
0.046019997 0.046019994 0.76700002 1.6230444e-38
-0.034153339 0.047233347 0.76300001 1.2325744e-38
-0.032700006 0.047233336 0.76300001 1.2062869e-38
-0.031246679 0.047233343 0.76300001 1.3097529e-38
-0.02979333 0.047233339 0.76300001 1.4107008e-38
-0.028265733 0.047109522 0.76100004 1.0415658e-38
-0.026780978 0.047047641 0.75999999 6.7598596e-39
-0.025200004 0.046800006 0.7560001 1.2564195e-38
-0.023728581 0.046738114 0.755 1.834263e-38
-0.022231445 0.046614293 0.75300002 1.5028635e-38
-0.020769536 0.046552386 0.75200003 1.171756e-38
-0.019337155 0.046552397 0.75200003 1.2360076e-38
-0.017857162 0.046428591 0.75 1.2925096e-38
-0.016384766 0.046304777 0.74800003 1.2643151e-38
-0.014939999 0.046242855 0.74700004 1.2286574e-38
-0.01351714 0.046242859 0.74700004 1.504523e-38
-0.012094283 0.046242863 0.74700004 1.7714554e-38
-0.01064286 0.046119049 0.74500006 1.7431511e-38
-0.0092238132 0.046119053 0.74500012 1.7067759e-38
-0.0078047668 0.046119053 0.74500012 1.7252149e-38
-0.0063857296 0.046119053 0.74500006 1.7351517e-38
-0.0049666828 0.046119053 0.74500006 1.8456771e-38
-0.0035381091 0.045995254 0.74300003 1.9549466e-38
-0.0021200094 0.045933358 0.74200004 1.8161886e-38
-0.00070667465 0.04593334 0.74200004 1.6796558e-38
0.00070666324 0.045933347 0.74200004 1.8084774e-38
0.0021142669 0.045809533 0.74000001 1.9267861e-38
0.0035333259 0.045933358 0.74200004 1.3641849e-38
0.0049466672 0.04593334 0.74200004 8.0355597e-39
0.0063599981 0.045933351 0.74200004 1.3076089e-38
0.0077733295 0.045933343 0.74200004 1.8066805e-38
0.0091866609 0.045933351 0.74199998 1.9560599e-38
0.010600002 0.045933343 0.74200004 2.09234e-38
0.012013334 0.045933358 0.74200004 2.0817193e-38
0.013444752 0.045995254 0.74299997 2.0742152e-38
0.014859994 0.04599525 0.74300003 1.8733903e-38
0.01625333 0.045933351 0.74200004 1.668552e-38
0.01766666 0.045933343 0.74200004 1.8403469e-38
0.019105703 0.045995258 0.74299997 2.0068735e-38
0.020520944 0.045995254 0.74299997 1.9890476e-38
0.021936178 0.045995243 0.74300003 1.9625052e-38
0.023351422 0.045995247 0.74300003 2.1570137e-38
0.024833325 0.04611906 0.74500006 2.3409747e-38
0.02625237 0.046119045 0.74500006 2.341767e-38
0.027745716 0.046242863 0.74700004 2.3410487e-38
0.029207619 0.046304781 0.74800003 2.2028642e-38
0.030714283 0.046428591 0.75000006 2.0655787e-38
0.03214284 0.046428602 0.75 2.2035486e-38
0.033660948 0.046552386 0.75200003 2.341661e-38
0.035139993 0.046614282 0.75300002 2.341769e-38
0.036671415 0.046738118 0.755 2.3417682e-38
0.03816 0.046800014 0.7560001 2.3417673e-38
0.039704759 0.046923824 0.75800002 2.3412277e-38
0.041257121 0.047047637 0.75999999 2.0566796e-38
0.04276095 0.047109522 0.76100004 1.7615502e-38
0.044442851 0.047357149 0.76500005 1.6964401e-38
0.046079993 0.047542874 0.76800001 1.6323356e-38
0.047542851 0.047542874 0.76800001 1.6601385e-38
-0.034242876 0.048814289 0.76500005 1.0585151e-38
-0.03270001 0.048686668 0.76300001 1.0320482e-38
-0.031328592 0.048814289 0.76499999 1.254111e-38
-0.029793335 0.048686679 0.76300001 1.4755917e-38
-0.028265733 0.048559051 0.76100004 1.217447e-38
-0.02681621 0.048559044 0.76100004 9.6042306e-39
-0.025266677 0.048367627 0.75800002 1.3755202e-38
-0.023760002 0.048240021 0.75600004 1.7991117e-38
-0.022290481 0.048176195 0.75500005 1.6143288e-38
-0.020797152 0.048048574 0.75300002 1.4305493e-38
-0.019337151 0.047984779 0.75200003 1.5406074e-38
-0.017857153 0.047857165 0.75 1.6514932e-38
-0.016428586 0.047857162 0.75000006 1.5132034e-38
-0.014959994 0.047729533 0.74800003 1.3751275e-38
-0.013517153 0.047665723 0.74700004 1.6885163e-38
-0.012094295 0.047665723 0.74700004 2.0106936e-38
-0.010642855 0.04753809 0.74500012 2.001115e-38
-0.0092238188 0.047538109 0.74500006 2.0014383e-38
-0.0078047724 0.047538094 0.74500006 2.0105864e-38
-0.0063857259 0.047538094 0.74500006 2.0289894e-38
-0.004966679 0.047538098 0.74500006 1.918715e-38
-0.0035380984 0.047410488 0.74300003 1.8083328e-38
-0.0021200099 0.047346693 0.74200004 1.8908049e-38
-0.00070667604 0.047346674 0.74200004 1.9831434e-38
0.00070666231 0.047346681 0.74200004 2.0567918e-38
0.0021199936 0.04734667 0.74200004 2.1213634e-38
0.003533324 0.047346681 0.74199998 1.8442781e-38
0.0049466658 0.047346678 0.74200004 1.5589776e-38
0.0063599967 0.047346685 0.74200004 1.8071121e-38
0.0077733276 0.047346678 0.74200004 2.0478944e-38
0.009186659 0.047346685 0.74199998 1.9830366e-38
0.010600002 0.047346678 0.74200004 1.9262104e-38
0.012013331 0.047346674 0.74200004 1.9074098e-38
0.013444755 0.047410481 0.74299997 1.8910547e-38
0.014859997 0.047410484 0.74300003 1.9278994e-38
0.016253326 0.047346685 0.74200004 1.9726221e-38
0.017690472 0.047410488 0.74300003 1.9615978e-38
0.019105705 0.047410488 0.74299997 1.9534193e-38
0.02052094 0.047410488 0.74300003 1.915143e-38
0.021936182 0.047410492 0.74300003 1.8868775e-38
0.023351425 0.047410481 0.74300003 1.9897645e-38
0.024833331 0.04753809 0.74500006 2.1008342e-38
0.026252378 0.047538094 0.74500006 2.1842457e-38
0.027782861 0.047729533 0.74800003 2.2665372e-38
0.029207621 0.047729544 0.74799997 2.2305545e-38
0.030714277 0.047857165 0.75000006 2.2029351e-38
0.032228563 0.047984775 0.75200003 2.2770879e-38
0.033705704 0.048048589 0.75300002 2.3417682e-38
0.035233323 0.048176203 0.755 2.341769e-38
0.036671426 0.048176195 0.75500005 2.341769e-38
0.038160004 0.048240013 0.75600004 2.341769e-38
0.039704762 0.048367638 0.75800002 2.341769e-38
0.041257136 0.048495248 0.76000005 2.1485557e-38
0.04276095 0.048559044 0.7610001 1.9549812e-38
0.044210471 0.048559044 0.76100004 1.7978896e-38
0.046079997 0.049005721 0.76800001 1.6323357e-38
0.047542859 0.049005717 0.76800001 1.6692503e-38
-0.034153339 0.050140012 0.76299995 8.7365915e-39
-0.032700002 0.050140005 0.76300001 8.5695006e-39
-0.031246677 0.050140008 0.76299995 1.1990093e-38
-0.029793343 0.050140001 0.76300001 1.5303721e-38
-0.028340017 0.050140008 0.76299995 1.3830066e-38
-0.026816212 0.050008573 0.76100004 1.2367207e-38
-0.025266675 0.049811434 0.75800002 1.5044839e-38
-0.023759997 0.049680006 0.7560001 1.7616244e-38
-0.022290485 0.049614299 0.75500005 1.7248197e-38
-0.020797163 0.049482871 0.75300002 1.6789014e-38
-0.019362867 0.049482875 0.75300002 1.8443125e-38
-0.01785716 0.049285736 0.75 2.0009001e-38
-0.016428594 0.049285736 0.75000006 1.7619132e-38
-0.014960009 0.049154297 0.74800003 1.5140652e-38
-0.01353525 0.049154304 0.74799997 1.8821247e-38
-0.012094281 0.049088582 0.74700004 2.2495023e-38
-0.010671423 0.049088582 0.74700004 2.2675105e-38
-0.0092238151 0.04895715 0.74500006 2.2863443e-38
-0.0078047682 0.04895715 0.74500012 2.3050344e-38
-0.0063857217 0.048957139 0.74500012 2.3230426e-38
-0.0049666748 0.048957139 0.74500012 1.9918247e-38
-0.0035476384 0.048957154 0.74500006 1.6522126e-38
-0.0021228634 0.04882573 0.74299997 1.9738878e-38
-0.00070762925 0.048825733 0.74300003 2.286416e-38
0.00070666138 0.048760019 0.74200004 2.3050348e-38
0.0021228485 0.048825722 0.74300003 2.3142181e-38
0.0035333231 0.048760019 0.74199998 2.3142179e-38
0.0049466649 0.048760016 0.74200004 2.3136078e-38
0.0063685644 0.048825726 0.74300003 2.304711e-38
0.0077837994 0.048825726 0.74300003 2.2865954e-38
0.0091990409 0.048825715 0.74300003 2.0203448e-38
0.010614284 0.048825718 0.74300003 1.7515787e-38
0.012029516 0.04882573 0.74299997 1.7214414e-38
0.01344475 0.048825718 0.74300003 1.6974101e-38
0.014859992 0.048825718 0.74300003 1.9927941e-38
0.016253324 0.048760004 0.74200004 2.2756078e-38
0.017690476 0.048825722 0.74300003 2.0891997e-38
0.019105701 0.048825722 0.74299997 1.8968113e-38
0.020520942 0.048825726 0.74300003 1.849602e-38
0.021995226 0.048957143 0.74500006 1.805233e-38
0.02341428 0.048957147 0.74500012 1.8326822e-38
0.024833327 0.048957147 0.74500012 1.853062e-38
0.026322858 0.049088582 0.74700004 2.0186926e-38
0.027782859 0.049154297 0.74800003 2.1847849e-38
0.029285703 0.049285743 0.75 2.2682611e-38
0.030714285 0.04928574 0.75000006 2.3414798e-38
0.03222857 0.049417157 0.75200003 2.3417682e-38
0.03379523 0.049614299 0.755 2.3417683e-38
0.03523333 0.049614295 0.75500005 2.3417324e-38
0.036720004 0.049680013 0.75600004 2.3323338e-38
0.038160004 0.049680009 0.75600004 2.3417686e-38
0.039704766 0.04981143 0.75800002 2.3417326e-38
0.041148566 0.049811438 0.75799996 2.2499329e-38
0.04276095 0.050008569 0.76100004 2.1474051e-38
0.04421046 0.050008573 0.76100004 1.8893669e-38
0.045659997 0.050008569 0.76100004 1.6324079e-38
-0.034153335 0.051593337 0.76300001 9.2043673e-39
-0.032785736 0.051728595 0.76499999 9.843351e-39
-0.031328589 0.051728588 0.76500005 1.244209e-38
-0.029871453 0.051728595 0.76499999 1.5036486e-38
-0.028340001 0.051593337 0.76300001 1.4110998e-38
-0.0268162 0.051458087 0.7610001 1.3101552e-38
-0.025266681 0.05125526 0.75800002 1.2548413e-38
-0.023822866 0.051255256 0.75800002 1.2007109e-38
-0.02232001 0.051120017 0.75600004 1.3938186e-38
-0.020852394 0.051052388 0.755 1.5964666e-38
-0.019337157 0.050849538 0.75200003 1.6517472e-38
-0.017857166 0.050714314 0.75 1.7172876e-38
-0.016428584 0.050714295 0.75000006 1.7258255e-38
-0.015000013 0.050714307 0.75 1.7442284e-38
-0.013571445 0.050714295 0.75000006 1.9097834e-38
-0.01211048 0.050579064 0.74800003 2.0846296e-38
-0.01068571 0.050579064 0.74800003 2.1210409e-38
-0.0092485752 0.050511435 0.74700004 2.158098e-38
-0.0078257173 0.050511438 0.74700004 2.2223829e-38
-0.0064028585 0.050511427 0.74700004 2.2866673e-38
-0.0049666804 0.050376199 0.74500006 2.0382447e-38
-0.0035476338 0.050376199 0.74500006 1.7990062e-38
-0.0021228686 0.050240964 0.74299997 2.0199853e-38
-0.00070763344 0.050240967 0.74300003 2.2499332e-38
0.00070760853 0.050240953 0.74300003 2.2040158e-38
0.0021228509 0.050240953 0.74300003 2.158098e-38
0.0035380831 0.050240971 0.74299997 2.1027456e-38
0.0049533257 0.050240956 0.74299997 2.057079e-38
0.0063685598 0.050240956 0.74300003 2.1579904e-38
0.0077838022 0.05024096 0.74300003 2.2591171e-38
0.0091990447 0.050240964 0.74300003 2.1115704e-38
0.010614276 0.05024096 0.74299997 1.9627279e-38
0.012029512 0.050240964 0.74299997 1.9814132e-38
0.013444753 0.050240967 0.74300003 1.9924668e-38
0.014859997 0.050240953 0.74300003 2.0563615e-38
0.016275238 0.050240956 0.74300003 2.1110936e-38
0.017690461 0.050240971 0.74299997 2.0076962e-38
0.019105705 0.050240967 0.74300003 1.9154654e-38
0.020576185 0.050376184 0.74500012 1.9901528e-38
0.021995232 0.050376192 0.74500012 2.0741777e-38
0.023414286 0.050376192 0.74500012 2.0832992e-38
0.024899995 0.050511442 0.74700004 2.1029234e-38
0.026322855 0.050511446 0.74700004 2.1759986e-38
0.027782854 0.05057906 0.74799997 2.2499335e-38
0.029207623 0.05057906 0.74800003 2.2958513e-38
0.03071427 0.05071431 0.75 2.341769e-38
0.032228559 0.050849535 0.75200003 2.2774842e-38
0.0337057 0.05091716 0.75300002 2.2131986e-38
0.03523333 0.051052395 0.75500005 2.1479804e-38
0.036671422 0.051052399 0.755 2.0928793e-38
0.03816 0.051120017 0.75600004 2.0656158e-38
0.039704762 0.051255241 0.75800002 2.0293838e-38
0.041257128 0.051390499 0.75999999 1.9455479e-38
0.04276095 0.051458102 0.76100004 1.8524195e-38
0.044210471 0.051458094 0.76100004 1.75165e-38
0.046379995 0.05226953 0.77300006 1.6416636e-38
0.047976181 0.052404769 0.77500004 1.6784345e-38
-0.032699998 0.053046674 0.76300001 1.1055131e-38
-0.031328585 0.053185724 0.76500005 1.2898326e-38
-0.029871449 0.053185727 0.76499999 1.4744789e-38
-0.028340008 0.053046659 0.76300001 1.4292496e-38
-0.026886668 0.053046662 0.76300001 1.3824364e-38
-0.025266677 0.052699067 0.75800002 1.0132304e-38
-0.023822863 0.052699063 0.75800002 6.3875388e-39
-0.022320004 0.052560005 0.7560001 1.0716047e-38
-0.020852387 0.05249048 0.75500005 1.5039492e-38
-0.019362878 0.052351449 0.75300002 1.467251e-38
-0.017857159 0.052142885 0.75 1.4313061e-38
-0.01642859 0.052142866 0.75000006 1.6982031e-38
-0.015000018 0.052142873 0.75 1.9645616e-38
-0.013571437 0.052142873 0.75000006 1.9372618e-38
-0.01214288 0.052142881 0.75 1.9095678e-38
-0.01068571 0.052003823 0.74800003 1.9647767e-38
-0.0092609655 0.052003831 0.74800003 2.0201292e-38
-0.0078361966 0.052003812 0.74800003 2.1305474e-38
-0.0063857231 0.05179524 0.74500006 2.2406421e-38
-0.0049666762 0.05179524 0.74500012 2.0938127e-38
-0.00354763 0.05179524 0.74500012 1.946589e-38
-0.0021228727 0.051656198 0.74300003 2.0754456e-38
-0.0007076232 0.051656201 0.74300003 2.2040156e-38
0.00070761226 0.051656205 0.74300003 2.1029967e-38
0.0021228536 0.05165619 0.74300003 2.0015468e-38
0.0035380858 0.051656201 0.74299997 1.8999173e-38
0.0049533206 0.051656209 0.74300003 1.7901095e-38
0.0063685635 0.051656194 0.74300003 2.0110888e-38
0.007783806 0.051656194 0.74300003 2.2220236e-38
0.0091990484 0.051656198 0.74300003 2.2040153e-38
0.010614272 0.051656213 0.74299997 2.1752783e-38
0.012029513 0.051656198 0.74300003 2.2305924e-38
0.013444756 0.051656198 0.74300003 2.2856906e-38
0.014859998 0.051656198 0.74300003 2.1198096e-38
0.016275233 0.051656187 0.74300003 1.9438842e-38
0.017690465 0.051656201 0.74299997 1.9334061e-38
0.019157141 0.051795229 0.74500012 1.9259836e-38
0.020576177 0.05179524 0.74500006 2.1397197e-38
0.022054292 0.051934294 0.74700004 2.3414397e-38
0.023477152 0.051934294 0.74700004 2.3417675e-38
0.02493334 0.052003819 0.74800003 2.3417323e-38
0.0263581 0.052003816 0.74800003 2.3232581e-38
0.027857125 0.052142892 0.75 2.3049629e-38
0.029285707 0.052142888 0.75000006 2.3234019e-38
0.030796183 0.05228192 0.75200003 2.3417683e-38
0.032271419 0.052351438 0.75300002 2.2131262e-38
0.033795238 0.05249048 0.75500005 2.0737201e-38
0.035233326 0.052490484 0.755 1.9625104e-38
0.036719993 0.052560017 0.75600004 1.8532068e-38
0.038159993 0.052560017 0.75600004 1.789283e-38
0.039704759 0.052699063 0.75800002 1.7157067e-38
0.041311421 0.052907623 0.76100004 1.6412696e-38
0.042873334 0.053046674 0.76300001 1.5588324e-38
0.044617143 0.053394299 0.76800001 1.6047496e-38
0.046379991 0.053741917 0.77300006 1.6508114e-38
0.047976173 0.053880967 0.77499998 1.6783985e-38
0.049452368 0.05388096 0.77499998 1.6968374e-38
-0.03287144 0.054785706 0.76700008 1.0974755e-38
-0.031328585 0.05464286 0.76500005 1.1702599e-38
-0.029871449 0.054642864 0.76499999 1.2435941e-38
-0.028414302 0.05464286 0.76500005 1.3176816e-38
-0.026886674 0.054500006 0.76299995 1.3822177e-38
-0.025333352 0.054285735 0.75999999 1.0786943e-38
-0.023822859 0.054142874 0.75800002 7.7560777e-39
-0.022319995 0.054000001 0.7560001 1.1352435e-38
-0.020852387 0.053928588 0.75500005 1.4855818e-38
-0.019362865 0.053785726 0.75300002 1.4396285e-38
-0.017904783 0.053714301 0.75200003 1.4026792e-38
-0.016428592 0.053571448 0.75 1.5044158e-38
-0.01500001 0.053571444 0.75 1.6152994e-38
-0.013571442 0.053571444 0.75000006 1.7253221e-38
-0.012142872 0.053571451 0.75 1.8444932e-38
-0.010685711 0.053428587 0.74800003 1.8449238e-38
-0.0092609655 0.053428598 0.74799997 1.8454982e-38
-0.0078257155 0.053357139 0.74700004 1.9096039e-38
-0.0064028674 0.053357154 0.74699998 1.9831799e-38
-0.004980009 0.053357154 0.74699998 1.9465175e-38
-0.0035476352 0.053214297 0.74500006 1.9099627e-38
-0.002122862 0.053071432 0.74300003 1.9742116e-38
-0.00070762739 0.053071432 0.74300003 2.0387119e-38
0.00070761505 0.053071439 0.74300003 2.0015472e-38
0.0021228462 0.05307145 0.74299997 1.9553056e-38
0.0035380812 0.053071436 0.74299997 1.8908045e-38
0.0049533229 0.053071439 0.74300003 1.8352372e-38
0.0063685658 0.053071439 0.74300003 1.8626446e-38
0.0077838087 0.053071424 0.74300003 1.8904108e-38
0.0091990316 0.053071439 0.74299997 1.9822464e-38
0.010614275 0.053071443 0.74300003 2.0741532e-38
0.012029517 0.053071443 0.74300003 2.0558574e-38
0.01344476 0.053071428 0.74300003 2.0468785e-38
0.014859994 0.053071436 0.74300003 1.8978144e-38
0.016275223 0.053071447 0.74299997 1.7581643e-38
0.017690469 0.053071432 0.74299997 1.759496e-38
0.019157136 0.053214297 0.74500006 1.7704446e-38
0.020576183 0.053214286 0.74500006 2.0564332e-38
0.022054287 0.053357158 0.74700004 2.341769e-38
0.023477145 0.053357162 0.74700004 2.341769e-38
0.024933331 0.053428587 0.74800003 2.3417689e-38
0.026358094 0.05342859 0.74800003 2.3325133e-38
0.027857125 0.053571444 0.75 2.3232224e-38
0.029285699 0.053571444 0.75000006 2.3325496e-38
0.030796185 0.053714301 0.75200003 2.3417676e-38
0.032271419 0.05378573 0.75300002 2.037023e-38
0.033795234 0.05392858 0.755 1.731486e-38
0.035233326 0.053928588 0.755 1.7319476e-38
0.036720008 0.054000005 0.7560001 1.7425704e-38
0.038260948 0.054142874 0.75800002 1.7428975e-38
0.039704755 0.05414287 0.75800002 1.7517938e-38
0.041311428 0.054357145 0.76100004 1.6967998e-38
0.042873345 0.054499999 0.76300001 1.6511696e-38
0.044442844 0.054642871 0.76499999 1.6785414e-38
0.046380002 0.05521429 0.77300006 1.7150964e-38
0.047976173 0.055357147 0.77500004 1.7244953e-38
-0.032785729 0.056100011 0.76500005 1.0872543e-38
-0.031328592 0.056100018 0.76499999 1.0501604e-38
-0.029871447 0.056100011 0.76500005 1.0134639e-38
-0.0284143 0.056100007 0.76500005 1.1972086e-38
-0.02688667 0.055953335 0.76300001 1.3817813e-38
-0.025333354 0.055733353 0.76000005 1.1529149e-38
-0.02382287 0.05558667 0.75800002 9.1411337e-39
-0.022379056 0.05558667 0.75800002 1.189806e-38
-0.020880006 0.055440012 0.75600004 1.4667475e-38
-0.019414298 0.055366676 0.755 1.4213323e-38
-0.017904766 0.055146687 0.75200003 1.3659801e-38
-0.016472386 0.055146683 0.75200009 1.310664e-38
-0.015000016 0.055000022 0.75 1.2563148e-38
-0.013571435 0.055000022 0.75000006 1.5133812e-38
-0.012142877 0.05500003 0.75 1.7707722e-38
-0.010685726 0.05485335 0.74800003 1.7248909e-38
-0.0092609562 0.054853346 0.74800003 1.6701489e-38
-0.0078257136 0.054780006 0.74700004 1.6975208e-38
-0.0064028543 0.054780014 0.74700004 1.71639e-38
-0.004979996 0.05478001 0.74700004 1.789966e-38
-0.003557137 0.054779999 0.74700004 1.8636137e-38
-0.0021285841 0.054633327 0.74500012 1.8727255e-38
-0.00070952263 0.054633331 0.74500012 1.8726897e-38
0.00070951635 0.054633331 0.74500012 1.8907698e-38
0.0021228415 0.054486681 0.74299997 1.909316e-38
0.0035476072 0.054633334 0.74500006 1.8911279e-38
0.0049533267 0.05448667 0.74300003 1.871828e-38
0.0063685626 0.054486673 0.74300003 1.713842e-38
0.007783805 0.054486677 0.74300003 1.5585103e-38
0.0091990354 0.054486673 0.74299997 1.7604042e-38
0.010614279 0.054486677 0.74300003 1.9633709e-38
0.01202952 0.054486681 0.74300003 1.8810019e-38
0.013444754 0.054486681 0.74300003 1.7957938e-38
0.014899993 0.054633334 0.74500006 1.6847572e-38
0.016275227 0.054486681 0.74299997 1.5657726e-38
0.01769047 0.05448667 0.74300003 1.5851871e-38
0.01915714 0.054633327 0.74500012 1.6041354e-38
0.020576186 0.054633331 0.74500012 1.9738166e-38
0.02208381 0.054853357 0.74800003 2.3416252e-38
0.02350858 0.054853354 0.74800003 2.341769e-38
0.024933333 0.05485335 0.74800003 2.3417689e-38
0.02635809 0.054853357 0.74799997 2.3417689e-38
0.027857125 0.055000022 0.75 2.341733e-38
0.029363802 0.05514669 0.75200003 2.341769e-38
0.030837128 0.055220019 0.75299996 2.3411557e-38
0.032357141 0.05536668 0.755 1.8617422e-38
0.033795234 0.055366684 0.755 1.3817536e-38
0.035280008 0.055440005 0.75600004 1.5095296e-38
0.036720008 0.055440005 0.7560001 1.6315769e-38
0.038260952 0.055586684 0.75800002 1.7062359e-38
0.039809506 0.055733342 0.76000005 1.7797756e-38
0.041311421 0.05580667 0.76100004 1.7613003e-38
0.042873342 0.055953339 0.76300001 1.7430412e-38
0.04444284 0.056100018 0.76499999 1.7615523e-38
0.046199996 0.056466684 0.76999998 1.7706282e-38
-0.032785725 0.057557151 0.76500005 1.0407294e-38
-0.031328592 0.057557154 0.76499999 1.0223268e-38
-0.029949537 0.057707623 0.76700002 1.0128867e-38
-0.028414298 0.057557158 0.76500005 1.1697906e-38
-0.026886662 0.057406671 0.76300001 1.3356424e-38
-0.025366684 0.057256188 0.76100004 1.3000659e-38
-0.023917159 0.057256192 0.76100004 1.2727732e-38
-0.022379063 0.057030488 0.75800002 1.3560058e-38
-0.020935249 0.057030484 0.75800002 1.4396982e-38
-0.019414291 0.056804765 0.75500005 1.4855085e-38
-0.017904762 0.056579053 0.75200003 1.5404311e-38
-0.016472396 0.056579061 0.75200003 1.5223157e-38
-0.015040015 0.056579057 0.75200003 1.5041978e-38
-0.01357145 0.056428604 0.75 1.6237972e-38
-0.012142869 0.0564286 0.75 1.7524037e-38
-0.010714302 0.056428581 0.75000006 1.697375e-38
-0.0092609562 0.05627811 0.74800003 1.6422746e-38
-0.0078361975 0.056278117 0.74799997 1.6884441e-38
-0.0064114272 0.056278113 0.74800003 1.7437964e-38
-0.0049800081 0.056202862 0.74700004 1.7989693e-38
-0.0035571491 0.056202866 0.74700004 1.8541782e-38
-0.0021285906 0.056052383 0.74500006 1.8541065e-38
-0.00070952822 0.056052387 0.74500006 1.8630748e-38
0.00070951029 0.056052372 0.74500006 1.8908047e-38
0.0021285645 0.056052379 0.74500006 1.9184635e-38
0.0035476114 0.056052379 0.74500006 1.9185357e-38
0.0049666585 0.056052383 0.74500012 1.9093155e-38
0.0063685654 0.055901904 0.74300003 1.8805445e-38
0.0078047598 0.056052368 0.74500012 1.8428403e-38
0.0092237955 0.056052383 0.74500006 1.8802546e-38
0.01064285 0.056052387 0.74500006 1.9083715e-38
0.012029517 0.055901915 0.74300003 1.7126034e-38
0.013444758 0.055901915 0.74300003 1.5062173e-38
0.014859989 0.055901926 0.74299997 1.4448308e-38
0.016275223 0.055901915 0.74300003 1.3818829e-38
0.017690472 0.055901919 0.74300003 1.5101752e-38
0.019157132 0.056052383 0.74500006 1.6381067e-38
0.020631431 0.056202859 0.74700004 1.9911068e-38
0.022083811 0.056278121 0.74800003 2.3417684e-38
0.023508573 0.056278102 0.74800003 2.341769e-38
0.024999989 0.056428585 0.75 2.341769e-38
0.026428565 0.056428585 0.75000006 2.341769e-38
0.027857127 0.056428593 0.75 2.341769e-38
0.029363805 0.056579057 0.75200003 2.341769e-38
0.030837134 0.056654301 0.75300002 2.3417634e-38
0.032357138 0.056804784 0.755 1.8335414e-38
0.033795241 0.056804761 0.75500005 1.3149894e-38
0.03528 0.056880008 0.75600004 1.5098484e-38
0.036817133 0.05703048 0.75800002 1.6965777e-38
0.038260948 0.05703048 0.75800002 1.7522979e-38
0.03980951 0.057180975 0.75999999 1.7986813e-38
0.041420002 0.057406683 0.76300001 1.7614801e-38
0.042985711 0.057557151 0.76500005 1.7154191e-38
0.04455905 0.057707623 0.76700002 1.7339299e-38
0.046199996 0.057933364 0.76999998 1.7524762e-38
-0.031410486 0.059168577 0.76700002 1.0038522e-38
-0.029949525 0.05916857 0.76700002 1.0040675e-38
-0.028414305 0.059014302 0.76499999 1.1517576e-38
-0.026957158 0.059014294 0.76500005 1.2906291e-38
-0.025433347 0.058860015 0.76300001 1.4573382e-38
-0.02391715 0.058705714 0.7610001 1.6226113e-38
-0.022438101 0.058628589 0.76000005 1.5125932e-38
-0.020935243 0.058474299 0.75800002 1.4027136e-38
-0.019440014 0.058320012 0.75600004 1.5589059e-38
-0.01790477 0.058011446 0.75200003 1.7062375e-38
-0.016472392 0.058011446 0.75200003 1.7247125e-38
-0.015040022 0.058011454 0.75200003 1.743258e-38
-0.013607629 0.05801145 0.75200003 1.7343606e-38
-0.012142875 0.057857171 0.75000006 1.7252132e-38
-0.010714304 0.057857163 0.75 1.6698971e-38
-0.0092857219 0.057857163 0.75 1.6150834e-38
-0.0078571551 0.05785716 0.75000006 1.6885523e-38
-0.006428584 0.057857171 0.75 1.7620204e-38
-0.0049866722 0.057702877 0.74800003 1.7986826e-38
-0.0035619128 0.057702869 0.74800003 1.8356319e-38
-0.0021342875 0.057625718 0.74700004 1.8447796e-38
-0.0007095394 0.057471428 0.74500006 1.8539631e-38
0.00070951541 0.057471428 0.74500012 1.8908767e-38
0.0021285696 0.057471432 0.74500012 1.927647e-38
0.0035476151 0.057471424 0.74500012 1.9369026e-38
0.004966652 0.057471436 0.74500006 1.9460129e-38
0.0063857064 0.057471439 0.74500006 2.0377391e-38
0.0078047533 0.057471424 0.74500006 2.1286705e-38
0.0092238011 0.057471424 0.74500006 1.9910175e-38
0.010642854 0.057471432 0.74500012 1.8513626e-38
0.012029518 0.057317145 0.74300003 1.5364669e-38
0.013444762 0.057317149 0.74300003 1.2244746e-38
0.014859993 0.057317164 0.74299997 1.2157188e-38
0.016275227 0.057317149 0.74300003 1.1975371e-38
0.017785707 0.057625733 0.74700004 1.4355619e-38
0.019208567 0.057625722 0.74700004 1.6773897e-38
0.020659043 0.057702877 0.74800003 2.0106584e-38
0.022083804 0.057702884 0.74799997 2.3416611e-38
0.023508573 0.05770288 0.74800003 2.341769e-38
0.024999993 0.057857163 0.75 2.341769e-38
0.026428567 0.05785716 0.75000006 2.341769e-38
0.027857129 0.057857171 0.75 2.341769e-38
0.029363796 0.058011454 0.75200003 2.341769e-38
0.030837139 0.058088582 0.75300002 2.3411184e-38
0.032357149 0.058242876 0.75500005 1.797311e-38
0.033795238 0.058242861 0.75500005 1.2517836e-38
0.035280004 0.058320004 0.75600004 1.5090634e-38
0.036817137 0.05847431 0.75800002 1.7604339e-38
0.038361888 0.058628596 0.75999999 1.7893544e-38
0.039861906 0.058705714 0.7610001 1.8166537e-38
0.041419998 0.058860008 0.76299995 1.7521535e-38
0.042985704 0.059014309 0.76499999 1.6876888e-38
0.044559047 0.05916857 0.76700008 1.7062708e-38
0.046199996 0.059400018 0.77000004 1.724205e-38
-0.033000011 0.060866691 0.76999998 8.3836871e-39
-0.031451441 0.060708582 0.76800001 7.5575291e-39
-0.029988583 0.060708582 0.76800001 6.8243361e-39
-0.028488582 0.060629517 0.76700002 9.4973073e-39
-0.026957156 0.060471445 0.76500005 1.2268899e-38
-0.025500022 0.060471453 0.76499999 1.4021691e-38
-0.023980001 0.060313337 0.76300001 1.5773416e-38
-0.022467626 0.060155235 0.7610001 1.5957481e-38
-0.020990502 0.060076203 0.76000005 1.613936e-38
-0.01949144 0.059918109 0.75800002 1.7064532e-38
-0.017976202 0.059680976 0.755 1.8080461e-38
-0.016472388 0.059443813 0.75200009 1.807759e-38
-0.015040006 0.059443824 0.75200003 1.7985038e-38
-0.013607626 0.05944382 0.75200003 1.8265568e-38
-0.012175257 0.059443828 0.75200003 1.8543584e-38
-0.01071431 0.059285741 0.75 1.7623074e-38
-0.0092857284 0.059285738 0.75 1.6707593e-38
-0.0078571467 0.059285734 0.75000006 1.762344e-38
-0.00642859 0.059285745 0.75 1.8537845e-38
-0.0049866717 0.059127621 0.74800003 1.8725457e-38
-0.0035619133 0.059127629 0.74800003 1.8907694e-38
-0.0021342894 0.059048571 0.74700004 1.8816215e-38
-0.00070953474 0.058890473 0.74500012 1.8630752e-38
0.00070950843 0.058890488 0.74500006 1.9001681e-38
0.0021285631 0.058890473 0.74500006 1.9367949e-38
0.0035476105 0.058890481 0.74500006 2.0012591e-38
0.0049666571 0.058890481 0.74500006 2.0653262e-38
0.006385704 0.058890481 0.74500012 2.0743278e-38
0.0078047579 0.058890484 0.74500012 2.0828525e-38
0.0092238048 0.058890473 0.74500012 2.0176935e-38
0.010642848 0.058890488 0.74500006 1.9420438e-38
0.012029522 0.058732376 0.74300003 1.5937934e-38
0.013444745 0.05873239 0.74299997 1.2548291e-38
0.014859996 0.058732394 0.74300003 1.1973979e-38
0.016275229 0.058732394 0.74300003 1.1426936e-38
0.017785721 0.059048571 0.74700004 1.5761881e-38
0.019208578 0.059048574 0.74700004 2.0109768e-38
0.020659044 0.059127633 0.74800003 2.1762857e-38
0.022083813 0.059127633 0.74800003 2.341769e-38
0.023508564 0.059127625 0.74800003 2.341769e-38
0.024999987 0.059285734 0.75 2.341769e-38
0.026428569 0.059285734 0.75000006 2.3417331e-38
0.027857132 0.059285741 0.75 2.341769e-38
0.029402848 0.059522867 0.75300002 2.341769e-38
0.030837128 0.059522875 0.75300002 2.3417649e-38
0.032357145 0.059680961 0.75500005 1.7218711e-38
0.033840004 0.059760008 0.75600004 1.1021232e-38
0.035280004 0.059760004 0.75600004 1.4643694e-38
0.036817141 0.059918102 0.75800002 1.8355183e-38
0.038361896 0.060076203 0.76000005 1.7799191e-38
0.039861895 0.060155246 0.76100004 1.7244236e-38
0.041419998 0.060313337 0.76300001 1.6596009e-38
0.042985708 0.060471445 0.76499999 1.6043909e-38
0.044559047 0.060629524 0.76700002 1.6406935e-38
0.046200003 0.060866684 0.77000004 1.6772081e-38
-0.033085711 0.062495243 0.77200007 6.7270384e-39
-0.031533338 0.062333345 0.77000004 5.1665776e-39
-0.029988576 0.062171444 0.76800001 3.5161185e-39
-0.028488571 0.062090479 0.76700008 7.56233e-39
-0.026957156 0.061928581 0.76500005 1.1622854e-38
-0.025500018 0.061928585 0.76499999 1.347036e-38
-0.023980008 0.061766673 0.76300001 1.5316772e-38
-0.022467628 0.061604764 0.76100004 1.6790463e-38
-0.020990491 0.061523821 0.76000005 1.8170866e-38
-0.019491436 0.061361916 0.75800002 1.8632556e-38
-0.017976195 0.061119065 0.75500005 1.9092089e-38
-0.0164943 0.060957145 0.75300002 1.8814427e-38
-0.015040003 0.060876202 0.75200003 1.8541433e-38
-0.013607633 0.060876213 0.75200003 1.9189664e-38
-0.012175241 0.060876194 0.75200003 1.9830359e-38
-0.010742861 0.060876194 0.75200003 1.8542151e-38
-0.009285734 0.060714312 0.75000006 1.7258606e-38
-0.0078571625 0.060714319 0.75 1.8362427e-38
-0.0064285812 0.060714301 0.75 1.9372618e-38
