# .PCD v0.7 - Point Cloud Data file format
VERSION 0.7
FIELDS x y z rgb
SIZE 4 4 4 4
TYPE F F F F
COUNT 1 1 1 1
WIDTH 992
HEIGHT 1
VIEWPOINT 0 0 0 1 0 0 0
POINTS 992
DATA ascii
-0.022201849 0.026499063 0.75199997 1.4035401e-38
-0.020714222 0.026428588 0.75 1.4220864e-38
-0.019234238 0.026358113 0.74800003 1.4775824e-38
-0.017738046 0.026252396 0.745 1.5234644e-38
-0.016275194 0.026181921 0.74300003 1.5786733e-38
-0.014859962 0.026181914 0.74300003 1.6339181e-38
-0.013444728 0.026181921 0.74300003 1.6708316e-38
-0.012013289 0.02614668 0.74200004 1.6984182e-38
-0.01059994 0.02614668 0.74199998 1.763026e-38
-0.009161883 0.026076198 0.74000001 1.8272391e-38
-0.007741869 0.026040979 0.73899996 1.8547898e-38
-0.0063342513 0.026040971 0.73899996 1.8731927e-38
-0.0049266336 0.026040971 0.73899996 1.9284015e-38
-0.0035190142 0.026040986 0.73899996 1.9742475e-38
-0.0021028451 0.02593524 0.73600006 1.974427e-38
-0.00070089725 0.025935255 0.736 1.9742834e-38
0.00070098724 0.02593524 0.73600006 1.9836104e-38
0.0021028735 0.02593524 0.73600006 1.9835387e-38
0.0034952809 0.025864772 0.73399997 1.9927941e-38
0.0048933583 0.025864787 0.73399997 2.0019058e-38
0.0062914747 0.02586478 0.73399997 2.0111609e-38
0.0076895761 0.025864787 0.73399997 2.0202729e-38
0.0090876529 0.02586478 0.73399997 2.0111612e-38
0.01048573 0.025864787 0.73399997 1.9927582e-38
0.011883869 0.02586478 0.73399997 1.9927941e-38
0.013281948 0.025864795 0.73399997 1.9927224e-38
0.014720011 0.02593524 0.73600006 2.0019777e-38
0.016121957 0.025935255 0.736 2.0019775e-38
0.017523844 0.02593524 0.73600006 1.9652433e-38
0.018925732 0.02593524 0.73600006 1.9192896e-38
0.020327652 0.025935248 0.736 1.9101419e-38
0.021759111 0.025970496 0.73699999 1.8917389e-38
0.023162918 0.025970511 0.73699999 1.992794e-38
0.024566753 0.025970496 0.73699999 2.0846295e-38
0.026040982 0.026040971 0.73899996 2.0662625e-38
0.027485725 0.026076205 0.74000001 2.0478953e-38
0.028895287 0.026076205 0.74000001 1.9927938e-38
0.030386718 0.02614668 0.74199998 1.9375848e-38
0.031842884 0.026181914 0.74300003 1.9006712e-38
0.033258118 0.026181914 0.74300003 1.8638294e-38
0.034766722 0.026252411 0.745 1.817517e-38
0.036185764 0.026252404 0.745 1.7617685e-38
0.037705768 0.026322879 0.74699998 1.6688194e-38
0.039180972 0.026358098 0.74800003 1.5780604e-38
0.040714324 0.026428603 0.75 1.9647383e-38
0.042142883 0.026428588 0.75 2.3414778e-38
0.043745734 0.026534289 0.75300002 2.3416559e-38
0.045359999 0.026639998 0.75600004 2.3417289e-38
0.046923857 0.026710495 0.75800002 2.3417662e-38
0.048495285 0.026780955 0.75999999 2.3323668e-38
0.050008573 0.026816212 0.76100004 2.3417651e-38
0.051593371 0.026886687 0.76299995 2.3417666e-38
0.053046726 0.026886687 0.76300001 2.3417683e-38
0.054642905 0.026957162 0.76499999 2.3417663e-38
-0.032571401 0.028228581 0.75999999 1.5950567e-38
-0.031041836 0.028154314 0.75799996 1.5859844e-38
-0.029519979 0.028080009 0.75600004 1.5858786e-38
-0.02807997 0.028079994 0.75600004 1.5954943e-38
-0.026604736 0.028042875 0.755 1.6046437e-38
-0.025099998 0.027968571 0.75300002 1.6142235e-38
-0.023665683 0.027968571 0.75300002 1.6329135e-38
-0.022201849 0.027931452 0.75199997 1.6237298e-38
-0.020714266 0.027857155 0.75 1.6147615e-38
-0.019234238 0.027782865 0.74800003 1.6332002e-38
-0.017738037 0.027671456 0.745 1.6517827e-38
-0.016318997 0.027671449 0.745 1.6885529e-38
-0.014859972 0.027597152 0.74300003 1.7257176e-38
-0.013444738 0.027597159 0.74300003 1.7440488e-38
-0.012013269 0.027560025 0.74199998 1.7533042e-38
-0.010599959 0.027560003 0.74200004 1.7994731e-38
-0.0091618812 0.027485728 0.74000001 1.8458573e-38
-0.0077418764 0.027448587 0.73899996 1.8732286e-38
-0.0063428381 0.027485728 0.74000001 1.900851e-38
-0.004926641 0.027448587 0.73899996 1.9284015e-38
-0.0035190235 0.027448602 0.73899996 1.9652435e-38
-0.0021028414 0.027337141 0.736 1.9559882e-38
-0.00070089538 0.027337156 0.736 1.9468046e-38
0.00070099096 0.027337164 0.736 1.9743553e-38
0.0020971664 0.027262881 0.73399997 1.9927941e-38
0.0034953051 0.027262889 0.73399997 2.0019418e-38
0.0048933807 0.027262874 0.73399997 2.0111611e-38
0.0062914598 0.027262881 0.73399997 2.0110892e-38
0.0076895594 0.027262874 0.73399997 2.0203446e-38
0.0091124056 0.027337149 0.736 2.020273e-38
0.010514314 0.027337149 0.73600006 2.0203448e-38
0.011916242 0.027337156 0.736 2.0110893e-38
0.013318128 0.027337149 0.736 2.0111611e-38
0.014720013 0.027337141 0.73600006 2.0202729e-38
0.016121959 0.027337156 0.736 2.0386398e-38
0.017523846 0.027337156 0.736 2.0294203e-38
0.018925732 0.027337149 0.73600006 2.0202007e-38
0.020327682 0.027337141 0.736 2.011017e-38
0.021759087 0.027374305 0.73699999 2.0110172e-38
0.023162894 0.02737432 0.73699999 2.0478232e-38
0.024566727 0.027374305 0.73699999 2.0938129e-38
0.026040973 0.02744858 0.73899996 2.0845577e-38
0.027485726 0.027485728 0.74000001 2.0845576e-38
0.028973389 0.027560018 0.74199998 2.0568632e-38
0.030427644 0.027597144 0.74300003 2.0293482e-38
0.03184291 0.027597159 0.74300003 2.0198416e-38
0.033347648 0.027671441 0.745 2.0198774e-38
0.034766726 0.027671449 0.745 1.991968e-38
0.036282904 0.027745724 0.74699998 1.9638412e-38
0.037705753 0.027745731 0.74699998 1.9085942e-38
0.039181013 0.027782865 0.74800003 1.8538883e-38
0.040714342 0.027857162 0.75 2.0840517e-38
0.04225529 0.027931437 0.75199997 2.3227869e-38
0.043745741 0.027968571 0.75300002 2.3323278e-38
0.045360036 0.028080016 0.75599998 2.3416914e-38
0.046800021 0.028080016 0.75599998 2.3414767e-38
0.048239999 0.028080024 0.75600004 2.3409022e-38
0.050140083 0.028340012 0.76300001 2.332256e-38
0.051593389 0.028340012 0.76299995 2.3325099e-38
0.053046744 0.028340012 0.76300001 2.3325485e-38
-0.03415326 0.029793352 0.76299995 1.6323273e-38
-0.03257139 0.029676206 0.75999999 1.8251847e-38
-0.031041859 0.029598117 0.75800002 1.8254028e-38
-0.029519981 0.029519998 0.75600004 1.8161851e-38
-0.028079998 0.029519998 0.75600004 1.8624634e-38
-0.02660471 0.029480964 0.755 1.8992326e-38
-0.025099952 0.029402867 0.75300002 1.8899048e-38
-0.0236657 0.02940286 0.75300002 1.8809377e-38
-0.022201875 0.029363826 0.75199997 1.8436668e-38
-0.020714249 0.029285729 0.75 1.798287e-38
-0.019234262 0.029207624 0.74800003 1.7886727e-38
-0.017738065 0.029090509 0.745 1.7801e-38
-0.016318986 0.029090494 0.745 1.7980374e-38
-0.014899946 0.029090509 0.745 1.8172655e-38
-0.013444709 0.029012404 0.74300003 1.8171579e-38
-0.012029474 0.029012389 0.74300003 1.8082972e-38
-0.010599938 0.028973348 0.74199998 1.8356685e-38
-0.0091618793 0.028895259 0.74000001 1.8637574e-38
-0.0077418839 0.028856218 0.73899996 1.9005993e-38
-0.0063428362 0.028895259 0.74000001 1.9282576e-38
-0.0049266485 0.028856196 0.73899996 1.9374411e-38
-0.0035190328 0.02885621 0.73899996 1.9467325e-38
-0.0021028395 0.028739057 0.736 1.9375132e-38
-0.00070092891 0.02873905 0.73600006 1.9191819e-38
0.00070099469 0.028739065 0.736 1.9649921e-38
0.0020971869 0.028660983 0.73399997 2.001798e-38
0.0034952865 0.028660983 0.73399997 2.0109816e-38
0.0048933658 0.028660983 0.73399997 2.0109814e-38
0.0063085998 0.028739057 0.73600006 2.0108379e-38
0.0077104862 0.02873905 0.73600006 2.0109814e-38
0.0091124335 0.028739057 0.736 2.0292769e-38
0.01051432 0.02873905 0.73600006 2.0385322e-38
0.011916206 0.02873905 0.73600006 2.0384245e-38
0.01331813 0.028739057 0.736 2.0293485e-38
0.014720039 0.028739057 0.73600006 2.0476081e-38
0.016121926 0.02873905 0.73600006 2.0660829e-38
0.017523849 0.028739065 0.736 2.0935618e-38
0.018925738 0.028739057 0.736 2.121184e-38
0.020327644 0.02873905 0.73600006 2.1210764e-38
0.021759098 0.028778128 0.73699999 2.1212199e-38
0.023162907 0.028778121 0.73699999 2.1120005e-38
0.024633387 0.02885621 0.73899996 2.0936692e-38
0.026041003 0.02885621 0.73899996 2.1119287e-38
0.027485726 0.028895259 0.74000001 2.1210405e-38
0.029012436 0.029012389 0.74300003 2.1206819e-38
0.030427672 0.029012389 0.74300003 2.1117135e-38
0.031842906 0.029012389 0.74300003 2.1386902e-38
0.033347659 0.029090509 0.745 2.1667429e-38
0.034766715 0.029090494 0.745 2.1666712e-38
0.036282897 0.029168591 0.74699998 2.1573068e-38
0.037756234 0.029207624 0.74800003 2.1385795e-38
0.039181009 0.029207639 0.74800003 2.1207146e-38
0.04071432 0.029285729 0.75 2.2131958e-38
0.042142879 0.029285729 0.75 2.3046359e-38
0.043687657 0.029363818 0.75199997 2.3231815e-38
0.045360032 0.029519998 0.75600004 2.341657e-38
0.046923883 0.029598117 0.75800002 2.3415503e-38
0.048367675 0.029598109 0.75800002 2.3414061e-38
0.05014006 0.029793359 0.76299995 2.3322577e-38
0.051728588 0.029871449 0.76499999 2.323219e-38
-0.034153264 0.031246684 0.76299995 1.5584663e-38
-0.032614246 0.031164773 0.76100004 1.7244539e-38
-0.031123796 0.031123817 0.76000005 1.7336394e-38
-0.029598013 0.031041928 0.75799996 1.7522594e-38
-0.028154224 0.031041935 0.75799996 1.8352359e-38
-0.026639981 0.030960016 0.75600004 1.9184943e-38
-0.025099969 0.030837148 0.75299996 2.0008918e-38
-0.023665695 0.030837148 0.75300002 2.0837618e-38
-0.022201879 0.0307962 0.75200003 2.0744734e-38
-0.020714255 0.030714296 0.75 2.0745808e-38
-0.019234262 0.030632384 0.74800003 2.0653609e-38
-0.017738057 0.030509539 0.745 2.0655778e-38
-0.016319016 0.030509539 0.74500006 2.0746913e-38
-0.01489996 0.030509539 0.745 2.0841977e-38
-0.013444717 0.030427635 0.74300003 2.0749424e-38
-0.012029483 0.030427627 0.74300003 2.0750142e-38
-0.01059994 0.030386701 0.74199998 2.0933094e-38
-0.0091866301 0.030386679 0.74199998 2.1024213e-38
-0.0077418522 0.030263834 0.73899996 2.1118561e-38
-0.0063428343 0.03030479 0.74000001 2.1302234e-38
-0.0049266168 0.030263841 0.73899996 2.1026729e-38
-0.0035189993 0.030263841 0.73899996 2.0753019e-38
-0.0021028135 0.030140959 0.73600006 2.0844138e-38
-0.00070092705 0.030140966 0.73600006 2.0845214e-38
0.00070099841 0.030140966 0.736 2.1303673e-38
0.0021028847 0.030140974 0.736 2.1762133e-38
0.0035047934 0.030140951 0.73600006 2.1763209e-38
0.0049067172 0.030140974 0.736 2.176285e-38
0.0063086036 0.030140959 0.736 2.176285e-38
0.007710488 0.030140959 0.73600006 2.1762852e-38
0.0091124373 0.030140959 0.736 2.1762852e-38
0.010514322 0.030140959 0.73600006 2.1762852e-38
0.011916208 0.030140959 0.73600006 2.176285e-38
0.013336231 0.030181929 0.73700005 2.1854329e-38
0.014720041 0.030140959 0.73600006 2.1946882e-38
0.01612193 0.030140966 0.73600006 2.2038718e-38
0.01754768 0.030181929 0.73699999 2.222275e-38
0.018951492 0.030181929 0.73699999 2.2315304e-38
0.020355299 0.030181937 0.73699999 2.2314945e-38
0.02175911 0.030181929 0.73699999 2.2315302e-38
0.023162918 0.030181937 0.73699999 2.2222748e-38
0.02463338 0.030263834 0.73899996 2.2221671e-38
0.026040997 0.030263826 0.73899996 2.2222028e-38
0.027485728 0.030304782 0.74000001 2.2313149e-38
0.029012429 0.03042762 0.74300003 2.231351e-38
0.030427663 0.030427635 0.74300003 2.2315664e-38
0.031842873 0.030427635 0.74300003 2.2404988e-38
0.033347648 0.030509539 0.745 2.2591171e-38
0.034766689 0.030509554 0.745 2.2497899e-38
0.036282919 0.030591451 0.74699998 2.2499327e-38
0.037705772 0.030591451 0.74699998 2.1944002e-38
0.039180983 0.030632384 0.74800003 2.1394417e-38
0.040714338 0.030714311 0.75 2.102312e-38
0.042255282 0.030796185 0.75200003 2.0562504e-38
0.043745704 0.030837141 0.75300002 2.0839082e-38
0.045480061 0.031041928 0.75799996 2.1029939e-38
0.047047663 0.031123824 0.75999999 2.1578092e-38
0.048686724 0.031246699 0.76299995 2.2131968e-38
-0.034153279 0.03270001 0.76300001 1.4838885e-38
-0.032614268 0.032614306 0.76100004 1.6137135e-38
-0.031123787 0.032571442 0.75999999 1.6508062e-38
-0.029598022 0.032485738 0.75799996 1.6785735e-38
-0.028079992 0.032399997 0.75600004 1.8076827e-38
-0.026639985 0.032399997 0.75600004 1.9363599e-38
-0.025099961 0.03227143 0.75300002 2.1113494e-38
-0.023665687 0.032271422 0.75300002 2.2862333e-38
-0.022201844 0.032228582 0.75199997 2.3142164e-38
-0.020714238 0.032142885 0.75 2.3415515e-38
-0.019234264 0.032057144 0.74800003 2.3417666e-38
-0.01773807 0.031928599 0.745 2.3415881e-38
-0.016319031 0.031928591 0.745 2.3417683e-38
-0.01489995 0.031928591 0.745 2.3416607e-38
-0.013444724 0.031842858 0.74300003 2.3417683e-38
-0.012029492 0.031842865 0.74300003 2.3416607e-38
-0.010599959 0.031800017 0.74199998 2.3417683e-38
-0.0091866115 0.031800024 0.74199998 2.3416248e-38
-0.0077732992 0.031800009 0.74199998 2.3325849e-38
-0.0063428343 0.031714298 0.74000001 2.3231857e-38
-0.0049266261 0.03167145 0.73899996 2.2676894e-38
-0.0035190086 0.031671457 0.73899996 2.2035481e-38
-0.002105667 0.031585731 0.73700005 2.2310629e-38
-0.00070092146 0.031542867 0.73600006 2.2497174e-38
0.00070096302 0.03154286 0.73600006 2.2957791e-38
0.0021028866 0.031542867 0.736 2.3416968e-38
0.0035047953 0.03154286 0.73600006 2.3417687e-38
0.0049066818 0.03154286 0.73600006 2.3417328e-38
0.0063086073 0.03154286 0.736 2.3417687e-38
0.0077104936 0.031542867 0.73600006 2.3416967e-38
0.0091124019 0.031542853 0.73600006 2.3232576e-38
0.010514325 0.031542867 0.736 2.3048907e-38
0.011916212 0.03154286 0.73600006 2.3234016e-38
0.013318137 0.031542867 0.736 2.3417328e-38
0.014720046 0.031542867 0.736 2.3417687e-38
0.016121933 0.031542867 0.73600006 2.341733e-38
0.017547695 0.031585731 0.73699999 2.3417689e-38
0.018951504 0.031585738 0.73699999 2.3417689e-38
0.020355275 0.031585731 0.73700005 2.341769e-38
0.021759082 0.031585731 0.73699999 2.3417689e-38
0.023162892 0.031585731 0.73699999 2.3417689e-38
0.024633372 0.031671442 0.73899996 2.3417328e-38
0.02607619 0.031714298 0.74000001 2.3417687e-38
0.027560038 0.031800024 0.74199998 2.3416971e-38
0.029012395 0.031842865 0.74300003 2.341769e-38
0.030427631 0.031842873 0.74300003 2.341769e-38
0.031842865 0.031842873 0.74300003 2.341769e-38
0.033347651 0.031928591 0.745 2.341769e-38
0.034766696 0.031928591 0.745 2.341769e-38
0.036282912 0.032014295 0.74699998 2.3416964e-38
0.037705742 0.032014295 0.74699998 2.2496091e-38
0.039180983 0.032057159 0.74800003 2.1573426e-38
0.040714331 0.03214287 0.75 1.9819219e-38
0.042311437 0.03227143 0.75300002 1.8074699e-38
0.04386197 0.032357171 0.755 1.8348765e-38
0.045480072 0.032485731 0.75799996 1.8628223e-38
0.04704766 0.032571435 0.76000005 1.97342e-38
0.048559032 0.032614298 0.76100004 2.0837649e-38
-0.034063812 0.034063824 0.76100004 1.5028321e-38
-0.032614283 0.034063831 0.76100004 1.6415874e-38
-0.031041861 0.033929549 0.75799996 1.6414774e-38
-0.029520001 0.033840001 0.75600004 1.6505184e-38
-0.028079957 0.033840008 0.75600004 1.7611166e-38
-0.026604721 0.03379526 0.755 1.8712147e-38
-0.025099955 0.033705711 0.75300002 2.0283425e-38
-0.023665704 0.033705719 0.75300002 2.1855759e-38
-0.02220187 0.033660963 0.75199997 2.2314947e-38
-0.020714259 0.033571444 0.75 2.2866677e-38
-0.019234266 0.033481903 0.74800003 2.2496465e-38
-0.017785663 0.033437163 0.74699998 2.2040158e-38
-0.01631902 0.033347636 0.745 2.2774842e-38
-0.014899978 0.033347636 0.745 2.341769e-38
-0.013444718 0.033258125 0.74299997 2.341769e-38
-0.012029485 0.03325811 0.74299997 2.341769e-38
-0.010614251 0.033258118 0.74300003 2.341769e-38
-0.0091866283 0.033213347 0.74199998 2.341769e-38
-0.0077732787 0.033213362 0.74199998 2.341769e-38
-0.0063428306 0.033123828 0.74000001 2.3325846e-38
-0.0049333279 0.033123821 0.74000001 2.3047101e-38
-0.0035237882 0.033123821 0.73999995 2.2768007e-38
-0.0021056558 0.032989547 0.73699999 2.286307e-38
-0.0007009196 0.032944769 0.73600006 2.295635e-38
0.00070096675 0.032944776 0.73600006 2.32333e-38
0.0021028903 0.032944776 0.736 2.341769e-38
0.003504799 0.032944776 0.73600006 2.341769e-38
0.0049066856 0.032944761 0.73600006 2.341769e-38
0.006308611 0.032944776 0.736 2.341769e-38
0.0077104955 0.032944769 0.736 2.3417684e-38
0.0091124056 0.032944761 0.73600006 2.3324767e-38
0.010514327 0.032944769 0.736 2.3230785e-38
0.011932447 0.032989554 0.73699999 2.3325137e-38
0.013336255 0.032989554 0.73699999 2.341769e-38
0.014740064 0.032989554 0.73699999 2.341769e-38
0.016143875 0.032989547 0.73699999 2.341769e-38
0.017547667 0.032989539 0.73700005 2.341769e-38
0.018951474 0.032989554 0.73699999 2.341769e-38
0.020355286 0.032989547 0.73699999 2.341769e-38
0.021759095 0.032989532 0.73699999 2.341769e-38
0.023225749 0.033079065 0.73899996 2.341769e-38
0.024666687 0.033123828 0.74000001 2.341769e-38
0.026076192 0.033123814 0.74000001 2.341769e-38
0.027560059 0.033213355 0.74199998 2.341769e-38
0.029012427 0.03325811 0.74299997 2.341769e-38
0.030427659 0.033258118 0.74300003 2.341769e-38
0.031842895 0.033258118 0.74300003 2.341769e-38
0.033347663 0.033347644 0.745 2.341769e-38
0.034766708 0.033347636 0.745 2.341769e-38
0.036282878 0.033437155 0.74700004 2.3417683e-38
0.037705764 0.033437155 0.74699998 2.2955627e-38
0.039180983 0.033481911 0.74800003 2.2491425e-38
0.040822905 0.033660963 0.75199997 1.9544434e-38
0.042311445 0.033705719 0.75300002 1.6598876e-38
0.043920025 0.033839993 0.75600004 1.6873301e-38
0.045480091 0.033929549 0.75799996 1.714522e-38
0.047047649 0.03401906 0.75999999 1.7426108e-38
-0.034153283 0.035606675 0.76299995 1.5309535e-38
-0.032614283 0.035513341 0.76100004 1.659737e-38
-0.03112378 0.035466671 0.75999999 1.6412968e-38
-0.029598018 0.035373352 0.75799996 1.6137832e-38
-0.028079983 0.035280012 0.75600004 1.7058712e-38
-0.026604734 0.035233356 0.755 1.7980683e-38
-0.025099972 0.035140015 0.75300002 1.9360037e-38
-0.023665698 0.03514 0.75300002 2.0747268e-38
-0.022201871 0.035093337 0.75200003 2.1579181e-38
-0.020714242 0.035000019 0.75 2.231171e-38
-0.019234227 0.034906678 0.74800003 2.1476936e-38
-0.017785674 0.034860007 0.74700004 2.0658672e-38
-0.01631901 0.034766689 0.745 2.2039437e-38
-0.014899969 0.034766681 0.745 2.3417689e-38
-0.013444728 0.034673348 0.74300003 2.341769e-38
-0.012013271 0.0346267 0.74199998 2.341769e-38
-0.01061426 0.034673341 0.74300003 2.341769e-38
-0.0091866096 0.0346267 0.74199998 2.341769e-38
-0.0077732992 0.034626678 0.74199998 2.341769e-38
-0.0063428306 0.034533352 0.74000001 2.3417686e-38
-0.0049333279 0.034533344 0.74000001 2.3417682e-38
-0.0035237882 0.034533344 0.73999995 2.3415887e-38
-0.0021114058 0.034486704 0.73899996 2.341768e-38
-0.00070183229 0.03439337 0.73699999 2.3417326e-38
0.00070096861 0.034346677 0.73600006 2.341769e-38
0.0021029145 0.03434667 0.736 2.341769e-38
0.0035048008 0.03434667 0.73600006 2.341769e-38
0.0049066874 0.034346685 0.73600006 2.341769e-38
0.0063086129 0.034346677 0.736 2.341769e-38
0.0077105216 0.034346662 0.73600006 2.3417687e-38
0.0091124075 0.03434667 0.73600006 2.3417684e-38
0.010528649 0.034393355 0.73699999 2.341697e-38
0.011932458 0.03439337 0.73699999 2.341769e-38
0.013336229 0.034393348 0.73699999 2.341769e-38
0.014740037 0.034393363 0.73699999 2.341769e-38
0.016143849 0.034393355 0.73699999 2.341769e-38
0.01754768 0.034393355 0.73699999 2.341769e-38
0.018951492 0.034393355 0.73699999 2.341769e-38
0.020355299 0.034393363 0.73699999 2.341769e-38
0.021818159 0.034486696 0.73899996 2.341769e-38
0.023225738 0.034486689 0.73900002 2.341769e-38
0.024666691 0.034533352 0.74000001 2.341769e-38
0.02614673 0.034626685 0.74199998 2.341769e-38
0.027560042 0.034626693 0.74199998 2.341769e-38
0.029012417 0.034673348 0.74300003 2.341769e-38
0.030509552 0.034766674 0.745 2.341769e-38
0.031928632 0.034766689 0.745 2.341769e-38
0.033347674 0.034766696 0.745 2.341769e-38
0.034766711 0.034766696 0.745 2.341769e-38
0.036331471 0.034906678 0.74800003 2.3417686e-38
0.037756246 0.034906685 0.74800003 2.3417683e-38
0.039285745 0.035000026 0.75 2.3411203e-38
0.040822901 0.035093352 0.75200003 1.9267823e-38
0.042423856 0.035233334 0.75500005 1.5126971e-38
0.043861929 0.035233356 0.755 1.5399963e-38
0.045480061 0.035373367 0.75799996 1.5583637e-38
0.047047641 0.035466678 0.76000005 1.5121592e-38
-0.034242831 0.037157163 0.76499999 1.5401697e-38
-0.032699928 0.037060022 0.76299995 1.6413677e-38
-0.031164739 0.036962882 0.76099998 1.6412236e-38
-0.029676149 0.036914311 0.75999999 1.63197e-38
-0.028154213 0.036817163 0.75799996 1.761223e-38
-0.026639966 0.036720008 0.75599998 1.8812573e-38
-0.025099965 0.036574304 0.75300002 1.9824224e-38
-0.023665713 0.036574282 0.75300002 2.0836224e-38
-0.022201836 0.036525719 0.75199997 2.1668139e-38
-0.020714248 0.036428593 0.75 2.2496807e-38
-0.019285666 0.036428593 0.75 2.1851442e-38
-0.017785646 0.036282875 0.74699998 2.1210395e-38
-0.016319001 0.036185741 0.745 2.2314223e-38
-0.014859971 0.036088593 0.74300003 2.3417687e-38
-0.013444736 0.036088586 0.74300003 2.341769e-38
-0.012029502 0.036088586 0.74300003 2.341769e-38
-0.010614269 0.036088578 0.74300003 2.341769e-38
-0.0091989981 0.036088586 0.74299997 2.341769e-38
-0.0077732787 0.036040023 0.74199998 2.341769e-38
-0.0063599688 0.036040008 0.74200004 2.341769e-38
-0.0049466197 0.036040016 0.74199998 2.341769e-38
-0.003533269 0.03604003 0.74199998 2.341769e-38
-0.0021142818 0.035942882 0.74000001 2.341769e-38
-0.00070185837 0.035797171 0.73699999 2.341769e-38
0.00070097233 0.035748579 0.736 2.341769e-38
0.002102881 0.035748579 0.73600006 2.341769e-38
0.0035048064 0.035748579 0.736 2.341769e-38
0.004906693 0.035748586 0.73600006 2.341769e-38
0.0063085794 0.035748571 0.73600006 2.341769e-38
0.0077105253 0.035748579 0.73600006 2.341769e-38
0.0091124112 0.035748571 0.73600006 2.341769e-38
0.010528621 0.035797164 0.73700005 2.341769e-38
0.011932432 0.035797164 0.73699999 2.341769e-38
0.01333624 0.035797171 0.73699999 2.341769e-38
0.01474005 0.035797164 0.73699999 2.341769e-38
0.01614386 0.035797171 0.73699999 2.341769e-38
0.017547691 0.035797164 0.73699999 2.341769e-38
0.018951504 0.035797171 0.73699999 2.341769e-38
0.020355275 0.035797156 0.73699999 2.341769e-38
0.021818152 0.035894305 0.73899996 2.341769e-38
0.023225769 0.035894319 0.73899996 2.341769e-38
0.024666691 0.035942867 0.74000001 2.341769e-38
0.026146714 0.036040008 0.74199998 2.341769e-38
0.027560063 0.036040023 0.74199998 2.341769e-38
0.02901241 0.036088586 0.74300003 2.341769e-38
0.03042764 0.036088593 0.74300003 2.341769e-38
0.031842876 0.036088578 0.74300003 2.341769e-38
0.033347681 0.036185727 0.745 2.341769e-38
0.034860045 0.036282882 0.74699998 2.341769e-38
0.036282893 0.03628286 0.74700004 2.341769e-38
0.037756223 0.036331438 0.74800003 2.3417331e-38
0.039285764 0.036428586 0.75 2.3416216e-38
0.040877182 0.036574297 0.75300002 1.9636212e-38
0.042423837 0.036671437 0.755 1.5761902e-38
0.04392001 0.036720015 0.75599998 1.5766205e-38
0.045360044 0.036720008 0.75600004 1.5861634e-38
0.047047675 0.036914289 0.75999999 1.5309191e-38
-0.03424285 0.038614307 0.76499999 1.5585715e-38
-0.032699928 0.038513351 0.76299995 1.6228565e-38
-0.031164736 0.038412403 0.76100004 1.6410802e-38
-0.029676178 0.038361903 0.75999999 1.6505892e-38
-0.02815422 0.038260981 0.75799996 1.8074655e-38
-0.026710406 0.038260985 0.75799996 1.9640902e-38
-0.025166623 0.038109545 0.755 2.028736e-38
-0.023665668 0.038008582 0.75300002 2.0839462e-38
-0.022201864 0.037958112 0.75199997 2.1759982e-38
-0.020714231 0.037857153 0.75 2.2680842e-38
-0.019285688 0.037857149 0.75000006 2.2221659e-38
-0.017785681 0.037705731 0.74699998 2.176213e-38
-0.01631899 0.037604775 0.745 2.2589733e-38
-0.01485998 0.037503831 0.74300003 2.341733e-38
-0.013444745 0.03750382 0.74300003 2.341769e-38
-0.012029474 0.037503831 0.74300003 2.341769e-38
-0.010614241 0.037503827 0.74300003 2.3417331e-38
-0.0091990074 0.037503824 0.74300003 2.341769e-38
-0.007783771 0.037503831 0.74300003 2.341769e-38
-0.0063599483 0.037453353 0.74199998 2.3325854e-38
-0.0049465974 0.037453353 0.74199998 2.341769e-38
-0.0035332877 0.037453353 0.74199998 2.341769e-38
-0.0021142818 0.037352391 0.74000001 2.341769e-38
-0.0007018472 0.037200972 0.73699999 2.341769e-38
0.0007019614 0.03720098 0.73699999 2.341769e-38
0.0021057718 0.037200972 0.73699999 2.341769e-38
0.0035048083 0.03715048 0.736 2.341769e-38
0.0049066949 0.03715048 0.736 2.341769e-38
0.0063085812 0.037150495 0.73600006 2.341769e-38
0.0077105272 0.03715048 0.736 2.341769e-38
0.0091248015 0.03720098 0.73699999 2.341769e-38
0.010528634 0.03720098 0.73699999 2.341769e-38
0.011932443 0.03720098 0.73699999 2.341769e-38
0.013336253 0.037200972 0.73699999 2.341769e-38
0.014780032 0.037301913 0.73899996 2.341769e-38
0.016187651 0.03730192 0.73899996 2.341769e-38
0.017595269 0.037301935 0.73899996 2.341769e-38
0.018951474 0.037200965 0.73699999 2.341769e-38
0.020410525 0.03730192 0.73899996 2.341769e-38
0.021818146 0.03730192 0.73899996 2.341769e-38
0.023257153 0.037352398 0.74000001 2.341769e-38
0.024733385 0.037453353 0.74199998 2.341769e-38
0.026146734 0.037453353 0.74199998 2.341769e-38
0.027560042 0.037453368 0.74199998 2.341769e-38
0.029012401 0.03750382 0.74300003 2.341769e-38
0.030427672 0.037503839 0.74300003 2.341769e-38
0.031842902 0.03750382 0.74300003 2.341769e-38
0.033347655 0.037604779 0.74500006 2.341769e-38
0.034906697 0.037756205 0.74800003 2.341769e-38
0.036331449 0.037756193 0.74800003 2.341769e-38
0.03775622 0.037756197 0.74800003 2.341769e-38
0.039285757 0.03785716 0.75 2.3413719e-38
0.040877189 0.038008571 0.75300002 1.9915695e-38
0.042423822 0.038109541 0.755 1.641518e-38
0.04392001 0.038160011 0.75600004 1.6225408e-38
0.04566003 0.038412414 0.76100004 1.604604e-38
0.047109537 0.0384124 0.76100004 1.5494669e-38
-0.034242809 0.040071458 0.76499999 1.6138509e-38
-0.032699969 0.03996668 0.76300001 1.6778855e-38
-0.031246634 0.03996668 0.76299995 1.6872493e-38
-0.029715233 0.039861925 0.76100004 1.6870734e-38
-0.028154207 0.039704788 0.75799996 1.8164715e-38
-0.026710415 0.039704785 0.75799996 1.9459759e-38
-0.025199953 0.039600004 0.75599998 2.0655432e-38
-0.023665665 0.039442863 0.75300002 2.1944009e-38
-0.022201864 0.039390489 0.75200003 2.2497183e-38
-0.020769497 0.039390475 0.75199997 2.3050342e-38
-0.019285694 0.039285734 0.75 2.2219511e-38
-0.017785652 0.03912859 0.74699998 2.1302239e-38
-0.016318981 0.039023824 0.745 2.2406423e-38
-0.014859951 0.038919061 0.74300003 2.341769e-38
-0.013444717 0.038919069 0.74300003 2.341769e-38
-0.012029483 0.03891905 0.74300003 2.341769e-38
-0.010614249 0.038919061 0.74300003 2.3417689e-38
-0.0091990149 0.038919058 0.74300003 2.341769e-38
-0.0077837803 0.038919054 0.74300003 2.341769e-38
-0.006359926 0.038866699 0.74199998 2.341769e-38
-0.004946616 0.038866684 0.74199998 2.341769e-38
-0.0035332672 0.038866695 0.74199998 2.341769e-38
-0.0021142799 0.038761921 0.74000001 2.341769e-38
-0.00070183602 0.038604792 0.73699999 2.341769e-38
0.00070193718 0.038604777 0.73699999 2.3234019e-38
0.0021057457 0.038604781 0.73699999 2.3050348e-38
0.0035095785 0.038604792 0.73700005 2.3049989e-38
0.0049133874 0.038604777 0.73699999 2.3050348e-38
0.0063171978 0.038604781 0.73699999 2.323366e-38
0.0077105328 0.038552407 0.736 2.341769e-38
0.0091248164 0.038604803 0.73699999 2.341769e-38
0.010528645 0.038604781 0.73699999 2.341769e-38
0.011932456 0.0386048 0.73699999 2.3325854e-38
0.013336227 0.038604781 0.73699999 2.3325854e-38
0.014740036 0.038604788 0.73699999 2.3141825e-38
0.01614387 0.038604777 0.73699999 2.3050348e-38
0.017595261 0.03870954 0.73899996 2.2957795e-38
0.018951487 0.038604785 0.73699999 2.2866677e-38
0.020410521 0.03870954 0.73899996 2.3142183e-38
0.021818137 0.038709551 0.73899996 2.341769e-38
0.023257155 0.03876191 0.74000001 2.341769e-38
0.024733404 0.038866688 0.74199998 2.341769e-38
0.026146712 0.038866676 0.74199998 2.341769e-38
0.027560063 0.038866688 0.74199998 2.341769e-38
0.029012429 0.038919061 0.74300003 2.341769e-38
0.03050958 0.039023828 0.745 2.341769e-38
0.032014322 0.039128587 0.74699998 2.341769e-38
0.033437174 0.03912859 0.74700004 2.341769e-38
0.034906674 0.039180968 0.74800003 2.341769e-38
0.036331445 0.039180972 0.74800003 2.341769e-38
0.03775622 0.039180961 0.74800003 2.323366e-38
0.039285734 0.039285727 0.75000006 2.3048186e-38
0.040877197 0.03944286 0.75300002 1.9731695e-38
0.042480022 0.039600004 0.75600004 1.6420589e-38
0.04392004 0.039600007 0.75599998 1.6414844e-38
0.045600016 0.039809518 0.76000005 1.6418065e-38
0.047109533 0.039861936 0.76100004 1.6416263e-38
-0.034377094 0.041691445 0.76799995 1.6600599e-38
-0.032699946 0.04142002 0.76300001 1.7336001e-38
-0.031164773 0.041311439 0.76100004 1.7338157e-38
-0.029676175 0.041257154 0.75999999 1.7242763e-38
-0.028154215 0.041148592 0.75799996 1.8253343e-38
-0.026639964 0.041040007 0.75600004 1.9181391e-38
-0.025166636 0.040985722 0.755 2.1113889e-38
-0.023665678 0.040877152 0.75300002 2.2955633e-38
-0.02220189 0.040822864 0.75200003 2.3234019e-38
-0.020769462 0.040822878 0.75199997 2.3414812e-38
-0.019285677 0.040714301 0.75 2.2119779e-38
-0.017785665 0.040551446 0.74699998 2.0840548e-38
-0.016318996 0.040442891 0.745 2.2131993e-38
-0.014899954 0.040442884 0.745 2.341769e-38
-0.013444726 0.040334292 0.74300003 2.341769e-38
-0.012029492 0.040334288 0.74300003 2.341769e-38
-0.010614258 0.040334299 0.74300003 2.341769e-38
-0.0091990223 0.040334303 0.74300003 2.341769e-38
-0.0077837524 0.040334299 0.74300003 2.341769e-38
-0.0063599446 0.040280025 0.74199998 2.341769e-38
-0.0049465955 0.040280029 0.74199998 2.341769e-38
-0.0035332858 0.040280018 0.74200004 2.341769e-38
-0.0021142799 0.040171444 0.74000001 2.341769e-38
-0.00070375827 0.040117156 0.73899996 2.3417682e-38
0.00070194836 0.040008597 0.73699999 2.3050331e-38
0.0021057588 0.040008597 0.73699999 2.2587566e-38
0.0035190948 0.040117163 0.73899996 2.258972e-38
0.0049134004 0.04000859 0.73699999 2.2587929e-38
0.006317209 0.040008601 0.73699999 2.3049263e-38
0.0077210194 0.040008605 0.73699999 2.3415888e-38
0.0091248108 0.04000859 0.73700005 2.3416966e-38
0.010528621 0.040008593 0.73699999 2.3324771e-38
0.01193243 0.040008597 0.73699999 2.3233653e-38
0.01333624 0.040008597 0.73699999 2.3139302e-38
0.014780057 0.040117174 0.73899996 2.2957062e-38
0.016187636 0.040117159 0.73899996 2.2678684e-38
0.017595256 0.040117163 0.73899996 2.2496806e-38
0.019002872 0.040117159 0.73899996 2.2219155e-38
0.020410514 0.040117163 0.73900002 2.2866677e-38
0.021818129 0.040117159 0.73899996 2.341769e-38
0.023257157 0.040171441 0.74000001 2.341769e-38
0.024733385 0.040280025 0.74199998 2.341769e-38
0.026146734 0.040280029 0.74199998 2.341769e-38
0.027560046 0.040280025 0.74200004 2.341769e-38
0.029012419 0.040334299 0.74300003 2.341769e-38
0.030591466 0.040551446 0.74700004 2.341769e-38
0.032014351 0.040551443 0.74699998 2.341769e-38
0.033481937 0.04060572 0.74800003 2.341769e-38
0.034906708 0.040605724 0.74800003 2.341769e-38
0.036331445 0.040605728 0.74800003 2.341769e-38
0.037857171 0.040714309 0.75 2.3050348e-38
0.039390516 0.04082286 0.75200003 2.2584698e-38
0.040985748 0.040985737 0.755 1.9450439e-38
0.042480011 0.041040014 0.75599998 1.6324806e-38
0.043920036 0.041040011 0.75600004 1.6595652e-38
0.045600049 0.041257158 0.75999999 1.6783977e-38
0.047109541 0.041311443 0.76100004 1.7338567e-38
-0.034377087 0.043154299 0.76799995 1.6416609e-38
-0.03278571 0.042985737 0.76500005 1.7707324e-38
-0.031328533 0.042985745 0.76499999 1.7704809e-38
-0.029676141 0.042704776 0.75999999 1.7794878e-38
-0.0281542 0.04259241 0.75799996 1.8442056e-38
-0.026639989 0.042480011 0.75600004 1.9092075e-38
-0.025166633 0.042423829 0.755 2.0930933e-38
-0.023728514 0.042423818 0.755 2.2866666e-38
-0.022231421 0.042311434 0.75300002 2.3142183e-38
-0.020797109 0.042311434 0.75300002 2.3417679e-38
-0.019337099 0.042255256 0.75199997 2.2124437e-38
-0.017809508 0.042030483 0.74800003 2.0838034e-38
-0.016362784 0.041974306 0.74699998 2.2129841e-38
-0.014899946 0.041861933 0.745 2.341769e-38
-0.013480904 0.041861933 0.745 2.2682289e-38
-0.012029502 0.041749526 0.74300003 2.1948322e-38
-0.010614228 0.041749544 0.74300003 2.2222752e-38
-0.0091989944 0.041749544 0.74300003 2.24075e-38
-0.0077837617 0.041749533 0.74300003 2.2774124e-38
-0.0063685277 0.041749537 0.74300003 2.3142183e-38
-0.004946616 0.041693352 0.74200004 2.323366e-38
-0.0035332672 0.041693356 0.74199998 2.3325854e-38
-0.0021142762 0.041580975 0.74000001 2.3325854e-38
-0.00070376386 0.041524779 0.73899996 2.3417673e-38
0.0007019614 0.041412413 0.73699999 2.3046367e-38
0.0021057699 0.041412402 0.73699999 2.2761177e-38
0.0035190873 0.04152479 0.73899996 2.285983e-38
0.0049133725 0.041412398 0.73700005 2.2947368e-38
0.006334323 0.041524779 0.73899996 2.313786e-38
0.0077209915 0.041412398 0.73699999 2.3320098e-38
0.0091248238 0.041412406 0.73699999 2.3323328e-38
0.010528632 0.041412394 0.73699999 2.3414806e-38
0.011964816 0.04152479 0.73899996 2.3322612e-38
0.013372432 0.041524779 0.73899996 2.3224311e-38
0.014780049 0.04152479 0.73899996 2.3136053e-38
0.016187666 0.041524794 0.73899996 2.3036322e-38
0.017619049 0.041580968 0.74000001 2.2950224e-38
0.019028589 0.041580968 0.73999995 2.2849798e-38
0.020438114 0.041580964 0.74000001 2.3137879e-38
0.021847656 0.04158096 0.74000001 2.341769e-38
0.023320055 0.041693352 0.74199998 2.341769e-38
0.024733404 0.041693356 0.74199998 2.341769e-38
0.026146717 0.04169336 0.74200004 2.341769e-38
0.027560066 0.041693352 0.74199998 2.341769e-38
0.029168604 0.041974299 0.74700004 2.341769e-38
0.030591493 0.041974302 0.74699998 2.341769e-38
0.032057162 0.042030491 0.74800003 2.341769e-38
0.033481933 0.042030491 0.74800003 2.341769e-38
0.035000026 0.042142868 0.75 2.341769e-38
0.036428608 0.042142872 0.75 2.341769e-38
0.03785719 0.042142868 0.75 2.2865601e-38
0.03939053 0.042255253 0.75199997 2.2310622e-38
0.040985778 0.042423826 0.755 1.9267474e-38
0.042480003 0.042479996 0.75600004 1.6230458e-38
0.043919988 0.042479999 0.75600004 1.641414e-38
0.045659997 0.042760976 0.76100004 1.6691428e-38
0.047109544 0.042760972 0.76100004 1.7061268e-38
-0.03446665 0.044733349 0.77000004 1.6140737e-38
-0.03287138 0.044559062 0.76699996 1.7979955e-38
-0.031410433 0.044559062 0.76700002 1.8162905e-38
-0.029871389 0.044442885 0.76499999 1.8257634e-38
-0.02833993 0.044326685 0.76299995 1.8628227e-38
-0.026710395 0.044036213 0.75799996 1.8906965e-38
-0.025199972 0.043920007 0.75599998 2.0834796e-38
-0.023759969 0.043920003 0.75600004 2.2679768e-38
-0.022290429 0.043861911 0.755 2.3050348e-38
-0.020797102 0.04374573 0.75300002 2.3415165e-38
-0.019337101 0.04368763 0.75199997 2.2122639e-38
-0.017809471 0.043455254 0.74800003 2.0839466e-38
-0.016362818 0.043397158 0.74699998 2.2131993e-38
-0.014899976 0.043280974 0.745 2.341696e-38
-0.013480894 0.043280967 0.745 2.194507e-38
-0.012061852 0.043280974 0.745 2.0470682e-38
-0.010642833 0.043280974 0.745 2.0933091e-38
-0.0091990279 0.043164771 0.74300003 2.1390476e-38
-0.0077837952 0.043164779 0.74300003 2.2129108e-38
-0.0063685593 0.043164764 0.74300003 2.2861997e-38
-0.0049533234 0.043164775 0.74300003 2.3048536e-38
-0.0035332839 0.043106679 0.74200004 2.3138585e-38
-0.0021142762 0.042990498 0.74000001 2.332585e-38
-0.00070379552 0.042932402 0.73899996 2.341732e-38
0.00070384453 0.042932399 0.73900002 2.3140373e-38
0.0021114622 0.042932395 0.73899996 2.2862355e-38
0.0035190799 0.042932399 0.73899996 2.3048898e-38
0.0049133855 0.042816218 0.73699999 2.3230778e-38
0.0063343155 0.042932402 0.73899996 2.3234011e-38
0.0077210045 0.042816214 0.73699999 2.3232576e-38
0.009124835 0.042816203 0.73699999 2.332513e-38
0.010557189 0.042932406 0.73899996 2.3416966e-38
0.011964806 0.042932399 0.73899996 2.3417683e-38
0.013372424 0.04293241 0.73899996 2.3323332e-38
0.014780042 0.042932399 0.73899996 2.3417675e-38
0.016209548 0.042990495 0.74000001 2.3414086e-38
0.017619051 0.042990498 0.74000001 2.3417672e-38
0.019028591 0.042990491 0.73999995 2.3413375e-38
0.020438116 0.04299048 0.74000001 2.341769e-38
0.021847656 0.042990483 0.74000001 2.341769e-38
0.023320077 0.043106675 0.74199998 2.341769e-38
0.024733389 0.043106683 0.74199998 2.341769e-38
0.026146738 0.04310669 0.74199998 2.341769e-38
0.027597206 0.043164786 0.74300003 2.341769e-38
0.029012438 0.043164775 0.74300003 2.341769e-38
0.030632388 0.043455243 0.74800003 2.341769e-38
0.032057159 0.043455239 0.74800003 2.341769e-38
0.033481933 0.043455247 0.74800003 2.341769e-38
0.035000045 0.043571454 0.75 2.341769e-38
0.036428623 0.043571435 0.75 2.3417684e-38
0.037857186 0.043571446 0.75 2.277483e-38
0.039390527 0.043687627 0.75199997 2.2029366e-38
0.040877171 0.043745726 0.75300002 1.9078415e-38
0.042423837 0.043861926 0.755 1.6047126e-38
0.043920022 0.04392001 0.75599998 1.6322634e-38
0.045660041 0.04421049 0.76100004 1.6598864e-38
0.047109537 0.044210497 0.76099998 1.6782183e-38
-0.034466624 0.046200026 0.76999998 1.586343e-38
-0.03287138 0.04602002 0.76699996 1.7428936e-38
-0.031410437 0.04602002 0.76699996 1.7979946e-38
-0.029871412 0.045900028 0.76500005 1.8444525e-38
-0.0282657 0.045660023 0.76100004 1.9180305e-38
-0.026780939 0.045600004 0.76000005 2.001078e-38
-0.025266612 0.04548002 0.75799996 2.1483028e-38
-0.023822797 0.045480017 0.75800002 2.295671e-38
-0.022320012 0.04536001 0.75600004 2.3233302e-38
-0.020852344 0.045300018 0.755 2.3416598e-38
-0.019337127 0.045120008 0.75200003 2.2769787e-38
-0.017809495 0.044880003 0.74800003 2.2030456e-38
-0.016362829 0.044820026 0.74700004 2.277233e-38
-0.014899964 0.044700023 0.745 2.3417666e-38
-0.013480884 0.044700027 0.745 2.1295021e-38
-0.012061863 0.04470003 0.745 1.9075908e-38
-0.010642822 0.044700019 0.745 1.9082371e-38
-0.0091990372 0.044580005 0.74300003 1.8989822e-38
-0.0077837654 0.044580009 0.74299997 1.9362548e-38
-0.0063685314 0.044580013 0.74300003 1.9729887e-38
-0.0049532973 0.04458002 0.74300003 1.9730243e-38
-0.0035332858 0.044520013 0.74199998 1.9732051e-38
-0.0021142743 0.044400014 0.74000001 2.1575232e-38
-0.00070376572 0.044340033 0.73899996 2.3417686e-38
0.00070387434 0.044340026 0.73899996 2.3325496e-38
0.0021114529 0.044340022 0.73900002 2.3142183e-38
0.0035190706 0.044340011 0.73899996 2.323366e-38
0.0049133967 0.04422003 0.73699999 2.3325854e-38
0.0063343062 0.044340026 0.73899996 2.3325854e-38
0.0077419239 0.044340022 0.73899996 2.3325854e-38
0.0091495411 0.044340011 0.73899996 2.341769e-38
0.010557181 0.044340018 0.73900002 2.341769e-38
0.011964797 0.044340022 0.73899996 2.341769e-38
0.013372417 0.044340018 0.73899996 2.341769e-38
0.014800008 0.04440001 0.74000001 2.341769e-38
0.016209548 0.044400025 0.74000001 2.341769e-38
0.017619053 0.044400014 0.74000001 2.341769e-38
0.019028591 0.044400025 0.73999995 2.341769e-38
0.020438118 0.044400003 0.74000001 2.341769e-38
0.021847658 0.044400021 0.74000001 2.341769e-38
0.023320058 0.044520009 0.74199998 2.341769e-38
0.024733407 0.044520028 0.74199998 2.341769e-38
0.026146717 0.044520009 0.74200004 2.341769e-38
0.027597174 0.044580013 0.74300003 2.341769e-38
0.029012406 0.044580009 0.74300003 2.341769e-38
0.030632425 0.04488001 0.74800003 2.341769e-38
0.032057159 0.04488001 0.74800003 2.341769e-38
0.033481933 0.044879995 0.74800003 2.341769e-38
0.03500006 0.045000017 0.75 2.341769e-38
0.036428619 0.045000028 0.75 2.3417679e-38
0.037958134 0.045120012 0.75199997 2.2126588e-38
0.039442901 0.045180004 0.75300002 2.0923384e-38
0.040985741 0.045300014 0.755 1.8621383e-38
0.042480033 0.04536001 0.75600004 1.6414091e-38
0.043920018 0.045360014 0.75600004 1.6597392e-38
0.045660041 0.045660019 0.76100004 1.6782525e-38
0.047233377 0.045780025 0.76299995 1.696658e-38
0.048814297 0.045900013 0.76499999 1.7149535e-38
-0.034466639 0.04766668 0.76999998 1.5587551e-38
-0.032785673 0.047357175 0.76499999 1.6873616e-38
-0.031328533 0.047357175 0.76499999 1.7791622e-38
-0.029871395 0.047357175 0.76499999 1.8624975e-38
-0.028339932 0.047233354 0.76299995 1.9821007e-38
-0.026816176 0.047109541 0.76100004 2.1022771e-38
-0.025333308 0.047047623 0.76000005 2.2130191e-38
-0.023822807 0.04692382 0.75799996 2.3233297e-38
-0.022319976 0.046800006 0.75600004 2.3325854e-38
-0.02085234 0.04673811 0.755 2.3417323e-38
-0.01933709 0.046552394 0.75199997 2.3325839e-38
-0.017809497 0.046304766 0.74800003 2.3231499e-38
-0.016362803 0.046242878 0.74699998 2.3325854e-38
-0.014939953 0.046242863 0.74700004 2.3414449e-38
-0.013480936 0.046119075 0.745 2.0557491e-38
-0.012061856 0.046119072 0.745 1.7707714e-38
-0.010642813 0.046119072 0.745 1.714701e-38
-0.0091990074 0.045995258 0.74300003 1.6603178e-38
-0.0077837729 0.045995262 0.74300003 1.660175e-38
-0.0063685407 0.045995247 0.74300003 1.6604257e-38
-0.0049533066 0.045995254 0.74300003 1.6502014e-38
-0.0035333044 0.045933351 0.74199998 1.6331986e-38
-0.0021142706 0.045809537 0.74000001 1.9916812e-38
-0.00070473057 0.045809541 0.73999995 2.3414816e-38
0.00070386688 0.045747653 0.73899996 2.341769e-38
0.0021114864 0.045747638 0.73899996 2.341769e-38
0.0035191022 0.045747649 0.73899996 2.341769e-38
0.0049267202 0.045747638 0.73899996 2.341769e-38
0.0063343379 0.045747653 0.73899996 2.341769e-38
0.0077419556 0.045747653 0.73899996 2.341769e-38
0.0091495337 0.045747641 0.73899996 2.341769e-38
0.010557174 0.045747641 0.73900002 2.341769e-38
0.011964793 0.045747641 0.73900002 2.341769e-38
0.013372409 0.045747641 0.73900002 2.341769e-38
0.014780025 0.045747638 0.73899996 2.341769e-38
0.016209552 0.045809533 0.73999995 2.341769e-38
0.017619053 0.045809541 0.74000001 2.341769e-38
0.019028595 0.045809533 0.73999995 2.341769e-38
0.020493357 0.045933343 0.74199998 2.341769e-38
0.021906707 0.045933351 0.74199998 2.341769e-38
0.023320056 0.045933362 0.74199998 2.341769e-38
0.024733365 0.045933347 0.74199998 2.341769e-38
0.026146716 0.045933358 0.74199998 2.341769e-38
0.027597165 0.045995258 0.74300003 2.341769e-38
0.029012397 0.04599525 0.74300003 2.341769e-38
0.030632423 0.046304777 0.74800003 2.341769e-38
0.032057174 0.046304785 0.74800003 2.341769e-38
0.033571459 0.046428584 0.75000006 2.341769e-38
0.035000019 0.046428591 0.75 2.341769e-38
0.036428597 0.046428595 0.75 2.3415877e-38
0.03795813 0.04655239 0.75200003 2.1573407e-38
0.039442908 0.046614297 0.75300002 1.972917e-38
0.04098573 0.046738099 0.75500005 1.8252993e-38
0.042479984 0.046800002 0.75600004 1.669428e-38
0.04392001 0.046799999 0.75600004 1.6870037e-38
0.04566 0.047109541 0.76100004 1.6965839e-38
0.047233399 0.047233354 0.76299995 1.7243876e-38
0.048814341 0.047357161 0.76499999 1.7427551e-38
-0.032785695 0.048814319 0.76499999 1.5492854e-38
-0.031328533 0.048814315 0.76500005 1.6596696e-38
-0.029793279 0.048686691 0.76300001 1.7800257e-38
-0.028339949 0.048686691 0.76300001 1.9549092e-38
-0.026780896 0.048495248 0.75999999 2.1394784e-38
-0.025266608 0.048367646 0.75799996 2.2314588e-38
-0.023822794 0.048367642 0.75799996 2.3325854e-38
-0.022319984 0.048240002 0.75600004 2.341769e-38
-0.020852355 0.04817621 0.755 2.341769e-38
-0.019362813 0.048048582 0.75300002 2.341769e-38
-0.017857095 0.047857165 0.75 2.3325854e-38
-0.016384723 0.047729537 0.74800003 2.341769e-38
-0.014939946 0.047665738 0.74699998 2.3417689e-38
-0.013517098 0.047665738 0.74699998 2.2036926e-38
-0.012061886 0.047538117 0.745 2.0570411e-38
-0.010642803 0.047538128 0.745 2.0286277e-38
-0.0091990167 0.047410492 0.74300003 2.0010422e-38
-0.0077837822 0.047410481 0.74300003 2.0010431e-38
-0.00636855 0.047410484 0.74300003 2.0011503e-38
-0.0049533159 0.047410492 0.74300003 1.9917151e-38
-0.003538043 0.047410503 0.74300003 1.9921466e-38
-0.0021142687 0.047219068 0.74000001 2.1668501e-38
-0.00070472871 0.047219064 0.73999995 2.3417686e-38
0.00070477399 0.047219068 0.74000001 2.341769e-38
0.0021143139 0.047219064 0.73999995 2.341769e-38
0.0035190948 0.047155257 0.73899996 2.341769e-38
0.0049267127 0.047155268 0.73899996 2.341769e-38
0.0063343304 0.047155261 0.73899996 2.341769e-38
0.0077419463 0.047155268 0.73899996 2.341769e-38
0.0091495654 0.047155261 0.73899996 2.341769e-38
0.010557205 0.047155261 0.73899996 2.341769e-38
0.011980969 0.047219057 0.74000001 2.341769e-38
0.013372441 0.047155265 0.73899996 2.341769e-38
0.014800011 0.047219068 0.74000001 2.341769e-38
0.016209552 0.047219064 0.74000001 2.341769e-38
0.017666718 0.047346693 0.74199998 2.341769e-38
0.019080028 0.047346696 0.74199998 2.341769e-38
0.020493379 0.047346689 0.74199998 2.341769e-38
0.021906728 0.047346696 0.74199998 2.341769e-38
0.023320036 0.047346681 0.74199998 2.341769e-38
0.024733385 0.047346693 0.74199998 2.341769e-38
0.026181921 0.047410492 0.74300003 2.341769e-38
0.027597195 0.047410488 0.74299997 2.341769e-38
0.029090535 0.047538113 0.745 2.341769e-38
0.030591467 0.047665723 0.74700004 2.341769e-38
0.032057174 0.047729529 0.74800003 2.341769e-38
0.033571452 0.047857154 0.75 2.341769e-38
0.035000034 0.047857158 0.75 2.341769e-38
0.036428615 0.047857158 0.75 2.3417663e-38
0.037958145 0.047984775 0.75199997 2.1660564e-38
0.039442893 0.048048574 0.75300002 2.0003607e-38
0.040985756 0.048176203 0.755 1.9733508e-38
0.042480018 0.048240013 0.75599998 1.9555547e-38
0.043919999 0.048240013 0.75599998 1.8072158e-38
0.045780066 0.048686687 0.76299995 1.6691411e-38
0.047233421 0.048686687 0.76299995 1.6968006e-38
0.048814297 0.048814308 0.76499999 1.7336792e-38
0.050271459 0.048814319 0.76499999 1.7337516e-38
-0.029793279 0.050140023 0.76300001 1.6875793e-38
-0.028339949 0.050140023 0.76300001 1.927251e-38
-0.026780926 0.049942866 0.75999999 2.1667421e-38
-0.025266593 0.04981146 0.75799996 2.2591171e-38
-0.023822803 0.049811449 0.75799996 2.341769e-38
-0.022319971 0.049680006 0.75599998 2.341769e-38
-0.020879963 0.049680002 0.75600004 2.341769e-38
-0.019414233 0.049614295 0.755 2.341769e-38
-0.017857114 0.049285736 0.75 2.341769e-38
-0.016384749 0.049154289 0.74800003 2.341769e-38
-0.014939959 0.049088586 0.74699998 2.341769e-38
-0.013517109 0.04908859 0.74700004 2.3417689e-38
-0.012094221 0.049088586 0.74699998 2.341768e-38
-0.010642796 0.048957165 0.745 2.3417672e-38
-0.0092237527 0.048957169 0.745 2.3415524e-38
-0.0077837915 0.048825715 0.74300003 2.3417682e-38
-0.0063685183 0.048825733 0.74300003 2.3415526e-38
-0.0049532861 0.048825733 0.74300003 2.3417676e-38
-0.0035380523 0.048825722 0.74300003 2.3416245e-38
-0.0021142687 0.048628595 0.74000001 2.3417686e-38
-0.00070472871 0.048628591 0.73999995 2.3417687e-38
0.00070477399 0.048628595 0.74000001 2.341769e-38
0.0021143139 0.048628591 0.73999995 2.341769e-38
0.0035238185 0.048628591 0.74000001 2.341769e-38
0.0049333586 0.048628587 0.73999995 2.341769e-38
0.0063428613 0.048628591 0.74000001 2.341769e-38
0.0077524236 0.048628595 0.74000001 2.341769e-38
0.0091619259 0.048628584 0.74000001 2.341769e-38
0.010571466 0.048628595 0.74000001 2.341769e-38
0.011980969 0.04862858 0.74000001 2.341769e-38
0.013390508 0.048628591 0.74000001 2.341769e-38
0.014800013 0.048628595 0.74000001 2.341769e-38
0.016253389 0.048760027 0.74199998 2.341769e-38
0.017666699 0.048760016 0.74199998 2.341769e-38
0.019080048 0.048760023 0.74199998 2.341769e-38
0.020493357 0.048760027 0.74200004 2.341769e-38
0.021906707 0.048760019 0.74199998 2.341769e-38
0.023320056 0.04876003 0.74199998 2.341769e-38
0.024733368 0.048760012 0.74199998 2.341769e-38
0.026181953 0.048825737 0.74300003 2.341769e-38
0.027597183 0.04882573 0.74300003 2.341769e-38
0.029090522 0.048957173 0.745 2.341769e-38
0.030632399 0.049154293 0.74800003 2.341769e-38
0.03205717 0.049154297 0.74800003 2.341769e-38
0.033571467 0.04928574 0.75 2.341769e-38
0.035000049 0.049285725 0.75 2.341769e-38
0.036525752 0.049417164 0.75199997 2.3409391e-38
0.037958138 0.049417149 0.75199997 2.1830563e-38
0.039442897 0.049482867 0.75300002 2.0189409e-38
0.040985778 0.049614299 0.755 2.1305474e-38
0.042480014 0.049679998 0.75600004 2.2395282e-38
0.043919995 0.049680002 0.75600004 1.9355364e-38
0.045780051 0.050140008 0.76300001 1.6324436e-38
0.047357179 0.05027144 0.76500005 1.6782899e-38
0.048941921 0.050402876 0.76700002 1.7244952e-38
0.050402891 0.050402869 0.76700002 1.7338229e-38
-0.028339949 0.05159336 0.76299995 1.8350568e-38
-0.026816171 0.051458117 0.76100004 2.0105142e-38
-0.025333293 0.051390484 0.75999999 2.139408e-38
-0.023822786 0.051255263 0.75799996 2.2683006e-38
-0.022319974 0.051120002 0.75600004 2.2958154e-38
-0.020879991 0.051120006 0.75600004 2.3325854e-38
-0.019362824 0.050917152 0.75300002 2.3325854e-38
-0.017857099 0.050714303 0.75 2.341769e-38
-0.01642854 0.050714292 0.75 2.341769e-38
-0.014959977 0.050579056 0.74800003 2.341769e-38
-0.013535205 0.05057906 0.74800003 2.341769e-38
-0.012110453 0.050579052 0.74800003 2.341769e-38
-0.010685681 0.05057906 0.74800003 2.3234019e-38
-0.0092237433 0.050376207 0.745 2.3142183e-38
-0.0078047258 0.050376214 0.745 2.3141825e-38
-0.0063856826 0.050376218 0.745 2.3234019e-38
