# .PCD v0.7 - Point Cloud Data file format
VERSION 0.7
FIELDS x y z rgb
SIZE 4 4 4 4
TYPE F F F F
COUNT 1 1 1 1
WIDTH 981
HEIGHT 1
VIEWPOINT 0 0 0 1 0 0 0
POINTS 981
DATA ascii
0.027597144 0.034673348 0.74300003 2.341769e-38
0.029090479 0.034766652 0.74500012 2.341769e-38
0.030509526 0.034766674 0.74500006 2.341769e-38
0.031928573 0.034766681 0.74500006 2.341769e-38
0.033437144 0.03486 0.74700004 2.3417684e-38
0.03490667 0.034906656 0.74800003 2.2866667e-38
0.03633143 0.034906663 0.74800009 2.2213399e-38
0.037857141 0.035000019 0.75000006 1.9908528e-38
0.039285712 0.035000011 0.75000006 1.7615872e-38
0.040877145 0.03514 0.75300002 1.7062709e-38
0.042423811 0.035233341 0.75500005 1.6505946e-38
0.043920003 0.035280004 0.75600004 1.5582918e-38
0.045480002 0.035373323 0.75800008 1.4667081e-38
-0.034466673 0.0374 0.77000004 1.3095047e-38
-0.032871429 0.037254289 0.76700008 1.549747e-38
-0.03124667 0.037059993 0.76300007 1.6694191e-38
-0.02971524 0.036962852 0.76100004 1.7807398e-38
-0.028228574 0.036914282 0.76000005 1.9644884e-38
-0.026780954 0.036914289 0.76000005 2.1482284e-38
-0.025266668 0.036817133 0.75800008 1.9547253e-38
-0.023760002 0.036720008 0.75600004 1.7711991e-38
-0.02223143 0.036574289 0.75300002 1.8444534e-38
-0.020769525 0.036525697 0.75200009 1.9186757e-38
-0.019337144 0.036525719 0.75200003 2.0195158e-38
-0.017809525 0.03633143 0.74800003 2.1297192e-38
-0.016362861 0.03628286 0.74700004 2.2034035e-38
-0.014900001 0.036185712 0.74500012 2.286559e-38
-0.013480953 0.036185712 0.74500012 2.3141825e-38
-0.012061905 0.036185719 0.74500012 2.341769e-38
-0.010642858 0.036185712 0.74500012 2.3325854e-38
-0.0091990475 0.036088571 0.74300003 2.3325854e-38
-0.0077733337 0.036040001 0.74200004 2.3325496e-38
-0.0063600005 0.036040008 0.74200004 2.3325854e-38
-0.0049466668 0.036040001 0.74200004 2.3325854e-38
-0.0035238096 0.03594286 0.74000001 2.341769e-38
-0.0021114284 0.03589429 0.73900008 2.341769e-38
-0.00070190482 0.035797149 0.73700005 2.341769e-38
0.00070190482 0.035797149 0.73700005 2.341769e-38
0.0021057148 0.035797156 0.73700011 2.341769e-38
0.0035095243 0.035797149 0.73700011 2.341769e-38
0.0049133338 0.035797164 0.73700005 2.341769e-38
0.0063171433 0.035797156 0.73700005 2.341769e-38
0.0077209529 0.035797164 0.73700005 2.341769e-38
0.0091247624 0.035797149 0.73700005 2.341769e-38
0.010528572 0.035797156 0.73700005 2.341769e-38
0.011932381 0.035797164 0.73700005 2.341769e-38
0.013372383 0.035894282 0.73900008 2.341769e-38
0.014780002 0.03589429 0.73900008 2.341769e-38
0.016187618 0.03589429 0.73900008 2.341769e-38
0.017619047 0.035942875 0.74000001 2.341769e-38
0.019028571 0.03594286 0.74000001 2.341769e-38
0.020438096 0.035942867 0.74000001 2.341769e-38
0.021847619 0.03594286 0.74000001 2.341769e-38
0.023320001 0.036039978 0.7420001 2.341769e-38
0.024733335 0.036040001 0.74200004 2.341769e-38
0.026181906 0.036088593 0.74300003 2.341769e-38
0.027597144 0.036088586 0.74300003 2.341769e-38
0.029090479 0.036185719 0.74500006 2.341769e-38
0.030509526 0.036185712 0.74500006 2.341769e-38
0.032014288 0.036282852 0.74700004 2.2590094e-38
0.033437144 0.03628286 0.74700004 2.1672806e-38
0.03490667 0.03633143 0.74800003 2.1295408e-38
0.03633143 0.036331423 0.74800009 2.0915489e-38
0.037756193 0.036331415 0.74800009 1.9908864e-38
0.039285716 0.036428578 0.75000006 1.8895823e-38
0.040877145 0.036574289 0.75300002 1.8256223e-38
0.04231143 0.036574297 0.75300002 1.7698742e-38
0.043920003 0.03672 0.75600004 1.6411957e-38
0.045360003 0.036719985 0.75600004 1.5035508e-38
0.047109526 0.036962859 0.7610001 1.4851125e-38
0.048559051 0.036962844 0.7610001 1.4664577e-38
-0.034377147 0.038765717 0.76800007 1.3001421e-38
-0.032871433 0.038715247 0.76700002 1.5219476e-38
-0.03124667 0.038513344 0.76300001 1.7895275e-38
-0.02971524 0.038412381 0.76100004 2.0470288e-38
-0.028228574 0.038361907 0.76000005 2.1114245e-38
-0.026710479 0.03826094 0.75800008 2.1664167e-38
-0.025200002 0.038160011 0.75600004 1.9726996e-38
-0.023760002 0.03816 0.75600004 1.7800972e-38
-0.022290479 0.038109519 0.75500011 1.8624274e-38
-0.020797145 0.038008578 0.75300002 1.9460483e-38
-0.019337144 0.037958082 0.75200009 2.1023486e-38
-0.017809523 0.037756197 0.74800003 2.2495012e-38
-0.016362861 0.037705727 0.74700004 2.295599e-38
-0.014900001 0.03760476 0.74500012 2.3416967e-38
-0.013480953 0.037604753 0.74500012 2.341769e-38
-0.012061905 0.037604775 0.74500006 2.341769e-38
-0.010642858 0.037604764 0.74500006 2.3325854e-38
-0.0091990484 0.037503812 0.74300003 2.3141825e-38
-0.0077838101 0.037503816 0.74300003 2.314039e-38
-0.0063685719 0.037503809 0.74300003 2.3141825e-38
-0.0049466668 0.037453331 0.7420001 2.3325854e-38
-0.0035333333 0.037453331 0.7420001 2.341769e-38
-0.0021114284 0.037301898 0.73900008 2.341769e-38
-0.00070380949 0.037301905 0.73900008 2.3325854e-38
0.00070380961 0.037301905 0.73900008 2.341769e-38
0.0021057148 0.037200965 0.73700005 2.341769e-38
0.0035095243 0.037200958 0.73700005 2.341769e-38
0.0049133338 0.037200958 0.73700005 2.341769e-38
0.0063171433 0.037200958 0.73700005 2.341769e-38
0.0077209529 0.037200965 0.73700005 2.341769e-38
0.0091247633 0.03720095 0.73700005 2.341769e-38
0.010528573 0.037200958 0.73700005 2.341769e-38
0.011964763 0.037301905 0.73900002 2.341769e-38
0.013372382 0.037301891 0.73900002 2.341769e-38
0.014800001 0.037352391 0.74000001 2.341769e-38
0.016209524 0.037352383 0.74000001 2.341769e-38
0.017666666 0.037453339 0.74200004 2.341769e-38
0.01908 0.037453339 0.74200004 2.341769e-38
0.020493332 0.037453331 0.7420001 2.341769e-38
0.021906666 0.037453339 0.7420001 2.341769e-38
0.023351431 0.037503812 0.74300003 2.341769e-38
0.024766669 0.037503816 0.74300003 2.341769e-38
0.026181906 0.037503809 0.74300003 2.341769e-38
0.027597144 0.037503809 0.74299997 2.341769e-38
0.029090477 0.037604768 0.74500012 2.341769e-38
0.030591428 0.037705727 0.74700004 2.3416611e-38
0.032014288 0.037705716 0.74700004 2.1667788e-38
0.033481907 0.037756186 0.74800003 1.9920031e-38
0.03490667 0.03775619 0.74800003 1.9818856e-38
0.03633143 0.037756193 0.74800009 1.9639125e-38
0.037857141 0.03785716 0.75000006 1.9914986e-38
0.039285712 0.037857153 0.75000006 2.0099024e-38
0.040877149 0.038008563 0.75300002 1.9551607e-38
0.042480003 0.038160004 0.75600004 1.889907e-38
0.044036195 0.03826094 0.75800002 1.7146659e-38
0.045660004 0.03841237 0.7610001 1.540357e-38
0.047109526 0.038412374 0.7610001 1.5128413e-38
0.048941903 0.038715236 0.76700002 1.4851461e-38
-0.034377147 0.040228575 0.76800007 1.3189398e-38
-0.032785714 0.040071428 0.76500005 1.5310619e-38
-0.03124667 0.039966673 0.76300007 1.7800975e-38
-0.029676192 0.039809518 0.76000011 2.0380625e-38
-0.028228574 0.039809521 0.76000011 2.130042e-38
-0.026710479 0.039704762 0.75800002 2.2129448e-38
-0.025200002 0.039600007 0.75600004 2.0929125e-38
-0.023760002 0.039600011 0.75600004 1.9731686e-38
-0.022290479 0.039547607 0.75500011 2.0285219e-38
-0.020852385 0.039547626 0.75500005 2.0843412e-38
-0.019362858 0.039442867 0.75300002 2.1853966e-38
-0.017809523 0.039180957 0.74800003 2.2958508e-38
-0.016384762 0.039180949 0.74800003 2.3233302e-38
-0.014940001 0.039128568 0.7470001 2.341769e-38
-0.013480952 0.039023813 0.74500006 2.341769e-38
-0.012061904 0.039023817 0.74500006 2.341769e-38
-0.010642857 0.039023805 0.74500006 2.3325854e-38
-0.0091990484 0.038919061 0.74300003 2.3325854e-38
-0.0077838101 0.03891905 0.74300003 2.3325496e-38
-0.0063685719 0.038919058 0.74300003 2.3325854e-38
-0.0049466672 0.038866673 0.7420001 2.3325854e-38
-0.0035333333 0.038866673 0.7420001 2.341769e-38
-0.0021142857 0.03876191 0.74000001 2.341769e-38
-0.00070380949 0.038709521 0.73900008 2.341769e-38
0.00070380961 0.038709514 0.73900008 2.341769e-38
0.0021114289 0.038709518 0.73900008 2.341769e-38
0.003519048 0.038709521 0.73900008 2.341769e-38
0.0049133338 0.038604766 0.73700005 2.341769e-38
0.0063171433 0.03860477 0.73700011 2.341769e-38
0.0077209529 0.03860477 0.73700005 2.341769e-38
0.0091247624 0.038604777 0.73700005 2.341769e-38
0.010528572 0.038604766 0.73700005 2.341769e-38
0.011964764 0.038709529 0.73900002 2.341769e-38
0.013372383 0.038709532 0.73900002 2.341769e-38
0.014800002 0.038761906 0.74000001 2.341769e-38
0.016209522 0.038761914 0.74000001 2.341769e-38
0.017666666 0.038866654 0.7420001 2.341769e-38
0.01908 0.038866661 0.7420001 2.341769e-38
0.020493332 0.038866665 0.7420001 2.341769e-38
0.021906666 0.038866673 0.74200004 2.341769e-38
0.023351431 0.038919065 0.74300003 2.341769e-38
0.024766669 0.038919054 0.74300003 2.341769e-38
0.026181906 0.038919047 0.74300003 2.341769e-38
0.027671428 0.039023798 0.74500012 2.341769e-38
0.029090477 0.039023805 0.74500012 2.3142183e-38
0.03059143 0.039128575 0.7470001 2.2958507e-38
0.032014288 0.039128572 0.7470001 2.2312064e-38
0.033481907 0.039180961 0.74800003 2.1663462e-38
0.03490667 0.039180949 0.74800003 2.1574481e-38
0.03633143 0.039180953 0.74800009 2.1580951e-38
0.037857145 0.039285723 0.75000006 2.1392269e-38
0.039285716 0.039285716 0.75000006 2.1207519e-38
0.040877145 0.039442848 0.75300008 1.9826396e-38
0.042480003 0.039600007 0.75600004 1.8444566e-38
0.044036191 0.039704766 0.75800002 1.7150265e-38
0.045660004 0.039861891 0.7610001 1.5864185e-38
0.047357149 0.040071428 0.76500005 1.5957072e-38
-0.032785717 0.041528579 0.76500005 1.5312753e-38
-0.031164763 0.041311424 0.76100004 1.7800584e-38
-0.029676192 0.041257143 0.76000005 2.0284829e-38
-0.028228574 0.041257147 0.76000005 2.1485173e-38
-0.026710479 0.041148573 0.75800002 2.2587554e-38
-0.025200002 0.041040003 0.75600004 2.2128373e-38
-0.023760002 0.041040007 0.75600004 2.166597e-38
-0.022290479 0.040985711 0.75500011 2.1941838e-38
-0.020852385 0.040985718 0.75500011 2.212803e-38
-0.019337144 0.040822852 0.75200009 2.27734e-38
-0.017857144 0.040714286 0.75000006 2.3417328e-38
-0.016384764 0.040605724 0.74800003 2.341769e-38
-0.014940001 0.040551428 0.74700004 2.341769e-38
-0.013517144 0.040551417 0.74700004 2.341769e-38
-0.012061905 0.040442858 0.74500012 2.341769e-38
-0.010642858 0.040442862 0.74500012 2.341769e-38
-0.0091990475 0.040334299 0.74300003 2.341769e-38
-0.0077838101 0.040334303 0.74300003 2.341769e-38
-0.0063685719 0.040334295 0.74300003 2.341769e-38
-0.0049466668 0.040279984 0.7420001 2.341769e-38
-0.0035333333 0.040280003 0.74200004 2.341769e-38
-0.0021142857 0.040171426 0.74000001 2.341769e-38
-0.00070476189 0.04017143 0.74000001 2.341769e-38
0.000704762 0.040171437 0.74000001 2.341769e-38
0.0021114289 0.040117137 0.73900008 2.341769e-38
0.003519048 0.040117141 0.73900008 2.341769e-38
0.0049133338 0.040008582 0.73700005 2.341769e-38
0.0063171433 0.040008586 0.73700005 2.341769e-38
0.0077209529 0.040008575 0.73700005 2.341769e-38
0.0091247633 0.040008582 0.73700005 2.341769e-38
0.010528573 0.040008586 0.73700005 2.341769e-38
0.011964763 0.040117152 0.73900002 2.341769e-38
0.013372382 0.040117141 0.73900002 2.341769e-38
0.014800001 0.04017143 0.74000001 2.341769e-38
0.016209522 0.040171437 0.74000001 2.341769e-38
0.017619047 0.040171437 0.74000001 2.341769e-38
0.01908 0.040280003 0.7420001 2.341769e-38
0.020493332 0.040279992 0.7420001 2.341769e-38
0.021906666 0.040279996 0.7420001 2.341769e-38
0.023351429 0.040334299 0.74300003 2.341769e-38
0.024766667 0.040334288 0.74300003 2.3417687e-38
0.026181905 0.040334295 0.74300003 2.3417684e-38
0.02767143 0.040442847 0.74500012 2.341409e-38
0.029090479 0.040442865 0.74500006 2.2958136e-38
0.03059143 0.040551439 0.74700004 2.2404258e-38
0.032014284 0.040551428 0.74700004 2.2958507e-38
0.033481907 0.040605705 0.74800003 2.3415524e-38
0.03490667 0.040605709 0.74800003 2.3417669e-38
0.03633143 0.040605713 0.74800003 2.3417316e-38
0.037857141 0.04071429 0.75000012 2.2865234e-38
0.039390482 0.040822856 0.75200009 2.2219503e-38
0.040985718 0.040985715 0.75500011 2.0101175e-38
0.042480003 0.041040007 0.75600004 1.7980355e-38
0.044036195 0.041148551 0.75800008 1.7145231e-38
0.045660004 0.041311421 0.7610001 1.6324086e-38
0.047233336 0.04142002 0.76300001 1.6878678e-38
-0.032785714 0.042985715 0.76500005 1.5315964e-38
-0.03124667 0.042873349 0.76300007 1.6970445e-38
-0.02971524 0.04276095 0.76100004 1.8626038e-38
-0.028154287 0.042592369 0.75800008 2.0470324e-38
-0.026710479 0.042592373 0.75800008 2.2403171e-38
-0.025200002 0.042480003 0.75600004 2.2036544e-38
-0.023760002 0.042480011 0.75600004 2.1759598e-38
-0.022290479 0.042423811 0.75500005 2.1850712e-38
-0.020852385 0.042423803 0.75500011 2.1943639e-38
-0.019362859 0.042311426 0.75300002 2.2589373e-38
-0.017904762 0.042255227 0.75200009 2.3325853e-38
-0.016384764 0.042030483 0.74800003 2.341769e-38
-0.014960001 0.042030487 0.74800003 2.341769e-38
-0.013517143 0.04197428 0.74700004 2.341769e-38
-0.012061904 0.041861899 0.74500012 2.341769e-38
-0.010642857 0.041861888 0.74500012 2.341769e-38
-0.0091990484 0.041749548 0.74300003 2.341769e-38
-0.0077838101 0.041749537 0.74300003 2.341769e-38
-0.0063685719 0.04174953 0.74300003 2.341769e-38
-0.0049466668 0.041693341 0.7420001 2.341769e-38
-0.0035333333 0.041693334 0.7420001 2.341769e-38
-0.0021142857 0.041580956 0.74000001 2.341769e-38
-0.00070476194 0.041580971 0.74000001 2.341769e-38
0.00070476194 0.041580964 0.74000001 2.341769e-38
0.0021142862 0.041580953 0.74000001 2.341769e-38
0.0035238101 0.041580956 0.74000001 2.341769e-38
0.0049266671 0.041524764 0.73900008 2.341769e-38
0.0063342862 0.041524768 0.73900008 2.341769e-38
0.0077209529 0.04141238 0.73700005 2.341769e-38
0.0091247633 0.041412387 0.73700011 2.341769e-38
0.010557145 0.041524753 0.73900008 2.341769e-38
0.011980955 0.041580953 0.74000001 2.341769e-38
0.013390478 0.041580956 0.74000001 2.341769e-38
0.014800002 0.04158096 0.74000001 2.341769e-38
0.016209522 0.041580964 0.74000001 2.341769e-38
0.017619047 0.041580968 0.74000001 2.341769e-38
0.019080002 0.041693341 0.74200004 2.341769e-38
0.020493334 0.041693345 0.74200004 2.341769e-38
0.021906668 0.041693334 0.74200004 2.341769e-38
0.023320001 0.041693341 0.74200004 2.175927e-38
0.024766669 0.041749537 0.74300003 2.0203442e-38
0.026181906 0.04174953 0.74300003 2.0378138e-38
0.027597144 0.041749533 0.74300003 2.0556058e-38
0.029168574 0.041974295 0.74700004 2.1202481e-38
0.03059143 0.041974302 0.74700004 2.1936107e-38
0.032014288 0.041974291 0.74700004 2.2680136e-38
0.033481907 0.042030483 0.74800003 2.341769e-38
0.03490667 0.042030487 0.74800003 2.341769e-38
0.036428574 0.042142872 0.75000006 2.341769e-38
0.037958097 0.042255234 0.75200003 2.3141825e-38
0.03944286 0.04231143 0.75300002 2.277482e-38
0.040985718 0.042423803 0.75500005 2.0192283e-38
0.042480003 0.042480003 0.75600004 1.7607263e-38
0.044036191 0.042592376 0.75800008 1.6872584e-38
0.045660004 0.042760957 0.7610001 1.6050737e-38
0.047233332 0.042873349 0.76300001 1.66014e-38
-0.034466673 0.044733346 0.77000004 1.3469917e-38
-0.032871429 0.044559047 0.76700008 1.5310224e-38
-0.031328574 0.044442859 0.76500005 1.6139264e-38
-0.029793335 0.044326678 0.76300001 1.6972283e-38
-0.028265717 0.044210479 0.76100004 1.9549819e-38
-0.026710479 0.044036184 0.75800008 2.212731e-38
-0.025266668 0.044036187 0.75800002 2.194615e-38
-0.023822859 0.044036191 0.75800002 2.1759601e-38
-0.02232 0.043919992 0.75600004 2.1758159e-38
-0.020852385 0.043861896 0.75500011 2.1668491e-38
-0.019414289 0.0438619 0.75500011 2.2497894e-38
-0.017904762 0.043687616 0.75200009 2.3233657e-38
-0.016428573 0.043571439 0.75000006 2.3325854e-38
-0.014960001 0.043455232 0.74800003 2.341769e-38
-0.013517144 0.043397143 0.74700004 2.341769e-38
-0.012094286 0.043397151 0.74700004 2.341769e-38
-0.010642858 0.043280963 0.74500006 2.341769e-38
-0.0092238104 0.043280955 0.74500006 2.341769e-38
-0.0077838106 0.043164771 0.74300003 2.341769e-38
-0.0063685724 0.043164779 0.74300003 2.341769e-38
-0.0049533341 0.043164767 0.74300003 2.341769e-38
-0.0035333335 0.043106671 0.74200004 2.341769e-38
-0.0021142857 0.042990491 0.74000001 2.341769e-38
-0.00070476189 0.042990495 0.74000001 2.341769e-38
0.000704762 0.042990487 0.74000001 2.341769e-38
0.0021142862 0.042990491 0.74000001 2.341769e-38
0.0035238101 0.042990495 0.74000001 2.341769e-38
0.0049333335 0.042990487 0.74000001 2.341769e-38
0.0063428576 0.042990476 0.74000001 2.341769e-38
0.0077419053 0.042932376 0.73900008 2.341769e-38
0.0091619054 0.042990487 0.74000001 2.341769e-38
0.01057143 0.042990476 0.74000001 2.341769e-38
0.011980954 0.042990483 0.74000001 2.341769e-38
0.013426669 0.043106671 0.74200004 2.341769e-38
0.014800001 0.042990487 0.74000001 2.341769e-38
0.016209524 0.04299048 0.74000001 2.341769e-38
0.017666666 0.043106671 0.7420001 2.341769e-38
0.01908 0.043106664 0.7420001 2.341769e-38
0.020493332 0.04310666 0.7420001 2.341769e-38
0.021906666 0.043106664 0.7420001 2.3412302e-38
0.023319999 0.043106671 0.7420001 2.0181191e-38
0.024766669 0.043164775 0.74299997 1.6884081e-38
0.026181906 0.043164782 0.74300003 1.724389e-38
0.02767143 0.043280955 0.74500012 1.7618046e-38
0.029168574 0.043397143 0.7470001 1.9543003e-38
0.03059143 0.043397151 0.7470001 2.1389766e-38
0.032057147 0.043455228 0.74800003 2.24075e-38
0.033481911 0.043455236 0.74800003 2.341769e-38
0.035000004 0.043571427 0.75000006 2.341769e-38
0.036428574 0.043571435 0.75000006 2.341769e-38
0.037958097 0.043687623 0.75200003 2.341769e-38
0.039442863 0.043745715 0.75300002 2.3322965e-38
0.040985718 0.043861892 0.75500011 2.0286276e-38
0.042480003 0.043919992 0.75600004 1.7243499e-38
0.043920003 0.043919995 0.75600004 1.6503786e-38
0.045660004 0.044210464 0.7610001 1.5771627e-38
0.047109526 0.044210467 0.7610001 1.632409e-38
0.048814289 0.044442855 0.76500005 1.6876895e-38
-0.034466669 0.046200015 0.77000004 1.3283731e-38
-0.032871433 0.046020005 0.76700002 1.5214082e-38
-0.031328574 0.04590001 0.76500005 1.6412979e-38
-0.029793335 0.045780011 0.76300007 1.7522223e-38
-0.028265717 0.045659997 0.76100004 1.9828557e-38
-0.026780954 0.045599993 0.76000011 2.2130544e-38
-0.025266668 0.045479994 0.75800002 2.1114973e-38
-0.023822859 0.045479983 0.75800008 2.010549e-38
-0.02232 0.045360003 0.75600004 2.0654698e-38
-0.020852383 0.045299996 0.75500011 2.1208595e-38
-0.019414287 0.045299999 0.75500011 2.222131e-38
-0.017904762 0.045120001 0.75200009 2.3233657e-38
-0.016428573 0.045000002 0.75000012 2.3325854e-38
-0.01496 0.044879999 0.74800003 2.341769e-38
-0.013535238 0.044879988 0.74800003 2.341769e-38
-0.012094286 0.044820011 0.74700004 2.341769e-38
-0.010671429 0.044820014 0.74700004 2.341769e-38
-0.0092238104 0.044700008 0.74500012 2.341769e-38
-0.0078047626 0.044699997 0.74500012 2.341769e-38
-0.0063685719 0.044579998 0.74300003 2.341769e-38
-0.0049533336 0.044580013 0.74300003 2.341769e-38
-0.0035380952 0.044580013 0.74300003 2.341769e-38
-0.0021142857 0.044400021 0.74000001 2.341769e-38
-0.00070476189 0.04440001 0.74000001 2.341769e-38
0.000704762 0.044400003 0.74000001 2.341769e-38
0.0021142862 0.044400007 0.74000001 2.341769e-38
0.0035238101 0.04440001 0.74000001 2.341769e-38
0.0049333335 0.044400003 0.74000001 2.341769e-38
0.0063600005 0.044520002 0.7420001 2.341769e-38
0.0077733337 0.044519994 0.7420001 2.341769e-38
0.0091866674 0.044519998 0.7420001 2.341769e-38
0.010600001 0.044520002 0.7420001 2.341769e-38
0.011980955 0.044399999 0.74000001 2.341769e-38
0.013426668 0.044519998 0.7420001 2.341769e-38
0.014840001 0.044519991 0.7420001 2.341769e-38
0.016253332 0.044519994 0.7420001 2.341769e-38
0.017666666 0.044519994 0.74200004 2.341769e-38
0.01908 0.044520002 0.74200004 2.341769e-38
0.020493332 0.044520006 0.74200004 2.341769e-38
0.021906666 0.044519994 0.74200004 2.3417675e-38
0.023351431 0.044580009 0.74300003 2.1756728e-38
0.024766669 0.044580013 0.74300003 2.0193379e-38
0.026181906 0.044580005 0.74300003 2.0378491e-38
0.02767143 0.044699997 0.74500012 2.0567192e-38
0.029168572 0.044820007 0.74700004 2.1483762e-38
0.030591428 0.044819999 0.74700004 2.24075e-38
0.032057144 0.044880003 0.74800003 2.2958513e-38
0.033481907 0.044879995 0.74800003 2.341769e-38
0.035 0.045000006 0.75000006 2.2496106e-38
0.036428571 0.045000013 0.75000006 2.158098e-38
0.037958097 0.045119997 0.75200009 2.2221676e-38
0.039547622 0.045300003 0.75500005 2.2955983e-38
0.041040003 0.045359995 0.75600004 2.0193008e-38
0.042480003 0.045360003 0.75600004 1.7514692e-38
0.044036191 0.045479983 0.75800008 1.6779628e-38
0.045660004 0.04566 0.7610001 1.6136442e-38
0.047233332 0.045780007 0.76300001 1.6598868e-38
0.048814289 0.045900002 0.76500005 1.6967285e-38
-0.031328574 0.047357146 0.76500005 1.6591997e-38
-0.029793335 0.047233351 0.76300001 1.8076467e-38
-0.028340003 0.047233343 0.76300001 2.0111593e-38
-0.026816193 0.047109514 0.76100004 2.2034394e-38
-0.025333336 0.047047608 0.76000011 2.0277318e-38
-0.023822859 0.046923805 0.75800008 1.8444189e-38
-0.022379048 0.046923798 0.75800008 1.9546209e-38
-0.020879999 0.046800006 0.75600004 2.0655069e-38
-0.019414287 0.046738088 0.75500005 2.194437e-38
-0.017904762 0.046552375 0.75200009 2.3141104e-38
-0.016428573 0.04642858 0.75000006 2.3325854e-38
-0.015000001 0.046428572 0.75000006 2.341769e-38
-0.013535238 0.046304762 0.74800003 2.341769e-38
-0.012110476 0.046304762 0.74800003 2.341769e-38
-0.010671428 0.046242852 0.7470001 2.341769e-38
-0.0092485715 0.04624287 0.74700004 2.341769e-38
-0.007804763 0.046119042 0.74500012 2.341769e-38
-0.0063857152 0.046119049 0.74500012 2.341769e-38
-0.0049533336 0.045995235 0.74300003 2.341769e-38
-0.0035380954 0.045995243 0.74300003 2.341769e-38
-0.0021199998 0.04593334 0.7420001 2.341769e-38
-0.00070476194 0.045809526 0.74000001 2.341769e-38
0.00070476194 0.045809533 0.74000001 2.341769e-38
0.0021142862 0.045809522 0.74000001 2.341769e-38
0.0035238101 0.045809526 0.74000001 2.341769e-38
0.0049466668 0.045933321 0.7420001 2.341769e-38
0.0063600005 0.045933325 0.7420001 2.341769e-38
0.0077523813 0.045809537 0.74000001 2.341769e-38
0.0091866683 0.045933332 0.74200004 2.341769e-38
0.010600002 0.045933343 0.74200004 2.341769e-38
0.012013335 0.045933336 0.74200004 2.341769e-38
0.013426669 0.04593334 0.7420001 2.341769e-38
0.014840002 0.045933332 0.7420001 2.341769e-38
0.016253332 0.045933336 0.7420001 2.341769e-38
0.017666666 0.04593334 0.7420001 2.341769e-38
0.01908 0.045933332 0.7420001 2.341769e-38
0.020493332 0.045933321 0.7420001 2.341769e-38
0.021906666 0.045933325 0.7420001 2.3417683e-38
0.023351429 0.04599525 0.74300003 2.3417675e-38
0.024766667 0.045995247 0.74300003 2.3415166e-38
0.026252382 0.046119038 0.74500012 2.3417682e-38
0.027671428 0.046119053 0.74500006 2.3416968e-38
0.029168572 0.046242852 0.74700004 2.341769e-38
0.030632382 0.046304774 0.74800003 2.341769e-38
0.032057144 0.046304762 0.74800003 2.341769e-38
0.033481907 0.04630477 0.74800003 2.3413018e-38
0.035000004 0.046428569 0.75000006 2.156769e-38
0.036428574 0.046428576 0.75000006 1.964381e-38
0.038008578 0.046614293 0.75300002 2.1115331e-38
0.039442863 0.046614282 0.75300002 2.2586848e-38
0.040985718 0.046738088 0.75500011 2.0198046e-38
0.042480003 0.046800002 0.75600004 1.7706268e-38
0.044036195 0.046923794 0.75800008 1.7147698e-38
0.045660004 0.047109507 0.7610001 1.6505222e-38
0.047233336 0.047233351 0.76300001 1.6783971e-38
0.048814289 0.047357138 0.76500005 1.7060555e-38
0.050271433 0.047357142 0.76500005 1.7245304e-38
-0.031328574 0.048814297 0.76500005 1.6965806e-38
-0.029793335 0.048686668 0.76300007 1.8814384e-38
-0.028340003 0.048686676 0.76300007 2.0474625e-38
-0.026816193 0.048559036 0.76100004 2.2036178e-38
-0.025366668 0.04855904 0.7610001 2.0189414e-38
-0.023885716 0.048495241 0.76000011 1.8439516e-38
-0.022379048 0.048367616 0.75800002 1.9455444e-38
-0.020879999 0.048240002 0.75600004 2.0563948e-38
-0.019414287 0.048176192 0.75500011 2.1944731e-38
-0.01790476 0.04798476 0.75200009 2.3325853e-38
-0.016428571 0.047857147 0.75000012 2.3325854e-38
-0.015000001 0.047857139 0.75000012 2.341769e-38
-0.013535239 0.047729522 0.74800003 2.341769e-38
-0.012110477 0.047729515 0.74800003 2.341769e-38
-0.010671429 0.047665711 0.74700004 2.341769e-38
-0.0092485724 0.047665719 0.74700004 2.341769e-38
-0.0078047626 0.047538094 0.74500006 2.341769e-38
-0.0063857147 0.047538102 0.74500006 2.341769e-38
-0.0049666669 0.047538105 0.74500006 2.341769e-38
-0.0035380952 0.047410481 0.74300003 2.341769e-38
-0.0021199998 0.047346674 0.74200004 2.341769e-38
-0.00070666673 0.047346678 0.74200004 2.341769e-38
0.00070666673 0.047346674 0.74200004 2.341769e-38
0.0021200003 0.047346663 0.74200004 2.341769e-38
0.0035238101 0.047219045 0.74000001 2.341769e-38
0.0049466668 0.047346674 0.7420001 2.341769e-38
0.0063600005 0.047346663 0.7420001 2.341769e-38
0.0077733337 0.04734667 0.7420001 2.341769e-38
0.0091866674 0.047346674 0.7420001 2.341769e-38
0.010600001 0.047346663 0.7420001 2.341769e-38
0.012013334 0.047346659 0.7420001 2.341769e-38
0.013426668 0.047346663 0.7420001 2.341769e-38
0.014840001 0.047346685 0.74200004 2.341769e-38
0.016253334 0.047346674 0.74200004 2.341769e-38
0.017666668 0.047346678 0.74200004 2.341769e-38
0.019080002 0.04734667 0.74200004 2.341769e-38
0.020493334 0.047346674 0.7420001 2.341769e-38
0.021906668 0.047346663 0.7420001 2.341769e-38
0.023351431 0.047410492 0.74300003 2.341769e-38
0.024766669 0.047410481 0.74300003 2.341769e-38
0.026252383 0.047538105 0.74500006 2.341769e-38
0.02767143 0.047538094 0.74500006 2.341769e-38
0.029168574 0.047665715 0.74700004 2.3049989e-38
0.030632384 0.047729529 0.74800003 2.2774842e-38
0.032057144 0.047729522 0.74800003 2.2404988e-38
0.033481907 0.047729529 0.74800003 2.2035118e-38
0.035 0.047857136 0.75000012 2.0834782e-38
0.036525715 0.047984745 0.75200009 1.9638053e-38
0.038008574 0.048048571 0.75300002 2.1205717e-38
0.03944286 0.04804856 0.75300002 2.286379e-38
0.040985718 0.048176188 0.75500011 2.1024222e-38
0.042480003 0.048239999 0.75600004 1.9178877e-38
0.044036191 0.048367627 0.75800002 1.7792708e-38
0.045600004 0.048495237 0.76000011 1.6503433e-38
0.047233332 0.048686665 0.76300001 1.6783251e-38
0.048686665 0.048686668 0.76300001 1.7061273e-38
-0.03132857 0.050271444 0.76500005 1.7244181e-38
-0.029793335 0.050140008 0.76300001 1.954978e-38
-0.028340003 0.050140016 0.76300001 2.0844472e-38
-0.026886668 0.050140012 0.76300001 2.2032585e-38
-0.025333336 0.049942862 0.76000005 2.0187616e-38
-0.023885716 0.049942855 0.76000005 1.8349832e-38
-0.022379048 0.049811423 0.75800008 1.9363614e-38
-0.020880001 0.049680002 0.75600004 2.0378485e-38
-0.019414287 0.049614277 0.75500011 2.194401e-38
-0.017904762 0.049417146 0.75200009 2.341661e-38
-0.016428573 0.049285721 0.75000006 2.341769e-38
-0.015000001 0.049285717 0.75000006 2.341769e-38
-0.013571429 0.049285721 0.75000006 2.341769e-38
-0.012094286 0.049088571 0.74700004 2.341769e-38
-0.010671429 0.049088575 0.74700004 2.341769e-38
-0.0092485724 0.049088582 0.74700004 2.341769e-38
-0.0078047626 0.04895715 0.74500012 2.341769e-38
-0.0063857147 0.048957143 0.74500012 2.341769e-38
-0.0049666669 0.048957132 0.74500012 2.341769e-38
-0.0035380952 0.04882573 0.74300003 2.341769e-38
-0.0021199998 0.048760004 0.7420001 2.341769e-38
-0.00070666667 0.048759993 0.7420001 2.341769e-38
0.00070666679 0.048760001 0.7420001 2.341769e-38
0.0021200003 0.048760004 0.7420001 2.341769e-38
0.0035333338 0.048759993 0.7420001 2.341769e-38
0.0049466668 0.048760012 0.74200004 2.341769e-38
0.0063600005 0.048760001 0.74200004 2.341769e-38
0.0077733337 0.048760012 0.74200004 2.341769e-38
0.0091866674 0.048760001 0.74200004 2.341769e-38
0.010600001 0.048760004 0.7420001 2.341769e-38
0.012013334 0.048760012 0.7420001 2.341769e-38
0.013426668 0.048760001 0.7420001 2.341769e-38
0.014840001 0.048759993 0.7420001 2.341769e-38
0.016253332 0.048759997 0.7420001 2.341769e-38
0.017666666 0.048760001 0.7420001 2.341769e-38
0.01908 0.048759993 0.7420001 2.341769e-38
0.020493332 0.048760001 0.7420001 2.341769e-38
0.021936191 0.048825733 0.74300003 2.341769e-38
0.023351431 0.048825722 0.74300003 2.341769e-38
0.024766669 0.048825726 0.74300003 2.341769e-38
0.026252383 0.048957147 0.74500012 2.341769e-38
0.027745716 0.049088575 0.7470001 2.341733e-38
0.029168574 0.049088564 0.7470001 2.2773763e-38
0.030632382 0.049154289 0.74800003 2.2037638e-38
0.032057144 0.049154293 0.74800003 2.1391555e-38
0.03357143 0.049285725 0.75000006 2.0654353e-38
0.035000004 0.049285717 0.75000006 2.0097595e-38
0.036525715 0.049417131 0.75200009 1.9549093e-38
0.038008574 0.049482856 0.75300002 2.1389749e-38
0.039547622 0.049614288 0.75500005 2.3139657e-38
0.040985718 0.049614292 0.75500005 2.1856484e-38
0.042480003 0.049680017 0.75600004 2.0555336e-38
0.043920003 0.049680006 0.75600004 1.8523809e-38
0.045600004 0.049942847 0.76000011 1.6414104e-38
0.047357149 0.050271433 0.76500005 1.6691764e-38
0.048814293 0.05027144 0.76500005 1.6969433e-38
-0.03145143 0.051931433 0.76800007 1.6783926e-38
-0.029988574 0.051931426 0.76800007 1.8449184e-38
-0.028488575 0.051863816 0.76700002 1.9460474e-38
-0.026957147 0.05172858 0.76500005 2.0470298e-38
-0.025433337 0.051593345 0.76300001 1.917742e-38
-0.023822859 0.051255222 0.75800008 1.7888504e-38
-0.022379048 0.05125523 0.75800008 1.844096e-38
-0.020880001 0.051119998 0.75600004 1.9091355e-38
-0.019414287 0.05105238 0.75500005 2.0841263e-38
-0.017904762 0.050849531 0.75200009 2.2683e-38
-0.016428573 0.050714292 0.75000006 2.2865601e-38
-0.015 0.050714284 0.75000006 2.3050348e-38
-0.013571428 0.050714288 0.75000012 2.3234019e-38
-0.012110476 0.050579049 0.74800003 2.341769e-38
-0.010685714 0.050579052 0.74800003 2.341769e-38
-0.0092485715 0.050511442 0.74700004 2.341769e-38
-0.0078047626 0.050376195 0.74500012 2.341769e-38
-0.0063857147 0.050376188 0.74500012 2.3325854e-38
-0.0049666669 0.050376192 0.74500012 2.341769e-38
-0.0035380952 0.050240964 0.74300003 2.341769e-38
-0.0021199998 0.050173342 0.74200004 2.341769e-38
-0.00070666673 0.050173346 0.74200004 2.341769e-38
0.00070666673 0.050173339 0.74200004 2.341769e-38
0.0021200003 0.050173327 0.7420001 2.341769e-38
0.0035333338 0.050173331 0.7420001 2.341769e-38
0.0049466668 0.050173339 0.7420001 2.341769e-38
0.0063600005 0.050173327 0.7420001 2.341769e-38
0.0077733337 0.050173335 0.7420001 2.341769e-38
0.0091866683 0.050173339 0.7420001 2.341769e-38
0.010600002 0.050173327 0.7420001 2.341769e-38
0.012013335 0.050173335 0.74200004 2.341769e-38
0.013426669 0.050173339 0.74200004 2.341769e-38
0.014840002 0.050173346 0.74200004 2.341769e-38
0.016253332 0.050173335 0.74200004 2.341769e-38
0.017666666 0.050173339 0.7420001 2.341769e-38
0.01908 0.050173331 0.7420001 2.341769e-38
0.020520953 0.050240964 0.74300003 2.341769e-38
0.021936191 0.050240956 0.74300003 2.341769e-38
0.023351431 0.050240971 0.74299997 2.341769e-38
0.024766669 0.05024096 0.74300003 2.341769e-38
0.026252383 0.050376188 0.74500012 2.341769e-38
0.027745716 0.050511435 0.74700004 2.3417687e-38
0.029168574 0.050511423 0.74700004 2.2590089e-38
0.030632382 0.050579038 0.74800009 2.166957e-38
0.032057144 0.050579052 0.74800003 2.1391183e-38
0.033571426 0.050714292 0.75000006 2.1113528e-38
0.035093337 0.050849527 0.75200009 2.0377054e-38
0.036525715 0.050849516 0.75200009 1.9734562e-38
0.038008574 0.050917137 0.75300002 2.111532e-38
0.03944286 0.050917152 0.75300002 2.2591158e-38
0.040985715 0.05105238 0.75500011 2.0655092e-38
0.042480003 0.051120013 0.75600004 1.8712532e-38
0.043920003 0.051120002 0.75600004 1.7699805e-38
0.045660004 0.051458091 0.7610001 1.6784672e-38
0.047233336 0.051593337 0.76300001 1.6968694e-38
0.048686668 0.051593341 0.76300001 1.7153816e-38
-0.03145143 0.053394273 0.76800007 1.632045e-38
-0.029988574 0.053394295 0.76800001 1.7338909e-38
-0.028488575 0.053324759 0.76700008 1.80772e-38
-0.026957147 0.053185713 0.76500005 1.881188e-38
-0.025433337 0.053046674 0.76300001 1.807145e-38
-0.023885714 0.052838091 0.76000005 1.7335692e-38
-0.022379048 0.052699044 0.75800002 1.7512191e-38
-0.020880001 0.052560002 0.75600004 1.7709509e-38
-0.019414287 0.052490469 0.75500011 1.9829634e-38
-0.017904762 0.052281901 0.75200003 2.185145e-38
-0.016472382 0.052281905 0.75200009 2.2311347e-38
-0.015 0.052142877 0.75000006 2.2680129e-38
-0.013571428 0.052142866 0.75000006 2.3050348e-38
-0.012142857 0.052142873 0.75000006 2.341769e-38
-0.010671429 0.051934287 0.7470001 2.341769e-38
-0.0092485724 0.051934298 0.7470001 2.341769e-38
-0.007804763 0.051795237 0.74500012 2.3325854e-38
-0.0063857152 0.05179524 0.74500006 2.3234019e-38
-0.0049666674 0.051795244 0.74500006 2.3325854e-38
-0.0035476191 0.051795233 0.74500006 2.341769e-38
-0.0021228574 0.051656201 0.74300003 2.341769e-38
-0.00070666667 0.051586658 0.7420001 2.341769e-38
0.00070666679 0.051586665 0.7420001 2.341769e-38
0.0021200003 0.051586669 0.7420001 2.3325854e-38
0.0035333338 0.051586669 0.74200004 2.341769e-38
0.0049466668 0.051586676 0.74200004 2.341769e-38
0.0063600005 0.051586665 0.74200004 2.341769e-38
0.0077733337 0.051586673 0.74200004 2.341769e-38
0.0091866674 0.051586661 0.7420001 2.341769e-38
0.010600001 0.051586665 0.7420001 2.341769e-38
0.012013334 0.051586676 0.7420001 2.341769e-38
0.013426668 0.051586665 0.7420001 2.341769e-38
0.014840001 0.051586658 0.7420001 2.341769e-38
0.016253332 0.051586661 0.7420001 2.341769e-38
0.017666666 0.051586665 0.7420001 2.341769e-38
0.019105716 0.051656198 0.74300003 2.341769e-38
0.020520953 0.051656201 0.74300003 2.341769e-38
0.021936191 0.051656194 0.74300003 2.341769e-38
0.023414288 0.051795233 0.74500012 2.341769e-38
0.024833335 0.051795229 0.74500012 2.341769e-38
0.026322858 0.051934291 0.74700004 2.341769e-38
0.027745716 0.051934298 0.74700004 2.3417689e-38
0.029207621 0.052003801 0.74800009 2.2407497e-38
0.030714288 0.052142873 0.75000006 2.129972e-38
0.032142859 0.052142877 0.75000006 2.1389393e-38
0.03357143 0.05214287 0.75000006 2.1481586e-38
0.035093337 0.052281901 0.75200009 2.0746185e-38
0.036574289 0.052351438 0.75300002 1.9918227e-38
0.038109526 0.052490488 0.75500005 2.0929132e-38
0.039547622 0.05249048 0.75500011 2.1942198e-38
0.041040003 0.052559994 0.75600004 1.936794e-38
0.042480003 0.052560002 0.75600004 1.678541e-38
0.044036195 0.052699044 0.75800002 1.6961532e-38
0.045780003 0.053046674 0.76300007 1.7058746e-38
0.047357149 0.053185716 0.76499999 1.7152733e-38
0.048814293 0.053185709 0.76500005 1.7245654e-38
0.050271437 0.053185713 0.76500005 1.7337501e-38
-0.03145143 0.054857142 0.76800007 1.6321889e-38
-0.029949527 0.054785714 0.76700008 1.7518278e-38
-0.028488575 0.054785728 0.76700002 1.8627494e-38
-0.026957147 0.054642852 0.76500005 1.9730952e-38
-0.025433337 0.054500014 0.76300001 1.8993754e-38
-0.023822859 0.054142844 0.75800002 1.8350183e-38
-0.022379048 0.054142855 0.75800008 1.8900473e-38
-0.020880001 0.054000001 0.75600004 1.9455811e-38
-0.019440001 0.054000005 0.75600004 2.0561446e-38
-0.017904762 0.053714287 0.75200003 2.1755662e-38
-0.016472382 0.05371429 0.75200003 2.221878e-38
-0.015000001 0.053571425 0.75000006 2.2768012e-38
-0.013571429 0.053571433 0.75000006 2.2955283e-38
-0.012142858 0.053571425 0.75000012 2.3142183e-38
-0.010671429 0.05335715 0.74700004 2.3325854e-38
-0.0092485724 0.053357143 0.74700004 2.341769e-38
-0.0078047626 0.053214289 0.74500006 2.341769e-38
-0.0063857147 0.0532143 0.74500006 2.3325854e-38
-0.0049666669 0.053214289 0.74500006 2.341769e-38
-0.0035476193 0.053214278 0.74500012 2.341769e-38
-0.0021228571 0.053071454 0.74300003 2.341769e-38
-0.00070666673 0.053000011 0.7420001 2.341769e-38
0.00070666673 0.053000003 0.7420001 2.341769e-38
0.0021200001 0.052999992 0.7420001 2.341769e-38
0.0035333335 0.052999996 0.7420001 2.341769e-38
0.0049466668 0.053000003 0.7420001 2.341769e-38
0.0063600005 0.052999996 0.7420001 2.341769e-38
0.0077733337 0.053000003 0.7420001 2.341769e-38
0.0091866683 0.053000007 0.7420001 2.341769e-38
0.010600002 0.053000007 0.74200004 2.341769e-38
0.012013335 0.052999999 0.74200004 2.341769e-38
0.013426669 0.053000003 0.74200004 2.341769e-38
0.014840002 0.053000011 0.74200004 2.341769e-38
0.016253332 0.052999999 0.7420001 2.341769e-38
0.017690476 0.053071436 0.74300003 2.341769e-38
0.019105714 0.053071443 0.74300003 2.341769e-38
0.020520952 0.053071432 0.74300003 2.341769e-38
0.021936189 0.053071439 0.74300003 2.341769e-38
0.023414286 0.053214289 0.74500006 2.341769e-38
0.024833333 0.053214297 0.74500006 2.341769e-38
0.026322858 0.053357143 0.7470001 2.341769e-38
0.027745716 0.05335715 0.7470001 2.341769e-38
0.029207621 0.053428564 0.74800009 2.240463e-38
0.030714288 0.05357144 0.75000006 2.1385102e-38
0.032142859 0.053571429 0.75000006 2.1481231e-38
0.033660956 0.053714294 0.75200009 2.1575572e-38
0.035093337 0.053714287 0.75200009 2.0652548e-38
0.036574289 0.053785723 0.75300002 1.9824593e-38
0.038109522 0.053928562 0.75500011 2.0836933e-38
0.039547618 0.053928569 0.75500011 2.185035e-38
0.041040003 0.054000005 0.75600004 1.9456886e-38
0.04259238 0.054142855 0.75800008 1.7058753e-38
0.044036191 0.054142848 0.75800008 1.7149505e-38
0.045780003 0.054500017 0.76300001 1.7335692e-38
0.047357146 0.054642867 0.76499999 1.7337129e-38
0.049133338 0.055000011 0.77000004 1.7430047e-38
0.050797146 0.055214304 0.77300006 1.7246021e-38
-0.03145143 0.056320008 0.76800007 1.6320811e-38
-0.029988574 0.05632 0.76800007 1.7706255e-38
-0.028488573 0.056246672 0.76700008 1.9182817e-38
-0.026957147 0.0561 0.76500005 2.0559986e-38
-0.025433337 0.055953346 0.76300001 2.0006097e-38
-0.023885716 0.055733331 0.76000011 1.9362535e-38
-0.022379048 0.055586662 0.75800008 2.0283047e-38
-0.020880001 0.055440001 0.75600004 2.1113168e-38
-0.019440001 0.055440009 0.75600004 2.1388328e-38
-0.017928572 0.055220004 0.75300008 2.1576663e-38
-0.016472382 0.055146664 0.75200003 2.2223816e-38
-0.015000001 0.055000007 0.75000006 2.2771605e-38
-0.013571429 0.055000011 0.75000006 2.2859857e-38
-0.012142858 0.055000003 0.75000006 2.2864882e-38
-0.010671428 0.05478001 0.74700004 2.3142183e-38
-0.0092485715 0.054780003 0.74700004 2.341769e-38
-0.0078047626 0.054633334 0.74500012 2.341769e-38
-0.0063857147 0.054633342 0.74500012 2.341769e-38
-0.0049666669 0.054633331 0.74500012 2.341769e-38
-0.0035476191 0.054633334 0.74500012 2.341769e-38
-0.0021228571 0.054486673 0.74300003 2.341769e-38
-0.00070761901 0.054486662 0.74300003 2.341769e-38
0.00070666673 0.054413337 0.74200004 2.341769e-38
0.0021200001 0.054413345 0.74200004 2.341769e-38
0.0035333335 0.054413334 0.74200004 2.341769e-38
0.0049466668 0.054413341 0.74200004 2.341769e-38
0.0063600005 0.054413345 0.7420001 2.341769e-38
0.0077733337 0.054413337 0.7420001 2.341769e-38
0.0091866674 0.054413341 0.7420001 2.341769e-38
0.010614286 0.054486673 0.74300003 2.341769e-38
0.012029525 0.054486666 0.74300003 2.341769e-38
0.013444763 0.054486673 0.74300003 2.341769e-38
0.014860001 0.054486666 0.74300003 2.341769e-38
0.016275238 0.054486681 0.74299997 2.341769e-38
0.017690478 0.054486685 0.74300003 2.341769e-38
0.019105716 0.054486677 0.74300003 2.341769e-38
0.020520953 0.054486666 0.74300003 2.341769e-38
0.021936191 0.054486673 0.74300003 2.341769e-38
0.023414286 0.054633331 0.74500006 2.341769e-38
0.024833333 0.054633338 0.74500012 2.341769e-38
0.026322857 0.054780006 0.74700004 2.341769e-38
0.027782859 0.054853328 0.74800009 2.341769e-38
0.029207621 0.054853331 0.74800009 2.2499335e-38
0.030714288 0.055000003 0.75000012 2.1482319e-38
0.032142859 0.055000003 0.75000006 2.1574862e-38
0.033660956 0.055146679 0.75200003 2.1572347e-38
0.035093337 0.055146672 0.75200009 2.0646813e-38
0.036574289 0.055220004 0.75300002 1.9731684e-38
0.038109526 0.055366661 0.75500011 2.0743306e-38
0.039547622 0.055366669 0.75500011 2.1665249e-38
0.041040003 0.055440005 0.75600004 1.9549804e-38
0.042480003 0.055439997 0.75600004 1.733822e-38
0.044036195 0.055586655 0.75800008 1.7425752e-38
0.045780003 0.055953346 0.76300007 1.7520819e-38
0.047480956 0.056246687 0.76700002 1.7613733e-38
-0.033085715 0.058083821 0.77200001 1.4752398e-38
-0.031533334 0.057933342 0.77000004 1.6230768e-38
-0.029988574 0.057782855 0.76800007 1.771092e-38
-0.028488573 0.057707615 0.76700008 1.9276092e-38
-0.026957145 0.057557154 0.76500005 2.074868e-38
-0.025433337 0.057406686 0.76300001 2.010116e-38
-0.023885716 0.05718096 0.76000005 1.9453305e-38
-0.022379048 0.057030477 0.75800002 2.0561443e-38
-0.020935239 0.05703048 0.75800002 2.1672802e-38
-0.019440001 0.056880005 0.75600004 2.2036921e-38
-0.017928572 0.056654297 0.75300002 2.2407495e-38
-0.016472382 0.056579039 0.75200009 2.2774842e-38
-0.015040001 0.056579057 0.75200003 2.3142181e-38
-0.013571428 0.056428574 0.75000006 2.2956353e-38
-0.012142857 0.056428567 0.75000006 2.2865957e-38
-0.010671429 0.056202874 0.74700004 2.3142183e-38
-0.0092485724 0.056202866 0.74700004 2.341769e-38
-0.0078257145 0.05620287 0.74700004 2.341769e-38
-0.0063857147 0.056052387 0.74500012 2.341769e-38
-0.0049666669 0.056052376 0.74500012 2.341769e-38
-0.0035476193 0.056052387 0.74500006 2.341769e-38
-0.0021228571 0.055901907 0.74300003 2.341769e-38
-0.00070761901 0.055901911 0.74300003 2.341769e-38
0.00070761913 0.055901904 0.74300003 2.341769e-38
0.0021228576 0.055901907 0.74300003 2.341769e-38
0.0035380956 0.055901911 0.74299997 2.341769e-38
0.0049533336 0.055901919 0.74300003 2.341769e-38
0.0063685719 0.055901922 0.74300003 2.341769e-38
0.0077733337 0.055826675 0.74200004 2.341769e-38
0.0091990493 0.055901904 0.74300003 2.341769e-38
0.010614287 0.055901907 0.74300003 2.341769e-38
0.012029526 0.055901915 0.74300003 2.341769e-38
0.013444764 0.055901904 0.74300003 2.341769e-38
0.014840002 0.055826675 0.7420001 2.341769e-38
0.016275238 0.055901915 0.74300003 2.341769e-38
0.017690478 0.055901911 0.74300003 2.341769e-38
0.019105716 0.055901904 0.74300003 2.341769e-38
0.020520953 0.055901919 0.74300003 2.341769e-38
0.021936191 0.055901926 0.74300003 2.341769e-38
0.023414288 0.05605239 0.74500012 2.341769e-38
0.024833335 0.056052383 0.74500012 2.341769e-38
0.026322858 0.056202866 0.74700004 2.341769e-38
0.027782859 0.056278091 0.74800009 2.341769e-38
0.029207621 0.056278095 0.74800009 2.2312435e-38
0.030714288 0.056428585 0.75000006 2.1203944e-38
0.032228578 0.05657905 0.75200009 2.1297922e-38
0.033660959 0.05657905 0.75200003 2.1481949e-38
0.035093341 0.056579042 0.75200003 2.0466375e-38
0.036574293 0.056654286 0.75300002 1.9548733e-38
0.038109522 0.056804765 0.75500005 2.0653625e-38
0.039547618 0.056804761 0.75500005 2.1854305e-38
0.041040003 0.056880005 0.75600004 1.9550168e-38
0.042480003 0.056880012 0.75600004 1.7247116e-38
0.044036191 0.057030473 0.75800002 1.7246048e-38
0.045900002 0.057557151 0.76500005 1.7248203e-38
0.047666669 0.057933357 0.77000004 1.6325546e-38
0.04932477 0.058159065 0.77300006 1.5501159e-38
0.050928574 0.05830954 0.77500004 1.5218817e-38
-0.033085715 0.059554297 0.77200001 1.4569436e-38
-0.031533338 0.059400018 0.7700001 1.613928e-38
-0.029988574 0.059245721 0.76800007 1.770768e-38
-0.028488573 0.059168585 0.76700002 1.9369711e-38
-0.026957145 0.059014287 0.76500005 2.0929127e-38
-0.025433337 0.058860019 0.76300001 2.0288436e-38
-0.023980003 0.058860011 0.76300001 1.9550173e-38
-0.022438096 0.058628578 0.76000005 2.0835877e-38
-0.020935239 0.058474272 0.75800008 2.2128396e-38
-0.019440001 0.058320004 0.75600004 2.2678697e-38
-0.017928572 0.058088582 0.75300002 2.323294e-38
-0.016472382 0.058011424 0.75200009 2.3325854e-38
-0.015040001 0.058011416 0.75200009 2.341733e-38
-0.013571428 0.057857152 0.75000006 2.3140744e-38
-0.012142857 0.05785716 0.75000006 2.2865958e-38
-0.010685715 0.057702858 0.74800003 2.3142183e-38
-0.0092485724 0.057625715 0.7470001 2.341769e-38
-0.0078257145 0.05762573 0.74700004 2.341769e-38
-0.0064028576 0.057625726 0.74700004 2.341769e-38
-0.0049666674 0.057471443 0.74500006 2.341769e-38
-0.0035476191 0.057471432 0.74500006 2.341769e-38
-0.0021228574 0.057317145 0.74300003 2.341769e-38
-0.00070761901 0.057317149 0.74300003 2.341769e-38
0.00070761913 0.057317156 0.74300003 2.341769e-38
0.0021228574 0.057317145 0.74300003 2.341769e-38
0.0035380954 0.057317149 0.74300003 2.341769e-38
0.0049533336 0.057317141 0.74300003 2.341769e-38
0.0063685719 0.057317145 0.74300003 2.341769e-38
0.0077838101 0.057317153 0.74300003 2.341769e-38
0.0091990484 0.057317156 0.74300003 2.341769e-38
0.010614286 0.05731716 0.74300003 2.341769e-38
0.012029525 0.057317153 0.74300003 2.341769e-38
0.013444763 0.057317141 0.74300003 2.341769e-38
0.014860001 0.057317149 0.74300003 2.341769e-38
0.016275238 0.057317153 0.74300003 2.341769e-38
0.017690478 0.057317141 0.74300003 2.341769e-38
0.019105716 0.057317149 0.74300003 2.341769e-38
0.020520953 0.057317141 0.74300003 2.341769e-38
0.021936191 0.057317149 0.74300003 2.341769e-38
0.023414288 0.057471428 0.74500012 2.341769e-38
0.024833335 0.057471436 0.74500006 2.341769e-38
0.026322858 0.057625726 0.74700004 2.341769e-38
0.027782861 0.057702862 0.74800009 2.3416971e-38
0.029285716 0.057857148 0.75000006 2.2220956e-38
0.030714288 0.057857152 0.75000012 2.0932382e-38
0.032228574 0.05801142 0.75200009 2.1114613e-38
0.033660956 0.058011424 0.75200009 2.1296486e-38
0.035140004 0.058088582 0.75300002 2.0280193e-38
0.036574289 0.058088571 0.75300002 1.9272508e-38
0.038109526 0.058242854 0.75500011 2.0651829e-38
0.039600004 0.058320012 0.75600004 2.1941112e-38
0.041040003 0.058320004 0.75600004 1.9549802e-38
0.042592384 0.058474287 0.75800002 1.7154542e-38
0.044036195 0.05847428 0.75800008 1.7062343e-38
0.045780003 0.058860004 0.76300007 1.6871488e-38
0.047542859 0.059245724 0.76800007 1.5122657e-38
0.049324766 0.059631445 0.77300012 1.3373478e-38
0.050928574 0.059785724 0.7750001 1.3271597e-38
-0.033085715 0.061024766 0.77200007 1.4105588e-38
-0.031533334 0.06086668 0.7700001 1.5492115e-38
-0.029988572 0.060708571 0.76800007 1.6967964e-38
-0.028488573 0.060629528 0.76700008 1.8073959e-38
-0.026957145 0.060471434 0.76500005 1.9176365e-38
-0.025433335 0.060313359 0.76300001 1.9272524e-38
-0.023980001 0.060313351 0.76300001 1.9368307e-38
-0.022467623 0.060155235 0.7610001 2.0656515e-38
-0.020990478 0.060076192 0.76000005 2.2040152e-38
-0.019440001 0.059760004 0.75600004 2.2589375e-38
-0.017928574 0.059522863 0.75300002 2.3234019e-38
-0.016472382 0.059443794 0.75200009 2.3325854e-38
-0.01504 0.059443802 0.75200009 2.341769e-38
-0.013571429 0.059285723 0.75000006 2.32333e-38
-0.012142858 0.059285715 0.75000006 2.3141107e-38
-0.010685715 0.059127621 0.74800003 2.3325496e-38
-0.0092609534 0.059127629 0.74800003 2.341769e-38
-0.0078257136 0.059048571 0.74700004 2.341769e-38
-0.0064028581 0.059048578 0.7470001 2.341769e-38
-0.0049666669 0.058890484 0.74500012 2.341769e-38
-0.0035476193 0.058890473 0.74500012 2.341769e-38
-0.0021228571 0.05873239 0.74300003 2.341769e-38
-0.00070761901 0.058732398 0.74300003 2.341769e-38
0.00070761913 0.05873239 0.74300003 2.341769e-38
0.0021228576 0.058732379 0.74300003 2.341769e-38
0.0035380956 0.058732383 0.74300003 2.341769e-38
0.0049533336 0.05873239 0.74300003 2.341769e-38
0.0063685719 0.058732379 0.74300003 2.341769e-38
0.0077838101 0.058732387 0.74300003 2.341769e-38
0.0091990493 0.058732376 0.74300003 2.341769e-38
0.010614287 0.05873239 0.74300003 2.341769e-38
0.012029526 0.058732387 0.74300003 2.341769e-38
0.013444764 0.05873239 0.74300003 2.341769e-38
0.014860002 0.058732398 0.74300003 2.341769e-38
0.016275236 0.058732387 0.74300003 2.341769e-38
0.017690476 0.05873239 0.74300003 2.341769e-38
0.019105714 0.058732383 0.74300003 2.341769e-38
0.020520952 0.058732387 0.74300003 2.341769e-38
0.021936189 0.058732379 0.74300003 2.341769e-38
0.023414288 0.058890488 0.74500006 2.341769e-38
0.024900002 0.059048574 0.7470001 2.341769e-38
0.026322858 0.059048563 0.7470001 2.341769e-38
0.027782859 0.059127621 0.74800009 2.3417687e-38
0.029285716 0.059285723 0.75000006 2.2222029e-38
0.030714288 0.059285726 0.75000006 2.1027087e-38
0.032142859 0.059285715 0.75000006 2.093166e-38
0.033660956 0.059443809 0.75200009 2.0932014e-38
0.035093337 0.059443802 0.75200009 2.009939e-38
0.036574293 0.059522849 0.75300002 1.9272149e-38
0.038109522 0.059680961 0.75500011 2.0285562e-38
0.039600004 0.059760012 0.75600004 2.1208935e-38
0.041040003 0.059760001 0.75600004 1.9084877e-38
0.04259238 0.05991808 0.75800008 1.6870763e-38
0.044152383 0.060076196 0.76000005 1.6866082e-38
0.045900002 0.060471423 0.76500005 1.6950363e-38
0.047357146 0.060471427 0.76500005 1.6861733e-38
-0.034600955 0.062576197 0.77300006 1.2819503e-38
