# .PCD v0.7 - Point Cloud Data file format
VERSION 0.7
FIELDS x y z rgb
SIZE 4 4 4 4
TYPE F F F F
COUNT 1 1 1 1
WIDTH 975
HEIGHT 1
VIEWPOINT 0 0 0 1 0 0 0
POINTS 975
DATA ascii
0.013281926 0.020272367 0.73400009 1.2663607e-38
0.014720003 0.020327613 0.73600006 1.2940547e-38
0.016121928 0.020327628 0.73600006 1.3214976e-38
0.017523825 0.020327635 0.73600006 1.2756873e-38
0.018925728 0.02032762 0.73600006 1.2291237e-38
0.020355234 0.020355254 0.73700005 1.137037e-38
0.021759043 0.020355232 0.73700011 1.0451296e-38
0.023162872 0.020355247 0.73700005 1.072142e-38
0.02456665 0.02035524 0.73700011 1.0909757e-38
0.026040941 0.020410478 0.73900008 1.1085898e-38
0.027448582 0.020410478 0.73900002 1.1186341e-38
0.028895244 0.02043809 0.74000007 1.3383936e-38
0.030427631 0.02052094 0.74300009 1.550584e-38
0.031842865 0.02052094 0.74300009 1.578637e-38
0.033258103 0.020520933 0.74300009 1.5966095e-38
0.034766663 0.020576179 0.74500012 1.5871391e-38
0.036331438 0.020659052 0.74800009 1.5777729e-38
0.037756197 0.020659044 0.74800009 1.7242403e-38
0.039285712 0.02071429 0.75000012 1.8615904e-38
0.040822849 0.020769499 0.75200009 1.8982444e-38
0.0424238 0.020852372 0.75500011 1.9256873e-38
0.043920007 0.020879991 0.75600004 1.8339234e-38
0.045599997 0.020990483 0.76000011 1.741585e-38
-0.034019064 0.022438087 0.76000011 8.4914623e-39
-0.032485697 0.022379048 0.75800008 8.3074256e-39
-0.030959997 0.02231998 0.7560001 7.8521858e-39
-0.029480968 0.022290453 0.75500011 7.3955502e-39
-0.027968561 0.022231422 0.75300002 7.579252e-39
-0.026499065 0.022201896 0.75200009 7.7640203e-39
-0.025000002 0.022142872 0.75000006 7.7651161e-39
-0.023477178 0.022054277 0.7470001 7.8594641e-39
-0.022054311 0.02205427 0.7470001 7.9527345e-39
-0.020576175 0.021995232 0.74500006 8.0513859e-39
-0.019157134 0.021995239 0.74500006 8.0492335e-39
-0.017690487 0.021936163 0.74300009 8.1475276e-39
-0.016275231 0.021936178 0.74300003 8.1464514e-39
-0.01486001 0.021936186 0.74300003 8.1471689e-39
-0.013444775 0.021936178 0.74300009 8.6056275e-39
-0.012013347 0.021906666 0.7420001 9.0651637e-39
-0.010571433 0.021847613 0.74000007 8.9751219e-39
-0.0091495216 0.021818101 0.73900002 8.9822979e-39
-0.0077419048 0.021818087 0.73900002 9.4378881e-39
-0.0063342806 0.021818094 0.73900002 9.8985005e-39
-0.0049266638 0.021818094 0.73900008 1.0172931e-38
-0.0035190415 0.021818101 0.73900002 1.0542425e-38
-0.0021057306 0.021759033 0.73700011 1.0357678e-38
-0.00070191448 0.021759048 0.73700011 1.026656e-38
0.0007018997 0.021759056 0.73700005 1.0541708e-38
0.0021056943 0.021759041 0.73700011 1.0913713e-38
0.0035095224 0.021759041 0.73700011 1.0360907e-38
0.0049133236 0.021759063 0.73700005 9.9092625e-39
0.0063171322 0.021759041 0.73700011 1.0085041e-38
0.007710482 0.021729536 0.73600006 1.0366288e-38
0.0091123851 0.021729529 0.73600012 1.0636413e-38
0.010514281 0.021729521 0.73600006 1.0918377e-38
0.011916206 0.021729536 0.73600006 1.1279979e-38
0.01331813 0.021729544 0.73600006 1.1556918e-38
0.014720005 0.021729529 0.73600006 1.2014297e-38
0.016121931 0.021729536 0.73600006 1.2473472e-38
0.017547617 0.021759048 0.73700011 1.2562075e-38
0.018951416 0.021759048 0.73700005 1.2645656e-38
0.020355226 0.021759048 0.73700011 1.3110569e-38
0.021729551 0.021729529 0.73600006 1.3564723e-38
0.023162855 0.021759056 0.73700005 1.4122908e-38
0.024566663 0.021759048 0.73700011 1.4672492e-38
0.026040947 0.021818109 0.73900002 1.5046654e-38
0.027448565 0.021818087 0.73900008 1.5512651e-38
0.028895255 0.021847621 0.74000001 1.6522129e-38
0.03030475 0.021847628 0.74000007 1.7631692e-38
0.031842865 0.021936178 0.74300009 1.7445513e-38
0.033258099 0.021936178 0.74300009 1.726184e-38
0.034859978 0.022054277 0.7470001 1.6793693e-38
0.03628283 0.022054285 0.7470001 1.6331628e-38
0.037756216 0.022083811 0.74800003 1.8629289e-38
0.039285704 0.022142857 0.75000012 2.1029887e-38
0.040822834 0.022201896 0.75200009 2.1206703e-38
0.042423815 0.022290476 0.75500011 2.1397187e-38
0.04392001 0.022319995 0.7560001 2.0930832e-38
0.045660004 0.022467606 0.7610001 2.0477012e-38
0.047109529 0.022467628 0.7610001 2.0284708e-38
0.048686661 0.022526667 0.76300001 2.0109924e-38
0.050139997 0.022526667 0.76300001 1.8989161e-38
-0.034063827 0.023917139 0.76100016 9.6931808e-39
-0.032485723 0.023822851 0.75800008 9.6906711e-39
-0.03095999 0.023759998 0.7560001 9.0471066e-39
-0.029480975 0.023728549 0.75500011 8.4057071e-39
-0.02796855 0.023665719 0.75300002 8.3128108e-39
-0.026534274 0.023665696 0.75300002 8.1309475e-39
-0.025066694 0.023634277 0.75200009 8.0380512e-39
-0.023571447 0.023571424 0.75000012 7.9487296e-39
-0.022083811 0.023508571 0.74800003 8.0380568e-39
-0.020631447 0.023477145 0.7470001 8.0430846e-39
-0.019157149 0.023414277 0.74500012 8.2260438e-39
-0.017738104 0.023414284 0.74500012 8.3200471e-39
-0.016275235 0.023351431 0.74300003 7.9591777e-39
-0.014859999 0.023351416 0.74300003 7.5857359e-39
-0.013444764 0.023351423 0.74300009 8.3236484e-39
-0.012013326 0.023320004 0.74200004 9.0583366e-39
-0.010571418 0.023257151 0.74000001 8.8764635e-39
-0.00916191 0.023257136 0.74000001 8.6016744e-39
-0.0077419011 0.02322571 0.73900002 9.0630043e-39
-0.0063342974 0.02322571 0.73900008 9.5211042e-39
-0.0049266592 0.023225725 0.73900002 9.6129397e-39
-0.0035190554 0.02322571 0.73900002 9.6129383e-39
-0.0021057306 0.023162864 0.73700011 8.9693724e-39
-0.00070191728 0.023162857 0.73700005 8.3265225e-39
0.00070095441 0.02313143 0.73600006 9.0608477e-39
0.0021057064 0.023162864 0.73700011 9.7058472e-39
0.0035095215 0.023162857 0.73700005 9.1537566e-39
0.0049133152 0.023162857 0.73700011 8.604896e-39
0.0063085891 0.02313143 0.73600006 8.7839035e-39
0.0077104848 0.023131438 0.73600006 8.9736771e-39
0.009112387 0.02313143 0.73600012 9.3338487e-39
0.010514283 0.023131438 0.73600006 9.7133876e-39
0.011916208 0.023131438 0.73600006 1.0071763e-38
0.013318111 0.02313143 0.73600012 1.0449867e-38
0.014720007 0.023131438 0.73600006 1.1086618e-38
0.016121933 0.023131445 0.73600006 1.1737357e-38
0.01754763 0.023162864 0.73700011 1.2371953e-38
0.018951409 0.023162849 0.73700011 1.2931575e-38
0.02035524 0.023162849 0.73700011 1.4769718e-38
0.021759037 0.023162872 0.73700005 1.6609296e-38
0.023162846 0.023162849 0.73700011 1.7532314e-38
0.024633342 0.023225717 0.73900002 1.8359195e-38
0.02604096 0.023225702 0.73900008 1.9099262e-38
0.027560022 0.023319989 0.74200004 1.9833948e-38
0.028973354 0.023320004 0.74200004 1.9744267e-38
0.030427625 0.023351431 0.74300003 1.9652073e-38
0.031928562 0.023414269 0.74500012 1.910142e-38
0.033437133 0.023477152 0.7470001 1.8544305e-38
0.03490667 0.023508579 0.74800003 1.770953e-38
0.03633143 0.023508579 0.74800003 1.6791879e-38
0.037857153 0.023571439 0.75000006 2.0096866e-38
0.039285697 0.023571432 0.75000006 2.3414052e-38
0.040822849 0.023634277 0.75200003 2.3417627e-38
0.042423807 0.023728572 0.75500011 2.3417261e-38
0.043920018 0.023759983 0.7560001 2.3417613e-38
0.045660011 0.023917139 0.7610001 2.3417242e-38
0.047109537 0.023917124 0.7610001 2.3417589e-38
0.048686665 0.023979999 0.76300007 2.3417193e-38
0.050271422 0.024042845 0.7650001 2.3417513e-38
-0.03415335 0.025433317 0.76300007 1.0521458e-38
-0.032571446 0.025333323 0.76000011 1.0795899e-38
-0.031041913 0.025266647 0.75800008 1.1073209e-38
-0.029519992 0.025199994 0.75600004 1.1346922e-38
-0.028042875 0.025166653 0.75500011 1.1257955e-38
-0.02660479 0.025166653 0.75500011 1.107214e-38
-0.025066687 0.025066659 0.75200009 1.1810061e-38
-0.023571443 0.024999991 0.75000012 1.2542598e-38
-0.022083808 0.024933331 0.74800003 1.2270683e-38
-0.020631459 0.024900004 0.7470001 1.1989448e-38
-0.019157145 0.024833329 0.74500006 1.0795598e-38
-0.0177381 0.024833314 0.74500006 9.589929e-39
-0.016275238 0.024766661 0.74300003 9.5996456e-39
-0.014860002 0.024766669 0.74300003 9.5867298e-39
-0.013444767 0.024766654 0.74300009 9.968061e-39
-0.012013324 0.024733342 0.74200004 1.042689e-38
-0.010571424 0.02466666 0.74000001 1.0431203e-38
-0.0091619156 0.02466666 0.74000007 1.0424027e-38
-0.0077419132 0.024633326 0.73900008 1.0891812e-38
-0.0063342759 0.024633341 0.73900002 1.1254848e-38
-0.0049266741 0.024633333 0.73900008 1.1444975e-38
-0.0035190349 0.024633333 0.73900002 1.1622546e-38
-0.0021057175 0.024566673 0.73700011 1.1444972e-38
-0.00070190238 0.02456668 0.73700005 1.1346321e-38
0.0007009572 0.024533339 0.73600006 1.1905583e-38
0.0021057054 0.02456668 0.73700005 1.2358301e-38
0.0035094991 0.024566673 0.73700011 1.2365831e-38
0.0049133273 0.024566665 0.73700011 1.235758e-38
0.0063171294 0.024566673 0.73700005 1.2920789e-38
0.0077104867 0.024533331 0.73600006 1.3379257e-38
0.0091123898 0.024533331 0.73600012 1.4216188e-38
0.010528565 0.024566673 0.73700005 1.5141719e-38
0.011932374 0.024566665 0.73700011 1.5232121e-38
0.013318086 0.024533339 0.73600006 1.5328267e-38
0.01472001 0.024533339 0.73600006 1.5694537e-38
0.016121935 0.024533339 0.73600006 1.6159456e-38
0.017547613 0.024566673 0.73700005 1.6522853e-38
0.018951423 0.024566673 0.73700011 1.689737e-38
0.020355223 0.024566665 0.73700005 1.7811779e-38
0.021759052 0.02456668 0.73700005 1.8642244e-38
0.02322571 0.024633333 0.73900002 1.9007434e-38
0.024633327 0.024633326 0.73900008 1.9376928e-38
0.026076201 0.02466666 0.74000001 1.9743553e-38
0.027560011 0.024733335 0.74200004 2.0019777e-38
0.028973341 0.024733327 0.74200004 2.0019059e-38
0.030509533 0.024833336 0.74500006 1.9927222e-38
0.032014269 0.024899997 0.7470001 2.0108022e-38
0.033481911 0.024933323 0.74800009 2.0288457e-38
0.03490667 0.024933338 0.74800009 1.982676e-38
0.036428578 0.025000006 0.75000006 1.9365781e-38
0.037857145 0.025000006 0.75000006 2.1206068e-38
0.039390456 0.025066659 0.75200003 2.295849e-38
0.040877152 0.0251 0.75300008 2.2957069e-38
0.042423803 0.025166653 0.75500011 2.3048177e-38
0.044036195 0.025266662 0.75800014 2.3047807e-38
0.045659989 0.025366656 0.7610001 2.3142154e-38
0.047109514 0.025366656 0.76100016 2.3325465e-38
0.048686661 0.025433317 0.76300007 2.3417666e-38
0.050139997 0.025433332 0.76300007 2.3417673e-38
0.051728584 0.025499985 0.7650001 2.3417682e-38
0.053185724 0.0255 0.76500005 2.341769e-38
-0.034153353 0.026886649 0.76300007 1.1352674e-38
-0.032571446 0.026780955 0.76000011 1.1811853e-38
-0.031041915 0.026710473 0.75800008 1.310329e-38
-0.029598106 0.026710473 0.75800014 1.4295729e-38
-0.028079996 0.026639991 0.7560001 1.4208211e-38
-0.026604777 0.026604757 0.75500005 1.4022023e-38
-0.025066685 0.026499055 0.75200009 1.5587527e-38
-0.023571452 0.026428573 0.75000012 1.7148009e-38
-0.022083811 0.026358098 0.74800009 1.6603809e-38
-0.020631455 0.026322857 0.7470001 1.595274e-38
-0.019157141 0.026252374 0.74500006 1.3376714e-38
-0.017738096 0.026252382 0.74500006 1.0800675e-38
-0.016319053 0.026252374 0.74500006 1.1170187e-38
-0.014899996 0.026252374 0.74500006 1.1533938e-38
-0.013444769 0.026181899 0.74300009 1.1718682e-38
-0.012029534 0.026181892 0.74300009 1.1814473e-38
-0.010600006 0.026146665 0.74200004 1.2089272e-38
-0.0091619007 0.02607619 0.74000001 1.2274377e-38
-0.0077523924 0.02607619 0.74000007 1.2641719e-38
-0.0063342927 0.026040949 0.73900008 1.3013005e-38
-0.0049266554 0.026040949 0.73900002 1.3288871e-38
-0.0035190517 0.026040949 0.73900008 1.3566887e-38
-0.0021057203 0.025970481 0.73700005 1.4025706e-38
-0.00070192473 0.025970481 0.73700011 1.4396275e-38
0.00070188945 0.025970474 0.73700011 1.4765052e-38
0.0021057175 0.025970481 0.73700005 1.5041633e-38
0.0035095122 0.025970489 0.73700011 1.559408e-38
0.0049133403 0.025970474 0.73700011 1.614581e-38
0.0063171415 0.025970481 0.73700005 1.6978428e-38
0.0077104885 0.025935248 0.73600006 1.7806028e-38
0.0091247493 0.025970481 0.73700005 1.919325e-38
0.010528558 0.025970481 0.73700011 2.0476436e-38
0.011932387 0.025970466 0.73700011 2.0295278e-38
0.013318088 0.025935248 0.73600006 2.0109814e-38
0.014720013 0.02593524 0.73600006 2.0387117e-38
0.016143797 0.025970474 0.73700005 2.0570071e-38
0.017547606 0.025970474 0.73700011 2.0754459e-38
0.018951435 0.025970481 0.73700011 2.0846295e-38
0.020355236 0.025970474 0.73700005 2.0754459e-38
0.021818105 0.026040941 0.73900002 2.0661905e-38
0.023225723 0.026040941 0.73900008 2.056935e-38
0.024666676 0.02607619 0.74000001 2.038604e-38
0.026076198 0.026076183 0.74000007 2.0293845e-38
0.027559996 0.026146665 0.74200004 2.020201e-38
0.029012363 0.026181892 0.74300009 2.0200575e-38
0.030591406 0.026322849 0.7470001 2.0200218e-38
0.032014258 0.026322849 0.7470001 2.1115344e-38
0.033481933 0.026358105 0.74800003 2.1944007e-38
0.034906693 0.026358098 0.74800003 2.1943642e-38
0.036428567 0.02642858 0.75000006 2.194184e-38
0.037958093 0.026499033 0.75200009 2.2218774e-38
0.039390448 0.02649904 0.75200009 2.2495722e-38
0.040877175 0.026534289 0.75300002 2.2586849e-38
0.042480022 0.026639991 0.7560001 2.2586126e-38
0.044036191 0.026710473 0.75800008 2.2766204e-38
0.045660023 0.026816182 0.7610001 2.2862703e-38
0.047109544 0.026816189 0.7610001 2.3140004e-38
0.048686661 0.026886649 0.76300007 2.3417307e-38
0.050271433 0.026957139 0.7650001 2.3417668e-38
-0.034063809 0.028265715 0.7610001 1.1164732e-38
-0.032571442 0.028228566 0.76000011 1.1628206e-38
-0.031041905 0.028154276 0.75800008 1.2366109e-38
-0.029598108 0.028154291 0.75800008 1.3197676e-38
-0.028079992 0.028079987 0.7560001 1.3289536e-38
-0.026639987 0.028080001 0.75600004 1.3474624e-38
-0.025099995 0.027968563 0.75300008 1.4486949e-38
-0.023634303 0.027931429 0.75200009 1.5409238e-38
-0.022142861 0.027857147 0.75000006 1.531775e-38
-0.020631444 0.027745709 0.7470001 1.5136282e-38
-0.019157158 0.027671412 0.74500012 1.3567595e-38
-0.0177381 0.027671412 0.74500012 1.2004246e-38
-0.016319033 0.027671427 0.74500006 1.2186487e-38
-0.014899991 0.027671427 0.74500006 1.2465934e-38
-0.013444771 0.027597137 0.74300003 1.2648522e-38
-0.012029537 0.027597122 0.74300009 1.283902e-38
-0.010600003 0.027559996 0.74200004 1.3112025e-38
-0.0091619072 0.027485706 0.74000007 1.3391837e-38
-0.007752398 0.027485706 0.74000007 1.3204937e-38
-0.0063428562 0.027485698 0.74000001 1.3121352e-38
-0.0049266694 0.027448565 0.73900008 1.4219432e-38
-0.0035190471 0.02744858 0.73900002 1.5422621e-38
-0.0021057203 0.02737429 0.73700005 1.6430659e-38
-0.00070191262 0.02737429 0.73700011 1.7540218e-38
0.00070190249 0.02737429 0.73700005 1.7627031e-38
0.0021056961 0.027374282 0.73700011 1.7815725e-38
0.0035095103 0.02737429 0.73700011 1.8086926e-38
0.0049133254 0.02737429 0.73700005 1.8366738e-38
0.006317134 0.02737429 0.73700011 1.873121e-38
0.0077209333 0.027374297 0.73700005 1.9193257e-38
0.0091247624 0.027374282 0.73700005 1.9835747e-38
0.010528571 0.02737429 0.73700011 2.057079e-38
0.011932372 0.027374297 0.73700005 2.038676e-38
0.013336179 0.027374282 0.73700011 2.0111612e-38
0.01473998 0.027374297 0.73700005 2.0478595e-38
0.01614381 0.027374297 0.73700005 2.0754459e-38
0.017547619 0.027374282 0.73700011 2.1029247e-38
0.018951418 0.02737429 0.73700005 2.1304753e-38
0.020355226 0.027374297 0.73700011 2.1396229e-38
0.021818109 0.027448572 0.73900002 2.139551e-38
0.023225728 0.027448572 0.73900002 2.1671372e-38
0.024666671 0.027485713 0.74000007 2.194688e-38
0.026146661 0.027559996 0.7420001 2.1855405e-38
0.027560012 0.027559996 0.74200004 2.1855046e-38
0.029090475 0.027671427 0.74500012 2.1854687e-38
0.030591417 0.027745709 0.7470001 2.1853973e-38
0.032057147 0.027782857 0.74800003 2.2221676e-38
0.033481903 0.027782865 0.74800003 2.2682998e-38
0.034906693 0.027782857 0.74800003 2.2404972e-38
0.036428589 0.027857155 0.75000006 2.212659e-38
0.037857156 0.027857147 0.75000006 2.2402807e-38
0.03939046 0.027931422 0.75200009 2.2678314e-38
0.040877149 0.027968571 0.75300008 2.2863063e-38
0.042479999 0.028079987 0.7560001 2.3045658e-38
0.044036187 0.028154276 0.75800008 2.3045298e-38
0.04566 0.0282657 0.7610001 2.3136777e-38
0.047109526 0.028265707 0.7610001 2.332368e-38
0.048559051 0.028265707 0.7610001 2.3417665e-38
-0.034063812 0.029715233 0.7610001 1.0978162e-38
-0.032571442 0.029676184 0.76000011 1.1350174e-38
-0.031123819 0.029676192 0.76000011 1.1718241e-38
-0.029598095 0.029598087 0.75800008 1.1999151e-38
-0.028154297 0.029598087 0.75800008 1.2461222e-38
-0.026639983 0.029519998 0.75600004 1.2922191e-38
-0.025099983 0.029402845 0.75300002 1.3292762e-38
-0.023634303 0.029363811 0.75200009 1.3662259e-38
-0.02214287 0.029285714 0.75000006 1.4029961e-38
-0.020659033 0.029207632 0.74800003 1.4306209e-38
-0.019208601 0.029168569 0.7470001 1.3753426e-38
-0.017738096 0.029090472 0.74500012 1.3108787e-38
-0.016319051 0.029090479 0.74500012 1.3288515e-38
-0.014900009 0.029090464 0.74500012 1.3386806e-38
-0.01344476 0.029012367 0.74300003 1.366231e-38
-0.012029539 0.029012375 0.74300009 1.3849932e-38
-0.010600003 0.028973326 0.74200004 1.4127954e-38
-0.009186673 0.028973326 0.7420001 1.4402743e-38
-0.0077523841 0.028895229 0.74000001 1.384886e-38
-0.0063428627 0.028895229 0.74000007 1.3209599e-38
-0.0049266657 0.028856188 0.73900002 1.5228905e-38
-0.0035190489 0.028856188 0.73900008 1.7167853e-38
-0.0021057287 0.028778084 0.73700011 1.8917749e-38
-0.00070191262 0.028778091 0.73700011 2.0570788e-38
0.0007018997 0.028778106 0.73700005 2.0570788e-38
0.0021056943 0.028778091 0.73700011 2.0478593e-38
0.0035095233 0.028778106 0.73700011 2.0570787e-38
0.004913318 0.028778076 0.73700011 2.0570428e-38
0.0063171471 0.028778099 0.73700011 2.0570427e-38
0.0077209463 0.028778106 0.73700005 2.0477874e-38
0.0091247549 0.028778091 0.73700011 2.056935e-38
0.010528556 0.028778099 0.73700005 2.0661545e-38
0.011932383 0.028778106 0.73700005 2.0385322e-38
0.013336192 0.028778091 0.73700011 2.0110174e-38
0.014739993 0.028778099 0.73700005 2.0568993e-38
0.016187612 0.028856196 0.73900002 2.0936694e-38
0.017595248 0.028856196 0.73900002 2.1395152e-38
0.019002868 0.028856196 0.73900002 2.1763213e-38
0.020410478 0.028856203 0.73900002 2.1946167e-38
0.021818094 0.028856188 0.73900002 2.2130914e-38
0.023257144 0.028895237 0.74000001 2.277412e-38
0.024666665 0.028895229 0.74000007 2.3417328e-38
0.026146669 0.028973341 0.74200004 2.3417687e-38
0.027597152 0.02901236 0.74300009 2.3417328e-38
0.029090494 0.029090479 0.74500006 2.3417687e-38
0.030591406 0.029168561 0.7470001 2.3416971e-38
0.032057147 0.02920761 0.74800009 2.341769e-38
0.033481903 0.029207624 0.74800009 2.3417324e-38
0.035000015 0.029285714 0.75000006 2.2866663e-38
0.036428582 0.029285729 0.75000006 2.2311696e-38
0.037958097 0.029363796 0.75200009 2.2587194e-38
0.039442863 0.029402845 0.75300008 2.2770507e-38
0.040877171 0.029402852 0.75300002 2.3140721e-38
0.042480007 0.029519998 0.7560001 2.3415149e-38
0.044036213 0.029598087 0.75800008 2.3415507e-38
0.045660026 0.029715233 0.7610001 2.3414794e-38
0.047109552 0.029715233 0.7610001 2.3415873e-38
0.048686661 0.029793322 0.76300007 2.3417306e-38
-0.03406382 0.031164743 0.76100016 1.1897921e-38
-0.032571457 0.03112381 0.76000011 1.4107019e-38
-0.031123817 0.03112381 0.76000005 1.4017001e-38
-0.029676197 0.031123817 0.76000005 1.3924828e-38
-0.028228575 0.03112381 0.76000005 1.4203582e-38
-0.026639987 0.030960001 0.75600004 1.4480542e-38
-0.025099996 0.030837134 0.75300008 1.4851129e-38
-0.0236657 0.030837141 0.75300002 1.5222433e-38
-0.022201922 0.030796185 0.75200009 1.5406119e-38
-0.020714279 0.030714288 0.75000006 1.5682699e-38
-0.019234274 0.030632384 0.74800003 1.5497949e-38
-0.017785745 0.030591421 0.7470001 1.5225312e-38
-0.016319048 0.030509524 0.74500006 1.5592654e-38
-0.014900004 0.030509517 0.74500006 1.6059368e-38
-0.013480959 0.030509517 0.74500006 1.6239812e-38
-0.012029528 0.030427605 0.74300009 1.6423842e-38
-0.010614291 0.030427605 0.74300009 1.6516034e-38
-0.0091990689 0.030427605 0.74300009 1.670114e-38
-0.0077733332 0.030386664 0.74200004 1.6424556e-38
-0.006342846 0.03030476 0.74000001 1.6148692e-38
-0.0049333395 0.03030476 0.74000007 1.7807114e-38
-0.0035238164 0.030304752 0.74000007 1.9468762e-38
-0.0021114405 0.030263796 0.73900002 2.0202369e-38
-0.00070191541 0.030181915 0.73700005 2.093777e-38
0.00070189318 0.0301819 0.73700011 2.1304752e-38
0.0021057073 0.030181907 0.73700011 2.1579182e-38
0.0035095224 0.030181915 0.73700005 2.1671734e-38
0.004913317 0.030181907 0.73700011 2.1763568e-38
0.0063171303 0.0301819 0.73700005 2.1763208e-38
0.0077209594 0.030181915 0.73700005 2.176249e-38
0.00912474 0.030181915 0.73700011 2.1855042e-38
0.010528569 0.030181907 0.73700005 2.2038714e-38
0.01196475 0.030263811 0.73900002 2.1855403e-38
0.01337239 0.030263811 0.73900002 2.1762852e-38
0.014780007 0.030263811 0.73900002 2.194724e-38
0.016187618 0.030263826 0.73900002 2.2222388e-38
0.017595235 0.030263804 0.73900002 2.2406418e-38
0.019002872 0.030263819 0.73900002 2.2590092e-38
0.020410489 0.030263804 0.73900002 2.2682287e-38
0.021847617 0.030304752 0.74000001 2.2774483e-38
0.023257138 0.030304752 0.74000007 2.3141825e-38
0.024666682 0.030304752 0.74000001 2.341769e-38
0.026146682 0.030386664 0.74200004 2.341769e-38
0.027597148 0.03042762 0.74300009 2.341769e-38
0.029090483 0.030509524 0.74500006 2.3325854e-38
0.030591417 0.030591428 0.7470001 2.3234019e-38
0.032057147 0.030632362 0.74800009 2.2863448e-38
0.033481903 0.030632377 0.74800009 2.2589013e-38
0.035000004 0.030714281 0.75000006 2.2496811e-38
0.036428571 0.030714303 0.75000006 2.2493214e-38
0.037857123 0.030714288 0.75000006 2.1850354e-38
0.039390467 0.030796178 0.75200009 2.1298268e-38
0.040877163 0.030837148 0.75300002 2.0930928e-38
0.042480033 0.030960001 0.75600004 2.0476412e-38
0.04403621 0.031041913 0.75800008 2.0564658e-38
0.045660008 0.031164743 0.7610001 2.0660443e-38
0.047233317 0.031246662 0.76300001 2.1485532e-38
-0.03415335 0.032699987 0.76300001 1.2818802e-38
-0.032571439 0.032571435 0.76000011 1.6773126e-38
-0.031123823 0.032571428 0.76000011 1.6317913e-38
-0.029676201 0.032571435 0.76000011 1.5858381e-38
-0.028228596 0.032571428 0.76000011 1.5947711e-38
-0.026639998 0.032399997 0.75600004 1.595167e-38
-0.025099989 0.032271437 0.75300002 1.6316155e-38
-0.023665693 0.03227143 0.75300002 1.6689966e-38
-0.022201922 0.032228559 0.75200003 1.6872216e-38
-0.02071429 0.032142863 0.75000006 1.7059832e-38
-0.019234287 0.032057136 0.74800003 1.7238838e-38
-0.017785735 0.032014281 0.7470001 1.7338578e-38
-0.016362879 0.032014288 0.7470001 1.7980723e-38
-0.014900001 0.031928569 0.74500006 1.8629672e-38
-0.01348094 0.031928569 0.74500006 1.8813344e-38
-0.012061897 0.031928554 0.74500006 1.890626e-38
-0.010614295 0.031842843 0.74300009 1.8903396e-38
-0.0091990577 0.031842843 0.74300009 1.8907699e-38
-0.0077733342 0.031800002 0.74200004 1.8998817e-38
-0.0063600028 0.031799987 0.7420001 1.9000971e-38
-0.0049333433 0.031714283 0.74000007 2.0381733e-38
-0.0035238164 0.031714275 0.74000001 2.167066e-38
-0.0021114219 0.031671427 0.73900002 2.1485556e-38
-0.00070381811 0.031671427 0.73900008 2.1304037e-38
0.00070189039 0.031585716 0.73700011 2.2038721e-38
0.0021057054 0.031585723 0.73700005 2.2681927e-38
0.0035095001 0.031585701 0.73700011 2.2773763e-38
0.0049133273 0.031585716 0.73700011 2.2865598e-38
0.0063171424 0.031585708 0.73700005 2.2956356e-38
0.007720951 0.031585708 0.73700011 2.2957073e-38
0.0091247531 0.031585723 0.73700011 2.3141102e-38
0.01052858 0.031585716 0.73700005 2.3325133e-38
0.011964783 0.031671435 0.73900002 2.3417687e-38
0.013372374 0.031671427 0.73900002 2.3417328e-38
0.014780012 0.031671435 0.73900002 2.3417687e-38
0.016187629 0.031671435 0.73900002 2.3417328e-38
0.017595239 0.031671427 0.73900002 2.3417687e-38
0.019002857 0.031671435 0.73900002 2.341733e-38
0.020410495 0.031671427 0.73900002 2.341769e-38
0.021847609 0.031714283 0.74000007 2.341769e-38
0.023257151 0.031714283 0.74000001 2.341769e-38
0.024666674 0.031714283 0.74000007 2.341769e-38
0.026146671 0.031800009 0.74200004 2.3417689e-38
0.027597146 0.03184285 0.74300009 2.341769e-38
0.029168554 0.032014281 0.7470001 2.3234019e-38
0.030591406 0.032014288 0.7470001 2.2954924e-38
0.032057166 0.032057151 0.74800003 2.2397093e-38
0.033481926 0.032057144 0.74800003 2.176106e-38
0.034999996 0.03214287 0.75000006 2.2221312e-38
0.036428563 0.03214287 0.75000006 2.2587209e-38
0.037958074 0.032228567 0.75200009 2.1206079e-38
0.039442878 0.032271422 0.75300002 1.9824958e-38
0.0409857 0.032357134 0.75500011 1.8716474e-38
0.042592376 0.032485709 0.75800008 1.7524761e-38
0.044152386 0.032571428 0.76000011 1.7706276e-38
0.045660011 0.032614261 0.76100016 1.7895325e-38
0.047233321 0.032700002 0.76300001 1.9458679e-38
-0.034153346 0.034153327 0.76300001 1.1618498e-38
-0.032614287 0.034063809 0.7610001 1.4206046e-38
-0.031123813 0.034019038 0.76000005 1.5953801e-38
-0.029598089 0.033929527 0.75800008 1.7610418e-38
-0.028154276 0.033929527 0.75800008 1.8070662e-38
-0.026604779 0.03379523 0.75500011 1.8531998e-38
-0.025099998 0.033705711 0.75300008 1.8714959e-38
-0.023665704 0.033705711 0.75300002 1.8899717e-38
-0.022201931 0.033660941 0.75200009 1.93607e-38
-0.020714283 0.033571437 0.75000006 1.9914583e-38
-0.019285735 0.033571444 0.75000012 1.9915659e-38
-0.017809516 0.033481896 0.74800009 2.0011108e-38
-0.016362891 0.033437148 0.7470001 2.0193371e-38
-0.014900004 0.033347607 0.74500012 2.0471031e-38
-0.01348096 0.033347607 0.74500012 2.0562149e-38
-0.012061914 0.033347614 0.74500012 2.0749419e-38
-0.010642849 0.033347622 0.74500006 2.0932383e-38
-0.0091990624 0.03325808 0.74300009 2.12104e-38
-0.0077838069 0.033258095 0.74300003 2.1208963e-38
-0.00636857 0.03325808 0.74300003 2.1208966e-38
-0.004946664 0.03321334 0.74200004 2.1853968e-38
-0.0035238201 0.033123799 0.74000007 2.2591166e-38
-0.0021114377 0.033079043 0.73900008 2.2498257e-38
-0.00070379855 0.033079058 0.73900002 2.2406782e-38
0.00070188945 0.032989524 0.73700011 2.2682647e-38
0.0021057194 0.032989532 0.73700005 2.3050348e-38
0.0035095122 0.032989517 0.73700011 2.3141825e-38
0.0049133273 0.032989524 0.73700005 2.3142183e-38
0.0063171564 0.032989532 0.73700005 2.3141825e-38
0.007720937 0.032989517 0.73700011 2.3234019e-38
0.0091247642 0.032989524 0.73700005 2.3325494e-38
0.010528545 0.032989532 0.73700011 2.341769e-38
0.011964769 0.033079043 0.73900002 2.341769e-38
0.013372378 0.03307905 0.73900002 2.341769e-38
0.014800003 0.033123814 0.74000001 2.341769e-38
0.016187634 0.033079043 0.73900002 2.341769e-38
0.017619047 0.033123791 0.74000007 2.341769e-38
0.019028561 0.033123799 0.74000001 2.341769e-38
0.020438083 0.033123799 0.74000007 2.341769e-38
0.021847624 0.033123806 0.74000001 2.341769e-38
0.023257148 0.033123791 0.74000007 2.341769e-38
0.024733353 0.033213332 0.74200004 2.3417689e-38
0.026146686 0.033213332 0.74200004 2.3322982e-38
0.027597144 0.03325808 0.74300009 2.3234018e-38
0.029168542 0.033437133 0.7470001 2.3232943e-38
0.030591397 0.03343714 0.7470001 2.3229353e-38
0.032057136 0.033481903 0.74800003 2.2863083e-38
0.033481926 0.033481918 0.74800003 2.2591168e-38
0.034999989 0.033571437 0.75000006 2.2774124e-38
0.036428586 0.033571437 0.75000006 2.305034e-38
0.037958086 0.033660941 0.75200009 2.1483747e-38
0.039547596 0.033795223 0.75500011 1.9915722e-38
0.041040018 0.033839993 0.7560001 1.7979637e-38
0.042704754 0.03401906 0.76000005 1.6046066e-38
0.044210486 0.034063801 0.7610001 1.6416272e-38
0.045660011 0.034063809 0.7610001 1.6786115e-38
-0.034153361 0.03560666 0.76300001 1.0504593e-38
-0.032571439 0.035466664 0.76000011 1.1620282e-38
-0.031123832 0.035466664 0.76000011 1.5497135e-38
-0.02967621 0.035466664 0.76000011 1.9357103e-38
-0.028154282 0.035373323 0.75800008 2.0192957e-38
-0.026639987 0.035279982 0.7560001 2.1018052e-38
-0.025166687 0.035233311 0.75500011 2.1020215e-38
-0.023728585 0.035233326 0.75500011 2.101915e-38
-0.022231421 0.03514 0.75300002 2.1940028e-38
-0.020769542 0.035093322 0.75200003 2.2769054e-38
-0.019285731 0.035000011 0.75000012 2.2681521e-38
-0.017809529 0.034906663 0.74800009 2.258611e-38
-0.016384758 0.034906663 0.74800009 2.2402093e-38
-0.014940033 0.034859993 0.7470001 2.2217342e-38
-0.013480956 0.034766659 0.74500006 2.2398856e-38
-0.012061911 0.034766659 0.74500006 2.2587924e-38
-0.010642865 0.034766667 0.74500012 2.3050344e-38
-0.0091990661 0.034673326 0.74300009 2.3416968e-38
-0.0077838087 0.034673326 0.74300003 2.3417684e-38
-0.0063685738 0.034673333 0.74300003 2.341661e-38
-0.004946664 0.03462667 0.74200004 2.3417687e-38
-0.0035333317 0.034626678 0.74200004 2.3417689e-38
-0.0021142848 0.034533337 0.74000007 2.341769e-38
-0.00070381345 0.034486666 0.73900008 2.341769e-38
0.00070380891 0.034486659 0.73900002 2.341769e-38
0.002105698 0.034393333 0.73700011 2.341769e-38
0.0035095112 0.034393325 0.73700011 2.341769e-38
0.0049133264 0.034393333 0.73700005 2.341769e-38
0.006317121 0.034393333 0.73700011 2.341769e-38
0.0077209482 0.034393333 0.73700005 2.341769e-38
0.0091247773 0.034393333 0.73700005 2.341769e-38
0.010528558 0.034393333 0.73700011 2.341769e-38
0.011964774 0.034486674 0.73900002 2.341769e-38
0.013372391 0.034486666 0.73900002 2.341769e-38
0.014799997 0.034533329 0.74000001 2.341769e-38
0.01620952 0.034533329 0.74000007 2.341769e-38
0.017666673 0.034626655 0.7420001 2.341769e-38
0.019080026 0.03462667 0.74200004 2.341769e-38
0.020493357 0.034626678 0.74200004 2.341769e-38
0.021906659 0.034626663 0.74200004 2.341769e-38
0.023319989 0.034626663 0.7420001 2.341769e-38
0.024733342 0.034626678 0.74200004 2.3414816e-38
0.026181905 0.034673326 0.74300003 2.322253e-38
0.027671423 0.034766659 0.74500012 2.2955638e-38
0.029168552 0.03486 0.7470001 2.3234019e-38
0.03063238 0.034906663 0.74800009 2.3416612e-38
0.032057136 0.034906656 0.74800009 2.3417687e-38
0.033481926 0.03490667 0.74800009 2.3417689e-38
0.035000011 0.035000004 0.75000006 2.341769e-38
0.036428578 0.035000019 0.75000006 2.3417321e-38
0.037958097 0.03509333 0.75200009 2.1670645e-38
0.039547622 0.035233319 0.75500011 1.9914273e-38
0.041148588 0.035373345 0.75800008 1.7239905e-38
0.042760942 0.035513327 0.7610001 1.4483405e-38
0.044210467 0.035513319 0.7610001 1.503406e-38
0.045779984 0.035606652 0.76300007 1.5586868e-38
-0.034153357 0.03706 0.76300007 7.652987e-39
-0.032700025 0.037059993 0.76300001 5.9056533e-39
-0.031164769 0.036962844 0.7610001 1.051721e-38
-0.029715244 0.036962852 0.7610001 1.5219141e-38
-0.028228574 0.036914289 0.76000011 1.7798094e-38
-0.026710475 0.036817141 0.75800008 2.0470307e-38
-0.025199991 0.036719993 0.75600004 2.1022051e-38
-0.02372859 0.036671408 0.75500011 2.1665987e-38
-0.022231411 0.036574289 0.75300002 2.221988e-38
-0.020769551 0.036525697 0.75200009 2.2774833e-38
-0.019337159 0.036525711 0.75200009 2.2310985e-38
-0.017857157 0.036428571 0.75000006 2.1943642e-38
-0.016384752 0.03633143 0.74800003 2.2220223e-38
-0.014940024 0.036282852 0.7470001 2.2495362e-38
-0.013517172 0.03628286 0.7470001 2.2400288e-38
-0.012061906 0.036185712 0.74500006 2.2315646e-38
-0.010642861 0.036185704 0.74500006 2.2866677e-38
-0.0092238169 0.036185704 0.74500006 2.341769e-38
-0.0077838181 0.036088549 0.74300009 2.341769e-38
-0.0063685765 0.036088571 0.74300003 2.341769e-38
-0.0049533397 0.036088571 0.74300009 2.341769e-38
-0.0035333307 0.036039993 0.74200004 2.341769e-38
-0.0021143015 0.035942852 0.74000007 2.341769e-38
-0.00070476061 0.03594286 0.74000001 2.341769e-38
0.00070380798 0.035894275 0.73900008 2.341769e-38
0.0021114312 0.035894297 0.73900002 2.341769e-38
0.0035095233 0.035797141 0.73700005 2.341769e-38
0.0049266862 0.035894282 0.73900002 2.341769e-38
0.0063171331 0.035797141 0.73700011 2.341769e-38
0.0077209603 0.035797134 0.73700005 2.341769e-38
0.009124741 0.035797141 0.73700011 2.341769e-38
0.01055714 0.03589429 0.73900002 2.341769e-38
0.011964758 0.035894282 0.73900002 2.341769e-38
0.01339047 0.035942852 0.74000001 2.341769e-38
0.014799993 0.03594286 0.74000007 2.341769e-38
0.016209535 0.035942852 0.74000001 2.341769e-38
0.017619029 0.035942852 0.74000007 2.341769e-38
0.019080013 0.036040001 0.74200004 2.341769e-38
0.020493343 0.036039993 0.74200004 2.341769e-38
0.021906674 0.036039993 0.7420001 2.341769e-38
0.023320006 0.036039993 0.7420001 2.341769e-38
0.024733355 0.036040001 0.74200004 2.3417682e-38
0.026181903 0.036088556 0.74300003 2.295455e-38
0.027671441 0.036185719 0.74500012 2.2406774e-38
0.029090486 0.036185697 0.74500012 2.2681212e-38
0.030632399 0.03633143 0.74800003 2.2866677e-38
0.032057136 0.03633143 0.74800009 2.3142183e-38
0.033481896 0.036331423 0.74800009 2.341769e-38
0.035000004 0.036428578 0.75000006 2.341769e-38
0.036525708 0.036525704 0.75200009 2.341768e-38
0.037958063 0.036525719 0.75200009 2.1576296e-38
0.039547615 0.036671415 0.75500011 1.9819911e-38
0.041040022 0.036719993 0.75600004 1.7516818e-38
0.042704768 0.036914282 0.76000005 1.5307033e-38
0.044210494 0.036962852 0.7610001 1.5583982e-38
0.045779984 0.037059993 0.76300007 1.5860218e-38
0.047233321 0.03706 0.76300007 1.5308859e-38
-0.034242861 0.038614284 0.76500005 4.8864693e-39
-0.032700025 0.038513329 0.76300007 1.1497654e-40
-0.031246692 0.038513329 0.76300001 5.5379427e-39
-0.029715249 0.038412377 0.76100016 1.0973491e-38
-0.028228592 0.038361896 0.76000011 1.5401719e-38
-0.026710477 0.038260959 0.75800008 1.9818098e-38
-0.025266664 0.038260959 0.75800008 2.1023822e-38
-0.023759997 0.038159993 0.7560001 2.22195e-38
-0.022290491 0.038109519 0.75500011 2.2498975e-38
-0.02079713 0.038008586 0.75300002 2.27716e-38
-0.019362854 0.038008567 0.75300002 2.2027221e-38
-0.017857151 0.037857149 0.75000006 2.1208242e-38
-0.016428582 0.037857145 0.75000006 2.1948314e-38
-0.014959994 0.03775619 0.74800003 2.2677231e-38
-0.013517166 0.037705701 0.7470001 2.2390936e-38
-0.012094312 0.037705693 0.7470001 2.2035456e-38
-0.010642845 0.037604764 0.74500006 2.2682993e-38
-0.0092238002 0.037604757 0.74500006 2.3322608e-38
-0.0078047561 0.037604768 0.74500006 2.3417668e-38
-0.0063685654 0.037503809 0.74300003 2.3417679e-38
-0.0049533285 0.037503805 0.74300003 2.341769e-38
-0.0035333438 0.037453324 0.74200004 2.341769e-38
-0.0021142866 0.037352376 0.74000001 2.341769e-38
-0.00070476526 0.037352368 0.74000007 2.341769e-38
0.00070476258 0.037352391 0.74000001 2.341769e-38
0.0021114303 0.037301905 0.73900008 2.341769e-38
0.0035190545 0.037301898 0.73900002 2.341769e-38
0.0049266713 0.037301898 0.73900008 2.341769e-38
0.0063428432 0.037352376 0.74000007 2.341769e-38
0.007752385 0.037352383 0.74000001 2.341769e-38
0.0091495365 0.037301905 0.73900002 2.341769e-38
0.010557155 0.037301891 0.73900008 2.341769e-38
0.011980944 0.037352368 0.74000001 2.341769e-38
0.013390466 0.037352368 0.74000007 2.341769e-38
0.014840013 0.037453324 0.74200004 2.341769e-38
0.016253345 0.037453339 0.74200004 2.341769e-38
0.017666647 0.037453324 0.7420001 2.341769e-38
0.019079998 0.037453331 0.74200004 2.341769e-38
0.02049333 0.037453339 0.74200004 2.341769e-38
0.021906661 0.037453331 0.7420001 2.341769e-38
0.023351436 0.037503801 0.74300009 2.341769e-38
0.024766672 0.03750379 0.74300009 2.3416608e-38
0.026252385 0.03760476 0.74500006 2.2679047e-38
0.027745698 0.037705712 0.7470001 2.1852532e-38
0.029207613 0.037756197 0.74800003 2.2125173e-38
0.030632399 0.037756186 0.74800003 2.2313868e-38
0.032142859 0.037857141 0.75000006 2.2866677e-38
0.033481918 0.03775619 0.74800003 2.341769e-38
0.034999996 0.037857145 0.75000006 2.341769e-38
0.036428571 0.037857145 0.75000012 2.341732e-38
0.037958078 0.037958082 0.75200009 2.1579881e-38
0.039547611 0.038109507 0.75500011 1.9638768e-38
0.041148562 0.038260952 0.75800008 1.7883836e-38
0.042873338 0.038513329 0.76300001 1.6047115e-38
0.044326648 0.038513318 0.76300007 1.6133917e-38
0.045899998 0.038614288 0.76500005 1.6137518e-38
0.047357149 0.038614266 0.7650001 1.558365e-38
-0.034377161 0.040228572 0.76800007 5.0794925e-39
-0.032785729 0.040071413 0.7650001 8.4390397e-40
-0.031246692 0.039966654 0.76300007 3.6032372e-39
-0.029715236 0.039861906 0.7610001 6.3576295e-39
-0.028228588 0.039809514 0.76000011 1.0234854e-38
-0.026710482 0.039704759 0.75800008 1.4018797e-38
-0.025266651 0.039704755 0.75800008 1.6784658e-38
-0.023760006 0.039599989 0.7560001 1.9556259e-38
-0.022319984 0.039599989 0.75600004 2.1301885e-38
-0.020852411 0.0395476 0.75500011 2.3050333e-38
-0.019362845 0.03944286 0.75300002 2.2586835e-38
-0.017857159 0.039285719 0.75000006 2.2219867e-38
-0.016428577 0.039285712 0.75000006 2.2405706e-38
-0.014959995 0.039180949 0.74800003 2.249678e-38
-0.013535236 0.039180957 0.74800003 2.230876e-38
-0.012094324 0.039128568 0.7470001 2.2037232e-38
-0.01067147 0.039128579 0.7470001 2.194184e-38
-0.009223816 0.039023794 0.74500012 2.1935014e-38
-0.0078047719 0.039023802 0.74500012 2.2679372e-38
-0.0063857269 0.039023794 0.74500012 2.3417668e-38
-0.0049533304 0.038919032 0.74300003 2.341769e-38
-0.0035380954 0.038919039 0.74300009 2.341769e-38
-0.002119991 0.038866669 0.74200004 2.341769e-38
-0.0007066605 0.038866669 0.74200004 2.341769e-38
0.000704757 0.038761903 0.74000001 2.341769e-38
0.0021142792 0.038761891 0.74000007 2.341769e-38
0.003523807 0.038761903 0.74000001 2.341769e-38
0.0049333163 0.038761903 0.74000007 2.341769e-38
0.0063428581 0.038761899 0.74000001 2.341769e-38
0.0077523803 0.038761899 0.74000007 2.341769e-38
0.0091619026 0.038761903 0.74000007 2.341769e-38
0.010557159 0.038709536 0.73900002 2.341769e-38
0.011980939 0.038761899 0.74000007 2.341769e-38
0.013426669 0.03886668 0.74200004 2.341769e-38
0.01484 0.038866661 0.74200004 2.341769e-38
0.016253332 0.03886665 0.74200004 2.341769e-38
0.017666684 0.038866661 0.74200004 2.341769e-38
0.019080013 0.038866665 0.74200004 2.341769e-38
0.020493345 0.038866654 0.74200004 2.341769e-38
0.021936197 0.038919047 0.74300009 2.341769e-38
0.023351435 0.038919032 0.74300009 2.341769e-38
0.024766669 0.038919039 0.74300009 2.3417686e-38
0.026252382 0.039023809 0.74500012 2.3048546e-38
0.027745686 0.039128572 0.7470001 2.2679052e-38
0.029207613 0.039180957 0.74800009 2.2772321e-38
0.030714285 0.039285704 0.75000012 2.2866673e-38
0.032142852 0.039285712 0.75000006 2.3142183e-38
0.033571418 0.039285712 0.75000006 2.341769e-38
0.03509333 0.039390471 0.75200003 2.341769e-38
0.036428563 0.039285716 0.75000012 2.3417679e-38
0.037958086 0.039390471 0.75200009 2.148374e-38
0.039390445 0.039390475 0.75200009 1.9546232e-38
0.041257136 0.039809518 0.76000005 1.7981805e-38
0.042873338 0.039966661 0.76300001 1.6516354e-38
0.04432667 0.039966665 0.76300001 1.650915e-38
0.045779984 0.039966647 0.76300007 1.6512394e-38
-0.034466658 0.041800003 0.77000004 5.3585877e-39
-0.032785725 0.04152856 0.7650001 1.5843459e-39
-0.031246692 0.041419994 0.76300007 1.6732947e-39
-0.029715242 0.041311424 0.7610001 1.7716e-39
-0.028228568 0.041257143 0.76000005 4.9768881e-39
-0.026710488 0.041148566 0.75800008 8.2130187e-39
-0.025266675 0.041148562 0.75800008 1.2538978e-38
-0.02376 0.041039988 0.7560001 1.6777465e-38
-0.022319993 0.04104 0.75600004 2.0009707e-38
-0.020852396 0.040985703 0.75500011 2.3229693e-38
-0.019414313 0.040985711 0.75500011 2.3234004e-38
-0.017904766 0.040822849 0.75200003 2.3232576e-38
-0.016428569 0.04071429 0.75000006 2.2773405e-38
-0.015000023 0.040714283 0.75000012 2.2313128e-38
-0.013535237 0.040605716 0.74800003 2.2218759e-38
-0.012110478 0.040605724 0.74800003 2.2035822e-38
-0.010671444 0.040551424 0.7470001 2.1295772e-38
-0.009248592 0.040551435 0.7470001 2.047176e-38
-0.0078047682 0.040442854 0.74500006 2.1946506e-38
-0.0063857222 0.040442854 0.74500006 2.341732e-38
-0.0049666772 0.04044285 0.74500012 2.341769e-38
-0.0035476191 0.040442858 0.74500012 2.341769e-38
-0.0021199901 0.040280003 0.74200004 2.341769e-38
-0.00070665864 0.040280003 0.74200004 2.341769e-38
0.00070665876 0.040279992 0.74200004 2.341769e-38
0.0021199891 0.040279996 0.7420001 2.341769e-38
0.003533341 0.040279996 0.74200004 2.341769e-38
0.0049466575 0.040280007 0.74200004 2.341769e-38
0.0063599888 0.040279999 0.7420001 2.341769e-38
0.0077733397 0.040279999 0.74200004 2.341769e-38
0.0091866711 0.040280003 0.74200004 2.341769e-38
0.010600002 0.040280007 0.7420001 2.341769e-38
0.012013332 0.040279992 0.7420001 2.341769e-38
0.013426684 0.040280007 0.74200004 2.341769e-38
0.014840015 0.040279996 0.74200004 2.341769e-38
0.016253319 0.040279999 0.7420001 2.341769e-38
0.017666671 0.040279999 0.74200004 2.341769e-38
0.019105705 0.040334273 0.74300009 2.341769e-38
0.020520959 0.040334288 0.74300003 2.341769e-38
0.021936195 0.040334284 0.74300003 2.341769e-38
0.023351431 0.040334281 0.74300009 2.341769e-38
0.024766667 0.040334269 0.74300009 2.3417689e-38
0.026252374 0.040442862 0.74500006 2.3417686e-38
0.027671419 0.040442847 0.74500006 2.341661e-38
0.029207613 0.040605709 0.74800009 2.3417686e-38
0.030714277 0.040714294 0.75000012 2.3417687e-38
0.032142848 0.040714294 0.75000006 2.341769e-38
0.033660937 0.040822849 0.75200003 2.341769e-38
0.035093322 0.040822856 0.75200009 2.341769e-38
0.036525697 0.040822849 0.75200009 2.3415884e-38
0.038008593 0.040877134 0.75300002 2.1390468e-38
0.039547622 0.040985696 0.75500011 1.9362551e-38
0.041148588 0.041148562 0.75800008 1.8164023e-38
0.042873338 0.041420002 0.76300007 1.6969074e-38
0.04432667 0.041419998 0.76300001 1.6965834e-38
0.045780003 0.04141999 0.76300001 1.6876881e-38
-0.034466647 0.04326668 0.77000004 7.8428097e-39
-0.032785717 0.042985711 0.7650001 6.5431236e-39
-0.031328574 0.042985711 0.76500005 7.1081271e-39
-0.029793359 0.042873323 0.76300007 7.6698852e-39
-0.028154289 0.04259238 0.75800008 8.8540427e-39
-0.026710477 0.042592384 0.75800008 1.0041783e-38
-0.025199998 0.042479988 0.75600004 1.0048935e-38
-0.023759974 0.042479996 0.75600004 1.0137633e-38
-0.022319987 0.042479996 0.75600004 1.4104229e-38
-0.020852402 0.0424238 0.75500011 1.8175149e-38
-0.019414321 0.042423796 0.75500011 2.0562539e-38
-0.017904788 0.04225523 0.75200009 2.2866676e-38
-0.016472396 0.042255241 0.75200009 2.2865955e-38
-0.015000018 0.042142853 0.75000012 2.2864878e-38
-0.013535236 0.042030487 0.74800009 2.2773041e-38
-0.012110478 0.042030476 0.74800009 2.2774836e-38
-0.010671456 0.041974276 0.7470001 2.1761058e-38
-0.0092486041 0.041974295 0.7470001 2.0749794e-38
-0.0078047505 0.041861899 0.74500006 2.1393004e-38
-0.0063857073 0.041861895 0.74500006 2.2040158e-38
-0.0049666613 0.041861895 0.74500006 2.2129123e-38
-0.0035476163 0.041861899 0.74500006 2.2223829e-38
-0.0021199882 0.041693337 0.74200004 2.2406065e-38
-0.00070667168 0.041693337 0.74200004 2.2683006e-38
0.00070665969 0.041693319 0.7420001 2.2957795e-38
0.0021200115 0.041693341 0.74200004 2.3325854e-38
0.0035333429 0.041693345 0.74200004 2.3325854e-38
0.0049466724 0.041693322 0.7420001 2.341769e-38
0.0063600037 0.041693326 0.7420001 2.341769e-38
0.0077733276 0.041693334 0.74200004 2.341769e-38
0.0091866581 0.041693337 0.74200004 2.341769e-38
0.010599989 0.041693319 0.7420001 2.341769e-38
0.012013341 0.041693337 0.74200004 2.341769e-38
0.013426671 0.041693341 0.74200004 2.341769e-38
0.014859994 0.041749522 0.74300003 2.341769e-38
0.016253334 0.041693326 0.7420001 2.341769e-38
0.017690465 0.041749507 0.74300009 2.341769e-38
0.019105703 0.041749507 0.74300009 2.341769e-38
0.020520957 0.041749522 0.74300003 2.341769e-38
0.021936193 0.041749515 0.74300003 2.341769e-38
0.023414282 0.041861892 0.74500012 2.341769e-38
0.024833348 0.041861899 0.74500006 2.341769e-38
0.026322834 0.041974287 0.7470001 2.341769e-38
0.027782876 0.042030483 0.74800003 2.341769e-38
0.029285721 0.042142868 0.75000006 2.341769e-38
0.03071427 0.042142861 0.75000006 2.341769e-38
0.032142863 0.042142864 0.75000006 2.341769e-38
0.033660926 0.042255234 0.75200009 2.341769e-38
0.035093334 0.042255238 0.75200009 2.341769e-38
0.036525711 0.042255238 0.75200003 2.3417676e-38
0.038008586 0.042311426 0.75300002 2.1206077e-38
0.039600011 0.042479988 0.75600004 1.8991612e-38
0.041148581 0.042592376 0.75800008 1.7426451e-38
0.042873338 0.04287333 0.76300007 1.5954579e-38
0.044210464 0.042760953 0.7610001 1.6323722e-38
0.045780003 0.042873327 0.76300001 1.6601032e-38
0.047357153 0.042985715 0.76500005 1.7061294e-38
-0.03455621 0.044849511 0.77200007 1.0427147e-38
-0.032914288 0.044617146 0.76800001 1.152522e-38
-0.031410478 0.044559035 0.76700002 1.2546166e-38
-0.029871432 0.044442847 0.7650001 1.346272e-38
-0.028414289 0.044442844 0.7650001 1.2635476e-38
-0.026710479 0.044036195 0.75800008 1.1800699e-38
-0.025266666 0.044036184 0.75800008 7.6609211e-39
-0.02382287 0.044036191 0.75800008 3.4253606e-39
-0.022319995 0.043919992 0.75600004 8.2775681e-39
-0.020879993 0.043919995 0.7560001 1.3089317e-38
-0.019414306 0.0438619 0.75500011 1.7790217e-38
-0.017904773 0.043687619 0.75200009 2.2487836e-38
-0.016472384 0.043687612 0.75200003 2.2958511e-38
-0.015000013 0.043571427 0.75000012 2.3417328e-38
-0.013571445 0.043571427 0.75000006 2.3417687e-38
-0.012110479 0.043455232 0.74800009 2.3417687e-38
-0.01068572 0.043455243 0.74800009 2.2223826e-38
-0.009248591 0.043397158 0.7470001 2.10235e-38
-0.0078257443 0.04339714 0.7470001 2.0835159e-38
-0.0063857231 0.043280944 0.74500012 2.0654359e-38
-0.0049666576 0.043280948 0.74500006 2.0835161e-38
-0.0035476116 0.043280952 0.74500006 2.1024218e-38
-0.0021200003 0.043106664 0.74200004 2.148268e-38
-0.00070667075 0.043106657 0.74200004 2.1854331e-38
0.00070666062 0.04310666 0.7420001 2.2496465e-38
0.0021200115 0.043106668 0.74200004 2.3141466e-38
0.003533328 0.043106664 0.74200004 2.3325854e-38
0.0049466593 0.043106668 0.7420001 2.341769e-38
0.0063599907 0.04310666 0.7420001 2.341769e-38
0.0077733416 0.04310666 0.74200004 2.341769e-38
0.009186673 0.043106657 0.74200004 2.341769e-38
0.010600004 0.043106653 0.7420001 2.341769e-38
0.012013356 0.043106664 0.74200004 2.341769e-38
0.013426659 0.04310666 0.74200004 2.341769e-38
0.014859991 0.043164764 0.74300003 2.341769e-38
0.016275227 0.043164745 0.74300003 2.341769e-38
0.017690463 0.043164749 0.74300009 2.341769e-38
0.019105699 0.04316476 0.74300009 2.341769e-38
0.020520955 0.043164752 0.74300003 2.341769e-38
0.021936189 0.043164741 0.74300003 2.341769e-38
0.023414299 0.043280952 0.74500012 2.341769e-38
0.024833342 0.043280941 0.74500012 2.341769e-38
0.026252387 0.043280937 0.74500012 2.341769e-38
0.027782876 0.043455243 0.74800009 2.341769e-38
0.029285716 0.043571439 0.75000006 2.341769e-38
0.03071429 0.043571416 0.75000012 2.341769e-38
0.032228563 0.043687604 0.75200009 2.341769e-38
0.033660941 0.043687616 0.75200009 2.341769e-38
0.035140019 0.043745715 0.75300002 2.341769e-38
0.0365743 0.043745715 0.75300002 2.3416234e-38
0.038109511 0.043861896 0.75500011 2.1024545e-38
0.039600015 0.043919995 0.75600004 1.8532785e-38
0.041148581 0.044036187 0.75800008 1.6779296e-38
0.042760964 0.044210467 0.7610001 1.4944031e-38
0.04421049 0.044210464 0.7610001 1.5680876e-38
0.045779973 0.044326667 0.76300001 1.6324439e-38
0.047233336 0.044326659 0.76300001 1.6693571e-38
-0.034556195 0.046319988 0.77200007 1.079667e-38
-0.0329143 0.046079997 0.76800007 1.1900475e-38
-0.03145143 0.046080001 0.76800001 1.2547972e-38
-0.029949516 0.04601999 0.76700002 1.3101142e-38
-0.028414281 0.045899998 0.7650001 1.198728e-38
-0.026886689 0.045779984 0.76300007 1.0802756e-38
-0.025333343 0.045599997 0.76000011 9.9662014e-39
-0.023822859 0.045479987 0.75800008 9.2066612e-39
-0.022319989 0.045359991 0.75600004 1.1960545e-38
-0.020880003 0.045359991 0.7560001 1.4818682e-38
-0.019414309 0.045299992 0.75500011 1.7318446e-38
-0.017928557 0.045180008 0.75300002 1.9814903e-38
-0.016472407 0.04511999 0.75200009 2.1664923e-38
-0.015040016 0.045120005 0.75200009 2.341769e-38
-0.013571438 0.044999998 0.75000006 2.341769e-38
-0.012142858 0.045000009 0.75000006 2.341769e-38
-0.01068572 0.044879999 0.74800009 2.2864164e-38
-0.0092609609 0.044880006 0.74800009 2.2213767e-38
-0.007825736 0.044820003 0.7470001 2.2124067e-38
-0.0063857185 0.044699997 0.74500012 2.2029723e-38
-0.0049666734 0.044699997 0.74500012 2.2125149e-38
-0.0035476284 0.044699986 0.74500012 2.2218427e-38
-0.0021199994 0.044519998 0.74200004 2.2404616e-38
-0.00070666982 0.044519998 0.7420001 2.2682999e-38
0.00070666155 0.044519994 0.7420001 2.2957795e-38
0.0021200124 0.044520002 0.74200004 2.3325854e-38
0.0035333298 0.044519991 0.74200004 2.3325854e-38
0.0049466742 0.044519991 0.7420001 2.341769e-38
0.0063599981 0.044519998 0.74200004 2.341769e-38
0.0077733286 0.044519994 0.74200004 2.341769e-38
0.0091866599 0.044519998 0.74200004 2.341769e-38
0.01061429 0.044579986 0.74300009 2.341769e-38
