# .PCD v0.7 - Point Cloud Data file format
VERSION 0.7
FIELDS x y z rgb
SIZE 4 4 4 4
TYPE F F F F
COUNT 1 1 1 1
WIDTH 989
HEIGHT 1
VIEWPOINT 0 0 0 1 0 0 0
POINTS 989
DATA ascii
-0.0077419244 0.028856181 0.73900002 1.8917751e-38
-0.0063171666 0.028778091 0.73699999 1.9192898e-38
-0.0049133645 0.028778091 0.73700005 1.9285093e-38
-0.003509525 0.028778084 0.73700005 1.9375851e-38
-0.0020971613 0.028660968 0.73399997 1.9652433e-38
-0.00069907197 0.02866096 0.73399997 1.9835028e-38
0.00069903879 0.028660953 0.73400003 2.0203448e-38
0.0020971291 0.028660968 0.73399997 2.0478235e-38
0.0034952194 0.028660968 0.73399997 2.093813e-38
0.0048933113 0.028660975 0.73399997 2.1304753e-38
0.0062914081 0.028660968 0.73400003 2.1213635e-38
0.0076895114 0.02866096 0.73399997 2.1027812e-38
0.0090875886 0.02866096 0.73399997 2.11218e-38
0.010485681 0.02866096 0.73399997 2.1120724e-38
0.011883791 0.028660968 0.73400003 2.11218e-38
0.013281881 0.028660968 0.73400003 2.1029607e-38
0.014679973 0.028660975 0.73399997 2.1029967e-38
0.016121868 0.028739057 0.736 2.0937413e-38
0.017523767 0.028739057 0.736 2.1948319e-38
0.018925689 0.028739043 0.73600006 2.2958511e-38
0.020327589 0.028739043 0.73600006 2.2866677e-38
0.021729501 0.028739035 0.736 2.2774483e-38
0.023162838 0.028778084 0.73700005 2.1948322e-38
0.024566645 0.028778099 0.73700005 2.1028889e-38
0.026040932 0.028856188 0.73900002 2.038604e-38
0.027485697 0.028895237 0.74000001 1.9741039e-38
0.02897332 0.028973326 0.74200004 1.9369033e-38
0.030386643 0.028973341 0.74199998 1.8913083e-38
0.031842839 0.029012375 0.74300003 1.9001331e-38
0.033258066 0.029012375 0.74299997 1.9089568e-38
0.034673307 0.029012382 0.74300003 1.6503096e-38
0.036185671 0.029090486 0.745 1.3834099e-38
0.037604723 0.029090479 0.74500006 1.6673438e-38
0.039128549 0.029168569 0.74700004 1.9452926e-38
0.040605687 0.029207617 0.74799997 2.1489122e-38
0.042142835 0.029285714 0.75000006 2.3414428e-38
0.043745659 0.02940286 0.75299996 2.3415135e-38
0.045299955 0.029480971 0.755 2.3415857e-38
0.046799984 0.029520012 0.75600004 2.3417656e-38
-0.036026683 0.031615257 0.77199996 1.3834748e-38
-0.034332395 0.031410478 0.76700002 1.4846386e-38
-0.032700032 0.03124667 0.76300001 1.5856914e-38
-0.031123834 0.031123817 0.75999999 1.5947651e-38
-0.029598085 0.031041905 0.75800002 1.6035937e-38
-0.028080013 0.030960001 0.75600004 1.6132833e-38
-0.02664 0.030960001 0.75600004 1.6225744e-38
-0.025166703 0.03091906 0.755 1.6967244e-38
-0.023634298 0.030796185 0.75200003 1.7706254e-38
-0.022201933 0.030796185 0.75200003 1.7338574e-38
-0.020576244 0.030509539 0.745 1.6879411e-38
-0.019105745 0.03042762 0.74300003 1.6973054e-38
-0.017690519 0.030427627 0.74299997 1.7161034e-38
-0.016275246 0.03042762 0.74300003 1.7437621e-38
-0.014860022 0.03042762 0.74299997 1.780783e-38
-0.013426693 0.030386671 0.74200004 1.7898586e-38
-0.012013373 0.030386671 0.74199998 1.8083335e-38
-0.010571449 0.030304752 0.74000001 1.854359e-38
-0.0091247791 0.030181885 0.73700011 1.9007432e-38
-0.0077209603 0.0301819 0.73700011 1.9007075e-38
-0.0063171424 0.030181892 0.73700005 1.9100345e-38
-0.0049133394 0.0301819 0.73700005 1.9282939e-38
-0.0035095352 0.030181892 0.73700005 1.9376927e-38
-0.0020971538 0.030059062 0.73400003 1.9558803e-38
-0.00069906452 0.030059062 0.73399997 1.974391e-38
0.00069902575 0.030059062 0.73399997 2.0110535e-38
0.0020971161 0.030059062 0.73399997 2.0478954e-38
0.0034952138 0.030059054 0.73400003 2.0570072e-38
0.0049066432 0.030140944 0.73600006 2.0754461e-38
0.0063085435 0.030140944 0.73600006 2.0753743e-38
0.0077104568 0.030140944 0.736 2.0662625e-38
0.0091123572 0.030140959 0.736 2.0753743e-38
0.010514256 0.030140959 0.736 2.0845937e-38
0.011916156 0.030140959 0.736 2.0937414e-38
0.013318069 0.030140959 0.736 2.1121803e-38
0.01471997 0.030140951 0.736 2.1029248e-38
0.01612187 0.030140951 0.736 2.102925e-38
0.017523771 0.030140959 0.736 2.1672098e-38
0.018925689 0.030140951 0.73600006 2.24075e-38
0.020327603 0.030140944 0.736 2.2406423e-38
0.021729505 0.030140959 0.736 2.24075e-38
0.023162831 0.030181892 0.73700005 2.185541e-38
0.024633324 0.030263796 0.73900002 2.1394078e-38
0.026040938 0.030263804 0.73900002 2.1118567e-38
0.0274857 0.030304745 0.74000001 2.0842703e-38
0.028973313 0.030386664 0.74199998 2.1026733e-38
0.030386655 0.030386664 0.74199998 2.1211479e-38
0.031842846 0.03042762 0.74300003 2.1117847e-38
0.033258069 0.03042762 0.74299997 2.1024554e-38
0.034673318 0.030427612 0.74300003 1.7237393e-38
0.036185686 0.030509531 0.74500006 1.3547109e-38
0.037604719 0.030509531 0.745 1.5486771e-38
0.039128542 0.030591428 0.74699998 1.753193e-38
0.040714271 0.030714281 0.75000006 1.9093876e-38
0.042255212 0.030796193 0.75200003 2.0747262e-38
0.043745678 0.030837141 0.75300002 2.0655415e-38
0.04535998 0.030960001 0.75600004 2.0659724e-38
0.04679998 0.030959994 0.75600004 2.1485172e-38
-0.037497178 0.033085734 0.77199996 1.3188298e-38
-0.035933338 0.033000022 0.77000004 1.4938209e-38
-0.034242883 0.032785729 0.76500005 1.5492824e-38
-0.032700036 0.032700017 0.76299995 1.5952707e-38
-0.031123845 0.032571435 0.76000005 1.613493e-38
-0.029598096 0.032485709 0.75800002 1.6226795e-38
-0.028080003 0.03239999 0.75600004 1.659309e-38
-0.026604818 0.032357171 0.755 1.6876137e-38
-0.025100028 0.032271422 0.75299996 1.8715367e-38
-0.023634324 0.032228574 0.75199997 2.0464913e-38
-0.022142874 0.032142863 0.75 2.0097938e-38
-0.020631446 0.032014281 0.74700004 1.9729521e-38
-0.019157164 0.031928569 0.745 1.9360747e-38
-0.0176905 0.031842865 0.74299997 1.8902657e-38
-0.016275255 0.031842865 0.74300003 1.8809039e-38
-0.014860031 0.031842865 0.74299997 1.8628954e-38
-0.013426684 0.031800009 0.74199998 1.8719714e-38
-0.012013343 0.031799994 0.74199998 1.8722945e-38
-0.010571475 0.03171429 0.74000001 1.8995583e-38
-0.0091495356 0.031671427 0.73900002 1.9277548e-38
-0.0077209566 0.031585701 0.73700005 1.9186074e-38
-0.0063171657 0.031585693 0.73700005 1.9003478e-38
-0.0049133496 0.031585701 0.73700005 1.9185355e-38
-0.0035095306 0.031585693 0.73700005 1.9372615e-38
-0.0021028908 0.03154286 0.736 1.9554135e-38
-0.00070098956 0.031542867 0.736 1.9648482e-38
0.00070092379 0.03154286 0.736 2.0016182e-38
0.0021028232 0.031542853 0.736 2.0384961e-38
0.0035047235 0.031542853 0.736 2.0291693e-38
0.0049066423 0.031542853 0.73600006 2.0201292e-38
0.0063085426 0.031542867 0.73600006 2.0292052e-38
0.0077104559 0.03154286 0.736 2.0293127e-38
0.0091123562 0.03154286 0.736 2.0384245e-38
0.010514257 0.03154286 0.736 2.0477156e-38
0.011916155 0.03154286 0.736 2.0844141e-38
0.013318056 0.03154286 0.736 2.1120363e-38
0.01471997 0.03154286 0.736 2.1118929e-38
0.01612187 0.03154286 0.736 2.1120006e-38
0.017523773 0.03154286 0.736 2.1486991e-38
0.018925691 0.03154286 0.73600006 2.1763213e-38
0.02032759 0.031542853 0.73600006 2.1852538e-38
0.021729505 0.03154286 0.736 2.1946884e-38
0.023162834 0.031585708 0.73700005 2.1855408e-38
0.024566641 0.031585716 0.73700005 2.1668502e-38
0.026040936 0.031671412 0.73900002 2.1850733e-38
0.027485685 0.031714275 0.74000001 2.1945085e-38
0.028973313 0.031800002 0.74199998 2.2683003e-38
0.030386657 0.031800002 0.74200004 2.3417326e-38
0.031842835 0.031842843 0.74300003 2.3234011e-38
0.033258058 0.031842843 0.74299997 2.2947361e-38
0.034673307 0.031842858 0.74300003 1.8057816e-38
0.036185686 0.031928569 0.745 1.3183723e-38
0.037604716 0.031928577 0.745 1.437759e-38
0.039180942 0.032057121 0.74800003 1.5499357e-38
0.040714268 0.032142863 0.75000006 1.6790086e-38
0.042311382 0.032271445 0.75299996 1.7984305e-38
0.043861877 0.032357149 0.755 1.7890673e-38
0.045359977 0.032400005 0.75600004 1.7800633e-38
0.046799991 0.032399997 0.75600004 1.9546943e-38
-0.037497159 0.034556203 0.77200001 1.2911355e-38
-0.035933349 0.034466669 0.77000004 1.4573379e-38
-0.034242895 0.034242868 0.76500005 1.5586814e-38
-0.032700021 0.034153342 0.76299995 1.6600947e-38
-0.031123847 0.034019053 0.76000005 1.6599868e-38
-0.029598108 0.033929527 0.75800002 1.6693877e-38
-0.028080022 0.033839993 0.75600004 1.7522928e-38
-0.0266048 0.03379526 0.755 1.8450268e-38
-0.025100036 0.033705726 0.75299996 1.9457604e-38
-0.023634322 0.033660971 0.75199997 2.0472812e-38
-0.022142878 0.03357143 0.75 2.0835486e-38
-0.020659074 0.033481911 0.74799997 2.1202819e-38
-0.019208577 0.033437148 0.74700004 2.1203166e-38
-0.017738111 0.033347622 0.74500006 2.1198521e-38
-0.016275264 0.033258103 0.74300003 2.1110291e-38
-0.014860041 0.033258103 0.74299997 2.1015947e-38
-0.013426683 0.03321334 0.74199998 2.1020612e-38
-0.012013343 0.03321334 0.74199998 2.1113168e-38
-0.010571454 0.033123806 0.74000001 2.1206441e-38
-0.0091495514 0.033079043 0.73899996 2.1390474e-38
-0.0077209519 0.032989517 0.73700005 2.1299716e-38
-0.006317162 0.032989517 0.73700005 2.120501e-38
-0.004913345 0.032989517 0.73700005 2.1300433e-38
-0.0035095399 0.032989509 0.73700005 2.1394065e-38
-0.0021028889 0.032944754 0.736 2.1485545e-38
-0.00070098863 0.032944769 0.736 2.1575586e-38
0.00070092565 0.032944761 0.736 2.1762127e-38
0.0020971179 0.03285525 0.73399997 2.1946877e-38
0.0035047245 0.032944769 0.736 2.1854686e-38
0.004906645 0.032944761 0.73600006 2.1854686e-38
0.0063085435 0.032944761 0.73600006 2.1854686e-38
0.0077104568 0.032944754 0.736 2.1853967e-38
0.0091123581 0.032944761 0.736 2.1853248e-38
0.010514258 0.032944769 0.736 2.1853967e-38
0.011916157 0.032944761 0.736 2.2038716e-38
0.013318057 0.032944754 0.736 2.2314222e-38
0.014719971 0.032944754 0.736 2.2314222e-38
0.016121872 0.032944761 0.736 2.2313866e-38
0.017523767 0.032944776 0.736 2.2406421e-38
0.018925691 0.032944761 0.73600006 2.2590808e-38
0.020327589 0.032944761 0.73600006 2.2681564e-38
0.021759024 0.032989517 0.73700005 2.2681565e-38
0.023162827 0.032989524 0.73700005 2.2588654e-38
0.024633324 0.033079043 0.73900002 2.2583264e-38
0.026040932 0.03307905 0.73899996 2.2586843e-38
0.027485697 0.033123806 0.74000001 2.2679049e-38
0.028973317 0.033213332 0.74199998 2.3049272e-38
0.030386655 0.03321334 0.74200004 2.3417686e-38
0.03184282 0.033258095 0.74299997 2.2494304e-38
0.033258062 0.033258103 0.74299997 2.1483733e-38
0.034673311 0.033258095 0.74300003 1.8066784e-38
0.036185686 0.033347622 0.745 1.4741709e-38
0.03770569 0.033437133 0.74700004 1.5395333e-38
0.039180927 0.033481903 0.74800003 1.614508e-38
0.040714275 0.033571422 0.75000006 1.6418788e-38
0.042311393 0.033705704 0.75300002 1.6692867e-38
0.043861866 0.03379523 0.755 1.6506692e-38
0.045359969 0.033840001 0.75600004 1.6318715e-38
-0.035933349 0.035933346 0.76999998 1.4202453e-38
-0.034242902 0.035699993 0.76500005 1.5771572e-38
-0.032700036 0.035606667 0.76299995 1.7242731e-38
-0.031164808 0.035513341 0.76100004 1.7152686e-38
-0.029598093 0.035373338 0.75800002 1.7063382e-38
-0.028080033 0.035280004 0.75600004 1.853815e-38
-0.026604777 0.035233341 0.755 1.9916407e-38
-0.025066694 0.03509333 0.75200003 2.0191562e-38
-0.02363432 0.035093345 0.75199997 2.0376316e-38
-0.022142885 0.035000011 0.75 2.1476555e-38
-0.020659057 0.03490667 0.74800003 2.2585397e-38
-0.019234311 0.034906678 0.74800003 2.3050314e-38
-0.017738113 0.034766674 0.745 2.3414077e-38
-0.016319079 0.034766681 0.745 2.3417675e-38
-0.014860022 0.034673348 0.74299997 2.3414087e-38
-0.013426683 0.03462667 0.74199998 2.3417676e-38
-0.012013341 0.034626663 0.74200004 2.3415525e-38
-0.010571451 0.034533337 0.73999995 2.3417679e-38
-0.0091495467 0.034486651 0.73900002 2.3415887e-38
-0.0077209761 0.034393333 0.73700005 2.3417682e-38
-0.0063171573 0.034393325 0.73700005 2.3415529e-38
-0.0049133543 0.034393325 0.73700005 2.3417682e-38
-0.0035095362 0.034393333 0.73700005 2.3416966e-38
-0.002102888 0.03434667 0.736 2.3417684e-38
-0.00070098956 0.034346677 0.736 2.3416249e-38
0.00070092565 0.03434667 0.736 2.3417684e-38
0.0021028232 0.03434667 0.736 2.3417327e-38
0.0035047245 0.034346685 0.736 2.3417687e-38
0.004906645 0.03434667 0.73600006 2.3417328e-38
0.0063085435 0.034346662 0.73600006 2.3417687e-38
0.0077104587 0.034346662 0.736 2.3415892e-38
0.0091123572 0.034346662 0.736 2.3320469e-38
0.010514257 0.034346662 0.736 2.3140386e-38
0.011916156 0.034346655 0.736 2.3325852e-38
0.013318056 0.034346677 0.736 2.3417328e-38
0.014739976 0.034393333 0.73700005 2.3417687e-38
0.016143782 0.03439334 0.73700005 2.3417328e-38
0.017547587 0.03439334 0.73700005 2.3417689e-38
0.018951422 0.034393325 0.73700011 2.3417687e-38
0.020355226 0.034393318 0.73700011 2.3417687e-38
0.021759044 0.034393325 0.73700005 2.3417328e-38
0.023162847 0.034393318 0.73700005 2.3417687e-38
0.024633324 0.034486659 0.73900002 2.3415889e-38
0.026076166 0.034533337 0.73999995 2.3417679e-38
0.027485682 0.034533337 0.74000001 2.3416607e-38
0.028973317 0.03462667 0.74200004 2.3417687e-38
0.030427597 0.034673326 0.74300003 2.3409778e-38
0.031842824 0.034673333 0.74299997 2.1749548e-38
0.033258069 0.034673333 0.74299997 2.0007187e-38
0.034673315 0.034673326 0.74300003 1.8166894e-38
0.036282826 0.034859993 0.74699998 1.6227216e-38
0.037756179 0.034906663 0.74800003 1.6500916e-38
0.039285701 0.035000004 0.75000006 1.6691044e-38
0.040822811 0.035093345 0.75199997 1.6047121e-38
0.042311389 0.035140008 0.75299996 1.5402128e-38
0.043861862 0.035233349 0.755 1.512376e-38
0.045479987 0.03537333 0.75800002 1.4850049e-38
-0.035840023 0.037302867 0.76799995 1.3092898e-38
-0.034242887 0.037157126 0.7650001 1.4110651e-38
-0.032785743 0.037157133 0.76500005 1.5129089e-38
-0.031164803 0.036962874 0.76100004 1.577337e-38
-0.029676225 0.036914304 0.75999999 1.6419108e-38
-0.028154301 0.036817141 0.75799996 1.7892081e-38
-0.026640011 0.036719993 0.75600004 1.9271047e-38
-0.025100032 0.036574289 0.75299996 1.9548346e-38
-0.023634298 0.036525711 0.75200003 1.9915348e-38
-0.022201931 0.036525711 0.75200003 2.138868e-38
-0.020714303 0.036428571 0.75 2.2958503e-38
-0.019234294 0.036331423 0.74800003 2.3142183e-38
-0.01778573 0.036282852 0.74700004 2.341769e-38
-0.016319089 0.036185712 0.74500006 2.341769e-38
-0.014900027 0.036185712 0.745 2.341769e-38
-0.013444784 0.036088586 0.74300003 2.341769e-38
-0.012013339 0.036040001 0.74200004 2.341769e-38
-0.010600019 0.036040008 0.74199998 2.341769e-38
-0.0091619268 0.035942852 0.74000001 2.341769e-38
-0.0077419365 0.03589429 0.73900002 2.341769e-38
-0.0063343095 0.035894282 0.73900002 2.341769e-38
-0.0049133506 0.035797134 0.73700005 2.341769e-38
-0.0035095455 0.035797141 0.73700005 2.341769e-38
-0.002102888 0.035748579 0.736 2.341769e-38
-0.00070098677 0.035748579 0.736 2.341769e-38
0.00070091075 0.035748579 0.736 2.341769e-38
0.002102827 0.035748579 0.736 2.341769e-38
0.0035047245 0.035748579 0.736 2.341769e-38
0.0049066255 0.035748571 0.736 2.341769e-38
0.0063085463 0.035748556 0.73600006 2.341769e-38
0.0077104447 0.035748579 0.73600006 2.341769e-38
0.0091123581 0.035748586 0.736 2.332442e-38
0.010514258 0.035748579 0.736 2.3325854e-38
0.011916159 0.035748571 0.736 2.3325854e-38
0.013318057 0.035748571 0.736 2.341769e-38
0.014739986 0.035797127 0.73700011 2.341769e-38
0.016143804 0.035797127 0.73700005 2.341769e-38
0.017547609 0.035797134 0.73700005 2.341769e-38
0.018951414 0.035797127 0.73700005 2.341769e-38
0.02035523 0.035797141 0.73700005 2.341769e-38
0.021759039 0.035797141 0.73700005 2.341769e-38
0.02316284 0.035797134 0.73700005 2.341769e-38
0.024633307 0.035894297 0.73899996 2.341769e-38
0.026040934 0.03589429 0.73900002 2.341769e-38
0.027559979 0.036040001 0.74199998 2.3417687e-38
0.028973317 0.036039993 0.74200004 1.9450103e-38
0.030427592 0.036088571 0.74300003 1.550294e-38
0.031842813 0.036088571 0.74299997 1.7152363e-38
0.033347584 0.036185712 0.74500006 1.8904441e-38
0.034859989 0.036282837 0.74700004 1.8077592e-38
0.036282845 0.036282845 0.74700004 1.7244576e-38
0.03775616 0.036331423 0.74799997 1.7242385e-38
0.039285693 0.036428563 0.75000006 1.7152707e-38
0.040822823 0.036525719 0.75200003 1.6598111e-38
0.042255215 0.036525726 0.75200003 1.5948815e-38
0.043919977 0.036719993 0.75600004 1.567583e-38
0.045599986 0.036914282 0.76000005 1.530921e-38
-0.035793349 0.038715251 0.76700002 1.1987974e-38
-0.034242865 0.038614273 0.76500005 1.2540454e-38
-0.032700013 0.038513344 0.76299995 1.3009327e-38
-0.031164786 0.038412388 0.76099998 1.4391893e-38
-0.02967621 0.038361903 0.76000005 1.5772311e-38
-0.028154314 0.038260967 0.75799996 1.7248151e-38
-0.026640002 0.03816 0.75600004 1.8626408e-38
-0.025100021 0.038008578 0.75300002 1.8998778e-38
-0.023665769 0.038008586 0.75299996 1.9363623e-38
-0.022201929 0.037958089 0.75199997 2.1295771e-38
-0.020714309 0.037857138 0.75 2.3231499e-38
-0.019234309 0.03775619 0.74800003 2.3325854e-38
-0.017785732 0.037705712 0.74700004 2.341769e-38
-0.016319091 0.037604764 0.745 2.341769e-38
-0.014900029 0.037604768 0.745 2.341769e-38
-0.013444793 0.037503816 0.74300003 2.341769e-38
-0.012029569 0.037503824 0.74299997 2.341769e-38
-0.010600018 0.037453339 0.74199998 2.341769e-38
-0.009161924 0.037352368 0.73999995 2.341769e-38
-0.007741903 0.037301891 0.73900002 2.341769e-38
-0.0063343253 0.037301891 0.73899996 2.341769e-38
-0.0049266834 0.037301905 0.73899996 2.341769e-38
-0.0035095417 0.037200943 0.73700005 2.341769e-38
-0.0021057369 0.037200943 0.73700005 2.341769e-38
-0.00070193299 0.037200943 0.73700005 2.341769e-38
0.00070188678 0.037200943 0.73700005 2.341769e-38
0.0021056898 0.037200958 0.73700005 2.341769e-38
0.0035047245 0.03715048 0.736 2.341769e-38
0.0049066255 0.037150495 0.736 2.341769e-38
0.0063171368 0.037200943 0.73700011 2.341769e-38
0.0077209417 0.037200935 0.73700011 2.341769e-38
0.0091247596 0.037200935 0.73700005 2.341769e-38
0.010528564 0.037200935 0.73700005 2.341769e-38
0.011932368 0.037200935 0.73700005 2.341769e-38
0.013336186 0.037200943 0.73700005 2.341769e-38
0.014739991 0.037200935 0.73700005 2.341769e-38
0.016143797 0.037200928 0.73700005 2.341769e-38
0.017547613 0.037200943 0.73700005 2.341769e-38
0.018925693 0.037150472 0.73600006 2.341769e-38
0.020355223 0.03720095 0.73700005 2.341769e-38
0.021759043 0.037200943 0.73700005 2.341769e-38
0.0232257 0.037301905 0.73900002 2.341769e-38
0.024633326 0.037301898 0.73900002 2.3417677e-38
0.026076181 0.037352368 0.74000001 2.3417663e-38
0.027559977 0.037453331 0.74200004 2.3395393e-38
0.02901235 0.037503812 0.74299997 1.5461639e-38
0.030427599 0.037503809 0.74300003 7.4805824e-39
0.03184282 0.037503812 0.74299997 1.2636667e-38
0.033347581 0.037604768 0.745 1.7800996e-38
0.034859985 0.037705716 0.74700004 1.8086206e-38
0.036331411 0.037756182 0.74800003 1.8260162e-38
0.03775616 0.037756186 0.74800003 1.7979605e-38
0.039285704 0.037857134 0.75000006 1.7612982e-38
0.040877108 0.038008578 0.75299996 1.7059817e-38
0.042479977 0.038160004 0.75600004 1.650702e-38
0.044036198 0.038260959 0.75800002 1.6137894e-38
0.045659978 0.038412385 0.76100004 1.5770539e-38
0.047109488 0.038412385 0.76100004 1.5493228e-38
-0.035793349 0.040176194 0.76700002 1.3181807e-38
-0.034242872 0.040071432 0.76500005 1.3463087e-38
-0.03278574 0.040071435 0.7650001 1.3740771e-38
-0.031164782 0.039861903 0.76100004 1.4479066e-38
-0.029715268 0.039861903 0.76100004 1.5304881e-38
-0.028154276 0.039704755 0.75800002 1.5767657e-38
-0.026640041 0.039600011 0.75600004 1.6323706e-38
-0.025100026 0.03944286 0.75299996 1.6232243e-38
-0.023665758 0.039442856 0.75300002 1.6142213e-38
-0.022201927 0.039390493 0.75199997 1.9087774e-38
-0.020714315 0.039285716 0.75000006 2.2131986e-38
-0.019285729 0.039285716 0.75 2.2774842e-38
-0.017785726 0.039128575 0.74700004 2.341769e-38
-0.016362863 0.039128561 0.74700004 2.341769e-38
-0.014900038 0.039023817 0.74500006 2.341769e-38
-0.013444777 0.038919039 0.74300003 2.341769e-38
-0.01202955 0.038919047 0.74299997 2.341769e-38
-0.010614305 0.038919054 0.74299997 2.341769e-38
-0.0091866767 0.038866661 0.74200004 2.341769e-38
-0.007752398 0.038761888 0.74000001 2.341769e-38
-0.0063342927 0.038709518 0.73900002 2.341769e-38
-0.0049266806 0.03870951 0.73900002 2.341769e-38
-0.0035190524 0.038709514 0.73900002 2.341769e-38
-0.0021057471 0.038604766 0.73700005 2.341769e-38
-0.00070192834 0.038604759 0.73699999 2.341769e-38
0.00070189609 0.038604744 0.73700011 2.341769e-38
0.002105701 0.038604755 0.73700011 2.341769e-38
0.003509518 0.038604759 0.73700011 2.341769e-38
0.0049133226 0.038604759 0.73700011 2.341769e-38
0.0063171275 0.038604759 0.73700005 2.341769e-38
0.0077104457 0.038552385 0.73600006 2.341769e-38
0.0091247503 0.038604755 0.73700005 2.341769e-38
0.010528552 0.038604751 0.73700005 2.341769e-38
0.011932372 0.038604744 0.73700005 2.341769e-38
0.013336177 0.038604748 0.73700005 2.341769e-38
0.01473998 0.038604751 0.73700005 2.341769e-38
0.016143801 0.038604748 0.73700005 2.341769e-38
0.017547606 0.038604766 0.73700005 2.341769e-38
0.01895141 0.038604759 0.73700005 2.341769e-38
0.020355226 0.038604755 0.73700005 2.341769e-38
0.021759035 0.038604751 0.73700005 2.341769e-38
0.023225693 0.038709518 0.73899996 2.2683006e-38
0.024633309 0.038709518 0.73900002 2.2040131e-38
0.026076172 0.038761903 0.74000001 1.7332818e-38
0.027559979 0.038866658 0.74200004 1.2733455e-38
0.029012354 0.038919054 0.74299997 1.0043625e-38
0.030427599 0.03891905 0.74300003 7.4432504e-39
0.03184282 0.03891905 0.74299997 1.2633825e-38
0.033347581 0.03902382 0.745 1.7811416e-38
0.034906633 0.039180957 0.74800003 1.7620933e-38
0.036331415 0.039180949 0.74800003 1.7434017e-38
0.037756179 0.039180953 0.74800003 1.7522605e-38
0.039285701 0.039285712 0.75000006 1.7524755e-38
0.040877096 0.039442874 0.75299996 1.715418e-38
0.042592362 0.039704762 0.75799996 1.6697165e-38
0.044152353 0.039809525 0.76000005 1.6417362e-38
0.045659959 0.039861917 0.76099998 1.6234022e-38
-0.035793327 0.041637145 0.76700002 1.4289967e-38
-0.03424288 0.041528579 0.76500005 1.4388643e-38
-0.032700032 0.041420013 0.76299995 1.4386498e-38
-0.031164795 0.041311443 0.76099998 1.4570893e-38
-0.029715279 0.041311443 0.76099998 1.4753136e-38
-0.028154286 0.041148577 0.75800002 1.4377909e-38
-0.026640031 0.04104 0.75600004 1.4019543e-38
-0.025100036 0.040877156 0.75299996 1.3463514e-38
-0.023634298 0.04082286 0.75200003 1.2920771e-38
-0.022201952 0.040822867 0.75199997 1.6964781e-38
-0.020714292 0.040714294 0.75 2.0930224e-38
-0.019285733 0.040714294 0.75 2.2223829e-38
-0.017809549 0.040605713 0.74800003 2.341769e-38
-0.016362885 0.040551417 0.74700004 2.341769e-38
-0.01490004 0.040442854 0.745 2.341769e-38
-0.013481006 0.040442862 0.745 2.341769e-38
-0.012029558 0.040334292 0.74299997 2.341769e-38
-0.010614314 0.040334292 0.74300003 2.341769e-38
-0.0091866953 0.040280018 0.74199998 2.341769e-38
-0.0077524241 0.040171422 0.74000001 2.341769e-38
-0.0063343085 0.040117137 0.73900002 2.341769e-38
-0.0049266824 0.04011713 0.73900002 2.341769e-38
-0.0035190673 0.040117126 0.73900002 2.341769e-38
-0.002105722 0.040008556 0.73700005 2.341769e-38
-0.00070191716 0.040008567 0.73700011 2.341769e-38
0.00070190168 0.040008567 0.73700005 2.341769e-38
0.0021057047 0.040008564 0.73700005 2.341769e-38
0.0035095096 0.04000856 0.73700005 2.341769e-38
0.0049133282 0.040008556 0.73700005 2.341769e-38
0.0063171312 0.04000856 0.73700005 2.341769e-38
0.0077209361 0.040008575 0.73700005 2.341769e-38
0.009124754 0.040008571 0.73700005 2.341769e-38
0.010528558 0.040008567 0.73700005 2.341769e-38
0.011932363 0.040008571 0.73700005 2.341769e-38
0.013336181 0.040008567 0.73700005 2.341769e-38
0.014739986 0.04000856 0.73700005 2.341769e-38
0.01614379 0.040008564 0.73700005 2.341769e-38
0.017547591 0.040008567 0.73700005 2.341769e-38
0.018951414 0.040008564 0.73700005 2.341769e-38
0.020410458 0.040117133 0.73900002 2.341769e-38
0.021818085 0.040117133 0.73900002 2.3417644e-38
0.0232257 0.040117126 0.73900002 2.2040064e-38
0.024633327 0.040117122 0.73900002 2.053194e-38
0.026076175 0.040171411 0.74000001 1.123143e-38
0.027485685 0.04017143 0.73999995 1.964996e-39
0.029012347 0.040334288 0.74299997 4.7196867e-39
0.030427592 0.040334292 0.74300003 7.3729361e-39
0.031842817 0.040334292 0.74299997 1.2552022e-38
0.033347577 0.040442873 0.745 1.770594e-38
0.034906648 0.040605702 0.74800003 1.7152068e-38
0.036331397 0.040605705 0.74800003 1.6603914e-38
0.037857138 0.04071429 0.75000006 1.7060571e-38
0.039390456 0.040822856 0.75200003 1.7429696e-38
0.040985689 0.040985722 0.755 1.7150593e-38
0.042704735 0.041257139 0.76000005 1.687653e-38
0.044152349 0.04125715 0.75999999 1.6783985e-38
0.045659963 0.041311428 0.76100004 1.6600304e-38
-0.035793357 0.0430981 0.76700002 1.4758506e-38
-0.034242887 0.042985722 0.76500005 1.5308817e-38
-0.032700017 0.042873353 0.76299995 1.5948069e-38
-0.03116479 0.042760961 0.76100004 1.6042405e-38
-0.029715275 0.042760964 0.76100004 1.6228589e-38
-0.028154299 0.042592384 0.75800002 1.6133526e-38
-0.026604803 0.042423829 0.755 1.6044919e-38
-0.025100023 0.042311426 0.75300002 1.576726e-38
-0.023634324 0.042255241 0.75200003 1.5581106e-38
-0.022201927 0.042255234 0.75200003 1.8439514e-38
-0.020714296 0.042142857 0.75 2.1389753e-38
-0.01928574 0.042142857 0.75000006 2.2405706e-38
-0.017809533 0.042030472 0.74800003 2.341769e-38
-0.016362859 0.041974287 0.74700004 2.341769e-38
-0.014900043 0.041861914 0.745 2.341769e-38
-0.013481007 0.041861914 0.745 2.341769e-38
-0.012029568 0.04174953 0.74299997 2.341769e-38
-0.010614323 0.041749522 0.74300003 2.341769e-38
-0.0091866935 0.041693345 0.74199998 2.341769e-38
-0.0077524027 0.041580953 0.74000001 2.341769e-38
-0.0063428702 0.041580945 0.74000001 2.341769e-38
-0.0049266769 0.041524757 0.73900002 2.341769e-38
-0.003519071 0.04152476 0.73899996 2.341769e-38
-0.0021057313 0.041412365 0.73700005 2.341769e-38
-0.00070191344 0.041412368 0.73700005 2.341769e-38
0.0007018905 0.041412368 0.73700005 2.341769e-38
0.0021056954 0.041412365 0.73700005 2.341769e-38
0.0035095133 0.041412361 0.73700005 2.341769e-38
0.004913317 0.04141238 0.73700005 2.341769e-38
0.0063171219 0.041412376 0.73700005 2.341769e-38
0.0077209398 0.041412368 0.73700005 2.341769e-38
0.0091247447 0.041412365 0.73700005 2.341769e-38
0.010528549 0.041412376 0.73700005 2.341769e-38
0.011932367 0.041412372 0.73700005 2.341769e-38
0.013336171 0.041412368 0.73700005 2.341769e-38
0.01477998 0.041524746 0.73900002 2.341769e-38
0.016187606 0.041524746 0.73900002 2.341769e-38
0.017595235 0.041524749 0.73900002 2.341769e-38
0.018951403 0.04141238 0.73700005 2.3325854e-38
0.020438071 0.041580949 0.74000001 2.0832664e-38
0.021818072 0.041524746 0.73899996 1.8274808e-38
0.023257133 0.041580942 0.74000001 1.8329242e-38
0.024666632 0.041580945 0.73999995 1.8459462e-38
0.026146652 0.04169333 0.74200004 1.4266597e-38
0.027559975 0.041693337 0.74199998 1.0124337e-38
0.029012354 0.041749537 0.74299997 1.0134043e-38
0.030509492 0.041861907 0.745 1.0103247e-38
0.032014266 0.041974291 0.74700004 1.2905359e-38
0.033437144 0.041974276 0.74700004 1.5685552e-38
0.034906652 0.042030469 0.74800003 1.6513881e-38
0.036428537 0.042142864 0.75 1.7432233e-38
0.037958067 0.042255249 0.75200003 1.7522988e-38
0.039442804 0.04231143 0.75299996 1.7615884e-38
0.041039977 0.042480007 0.75600004 1.6877237e-38
0.042592369 0.042592388 0.75799996 1.6140051e-38
0.044152353 0.042704768 0.76000005 1.6231177e-38
0.045659956 0.042760964 0.76099998 1.6321943e-38
0.047109488 0.042760957 0.76100004 1.6783639e-38
-0.035793357 0.04455905 0.76699996 1.5216966e-38
-0.034242891 0.044442847 0.76500005 1.6324054e-38
-0.032700032 0.044326678 0.76299995 1.7424278e-38
-0.031164804 0.044210482 0.76099998 1.7606148e-38
-0.02971529 0.044210486 0.76099998 1.7700855e-38
-0.028228592 0.04415239 0.75999999 1.7882015e-38
-0.02671048 0.044036195 0.75799996 1.7978868e-38
-0.025100032 0.043745723 0.75299996 1.8070698e-38
-0.02366576 0.043745726 0.75299996 1.8165071e-38
-0.022201927 0.043687623 0.75199997 2.0006471e-38
-0.020769561 0.043687623 0.75200003 2.1851449e-38
-0.019285744 0.043571427 0.75000006 2.2683006e-38
-0.017809546 0.043455232 0.74800003 2.341769e-38
-0.016362881 0.043397136 0.74700004 2.341769e-38
-0.014900044 0.043280967 0.745 2.341769e-38
-0.013480989 0.043280963 0.74500006 2.341769e-38
-0.012029549 0.043164771 0.74299997 2.341769e-38
-0.010614303 0.04316476 0.74300003 2.341769e-38
-0.0091866925 0.043106664 0.74199998 2.341769e-38
-0.0077733519 0.043106657 0.74200004 2.341769e-38
-0.0063428981 0.04299048 0.74000001 2.341769e-38
-0.0049333517 0.042990472 0.74000001 2.341769e-38
-0.0035190664 0.042932361 0.73900002 2.341769e-38
-0.0021057276 0.042816181 0.73700005 2.341769e-38
-0.00070192368 0.042816184 0.73700005 2.341769e-38
0.00070189609 0.042816181 0.73700005 2.341769e-38
0.002105701 0.042816177 0.73700005 2.341769e-38
0.003509504 0.042816184 0.73700005 2.341769e-38
0.0049133236 0.042816181 0.73700005 2.341769e-38
0.0063171256 0.042816177 0.73700005 2.341769e-38
0.0077209305 0.04281617 0.73700005 2.341769e-38
0.0091247503 0.042816177 0.73700005 2.341769e-38
0.010528552 0.04281617 0.73700005 2.341769e-38
0.011964738 0.042932373 0.73899996 2.341769e-38
0.013372351 0.042932373 0.73899996 2.341769e-38
0.014779978 0.042932369 0.73899996 2.341769e-38
0.016187593 0.042932384 0.73900002 2.3417686e-38
0.01759522 0.042932384 0.73900002 2.3325846e-38
0.019028561 0.04299048 0.74000001 2.3210266e-38
0.020438058 0.042990483 0.73999995 1.8128395e-38
0.021847589 0.042990476 0.73999995 1.3081047e-38
0.023257123 0.042990476 0.74000001 1.4726571e-38
0.024666639 0.042990468 0.74000001 1.6397549e-38
0.026146654 0.043106657 0.74200004 1.734317e-38
0.027559977 0.043106657 0.74199998 1.8247909e-38
0.029012356 0.04316476 0.74299997 1.5589001e-38
0.030509481 0.043280967 0.745 1.2908932e-38
0.032057118 0.043455236 0.74800003 1.3280241e-38
0.033481881 0.043455243 0.74800003 1.3665891e-38
0.034906629 0.043455243 0.74800003 1.5969684e-38
0.036331411 0.043455232 0.74800003 1.8170498e-38
0.037857108 0.043571435 0.75 1.7983233e-38
0.039442815 0.043745711 0.75300002 1.7799538e-38
0.041039988 0.043919995 0.75600004 1.6601708e-38
0.042704739 0.044152372 0.76000005 1.5311722e-38
0.044152346 0.044152379 0.75999999 1.5678722e-38
0.045659959 0.044210479 0.76100004 1.6046787e-38
0.047109473 0.044210479 0.76100004 1.6414136e-38
-0.035793334 0.046019997 0.76700002 1.3378823e-38
-0.034153342 0.045780007 0.76300001 1.521918e-38
-0.032614335 0.045660004 0.76099998 1.7154896e-38
-0.031123847 0.045600001 0.75999999 1.7889216e-38
-0.029676236 0.045600008 0.75999999 1.8719323e-38
-0.028154293 0.045480005 0.75800002 1.8718605e-38
-0.02671049 0.045480013 0.75799996 1.8723618e-38
-0.025200039 0.045359999 0.75600004 1.9180274e-38
-0.023665769 0.04518 0.75299996 1.9735976e-38
-0.022201953 0.045120005 0.75199997 2.1023492e-38
-0.020769559 0.045120001 0.75199997 2.2407491e-38
-0.019285722 0.045000006 0.75 2.2958513e-38
-0.017809551 0.044879995 0.74800003 2.341769e-38
-0.016362855 0.044819988 0.74700004 2.341769e-38
-0.014900026 0.044700004 0.74500006 2.341769e-38
-0.013480991 0.0447 0.745 2.341769e-38
-0.012061957 0.044700012 0.745 2.341769e-38
-0.010614312 0.044580001 0.74300003 2.341769e-38
-0.0091990875 0.044580009 0.74299997 2.341769e-38
-0.0077733509 0.044519998 0.74200004 2.341769e-38
-0.0063600307 0.044520006 0.74199998 2.341769e-38
-0.0049333442 0.044399995 0.74000001 2.341769e-38
-0.0035190692 0.044340007 0.73900002 2.341769e-38
-0.0021114422 0.04434 0.73900002 2.341769e-38
-0.00070191995 0.044220001 0.73700005 2.341769e-38
0.00070188491 0.044219997 0.73700005 2.341769e-38
0.0021056898 0.044220001 0.73700005 2.341769e-38
0.0035095077 0.044219993 0.73700005 2.341769e-38
0.0049133124 0.044219989 0.73700005 2.341769e-38
0.0063171163 0.044219993 0.73700005 2.341769e-38
0.0077209342 0.044219997 0.73700005 2.341769e-38
0.0091495002 0.044340003 0.73900002 2.341769e-38
0.010557128 0.044339996 0.73900002 2.341769e-38
0.011964741 0.04434 0.73900002 2.341769e-38
0.013372367 0.044339992 0.73900002 2.341769e-38
0.014779996 0.04434 0.73900002 2.341769e-38
0.01618761 0.044339992 0.73900002 2.3417682e-38
0.017595215 0.04434 0.73899996 2.2850875e-38
0.019028546 0.044399992 0.73999995 2.2183856e-38
0.020438062 0.044400007 0.74000001 1.7838395e-38
0.021847596 0.044399999 0.74000001 1.3500373e-38
0.023319976 0.044520002 0.74199998 1.6030281e-38
0.024733318 0.044519998 0.74200004 1.8550025e-38
0.026146639 0.044520009 0.74199998 1.7798127e-38
0.027597124 0.044579998 0.74300003 1.7169279e-38
0.029012347 0.044580001 0.74299997 1.7072072e-38
0.030509477 0.044700004 0.745 1.6978791e-38
0.032014269 0.044819992 0.74699998 1.7067745e-38
0.033481885 0.044879984 0.74800003 1.7166046e-38
0.034999974 0.045000013 0.75 1.8080822e-38
0.036428545 0.045000013 0.75 1.9092437e-38
0.037958056 0.045120012 0.75199997 1.9826749e-38
0.039547589 0.045300014 0.755 2.0557816e-38
0.041039981 0.045359999 0.75600004 1.8440907e-38
0.042704731 0.045600008 0.75999999 1.6316518e-38
0.044152346 0.045600012 0.75999999 1.6320127e-38
0.045659959 0.045660015 0.76099998 1.6231885e-38
0.047109492 0.045660004 0.76100004 1.6783979e-38
-0.034153376 0.047233343 0.76299995 1.4202851e-38
-0.032614328 0.047109529 0.76100004 1.6783228e-38
-0.031164812 0.047109537 0.76099998 1.8259429e-38
-0.029676219 0.04704763 0.76000005 1.9638039e-38
-0.028228609 0.047047637 0.76000005 1.9549792e-38
-0.026710501 0.046923816 0.75799996 1.9365045e-38
-0.02520003 0.046800002 0.75600004 2.0281965e-38
-0.023665754 0.046614289 0.75300002 2.1207151e-38
-0.02220195 0.046552382 0.75199997 2.2127317e-38
-0.020769557 0.046552382 0.75199997 2.2957071e-38
-0.019285725 0.04642858 0.75000006 2.3234019e-38
-0.017809534 0.046304755 0.74800003 2.341769e-38
-0.016384788 0.046304755 0.74800003 2.341769e-38
-0.014940015 0.046242848 0.74700004 2.341769e-38
-0.013480993 0.046119045 0.745 2.341769e-38
-0.012061938 0.046119053 0.74500006 2.341769e-38
-0.010614322 0.045995247 0.74300003 2.341769e-38
-0.0091990689 0.04599525 0.74299997 2.341769e-38
-0.0077838232 0.045995243 0.74299997 2.341769e-38
-0.0063600298 0.045933329 0.74199998 2.341769e-38
-0.0049333563 0.045809537 0.74000001 2.341769e-38
-0.0035238385 0.04580953 0.74000001 2.341769e-38
-0.002111458 0.045747623 0.73899996 2.341769e-38
-0.0007038301 0.045747615 0.73899996 2.341769e-38
0.00070378295 0.045747615 0.73899996 2.341769e-38
0.0021114119 0.045747608 0.73900002 2.341769e-38
0.0035190249 0.0457476 0.73900002 2.341769e-38
0.0049266508 0.045747608 0.73900002 2.341769e-38
0.0063342787 0.045747619 0.73900002 2.341769e-38
0.0077418918 0.045747612 0.73900002 2.341769e-38
0.0091495197 0.045747608 0.73900002 2.341769e-38
0.010557113 0.045747619 0.73899996 2.341769e-38
0.011964739 0.045747615 0.73899996 2.341769e-38
0.013372354 0.045747608 0.73900002 2.341769e-38
0.01477998 0.045747612 0.73900002 2.341769e-38
0.016209492 0.045809522 0.74000001 2.3407973e-38
0.017619023 0.045809519 0.74000001 2.2291566e-38
0.019028554 0.045809515 0.74000001 2.1164347e-38
0.020438088 0.045809511 0.74000001 1.7541067e-38
0.021906648 0.045933336 0.74199998 1.3984336e-38
0.023319976 0.045933329 0.74200004 1.7343249e-38
0.024733314 0.045933325 0.74200004 2.0553534e-38
0.026146637 0.045933329 0.74199998 1.8221764e-38
0.027597126 0.045995239 0.74300003 1.5963924e-38
0.029012349 0.045995243 0.74299997 1.8550409e-38
0.030509498 0.046119049 0.74500006 2.102745e-38
0.032057118 0.046304762 0.74800003 2.0846285e-38
0.033481885 0.046304751 0.74800003 2.0656157e-38
0.034999985 0.046428576 0.75 2.0278053e-38
0.036525685 0.046552382 0.75200003 1.9919678e-38
0.038008533 0.046614286 0.75300002 2.1672802e-38
0.0395476 0.046738103 0.755 2.3319727e-38
0.04103997 0.046799995 0.75600004 2.0379542e-38
0.042592384 0.046923805 0.75800002 1.7337488e-38
0.04415236 0.047047623 0.76000005 1.6868982e-38
0.045659967 0.047109526 0.76100004 1.6415193e-38
0.047109485 0.047109526 0.76099998 1.7153112e-38
0.04855901 0.047109533 0.76099998 1.7795603e-38
-0.034242887 0.048814286 0.76500005 1.3373778e-38
-0.032785751 0.048814282 0.76500005 1.5402806e-38
-0.031123834 0.048495233 0.76000005 1.6231516e-38
-0.029676223 0.048495237 0.75999999 1.7064496e-38
-0.028228594 0.048495233 0.76000005 1.8811165e-38
-0.026710466 0.048367627 0.75800002 2.0557127e-38
-0.025200019 0.048240006 0.75600004 2.1205366e-38
-0.023728607 0.048176207 0.755 2.1948308e-38
-0.022231465 0.048048582 0.75299996 2.2312786e-38
-0.020769533 0.047984771 0.75200003 2.2681926e-38
-0.019337188 0.047984775 0.75199997 2.3049989e-38
-0.017809547 0.047729518 0.74800003 2.341769e-38
-0.016384771 0.047729522 0.74800003 2.341769e-38
-0.014940009 0.047665715 0.74700004 2.341769e-38
-0.013480974 0.04753809 0.74500006 2.341769e-38
-0.012061941 0.047538113 0.745 2.341769e-38
-0.010614303 0.047410484 0.74300003 2.341769e-38
-0.0091990782 0.047410488 0.74299997 2.341769e-38
-0.007783833 0.047410481 0.74299997 2.341769e-38
-0.0063600279 0.04734667 0.74200004 2.341769e-38
-0.0049466873 0.047346663 0.74200004 2.341769e-38
-0.0035333519 0.047346666 0.74199998 2.341769e-38
-0.0021114394 0.047155228 0.73900002 2.341769e-38
-0.0007038273 0.047155235 0.73900002 2.341769e-38
0.00070380158 0.047155231 0.73900002 2.341769e-38
0.0021114137 0.047155235 0.73900002 2.341769e-38
0.0035190203 0.047155242 0.73899996 2.341769e-38
0.004926648 0.047155235 0.73899996 2.341769e-38
0.006334261 0.047155235 0.73900002 2.341769e-38
0.0077418899 0.047155231 0.73900002 2.341769e-38
0.009149503 0.047155242 0.73900002 2.341769e-38
0.010557129 0.047155239 0.73900002 2.341769e-38
0.011964757 0.047155239 0.73900002 2.341769e-38
0.01337237 0.047155231 0.73900002 2.341769e-38
0.014779978 0.047155242 0.73899996 2.3046761e-38
0.0162095 0.047219045 0.74000001 2.2760439e-38
0.017619031 0.047219042 0.74000001 2.1825169e-38
0.019028546 0.047219049 0.73999995 2.0988218e-38
0.020438077 0.047219045 0.74000001 1.9500525e-38
0.02190665 0.047346674 0.74199998 1.8021546e-38
0.023319991 0.04734667 0.74200004 1.9905682e-38
0.024733311 0.047346674 0.74199998 2.1853929e-38
0.026181884 0.047410481 0.74299997 1.9356765e-38
0.027597111 0.047410488 0.74299997 1.6985581e-38
0.029090438 0.047538113 0.745 1.8917033e-38
0.030591415 0.047665711 0.74700004 2.0938132e-38
0.032142837 0.047857139 0.75 1.9649924e-38
0.033571407 0.047857143 0.75 1.8364577e-38
0.034999978 0.047857139 0.75 1.80783e-38
0.036525682 0.047984768 0.75199997 1.7808183e-38
0.03800853 0.048048582 0.75299996 2.0567561e-38
0.039547581 0.048176218 0.755 2.3321908e-38
0.041039981 0.048240002 0.75600004 2.1391928e-38
0.042479977 0.048239995 0.75600004 1.9457975e-38
0.044152342 0.048495244 0.75999999 1.7702669e-38
0.045659952 0.048559062 0.76099998 1.6049282e-38
0.047233302 0.048686679 0.76299995 1.6692497e-38
0.048686638 0.048686676 0.76299995 1.7333916e-38
-0.034242895 0.05027144 0.76500005 1.2635152e-38
-0.032700028 0.050140016 0.76299995 1.4018443e-38
-0.031246701 0.050140016 0.76299995 1.4199622e-38
-0.029676206 0.049942862 0.76000005 1.4392641e-38
-0.028228598 0.049942866 0.76000005 1.8073258e-38
-0.026710477 0.04981143 0.75800002 2.1663465e-38
-0.025200011 0.049679995 0.75600004 2.2126244e-38
-0.023728615 0.049614292 0.755 2.2588291e-38
-0.022231473 0.049482863 0.75299996 2.2493946e-38
-0.020769559 0.049417149 0.75200003 2.2405702e-38
-0.019337164 0.049417146 0.75200003 2.2958513e-38
-0.017857151 0.049285714 0.75000006 2.341769e-38
-0.016384784 0.049154282 0.74800003 2.341769e-38
-0.014940012 0.04908856 0.74700004 2.341769e-38
-0.013517168 0.04908856 0.74700004 2.341769e-38
-0.012061941 0.048957154 0.745 2.341769e-38
-0.010642887 0.048957143 0.74500006 2.341769e-38
-0.0091990875 0.048825711 0.74299997 2.341769e-38
-0.0077838423 0.048825707 0.74299997 2.341769e-38
-0.0063685961 0.048825715 0.74300003 2.341769e-38
-0.0049533714 0.048825718 0.74299997 2.341769e-38
-0.003538111 0.048825715 0.74300003 2.341769e-38
-0.0021143116 0.048628561 0.74000001 2.341769e-38
-0.00070478191 0.048628561 0.74000001 2.341769e-38
0.00070473197 0.048628569 0.73999995 2.341769e-38
0.0021142645 0.048628584 0.74000001 2.341769e-38
0.0035237821 0.048628576 0.74000001 2.341769e-38
0.0049266517 0.04856284 0.73900002 2.341769e-38
0.0063342797 0.048562858 0.73900002 2.341769e-38
0.0077418722 0.048562866 0.73899996 2.341769e-38
0.0091494983 0.048562858 0.73899996 2.341769e-38
0.010557113 0.048562862 0.73900002 2.341769e-38
0.011964739 0.048562858 0.73900002 2.341769e-38
0.013372368 0.048562855 0.73900002 2.341769e-38
0.014779981 0.048562851 0.73900002 2.2774842e-38
0.016209485 0.048628565 0.73999995 2.2022866e-38
0.017619019 0.048628561 0.74000001 2.1351963e-38
0.019079993 0.048759997 0.74200004 2.071091e-38
0.020493312 0.048760004 0.74199998 2.1359142e-38
0.021906653 0.048759997 0.74199998 2.2008152e-38
0.023351407 0.048825707 0.74300003 2.258721e-38
0.024766633 0.048825711 0.74299997 2.3134979e-38
0.026181879 0.048825704 0.74300003 2.0548862e-38
0.027597101 0.048825711 0.74299997 1.7898211e-38
0.029168546 0.049088567 0.74699998 1.9376927e-38
0.030632352 0.049154297 0.74799997 2.0841271e-38
0.032142833 0.049285725 0.75000006 1.8450677e-38
0.033571403 0.049285721 0.75 1.6057202e-38
0.035093293 0.049417146 0.75199997 1.5862397e-38
0.036574256 0.049482852 0.75300002 1.5597663e-38
0.038008541 0.049482852 0.75300002 1.9466603e-38
0.039547589 0.049614303 0.755 2.3322262e-38
0.040985681 0.049614299 0.755 2.2407495e-38
0.042479988 0.049679995 0.75600004 2.1474411e-38
0.043919981 0.049680006 0.75600004 1.8618163e-38
0.04565997 0.050008588 0.76100004 1.5681586e-38
0.047109488 0.050008588 0.76099998 1.6325158e-38
-0.034242902 0.051728584 0.76500005 1.2727351e-38
-0.03278574 0.051728584 0.76500005 1.4386488e-38
-0.031246686 0.051593345 0.76299995 1.4292858e-38
-0.029793363 0.051593341 0.76299995 1.4202858e-38
-0.028340012 0.051593345 0.76299995 1.8260521e-38
-0.026710486 0.051255234 0.75800002 2.2407484e-38
-0.025266686 0.051255237 0.75800002 2.2681571e-38
-0.023760037 0.051119998 0.75600004 2.3050344e-38
-0.022290507 0.051052388 0.755 2.2957069e-38
-0.020797161 0.050917149 0.75300002 2.2957432e-38
-0.019337162 0.050849527 0.75199997 2.3141825e-38
-0.017857155 0.050714292 0.75000006 2.341769e-38
-0.01638479 0.05057906 0.74800003 2.341769e-38
-0.014940007 0.050511435 0.74700004 2.341769e-38
-0.013517163 0.050511435 0.74699998 2.341769e-38
-0.012061944 0.050376207 0.745 2.341769e-38
-0.010642889 0.050376199 0.745 2.341769e-38
-0.0091990689 0.050240956 0.74299997 2.341769e-38
-0.0077838236 0.050240949 0.74299997 2.341769e-38
-0.0063685989 0.050240971 0.74299997 2.341769e-38
-0.0049533527 0.05024096 0.74299997 2.341769e-38
-0.0035381212 0.050240953 0.74300003 2.341769e-38
-0.0021143106 0.050038099 0.73999995 2.341769e-38
-0.00070479215 0.050038092 0.74000001 2.341769e-38
0.00070473849 0.050038092 0.74000001 2.341769e-38
0.0021142701 0.050038084 0.74000001 2.341769e-38
0.0035237896 0.050038084 0.74000001 2.341769e-38
0.0049333014 0.050038088 0.73999995 2.341769e-38
0.0063428311 0.050038099 0.74000001 2.341769e-38
0.0077418899 0.04997047 0.73900002 2.341769e-38
0.0091618812 0.050038096 0.74000001 2.341769e-38
0.010557132 0.049970467 0.73900002 2.341769e-38
0.01196476 0.049970463 0.73900002 2.341769e-38
0.013372352 0.04997047 0.73899996 2.341769e-38
0.014799975 0.050038092 0.74000001 2.2956e-38
0.016209507 0.050038088 0.74000001 2.2489557e-38
0.017619042 0.050038084 0.74000001 1.998336e-38
0.01907997 0.050173335 0.74199998 1.7399444e-38
0.020493308 0.050173327 0.74199998 1.8236757e-38
0.021906652 0.050173324 0.74200004 1.8993379e-38
0.023351407 0.050240949 0.74300003 2.1116769e-38
0.024766633 0.050240949 0.74299997 2.3233648e-38
0.026181882 0.050240945 0.74300003 1.9455475e-38
0.027671412 0.050376199 0.74500006 1.5691303e-38
0.029168559 0.050511431 0.74700004 1.6517469e-38
0.030591404 0.050511431 0.74700004 1.7343627e-38
0.032057118 0.05057906 0.74800003 1.6607863e-38
0.033571411 0.050714284 0.75 1.5867422e-38
0.0350933 0.050849516 0.75200003 1.5681223e-38
0.036574244 0.050917149 0.75299996 1.5589761e-38
0.03800853 0.050917145 0.75300002 1.7526928e-38
0.039547592 0.051052392 0.755 1.9552336e-38
0.040985666 0.051052395 0.755 1.9086705e-38
0.042423777 0.051052392 0.755 1.8709305e-38
0.043919977 0.051120009 0.75600004 1.7516863e-38
0.045659956 0.051458109 0.76099998 1.6325517e-38
-0.034242906 0.053185713 0.76500005 1.2819907e-38
-0.032785747 0.053185713 0.76500005 1.4750957e-38
-0.031246675 0.053046674 0.76299995 1.4381816e-38
-0.02979335 0.05304667 0.76299995 1.4023848e-38
-0.028340027 0.053046674 0.76299995 1.8542489e-38
-0.026710471 0.052699056 0.75800002 2.304854e-38
-0.02526667 0.052699059 0.75799996 2.3234019e-38
-0.023760026 0.05255999 0.75600004 2.3417689e-38
-0.022290515 0.052490491 0.755 2.3417686e-38
-0.020797169 0.05235143 0.75299996 2.341733e-38
-0.019337188 0.052281909 0.75199997 2.341769e-38
-0.01785716 0.05214287 0.75000006 2.341769e-38
-0.016384773 0.052003808 0.74800003 2.341769e-38
-0.014960025 0.052003808 0.74800003 2.341769e-38
-0.013517165 0.051934294 0.74700004 2.341769e-38
-0.012094294 0.051934294 0.74700004 2.341769e-38
-0.010642891 0.05179524 0.745 2.341769e-38
-0.0092238365 0.051795233 0.74500006 2.341769e-38
-0.0078048026 0.051795237 0.745 2.341769e-38
-0.0063857678 0.051795255 0.745 2.341769e-38
-0.0049667126 0.051795248 0.745 2.341769e-38
-0.0035476645 0.051795259 0.745 2.341769e-38
-0.0021200271 0.05158668 0.74199998 2.341769e-38
-0.00070668646 0.051586673 0.74199998 2.341769e-38
0.00070665422 0.051586665 0.74200004 2.341769e-38
0.0021199745 0.051586673 0.74199998 2.341769e-38
0.0035333151 0.051586669 0.74199998 2.341769e-38
0.0049333069 0.051447615 0.74000001 2.341769e-38
0.0063428385 0.051447608 0.74000001 2.341769e-38
0.0077523561 0.051447604 0.74000001 2.341769e-38
0.0091618681 0.051447626 0.73999995 2.341769e-38
0.010571401 0.051447626 0.74000001 2.3417682e-38
0.011980933 0.051447622 0.74000001 2.3417673e-38
0.013390453 0.051447615 0.74000001 2.3414785e-38
0.014839968 0.051586676 0.74199998 2.3233966e-38
0.016253309 0.051586669 0.74199998 2.2937588e-38
0.017666651 0.051586665 0.74200004 1.8508612e-38
0.019105686 0.051656194 0.74300003 1.4094026e-38
0.020520942 0.051656187 0.74300003 1.5010561e-38
0.021936169 0.051656194 0.74299997 1.5950903e-38
0.023351418 0.05165619 0.74300003 1.9652409e-38
0.024833301 0.051795248 0.745 2.3224297e-38
0.026252337 0.051795248 0.745 1.8348036e-38
0.027745692 0.051934287 0.74700004 1.3475386e-38
0.029207608 0.052003805 0.74800003 1.3657278e-38
0.030632356 0.052003808 0.74800003 1.384813e-38
0.032142837 0.052142866 0.75000006 1.477008e-38
0.033660922 0.052281898 0.75199997 1.5593003e-38
0.035093307 0.052281898 0.75200003 1.558869e-38
0.036574241 0.052351445 0.75299996 1.5589766e-38
0.038109493 0.052490477 0.755 1.5681962e-38
0.039547578 0.052490488 0.755 1.5683756e-38
0.041039977 0.052559994 0.75600004 1.5768777e-38
0.042479973 0.052560002 0.75600004 1.5863825e-38
0.044036187 0.052699048 0.75800002 1.6414824e-38
0.045659967 0.05290762 0.76100004 1.6875808e-38
0.047109481 0.052907623 0.76099998 1.7060928e-38
-0.034242887 0.054642856 0.76500005 1.2727355e-38
-0.032785755 0.05464286 0.76500005 1.4476166e-38
-0.031246686 0.054500002 0.76300001 1.4383601e-38
-0.029793335 0.054499999 0.76299995 1.4386883e-38
-0.028340012 0.054499999 0.76299995 1.8721859e-38
-0.026816228 0.054357149 0.76100004 2.3142172e-38
-0.025266681 0.054142863 0.75799996 2.3234019e-38
-0.023760019 0.053999994 0.75600004 2.341769e-38
-0.022290515 0.053928591 0.755 2.341769e-38
-0.020797178 0.053785726 0.75299996 2.341769e-38
-0.019337187 0.053714301 0.75199997 2.341769e-38
-0.017857166 0.053571437 0.75000006 2.341769e-38
-0.016384786 0.053428568 0.74800003 2.341769e-38
-0.014960011 0.053428572 0.74800003 2.341769e-38
-0.013517139 0.053357143 0.74700004 2.341769e-38
-0.012094296 0.053357143 0.74700004 2.341769e-38
-0.010642892 0.053214297 0.745 2.341769e-38
-0.0092238383 0.053214293 0.745 2.341769e-38
-0.0078048036 0.053214297 0.745 2.341769e-38
-0.0063857492 0.053214286 0.74500006 2.341769e-38
-0.0049667154 0.053214293 0.745 2.341769e-38
-0.0035476459 0.053214282 0.74500006 2.341769e-38
-0.0021200271 0.053000003 0.74199998 2.341769e-38
-0.00070668646 0.052999996 0.74199998 2.341769e-38
0.00070665329 0.052999988 0.74200004 2.341769e-38
0.0021199763 0.052999999 0.74199998 2.341769e-38
0.003533317 0.052999996 0.74200004 2.341769e-38
0.0049466575 0.052999988 0.74200004 2.341769e-38
0.0063428283 0.052857142 0.73999995 2.3324061e-38
