# .PCD v0.7 - Point Cloud Data file format
VERSION 0.7
FIELDS x y z rgb
SIZE 4 4 4 4
TYPE F F F F
COUNT 1 1 1 1
WIDTH 984
HEIGHT 1
VIEWPOINT 0 0 0 1 0 0 0
POINTS 984
DATA ascii
0.012013339 0.041693326 0.74199998 2.341769e-38
0.013426648 0.04169333 0.74199998 2.341769e-38
0.01483998 0.041693341 0.74199998 2.341769e-38
0.01625333 0.041693337 0.74199998 2.341769e-38
0.017666638 0.041693337 0.74199998 2.341769e-38
0.019105712 0.041749518 0.74300003 2.341769e-38
0.020520967 0.041749522 0.74300003 2.341769e-38
0.021906652 0.041693345 0.74199998 2.341769e-38
0.023351418 0.041749537 0.74299997 2.341769e-38
0.024733325 0.04169333 0.74199998 2.341769e-38
0.026181903 0.041749526 0.74299997 2.341769e-38
0.027597135 0.041749518 0.74300003 2.341769e-38
0.029168591 0.041974284 0.74700004 2.341769e-38
0.030632343 0.042030461 0.74799997 2.341769e-38
0.032057136 0.042030461 0.74799997 2.341769e-38
0.033571396 0.042142849 0.75000006 2.341769e-38
0.035 0.042142846 0.75000006 2.341769e-38
0.036428578 0.042142842 0.75000006 2.341769e-38
0.037958104 0.042255227 0.75200003 2.341769e-38
0.03944286 0.042311411 0.75300002 2.3417661e-38
0.041040011 0.042479992 0.75600004 1.9916043e-38
0.042592362 0.04259238 0.75800002 1.6505589e-38
0.044210482 0.042760946 0.76100004 1.6598874e-38
0.045779962 0.04287333 0.76300001 1.6693933e-38
0.047357142 0.042985704 0.76500005 1.6969077e-38
-0.036026705 0.044849526 0.77199996 1.2358173e-38
-0.034556177 0.044849522 0.77199996 1.4761711e-38
-0.033000007 0.044733319 0.77000004 1.7149447e-38
-0.031451441 0.04461715 0.76800001 1.6782476e-38
-0.029949555 0.044559043 0.76699996 1.632367e-38
-0.028414268 0.04444284 0.76500005 1.7152712e-38
-0.02688669 0.044326652 0.76300001 1.7980324e-38
-0.025266681 0.044036191 0.75800002 1.8533147e-38
-0.023822866 0.044036191 0.75800002 1.9084162e-38
-0.02232001 0.043919981 0.75600004 1.9357159e-38
-0.020852411 0.043861896 0.75500005 1.9550172e-38
-0.019414291 0.043861888 0.75500005 2.14877e-38
-0.017904796 0.043687616 0.75200003 2.341661e-38
-0.016428569 0.04357142 0.75000006 2.341769e-38
-0.01496003 0.043455232 0.74799997 2.3417687e-38
-0.013535256 0.043455217 0.74799997 2.3417683e-38
-0.012094279 0.043397121 0.74700004 2.3324404e-38
-0.010671409 0.043397129 0.74700004 2.3325831e-38
-0.0092485594 0.043397129 0.74700004 2.3324763e-38
-0.0078047994 0.043280952 0.745 2.3417683e-38
-0.0063857599 0.043280952 0.745 2.3415885e-38
-0.0049666963 0.043280959 0.745 2.3417676e-38
-0.0035476566 0.043280937 0.745 2.3416607e-38
-0.0021200099 0.04310666 0.74199998 2.341769e-38
-0.00070669997 0.043106668 0.74199998 2.341769e-38
0.00070664723 0.04310666 0.74200004 2.341769e-38
0.0021199796 0.043106668 0.74199998 2.341769e-38
0.0035333268 0.043106664 0.74200004 2.341769e-38
0.0049466589 0.043106668 0.74199998 2.341769e-38
0.0063599669 0.043106671 0.74199998 2.341769e-38
0.0077733365 0.043106653 0.74200004 2.341769e-38
0.0091866469 0.04310666 0.74199998 2.341769e-38
0.010599979 0.043106668 0.74199998 2.341769e-38
0.012013325 0.043106664 0.74200004 2.341769e-38
0.013444741 0.043164771 0.74299997 2.341769e-38
0.014859996 0.043164771 0.74299997 2.341769e-38
0.016275227 0.043164756 0.74300003 2.341769e-38
0.017690482 0.043164756 0.74299997 2.341769e-38
0.01910571 0.043164756 0.74300003 2.341769e-38
0.020520944 0.043164756 0.74300003 2.341769e-38
0.021936201 0.04316476 0.74300003 2.341769e-38
0.023351433 0.04316476 0.74300003 2.341769e-38
0.024766687 0.043164745 0.74300003 2.341769e-38
0.026181882 0.043164752 0.74299997 2.341769e-38
0.027597111 0.043164752 0.74299997 2.341769e-38
0.029168574 0.04339714 0.74700004 2.341769e-38
0.030632375 0.043455232 0.74800003 2.341769e-38
0.03205711 0.043455228 0.74799997 2.341769e-38
0.033571418 0.04357142 0.75000006 2.341769e-38
0.035093304 0.043687616 0.75199997 2.341769e-38
0.036525689 0.043687597 0.75200003 2.341769e-38
0.038008574 0.0437457 0.75300002 2.341769e-38
0.039442848 0.043745704 0.75299996 2.3415151e-38
0.041039988 0.043919984 0.75600004 1.9826006e-38
0.042592388 0.044036191 0.75800002 1.6231159e-38
0.044152386 0.044152368 0.76000005 1.6412687e-38
0.045900017 0.044442832 0.76500005 1.6507388e-38
0.047357138 0.04444284 0.76500005 1.6416626e-38
-0.036026664 0.046320003 0.77199996 1.1627083e-38
-0.03446671 0.046199992 0.77000004 1.4204609e-38
-0.032914281 0.046079993 0.76800001 1.6873941e-38
-0.031410478 0.046020001 0.76699996 1.6690273e-38
-0.029949512 0.046019997 0.76699996 1.6507335e-38
-0.028414268 0.04589998 0.76500005 1.7151991e-38
-0.026886713 0.045779996 0.76299995 1.7796653e-38
-0.025433358 0.045779996 0.76300001 1.8256209e-38
-0.023822883 0.045479994 0.75799996 1.8806863e-38
-0.022320006 0.045359984 0.75600004 1.9269269e-38
-0.020880001 0.04535998 0.75600004 1.9826393e-38
-0.01941428 0.045299992 0.75500005 2.1114973e-38
-0.017904758 0.045119982 0.75200003 2.2404623e-38
-0.016428553 0.044999994 0.75000006 2.2957795e-38
-0.015000012 0.045000002 0.75000006 2.341769e-38
-0.013535262 0.044880003 0.74799997 2.3325854e-38
-0.01211049 0.044879984 0.74799997 2.3234019e-38
-0.010671427 0.044819996 0.74700004 2.3325854e-38
-0.009248578 0.044819988 0.74700004 2.341769e-38
-0.0078257071 0.044819996 0.74700004 2.341769e-38
-0.0063857376 0.0447 0.745 2.341769e-38
-0.0049666981 0.0447 0.74500006 2.341769e-38
-0.0035476342 0.044699997 0.745 2.341769e-38
-0.002120021 0.044519998 0.74199998 2.341769e-38
-0.00070671301 0.044520002 0.74199998 2.341769e-38
0.00070665654 0.044519994 0.74200004 2.341769e-38
0.0021199665 0.044519998 0.74199998 2.341769e-38
0.0035333361 0.044520002 0.74200004 2.341769e-38
0.0049466458 0.044519987 0.74199998 2.341769e-38
0.0063599781 0.044519994 0.74199998 2.341769e-38
0.0077733253 0.044519991 0.74200004 2.341769e-38
0.0091866562 0.044520002 0.74199998 2.341769e-38
0.010599966 0.044519998 0.74199998 2.341769e-38
0.012013336 0.044519994 0.74199998 2.341769e-38
0.01344478 0.044579994 0.74300003 2.341769e-38
0.014860011 0.044579994 0.74300003 2.341769e-38
0.016253324 0.044520006 0.74199998 2.341769e-38
0.017690461 0.044580009 0.74299997 2.341769e-38
0.019105695 0.044579994 0.74300003 2.341769e-38
0.020520948 0.044579998 0.74300003 2.341769e-38
0.02193618 0.044579994 0.74300003 2.341769e-38
0.023351435 0.044579998 0.74300003 2.341769e-38
0.024766669 0.044579998 0.74300003 2.341769e-38
0.026181925 0.044580001 0.74300003 2.341769e-38
0.027597157 0.044579986 0.74300003 2.341769e-38
0.029168576 0.044820003 0.74700004 2.341769e-38
0.030632371 0.04487998 0.74799997 2.341769e-38
0.032142852 0.044999998 0.75000006 2.341769e-38
0.03357143 0.044999998 0.75000006 2.341769e-38
0.035000011 0.044999991 0.75000006 2.341769e-38
0.036525693 0.045119993 0.75199997 2.341769e-38
0.038008586 0.045179982 0.75300002 2.3325854e-38
0.0395476 0.045299988 0.75500005 2.3142158e-38
0.041039996 0.045359988 0.75600004 1.9728077e-38
0.042479996 0.045359988 0.75600004 1.6221114e-38
0.044036157 0.045479991 0.75800002 1.6319052e-38
0.045900017 0.045899987 0.76500005 1.6414472e-38
0.047480952 0.046019994 0.76699996 1.6508458e-38
0.048941899 0.04601999 0.76700002 1.6693217e-38
-0.034377161 0.047542851 0.76800001 1.3647512e-38
-0.032871451 0.047480948 0.76700002 1.6504094e-38
-0.031328566 0.047357131 0.76499999 1.6596644e-38
-0.029871428 0.047357123 0.76500005 1.6598097e-38
-0.028414268 0.04735712 0.76500005 1.7059445e-38
-0.026957147 0.047357127 0.76500005 1.751935e-38
-0.02543338 0.047233339 0.76299995 1.7980331e-38
-0.023917152 0.047109522 0.76099998 1.8441665e-38
-0.022379071 0.046923801 0.75800002 1.9270701e-38
-0.020879999 0.04679998 0.75600004 2.0008268e-38
-0.019414332 0.046738096 0.75500005 2.0741531e-38
-0.017904758 0.04655236 0.75200003 2.1392996e-38
-0.016472373 0.04655236 0.75200003 2.24075e-38
-0.014999996 0.046428561 0.75000006 2.341769e-38
-0.013571414 0.046428557 0.75000006 2.3234018e-38
-0.012142872 0.046428561 0.75000006 2.3049988e-38
-0.010685723 0.046304747 0.74799997 2.3234019e-38
-0.0092485733 0.046242855 0.74700004 2.341769e-38
-0.0078257257 0.046242859 0.74700004 2.341769e-38
-0.0063857394 0.046119038 0.74500006 2.341769e-38
-0.0049666758 0.046119045 0.74500006 2.341769e-38
-0.0035476361 0.046119031 0.74500006 2.341769e-38
-0.0021200117 0.045933332 0.74199998 2.341769e-38
-0.00070666644 0.045933329 0.74200004 2.341769e-38
0.00070664351 0.045933336 0.74200004 2.341769e-38
0.002119974 0.04593334 0.74199998 2.341769e-38
0.0035333231 0.045933336 0.74200004 2.341769e-38
0.0049466533 0.045933336 0.74199998 2.341769e-38
0.0063599632 0.045933343 0.74199998 2.341769e-38
0.0077733328 0.045933329 0.74199998 2.341769e-38
0.0091866432 0.045933329 0.74199998 2.341769e-38
0.010614269 0.045995228 0.74300003 2.341769e-38
0.012029526 0.045995232 0.74300003 2.341769e-38
0.013444758 0.045995235 0.74300003 2.341769e-38
0.014860014 0.045995239 0.74300003 2.341769e-38
0.016275244 0.045995239 0.74300003 2.341769e-38
0.017690498 0.045995235 0.74300003 2.341769e-38
0.019105695 0.045995247 0.74299997 2.341769e-38
0.020520927 0.045995247 0.74300003 2.341769e-38
0.021936182 0.04599525 0.74299997 2.341769e-38
0.023351412 0.04599525 0.74300003 2.341769e-38
0.024766669 0.045995235 0.74299997 2.341769e-38
0.026181901 0.045995235 0.74300003 2.341769e-38
0.027671402 0.046119038 0.74500006 2.341769e-38
0.029168582 0.046242852 0.74700004 2.341769e-38
0.030632345 0.046304762 0.74799997 2.341769e-38
0.032057114 0.046304762 0.74800003 2.341769e-38
0.033571426 0.046428569 0.75000006 2.341769e-38
0.034999993 0.046428576 0.75000006 2.341769e-38
0.036525708 0.046552353 0.75200003 2.341769e-38
0.038008571 0.046614274 0.75300002 2.3142183e-38
0.039547592 0.046738088 0.75500005 2.2860922e-38
0.040985696 0.046738099 0.75500005 1.9539403e-38
0.042479999 0.046799991 0.75600004 1.6231878e-38
0.044036184 0.046923801 0.75800002 1.6319753e-38
0.045900021 0.047357131 0.76500005 1.6323345e-38
0.047480971 0.047480945 0.76700002 1.6692845e-38
0.04894188 0.047480945 0.76699996 1.6969801e-38
-0.034377173 0.04900571 0.76800001 1.3837295e-38
-0.032871407 0.048941899 0.76700002 1.6418723e-38
-0.031410478 0.048941903 0.76699996 1.6414407e-38
-0.029871428 0.048814278 0.76500005 1.6412277e-38
-0.028414268 0.048814271 0.76500005 1.6782151e-38
-0.026957108 0.048814274 0.76500005 1.7149493e-38
-0.025433386 0.048686657 0.76300001 1.7888482e-38
-0.023917118 0.048559036 0.76100004 1.8719317e-38
-0.022379085 0.04836762 0.75800002 1.9272851e-38
-0.020880019 0.04823998 0.75600004 1.9918583e-38
-0.019439992 0.048239984 0.75600004 2.1114251e-38
-0.017928571 0.048048567 0.75300002 2.2406415e-38
-0.016472396 0.047984745 0.75200003 2.2958154e-38
-0.015040022 0.047984757 0.75199997 2.3417689e-38
-0.013571422 0.047857124 0.75000012 2.3325493e-38
-0.012142857 0.047857136 0.75000006 2.3232583e-38
-0.010685751 0.047729511 0.74799997 2.3233659e-38
-0.0092485696 0.047665723 0.74700004 2.3325854e-38
-0.0078257201 0.047665723 0.74700004 2.341769e-38
-0.0063857562 0.047538098 0.745 2.341769e-38
-0.0049667149 0.047538094 0.745 2.341769e-38
-0.0035476529 0.047538102 0.745 2.341769e-38
-0.0021200248 0.047346666 0.74199998 2.341769e-38
-0.00070665526 0.047346663 0.74200004 2.341769e-38
0.00070665468 0.04734667 0.74199998 2.341769e-38
0.0021199647 0.047346659 0.74199998 2.341769e-38
0.0035333342 0.047346655 0.74200004 2.341769e-38
0.004946644 0.047346663 0.74199998 2.341769e-38
0.0063599744 0.047346666 0.74199998 2.341769e-38
0.0077733216 0.047346659 0.74200004 2.341769e-38
0.0091866544 0.047346666 0.74199998 2.341769e-38
0.010599962 0.047346674 0.74199998 2.341769e-38
0.012029503 0.047410484 0.74300003 2.341769e-38
0.013444758 0.047410473 0.74299997 2.341769e-38
0.01485999 0.047410473 0.74300003 2.341769e-38
0.016275244 0.047410473 0.74300003 2.341769e-38
0.017690476 0.04741047 0.74300003 2.341769e-38
0.019105732 0.047410477 0.74300003 2.341769e-38
0.020520965 0.047410477 0.74300003 2.341769e-38
0.02193616 0.047410481 0.74299997 2.341769e-38
0.023351416 0.047410484 0.74299997 2.341769e-38
0.024766644 0.047410488 0.74299997 2.341769e-38
0.026181899 0.047410488 0.74299997 2.341769e-38
0.027671423 0.047538083 0.74500006 2.341769e-38
0.029207606 0.047729507 0.74799997 2.341769e-38
0.030632377 0.047729503 0.74800003 2.341769e-38
0.03205711 0.047729507 0.74799997 2.341769e-38
0.033571441 0.047857121 0.75000012 2.341769e-38
0.035093319 0.047984745 0.75200003 2.341769e-38
0.036525708 0.047984749 0.75200003 2.341769e-38
0.0380086 0.04804856 0.75300002 2.3325496e-38
0.039547604 0.048176188 0.75500005 2.3140384e-38
0.040985685 0.048176192 0.75500005 2.0838034e-38
0.042479981 0.048239984 0.75600004 1.8540681e-38
0.044152383 0.048495233 0.76000005 1.7520055e-38
0.04601999 0.048941899 0.76699996 1.6416607e-38
0.047480933 0.048941895 0.76700002 1.6784677e-38
0.049005713 0.049005695 0.76800001 1.7060562e-38
0.050468568 0.049005702 0.76800001 1.7337881e-38
-0.032871448 0.050402846 0.76700002 1.6323304e-38
-0.031410478 0.05040285 0.76700002 1.6321149e-38
-0.029871428 0.050271414 0.76500005 1.6230045e-38
-0.028414268 0.050271418 0.76500005 1.6506643e-38
-0.02695713 0.050271407 0.76500005 1.6691386e-38
-0.025433367 0.050139993 0.76300001 1.7796277e-38
-0.023917142 0.050008565 0.76100004 1.8901906e-38
-0.022438087 0.049942836 0.76000005 1.9366121e-38
-0.02093525 0.049811415 0.75800002 1.9733473e-38
-0.019440014 0.049679983 0.75600004 2.157378e-38
-0.017928567 0.049482845 0.75300002 2.3415525e-38
-0.016472396 0.049417138 0.75200003 2.341769e-38
-0.015040007 0.049417119 0.75200003 2.3417689e-38
-0.013607658 0.049417127 0.75200003 2.3416968e-38
-0.012142862 0.049285706 0.75000006 2.3325493e-38
-0.010714283 0.049285702 0.75000012 2.3325854e-38
-0.0092609823 0.04915427 0.74799997 2.3234019e-38
-0.0078257406 0.049088567 0.74700004 2.3325854e-38
-0.0064028311 0.049088564 0.74700004 2.341769e-38
-0.0049666925 0.048957143 0.745 2.341769e-38
-0.003547651 0.048957128 0.74500006 2.341769e-38
-0.0021228318 0.048825715 0.74300003 2.341769e-38
-0.00070763874 0.048825722 0.74299997 2.341769e-38
0.00070759346 0.048825718 0.74300003 2.341769e-38
0.0021199721 0.048760012 0.74199998 2.341769e-38
0.0035333193 0.048760008 0.74200004 2.341769e-38
0.0049466514 0.048759997 0.74199998 2.341769e-38
0.0063599613 0.048760001 0.74199998 2.341769e-38
0.0077733309 0.048759997 0.74199998 2.341769e-38
0.0091990577 0.048825707 0.74300003 2.341769e-38
0.010614288 0.048825711 0.74300003 2.341769e-38
0.012029505 0.048825722 0.74299997 2.341769e-38
0.013444738 0.048825707 0.74299997 2.341769e-38
0.014859992 0.048825707 0.74299997 2.341769e-38
0.016275223 0.048825711 0.74300003 2.341769e-38
0.017690476 0.048825715 0.74299997 2.341769e-38
0.019105708 0.048825711 0.74300003 2.341769e-38
0.02052094 0.048825711 0.74300003 2.341769e-38
0.021936197 0.048825715 0.74300003 2.341769e-38
0.023351431 0.048825711 0.74300003 2.341769e-38
0.024766685 0.048825718 0.74300003 2.341769e-38
0.026252341 0.048957139 0.745 2.341769e-38
0.027745696 0.04908856 0.74700004 2.341769e-38
0.02920758 0.049154282 0.74799997 2.341769e-38
0.030632354 0.049154278 0.74799997 2.341769e-38
0.032142852 0.049285699 0.75000012 2.341769e-38
0.033571418 0.049285706 0.75000006 2.3325854e-38
0.035093319 0.049417138 0.75199997 2.341769e-38
0.036525704 0.049417127 0.75200003 2.341769e-38
0.038109489 0.04961428 0.755 2.341769e-38
0.039442841 0.049482848 0.75300002 2.3417324e-38
0.040985692 0.04961428 0.75500005 2.213198e-38
0.042479981 0.049679987 0.75600004 2.0831547e-38
0.043919984 0.049679987 0.75600004 1.871177e-38
0.046020009 0.05040285 0.76699996 1.6509165e-38
0.047542829 0.050468568 0.76800001 1.6877239e-38
0.049005684 0.050468575 0.76800001 1.7152758e-38
0.050468575 0.050468564 0.76800001 1.7427918e-38
-0.031410519 0.051863801 0.76700002 1.6140359e-38
-0.029949527 0.051863804 0.76699996 1.6138574e-38
-0.02841429 0.051728565 0.76500005 1.6505924e-38
-0.026957132 0.051728562 0.76500005 1.6873975e-38
-0.025500009 0.051728569 0.76500005 1.7611879e-38
-0.023980035 0.051593326 0.76300001 1.8439853e-38
-0.022467604 0.051458087 0.76100004 1.8809726e-38
-0.020990483 0.051390458 0.76000005 1.9269628e-38
-0.019491453 0.051255234 0.75799996 2.1390101e-38
-0.017976217 0.051052392 0.75500005 2.3417673e-38
-0.016494304 0.050917126 0.75300002 2.341769e-38
-0.015040008 0.050849512 0.75200003 2.3417687e-38
-0.01360762 0.050849512 0.75200003 2.3048549e-38
-0.012142846 0.05071428 0.75000006 2.2774839e-38
-0.010714306 0.050714284 0.75000006 2.2774124e-38
-0.0092609869 0.050579052 0.74799997 2.2866677e-38
-0.0078362161 0.050579049 0.74799997 2.3142183e-38
-0.0064028478 0.050511423 0.74700004 2.341769e-38
-0.0049799769 0.050511412 0.74700004 2.341769e-38
-0.0035476324 0.050376192 0.74500006 2.341769e-38
-0.0021228541 0.050240945 0.74300003 2.341769e-38
-0.00070759963 0.050240949 0.74300003 2.341769e-38
0.00070763257 0.050240949 0.74300003 2.341769e-38
0.0021228276 0.050240956 0.74299997 2.341769e-38
0.0035333287 0.050173327 0.74200004 2.341769e-38
0.0049466365 0.050173331 0.74199998 2.341769e-38
0.0063599688 0.050173342 0.74199998 2.341769e-38
0.007773316 0.050173331 0.74200004 2.341769e-38
0.0091866488 0.050173339 0.74199998 2.341769e-38
0.010599996 0.05017332 0.74200004 2.341769e-38
0.012013328 0.050173327 0.74199998 2.3325854e-38
0.013426636 0.050173331 0.74199998 2.3325854e-38
0.014860011 0.050240953 0.74300003 2.3325854e-38
0.016253319 0.050173335 0.74199998 2.341769e-38
0.017690461 0.050240949 0.74299997 2.341769e-38
0.019105716 0.050240953 0.74299997 2.341769e-38
0.020520944 0.050240949 0.74300003 2.341769e-38
0.021936178 0.050240949 0.74300003 2.341769e-38
0.023351433 0.050240956 0.74300003 2.341769e-38
0.024833295 0.050376181 0.74500006 2.341769e-38
0.026252361 0.050376188 0.745 2.341769e-38
0.027745701 0.050511423 0.74700004 2.341769e-38
0.029207611 0.050579041 0.74800003 2.341769e-38
0.030632347 0.050579045 0.74799997 2.341769e-38
0.032057121 0.050579041 0.74800003 2.341769e-38
0.033571415 0.050714277 0.75000006 2.341769e-38
0.03509333 0.050849501 0.75200003 2.341769e-38
0.036525678 0.050849508 0.75200003 2.341769e-38
0.038109481 0.051052377 0.75500005 2.341769e-38
0.039547622 0.051052377 0.75500005 2.3417683e-38
0.041040018 0.051119983 0.75600004 2.0927713e-38
0.042479984 0.051119991 0.75600004 1.8430912e-38
0.044036154 0.051255234 0.75800002 1.7607237e-38
0.046019968 0.051863804 0.76699996 1.6877949e-38
0.04754284 0.051931418 0.76800001 1.7061993e-38
0.049005695 0.051931422 0.76800001 1.7245312e-38
-0.029949507 0.053324766 0.76700002 1.6046386e-38
-0.028488599 0.053324766 0.76699996 1.6595593e-38
-0.02695713 0.053185701 0.76500005 1.7060161e-38
-0.025500007 0.053185709 0.76500005 1.7521502e-38
-0.023980018 0.053046662 0.76300001 1.7889569e-38
-0.022467606 0.052907601 0.76100004 1.8347319e-38
-0.020990517 0.052838095 0.75999999 1.8811174e-38
-0.019440008 0.052559987 0.75600004 2.1114968e-38
-0.017976228 0.052490473 0.75500005 2.3415887e-38
-0.016494274 0.052351411 0.75300002 2.341769e-38
-0.015040009 0.05228189 0.75199997 2.3415895e-38
-0.013607622 0.052281883 0.75200003 2.2767663e-38
-0.012175233 0.052281886 0.75200003 2.2128759e-38
-0.01071429 0.052142859 0.75000006 2.2312428e-38
-0.009285708 0.052142844 0.75000006 2.2405702e-38
-0.0078571662 0.052142851 0.75000006 2.2958154e-38
-0.0064285877 0.052142844 0.75000006 2.341769e-38
-0.0049799955 0.051934276 0.74700004 2.341769e-38
-0.0035571225 0.051934276 0.74700004 2.341769e-38
-0.0021228541 0.051656187 0.74299997 2.341769e-38
-0.00070762198 0.051656183 0.74300003 2.341769e-38
0.00070763257 0.051656187 0.74300003 2.341769e-38
0.0021228648 0.05165619 0.74300003 2.341769e-38
0.003538097 0.051656187 0.74300003 2.341769e-38
0.0049466495 0.051586673 0.74199998 2.341769e-38
0.0063599576 0.051586673 0.74199998 2.341769e-38
0.007773329 0.051586654 0.74199998 2.341769e-38
0.0091990335 0.051656201 0.74300003 2.341769e-38
0.010614288 0.05165619 0.74299997 2.341769e-38
0.012029522 0.05165619 0.74300003 2.3325854e-38
0.013444752 0.051656183 0.74300003 2.3142183e-38
0.014860011 0.051656194 0.74300003 2.3325854e-38
0.016275242 0.05165619 0.74300003 2.341769e-38
0.017690498 0.05165619 0.74300003 2.341769e-38
0.019105691 0.051656183 0.74299997 2.341769e-38
0.020520948 0.05165619 0.74299997 2.341769e-38
0.021995217 0.051795226 0.74500006 2.341769e-38
0.02341428 0.051795229 0.74500006 2.341769e-38
0.024900019 0.051934276 0.74700004 2.341769e-38
0.026322871 0.051934276 0.74700004 2.341769e-38
0.02778285 0.052003793 0.74800003 2.341769e-38
0.029207585 0.052003801 0.74799997 2.341769e-38
0.030632377 0.052003801 0.74800003 2.341769e-38
0.032142848 0.052142855 0.75000006 2.341769e-38
0.033660945 0.052281894 0.75200003 2.341769e-38
0.03509333 0.052281894 0.75200003 2.341769e-38
0.036671411 0.052490477 0.75500005 2.341769e-38
0.038109493 0.05249048 0.75500005 2.341769e-38
0.039547611 0.052490473 0.75500005 2.3413373e-38
0.041039996 0.052559979 0.7560001 1.9730256e-38
0.042480025 0.052559983 0.75600004 1.604821e-38
0.044036176 0.052699044 0.75800002 1.6592391e-38
0.045479991 0.052699041 0.75800002 1.7150952e-38
0.047542859 0.053394265 0.76800001 1.7246748e-38
0.049133334 0.053533323 0.77000004 1.7338583e-38
0.050599996 0.053533331 0.77000004 1.73393e-38
-0.028488578 0.054785702 0.76700002 1.6414418e-38
-0.02695713 0.054642845 0.76500005 1.7341054e-38
-0.02549997 0.054642837 0.76500005 1.7431484e-38
-0.02398004 0.054500006 0.76299995 1.7524391e-38
-0.022467632 0.054357126 0.76100004 1.8440227e-38
-0.020990472 0.054285698 0.76000005 1.9360041e-38
-0.019491468 0.054142848 0.75799996 2.1391565e-38
-0.017976219 0.053928573 0.75500005 2.3417689e-38
-0.016494308 0.0537857 0.75300002 2.341769e-38
-0.015040034 0.053714275 0.75199997 2.3417689e-38
-0.013607645 0.053714275 0.75200003 2.3140028e-38
-0.012175235 0.053714275 0.75200003 2.2772681e-38
-0.010742885 0.053714283 0.75199997 2.2680121e-38
-0.0092856921 0.053571418 0.75000006 2.2495741e-38
-0.0078571504 0.053571422 0.75000006 2.2957436e-38
-0.006428571 0.053571418 0.75000006 2.341769e-38
-0.0049799918 0.053357136 0.74700004 2.341769e-38
-0.003557143 0.053357139 0.74700004 2.341769e-38
-0.0021228765 0.053071439 0.74300003 2.341769e-38
-0.00070762011 0.053071428 0.74299997 2.341769e-38
0.00070761208 0.053071421 0.74300003 2.341769e-38
0.0021228425 0.053071421 0.74300003 2.341769e-38
0.0035380989 0.053071424 0.74300003 2.341769e-38
0.0049466346 0.053000003 0.74199998 2.341769e-38
0.0063600042 0.053000003 0.74200004 2.341769e-38
0.0077733141 0.053000003 0.74200004 2.341769e-38
0.0091866469 0.053000011 0.74199998 2.341769e-38
0.010614269 0.053071436 0.74299997 2.341769e-38
0.012029522 0.053071439 0.74299997 2.3325854e-38
0.013444756 0.053071428 0.74299997 2.3325854e-38
0.014859986 0.053071424 0.74300003 2.3325854e-38
0.01627524 0.053071428 0.74300003 2.341769e-38
0.017690474 0.053071428 0.74300003 2.341769e-38
0.019105729 0.053071428 0.74300003 2.341769e-38
0.020576175 0.053214271 0.74500006 2.341769e-38
0.021995239 0.053214274 0.74500006 2.341769e-38
0.023477159 0.053357136 0.74700004 2.341769e-38
0.024900028 0.053357139 0.74700004 2.341769e-38
0.026358051 0.05342856 0.74799997 2.341769e-38
0.027782846 0.05342856 0.74799997 2.341769e-38
0.029207578 0.053428568 0.74799997 2.341769e-38
0.03071426 0.053571429 0.75000006 2.341769e-38
0.032142844 0.05357141 0.75000006 2.341769e-38
0.033660915 0.053714268 0.75200003 2.341769e-38
0.035140004 0.053785704 0.75300002 2.341769e-38
0.036574282 0.053785712 0.75300002 2.341769e-38
0.038109504 0.053928565 0.75500005 2.332442e-38
0.039547589 0.053928569 0.755 2.3230415e-38
0.041148577 0.054142855 0.75800002 2.0192652e-38
0.042704761 0.054285694 0.76000005 1.7152747e-38
0.044152383 0.054285694 0.76000005 1.7149511e-38
0.046079978 0.054857139 0.76800001 1.7243872e-38
0.047542829 0.054857139 0.76800001 1.7430426e-38
0.049133327 0.054999992 0.77000004 1.7706643e-38
-0.028488595 0.056246676 0.76699996 1.6321855e-38
-0.02695713 0.056099981 0.76500005 1.7522203e-38
-0.02549997 0.056099981 0.76500005 1.7338562e-38
-0.023980044 0.055953328 0.76300001 1.7063414e-38
-0.022467636 0.055806659 0.76100004 1.8436641e-38
-0.020990506 0.055733327 0.75999999 1.9826395e-38
-0.019491445 0.055586658 0.75800002 2.1672814e-38
-0.017976206 0.055366661 0.75500005 2.3417689e-38
-0.016494278 0.055219982 0.75300002 2.341769e-38
-0.015039997 0.055146661 0.75200003 2.341769e-38
-0.013607646 0.055146664 0.75200003 2.3417689e-38
-0.012175257 0.055146661 0.75200003 2.3416608e-38
-0.01071428 0.054999992 0.75000006 2.3047828e-38
-0.0092857387 0.055 0.75000006 2.2589731e-38
-0.0078571569 0.054999992 0.75000006 2.3050348e-38
-0.0064114421 0.054853313 0.74800003 2.341769e-38
-0.0049800086 0.054779999 0.74700004 2.341769e-38
-0.0035571393 0.054780006 0.74700004 2.341769e-38
-0.0021285855 0.054633323 0.74500006 2.341769e-38
-0.00070764433 0.054486673 0.74299997 2.341769e-38
0.00070761208 0.054486677 0.74299997 2.341769e-38
0.0021228443 0.054486658 0.74299997 2.341769e-38
0.0035380747 0.054486658 0.74300003 2.341769e-38
0.0049533308 0.054486666 0.74300003 2.341769e-38
0.0063599912 0.054413322 0.74200004 2.341769e-38
0.0077733216 0.054413326 0.74199998 2.341769e-38
0.0091990503 0.054486666 0.74300003 2.341769e-38
0.010614307 0.05448667 0.74300003 2.341769e-38
0.012029539 0.054486666 0.74300003 2.341769e-38
0.013444732 0.054486677 0.74300003 2.341769e-38
0.01485999 0.054486681 0.74299997 2.341769e-38
0.016275218 0.054486662 0.74300003 2.341769e-38
0.017690472 0.054486666 0.74299997 2.341769e-38
0.019105706 0.05448667 0.74300003 2.341769e-38
0.02057616 0.054633327 0.745 2.341769e-38
0.021995198 0.054633327 0.745 2.341769e-38
0.023477159 0.054779999 0.74700004 2.341769e-38
0.024933316 0.05485332 0.74799997 2.341769e-38
0.026358087 0.05485332 0.74800003 2.341769e-38
0.02778282 0.054853324 0.74799997 2.341769e-38
0.029285714 0.054999981 0.75000012 2.341769e-38
0.030714281 0.054999989 0.75000006 2.341769e-38
0.032142859 0.054999989 0.75000006 2.341769e-38
0.033660952 0.055146649 0.75200003 2.341769e-38
0.035139997 0.055219986 0.75300002 2.341769e-38
0.036671411 0.055366658 0.75500005 2.3416973e-38
0.038109511 0.055366665 0.75500005 2.3231508e-38
0.039547592 0.055366665 0.75500005 2.2955629e-38
0.041148536 0.055586658 0.75800002 2.056502e-38
0.042592369 0.055586658 0.75799996 1.8166168e-38
0.044152386 0.055733323 0.76000005 1.7700884e-38
0.046079986 0.05632 0.76800001 1.724674e-38
0.047666661 0.05646665 0.77000004 1.7615528e-38
0.049133319 0.056466658 0.77000004 1.7982866e-38
-0.030066676 0.057933334 0.77000004 1.3836191e-38
-0.028488575 0.057707608 0.76700002 1.6508385e-38
-0.027027605 0.057707604 0.76700002 1.9178818e-38
-0.025499992 0.057557128 0.76500005 1.9363593e-38
-0.023980025 0.057406664 0.76300001 1.9545119e-38
-0.022467639 0.057256185 0.76099998 2.0561415e-38
-0.020990461 0.057180945 0.76000005 2.1580956e-38
-0.019491421 0.057030465 0.75800002 2.2499335e-38
-0.017976219 0.056804758 0.75500005 2.341769e-38
-0.016494289 0.056654274 0.75300002 2.341769e-38
-0.015060013 0.056654278 0.75300002 2.341769e-38
-0.01360761 0.056579035 0.75200003 2.341769e-38
-0.01217526 0.056579035 0.75199997 2.3325853e-38
-0.010742873 0.056579039 0.75200003 2.3141104e-38
-0.009285721 0.056428555 0.75000006 2.2958511e-38
-0.0078571402 0.056428552 0.75000006 2.3234019e-38
-0.0064114477 0.056278091 0.74799997 2.341769e-38
-0.004986675 0.056278072 0.74800003 2.341769e-38
-0.0035619412 0.05627808 0.74799997 2.341769e-38
-0.0021285892 0.056052368 0.74500006 2.341769e-38
-0.00070952374 0.056052372 0.74500006 2.341769e-38
0.00070947845 0.056052379 0.745 2.341769e-38
0.0021285403 0.056052383 0.745 2.341769e-38
0.0035380784 0.0559019 0.74299997 2.341769e-38
0.0049533104 0.0559019 0.74300003 2.341769e-38
0.0063685649 0.055901904 0.74299997 2.341769e-38
0.0077837971 0.055901904 0.74300003 2.341769e-38
0.009199054 0.055901904 0.74300003 2.341769e-38
0.010614284 0.0559019 0.74300003 2.341769e-38
0.012029541 0.055901911 0.74300003 2.341769e-38
0.013444773 0.055901904 0.74300003 2.341769e-38
0.014860005 0.055901904 0.74300003 2.341769e-38
0.016275221 0.055901904 0.74299997 2.341769e-38
0.01769045 0.0559019 0.74299997 2.341769e-38
0.019105706 0.055901904 0.74299997 2.341769e-38
0.020576157 0.056052368 0.74500006 2.341769e-38
0.022054292 0.056202859 0.74700004 2.341769e-38
0.023477141 0.056202859 0.74700004 2.341769e-38
0.024933286 0.056278083 0.74799997 2.341769e-38
0.026358083 0.056278087 0.74799997 2.341769e-38
0.027782852 0.05627808 0.74800003 2.341769e-38
0.029285692 0.056428559 0.75000006 2.341769e-38
0.030714272 0.056428555 0.75000006 2.341769e-38
0.032228541 0.056579027 0.75200003 2.341769e-38
0.03370573 0.056654263 0.75300002 2.341769e-38
0.035140004 0.056654263 0.75300002 2.341769e-38
0.036671422 0.056804761 0.75500005 2.341769e-38
0.038109504 0.056804761 0.75500005 2.3325137e-38
0.0396 0.056879986 0.75600004 2.3234006e-38
0.041148562 0.057030465 0.75800002 2.0562155e-38
0.042704768 0.05718093 0.76000005 1.7888154e-38
0.044152368 0.05718093 0.76000005 1.7338207e-38
0.046079997 0.057782847 0.76800001 1.6794018e-38
0.047666658 0.057933319 0.77000004 1.6420226e-38
0.049133319 0.057933327 0.77000004 1.6053962e-38
-0.03006666 0.059399992 0.76999998 1.2544012e-38
-0.028488591 0.059168577 0.76699996 1.6696383e-38
-0.027027622 0.059168577 0.76699996 2.0835824e-38
-0.025499992 0.059014272 0.76500005 2.1483723e-38
-0.023980048 0.058859993 0.76299995 2.203438e-38
-0.0224381 0.058628552 0.76000005 2.2682972e-38
-0.020935273 0.058474284 0.75800002 2.3232207e-38
-0.01949146 0.058474284 0.75800002 2.3325853e-38
-0.017976208 0.058242854 0.75500005 2.3417689e-38
-0.016494282 0.058088552 0.75300002 2.341769e-38
-0.015040021 0.058011413 0.75200003 2.341769e-38
-0.013607634 0.058011405 0.75200003 2.3325854e-38
-0.012175261 0.058011416 0.75199997 2.323366e-38
-0.010742872 0.058011416 0.75199997 2.3323701e-38
-0.0092857284 0.057857122 0.75000006 2.3325496e-38
-0.0078571243 0.057857126 0.75000006 2.341769e-38
-0.006428584 0.057857133 0.75000006 2.341769e-38
-0.0049866787 0.057702839 0.74799997 2.341769e-38
-0.0035619468 0.057702847 0.74799997 2.341769e-38
-0.0021286041 0.057471424 0.745 2.341769e-38
-0.00070956285 0.057471424 0.74500006 2.341769e-38
0.00070949894 0.057471424 0.745 2.341769e-38
0.0021285422 0.057471424 0.74500006 2.341769e-38
0.003547604 0.057471432 0.745 2.341769e-38
0.0049533495 0.05731713 0.74300003 2.341769e-38
0.0063685426 0.057317134 0.74299997 2.341769e-38
0.007783799 0.057317138 0.74299997 2.341769e-38
0.009223788 0.057471421 0.74500006 2.341769e-38
0.010642829 0.057471417 0.74500006 2.341769e-38
0.012029518 0.057317141 0.74300003 2.341769e-38
0.013444775 0.057317145 0.74300003 2.341769e-38
0.014899996 0.057471424 0.74500006 2.341769e-38
0.01627524 0.057317145 0.74300003 2.341769e-38
0.017690495 0.057317149 0.74300003 2.341769e-38
0.019157138 0.057471421 0.74500006 2.341769e-38
0.020576177 0.057471417 0.74500006 2.341769e-38
0.022054292 0.057625711 0.74700004 2.341769e-38
0.023477145 0.057625711 0.74700004 2.341769e-38
0.024933321 0.057702839 0.74799997 2.341769e-38
0.026358053 0.057702847 0.74799997 2.341769e-38
0.027782826 0.057702843 0.74800003 2.341769e-38
0.02928571 0.057857133 0.75000006 2.341769e-38
0.030714288 0.057857133 0.75000006 2.341769e-38
0.032228541 0.05801142 0.75199997 2.341769e-38
0.033705719 0.058088552 0.75300002 2.341769e-38
0.035139989 0.05808856 0.75300002 2.341769e-38
0.03667143 0.058242846 0.75500005 2.341769e-38
0.038109515 0.05824285 0.75500005 2.341769e-38
0.039599977 0.058319986 0.75600004 2.3415522e-38
0.04114854 0.058474287 0.75800002 2.0469596e-38
0.042704754 0.058628563 0.76000005 1.7521519e-38
0.044210479 0.058705706 0.76099998 1.6877223e-38
0.045900013 0.059014276 0.76500005 1.6230427e-38
0.04766665 0.059399985 0.77000004 1.5217007e-38
-0.028525745 0.06070856 0.76800001 1.6235433e-38
-0.027027626 0.060629521 0.76700002 2.0290213e-38
-0.025566695 0.060629532 0.76699996 2.0104059e-38
-0.024042832 0.060471423 0.76500005 2.0017605e-38
-0.022438094 0.060076177 0.76000005 2.0657223e-38
-0.020935249 0.059918094 0.75800002 2.1206451e-38
-0.019491436 0.05991808 0.75800002 2.1851101e-38
-0.017976196 0.059680939 0.75500005 2.2499334e-38
-0.016538117 0.059680946 0.75500005 2.2958513e-38
-0.015040023 0.059443798 0.75199997 2.341769e-38
-0.013607634 0.059443798 0.75200003 2.3325854e-38
-0.012175246 0.059443794 0.75200003 2.3325854e-38
-0.010742896 0.059443798 0.75200003 2.3325496e-38
-0.0092857117 0.0592857 0.75000006 2.341769e-38
-0.007857169 0.059285704 0.75000006 2.341769e-38
-0.0064285691 0.059285704 0.75000006 2.341769e-38
-0.0049999873 0.0592857 0.75000006 2.341769e-38
-0.0035619133 0.059127603 0.74799997 2.341769e-38
-0.0021285836 0.058890469 0.745 2.341769e-38
-0.00070954236 0.058890473 0.74500006 2.341769e-38
0.00070949708 0.058890469 0.74500006 2.341769e-38
0.0021285608 0.058890473 0.74500006 2.341769e-38
0.0035476002 0.058890473 0.74500006 2.341769e-38
0.0049666413 0.058890462 0.74500006 2.341769e-38
0.0063857068 0.058890462 0.74500006 2.341769e-38
0.0078047463 0.058890462 0.74500006 2.341769e-38
0.0092238104 0.058890469 0.74500006 2.341769e-38
0.01064285 0.058890466 0.74500006 2.341769e-38
0.01202952 0.058732379 0.74299997 2.341769e-38
0.013444751 0.058732383 0.74300003 2.341769e-38
0.014899996 0.058890469 0.74500006 2.341769e-38
0.016275238 0.058732383 0.74300003 2.341769e-38
0.017738059 0.058890484 0.745 2.341769e-38
0.0191571 0.058890484 0.745 2.341769e-38
0.020576162 0.058890473 0.745 2.341769e-38
0.022054281 0.059048571 0.74700004 2.341769e-38
0.02347715 0.059048574 0.74700004 2.341769e-38
0.024933318 0.059127606 0.74799997 2.341769e-38
0.02635809 0.059127606 0.74799997 2.341769e-38
0.027782822 0.05912761 0.74799997 2.341769e-38
0.029285703 0.059285704 0.75000006 2.341769e-38
0.030714305 0.059285708 0.75000006 2.341769e-38
0.032228582 0.059443787 0.75200003 2.341769e-38
0.033705685 0.059522841 0.75300002 2.341769e-38
0.035233304 0.059680946 0.75500005 2.341769e-38
0.036671385 0.059680954 0.75500005 2.341769e-38
0.038159978 0.059759989 0.75600004 2.341769e-38
0.039704755 0.059918098 0.75800002 2.3417672e-38
0.041257139 0.060076185 0.76000005 2.0281974e-38
0.042704761 0.060076188 0.76000005 1.7146277e-38
0.044210449 0.060155232 0.76099998 1.6863936e-38
0.046079986 0.060708575 0.76800001 1.6676668e-38
0.047666647 0.06086665 0.76999998 1.6955393e-38
-0.031615246 0.062495243 0.77199996 8.5670077e-39
-0.030066716 0.062333327 0.77000004 1.1991547e-38
-0.028525732 0.062171414 0.76800001 1.5871319e-38
-0.02706288 0.062171414 0.76800001 1.9638378e-38
-0.025600025 0.062171414 0.76800001 1.8807924e-38
-0.024042832 0.061928563 0.76500005 1.7984284e-38
-0.022526721 0.061766658 0.76300001 1.8630014e-38
-0.020935263 0.061361898 0.75799996 1.9179599e-38
-0.019491451 0.061361898 0.75800002 2.037275e-38
-0.017999997 0.061199978 0.75600004 2.1482319e-38
-0.016538104 0.061119046 0.75500005 2.2499335e-38
-0.015059991 0.060957134 0.75300002 2.3417684e-38
-0.013607636 0.060876187 0.75199997 2.341768e-38
-0.012175247 0.060876187 0.75200003 2.3323334e-38
-0.01074286 0.060876168 0.75200003 2.341768e-38
-0.0093105091 0.060876179 0.75199997 2.3417326e-38
-0.0078571541 0.060714282 0.75000006 2.341769e-38
-0.0064285747 0.060714275 0.75000006 2.341769e-38
-0.0049999929 0.060714275 0.75000012 2.341769e-38
-0.00355713 0.060471416 0.74700004 2.341769e-38
-0.0021285836 0.060309514 0.74500006 2.341769e-38
-0.00070952001 0.060309518 0.74500006 2.341769e-38
0.00070952129 0.060309522 0.74500006 2.341769e-38
0.0021285608 0.060309518 0.74500006 2.341769e-38
0.0035475853 0.060309529 0.745 2.341769e-38
0.0049666264 0.060309529 0.745 2.341769e-38
0.0063856659 0.060309529 0.745 2.341769e-38
0.0078047295 0.060309533 0.745 2.341769e-38
0.0092237694 0.060309518 0.745 2.341769e-38
0.010642835 0.060309522 0.745 2.341769e-38
0.012061874 0.060309522 0.745 2.341769e-38
0.013480916 0.060309522 0.745 2.341769e-38
0.014899976 0.060309529 0.745 2.341769e-38
0.016319018 0.060309529 0.745 2.341769e-38
0.017738055 0.060309514 0.74500006 2.341769e-38
0.019157121 0.060309518 0.745 2.341769e-38
0.020576164 0.060309514 0.745 2.341769e-38
0.022054281 0.060471438 0.74700004 2.341769e-38
0.02347713 0.060471423 0.74700004 2.341769e-38
0.024933327 0.060552359 0.74800003 2.341769e-38
0.026428597 0.060714275 0.75000006 2.341769e-38
0.027857138 0.060714282 0.75000006 2.341769e-38
0.029285716 0.060714282 0.75000006 2.341769e-38
0.030796167 0.060876176 0.75200003 2.341769e-38
0.032228556 0.060876172 0.75200003 2.341769e-38
0.033705715 0.060957126 0.75300002 2.341769e-38
0.035233311 0.06111905 0.75500005 2.341769e-38
0.036671393 0.06111905 0.75500005 2.341769e-38
0.038160019 0.061199978 0.75600004 2.341769e-38
0.039599981 0.061199989 0.75600004 2.341336e-38
0.041257143 0.061523799 0.76000005 2.0093625e-38
0.042704765 0.061523803 0.76000005 1.6684868e-38
0.044210482 0.061604749 0.76100004 1.693877e-38
0.046199977 0.062333331 0.77000004 1.7143296e-38
0.047852371 0.06257619 0.77300006 1.8798178e-38
-0.033085737 0.063965708 0.77199996 6.0852465e-39
-0.031615291 0.063965708 0.77199996 9.7712892e-39
-0.03006666 0.063799992 0.77000004 1.3464153e-38
-0.02860002 0.063799992 0.77000004 1.6325116e-38
-0.027062867 0.063634276 0.76800001 1.9176314e-38
-0.025600014 0.063634276 0.76800001 1.7884152e-38
-0.024105722 0.063551426 0.76699996 1.6593813e-38
-0.022526702 0.063219994 0.76300001 1.6967275e-38
-0.0209905 0.062971428 0.75999999 1.7427177e-38
-0.019491429 0.062805712 0.75800002 1.8531002e-38
-0.017999995 0.062639982 0.75600004 1.9731698e-38
-0.016538117 0.062557131 0.75500005 2.1577751e-38
-0.015059999 0.062391426 0.75300002 2.341768e-38
-0.013607658 0.062308565 0.75199997 2.2309903e-38
-0.012175248 0.062308565 0.75199997 2.1112096e-38
-0.010742861 0.062308557 0.75200003 2.1941844e-38
-0.0093104718 0.062308557 0.75200003 2.2773395e-38
-0.0078571374 0.062142853 0.75000006 2.3049988e-38
-0.0064285579 0.062142849 0.75000006 2.341769e-38
-0.0050000153 0.062142856 0.75000006 2.341769e-38
-0.0035571244 0.061894279 0.74700004 2.341769e-38
-0.0021342759 0.061894279 0.74700004 2.341769e-38
-0.00070956099 0.061728571 0.745 2.341769e-38
0.00071144541 0.061894286 0.74700004 2.341769e-38
0.0021285422 0.061728559 0.745 2.341769e-38
0.0035475835 0.061728559 0.745 2.341769e-38
0.0049666469 0.061728563 0.745 2.341769e-38
0.0063856882 0.061728559 0.745 2.341769e-38
0.0078257108 0.061894275 0.74700004 2.341769e-38
0.0092237918 0.061728567 0.745 2.341769e-38
0.010671432 0.061894283 0.74700004 2.341769e-38
0.012061873 0.061728563 0.74500006 2.341769e-38
0.013480934 0.061728571 0.74500006 2.341769e-38
0.014899977 0.061728571 0.74500006 2.341769e-38
0.016319036 0.061728571 0.74500006 2.341769e-38
0.01773808 0.061728559 0.74500006 2.341769e-38
0.019157119 0.061728559 0.74500006 2.341769e-38
0.020576183 0.061728559 0.74500006 2.341769e-38
0.022054261 0.061894283 0.74700004 2.341769e-38
0.023508526 0.061977141 0.74799997 2.341769e-38
0.024933323 0.061977137 0.74799997 2.341769e-38
0.02642855 0.062142856 0.75000006 2.341769e-38
0.027857132 0.062142853 0.75000006 2.341769e-38
0.029285733 0.062142856 0.75000006 2.341769e-38
0.030796165 0.062308569 0.75199997 2.341769e-38
0.032228552 0.062308561 0.75200003 2.341769e-38
0.033705704 0.062391419 0.75300002 2.341769e-38
0.035233323 0.062557131 0.75500005 2.341769e-38
0.036671404 0.062557139 0.75500005 2.341769e-38
0.038159996 0.062639982 0.75600004 2.341769e-38
0.03970474 0.062805712 0.75800002 2.3417658e-38
0.04125715 0.062971413 0.76000005 2.1752747e-38
0.042760938 0.063054278 0.76099998 2.0090954e-38
0.044326659 0.063219994 0.76300001 2.0183363e-38
0.045900013 0.06338571 0.76500005 2.0292525e-38
0.047976173 0.064214274 0.77500004 2.1113772e-38
-0.033085745 0.065436184 0.77200001 7.0050644e-39
-0.031615254 0.065436184 0.77199996 1.0968075e-38
-0.030066688 0.065266654 0.77000004 1.484458e-38
-0.028600026 0.065266654 0.77000004 1.678895e-38
-0.027133327 0.065266654 0.77000004 1.862205e-38
-0.025600024 0.065097138 0.76800001 1.6958585e-38
-0.0241057 0.06501238 0.76700002 1.52184e-38
-0.022526724 0.064673327 0.76299995 1.5401379e-38
-0.020990517 0.064419053 0.75999999 1.5587215e-38
-0.019491468 0.064249523 0.75800002 1.6775709e-38
-0.018000018 0.064079978 0.75600004 1.7893186e-38
-0.016538104 0.063995227 0.75500005 2.0662625e-38
-0.015059994 0.063825689 0.75300002 2.3414454e-38
-0.013625721 0.063825697 0.75300002 2.120071e-38
-0.012175273 0.063740939 0.75199997 1.8908408e-38
-0.010742884 0.063740931 0.75200003 2.0556066e-38
-0.0093104737 0.063740939 0.75200003 2.212768e-38
-0.0078780847 0.063740931 0.75200003 2.2774124e-38
-0.0064285654 0.063571423 0.75000012 2.3325496e-38
-0.0050000004 0.063571423 0.75000006 2.3325496e-38
-0.003557143 0.063317135 0.74700004 2.3325854e-38
-0.0021342721 0.06331715 0.74700004 2.341769e-38
-0.00070953678 0.063147619 0.745 2.341769e-38
0.00071142492 0.06331715 0.74700004 2.341769e-38
0.002128544 0.063147619 0.74500006 2.341769e-38
0.0035476058 0.063147619 0.74500006 2.341769e-38
0.0049666469 0.063147619 0.74500006 2.341769e-38
0.0063857087 0.063147619 0.74500006 2.341769e-38
0.0078257145 0.063317142 0.74700004 2.341769e-38
0.0092485631 0.063317142 0.74700004 2.341769e-38
0.010671412 0.063317142 0.74700004 2.341769e-38
0.012029515 0.062978096 0.74300003 2.341769e-38
0.013480936 0.063147612 0.74500006 2.341769e-38
0.014899996 0.063147619 0.74500006 2.341769e-38
0.016319038 0.063147619 0.74500006 2.341769e-38
0.017738076 0.063147604 0.74500006 2.341769e-38
0.019157104 0.063147619 0.745 2.341769e-38
0.02063146 0.063317135 0.74700004 2.341769e-38
0.022054307 0.063317135 0.74700004 2.341769e-38
0.023477156 0.063317135 0.74700004 2.341769e-38
0.024933297 0.063401893 0.74799997 2.341769e-38
0.026428569 0.063571423 0.75000006 2.341769e-38
0.027857149 0.063571408 0.75000006 2.341769e-38
0.029363792 0.063740931 0.75200003 2.341769e-38
0.03079618 0.063740931 0.75200003 2.341769e-38
0.032271441 0.063825697 0.75300002 2.341769e-38
0.033705711 0.063825697 0.75300002 2.341769e-38
0.035233334 0.063995235 0.75500005 2.341769e-38
0.036719996 0.064079985 0.75600004 2.341769e-38
0.038159996 0.064079985 0.75600004 2.341769e-38
0.039704759 0.064249516 0.75800002 2.3415508e-38
0.041257132 0.064419031 0.76000005 2.3409022e-38
0.042760972 0.064503804 0.76100004 2.3408947e-38
0.044326615 0.064673334 0.76300001 2.3411743e-38
0.046019983 0.06501238 0.76699996 2.3414665e-38
0.04785239 0.065520942 0.77300006 2.3416151e-38
-0.034556191 0.066906668 0.77199996 1.0223516e-38
-0.033085745 0.066906661 0.77199996 9.5886818e-39
-0.031615261 0.066906661 0.77200001 1.2631213e-38
-0.030066669 0.066733323 0.77000004 1.5677939e-38
-0.02860003 0.06673333 0.77000004 1.7245968e-38
-0.027133331 0.066733323 0.77000004 1.8901482e-38
-0.025600011 0.066559993 0.76800001 1.797986e-38
-0.024105743 0.06647332 0.76699996 1.7154445e-38
-0.022526708 0.06612666 0.76299995 1.7061203e-38
-0.021018099 0.065953329 0.76099998 1.7061224e-38
-0.019491443 0.065693319 0.75800002 1.8254028e-38
-0.018000014 0.065519981 0.75600004 1.9452946e-38
-0.016538095 0.065433323 0.75500005 2.1485199e-38
-0.015060004 0.065259986 0.75300002 2.3417686e-38
-0.013625732 0.065259986 0.75300002 2.1483038e-38
-0.012175236 0.065173306 0.75200003 1.9651707e-38
-0.010742886 0.065173313 0.75199997 2.1023499e-38
-0.009310497 0.065173306 0.75200003 2.2499329e-38
-0.0078781089 0.065173306 0.75200003 2.2866677e-38
-0.0064457371 0.065173313 0.75199997 2.3234019e-38
-0.0050000059 0.064999998 0.75000006 2.3141466e-38
-0.0035571393 0.064740002 0.74700004 2.3050348e-38
-0.0021342889 0.064739995 0.74700004 2.3234019e-38
-0.00071141805 0.064739995 0.74700004 2.341769e-38
0.0007114305 0.064739995 0.74700004 2.341769e-38
0.0021342791 0.064739995 0.74700004 2.341769e-38
0.0035571277 0.064739987 0.74700004 2.341769e-38
0.0049799983 0.064739987 0.74700004 2.341769e-38
0.0064028469 0.064739987 0.74700004 2.341769e-38
0.0078256959 0.064739987 0.74700004 2.341769e-38
0.0092485668 0.064739995 0.74700004 2.341769e-38
0.010671415 0.064739995 0.74700004 2.341769e-38
0.012094264 0.064739995 0.74700004 2.341769e-38
0.013517137 0.064740002 0.74699998 2.341769e-38
0.014940024 0.064739987 0.74700004 2.341769e-38
0.01636287 0.064739987 0.74700004 2.341769e-38
0.017785741 0.064739995 0.74700004 2.341769e-38
0.019208591 0.064739995 0.74700004 2.341769e-38
0.02063144 0.064740002 0.74700004 2.341769e-38
0.022054311 0.064740002 0.74700004 2.341769e-38
0.023508558 0.064826667 0.74799997 2.341769e-38
0.024999982 0.064999998 0.75000006 2.341769e-38
0.026428562 0.064999998 0.75000006 2.341769e-38
0.027857166 0.064999998 0.75000006 2.341769e-38
0.029363791 0.065173313 0.75200003 2.341769e-38
0.030796178 0.065173313 0.75200003 2.341769e-38
0.032271426 0.065259993 0.75300002 2.341769e-38
0.0337952 0.065433338 0.75500005 2.341769e-38
0.035233323 0.065433338 0.75500005 2.341769e-38
0.03672 0.065519989 0.75600004 2.341769e-38
0.038160004 0.065519989 0.75600004 2.2957436e-38
0.039704747 0.065693334 0.75800002 2.2499308e-38
0.041311428 0.065953314 0.76099998 2.2956307e-38
0.042873282 0.066126674 0.76299995 2.3417634e-38
0.044326633 0.066126674 0.76300001 2.3415477e-38
0.045899987 0.06629999 0.76500005 2.3415114e-38
-0.034556199 0.068377137 0.77200001 1.3171677e-38
-0.033085752 0.068377137 0.77200001 1.216945e-38
-0.031615261 0.068377152 0.77199996 1.4381109e-38
-0.030066699 0.068200007 0.77000004 1.6505539e-38
-0.0286 0.0682 0.77000004 1.7798784e-38
-0.027133336 0.0682 0.77000004 1.9086618e-38
-0.025600038 0.068022847 0.76800001 1.9088398e-38
-0.02410572 0.067934282 0.76700002 1.8995869e-38
-0.022585694 0.067757115 0.76500005 1.8718953e-38
-0.021018103 0.067402855 0.76099998 1.8444529e-38
-0.019542884 0.067314282 0.75999999 1.9726289e-38
-0.01800001 0.066959985 0.75600004 2.1021694e-38
-0.016560007 0.066959985 0.75600004 2.2223829e-38
-0.015100001 0.06687142 0.75500005 2.3415168e-38
-0.013661919 0.066871427 0.75500005 2.1845704e-38
-0.01219143 0.066694275 0.75300002 2.0289162e-38
-0.010757156 0.066694275 0.75300002 2.1569837e-38
-0.0093104988 0.066605717 0.75199997 2.277196e-38
-0.0078781117 0.066605709 0.75200003 2.2958513e-38
-0.0064457222 0.066605709 0.75200003 2.3141825e-38
-0.0050133723 0.066605717 0.75200003 2.2956359e-38
-0.003561904 0.066251405 0.74800003 2.2774124e-38
-0.0021371685 0.066251412 0.74799997 2.3142183e-38
-0.00071239594 0.066251412 0.74800003 2.341769e-38
0.0007123581 0.066251412 0.74799997 2.341769e-38
0.002134281 0.066162862 0.74700004 2.341769e-38
0.0035571314 0.066162854 0.74700004 2.341769e-38
0.0049799778 0.066162847 0.74700004 2.341769e-38
0.0064028506 0.066162854 0.74699998 2.341769e-38
0.0078256996 0.066162854 0.74700004 2.341769e-38
0.0092609366 0.066251419 0.74800003 2.341769e-38
0.010671458 0.066162847 0.74700004 2.341769e-38
0.012094305 0.066162854 0.74700004 2.341769e-38
0.013535199 0.066251427 0.74799997 2.341769e-38
0.014959994 0.066251427 0.74799997 2.341769e-38
0.016362872 0.066162854 0.74700004 2.341769e-38
0.017809495 0.066251427 0.74799997 2.341769e-38
0.019208593 0.066162862 0.74700004 2.341769e-38
0.020659024 0.066251427 0.74799997 2.341769e-38
0.022083797 0.066251412 0.74799997 2.341769e-38
0.023508528 0.066251427 0.74799997 2.341769e-38
0.024933301 0.066251427 0.74800003 2.341769e-38
0.026428577 0.066428572 0.75000006 2.341769e-38
0.027857117 0.066428579 0.75000006 2.341769e-38
0.029285721 0.066428564 0.75000006 2.341769e-38
0.030796178 0.066605717 0.75200003 2.341769e-38
0.032271419 0.066694282 0.75299996 2.341769e-38
0.033705734 0.066694275 0.75300002 2.3416249e-38
0.03523333 0.06687142 0.75500005 2.341768e-38
0.036719974 0.066959985 0.75600004 2.3414435e-38
0.038260933 0.067137145 0.75800002 2.2494987e-38
0.039809525 0.067314267 0.76000005 2.1486233e-38
0.041311394 0.067402855 0.76099998 2.2499294e-38
0.042760942 0.067402855 0.76100004 2.3417286e-38
0.044326615 0.06758 0.76299995 2.3417282e-38
0.045899991 0.06775713 0.76500005 2.3416566e-38
-0.034556199 0.069847621 0.77199996 1.1433715e-38
-0.033085715 0.069847621 0.77200001 1.2362856e-38
-0.031615268 0.069847614 0.77199996 1.4387923e-38
-0.03014482 0.069847621 0.77199996 1.641873e-38
-0.028674288 0.069847614 0.77199996 1.7798435e-38
-0.027133342 0.069666654 0.77000004 1.9088444e-38
