# .PCD v0.7 - Point Cloud Data file format
VERSION 0.7
FIELDS x y z rgb
SIZE 4 4 4 4
TYPE F F F F
COUNT 1 1 1 1
WIDTH 980
HEIGHT 1
VIEWPOINT 0 0 0 1 0 0 0
POINTS 980
DATA ascii
-0.032699987 0.026886672 0.76300001 9.788273e-39
-0.031164777 0.026816182 0.76100004 1.0802073e-38
-0.029676186 0.026780963 0.76000005 1.1815852e-38
-0.02815428 0.02671048 0.75800002 1.2373683e-38
-0.026710493 0.02671048 0.75800002 1.2831439e-38
-0.025166636 0.026604764 0.75500005 1.3663712e-38
-0.023665715 0.026534274 0.75300002 1.4395896e-38
-0.022201907 0.026499048 0.75200003 1.4489178e-38
-0.020714313 0.026428595 0.75 1.448703e-38
-0.019234274 0.026358098 0.74800003 1.4855811e-38
-0.017738115 0.026252396 0.745 1.5132754e-38
-0.016319053 0.026252389 0.74500006 1.5319655e-38
-0.014899994 0.026252374 0.74500006 1.5413994e-38
-0.013444766 0.026181921 0.74300003 1.5879263e-38
-0.012013324 0.026146673 0.74200004 1.6334862e-38
-0.010571416 0.02607619 0.74000001 1.7164977e-38
-0.0091618644 0.026076198 0.74000001 1.7992573e-38
-0.0077419076 0.026040964 0.73900002 1.8641162e-38
-0.0063342778 0.026040964 0.73900002 1.9188588e-38
-0.0049266471 0.026040956 0.73900002 1.9285087e-38
-0.0035190461 0.026040971 0.73899996 1.9282577e-38
-0.0021057362 0.025970474 0.73700005 1.9836104e-38
-0.00070189964 0.025970474 0.73700005 2.038604e-38
0.00070188288 0.025970474 0.73699999 2.0570787e-38
0.0021056952 0.025970474 0.73699999 2.0754458e-38
0.0035095057 0.025970474 0.73700005 2.0754459e-38
0.004913318 0.025970466 0.73700005 2.0662624e-38
0.0063171005 0.025970481 0.73699999 2.0754458e-38
0.0077209389 0.025970489 0.73699999 2.0845935e-38
0.0091247493 0.025970481 0.73700005 2.0846293e-38
0.010514298 0.025935248 0.73600006 2.0845935e-38
0.011916186 0.025935248 0.73600006 2.0754458e-38
0.013336155 0.025970489 0.73700005 2.0570069e-38
0.014739991 0.025970474 0.73699999 2.0569711e-38
0.016143804 0.025970481 0.73700005 2.0569711e-38
0.017547613 0.025970466 0.73700005 2.0477516e-38
0.018951399 0.025970481 0.73699999 2.0294204e-38
0.020410471 0.026040964 0.73899996 2.0384963e-38
0.021847639 0.02607619 0.74000007 2.0477158e-38
0.023257162 0.026076205 0.74000001 2.0383528e-38
0.024733327 0.026146665 0.74200004 2.0293127e-38
0.026146671 0.026146673 0.74200004 2.1027452e-38
0.027559984 0.026146688 0.74199998 2.1671376e-38
0.029012378 0.026181914 0.74300003 2.2590809e-38
0.030509507 0.026252382 0.74500006 2.3417328e-38
0.031928536 0.026252389 0.745 2.3417689e-38
0.033481933 0.02635809 0.74800003 2.3416967e-38
0.034906708 0.026358083 0.74800009 2.3417682e-38
0.036428586 0.026428588 0.75000006 2.3415524e-38
0.037857153 0.026428588 0.75000006 2.3141805e-38
0.039390482 0.026499055 0.75200003 2.2864132e-38
0.040822838 0.026499048 0.75200003 2.2859456e-38
0.042423822 0.026604772 0.755 2.2770132e-38
0.043920036 0.026639991 0.75600004 2.2954879e-38
0.045660023 0.026816189 0.7610001 2.3140356e-38
0.047109552 0.026816182 0.76100004 2.3324399e-38
0.048814304 0.026957139 0.76500005 2.341694e-38
0.050402887 0.027027622 0.76700002 2.3417648e-38
0.05172861 0.026957139 0.76500005 2.3417654e-38
0.053185746 0.026957132 0.76500005 2.3417659e-38
0.054785732 0.027027622 0.76700008 2.3417654e-38
-0.034242835 0.028414279 0.76500005 1.0887442e-38
-0.032700002 0.028340004 0.76299995 1.1901958e-38
-0.031246658 0.028340012 0.76299995 1.236295e-38
-0.029715218 0.028265707 0.76100004 1.2918273e-38
-0.028228583 0.028228574 0.76000005 1.3106255e-38
-0.02671048 0.028154284 0.75800002 1.3385005e-38
-0.025166634 0.028042868 0.75500005 1.3661245e-38
-0.023665698 0.027968563 0.75300002 1.403038e-38
-0.022201922 0.027931437 0.75200003 1.4215845e-38
-0.020714279 0.02785714 0.75000006 1.440418e-38
-0.019234251 0.02778285 0.74800003 1.4771163e-38
-0.017738134 0.027671441 0.745 1.5236439e-38
-0.016319072 0.027671441 0.74500006 1.5694181e-38
-0.014900013 0.027671427 0.74500006 1.615874e-38
-0.013444767 0.027597159 0.74300003 1.6616124e-38
-0.01201333 0.027560011 0.74199998 1.7077812e-38
-0.010571406 0.027485713 0.74000001 1.7628108e-38
-0.0091618793 0.027485721 0.74000001 1.8183067e-38
-0.0077418964 0.02744858 0.73900002 1.8457497e-38
-0.0063342974 0.027448587 0.73899996 1.873408e-38
-0.0049333042 0.027485728 0.74000001 1.8917033e-38
-0.0035190387 0.027448587 0.73900002 1.9193257e-38
-0.0021114377 0.02744858 0.73899996 1.9376211e-38
-0.00070192758 0.027374275 0.73700005 1.9652435e-38
0.00070190895 0.027374282 0.73700005 2.0294566e-38
0.0021056915 0.027374282 0.73699999 2.093813e-38
0.0035095019 0.02737429 0.73699999 2.093777e-38
0.0049133142 0.027374275 0.73700005 2.1029604e-38
0.0063171284 0.027374282 0.73700005 2.093705e-38
0.0077209091 0.027374297 0.73699999 2.093705e-38
0.0091247475 0.027374282 0.73699999 2.1028885e-38
0.010528558 0.027374297 0.73700005 2.1211839e-38
0.01193237 0.027374275 0.73700005 2.1488061e-38
0.013336181 0.02737429 0.73700005 2.1855045e-38
0.014739963 0.02737429 0.73699999 2.1947239e-38
0.016143803 0.02737429 0.73700005 2.2038717e-38
0.017547615 0.027374282 0.73700005 2.194724e-38
0.019002873 0.027448595 0.73900002 2.1855046e-38
0.020438127 0.027485728 0.74000001 2.194724e-38
0.021847654 0.027485713 0.74000001 2.1946882e-38
0.023257149 0.027485728 0.74000001 2.1946882e-38
0.02473332 0.027560011 0.74199998 2.1855047e-38
0.026146665 0.027560003 0.74200004 2.222275e-38
0.027560011 0.027559996 0.74200004 2.2590452e-38
0.029012382 0.027597152 0.74300003 2.2958154e-38
0.030509513 0.027671441 0.74500006 2.341769e-38
0.032014281 0.027745716 0.74699998 2.341769e-38
0.033481929 0.027782857 0.74800003 2.341769e-38
0.034906674 0.027782857 0.74800003 2.341769e-38
0.036428589 0.027857155 0.75000006 2.3417689e-38
0.037857153 0.027857147 0.75 2.277161e-38
0.039390475 0.027931429 0.75200003 2.2129462e-38
0.040822886 0.027931437 0.75200003 2.2587187e-38
0.042423796 0.028042868 0.755 2.3136739e-38
0.043920014 0.028080001 0.75600004 2.3230702e-38
0.045659997 0.028265707 0.76100004 2.3323647e-38
0.047109552 0.0282657 0.7610001 2.3324399e-38
0.048814297 0.028414287 0.76499999 2.3415498e-38
0.050402865 0.028488569 0.76700002 2.3416915e-38
0.051931415 0.028525718 0.76799995 2.3417654e-38
0.053185709 0.028414287 0.76500005 2.332548e-38
0.054785736 0.028488576 0.76700008 2.3325843e-38
-0.034242839 0.029871434 0.76500005 1.31851e-38
-0.032699991 0.029793352 0.76299995 1.3921589e-38
-0.031246671 0.029793344 0.76299995 1.3921243e-38
-0.029793326 0.029793337 0.76299995 1.3927357e-38
-0.028265687 0.029715225 0.76100004 1.393096e-38
-0.026780955 0.029676199 0.76000005 1.3841293e-38
-0.0252 0.029520005 0.75600004 1.3748757e-38
-0.023728563 0.029480956 0.75500005 1.3660515e-38
-0.022201909 0.029363811 0.75199997 1.403145e-38
-0.020714274 0.029285721 0.75000006 1.4309827e-38
-0.019234257 0.02920761 0.74800003 1.4771517e-38
-0.017785706 0.029168569 0.74700004 1.5232847e-38
-0.016362857 0.029168576 0.74700004 1.6061519e-38
-0.01493998 0.029168569 0.74700004 1.6797278e-38
-0.013444768 0.029012382 0.74300003 1.7256095e-38
-0.012013338 0.028973348 0.74199998 1.7717785e-38
-0.010599991 0.028973341 0.74200004 1.8086562e-38
-0.0091618681 0.028895244 0.74000001 1.8363503e-38
-0.0077418918 0.028856203 0.73899996 1.8363503e-38
-0.006342846 0.028895244 0.74000001 1.8272746e-38
-0.0049333191 0.028895251 0.74000001 1.8639013e-38
-0.0035190573 0.028856196 0.73900002 1.900779e-38
-0.0021114266 0.028856203 0.73900002 1.9006714e-38
-0.00070379581 0.028856188 0.73900002 1.8915594e-38
0.00070188101 0.028778099 0.73700005 2.0016185e-38
0.0021057175 0.028778084 0.73700005 2.1028169e-38
0.0035095001 0.028778099 0.73699999 2.1211842e-38
0.0049133105 0.028778099 0.73699999 2.1304034e-38
0.0063171247 0.028778091 0.73700005 2.1210045e-38
0.0077209352 0.028778099 0.73700005 2.102781e-38
0.0091247736 0.028778091 0.73700005 2.1303317e-38
0.010528556 0.028778099 0.73699999 2.1487705e-38
0.011932367 0.028778091 0.73700005 2.2314225e-38
0.013372391 0.028856188 0.73900002 2.3141462e-38
0.014779991 0.028856196 0.73899996 2.3325852e-38
0.016187623 0.028856203 0.73900002 2.3417328e-38
0.017619086 0.028895244 0.74000001 2.3417687e-38
0.019002885 0.028856196 0.73900002 2.3417328e-38
0.020438112 0.028895244 0.74000001 2.3417687e-38
0.021847639 0.028895244 0.74000007 2.3417328e-38
0.023257162 0.028895244 0.74000001 2.3417687e-38
0.024733346 0.028973334 0.74200004 2.341733e-38
0.02614666 0.028973348 0.74199998 2.3417689e-38
0.027597141 0.029012397 0.74300003 2.341769e-38
0.029090464 0.029090486 0.745 2.341769e-38
0.030509524 0.029090486 0.74500006 2.341769e-38
0.032014303 0.029168576 0.74700004 2.341769e-38
0.033437148 0.029168561 0.74699998 2.341769e-38
0.034906697 0.02920761 0.74800003 2.341769e-38
0.036331467 0.02920761 0.74800003 2.3322619e-38
0.03785713 0.029285721 0.75000006 2.2305604e-38
0.03939046 0.029363818 0.75200003 2.1300429e-38
0.040822871 0.029363804 0.75200003 2.2406753e-38
0.0424238 0.029480949 0.755 2.3414412e-38
0.043920018 0.029519998 0.75600004 2.341511e-38
0.045660023 0.029715233 0.76100004 2.3415854e-38
0.047233351 0.029793344 0.76300001 2.3417675e-38
0.048814293 0.029871427 0.76499999 2.341658e-38
0.050402869 0.029949524 0.76700002 2.3416563e-38
0.051931426 0.029988579 0.76800001 2.3324024e-38
-0.034242846 0.031328566 0.76500005 1.4014107e-38
-0.032785706 0.031328574 0.76500005 1.5392001e-38
-0.03124666 0.031246677 0.76300001 1.5764009e-38
-0.029793315 0.031246677 0.76299995 1.6132094e-38
-0.028339993 0.031246677 0.76300001 1.5953112e-38
-0.026816187 0.031164758 0.76100004 1.5860936e-38
-0.025266662 0.031041913 0.75800002 1.5585448e-38
-0.023759972 0.030960009 0.75600004 1.5218834e-38
-0.022231407 0.030837141 0.75300002 1.586564e-38
-0.020714272 0.030714296 0.75000006 1.6419526e-38
-0.019234259 0.030632369 0.74800009 1.6974487e-38
-0.017785691 0.030591436 0.74700004 1.7433666e-38
-0.016362866 0.030591421 0.74699998 1.7803519e-38
-0.01493999 0.030591421 0.74700004 1.8172294e-38
-0.013480968 0.030509531 0.745 1.8907333e-38
-0.012029501 0.030427627 0.74300003 1.9736007e-38
-0.010599998 0.030386671 0.74199998 2.029025e-38
-0.0091866786 0.030386671 0.74200004 2.0933098e-38
-0.0077523561 0.030304767 0.74000007 2.0843774e-38
-0.0063428357 0.030304767 0.74000001 2.0844135e-38
-0.0049333079 0.030304775 0.74000001 2.1028166e-38
-0.003523781 0.03030476 0.74000007 2.1212196e-38
-0.0021114228 0.030263826 0.73899996 2.1212196e-38
-0.00070379209 0.030263819 0.73899996 2.1211479e-38
0.00070381258 0.030263819 0.73900002 2.1671013e-38
0.0021114433 0.030263811 0.73900002 2.2221671e-38
0.0035190443 0.030263819 0.73899996 2.2314584e-38
0.004926675 0.030263826 0.73900002 2.2406778e-38
0.006317121 0.030181907 0.73699999 2.2314223e-38
0.0077209333 0.030181915 0.73700005 2.2222389e-38
0.0091247438 0.030181892 0.73700005 2.2314585e-38
0.010528582 0.030181907 0.73700005 2.2498257e-38
0.011932363 0.030181907 0.73699999 2.2865958e-38
0.013372396 0.030263826 0.73899996 2.3325854e-38
0.014780001 0.030263811 0.73900002 2.3325854e-38
0.016187629 0.030263819 0.73900002 2.341769e-38
0.017619073 0.030304767 0.74000001 2.341769e-38
0.019002859 0.030263819 0.73900002 2.341769e-38
0.020438123 0.030304767 0.74000001 2.341769e-38
0.02184765 0.030304775 0.74000001 2.341769e-38
0.023257146 0.03030476 0.74000001 2.341769e-38
0.024733339 0.030386671 0.74200004 2.341769e-38
0.026146654 0.030386686 0.74199998 2.341769e-38
0.027559999 0.030386671 0.74200004 2.341769e-38
0.029090444 0.030509539 0.745 2.341769e-38
0.030509505 0.030509524 0.74500006 2.341769e-38
0.032014292 0.030591421 0.74700004 2.341769e-38
0.03343714 0.030591436 0.74699998 2.341769e-38
0.034906693 0.030632369 0.74800003 2.3141107e-38
0.036331438 0.030632384 0.74800003 2.2955987e-38
0.037857138 0.030714296 0.75000006 2.2217702e-38
0.039390501 0.030796185 0.75200003 2.1482303e-38
0.040877141 0.030837156 0.75300008 2.1114606e-38
0.042480003 0.030960009 0.75600004 2.0749761e-38
0.044036195 0.031041898 0.75800002 2.0747236e-38
0.045779988 0.031246677 0.76299995 2.0751201e-38
0.047233365 0.031246662 0.76300001 2.1392993e-38
0.048814286 0.031328581 0.76500005 2.2039413e-38
0.050402872 0.031410478 0.76700002 2.2680451e-38
0.05193143 0.031451419 0.76800001 2.3412989e-38
-0.034332369 0.032871433 0.76700002 1.4754527e-38
-0.032785688 0.032785714 0.76500005 1.6870346e-38
-0.031328551 0.032785714 0.76500005 1.7610427e-38
-0.02979333 0.03270001 0.76300001 1.8252935e-38
-0.028339982 0.032700002 0.76300001 1.8072153e-38
-0.026780959 0.032571442 0.76000005 1.7885253e-38
-0.025266645 0.032485701 0.75800002 1.7329578e-38
-0.023759965 0.032400005 0.75600004 1.6782521e-38
-0.022231415 0.03227143 0.75300008 1.7700527e-38
-0.020714268 0.03214287 0.75000006 1.8532792e-38
-0.019285729 0.032142863 0.75000006 1.9088832e-38
-0.017809493 0.032057144 0.74800003 1.963841e-38
-0.016384749 0.032057144 0.74800003 1.9546216e-38
-0.014939998 0.032014295 0.74700004 1.9454386e-38
-0.013480986 0.031928584 0.74500006 2.0556419e-38
-0.012029502 0.031842858 0.74300009 2.1666703e-38
-0.010614289 0.031842865 0.74300003 2.2588654e-38
-0.0091866851 0.031800009 0.74200004 2.3415891e-38
-0.0077523449 0.03171429 0.74000007 2.3417684e-38
-0.0063600251 0.031800017 0.74199998 2.3417327e-38
-0.0049333246 0.03171429 0.74000001 2.3417687e-38
-0.0035237717 0.031714298 0.74000001 2.3417328e-38
-0.0021114135 0.031671427 0.73900002 2.3417687e-38
-0.00070378277 0.031671435 0.73900002 2.3417327e-38
0.00070381816 0.031671435 0.73899996 2.3417686e-38
0.002111447 0.031671435 0.73900002 2.3417328e-38
0.0035190517 0.031671442 0.73900002 2.3417689e-38
0.0049133347 0.031585708 0.73700005 2.3417687e-38
0.0063342834 0.031671442 0.73900002 2.3417687e-38
0.0077209296 0.031585716 0.73699999 2.341733e-38
0.0091247419 0.031585716 0.73700005 2.3417689e-38
0.010528552 0.031585716 0.73700005 2.341733e-38
0.011932391 0.031585708 0.73700005 2.341769e-38
0.013372404 0.031671435 0.73900002 2.341769e-38
0.014800002 0.03171429 0.74000001 2.341769e-38
0.016187634 0.031671442 0.73900002 2.341769e-38
0.017619086 0.031714283 0.74000001 2.341769e-38
0.01900284 0.031671442 0.73899996 2.341769e-38
0.020438109 0.03171429 0.74000001 2.341769e-38
0.021847662 0.03171429 0.74000001 2.341769e-38
0.023257188 0.031714283 0.74000007 2.341769e-38
0.024733331 0.031800009 0.74200004 2.341769e-38
0.026146676 0.031799994 0.74200004 2.341769e-38
0.027597163 0.031842858 0.74300003 2.341769e-38
0.029090453 0.031928584 0.745 2.341769e-38
0.03059146 0.032014288 0.74700004 2.341769e-38
0.032014281 0.032014288 0.74700004 2.341769e-38
0.033481915 0.032057151 0.74800003 2.3417331e-38
0.034906685 0.032057136 0.74800003 2.2956719e-38
0.036331434 0.032057136 0.74800003 2.2496097e-38
0.037857138 0.03214287 0.75000006 2.2034398e-38
0.039390486 0.032228574 0.75200003 2.1572704e-38
0.04098573 0.032357149 0.75500005 1.9819933e-38
0.042480037 0.032400005 0.75600004 1.8075409e-38
0.044036184 0.032485723 0.75799996 1.8072174e-38
0.04566 0.032614283 0.76100004 1.7983931e-38
0.047233343 0.03270001 0.76299995 1.9362904e-38
0.048814278 0.032785714 0.76500005 2.0653262e-38
-0.034332369 0.034332387 0.76700002 1.3743256e-38
-0.032785695 0.034242861 0.76500005 1.66935e-38
-0.031246666 0.034153342 0.76299995 1.7796272e-38
-0.029793315 0.034153335 0.76300001 1.8992297e-38
-0.028265681 0.034063794 0.7610001 1.8993743e-38
-0.026780963 0.034019053 0.76000005 1.9084487e-38
-0.025199983 0.033840001 0.75600004 1.8347634e-38
-0.023728561 0.033795245 0.75500005 1.7523275e-38
-0.022231424 0.033705726 0.75300002 1.8439843e-38
-0.020769536 0.033660963 0.75200003 1.9452195e-38
-0.019285724 0.033571437 0.75000006 2.0007162e-38
-0.017809497 0.033481896 0.74800003 2.0648576e-38
-0.016384752 0.033481903 0.74800003 2.0465621e-38
-0.014940009 0.03343714 0.74699998 2.036842e-38
-0.013480979 0.033347629 0.745 2.1479071e-38
-0.012061918 0.033347636 0.74500006 2.2591157e-38
-0.010614264 0.033258103 0.74300003 2.2957795e-38
-0.0091866916 0.033213355 0.74199998 2.341769e-38
-0.0077733463 0.033213332 0.74200004 2.2682289e-38
-0.0063600019 0.033213332 0.74200004 2.1948322e-38
-0.0049333116 0.033123806 0.74000001 2.2683006e-38
-0.0035237847 0.033123799 0.74000001 2.341769e-38
-0.0021114359 0.033079058 0.73899996 2.341769e-38
-0.00070380513 0.03307905 0.73900002 2.341769e-38
0.00070382562 0.03307905 0.73900002 2.341769e-38
0.0021114266 0.033079065 0.73899996 2.341769e-38
0.0035094945 0.032989532 0.73699999 2.3325854e-38
0.0049133049 0.032989517 0.73700005 2.3325854e-38
0.0063343169 0.033079065 0.73900002 2.3325854e-38
0.0077209556 0.032989524 0.73700005 2.341769e-38
0.0091247382 0.032989524 0.73699999 2.341769e-38
0.010528549 0.032989517 0.73700005 2.341769e-38
0.011932361 0.032989517 0.73700005 2.341769e-38
0.013390494 0.033123814 0.74000001 2.341769e-38
0.014800047 0.033123814 0.74000001 2.341769e-38
0.016209539 0.033123806 0.74000001 2.341769e-38
0.017619066 0.033123806 0.74000001 2.341769e-38
0.019028619 0.033123821 0.74000001 2.341769e-38
0.020438116 0.033123814 0.74000001 2.341769e-38
0.021847643 0.033123814 0.74000001 2.341769e-38
0.02325717 0.033123821 0.74000007 2.341769e-38
0.024733325 0.033213347 0.74199998 2.341769e-38
0.026146669 0.033213347 0.74200004 2.341769e-38
0.027597161 0.03325811 0.74300003 2.341769e-38
0.02909046 0.033347622 0.74500006 2.341769e-38
0.030591451 0.03343714 0.74700004 2.341769e-38
0.032014295 0.033437148 0.74699998 2.341769e-38
0.033481933 0.033481903 0.74800003 2.341769e-38
0.034906711 0.033481888 0.74800003 2.3140749e-38
0.036331452 0.033481903 0.74800003 2.2771249e-38
0.037857149 0.033571452 0.75000006 2.2219152e-38
0.039390471 0.033660948 0.75200003 2.1668844e-38
0.040985733 0.033795252 0.75500005 1.9269629e-38
0.042592384 0.033929534 0.75800002 1.6874373e-38
0.044152364 0.034019053 0.75999999 1.678146e-38
0.045660034 0.034063801 0.7610001 1.6596704e-38
0.047233328 0.03415335 0.76300001 1.7150936e-38
-0.034377165 0.035839997 0.76799995 1.2730565e-38
-0.032785699 0.035700001 0.76500005 1.6414777e-38
-0.031328563 0.035699986 0.76500005 1.8072508e-38
-0.029793335 0.035606682 0.76299995 1.9638028e-38
-0.028265705 0.035513319 0.76100004 2.0009327e-38
-0.026710484 0.03537333 0.75800002 2.0281597e-38
-0.025199976 0.035279997 0.75600004 1.9269244e-38
-0.023759982 0.035280004 0.75600004 1.8257982e-38
-0.022231434 0.035140008 0.75300002 1.9267459e-38
-0.020769522 0.03509333 0.75200003 2.0284118e-38
-0.019337138 0.035093337 0.75200003 2.0930565e-38
-0.017857157 0.035000019 0.75 2.1574132e-38
-0.016428562 0.035000011 0.75000006 2.1390822e-38
-0.014959985 0.034906663 0.74800003 2.1205365e-38
-0.01353521 0.034906656 0.74800003 2.2307758e-38
-0.012094261 0.034860007 0.74700004 2.3415889e-38
-0.010642881 0.034766674 0.745 2.341769e-38
-0.0091990549 0.034673341 0.74300003 2.3416967e-38
-0.0077733528 0.034626678 0.74200004 2.1945082e-38
-0.0063600084 0.034626678 0.74200004 2.0472487e-38
-0.0049466928 0.034626685 0.74199998 2.1948315e-38
-0.0035333475 0.034626678 0.74200004 2.3417687e-38
-0.0021142764 0.034533352 0.74000001 2.341769e-38
-0.00070382562 0.034486689 0.73899996 2.341769e-38
0.00070380513 0.034486674 0.73899996 2.341769e-38
0.002111434 0.034486666 0.73900002 2.341769e-38
0.0035095206 0.034393333 0.73700005 2.3325854e-38
0.0049133012 0.034393325 0.73699999 2.3141825e-38
0.0063171135 0.034393333 0.73700005 2.3325854e-38
0.0077209538 0.03439334 0.73700005 2.341769e-38
0.0091247642 0.034393325 0.73700005 2.341769e-38
0.010528547 0.03439334 0.73699999 2.341769e-38
0.01196476 0.034486666 0.73900002 2.341769e-38
0.013390505 0.034533337 0.74000001 2.341769e-38
0.014800032 0.034533329 0.74000007 2.341769e-38
0.016209526 0.034533344 0.74000001 2.341769e-38
0.017619079 0.034533329 0.74000001 2.341769e-38
0.019028606 0.034533337 0.74000007 2.341769e-38
0.020438103 0.034533329 0.74000001 2.341769e-38
0.021906657 0.034626685 0.74199998 2.341769e-38
0.023320004 0.034626678 0.74200004 2.341769e-38
0.02473335 0.03462667 0.74200004 2.341769e-38
0.026181921 0.034673348 0.74300003 2.341769e-38
0.027597163 0.034673341 0.74300003 2.341769e-38
0.029168591 0.034859993 0.74700004 2.341769e-38
0.030591439 0.034860007 0.74699998 2.341769e-38
0.032014318 0.03486 0.74700004 2.341769e-38
0.033481929 0.034906663 0.74800003 2.341769e-38
0.034906708 0.03490667 0.74800009 2.3234019e-38
0.036428586 0.035000019 0.75000006 2.3047468e-38
0.037857153 0.035000026 0.75 2.240174e-38
0.03939046 0.035093337 0.75200003 2.1756005e-38
0.041040026 0.035280004 0.75600004 1.8715731e-38
0.042592373 0.035373323 0.75800002 1.567727e-38
0.04415236 0.035466678 0.76000005 1.5490016e-38
0.045660004 0.035513319 0.76100004 1.5216301e-38
-0.036073312 0.037545715 0.77300006 1.0067276e-38
-0.034466669 0.0374 0.77000004 1.2642327e-38
-0.032871433 0.037254304 0.76700002 1.531599e-38
-0.031410474 0.037254289 0.76700002 1.7338555e-38
-0.029949516 0.037254296 0.76700002 1.9365763e-38
-0.028340004 0.037060022 0.76300001 1.982531e-38
-0.026816176 0.036962852 0.7610001 2.0375963e-38
-0.025333337 0.036914296 0.76000005 1.9454018e-38
-0.02382287 0.036817148 0.75800002 1.862463e-38
-0.022290487 0.03667143 0.755 1.9456889e-38
-0.020797137 0.036574304 0.75300002 2.0384585e-38
-0.019337151 0.036525711 0.75200003 2.1301878e-38
-0.017857153 0.036428593 0.75 2.2223824e-38
-0.01642856 0.036428571 0.75000006 2.2221676e-38
-0.01495999 0.036331438 0.74800003 2.2315664e-38
-0.013535216 0.036331423 0.74800003 2.2864883e-38
-0.012094272 0.036282852 0.74700004 2.341769e-38
-0.010671424 0.03628286 0.74699998 2.341769e-38
-0.009199053 0.036088578 0.74300003 2.3417679e-38
-0.0077837873 0.036088586 0.74300003 2.1572347e-38
-0.0063685747 0.036088578 0.74300003 1.9629458e-38
-0.0049533341 0.036088578 0.74300003 2.1206091e-38
-0.0035333531 0.036040001 0.74199998 2.2774835e-38
-0.0021142671 0.035942875 0.74000001 2.3142183e-38
-0.00070379209 0.035894282 0.73900002 2.341769e-38
0.00070383865 0.035894297 0.73900002 2.341769e-38
0.0021114135 0.035894305 0.73899996 2.341769e-38
0.0035190443 0.03589429 0.73900002 2.3325494e-38
0.0049133291 0.035797134 0.73700005 2.3323702e-38
0.0063342759 0.035894297 0.73899996 2.3325496e-38
0.0077209221 0.035797149 0.73700005 2.341769e-38
0.0091247605 0.035797134 0.73700005 2.341769e-38
0.010528573 0.035797149 0.73700005 2.341769e-38
0.011964765 0.035894305 0.73899996 2.341769e-38
0.013372396 0.035894297 0.73900002 2.341769e-38
0.014800041 0.035942852 0.74000001 2.341769e-38
0.016209541 0.035942875 0.74000001 2.341769e-38
0.017619066 0.035942867 0.74000001 2.341769e-38
0.019028593 0.03594286 0.74000007 2.341769e-38
0.020438116 0.035942875 0.74000001 2.341769e-38
0.021906678 0.036040001 0.74200004 2.341769e-38
0.023319997 0.036040008 0.74199998 2.341769e-38
0.02473334 0.036040001 0.74200004 2.341769e-38
0.026181918 0.036088578 0.74300003 2.341769e-38
0.027671417 0.036185727 0.74500006 2.341769e-38
0.029090479 0.036185704 0.74500006 2.341769e-38
0.030591428 0.036282852 0.74699998 2.341769e-38
0.032057151 0.036331438 0.74800003 2.341769e-38
0.033481929 0.036331423 0.74800003 2.341769e-38
0.034906697 0.03633143 0.74800003 2.3233302e-38
0.036428567 0.036428586 0.75000006 2.3047464e-38
0.037857126 0.036428601 0.75000006 2.2586479e-38
0.039547633 0.036671437 0.75500005 2.203401e-38
0.041040033 0.03672 0.7560001 1.9083415e-38
0.042592391 0.036817141 0.75800002 1.6129262e-38
0.04415236 0.036914304 0.76000005 1.5856991e-38
0.045600023 0.036914289 0.76000005 1.5582925e-38
0.047233351 0.037060007 0.76300001 1.5400336e-38
0.048686698 0.037060015 0.76300001 1.5217723e-38
-0.036073335 0.039018098 0.77300006 1.1163545e-38
-0.034466654 0.038866665 0.77000004 1.2638366e-38
-0.0329143 0.03876571 0.76800001 1.4114223e-38
-0.031410471 0.038715243 0.76700002 1.6599913e-38
-0.029949516 0.038715247 0.76700002 1.9084146e-38
-0.028339989 0.03851334 0.76300001 1.9733823e-38
-0.026816176 0.038412385 0.76100004 2.0375956e-38
-0.025333341 0.038361903 0.76000005 1.9638402e-38
-0.023822855 0.038260952 0.75800002 1.8903361e-38
-0.022290487 0.038109533 0.755 1.9733828e-38
-0.020797143 0.038008563 0.75300002 2.0472832e-38
-0.019337164 0.037958104 0.75200003 2.1668501e-38
-0.017857147 0.037857156 0.75 2.2772682e-38
-0.016428579 0.037857149 0.75000006 2.304819e-38
-0.015000016 0.03785716 0.75000006 2.3325493e-38
-0.013535193 0.037756179 0.74800003 2.341769e-38
-0.012110447 0.037756193 0.74800003 2.341769e-38
-0.010671434 0.037705712 0.74699998 2.341769e-38
-0.00922383 0.037604772 0.74500006 2.3415887e-38
-0.007804771 0.03760476 0.74500006 2.1113889e-38
-0.0063685756 0.037503824 0.74300003 1.8813343e-38
-0.004953309 0.037503816 0.74300003 2.0472126e-38
-0.0035380973 0.037503824 0.74300003 2.2130194e-38
-0.0021200152 0.037453339 0.74200004 2.2774842e-38
-0.00070475508 0.037352383 0.74000001 2.341769e-38
0.0007066438 0.037453339 0.74199998 2.341769e-38
0.002111447 0.037301913 0.73900002 2.341769e-38
0.0035190778 0.037301905 0.73900002 2.341769e-38
0.0049133254 0.03720095 0.73700005 2.3417331e-38
0.0063342834 0.037301913 0.73900002 2.341769e-38
0.0077209184 0.037200958 0.73699999 2.341769e-38
0.0091495151 0.03730192 0.73899996 2.341769e-38
0.010571449 0.037352383 0.74000007 2.341769e-38
0.011964773 0.037301905 0.73900002 2.341769e-38
0.013390499 0.037352383 0.74000001 2.341769e-38
0.014840006 0.037453339 0.74200004 2.341769e-38
0.016253322 0.037453339 0.74199998 2.341769e-38
0.017666668 0.037453339 0.74200004 2.341769e-38
0.019080013 0.037453339 0.74200004 2.341769e-38
0.020493329 0.037453346 0.74199998 2.341769e-38
0.021906672 0.037453339 0.74200004 2.341769e-38
0.023351438 0.037503805 0.74300003 2.341769e-38
0.024766676 0.037503827 0.74300003 2.341769e-38
0.02618192 0.037503816 0.74300003 2.341769e-38
0.0276714 0.037604775 0.74500006 2.341769e-38
0.02916857 0.037705719 0.74700004 2.341769e-38
0.030632403 0.03775619 0.74800003 2.341769e-38
0.032057174 0.037756182 0.74800003 2.341769e-38
0.033481948 0.037756186 0.74800003 2.341769e-38
0.034906697 0.037756197 0.74800003 2.3234019e-38
0.036428571 0.037857149 0.75000006 2.3048547e-38
0.037857134 0.03785716 0.75000006 2.2678328e-38
0.039442874 0.038008574 0.75300008 2.2309529e-38
0.041040037 0.038160011 0.75600004 1.9454355e-38
0.042704754 0.038361918 0.76000005 1.6598497e-38
0.044210482 0.038412381 0.76100004 1.6317978e-38
0.045779988 0.038513355 0.76299995 1.5953141e-38
0.047233336 0.03851334 0.76299995 1.5860943e-38
-0.036073335 0.040490489 0.77300006 1.1342177e-38
-0.034556158 0.04043809 0.77200001 1.2450014e-38
-0.032914288 0.040228572 0.76800001 1.3647498e-38
-0.031410471 0.040176202 0.76700002 1.475494e-38
-0.029871389 0.040071424 0.76500005 1.5861643e-38
-0.028339978 0.039966661 0.76300001 1.79832e-38
-0.026780946 0.039809529 0.76000005 2.0102954e-38
-0.025333341 0.039809536 0.76000005 1.9362174e-38
-0.02382284 0.039704766 0.75800002 1.8626417e-38
-0.022319971 0.039600011 0.75600004 1.9642348e-38
-0.020852359 0.039547618 0.75500005 2.0747618e-38
-0.019362846 0.039442863 0.75300002 2.1483752e-38
-0.017904766 0.039390475 0.75200003 2.2221306e-38
-0.016428577 0.039285723 0.75000006 2.2497171e-38
-0.015000013 0.039285734 0.75 2.2774836e-38
-0.013535226 0.039180949 0.74800003 2.3050348e-38
-0.012110451 0.039180946 0.74800003 2.341769e-38
-0.010685707 0.039180957 0.74800003 2.341769e-38
-0.0092238234 0.03902382 0.74500006 2.3417682e-38
-0.0078047626 0.039023809 0.74500006 2.1851446e-38
-0.0063857324 0.039023824 0.74500006 2.0282355e-38
-0.0049533099 0.038919043 0.74300003 2.1208246e-38
-0.0035380973 0.038919058 0.74300003 2.2131987e-38
-0.0021200208 0.038866676 0.74199998 2.2590453e-38
-0.00070667733 0.038866676 0.74200004 2.3050348e-38
0.00070666801 0.038866673 0.74200004 2.2958154e-38
0.0021143118 0.03876191 0.74000007 2.2866677e-38
0.0035190592 0.03870954 0.73900002 2.3142183e-38
0.0049266899 0.038709525 0.73900002 2.341769e-38
0.0063342908 0.038709532 0.73899996 2.341769e-38
0.0077419197 0.038709532 0.73899996 2.341769e-38
0.0091495505 0.038709532 0.73900002 2.341769e-38
0.010557153 0.038709521 0.73900002 2.341769e-38
0.011964754 0.038709532 0.73900002 2.341769e-38
0.013426657 0.038866688 0.74199998 2.341769e-38
0.01484 0.038866673 0.74200004 2.341769e-38
0.016253348 0.038866676 0.74200004 2.341769e-38
0.017666664 0.038866688 0.74199998 2.341769e-38
0.019105744 0.038919058 0.74300003 2.341769e-38
0.020520955 0.03891905 0.74300003 2.341769e-38
0.021936201 0.038919058 0.74300003 2.341769e-38
0.02335144 0.038919039 0.74300009 2.341769e-38
0.024766676 0.038919054 0.74300003 2.341769e-38
0.026181918 0.03891905 0.74300003 2.341769e-38
0.02767141 0.039023824 0.74500006 2.341769e-38
0.029168561 0.039128568 0.74699998 2.341769e-38
0.030632425 0.039180946 0.74800003 2.341769e-38
0.032057174 0.039180957 0.74800003 2.341769e-38
0.033571415 0.039285727 0.75000006 2.341769e-38
0.034999982 0.039285738 0.75 2.3325854e-38
0.036428571 0.039285723 0.75000006 2.3234019e-38
0.037958093 0.039390478 0.75200003 2.3049272e-38
0.039442889 0.039442863 0.75300008 2.2866653e-38
0.041040048 0.0396 0.75600004 1.9640908e-38
0.042704754 0.039809525 0.76000005 1.6513132e-38
0.044152383 0.039809536 0.75999999 1.650848e-38
0.045780003 0.039966673 0.76300001 1.6601018e-38
0.047233347 0.03996668 0.76299995 1.6691043e-38
-0.034377165 0.041691426 0.76799995 1.2355672e-38
-0.032871418 0.041637138 0.76700002 1.318724e-38
-0.031328533 0.041528575 0.76500005 1.2909967e-38
-0.029871423 0.041528579 0.76499999 1.2554129e-38
-0.0282657 0.041311432 0.76100004 1.6234031e-38
-0.026780948 0.041257154 0.76000005 1.9821356e-38
-0.025266666 0.041148584 0.75799996 1.9081289e-38
-0.023822881 0.041148581 0.75799996 1.8353781e-38
-0.022319965 0.041040003 0.75600004 1.9644502e-38
-0.020852357 0.040985726 0.75500005 2.0929854e-38
-0.019362854 0.040877149 0.75300002 2.1297926e-38
-0.017904781 0.040822864 0.75200003 2.1667421e-38
-0.016472397 0.04082286 0.75199997 2.1944361e-38
-0.015000009 0.040714309 0.75 2.2129834e-38
-0.01353523 0.040605716 0.74800003 2.2774842e-38
-0.012110456 0.040605705 0.74800009 2.341769e-38
-0.010685685 0.04060572 0.74800003 2.341769e-38
-0.0092238402 0.040442862 0.74500006 2.3417686e-38
-0.0078047551 0.040442858 0.74500006 2.2591162e-38
-0.0063857259 0.040442869 0.745 2.1667781e-38
-0.004953309 0.040334292 0.74300009 2.1854319e-38
-0.0035380991 0.040334292 0.74300003 2.2035481e-38
-0.0021199984 0.040280011 0.74200004 2.2403902e-38
-0.00070668478 0.040279999 0.74199998 2.2680847e-38
0.00070666056 0.040280007 0.74200004 2.2497536e-38
0.0021200059 0.040280011 0.74200004 2.2222391e-38
0.0035238164 0.040171433 0.74000001 2.2866677e-38
0.0049266675 0.040117152 0.73900002 2.341769e-38
0.0063342983 0.040117145 0.73900002 2.341769e-38
0.007741929 0.040117148 0.73900002 2.341769e-38
0.00914953 0.040117145 0.73899996 2.341769e-38
0.010557161 0.040117152 0.73900002 2.341769e-38
0.011964788 0.040117156 0.73900002 2.341769e-38
0.013426679 0.040279999 0.74200004 2.341769e-38
0.014839993 0.040280011 0.74199998 2.341769e-38
0.016253343 0.040280014 0.74200004 2.341769e-38
0.017666657 0.040280011 0.74199998 2.341769e-38
0.019080002 0.040280011 0.74200004 2.341769e-38
0.020493347 0.040279999 0.74200004 2.341769e-38
0.021906663 0.040280011 0.74199998 2.341769e-38
0.023351464 0.040334288 0.74300009 2.341769e-38
0.024766676 0.040334288 0.74300003 2.341769e-38
0.02618192 0.040334284 0.74300009 2.341769e-38
0.027671415 0.040442873 0.745 2.341769e-38
0.029207647 0.040605702 0.74800003 2.341769e-38
0.03063239 0.040605716 0.74800003 2.341769e-38
0.032142859 0.040714294 0.75000006 2.341769e-38
0.033571418 0.040714305 0.75000006 2.341769e-38
0.035093337 0.040822867 0.75200003 2.341769e-38
0.036525693 0.040822867 0.75200003 2.341769e-38
0.038008574 0.040877137 0.75300002 2.341769e-38
0.039442852 0.040877141 0.75300002 2.3321886e-38
0.041040018 0.041040011 0.75600004 1.9912471e-38
0.042704746 0.041257154 0.76000005 1.641878e-38
0.044152379 0.041257162 0.76000005 1.6785051e-38
0.045780011 0.041419998 0.76300001 1.7152744e-38
0.047233358 0.04142002 0.76300001 1.7521511e-38
-0.034377154 0.043154288 0.76800001 1.3372682e-38
-0.032785706 0.042985734 0.76499999 1.5672175e-38
-0.031246651 0.042873345 0.76299995 1.5491391e-38
-0.029715225 0.042760946 0.7610001 1.5404257e-38
-0.028228555 0.04270478 0.76000005 1.7707357e-38
-0.026780952 0.042704772 0.76000005 2.0009338e-38
-0.025266677 0.042592391 0.75800002 1.9454015e-38
-0.023822866 0.042592384 0.75799996 1.8909461e-38
-0.022319987 0.042480011 0.75600004 1.9734904e-38
-0.020852357 0.042423803 0.75500005 2.0559282e-38
-0.019362833 0.042311426 0.75300002 2.0929505e-38
-0.017904766 0.042255253 0.75200003 2.1389757e-38
-0.016428567 0.042142857 0.75000006 2.1759609e-38
-0.015000003 0.042142875 0.75 2.2035843e-38
-0.01353521 0.042030472 0.74800003 2.2773765e-38
-0.012110433 0.042030465 0.74800003 2.341769e-38
-0.010685687 0.042030472 0.74800003 2.341769e-38
-0.0092485556 0.04197428 0.74700004 2.341769e-38
-0.0078047737 0.041861907 0.74500006 2.2957078e-38
-0.0063857436 0.041861918 0.74500006 2.258578e-38
-0.0049533397 0.041749537 0.74300003 2.2677605e-38
-0.003538073 0.041749533 0.74300003 2.276119e-38
-0.0021200078 0.041693337 0.74200004 2.2861635e-38
-0.00070666056 0.041693348 0.74200004 2.3047104e-38
0.00070665311 0.041693345 0.74199998 2.2956349e-38
0.0021199984 0.041693348 0.74200004 2.2862725e-38
0.0035238294 0.041580956 0.74000001 2.3141107e-38
0.0049466593 0.041693348 0.74200004 2.341769e-38
0.0063600047 0.041693334 0.74200004 2.341769e-38
0.0077523785 0.041580956 0.74000001 2.341769e-38
0.0091619315 0.041580968 0.74000001 2.341769e-38
0.010571458 0.041580956 0.74000001 2.341769e-38
0.011980983 0.041580953 0.74000007 2.341769e-38
0.013426672 0.041693348 0.74200004 2.341769e-38
0.014839985 0.041693348 0.74199998 2.341769e-38
0.016253334 0.041693334 0.74199998 2.341769e-38
0.017666679 0.041693345 0.74200004 2.341769e-38
0.019079994 0.041693348 0.74199998 2.341769e-38
0.020520952 0.041749537 0.74300003 2.341769e-38
0.021906681 0.041693345 0.74200004 2.341769e-38
0.023351435 0.041749533 0.74300003 2.341769e-38
0.024766674 0.041749537 0.74300003 2.341769e-38
0.026252367 0.041861899 0.74500006 2.341769e-38
0.02774572 0.041974284 0.74699998 2.341769e-38
0.029207643 0.042030465 0.74800003 2.341769e-38
0.030714266 0.042142868 0.75000006 2.341769e-38
0.032142863 0.042142868 0.75000006 2.341769e-38
0.033571426 0.042142861 0.75000006 2.341769e-38
0.035093326 0.042255253 0.75200003 2.341769e-38
0.036525708 0.04225523 0.75200003 2.341769e-38
0.038008593 0.042311419 0.75300002 2.341769e-38
0.039547637 0.042423803 0.75500005 2.3325833e-38
0.041040026 0.042480003 0.75600004 1.982243e-38
0.042704746 0.042704765 0.76000005 1.6321201e-38
0.044152375 0.042704783 0.76000005 1.6506305e-38
0.045660015 0.04276095 0.76100004 1.678468e-38
0.047233347 0.042873334 0.76300001 1.7060901e-38
-0.032785714 0.044442866 0.76499999 1.8065288e-38
-0.031328574 0.044442851 0.76499999 1.8163251e-38
-0.029871438 0.04444287 0.76500005 1.8257623e-38
-0.028414298 0.044442855 0.76500005 1.9273937e-38
-0.026886653 0.044326674 0.76300001 2.0190494e-38
-0.025366638 0.044210471 0.76100004 1.9815257e-38
-0.02382285 0.044036195 0.75799996 1.9455809e-38
-0.02231998 0.043920003 0.75600004 1.9825665e-38
-0.020852355 0.043861903 0.75500005 2.0101538e-38
-0.019362843 0.043745723 0.75300008 2.0655072e-38
-0.017904751 0.043687616 0.75200003 2.1114966e-38
-0.016428564 0.043571439 0.75000006 2.1575937e-38
-0.015000026 0.043571442 0.75 2.1944007e-38
-0.013535212 0.043455239 0.74800003 2.2683006e-38
-0.012110466 0.043455236 0.74800003 2.341769e-38
-0.010685692 0.043455232 0.74800003 2.341769e-38
-0.009248564 0.043397136 0.74700004 2.341769e-38
-0.0078047663 0.043280955 0.74500006 2.341769e-38
-0.0063857352 0.043280967 0.745 2.3416251e-38
-0.0049533406 0.043164764 0.74300003 2.341768e-38
-0.0035380749 0.043164767 0.74300003 2.3414452e-38
-0.0021200133 0.043106683 0.74200004 2.341768e-38
-0.00070666615 0.043106664 0.74200004 2.3416966e-38
0.00070664752 0.043106683 0.74199998 2.3417684e-38
0.0021199929 0.043106683 0.74200004 2.3416611e-38
0.0035333382 0.043106671 0.74200004 2.341769e-38
0.0049466537 0.043106668 0.74199998 2.341769e-38
0.0063599991 0.043106671 0.74200004 2.341769e-38
0.0077733425 0.043106671 0.74200004 2.341769e-38
0.0091866599 0.043106671 0.74199998 2.341769e-38
0.010600005 0.043106671 0.74200004 2.341769e-38
0.012013319 0.043106683 0.74199998 2.341769e-38
0.013426664 0.043106671 0.74199998 2.341769e-38
0.014840011 0.043106679 0.74200004 2.341769e-38
0.016253324 0.043106671 0.74199998 2.341769e-38
0.017666673 0.043106675 0.74200004 2.341769e-38
0.019080017 0.043106664 0.74200004 2.341769e-38
0.020520955 0.043164764 0.74300003 2.341769e-38
0.021936221 0.043164752 0.74300003 2.341769e-38
0.023351431 0.043164767 0.74300003 2.341769e-38
0.024766672 0.04316476 0.74300003 2.341769e-38
0.026252374 0.043280948 0.74500006 2.341769e-38
0.02774574 0.043397143 0.74700004 2.341769e-38
0.029207664 0.043455224 0.74800003 2.341769e-38
0.030714273 0.043571442 0.75000006 2.341769e-38
0.032142863 0.043571446 0.75000006 2.341769e-38
0.03357143 0.043571435 0.75000006 2.341769e-38
0.035093337 0.043687616 0.75200003 2.341769e-38
0.036525723 0.043687627 0.75200003 2.341769e-38
0.038008582 0.043745697 0.75300008 2.3417689e-38
0.039547641 0.043861903 0.75500005 2.3321519e-38
0.041040037 0.043919995 0.7560001 1.9729861e-38
0.042592354 0.044036198 0.75799996 1.6137887e-38
0.044036195 0.044036191 0.75800002 1.6226508e-38
0.045780011 0.044326682 0.76299995 1.6322281e-38
0.047233328 0.044326685 0.76299995 1.6599214e-38
0.049005717 0.044617139 0.76800001 1.6785047e-38
-0.032785721 0.045900002 0.76500005 1.5586456e-38
-0.031328581 0.04590001 0.76500005 1.7060168e-38
-0.029871415 0.04590001 0.76499999 1.8535647e-38
-0.028414275 0.045899998 0.76499999 1.9549438e-38
-0.026886642 0.045780014 0.76300001 2.0560703e-38
-0.025366666 0.045659997 0.76100004 2.000359e-38
-0.023885721 0.045600016 0.76000005 1.9456885e-38
-0.022379048 0.045480009 0.75800002 1.9825665e-38
-0.020852355 0.045300007 0.75500005 2.0192655e-38
-0.019414257 0.045300011 0.75500005 2.0562515e-38
-0.017904764 0.045119997 0.75200003 2.0931293e-38
-0.016472382 0.045120005 0.75200003 2.1298277e-38
-0.015000022 0.045000017 0.75 2.1664195e-38
-0.013535216 0.044879999 0.74800009 2.2497183e-38
-0.012110446 0.044879999 0.74800003 2.3325854e-38
-0.01068567 0.044879995 0.74800003 2.341769e-38
-0.0092485743 0.044819992 0.74700004 2.341769e-38
-0.0078256959 0.044819996 0.74700004 2.341769e-38
-0.0063857287 0.044700015 0.745 2.341769e-38
-0.0049666679 0.044700012 0.74500006 2.341769e-38
-0.0035476377 0.044700012 0.745 2.341769e-38
-0.0021200208 0.044520002 0.74199998 2.341769e-38
-0.0007066736 0.044520006 0.74200004 2.341769e-38
0.00070667174 0.044520013 0.74200004 2.341769e-38
0.0021199854 0.044520006 0.74199998 2.341769e-38
0.0035333307 0.044520009 0.74200004 2.341769e-38
0.0049466761 0.044519998 0.74200004 2.341769e-38
0.0063599916 0.044520006 0.74199998 2.341769e-38
0.007773337 0.044519998 0.74200004 2.341769e-38
0.0091866506 0.044520009 0.74199998 2.341769e-38
0.010599998 0.044520009 0.74200004 2.341769e-38
0.012013341 0.044519998 0.74200004 2.341769e-38
0.013444779 0.044580005 0.74300003 2.341769e-38
0.01485999 0.044580005 0.74300003 2.341769e-38
0.016275261 0.044580001 0.74300003 2.341769e-38
0.017690502 0.044580001 0.74300009 2.341769e-38
0.019105712 0.044580009 0.74300003 2.341769e-38
0.020520978 0.044579998 0.74300003 2.341769e-38
0.021936189 0.044580013 0.74300003 2.341769e-38
0.023351435 0.044580013 0.74300003 2.341769e-38
0.024833322 0.044700012 0.745 2.341769e-38
0.026252383 0.0447 0.74500006 2.341769e-38
0.027745727 0.044820003 0.74700004 2.341769e-38
0.029207632 0.044879995 0.74800003 2.341769e-38
0.030714273 0.04500002 0.75 2.341769e-38
0.03214287 0.045000017 0.75000006 2.341769e-38
0.033660941 0.045120008 0.75200003 2.341769e-38
0.035093352 0.045119993 0.75200003 2.3050348e-38
0.036525704 0.045120001 0.75200003 2.2683005e-38
0.038008608 0.045179993 0.75300008 2.2403909e-38
0.039547637 0.045300007 0.75500005 2.2129443e-38
0.041040014 0.045359999 0.75600004 1.9268873e-38
0.042592373 0.045480009 0.75799996 1.6406576e-38
0.044152372 0.045600004 0.76000005 1.6226522e-38
0.045779992 0.045780018 0.76300001 1.6137901e-38
0.047233339 0.045780007 0.76299995 1.6507739e-38
0.048941921 0.046020001 0.76700008 1.6875809e-38
-0.031328559 0.047357146 0.76499999 1.595455e-38
-0.029871421 0.047357146 0.76499999 1.8719323e-38
-0.028414283 0.047357146 0.76500005 1.9827828e-38
-0.026886657 0.047233332 0.76300001 2.0834777e-38
-0.025366662 0.047109518 0.7610001 2.0181514e-38
-0.023885723 0.04704763 0.76000005 1.9454731e-38
-0.022379033 0.04692382 0.75800002 1.9919298e-38
-0.020879976 0.046799995 0.75600004 2.0286646e-38
-0.019414283 0.046738096 0.75500005 2.047104e-38
-0.017904751 0.046552386 0.75200003 2.0654711e-38
-0.016472396 0.04655239 0.75200003 2.1021336e-38
-0.015000016 0.046428591 0.75 2.1300799e-38
-0.013571423 0.046428591 0.75000006 2.2314947e-38
-0.012142859 0.046428587 0.75 2.3233302e-38
-0.010685703 0.046304762 0.74800003 2.3325854e-38
-0.0092485845 0.046242855 0.74699998 2.341769e-38
-0.0078257062 0.046242855 0.74700004 2.341769e-38
-0.0063857464 0.04611906 0.745 2.341769e-38
-0.0049666874 0.046119045 0.74500006 2.341769e-38
-0.0035476563 0.046119053 0.745 2.341769e-38
-0.0021199966 0.045933336 0.74200004 2.341769e-38
-0.00070668105 0.045933343 0.74199998 2.341769e-38
0.00070666615 0.045933332 0.74200004 2.341769e-38
0.0021200096 0.045933336 0.74200004 2.341769e-38
0.0035333252 0.045933343 0.74199998 2.341769e-38
0.0049466705 0.045933332 0.74200004 2.341769e-38
0.006359986 0.045933347 0.74199998 2.341769e-38
0.0077733314 0.045933347 0.74200004 2.341769e-38
0.0091866748 0.045933336 0.74200004 2.341769e-38
0.010599992 0.045933351 0.74199998 2.341769e-38
0.012029537 0.045995247 0.74300003 2.341769e-38
0.013444777 0.045995247 0.74300003 2.341769e-38
0.01485999 0.045995243 0.74300003 2.341769e-38
0.016275259 0.04599525 0.74300003 2.341769e-38
0.017690498 0.045995235 0.74300009 2.341769e-38
0.01910574 0.045995247 0.74300003 2.341769e-38
0.020520981 0.045995235 0.74300003 2.341769e-38
0.021936193 0.045995247 0.74300003 2.341769e-38
0.023351433 0.045995247 0.74300003 2.341769e-38
0.024833303 0.046119064 0.74500006 2.341769e-38
0.026252363 0.046119045 0.74500006 2.341769e-38
0.027745716 0.046242852 0.74700004 2.341769e-38
0.029207628 0.046304766 0.74800003 2.341769e-38
0.030714281 0.046428595 0.75 2.341769e-38
0.03214287 0.046428591 0.75000006 2.341769e-38
0.033660956 0.046552375 0.75200003 2.341769e-38
0.035093341 0.046552379 0.75200003 2.2683006e-38
0.036574319 0.046614293 0.75300002 2.1942577e-38
0.038109541 0.046738096 0.75500005 2.1385817e-38
0.039547637 0.046738103 0.75500005 2.0838737e-38
0.041040048 0.046799999 0.75600004 1.8810093e-38
0.042592388 0.046923805 0.75799996 1.6691422e-38
0.044152368 0.047047634 0.76000005 1.6319062e-38
0.045660026 0.047109511 0.76100004 1.5863827e-38
0.047233354 0.047233343 0.76300001 1.6417347e-38
0.049005706 0.047542859 0.76800001 1.6877966e-38
-0.029871427 0.048814282 0.76500005 1.8906225e-38
-0.028414287 0.048814286 0.76500005 1.9735647e-38
-0.026886674 0.048686679 0.76299995 2.047246e-38
-0.025433328 0.048686683 0.76299995 1.9821339e-38
-0.023917105 0.048559029 0.7610001 1.9178863e-38
-0.022379044 0.048367612 0.75800002 1.9640924e-38
-0.020879969 0.048239991 0.75600004 2.0103693e-38
-0.019439975 0.048240002 0.75600004 2.047104e-38
-0.017928533 0.048048567 0.75300008 2.0838024e-38
-0.016472379 0.047984757 0.75200003 2.1390832e-38
-0.015000014 0.04785715 0.75 2.2039072e-38
-0.01357142 0.047857154 0.75000006 2.2681928e-38
-0.012142857 0.047857162 0.75 2.3232225e-38
-0.010685708 0.047729522 0.74800003 2.3325496e-38
-0.0092609329 0.047729522 0.74800003 2.341769e-38
-0.0078257164 0.047665719 0.74700004 2.341769e-38
-0.0063857399 0.047538109 0.745 2.341769e-38
-0.0049666781 0.047538094 0.74500006 2.341769e-38
-0.003547647 0.047538102 0.745 2.341769e-38
-0.0021200022 0.04734667 0.74200004 2.341769e-38
-0.00070759561 0.047410481 0.74300009 2.341769e-38
0.00070761796 0.047410477 0.74300003 2.341769e-38
0.0021200022 0.047346674 0.74200004 2.341769e-38
0.0035333177 0.047346685 0.74199998 2.341769e-38
0.004946663 0.047346674 0.74200004 2.341769e-38
0.0063600084 0.047346674 0.74200004 2.341769e-38
0.0077733239 0.047346674 0.74199998 2.341769e-38
0.0091866693 0.047346674 0.74200004 2.341769e-38
0.010600013 0.047346681 0.74200004 2.341769e-38
0.012029537 0.047410481 0.74300003 2.341769e-38
0.013444777 0.047410481 0.74300009 2.341769e-38
0.014860016 0.047410481 0.74300003 2.341769e-38
0.016275257 0.047410481 0.74300003 2.341769e-38
0.017690469 0.047410488 0.74300003 2.341769e-38
0.019105736 0.047410481 0.74300003 2.341769e-38
0.020520976 0.047410481 0.74300009 2.341769e-38
0.021936186 0.047410477 0.74300003 2.341769e-38
0.023351457 0.047410481 0.74300003 2.341769e-38
0.02483331 0.047538094 0.745 2.341769e-38
0.026252374 0.047538098 0.74500006 2.341769e-38
0.027745705 0.047665715 0.74700004 2.341769e-38
0.029207647 0.047729511 0.74800003 2.341769e-38
0.030714285 0.047857154 0.75 2.341769e-38
0.032142878 0.04785715 0.75000006 2.341769e-38
0.033660945 0.04798476 0.75200003 2.341769e-38
0.03509333 0.047984771 0.75200003 2.3047478e-38
0.036574308 0.048048574 0.75300008 2.2671874e-38
0.038109545 0.048176199 0.75500005 2.2401737e-38
0.039547641 0.048176207 0.75500005 2.2131982e-38
0.041040022 0.048240002 0.75600004 2.0379585e-38
0.042592373 0.048367616 0.75800002 1.8535678e-38
0.044036187 0.04836762 0.75800002 1.7243143e-38
0.046020012 0.048941907 0.76700002 1.6050365e-38
0.047542859 0.049005706 0.76800001 1.6510265e-38
0.049005713 0.049005724 0.76800001 1.6970883e-38
0.050468564 0.04900571 0.76800001 1.7338948e-38
-0.029871432 0.050271433 0.76500005 1.9086666e-38
-0.028414268 0.05027144 0.76500005 1.9644519e-38
-0.026886661 0.050140005 0.76299995 2.0100808e-38
-0.025433343 0.050140023 0.76300001 1.9544039e-38
-0.023917131 0.050008565 0.76100004 1.8901554e-38
-0.022438098 0.04994287 0.76000005 1.9361455e-38
-0.020935245 0.049811438 0.75799996 1.9824951e-38
-0.019439967 0.049679995 0.75600004 2.0379923e-38
-0.017928571 0.049482863 0.75300002 2.0929501e-38
-0.016472366 0.049417134 0.75200003 2.1848213e-38
-0.015040011 0.049417138 0.75200003 2.2772319e-38
-0.013571414 0.049285725 0.75000006 2.3048912e-38
-0.012142878 0.049285732 0.75000006 2.3233302e-38
-0.010685687 0.049154282 0.74800003 2.3325854e-38
-0.0092609115 0.049154282 0.74800003 2.341769e-38
-0.0078257266 0.049088567 0.74699998 2.341769e-38
-0.0064028483 0.049088567 0.74700004 2.341769e-38
-0.0049666706 0.048957143 0.74500006 2.341769e-38
-0.0035476116 0.048957147 0.74500006 2.341769e-38
-0.0021228371 0.048825711 0.74300003 2.341769e-38
-0.00070762727 0.048825722 0.74300003 2.341769e-38
0.00070764031 0.048825711 0.74300003 2.341769e-38
0.0021228818 0.048825715 0.74300003 2.341769e-38
0.0035333401 0.048760012 0.74200004 2.341769e-38
0.0049533611 0.048825715 0.74300003 2.341769e-38
0.0063685728 0.048825726 0.74300003 2.341769e-38
0.0077838143 0.048825722 0.74300003 2.341769e-38
0.0091990819 0.048825718 0.74300003 2.341769e-38
0.010600007 0.048760001 0.74200004 2.341769e-38
0.012029535 0.048825726 0.74300003 2.341769e-38
0.013444771 0.048825726 0.74300003 2.341769e-38
0.014860014 0.048825711 0.74300003 2.341769e-38
0.01625333 0.048760016 0.74199998 2.341769e-38
0.017690493 0.048825726 0.74300003 2.341769e-38
0.019105736 0.048825715 0.74300003 2.341769e-38
0.020520948 0.048825722 0.74300003 2.341769e-38
0.021936215 0.04882573 0.74300003 2.341769e-38
0.023351455 0.048825711 0.74300009 2.341769e-38
0.02483332 0.048957162 0.745 2.341769e-38
0.026252378 0.048957147 0.74500006 2.341769e-38
0.027745724 0.049088582 0.74699998 2.341769e-38
0.029207647 0.049154285 0.74800003 2.341769e-38
0.03071426 0.049285728 0.75 2.341769e-38
0.032142855 0.049285725 0.75000006 2.341769e-38
0.033660956 0.049417153 0.75200003 2.341769e-38
0.035093311 0.049417149 0.75200003 2.341769e-38
0.0365743 0.049482845 0.75300008 2.3414815e-38
0.038109548 0.049614284 0.75500005 2.3417679e-38
0.039547645 0.049614292 0.75500005 2.3417682e-38
0.041040029 0.049679998 0.75600004 2.1948316e-38
0.042480022 0.049680006 0.75600004 2.0371309e-38
