# .PCD v0.7 - Point Cloud Data file format
VERSION 0.7
FIELDS x y z rgb
SIZE 4 4 4 4
TYPE F F F F
COUNT 1 1 1 1
WIDTH 981
HEIGHT 1
VIEWPOINT 0 0 0 1 0 0 0
POINTS 981
DATA ascii
0.029207638 0.044879984 0.74800009 2.341769e-38
0.030714294 0.044999987 0.75000006 2.341769e-38
0.032142863 0.044999983 0.75000006 2.341769e-38
0.033571433 0.044999991 0.75000006 2.341769e-38
0.035140019 0.045179993 0.75300002 2.341769e-38
0.036574308 0.04518 0.75300002 2.3417687e-38
0.038109552 0.045299988 0.75500011 2.1850741e-38
0.039600015 0.045359984 0.75600004 2.0371643e-38
0.041148577 0.045479998 0.75800002 1.8162164e-38
0.042704776 0.045599997 0.76000005 1.6042805e-38
0.044210494 0.045659989 0.76100004 1.6136825e-38
0.045779999 0.045779984 0.76300001 1.6231522e-38
0.047357164 0.045899995 0.7650001 1.6416259e-38
0.0488143 0.045899991 0.76500005 1.6599577e-38
-0.029871427 0.047357131 0.76500005 1.4754183e-38
-0.028340016 0.047233321 0.76300001 1.7430001e-38
-0.026816195 0.047109514 0.76100004 2.0006083e-38
-0.025333332 0.047047619 0.76000005 2.1211092e-38
-0.023885708 0.047047608 0.76000011 2.2310975e-38
-0.022379052 0.046923798 0.75800002 2.2866662e-38
-0.020879993 0.046799984 0.75600004 2.341695e-38
-0.019439993 0.046799988 0.7560001 2.3417661e-38
-0.017904757 0.04655236 0.75200009 2.3417316e-38
-0.016472379 0.046552375 0.75200009 2.341769e-38
-0.015039996 0.046552375 0.75200003 2.341769e-38
-0.013571429 0.046428572 0.75000006 2.3142183e-38
-0.012142862 0.046428572 0.75000006 2.2865241e-38
-0.0106857 0.04630474 0.74800009 2.3139311e-38
-0.0092485612 0.046242844 0.7470001 2.3325136e-38
-0.0078257164 0.046242844 0.74700004 2.341769e-38
-0.0064028474 0.046242848 0.7470001 2.341769e-38
-0.0049666665 0.046119045 0.74500006 2.341769e-38
-0.0035476089 0.046119034 0.74500006 2.3325854e-38
-0.0021228343 0.045995232 0.74300009 2.341769e-38
-0.00070759933 0.045995228 0.74300003 2.341769e-38
0.00070763985 0.045995232 0.74300009 2.341769e-38
0.0021200078 0.045933329 0.74200004 2.341769e-38
0.0035381038 0.045995239 0.74300003 2.341769e-38
0.004953349 0.045995228 0.74300003 2.341769e-38
0.0063685845 0.045995243 0.74300003 2.341769e-38
0.0077838306 0.045995228 0.74300009 2.341769e-38
0.0091990652 0.045995243 0.74300003 2.341769e-38
0.010614304 0.045995228 0.74300009 2.341769e-38
0.012013341 0.045933329 0.74200004 2.341769e-38
0.013444774 0.045995239 0.74300003 2.341769e-38
0.01486002 0.045995228 0.74300009 2.341769e-38
0.016253345 0.045933317 0.74200004 2.341769e-38
0.017690495 0.045995228 0.74300009 2.341769e-38
0.019105729 0.045995228 0.74300003 2.341769e-38
0.020520965 0.045995239 0.74300003 2.341769e-38
0.02193621 0.045995239 0.74300009 2.341769e-38
0.023351446 0.045995243 0.74300003 2.341769e-38
0.024766693 0.045995228 0.74300009 2.341769e-38
0.026252387 0.046119057 0.74500006 2.341769e-38
0.027745716 0.046242852 0.74700004 2.341769e-38
0.029207634 0.046304759 0.74800003 2.341769e-38
0.030714294 0.046428569 0.75000006 2.341769e-38
0.032142866 0.046428576 0.75000006 2.341769e-38
0.033660967 0.04655236 0.75200009 2.341769e-38
0.035093345 0.04655236 0.75200009 2.341769e-38
0.036574308 0.046614274 0.75300002 2.3415892e-38
0.038109533 0.046738084 0.75500005 2.1664915e-38
0.039600004 0.046799995 0.75600004 1.9916792e-38
0.041148573 0.046923812 0.75800002 1.797854e-38
0.042704776 0.04704763 0.76000005 1.605e-38
0.044210486 0.0471095 0.76100004 1.6318695e-38
0.045900021 0.047357123 0.7650001 1.6505948e-38
0.047480963 0.047480945 0.76700002 1.6693918e-38
0.049133353 0.047666658 0.7700001 1.6785405e-38
0.050600022 0.04766665 0.77000004 1.7428622e-38
-0.029871415 0.048814267 0.7650001 1.4098004e-38
-0.028414281 0.048814278 0.76500005 1.5946604e-38
-0.026886677 0.048686653 0.76300001 1.7786955e-38
-0.02536666 0.048559032 0.76100004 1.7977135e-38
-0.023885697 0.048495241 0.76000005 1.8170859e-38
-0.022379046 0.048367612 0.75800002 2.0563612e-38
-0.020879984 0.048239991 0.7560001 2.2958511e-38
-0.019439995 0.048239991 0.75600004 2.3142183e-38
-0.017928557 0.048048563 0.75300008 2.341769e-38
-0.016472386 0.047984749 0.75200003 2.341769e-38
-0.015039994 0.047984749 0.75200009 2.341769e-38
-0.013571421 0.047857128 0.75000006 2.3141465e-38
-0.012142853 0.047857124 0.75000006 2.2955999e-38
-0.010685699 0.0477295 0.74800009 2.3140743e-38
-0.0092609441 0.047729511 0.74800009 2.3325852e-38
-0.0078257117 0.047665708 0.74700004 2.341769e-38
-0.0064028422 0.047665697 0.7470001 2.341769e-38
-0.0049666702 0.047538098 0.74500006 2.341769e-38
-0.0035476116 0.047538087 0.74500006 2.341769e-38
-0.0021228455 0.04741047 0.74300003 2.341769e-38
-0.00070759933 0.04741047 0.74300009 2.341769e-38
0.00070763519 0.047410473 0.74300003 2.341769e-38
0.0021228814 0.047410458 0.74300009 2.341769e-38
0.0035381094 0.04741047 0.74300003 2.341769e-38
0.0049533444 0.047410466 0.74300003 2.341769e-38
0.0063685905 0.047410473 0.74300009 2.341769e-38
0.007783826 0.04741047 0.74300003 2.341769e-38
0.0091990726 0.047410455 0.74300009 2.341769e-38
0.010614301 0.04741047 0.74300003 2.341769e-38
0.012013342 0.047346648 0.74200004 2.341769e-38
0.013444781 0.04741047 0.74300009 2.341769e-38
0.014860018 0.04741047 0.74300003 2.341769e-38
0.016275262 0.04741047 0.74300009 2.341769e-38
0.017690498 0.047410466 0.74300003 2.341769e-38
0.019105727 0.047410481 0.74300003 2.341769e-38
0.020520972 0.04741047 0.74300009 2.341769e-38
0.021936208 0.047410466 0.74300003 2.341769e-38
0.023414295 0.047538094 0.74500006 2.341769e-38
0.024833336 0.047538098 0.74500006 2.341769e-38
0.02632287 0.0476657 0.7470001 2.341769e-38
0.02774572 0.047665715 0.74700004 2.341769e-38
0.029207636 0.047729503 0.74800003 2.341769e-38
0.030632392 0.047729515 0.74800003 2.341769e-38
0.032142866 0.047857132 0.75000006 2.341769e-38
0.033660967 0.047984753 0.75200009 2.341769e-38
0.035140015 0.048048571 0.75300002 2.341769e-38
0.036671445 0.048176173 0.75500005 2.3417684e-38
0.038109548 0.048176184 0.75500005 2.2589007e-38
0.039600015 0.048239991 0.75600004 2.167281e-38
0.041148584 0.048367623 0.75800002 2.019663e-38
0.042704783 0.048495233 0.76000011 1.8635763e-38
0.04421049 0.048559029 0.76100004 1.7428247e-38
0.046080019 0.049005717 0.76800001 1.6320838e-38
0.047542877 0.049005713 0.76800001 1.6601005e-38
0.049005732 0.049005706 0.76800001 1.6969797e-38
-0.029871417 0.050271425 0.76500005 1.3369095e-38
-0.028414274 0.050271414 0.7650001 1.4470786e-38
-0.026886676 0.050139993 0.76300001 1.5484592e-38
-0.025433328 0.050139979 0.76300001 1.4739893e-38
-0.023917133 0.050008561 0.7610001 1.3934191e-38
-0.022379054 0.049811434 0.75800002 1.8166529e-38
-0.020935245 0.049811423 0.75800002 2.2402818e-38
-0.019439988 0.049679995 0.75600004 2.2958513e-38
-0.017928556 0.049482856 0.75300008 2.341769e-38
-0.016472379 0.049417142 0.75200003 2.341769e-38
-0.015039988 0.049417127 0.75200009 2.341769e-38
-0.013571422 0.04928571 0.75000006 2.3234019e-38
-0.012142854 0.049285702 0.75000006 2.2957792e-38
-0.010714276 0.049285706 0.75000012 2.3141462e-38
-0.0092609273 0.049154274 0.74800009 2.3325494e-38
-0.0078257071 0.049088553 0.74700004 2.341769e-38
-0.0064028525 0.04908856 0.7470001 2.341769e-38
-0.0049799932 0.049088571 0.74700004 2.341769e-38
-0.0035476154 0.048957143 0.74500006 2.341769e-38
-0.002122832 0.048825704 0.74300009 2.341769e-38
-0.00070761098 0.0488257 0.74300003 2.341769e-38
0.00070764218 0.0488257 0.74300009 2.341769e-38
0.0021228776 0.048825718 0.74300003 2.341769e-38
0.0035381056 0.048825715 0.74300003 2.341769e-38
0.0049533509 0.0488257 0.74300009 2.341769e-38
0.0063685868 0.048825711 0.74300003 2.341769e-38
0.007783833 0.048825704 0.74300009 2.341769e-38
0.009199067 0.048825715 0.74300003 2.341769e-38
0.010614297 0.048825711 0.74300003 2.341769e-38
0.012013335 0.048759989 0.74200004 2.341769e-38
0.013444779 0.048825711 0.74300003 2.341769e-38
0.014860024 0.0488257 0.74300009 2.341769e-38
0.016253337 0.048759997 0.74200004 2.341769e-38
0.017690487 0.048825707 0.74300003 2.341769e-38
0.019105732 0.048825692 0.74300003 2.341769e-38
0.020520967 0.048825707 0.74300003 2.341769e-38
0.021936214 0.048825711 0.74300009 2.341769e-38
0.023414291 0.048957147 0.74500006 2.341769e-38
0.024833335 0.048957147 0.74500006 2.341769e-38
0.026252393 0.04895715 0.74500006 2.341769e-38
0.027782882 0.049154267 0.74800009 2.341769e-38
0.029207638 0.049154278 0.74800009 2.3417331e-38
0.030714285 0.049285699 0.75000006 2.341769e-38
0.032142855 0.049285714 0.75000006 2.341769e-38
0.033660967 0.049417131 0.75200009 2.341769e-38
0.035140011 0.049482856 0.75300002 2.341769e-38
0.036671445 0.049614273 0.75500005 2.3417687e-38
0.038109545 0.049614266 0.75500005 2.3417326e-38
0.039600022 0.049679987 0.7560001 2.3417686e-38
0.041148577 0.049811423 0.75800002 2.231566e-38
0.042592391 0.04981143 0.75800002 2.1199982e-38
0.04421049 0.050008554 0.76100004 1.8621394e-38
0.046080027 0.050468568 0.76800001 1.6049642e-38
0.047542881 0.050468564 0.76800001 1.660245e-38
0.049005739 0.050468575 0.76800001 1.7062712e-38
-0.029871419 0.051728554 0.7650001 1.3929111e-38
-0.028488576 0.051863804 0.76700002 1.5028979e-38
-0.02695713 0.051728554 0.7650001 1.6226792e-38
-0.025499996 0.051728558 0.76500005 1.6594497e-38
-0.023980007 0.05159333 0.76300001 1.6965442e-38
-0.02243809 0.051390473 0.76000011 1.9637296e-38
-0.020935239 0.051255237 0.75800002 2.2404595e-38
-0.01943998 0.051119987 0.7560001 2.286596e-38
-0.017928567 0.05091713 0.75300008 2.341769e-38
-0.016472377 0.050849505 0.75200009 2.341769e-38
-0.015039997 0.05084952 0.75200009 2.341769e-38
-0.013607617 0.050849516 0.75200003 2.3142183e-38
-0.01214286 0.050714273 0.75000006 2.2958152e-38
-0.010714278 0.050714273 0.75000006 2.3049269e-38
-0.0092609366 0.050579045 0.74800003 2.32333e-38
-0.0078361817 0.050579038 0.74800003 2.323366e-38
-0.0064114146 0.050579023 0.74800009 2.3325854e-38
-0.0049799886 0.050511423 0.74700004 2.341769e-38
-0.0035571335 0.050511427 0.7470001 2.341769e-38
-0.0021228432 0.050240941 0.74300003 2.341769e-38
-0.00070759701 0.050240945 0.74300009 2.341769e-38
0.00070763845 0.050240941 0.74300003 2.341769e-38
0.0021228669 0.050240953 0.74300003 2.341769e-38
0.0035381126 0.050240941 0.74300009 2.341769e-38
0.0049533471 0.050240956 0.74300003 2.341769e-38
0.0063685933 0.050240941 0.74300009 2.341769e-38
0.0077838292 0.050240941 0.74300003 2.341769e-38
0.0091990558 0.050240956 0.74300003 2.341769e-38
0.010614303 0.050240941 0.74300009 2.341769e-38
0.012029537 0.050240953 0.74300003 2.341769e-38
0.013444784 0.050240941 0.74300009 2.341769e-38
0.014860019 0.050240941 0.74300003 2.341769e-38
0.016275255 0.050240941 0.74300009 2.341769e-38
0.017690493 0.050240956 0.74300009 2.341769e-38
0.019105727 0.050240953 0.74300003 2.341769e-38
0.020520972 0.050240938 0.74300009 2.341769e-38
0.021936202 0.050240949 0.74300003 2.341769e-38
0.023414297 0.050376199 0.74500006 2.341769e-38
0.024833335 0.050376199 0.745 2.341769e-38
0.026322857 0.050511435 0.74700004 2.341769e-38
0.027745722 0.05051142 0.74700004 2.341769e-38
0.029207634 0.050579038 0.74800009 2.341769e-38
0.030632397 0.050579034 0.74800009 2.341769e-38
0.032142866 0.050714284 0.75000006 2.341769e-38
0.033571433 0.050714277 0.75000006 2.341769e-38
0.035140026 0.050917123 0.75300008 2.341769e-38
0.036574304 0.050917141 0.75300002 2.341769e-38
0.038109548 0.051052369 0.75500005 2.3141107e-38
0.039600011 0.051119994 0.75600004 2.2774839e-38
0.041148573 0.051255245 0.75799996 2.0559662e-38
0.04270478 0.051390473 0.76000011 1.8339091e-38
0.044152401 0.051390462 0.76000011 1.7425024e-38
0.046080016 0.051931418 0.76800001 1.6510979e-38
0.047666684 0.052066654 0.7700001 1.6878682e-38
-0.028414277 0.053185701 0.7650001 1.5672921e-38
-0.026957128 0.053185701 0.76500005 1.6967608e-38
-0.025433334 0.053046662 0.76300001 1.8537803e-38
-0.023917129 0.052907601 0.7610001 2.0003943e-38
-0.022438077 0.052838083 0.76000005 2.1196373e-38
-0.020935239 0.052699048 0.75800002 2.2310619e-38
-0.019439999 0.052559994 0.75600004 2.2866677e-38
-0.017928563 0.052351419 0.75300008 2.341769e-38
-0.016494272 0.052351426 0.75300008 2.341769e-38
-0.015040005 0.052281894 0.75200003 2.341769e-38
-0.013607624 0.052281909 0.75200003 2.3142183e-38
-0.012175235 0.052281894 0.75200009 2.2865598e-38
-0.010714283 0.052142844 0.75000012 2.2955277e-38
-0.0092857154 0.052142851 0.75000006 2.3048909e-38
-0.0078571476 0.052142847 0.75000006 2.3141106e-38
-0.0064285654 0.052142847 0.75000006 2.323366e-38
-0.0049866536 0.052003801 0.74800003 2.3325854e-38
-0.0035571288 0.051934287 0.7470001 2.341769e-38
-0.0021285643 0.051795229 0.74500006 2.341769e-38
-0.00070760865 0.051656187 0.74300003 2.341769e-38
0.00070762727 0.051656187 0.74300003 2.341769e-38
0.0021228734 0.051656187 0.74300009 2.341769e-38
0.0035381094 0.051656183 0.74300003 2.341769e-38
0.0049533541 0.051656172 0.74300009 2.341769e-38
0.0063685896 0.051656187 0.74300003 2.341769e-38
0.0077838358 0.051656187 0.74300009 2.341769e-38
0.0091990633 0.051656183 0.74300009 2.341769e-38
0.010614299 0.051656187 0.74300003 2.341769e-38
0.012029544 0.051656187 0.74300009 2.341769e-38
0.013444782 0.051656183 0.74300003 2.341769e-38
0.01486002 0.051656183 0.74300009 2.341769e-38
0.016275253 0.051656179 0.74300003 2.341769e-38
0.017690489 0.051656179 0.74300003 2.341769e-38
0.019105734 0.051656183 0.74300009 2.341769e-38
0.020576194 0.051795229 0.74500006 2.341769e-38
0.021995245 0.051795237 0.74500006 2.341769e-38
0.023477146 0.051934291 0.74700004 2.341769e-38
0.024900012 0.051934276 0.7470001 2.341769e-38
0.026358115 0.05200379 0.74800003 2.341769e-38
0.02778287 0.052003801 0.74800003 2.341769e-38
0.029207634 0.052003793 0.74800003 2.341769e-38
0.030714298 0.052142855 0.75000006 2.341769e-38
0.032142863 0.052142851 0.75000006 2.341769e-38
0.033660967 0.052281901 0.75200003 2.341769e-38
0.035233352 0.052490462 0.75500005 2.341769e-38
0.036671437 0.052490469 0.75500005 2.3416612e-38
0.038160022 0.052559979 0.7560001 2.2770893e-38
0.039600015 0.05255999 0.75600004 2.2126239e-38
0.041257162 0.05283808 0.76000005 1.8808312e-38
0.04270478 0.052838087 0.76000005 1.5404289e-38
0.044210494 0.052907608 0.7610001 1.6228646e-38
0.045660015 0.052907605 0.76100004 1.6968354e-38
0.047666676 0.053533327 0.77000004 1.7153821e-38
-0.028414274 0.054642845 0.76500005 1.567509e-38
-0.026957143 0.054642845 0.76500005 1.6697875e-38
-0.025433332 0.054499988 0.76300001 1.7987199e-38
-0.023917142 0.054357141 0.76100004 1.9366515e-38
-0.022438079 0.054285713 0.76000005 2.0649331e-38
-0.020935232 0.054142848 0.75800002 2.1948312e-38
-0.019439992 0.05399999 0.75600004 2.2683006e-38
-0.01797617 0.053928562 0.75500005 2.341769e-38
-0.01649427 0.0537857 0.75300008 2.341769e-38
-0.015039998 0.05371429 0.75200003 2.341769e-38
-0.013607608 0.053714272 0.75200009 2.3141825e-38
-0.012175228 0.053714283 0.75200003 2.2957072e-38
-0.010742864 0.053714279 0.75200003 2.2863796e-38
-0.0092857173 0.053571422 0.75000006 2.2865594e-38
-0.0078571383 0.053571422 0.75000012 2.3141822e-38
-0.006428571 0.053571418 0.75000006 2.3325853e-38
-0.0049866526 0.053428564 0.74800003 2.341769e-38
-0.0035618967 0.053428575 0.74800003 2.341769e-38
-0.0021285675 0.053214282 0.74500006 2.341769e-38
-0.00070950994 0.053214282 0.74500006 2.341769e-38
0.00070953043 0.053214286 0.74500006 2.341769e-38
0.0021228688 0.053071428 0.74300003 2.341769e-38
0.003538115 0.053071413 0.74300009 2.341769e-38
0.0049533499 0.053071424 0.74300003 2.341769e-38
0.0063685956 0.053071417 0.74300009 2.341769e-38
0.0077838236 0.053071428 0.74300003 2.341769e-38
0.0091990586 0.053071424 0.74300003 2.341769e-38
0.010614306 0.053071424 0.74300009 2.341769e-38
0.012029541 0.053071424 0.74300003 2.341769e-38
0.013444788 0.053071413 0.74300009 2.341769e-38
0.014860022 0.053071424 0.74300003 2.341769e-38
0.016275248 0.053071424 0.74300003 2.341769e-38
0.017690497 0.053071424 0.74300009 2.341769e-38
0.019157154 0.053214289 0.74500006 2.341769e-38
0.020576192 0.053214286 0.74500006 2.341769e-38
0.02205429 0.05335715 0.74700004 2.341769e-38
0.023477154 0.053357139 0.74700004 2.341769e-38
0.024933355 0.053428553 0.74800009 2.341769e-38
0.026358118 0.053428549 0.74800009 2.341769e-38
0.027782874 0.053428557 0.74800009 2.341769e-38
0.029285718 0.053571425 0.75000006 2.341769e-38
0.030714294 0.053571425 0.75000012 2.341769e-38
0.032142863 0.053571418 0.75000006 2.341769e-38
0.033660971 0.053714275 0.75200009 2.341769e-38
0.035140023 0.0537857 0.75300008 2.341769e-38
0.036671445 0.053928569 0.75500005 2.3417687e-38
0.038160019 0.054000001 0.75600004 2.2864876e-38
0.03970477 0.054142855 0.75800002 2.2314204e-38
0.041257162 0.054285709 0.76000005 1.9270341e-38
0.042760964 0.054357123 0.7610001 1.6230797e-38
0.044326678 0.054499984 0.76300001 1.6875075e-38
0.046200018 0.054999996 0.7700001 1.7429318e-38
0.047790494 0.05514285 0.77200001 1.7429677e-38
-0.028488582 0.056246668 0.76699996 1.5762982e-38
-0.026957132 0.056099989 0.7650001 1.63255e-38
-0.025433339 0.055953335 0.76300001 1.752979e-38
-0.023979992 0.05595332 0.76300001 1.8623541e-38
-0.022467615 0.055806652 0.7610001 2.0085353e-38
-0.020935243 0.05558667 0.75799996 2.1478688e-38
-0.019491432 0.055586658 0.75800002 2.24993e-38
-0.017976174 0.055366661 0.75500005 2.3416596e-38
-0.016494282 0.055220004 0.75300008 2.341769e-38
-0.01505999 0.055219997 0.75300008 2.341769e-38
-0.013607617 0.055146646 0.75200009 2.3234019e-38
-0.012175237 0.055146661 0.75200003 2.2956715e-38
-0.010742847 0.055146661 0.75200009 2.2860211e-38
-0.009285708 0.054999992 0.75000006 2.2680849e-38
-0.0078571402 0.055000003 0.75000006 2.3050347e-38
-0.0064285723 0.055 0.75000006 2.341769e-38
-0.0049866512 0.05485332 0.74800009 2.341769e-38
-0.0035618958 0.054853335 0.74800003 2.341769e-38
-0.0021285708 0.054633334 0.74500006 2.341769e-38
-0.00070951274 0.054633334 0.74500006 2.341769e-38
0.00070952764 0.054633334 0.74500006 2.341769e-38
0.0021228753 0.054486655 0.74300009 2.341769e-38
0.0035476177 0.054633334 0.74500006 2.341769e-38
0.0049533565 0.054486658 0.74300009 2.341769e-38
0.0063685915 0.054486655 0.74300003 2.341769e-38
0.0077838204 0.05448667 0.74300003 2.341769e-38
0.0091990661 0.054486658 0.74300009 2.341769e-38
0.010614303 0.054486655 0.74300003 2.341769e-38
0.012029548 0.054486658 0.74300009 2.341769e-38
0.013444777 0.054486655 0.74300003 2.341769e-38
0.014860013 0.054486666 0.74300003 2.341769e-38
0.016275257 0.054486651 0.74300009 2.341769e-38
0.017690493 0.054486666 0.74300003 2.341769e-38
0.019105738 0.054486651 0.74300009 2.341769e-38
0.020576188 0.054633338 0.745 2.341769e-38
0.022054287 0.054779995 0.74700004 2.341769e-38
0.02347715 0.054779999 0.7470001 2.341769e-38
0.024933344 0.054853324 0.74800003 2.341769e-38
0.026358116 0.054853305 0.74800009 2.341769e-38
0.027857142 0.054999992 0.75000006 2.341769e-38
0.029285718 0.054999992 0.75000006 2.341769e-38
0.030714286 0.055000007 0.75000006 2.341769e-38
0.032228582 0.055146653 0.75200003 2.341769e-38
0.03370573 0.055219997 0.75300008 2.341769e-38
0.035140019 0.055219986 0.75300008 2.341769e-38
0.036720015 0.055439994 0.75600004 2.3416967e-38
0.038160019 0.055439994 0.7560001 2.295599e-38
0.039704774 0.05558667 0.75800002 2.2401735e-38
0.041257158 0.055733338 0.76000005 1.9728448e-38
0.042760968 0.055806659 0.76100004 1.706199e-38
0.044210494 0.055806641 0.7610001 1.7519733e-38
0.046080016 0.056319989 0.76800001 1.7890299e-38
0.047666684 0.05646665 0.7700001 1.7798461e-38
-0.030144768 0.058083802 0.77200001 1.5584667e-38
-0.028599991 0.057933345 0.77000004 1.6503407e-38
-0.026957149 0.057557136 0.76500005 1.7331374e-38
-0.02549999 0.057557136 0.7650001 1.8255839e-38
-0.023980016 0.057406668 0.76300001 1.9165548e-38
-0.022467604 0.057256173 0.7610001 1.8801757e-38
-0.020990459 0.057180949 0.76000005 1.8442334e-38
-0.019491442 0.057030473 0.75799996 1.9086642e-38
-0.017976178 0.056804746 0.75500011 1.9740289e-38
-0.016538074 0.056804754 0.75500011 2.0472138e-38
-0.015059987 0.056654282 0.75300008 2.1305474e-38
-0.013607609 0.056579039 0.75200003 2.2130917e-38
-0.012175244 0.056579035 0.75200003 2.295851e-38
-0.010742854 0.056579039 0.75200009 2.2956713e-38
-0.0092857089 0.056428574 0.75000006 2.3049269e-38
-0.0078571411 0.05642857 0.75000006 2.323366e-38
-0.0064285635 0.056428552 0.75000006 2.341769e-38
-0.0049866498 0.05627808 0.74800009 2.341769e-38
-0.0035618942 0.056278072 0.74800009 2.341769e-38
-0.0021342854 0.056202859 0.7470001 2.341769e-38
-0.00070951646 0.056052376 0.74500006 2.341769e-38
0.00070952438 0.056052387 0.74500006 2.341769e-38
0.0021285741 0.056052394 0.74500006 2.341769e-38
0.0035476224 0.05605239 0.745 2.341769e-38
0.004966672 0.056052379 0.74500006 2.341769e-38
0.0063685812 0.055901896 0.74300003 2.341769e-38
0.0077838264 0.055901896 0.74300009 2.341769e-38
0.0092238085 0.056052394 0.745 2.341769e-38
0.01064286 0.056052379 0.74500006 2.341769e-38
0.012029544 0.055901896 0.74300003 2.341769e-38
0.013444773 0.055901896 0.74300003 2.341769e-38
0.014860018 0.0559019 0.74300003 2.341769e-38
0.016275251 0.055901896 0.74300003 2.341769e-38
0.017690498 0.055901896 0.74300009 2.341769e-38
0.019157143 0.056052372 0.74500006 2.341769e-38
0.020631442 0.056202844 0.7470001 2.341769e-38
0.022054294 0.056202855 0.74700004 2.341769e-38
0.023508588 0.056278087 0.74800009 2.341769e-38
0.024933344 0.056278087 0.74800003 2.341769e-38
0.026358107 0.05627808 0.74800003 2.341769e-38
0.027857149 0.056428563 0.75000006 2.341769e-38
0.02928572 0.056428574 0.75000006 2.341769e-38
0.030714288 0.05642857 0.75000006 2.341769e-38
0.032228585 0.056579031 0.75200009 2.341769e-38
0.033705734 0.056654282 0.75300008 2.341769e-38
0.035140026 0.056654278 0.75300008 2.341769e-38
0.036720015 0.056879994 0.75600004 2.3417682e-38
0.038160011 0.056880008 0.75600004 2.2679043e-38
0.039704762 0.057030492 0.75800002 2.1944352e-38
0.041257158 0.057180949 0.76000005 1.9455458e-38
0.042760961 0.057256181 0.76100004 1.6972317e-38
0.04432667 0.057406653 0.76300001 1.7063798e-38
0.046200018 0.057933331 0.77000004 1.7159931e-38
0.047790483 0.058083814 0.77200001 1.6510976e-38
0.049452398 0.05830951 0.7750001 1.5958175e-38
-0.03006666 0.059399992 0.7700001 1.6046726e-38
-0.028525701 0.059245702 0.76800001 1.7242057e-38
-0.027027626 0.059168562 0.76700002 1.8348402e-38
-0.02549999 0.059014279 0.76500005 1.9088479e-38
-0.023979997 0.058859985 0.76300001 1.9723744e-38
-0.022438083 0.058628574 0.76000005 1.7513902e-38
-0.020990461 0.058628563 0.76000005 1.5301239e-38
-0.019491425 0.058474284 0.75800002 1.5664994e-38
-0.01799999 0.058319993 0.75600004 1.5948785e-38
-0.016538087 0.058242846 0.75500005 1.7608672e-38
-0.015039997 0.05801142 0.75200009 1.9174927e-38
-0.013607617 0.058011416 0.75200003 2.1026015e-38
-0.012175228 0.058011416 0.75200009 2.2865238e-38
-0.010742848 0.058011416 0.75200003 2.3142181e-38
-0.009310483 0.058011428 0.75200003 2.341733e-38
-0.0078571467 0.057857137 0.75000006 2.341769e-38
-0.0064285789 0.057857148 0.75000006 2.341769e-38
-0.0049999971 0.057857148 0.75000006 2.341769e-38
-0.003571419 0.05785713 0.75000006 2.341769e-38
-0.0021342807 0.057625707 0.7470001 2.341769e-38
-0.00071142148 0.057625704 0.74700004 2.341769e-38
0.0007095309 0.057471428 0.74500006 2.341769e-38
0.0021285703 0.057471428 0.74500006 2.341769e-38
0.0035476284 0.057471432 0.74500006 2.341769e-38
0.0049666679 0.057471428 0.74500006 2.341769e-38
0.0063857189 0.057471417 0.74500006 2.341769e-38
0.0078047658 0.057471432 0.74500006 2.341769e-38
0.0092238178 0.057471424 0.74500006 2.341769e-38
0.010642857 0.057471436 0.74500006 2.341769e-38
0.012029542 0.05731713 0.74300009 2.341769e-38
0.013444779 0.057317138 0.74300003 2.341769e-38
0.014860013 0.057317138 0.74300003 2.341769e-38
0.016275257 0.057317123 0.74300009 2.341769e-38
0.017738102 0.057471424 0.74500006 2.341769e-38
0.019157141 0.057471424 0.74500006 2.341769e-38
0.020631438 0.057625704 0.7470001 2.341769e-38
0.02205429 0.057625715 0.74700004 2.341769e-38
0.023508592 0.057702847 0.74800009 2.341769e-38
0.024933353 0.057702843 0.74800009 2.341769e-38
0.026428575 0.057857148 0.75000006 2.341769e-38
0.027857143 0.057857145 0.75000006 2.341769e-38
0.029285723 0.05785713 0.75000006 2.341769e-38
0.030796193 0.058011424 0.75200003 2.341769e-38
0.032228578 0.058011409 0.75200009 2.341769e-38
0.03370573 0.05808856 0.75300008 2.341769e-38
0.035233356 0.058242843 0.75500011 2.341769e-38
0.036720019 0.05831999 0.7560001 2.3323695e-38
0.038160019 0.05831999 0.75600004 2.2398158e-38
0.03970477 0.05847428 0.75800002 2.1481224e-38
0.041311447 0.058705699 0.76100004 1.9177072e-38
0.042760961 0.058705699 0.76100004 1.6879387e-38
0.044326674 0.058859993 0.76300001 1.6694993e-38
0.046200015 0.0594 0.7700001 1.6415168e-38
0.04779049 0.059554283 0.77200001 1.5310615e-38
0.049452398 0.059785701 0.77500004 1.4112449e-38
-0.031533323 0.060866673 0.77000004 1.466629e-38
-0.029988565 0.060708575 0.76800001 1.5313846e-38
-0.02852571 0.060708571 0.76800001 1.6783258e-38
-0.027027616 0.060629517 0.76699996 1.8261609e-38
-0.02556666 0.060629517 0.76700002 1.918249e-38
-0.023979995 0.060313325 0.76300001 2.0096475e-38
-0.022467615 0.060155213 0.7610001 1.7047543e-38
-0.020990463 0.060076188 0.76000005 1.3991475e-38
-0.019491436 0.059918087 0.75800002 1.3439359e-38
-0.017999997 0.059759993 0.75600004 1.2984876e-38
-0.016559983 0.059759997 0.7560001 1.4372123e-38
-0.015099988 0.059680942 0.75500005 1.5841191e-38
-0.013607616 0.059443794 0.75200009 1.8343407e-38
-0.012175236 0.059443794 0.75200009 2.0844497e-38
-0.010742856 0.059443809 0.75200003 2.2131634e-38
-0.0093104662 0.059443794 0.75200009 2.341769e-38
-0.0078571476 0.059285719 0.75000006 2.341769e-38
-0.0064285705 0.059285704 0.75000006 2.341769e-38
-0.0050000027 0.059285715 0.75000006 2.341769e-38
-0.0035714349 0.059285711 0.75000006 2.341769e-38
-0.0021342761 0.059048552 0.7470001 2.341769e-38
-0.00071143173 0.059048567 0.74700004 2.341769e-38
0.00071143778 0.059048571 0.7470001 2.341769e-38
0.0021285745 0.058890477 0.74500006 2.341769e-38
0.0035571526 0.059048563 0.74700004 2.341769e-38
0.0049800067 0.059048563 0.7470001 2.341769e-38
0.0064028595 0.059048567 0.74700004 2.341769e-38
0.007825722 0.059048571 0.7470001 2.341769e-38
0.0092485826 0.05904856 0.7470001 2.341769e-38
0.010642861 0.058890484 0.74500006 2.341769e-38
0.012029539 0.058732368 0.74300003 2.341769e-38
0.013444776 0.058732368 0.74300003 2.341769e-38
0.014900009 0.058890477 0.74500006 2.341769e-38
0.016319048 0.058890488 0.74500006 2.341769e-38
0.017738106 0.058890481 0.74500006 2.341769e-38
0.01920858 0.059048563 0.7470001 2.341769e-38
0.020631433 0.059048574 0.74700004 2.341769e-38
0.022083817 0.059127606 0.74800003 2.341769e-38
0.02350858 0.059127614 0.74800003 2.341769e-38
0.024933355 0.059127603 0.74800009 2.341769e-38
0.026428575 0.0592857 0.75000006 2.341769e-38
0.027857151 0.059285715 0.75000006 2.341769e-38
0.029363813 0.059443802 0.75200003 2.341769e-38
0.030796206 0.059443787 0.75200009 2.341769e-38
0.032271441 0.059522845 0.75300008 2.341769e-38
0.033795256 0.059680942 0.75500005 2.341769e-38
0.035233352 0.059680939 0.75500005 2.341769e-38
0.036720011 0.059759993 0.75600004 2.3417684e-38
0.038260955 0.059918094 0.75799996 2.295563e-38
0.039809551 0.060076192 0.76000005 2.2497509e-38
0.041311443 0.060155228 0.76100004 1.9915692e-38
0.042760964 0.060155224 0.76100004 1.7335675e-38
0.044326682 0.060313329 0.76300001 1.6776756e-38
0.046320003 0.06102477 0.77200001 1.6310741e-38
0.047976203 0.061261896 0.77500004 1.6683801e-38
0.049580004 0.06141999 0.77700007 1.7141539e-38
-0.031615235 0.062495243 0.77200001 1.4480859e-38
-0.030066662 0.062333342 0.77000004 1.4476571e-38
-0.028599983 0.062333327 0.7700001 1.6315808e-38
-0.027062848 0.062171429 0.76800001 1.8073265e-38
-0.025566669 0.062090471 0.76700002 1.9283296e-38
-0.024042848 0.061928555 0.7650001 2.0371623e-38
-0.022467619 0.061604738 0.7610001 1.6588004e-38
-0.020990465 0.061523803 0.76000005 1.2705041e-38
-0.019491419 0.061361898 0.75800002 1.13002e-38
-0.017999988 0.061199985 0.7560001 9.9438535e-39
-0.016559999 0.0612 0.75600004 1.1236746e-38
-0.015099992 0.061119042 0.75500005 1.2530391e-38
-0.013607609 0.060876172 0.75200009 1.5661465e-38
-0.012175229 0.060876187 0.75200003 1.8810453e-38
-0.010742865 0.060876183 0.75200003 2.1121803e-38
-0.0093104746 0.060876187 0.75200009 2.341769e-38
-0.0078780949 0.060876183 0.75200003 2.341769e-38
-0.0064285714 0.060714286 0.75000006 2.341769e-38
-0.0050000036 0.060714282 0.75000006 2.341769e-38
-0.0035714258 0.060714282 0.75000006 2.341769e-38
-0.0021371311 0.060552377 0.74800003 2.341769e-38
-0.0007114266 0.06047143 0.74700004 2.341769e-38
0.00071143545 0.060471419 0.7470001 2.341769e-38
0.0021342877 0.060471434 0.74700004 2.341769e-38
0.0035571498 0.060471423 0.74700004 2.341769e-38
0.0049800118 0.060471427 0.7470001 2.341769e-38
0.0064028646 0.06047143 0.74700004 2.341769e-38
0.0078257266 0.060471419 0.7470001 2.341769e-38
0.009248578 0.060471434 0.74700004 2.341769e-38
0.010671432 0.060471423 0.74700004 2.341769e-38
0.012061908 0.060309522 0.74500006 2.341769e-38
0.013480966 0.060309514 0.74500006 2.341769e-38
0.014900007 0.060309529 0.74500006 2.341769e-38
0.016319057 0.060309529 0.74500006 2.341769e-38
0.017785722 0.06047143 0.74700004 2.341769e-38
0.019208578 0.060471419 0.7470001 2.341769e-38
0.020659065 0.060552359 0.74800009 2.341769e-38
0.022083828 0.060552366 0.74800003 2.341769e-38
0.023508584 0.060552381 0.74800003 2.341769e-38
0.025000008 0.060714271 0.75000006 2.341769e-38
0.026428577 0.060714282 0.75000006 2.341769e-38
0.027857142 0.060714282 0.75000006 2.341769e-38
0.029363813 0.060876194 0.75200003 2.341769e-38
0.030796198 0.060876179 0.75200009 2.341769e-38
0.032271437 0.060957145 0.75300008 2.341769e-38
0.033795264 0.061119042 0.75500005 2.341769e-38
0.035280012 0.061200008 0.75600004 2.341769e-38
0.036720019 0.061199997 0.75600004 2.3417687e-38
0.038260963 0.061361901 0.75800002 2.3417684e-38
0.039809547 0.061523806 0.76000005 2.3414798e-38
0.041311447 0.061604753 0.76100004 2.06529e-38
0.042873342 0.061766658 0.76300001 1.7795187e-38
0.04432667 0.061766658 0.76300001 1.6948528e-38
0.046319999 0.062495254 0.77200001 1.6134918e-38
0.0479762 0.062738091 0.77500004 1.8155653e-38
0.049580004 0.062899999 0.77700001 2.0186453e-38
-0.03165618 0.064048566 0.77300006 1.3276267e-38
-0.030144764 0.063965708 0.77200001 1.427461e-38
-0.028674286 0.063965708 0.77200001 1.5939477e-38
-0.027062843 0.063634291 0.76800001 1.760547e-38
-0.025566675 0.063551426 0.76700002 1.8905913e-38
-0.02404285 0.063385695 0.76500005 2.0283734e-38
-0.022467609 0.063054264 0.7610001 1.6034477e-38
-0.020990467 0.062971428 0.76000005 1.1694829e-38
-0.019491429 0.062805712 0.75800002 1.1319892e-38
-0.01799999 0.062639996 0.75600004 1.1049419e-38
-0.016559992 0.062639982 0.75600004 1.1052659e-38
-0.015099982 0.062557131 0.75500005 1.1055944e-38
-0.013607617 0.062308561 0.75200009 1.5019633e-38
-0.012175237 0.062308557 0.75200003 1.8990866e-38
-0.010742847 0.062308561 0.75200009 2.1208975e-38
-0.0093104681 0.062308561 0.75200009 2.341769e-38
-0.0078780884 0.062308569 0.75200003 2.341769e-38
-0.0064285626 0.062142853 0.75000006 2.341769e-38
-0.0049999943 0.062142849 0.75000006 2.3049272e-38
-0.0035714272 0.062142849 0.75000006 2.2683006e-38
-0.0021371292 0.061977141 0.74800003 2.2865242e-38
-0.00071142241 0.061894279 0.74700004 2.3050348e-38
0.00071144011 0.061894283 0.7470001 2.3049989e-38
0.0021371623 0.061977126 0.74800009 2.3050348e-38
0.0035571475 0.061894286 0.7470001 2.3234019e-38
0.0049799993 0.06189429 0.74700004 2.341769e-38
0.0064028609 0.061894275 0.74700004 2.341769e-38
0.0078257238 0.061894283 0.7470001 2.341769e-38
0.0092485743 0.061894283 0.74700004 2.341769e-38
0.010671437 0.061894286 0.7470001 2.341769e-38
0.012094299 0.061894275 0.7470001 2.341769e-38
0.013480962 0.061728563 0.74500006 2.341769e-38
0.014940014 0.061894279 0.7470001 2.341769e-38
0.016362857 0.06189429 0.74700004 2.341769e-38
0.017785719 0.061894279 0.74700004 2.341769e-38
0.019208582 0.061894272 0.7470001 2.341769e-38
0.020659065 0.061977118 0.74800009 2.341769e-38
0.022083828 0.061977126 0.74800009 2.341769e-38
0.023508592 0.061977141 0.74800009 2.341769e-38
0.025 0.062142853 0.75000006 2.341769e-38
0.026428584 0.062142853 0.75000006 2.341769e-38
0.027857153 0.062142849 0.75000006 2.341769e-38
0.029363824 0.062308557 0.75200009 2.341769e-38
0.030796194 0.062308569 0.75200009 2.341769e-38
0.032271441 0.062391419 0.75300002 2.341769e-38
0.033795256 0.062557124 0.75500005 2.341769e-38
0.035280015 0.062639989 0.75600004 2.341769e-38
0.036817148 0.062805705 0.75800002 2.341769e-38
0.038260952 0.06280572 0.75800002 2.341769e-38
0.039861921 0.063054278 0.7610001 2.3325842e-38
0.041420005 0.063219994 0.76300001 2.1942914e-38
0.042873345 0.063219979 0.76300001 2.0651391e-38
0.044442873 0.063385695 0.7650001 2.0187103e-38
0.046320006 0.063965708 0.77200001 1.9829101e-38
0.0479762 0.064214259 0.77500004 2.0837509e-38
0.049580004 0.064380005 0.77700001 2.1856345e-38
-0.033385705 0.066029519 0.77900004 1.0138666e-38
-0.031656187 0.065520942 0.77300006 1.2078418e-38
-0.03014477 0.065436192 0.77200001 1.4003382e-38
-0.02867429 0.065436192 0.77200001 1.5562079e-38
-0.027133329 0.065266654 0.77000004 1.7053369e-38
-0.025666652 0.065266654 0.7700001 1.8634341e-38
-0.024105711 0.06501238 0.76700002 2.0179666e-38
-0.022526676 0.064673312 0.76300001 1.5479102e-38
-0.02101809 0.064503789 0.7610001 1.0685683e-38
-0.019542845 0.064419053 0.76000005 1.1419253e-38
-0.017999997 0.064079992 0.75600004 1.2061024e-38
-0.016538074 0.063995227 0.75500011 1.0868956e-38
-0.015059984 0.063825712 0.75300002 9.5872791e-39
-0.013625709 0.063825727 0.75300002 1.4369615e-38
-0.012191419 0.063825712 0.75300008 1.9175616e-38
-0.010757128 0.063825712 0.75300008 2.1305474e-38
-0.0093104756 0.063740939 0.75200003 2.341769e-38
-0.0078780865 0.063740924 0.75200009 2.341769e-38
-0.0064457068 0.063740939 0.75200009 2.341661e-38
-0.0049999962 0.063571431 0.75000006 2.2679052e-38
-0.0035714179 0.063571423 0.75000006 2.1944369e-38
-0.0021371283 0.063401893 0.74800009 2.2309919e-38
-0.00071237236 0.063401893 0.74800009 2.2680849e-38
0.00071143685 0.063317142 0.7470001 2.2680851e-38
0.0021342887 0.06331715 0.74700004 2.2682287e-38
0.0035571516 0.063317135 0.7470001 2.3050348e-38
0.004980003 0.06331715 0.74700004 2.341769e-38
0.0064028651 0.06331715 0.74700004 2.341769e-38
0.0078257276 0.063317142 0.7470001 2.341769e-38
0.0092485808 0.063317142 0.74700004 2.341769e-38
0.010671435 0.06331715 0.7470001 2.341769e-38
0.012094286 0.06331715 0.74700004 2.341769e-38
0.013517151 0.06331715 0.74700004 2.341769e-38
0.014940013 0.063317135 0.7470001 2.341769e-38
0.016362863 0.063317135 0.74700004 2.341769e-38
0.017785726 0.063317142 0.7470001 2.341769e-38
0.019208577 0.063317142 0.74700004 2.341769e-38
0.020659057 0.063401885 0.74800003 2.341769e-38
0.022083828 0.063401885 0.74800009 2.341769e-38
0.023508592 0.063401893 0.74800009 2.341769e-38
0.025000004 0.063571423 0.75000006 2.341769e-38
0.026428575 0.063571423 0.75000006 2.341769e-38
0.027931442 0.063740939 0.75200009 2.341769e-38
0.029363817 0.063740931 0.75200009 2.341769e-38
0.030837152 0.063825712 0.75300002 2.341769e-38
0.032271441 0.063825719 0.75300002 2.341769e-38
0.03379526 0.063995227 0.75500005 2.341769e-38
0.035280019 0.06408 0.7560001 2.341769e-38
0.036720008 0.06408 0.75600004 2.3417686e-38
0.038260967 0.06424953 0.75800002 2.3325846e-38
0.039861917 0.064503774 0.7610001 2.3233278e-38
0.041420009 0.064673319 0.76300001 2.3325455e-38
0.042873338 0.064673319 0.76300001 2.3412933e-38
0.044442873 0.06484285 0.76500005 2.3411086e-38
0.046200018 0.065266661 0.7700001 2.3414334e-38
0.047852397 0.065520935 0.77300006 2.3417582e-38
-0.03338569 0.067513332 0.7790001 6.631638e-39
-0.03165618 0.066993341 0.77300006 1.0323098e-38
-0.030144775 0.066906676 0.77200001 1.4098778e-38
-0.028674284 0.066906661 0.77200001 1.5574624e-38
-0.027203806 0.066906661 0.77200001 1.7053717e-38
-0.025666663 0.06673333 0.77000004 1.6594218e-38
-0.024105718 0.066473335 0.76700002 1.6036273e-38
-0.022585705 0.06629999 0.76500005 1.316809e-38
-0.021018082 0.065953314 0.7610001 1.0302523e-38
-0.019542845 0.065866664 0.76000005 1.0495867e-38
-0.018047623 0.065693341 0.75800002 1.0682395e-38
-0.016560001 0.065519989 0.75600004 1.1602171e-38
-0.015099985 0.065433331 0.75500005 1.2615684e-38
-0.013661897 0.065433323 0.75500005 1.6773485e-38
-0.012191416 0.065260001 0.75300002 2.1025961e-38
-0.01075714 0.065259993 0.75300008 2.2222752e-38
-0.0093228491 0.065260001 0.75300008 2.341769e-38
-0.007878094 0.065173313 0.75200009 2.341769e-38
-0.0064457147 0.065173313 0.75200003 2.3417682e-38
-0.005013335 0.065173328 0.75200003 2.2495012e-38
-0.0035714339 0.064999998 0.75000006 2.1483389e-38
-0.0021371273 0.064826652 0.74800009 2.203584e-38
-0.000712357 0.064826652 0.74800009 2.2590445e-38
0.00071239891 0.064826645 0.74800009 2.277376e-38
0.0021371548 0.064826638 0.74800003 2.304891e-38
0.0035619182 0.064826652 0.74800003 2.323366e-38
0.0049866806 0.064826667 0.74800003 2.341769e-38
0.0064114467 0.064826645 0.74800009 2.341769e-38
0.0078362105 0.064826638 0.74800009 2.341769e-38
0.0092609739 0.064826652 0.74800009 2.341769e-38
0.01068573 0.06482666 0.74800003 2.341769e-38
0.012110493 0.064826652 0.74800003 2.341769e-38
0.013535249 0.064826652 0.74800003 2.341769e-38
0.014940009 0.064739987 0.7470001 2.341769e-38
0.016362866 0.064739987 0.74700004 2.341769e-38
0.017809538 0.06482666 0.74800009 2.341769e-38
0.019234302 0.064826652 0.74800003 2.341769e-38
0.020659057 0.064826652 0.74800003 2.341769e-38
0.022083821 0.064826652 0.74800003 2.341769e-38
0.023508584 0.064826652 0.74800003 2.341769e-38
0.024999999 0.06499999 0.75000006 2.341769e-38
0.026499053 0.065173313 0.75200003 2.341769e-38
0.027931442 0.065173313 0.75200009 2.341769e-38
0.029402876 0.065259993 0.75300008 2.341769e-38
0.030837154 0.065260001 0.75300002 2.341769e-38
0.032357167 0.065433316 0.75500011 2.341769e-38
0.033795267 0.065433308 0.75500011 2.341769e-38
0.035280015 0.065519996 0.75600004 2.2407141e-38
0.036817145 0.065693341 0.75800002 2.1489136e-38
0.038260959 0.065693334 0.75800002 2.2035836e-38
0.039861921 0.065953299 0.7610001 2.2588983e-38
0.041420013 0.066126652 0.76300001 2.2957382e-38
0.042985734 0.066299982 0.76500005 2.3416181e-38
0.04455905 0.06647332 0.76699996 2.3415802e-38
0.046080023 0.066559985 0.76800001 2.3417624e-38
0.047976196 0.067166664 0.77500004 2.3323664e-38
-0.030144768 0.068377152 0.77200001 1.4100204e-38
-0.028711429 0.06846571 0.77300012 1.5583577e-38
-0.027203798 0.068377145 0.77200001 1.7048996e-38
-0.025666667 0.068200007 0.7700001 1.4468274e-38
-0.024105724 0.06793429 0.76700002 1.188461e-38
-0.022585707 0.06775713 0.7650001 1.0854974e-38
-0.021073334 0.067579985 0.76300001 9.8494256e-39
-0.019568564 0.06740284 0.76100004 9.5789204e-39
-0.018047621 0.067137152 0.75800002 9.3030888e-39
-0.016559994 0.066960007 0.7560001 1.2425531e-38
-0.015119989 0.066960007 0.75600004 1.557277e-38
-0.0136619 0.066871427 0.75500005 1.926636e-38
-0.012223798 0.06687142 0.75500005 2.2860898e-38
-0.010785694 0.06687142 0.75500005 2.3142183e-38
-0.0093228454 0.066694282 0.75300008 2.341769e-38
-0.0078885546 0.066694275 0.75300008 2.341769e-38
-0.0064457078 0.066605702 0.75200003 2.3415891e-38
-0.0050133327 0.066605687 0.75200009 2.2216644e-38
-0.0035714249 0.066428564 0.75000006 2.1024935e-38
-0.0021371366 0.066251427 0.74800003 2.1758903e-38
-0.00071235606 0.066251412 0.74800009 2.24057e-38
0.0007142853 0.066428572 0.75000006 2.2958151e-38
0.0021371553 0.066251412 0.74800009 2.341733e-38
0.0035619186 0.066251427 0.74800009 2.341769e-38
0.004986681 0.066251419 0.74800003 2.341769e-38
0.0064114369 0.066251412 0.74800003 2.341769e-38
0.0078362003 0.066251427 0.74800003 2.341769e-38
0.0092609739 0.066251427 0.74800009 2.341769e-38
0.01068573 0.066251419 0.74800009 2.341769e-38
0.012110493 0.066251412 0.74800009 2.341769e-38
0.013535256 0.066251412 0.74800003 2.341769e-38
0.014960012 0.066251419 0.74800003 2.341769e-38
0.016384775 0.066251434 0.74800003 2.341769e-38
0.017809547 0.066251412 0.74800009 2.341769e-38
0.019234302 0.066251412 0.74800009 2.341769e-38
0.020659057 0.066251419 0.74800009 2.341769e-38
0.022083828 0.066251427 0.74800003 2.341769e-38
0.023571441 0.066428564 0.75000012 2.341769e-38
0.02500001 0.066428572 0.75000006 2.341769e-38
0.026428575 0.066428572 0.75000006 2.341769e-38
0.027931437 0.066605687 0.75200009 2.341769e-38
0.02940288 0.066694275 0.75300008 2.341769e-38
0.030919058 0.066871434 0.75500005 2.341769e-38
0.032357167 0.066871434 0.75500005 2.341769e-38
0.033795252 0.06687142 0.75500005 2.3417296e-38
0.035280019 0.066960007 0.75600004 2.1487998e-38
0.036720015 0.066960007 0.75600004 1.9456515e-38
0.038361929 0.067314275 0.76000011 2.0646807e-38
0.039861925 0.067402832 0.7610001 2.1852147e-38
0.041420005 0.06758 0.76300001 2.268297e-38
0.042985726 0.067757145 0.76500005 2.3417282e-38
0.044559062 0.067934267 0.76700002 2.3417628e-38
0.046200015 0.068200007 0.77000004 2.3416562e-38
0.047666691 0.068199992 0.7700001 2.3137838e-38
-0.031738099 0.070119053 0.77500004 9.774955e-39
-0.030183813 0.069938093 0.77300006 1.4103426e-38
-0.028711421 0.069938086 0.77300006 1.5395584e-38
-0.027203804 0.069847614 0.77200001 1.677451e-38
-0.025666652 0.069666669 0.7700001 1.5200708e-38
-0.024105715 0.069395244 0.76700002 1.3617234e-38
-0.022585709 0.069214284 0.76500005 1.2887183e-38
-0.021073332 0.069033325 0.76300001 1.2243229e-38
-0.019568568 0.068852365 0.76100004 1.2429381e-38
-0.018047618 0.068580955 0.75800002 1.2607035e-38
-0.016603807 0.068580955 0.75800002 1.5294022e-38
-0.015119998 0.068399996 0.75600004 1.7983867e-38
-0.013679984 0.068399996 0.7560001 2.0562144e-38
-0.012223802 0.068309516 0.75500005 2.3142165e-38
-0.010785698 0.068309516 0.75500005 2.3325854e-38
-0.0093228426 0.068128571 0.75300002 2.341769e-38
-0.0078780958 0.068038084 0.75200003 2.341769e-38
-0.0064457059 0.068038084 0.75200009 2.3417689e-38
-0.0050133262 0.068038084 0.75200009 2.2864522e-38
-0.0035714263 0.067857146 0.75000006 2.2222391e-38
-0.0021371348 0.067676187 0.74800003 2.2589373e-38
-0.00071236445 0.067676187 0.74800003 2.2958152e-38
0.00071239099 0.067676172 0.74800003 2.3142183e-38
0.0021371646 0.067676157 0.74800009 2.341769e-38
0.0035619196 0.067676172 0.74800009 2.341769e-38
0.0049800095 0.067585707 0.74700004 2.341769e-38
0.0064114463 0.067676179 0.74800003 2.341769e-38
0.0078362022 0.067676172 0.74800003 2.341769e-38
0.0092609664 0.067676187 0.74800003 2.341769e-38
0.010685733 0.067676179 0.74800009 2.341769e-38
0.012110494 0.067676179 0.74800009 2.341769e-38
0.013535257 0.067676172 0.74800009 2.341769e-38
0.014960013 0.067676172 0.74800003 2.341769e-38
0.016384775 0.067676179 0.74800003 2.341769e-38
0.017809538 0.067676187 0.74800003 2.341769e-38
0.019234294 0.067676187 0.74800003 2.341769e-38
0.020714287 0.067857146 0.75000006 2.341769e-38
0.022142863 0.067857146 0.75000006 2.341769e-38
0.023571433 0.067857146 0.75000006 2.341769e-38
0.02506667 0.068038084 0.75200003 2.341769e-38
0.026499059 0.068038084 0.75200009 2.341769e-38
0.028042872 0.068309516 0.75500005 2.341769e-38
0.029480966 0.068309508 0.75500005 2.2314588e-38
0.030919069 0.068309516 0.75500005 2.1121803e-38
0.03235716 0.068309531 0.75500005 2.1022792e-38
0.033840016 0.068399996 0.75600004 2.0938062e-38
0.035280023 0.068399981 0.7560001 2.0742481e-38
0.036720015 0.068399981 0.75600004 2.063096e-38
0.038361926 0.068761893 0.76000011 2.1660567e-38
0.039861917 0.068852358 0.7610001 2.2682971e-38
0.041420009 0.069033325 0.76300001 2.305033e-38
0.042873334 0.069033325 0.76300001 2.3417666e-38
0.044442873 0.069214284 0.76500005 2.3417659e-38
0.046380013 0.069938086 0.77300006 2.3417652e-38
-0.031738095 0.071595237 0.77500004 1.0881985e-38
-0.030183805 0.071410477 0.77300006 1.4013387e-38
-0.028711429 0.071410462 0.77300006 1.5303775e-38
-0.027203808 0.071318097 0.77199996 1.6499405e-38
-0.025666665 0.071133338 0.77000004 1.5942627e-38
-0.024105722 0.070856191 0.76699996 1.538656e-38
-0.022585697 0.070671409 0.7650001 1.5016317e-38
-0.02107334 0.070486672 0.76300001 1.4557839e-38
-0.019620007 0.070486657 0.76300001 1.5287841e-38
-0.018095227 0.070209533 0.76000005 1.5942588e-38
-0.016603816 0.070024773 0.75800002 1.8159256e-38
-0.015160004 0.070024759 0.75800002 2.028552e-38
-0.013680001 0.069839999 0.75600004 2.1856468e-38
-0.012239987 0.069839999 0.7560001 2.3417682e-38
-0.010785702 0.069747612 0.75500005 2.341769e-38
-0.009347599 0.069747604 0.75500005 2.341769e-38
-0.0078885639 0.069562852 0.75300008 2.341769e-38
-0.0064542727 0.069562837 0.75300008 2.341769e-38
-0.0050199819 0.069562852 0.75300008 2.3417689e-38
-0.0035714169 0.069285706 0.75000012 2.341733e-38
-0.0021371343 0.069100946 0.74800009 2.3417689e-38
-0.00071236352 0.069100939 0.74800003 2.3417689e-38
0.00071239239 0.069100931 0.74800003 2.341769e-38
0.0021371548 0.069100931 0.74800003 2.341769e-38
0.0035619182 0.069100939 0.74800003 2.341769e-38
0.0049866843 0.069100946 0.74800009 2.341769e-38
0.0064114477 0.069100931 0.74800009 2.341769e-38
0.0078362031 0.069100931 0.74800009 2.341769e-38
0.0092609664 0.069100939 0.74800003 2.341769e-38
0.01068573 0.069100954 0.74800003 2.341769e-38
0.012110486 0.069100946 0.74800003 2.341769e-38
0.013535258 0.069100931 0.74800009 2.341769e-38
0.014960022 0.069100931 0.74800009 2.341769e-38
0.016384782 0.069100939 0.74800009 2.341769e-38
0.017857142 0.069285721 0.75000006 2.341769e-38
0.01928572 0.069285721 0.75000006 2.341769e-38
0.020714287 0.069285721 0.75000006 2.341769e-38
0.022142855 0.069285713 0.75000006 2.341769e-38
0.023571422 0.069285706 0.75000006 2.341769e-38
0.025066672 0.06947045 0.75200009 2.3417679e-38
0.026604781 0.069747604 0.75500005 2.3417668e-38
0.028042875 0.069747612 0.75500005 2.3412954e-38
0.029480971 0.069747612 0.75500005 2.1117733e-38
0.030919066 0.069747604 0.75500005 1.8806108e-38
0.032357167 0.069747612 0.75500005 1.8613156e-38
0.033840012 0.069839992 0.7560001 1.8353053e-38
0.035280015 0.069840007 0.75600004 2.0097186e-38
0.036720011 0.069839999 0.7560001 2.1844585e-38
0.038361926 0.070209518 0.76000005 2.2681881e-38
0.039861917 0.07030189 0.76100004 2.3417288e-38
0.04131145 0.070301883 0.7610001 2.3417652e-38
0.042873338 0.070486657 0.76300001 2.3417661e-38
0.044442881 0.070671409 0.7650001 2.3417669e-38
0.046200022 0.07113333 0.7700001 2.3417661e-38
-0.028711425 0.072882846 0.77300006 1.3378125e-38
-0.02713332 0.0726 0.7700001 1.5222001e-38
-0.025666667 0.0726 0.77000004 1.5770136e-38
-0.024105702 0.072317138 0.76700002 1.6327574e-38
-0.022644758 0.072317138 0.76700002 1.6781338e-38
-0.021128563 0.072128572 0.76500005 1.7244455e-38
-0.019620001 0.07193999 0.76300001 1.8255354e-38
-0.018095229 0.071657136 0.76000005 1.9369616e-38
-0.016647607 0.071657144 0.76000005 2.0563158e-38
-0.015159999 0.071468584 0.75800002 2.1764602e-38
-0.013716187 0.071468577 0.75800002 2.2591171e-38
-0.01223999 0.07128001 0.75600004 2.341769e-38
-0.01079999 0.071279995 0.75600004 2.341769e-38
-0.009347613 0.071185701 0.75500005 2.341769e-38
-0.0078885602 0.070997134 0.75300002 2.341769e-38
-0.0064542694 0.070997149 0.75300008 2.341769e-38
-0.0050199935 0.070997134 0.75300008 2.341769e-38
-0.003571433 0.07071428 0.75000006 2.341769e-38
-0.0021371185 0.070525706 0.74800009 2.341769e-38
-0.00071236258 0.070525706 0.74800009 2.341769e-38
0.00071239285 0.070525698 0.74800009 2.341769e-38
0.0021371562 0.070525706 0.74800003 2.341769e-38
0.0035619196 0.070525721 0.74800003 2.341769e-38
0.0049866755 0.070525713 0.74800003 2.341769e-38
0.0064114481 0.070525698 0.74800009 2.341769e-38
0.0078362115 0.070525706 0.74800009 2.341769e-38
0.0092609655 0.070525713 0.74800009 2.341769e-38
0.010685729 0.070525706 0.74800009 2.341769e-38
0.012110492 0.070525706 0.74800003 2.341769e-38
0.013535248 0.070525706 0.74800003 2.341769e-38
0.014960022 0.070525698 0.74800009 2.341769e-38
0.016384784 0.070525713 0.74800009 2.341769e-38
0.017857144 0.070714295 0.75000006 2.3234019e-38
0.019285718 0.070714287 0.75000006 2.3050348e-38
0.020714289 0.07071428 0.75000006 2.1394798e-38
0.022201909 0.070902854 0.75200003 1.9836106e-38
