# .PCD v0.7 - Point Cloud Data file format
VERSION 0.7
FIELDS x y z rgb
SIZE 4 4 4 4
TYPE F F F F
COUNT 1 1 1 1
WIDTH 998
HEIGHT 1
VIEWPOINT 0 0 0 1 0 0 0
POINTS 998
DATA ascii
0.027671428 0.050376199 0.745 2.341769e-38
0.029168572 0.050511435 0.74699998 2.341769e-38
0.030632369 0.05057906 0.74799997 2.341769e-38
0.032142863 0.050714303 0.75 2.341769e-38
0.033571444 0.050714307 0.75 2.341769e-38
0.035093337 0.050849538 0.75199997 2.341769e-38
0.036525715 0.050849542 0.75199997 2.341769e-38
0.038008578 0.050917141 0.75299996 2.3234019e-38
0.039442848 0.050917141 0.75299996 2.3142178e-38
0.040985711 0.051052395 0.755 2.0558939e-38
0.042423796 0.051052399 0.755 1.8063216e-38
0.043920014 0.051120013 0.75599998 1.7333534e-38
0.04566 0.051458098 0.76099998 1.6603886e-38
0.047357157 0.051728584 0.76499999 1.6879405e-38
0.048814315 0.051728584 0.76499999 1.7154557e-38
-0.032785721 0.053185716 0.76499999 1.6321516e-38
-0.031328563 0.053185716 0.76499999 1.6509137e-38
-0.029871434 0.053185716 0.76499999 1.6602783e-38
-0.028339982 0.05304667 0.76299995 1.7334616e-38
-0.026816193 0.052907631 0.76099998 1.8075055e-38
-0.025333345 0.052838109 0.75999999 1.9274314e-38
-0.023822825 0.052699056 0.75800002 2.0376686e-38
-0.02232 0.052560009 0.75599998 1.8806503e-38
-0.020852398 0.05249048 0.755 1.724889e-38
-0.019362876 0.052351434 0.75299996 1.8071107e-38
-0.017857129 0.052142866 0.75 1.8816924e-38
-0.016428575 0.05214287 0.75 2.1121433e-38
-0.014960008 0.052003819 0.74800003 2.3323696e-38
-0.013535247 0.052003827 0.74799997 2.341769e-38
-0.012094294 0.051934287 0.74700004 2.341769e-38
-0.010671427 0.051934298 0.74699998 2.341769e-38
-0.0092237946 0.05179524 0.745 2.341769e-38
-0.0078047425 0.051795233 0.74500006 2.341769e-38
-0.0063856947 0.05179524 0.745 2.341769e-38
-0.0049666413 0.051795237 0.74500006 2.341769e-38
-0.0035476198 0.05179524 0.745 2.341769e-38
-0.0021199619 0.051586676 0.74199998 2.341769e-38
-0.00070665375 0.051586684 0.74199998 2.341769e-38
0.00070668227 0.05158668 0.74199998 2.341769e-38
0.0021200164 0.051586676 0.74199998 2.341769e-38
0.0035333543 0.051586669 0.74199998 2.341769e-38
0.0049333447 0.051447619 0.74000001 2.341769e-38
0.0063428902 0.051447619 0.74000001 2.341769e-38
0.0077733626 0.051586669 0.74200004 2.3325854e-38
0.0091866963 0.05158668 0.74199998 2.341769e-38
0.010600032 0.051586676 0.74199998 2.3415532e-38
0.01201334 0.051586684 0.74199998 2.258291e-38
0.013426704 0.05158668 0.74199998 2.1669221e-38
0.014840011 0.051586688 0.74199998 2.2131273e-38
0.016253347 0.05158668 0.74199998 2.258937e-38
0.017666712 0.05158668 0.74200004 2.2311349e-38
0.019080017 0.051586688 0.74199998 2.1945807e-38
0.020493357 0.051586684 0.74200004 2.2683006e-38
0.021936219 0.051656179 0.74300003 2.3414812e-38
0.023351451 0.051656187 0.74299997 2.2212692e-38
0.02476671 0.051656187 0.74300003 2.0933101e-38
0.026252406 0.05179524 0.745 2.2223829e-38
0.027745707 0.051934291 0.74699998 2.341769e-38
0.029207617 0.052003816 0.74800003 2.341769e-38
0.03063238 0.052003819 0.74799997 2.341769e-38
0.032142855 0.052142873 0.75 2.341769e-38
0.033660967 0.052281924 0.75199997 2.341769e-38
0.035093315 0.052281924 0.75199997 2.341769e-38
0.036574285 0.052351445 0.75299996 2.341769e-38
0.038109519 0.052490491 0.755 2.3142183e-38
0.039547607 0.052490495 0.755 2.2768014e-38
0.041040011 0.052560013 0.75599998 1.9173862e-38
0.042480018 0.052560017 0.75599998 1.558867e-38
0.044036213 0.052699052 0.75799996 1.6048903e-38
0.045480046 0.052699048 0.75800002 1.6509894e-38
0.047233347 0.05304667 0.76299995 1.6879408e-38
-0.031328581 0.054642871 0.76499999 1.6506272e-38
-0.029871425 0.054642875 0.76499999 1.6689602e-38
-0.028339982 0.054500002 0.76299995 1.7705549e-38
-0.026957139 0.054642856 0.76499999 1.8721134e-38
-0.025333302 0.054285731 0.76000005 2.028522e-38
-0.023822822 0.054142866 0.75800002 2.1845335e-38
-0.02231998 0.05400002 0.75599998 2.0743654e-38
-0.020852409 0.053928576 0.755 1.9639833e-38
-0.019362867 0.053785719 0.75299996 1.9638038e-38
-0.017904749 0.053714301 0.75199997 1.9732038e-38
-0.016428556 0.053571451 0.75 2.12068e-38
-0.014999969 0.053571444 0.75 2.2674385e-38
-0.013535235 0.053428583 0.74799997 2.3048196e-38
-0.012110468 0.053428579 0.74800003 2.341769e-38
-0.010671447 0.053357162 0.74699998 2.341769e-38
-0.0092237964 0.0532143 0.745 2.341769e-38
-0.0078047425 0.053214297 0.74500006 2.341769e-38
-0.0063856957 0.053214304 0.745 2.341769e-38
-0.0049666441 0.053214286 0.74500006 2.341769e-38
-0.0035476217 0.053214293 0.745 2.341769e-38
-0.0021199787 0.053000018 0.74199998 2.341769e-38
-0.00070664071 0.053000011 0.74200004 2.341769e-38
0.00070669345 0.053000022 0.74199998 2.341769e-38
0.0021200294 0.053000014 0.74200004 2.341769e-38
0.0035333375 0.053000022 0.74199998 2.341769e-38
0.0049333447 0.052857153 0.74000001 2.341769e-38
0.0063428902 0.052857138 0.74000001 2.341769e-38
0.0077523799 0.052857146 0.73999995 2.341769e-38
0.0091619231 0.052857142 0.74000001 2.341769e-38
0.010600014 0.053000014 0.74199998 2.341768e-38
0.012013378 0.053000011 0.74199998 2.240138e-38
0.013426686 0.053000018 0.74199998 2.148375e-38
0.014840024 0.053000014 0.74199998 2.1945445e-38
0.016253356 0.053000022 0.74199998 2.2404976e-38
0.017666696 0.053000003 0.74199998 2.2127669e-38
0.01908 0.053000011 0.74199998 2.1850737e-38
0.020493362 0.053000007 0.74199998 2.2681571e-38
0.021936234 0.053071417 0.74300003 2.3417676e-38
0.023351466 0.053071424 0.74299997 2.2216626e-38
0.024833355 0.053214286 0.74500006 2.1024572e-38
0.026252404 0.053214293 0.745 2.2222394e-38
0.027745688 0.053357154 0.74699998 2.341769e-38
0.029207628 0.053428575 0.74800003 2.341769e-38
0.030632392 0.053428579 0.74799997 2.341769e-38
0.032142874 0.053571448 0.75 2.341769e-38
0.033660941 0.053714298 0.75199997 2.341769e-38
0.035093315 0.053714301 0.75199997 2.341769e-38
0.036574267 0.053785726 0.75299996 2.341769e-38
0.038109507 0.053928588 0.755 2.2864525e-38
0.039547596 0.053928591 0.755 2.2215561e-38
0.041040026 0.054000009 0.75599998 1.9174568e-38
0.04259241 0.054142863 0.75799996 1.6047837e-38
0.044036213 0.054142866 0.75799996 1.6599548e-38
0.045659974 0.054357152 0.76099998 1.7150587e-38
-0.033 0.056466691 0.76999992 1.6413349e-38
-0.031328574 0.056100007 0.76499999 1.6596305e-38
-0.029871419 0.056100007 0.76499999 1.6785018e-38
-0.02841429 0.056100007 0.76499999 1.807719e-38
-0.026886646 0.055953342 0.76300001 1.9273581e-38
-0.025333317 0.055733338 0.76000005 2.1300077e-38
-0.02382285 0.055586673 0.75799996 2.3230055e-38
-0.022320017 0.055440024 0.75599998 2.2682984e-38
-0.020852394 0.05536668 0.755 2.2034032e-38
-0.019362859 0.055220004 0.75299996 2.1292889e-38
-0.017904775 0.055146676 0.75199997 2.0562876e-38
-0.016428562 0.055000022 0.75 2.1299005e-38
-0.014999977 0.055000015 0.75 2.194437e-38
-0.01353525 0.054853339 0.74799997 2.2682647e-38
-0.012110457 0.054853339 0.74800003 2.341769e-38
-0.010671412 0.054779999 0.74699998 2.341769e-38
-0.0092237992 0.054633334 0.745 2.341769e-38
-0.0078047472 0.054633327 0.74500006 2.341769e-38
-0.0063856994 0.054633334 0.745 2.341769e-38
-0.0049666478 0.054633331 0.74500006 2.341769e-38
-0.0035476235 0.054633334 0.745 2.341769e-38
-0.0021199936 0.054413352 0.74199998 2.341769e-38
-0.00070663326 0.054413348 0.74199998 2.341769e-38
0.00070667482 0.054413356 0.74199998 2.341769e-38
0.0021200127 0.054413341 0.74199998 2.341769e-38
0.0035333748 0.054413337 0.74199998 2.341769e-38
0.0049466831 0.054413345 0.74199998 2.341769e-38
0.006342866 0.054266661 0.74000001 2.341769e-38
0.0077523817 0.054266669 0.73999995 2.341769e-38
0.0091619249 0.054266665 0.74000001 2.341769e-38
0.010600025 0.054413352 0.74199998 2.3415168e-38
0.012013361 0.054413352 0.74199998 2.230524e-38
0.013426699 0.054413345 0.74200004 2.1207884e-38
0.014840031 0.054413356 0.74199998 2.1761774e-38
0.016253369 0.054413348 0.74200004 2.2220229e-38
0.017666675 0.054413356 0.74199998 2.203476e-38
0.019080041 0.054413352 0.74199998 2.1760338e-38
0.020520993 0.05448667 0.74300003 2.2591171e-38
0.021936227 0.054486662 0.74300003 2.3414808e-38
0.023351453 0.054486673 0.74300003 2.2303799e-38
0.024833351 0.054633331 0.74500006 2.1116409e-38
0.026322853 0.054780014 0.74699998 2.2315664e-38
0.02774572 0.054780006 0.74699998 2.341769e-38
0.029207639 0.054853335 0.74800003 2.341769e-38
0.030714311 0.055000018 0.75 2.341769e-38
0.032142866 0.055000022 0.75 2.341769e-38
0.033660941 0.055146687 0.75199997 2.341769e-38
0.035093345 0.055146679 0.75199997 2.341769e-38
0.036671408 0.055366673 0.755 2.341769e-38
0.038109522 0.05536668 0.755 2.2591171e-38
0.039600037 0.055440016 0.75599998 2.1661678e-38
0.041040026 0.055440016 0.75599998 1.9077353e-38
0.042592414 0.055586677 0.75799996 1.6507391e-38
0.044152416 0.055733338 0.76000005 1.7151313e-38
0.045659993 0.055806674 0.76099998 1.7797759e-38
-0.034556173 0.058083817 0.77200001 1.4757417e-38
-0.032999992 0.057933357 0.76999998 1.6045993e-38
-0.0314105 0.057707634 0.76699996 1.6691361e-38
-0.029871438 0.057557162 0.76499999 1.7430012e-38
-0.028414283 0.057557162 0.76499999 1.8259421e-38
-0.026886621 0.057406668 0.76300001 1.9087756e-38
-0.025333334 0.057180967 0.76000005 2.120681e-38
-0.023822848 0.057030484 0.75799996 2.3234013e-38
-0.022319993 0.056880016 0.75599998 2.2958513e-38
-0.020852406 0.056804765 0.755 2.2774836e-38
-0.019362852 0.056654293 0.75299996 2.2404258e-38
-0.017904773 0.056579068 0.75199997 2.2040152e-38
-0.016428567 0.0564286 0.75 2.2314229e-38
-0.014999982 0.056428593 0.75 2.2683006e-38
-0.013535238 0.056278102 0.74799997 2.3050348e-38
-0.012110501 0.056278106 0.74799997 2.341769e-38
-0.010671431 0.056202866 0.74699998 2.341769e-38
-0.009248591 0.05620287 0.74699998 2.341769e-38
-0.0078257201 0.056202862 0.74699998 2.341769e-38
-0.0063857273 0.056052383 0.745 2.341769e-38
-0.0049666497 0.056052379 0.745 2.341769e-38
-0.0035476272 0.056052387 0.745 2.341769e-38
-0.0021228322 0.055901915 0.74299997 2.341769e-38
-0.0007066463 0.055826686 0.74199998 2.341769e-38
0.00070668972 0.055826683 0.74200004 2.341769e-38
0.0021200238 0.055826679 0.74199998 2.341769e-38
0.0035333617 0.055826675 0.74199998 2.341769e-38
0.0049466682 0.055826679 0.74199998 2.341769e-38
0.0063600321 0.055826679 0.74199998 2.341769e-38
0.00777337 0.055826675 0.74200004 2.341769e-38
0.0091866758 0.055826683 0.74199998 2.341769e-38
0.010600038 0.055826679 0.74199998 2.3417679e-38
0.012013346 0.055826686 0.74199998 2.240102e-38
0.013426708 0.055826671 0.74199998 2.1484824e-38
0.014840016 0.055826675 0.74199998 2.185325e-38
0.016253356 0.055826671 0.74199998 2.2220589e-38
0.017666716 0.055826671 0.74200004 2.1943645e-38
0.019105721 0.055901904 0.74299997 2.1574516e-38
0.02052098 0.0559019 0.74300003 2.24979e-38
0.021936212 0.055901907 0.74299997 2.3417677e-38
0.023351472 0.055901907 0.74300003 2.221627e-38
0.024833351 0.056052383 0.74500006 2.102565e-38
0.02632286 0.056202851 0.74699998 2.2222752e-38
0.027782857 0.056278098 0.74799997 2.341769e-38
0.029207651 0.056278095 0.74800003 2.341769e-38
0.030714305 0.056428578 0.75 2.341769e-38
0.032142863 0.056428585 0.75 2.341769e-38
0.033705741 0.056654289 0.75299996 2.341769e-38
0.035140008 0.056654297 0.75299996 2.341769e-38
0.036671422 0.056804776 0.755 2.341769e-38
0.038109511 0.056804776 0.755 2.2312075e-38
0.039600004 0.05688002 0.75599998 2.1109948e-38
0.041040014 0.056880027 0.75599998 1.8806511e-38
0.042592417 0.057030484 0.75799996 1.6508486e-38
0.044152405 0.05718096 0.76000005 1.706274e-38
0.045659982 0.057256203 0.76099992 1.7619847e-38
0.047233373 0.057406668 0.76299995 1.6787942e-38
-0.034556162 0.059554297 0.77199996 1.4386848e-38
-0.032999992 0.059400018 0.76999998 1.5584307e-38
-0.031451434 0.059245739 0.76799995 1.6784635e-38
-0.029988591 0.059245735 0.76799995 1.798139e-38
-0.028525719 0.059245717 0.76799995 1.8442744e-38
-0.026886649 0.058860011 0.76299995 1.8905523e-38
-0.025366662 0.058705729 0.76099998 2.1113176e-38
-0.023885697 0.058628581 0.76000005 2.3231858e-38
-0.022319973 0.058320016 0.75599998 2.3325854e-38
-0.020852417 0.058242861 0.755 2.3417687e-38
-0.019362872 0.058088575 0.75299996 2.3417684e-38
-0.017904768 0.058011446 0.75199997 2.3417687e-38
-0.016472396 0.05801145 0.75199997 2.341769e-38
-0.014999988 0.057857163 0.75 2.341769e-38
-0.013571434 0.057857163 0.75 2.341769e-38
-0.01211049 0.057702862 0.74799997 2.341769e-38
-0.010685697 0.057702862 0.74800003 2.341769e-38
-0.0092485575 0.057625711 0.74699998 2.341769e-38
-0.0078257164 0.057625718 0.74699998 2.341769e-38
-0.0063856752 0.057471424 0.74500006 2.341769e-38
-0.0049666534 0.057471428 0.745 2.341769e-38
-0.0035476291 0.057471432 0.745 2.341769e-38
-0.0021228415 0.057317145 0.74299997 2.341769e-38
-0.00070666306 0.057240009 0.74199998 2.341769e-38
0.00070669904 0.057240006 0.74199998 2.341769e-38
0.002120035 0.057240006 0.74200004 2.341769e-38
0.0035333431 0.057240009 0.74199998 2.341769e-38
0.0049467073 0.057240009 0.74199998 2.341769e-38
0.0063600135 0.057240013 0.74199998 2.341769e-38
0.0077733514 0.057240009 0.74200004 2.341769e-38
0.0091866851 0.057240017 0.74199998 2.341769e-38
0.010600021 0.057240013 0.74199998 2.3415168e-38
0.012029557 0.057317138 0.74300003 2.2580388e-38
0.013444785 0.057317141 0.74300003 2.1668138e-38
0.014860047 0.057317141 0.74300003 2.1945804e-38
0.016253361 0.057240024 0.74199998 2.2220949e-38
0.01769051 0.057317145 0.74300003 2.1852526e-38
0.019080006 0.057240009 0.74199998 2.1391921e-38
0.020520998 0.057317149 0.74300003 2.24075e-38
0.021936201 0.057317141 0.74299997 2.3414089e-38
0.023414293 0.057471432 0.745 2.2209811e-38
0.024833346 0.057471424 0.745 2.0932737e-38
0.026322868 0.057625718 0.74699998 2.2223829e-38
0.027782867 0.057702873 0.74799997 2.341769e-38
0.029207604 0.057702877 0.74799997 2.341769e-38
0.030714301 0.057857156 0.75 2.341769e-38
0.032142855 0.05785716 0.75 2.341769e-38
0.033571441 0.057857152 0.75 2.341769e-38
0.035093322 0.058011446 0.75199997 2.341769e-38
0.036574289 0.058088571 0.75299996 2.3417324e-38
0.0381095 0.058242876 0.755 2.2037991e-38
0.039600022 0.058320019 0.75599998 2.0557836e-38
0.041040011 0.058320019 0.75599998 1.8529539e-38
0.042592421 0.058474299 0.75800002 1.6508805e-38
0.04415239 0.058628581 0.76000005 1.6971577e-38
0.045659974 0.058705725 0.76099998 1.7425722e-38
0.047109518 0.058705729 0.76099998 1.5770521e-38
-0.034556177 0.061024781 0.77199996 1.419995e-38
-0.032999989 0.060866684 0.76999998 1.5395258e-38
-0.031451441 0.06070859 0.76799995 1.641335e-38
-0.02998857 0.060708586 0.76799995 1.7522937e-38
-0.028414294 0.060471438 0.76499999 1.8075413e-38
-0.026886653 0.060313337 0.76299995 1.8630738e-38
-0.025366701 0.060155258 0.76099998 2.0287011e-38
-0.023885712 0.060076207 0.76000005 2.1948312e-38
-0.022379035 0.059918106 0.75799996 2.2130199e-38
-0.020879965 0.059760015 0.75599998 2.2315664e-38
-0.019414313 0.059680965 0.755 2.2680854e-38
-0.017904766 0.05944382 0.75199997 2.3050348e-38
-0.016472392 0.059443824 0.75199997 2.3049989e-38
-0.014999997 0.059285738 0.75 2.3050348e-38
-0.013571415 0.059285745 0.75 2.3234019e-38
-0.012110479 0.059127625 0.74799997 2.341769e-38
-0.010685712 0.059127618 0.74800003 2.341769e-38
-0.0092485771 0.059048571 0.74699998 2.341769e-38
-0.007825736 0.059048574 0.74699998 2.341769e-38
-0.006385677 0.058890488 0.74500006 2.341769e-38
-0.0049666534 0.058890477 0.745 2.341769e-38
-0.003547603 0.058890469 0.74500006 2.341769e-38
-0.0021228266 0.058732376 0.74299997 2.341769e-38
-0.00070662581 0.05865334 0.74199998 2.341769e-38
0.00070668227 0.058653347 0.74199998 2.341769e-38
0.0021200182 0.05865334 0.74199998 2.341769e-38
0.0035333524 0.058653351 0.74199998 2.341769e-38
0.0049466905 0.058653343 0.74199998 2.341769e-38
0.0063600265 0.058653343 0.74200004 2.341769e-38
0.0077733607 0.058653347 0.74199998 2.341769e-38
0.0091866981 0.058653347 0.74200004 2.341769e-38
0.010600004 0.05865334 0.74199998 2.341768e-38
0.012029542 0.058732379 0.74299997 2.2402456e-38
0.013444802 0.058732376 0.74300003 2.1487697e-38
0.014860034 0.058732372 0.74300003 2.1946164e-38
0.016253345 0.058653347 0.74199998 2.2405337e-38
0.017690523 0.058732376 0.74300003 2.1851809e-38
0.019105755 0.058732387 0.74299997 2.1386181e-38
0.020520985 0.058732379 0.74300003 2.240463e-38
0.021936215 0.058732387 0.74299997 2.3417676e-38
0.023351476 0.058732383 0.74300003 2.2399937e-38
0.024900004 0.059048574 0.74699998 2.1393708e-38
0.026322845 0.059048578 0.74699998 2.2406782e-38
0.027745716 0.059048571 0.74700004 2.341769e-38
0.029207615 0.059127625 0.74799997 2.341769e-38
0.030632382 0.059127618 0.74800003 2.341769e-38
0.032142848 0.059285734 0.75 2.341769e-38
0.033571433 0.059285726 0.75 2.341769e-38
0.035140023 0.059522852 0.75299996 2.341769e-38
0.0366714 0.059680961 0.755 2.3417676e-38
0.038109493 0.059680965 0.755 2.1483377e-38
0.039600044 0.059760015 0.75599998 1.9451483e-38
0.041040033 0.059760015 0.75599998 1.7606847e-38
0.042592421 0.059918109 0.75800002 1.5769779e-38
0.044152401 0.060076199 0.75999999 1.622501e-38
0.045659989 0.060155246 0.76099998 1.6678074e-38
-0.034600947 0.062576197 0.773 1.4108102e-38
-0.032999985 0.06233336 0.76999998 1.5120827e-38
-0.031451441 0.062171452 0.76799995 1.6134272e-38
-0.029949529 0.062090479 0.76699996 1.7059451e-38
-0.02848858 0.062090479 0.76699996 1.7704819e-38
-0.026886653 0.061766673 0.76299995 1.8259796e-38
-0.025366683 0.061604764 0.76099998 1.9455112e-38
-0.023917165 0.061604764 0.76099998 2.0656514e-38
-0.022379031 0.061361916 0.75800002 2.093131e-38
-0.020880001 0.061200015 0.75599998 2.1208249e-38
-0.019414291 0.061119042 0.755 2.1939701e-38
-0.017904766 0.060876213 0.75199997 2.2680489e-38
-0.01647239 0.060876217 0.75199991 2.2681571e-38
-0.014999978 0.060714301 0.75 2.2682647e-38
-0.013571423 0.060714304 0.75 2.3050348e-38
-0.012142836 0.060714297 0.75 2.341769e-38
-0.01068573 0.060552388 0.74799997 2.341769e-38
-0.0092609366 0.060552385 0.74799997 2.341769e-38
-0.0078257006 0.06047143 0.74699998 2.341769e-38
-0.0064028599 0.060471438 0.74699998 2.341769e-38
-0.0049666571 0.060309526 0.745 2.341769e-38
-0.0035476068 0.060309522 0.74500006 2.341769e-38
-0.0021228378 0.060147621 0.74300003 2.341769e-38
-0.00070664258 0.060066678 0.74199998 2.341769e-38
0.00070765085 0.060147628 0.74299997 2.341769e-38
0.0021200276 0.060066681 0.74199998 2.341769e-38
0.0035333636 0.060066678 0.74199998 2.341769e-38
0.0049466719 0.060066685 0.74199998 2.341769e-38
0.0063600359 0.060066681 0.74199998 2.341769e-38
0.0077733421 0.060066689 0.74199998 2.341769e-38
0.0091866795 0.060066685 0.74199998 2.341769e-38
0.010614326 0.060147624 0.74300003 2.3415528e-38
0.012029529 0.060147628 0.74299997 2.2307035e-38
0.013444789 0.060147613 0.74300003 2.1209321e-38
0.014860017 0.060147621 0.74299997 2.1853611e-38
0.016275279 0.060147617 0.74300003 2.2496814e-38
0.01769048 0.060147621 0.74299997 2.1946514e-38
0.019105742 0.060147621 0.74300003 2.139228e-38
0.020521 0.060147613 0.74300003 2.24075e-38
0.021995243 0.060309522 0.745 2.3414447e-38
0.023414318 0.060309518 0.74500006 2.2670064e-38
0.024899986 0.060471438 0.74699998 2.1851809e-38
0.026322853 0.060471445 0.74699998 2.2683006e-38
0.027782861 0.060552392 0.74800003 2.341769e-38
0.029207624 0.0605524 0.74799997 2.341769e-38
0.030714285 0.060714301 0.75 2.341769e-38
0.03214287 0.060714293 0.75000006 2.341769e-38
0.033660956 0.060876209 0.75199997 2.341769e-38
0.03509333 0.060876217 0.75199997 2.341769e-38
0.036671415 0.061119061 0.755 2.3416952e-38
0.038109507 0.061119061 0.755 2.0934861e-38
0.039600015 0.061200023 0.75599998 1.834585e-38
0.041039996 0.061200023 0.75599998 1.6675913e-38
0.042704787 0.061523825 0.75999999 1.493857e-38
0.044152386 0.061523821 0.76000005 1.5388419e-38
0.045660004 0.061604772 0.76099998 1.5860496e-38
-0.034600955 0.064048573 0.773 1.4937479e-38
-0.033085696 0.063965708 0.77200001 1.5764395e-38
-0.031451449 0.063634291 0.76799995 1.6320468e-38
-0.029949542 0.063551448 0.76699996 1.696797e-38
-0.028488591 0.063551433 0.76699996 1.7612601e-38
-0.026957149 0.063385725 0.76499999 1.8350186e-38
-0.025433317 0.063220009 0.76299995 1.991716e-38
-0.023917148 0.063054301 0.76099998 2.1577019e-38
-0.02237903 0.062805727 0.75800002 2.1944005e-38
-0.020935226 0.06280572 0.75800002 2.2309189e-38
-0.019439992 0.062640011 0.75599998 2.2679395e-38
-0.01790479 0.062308598 0.75199997 2.3050337e-38
-0.016472388 0.06230858 0.75199997 2.3049989e-38
-0.014999984 0.062142875 0.75 2.3049989e-38
-0.013571427 0.062142879 0.75 2.3234019e-38
-0.012142841 0.062142871 0.75 2.341769e-38
-0.010714287 0.062142875 0.75 2.341769e-38
-0.0092609515 0.061977156 0.74800003 2.341769e-38
-0.0078257211 0.061894298 0.74699998 2.341769e-38
-0.0064028795 0.061894298 0.74699998 2.341769e-38
-0.0049666609 0.061728574 0.745 2.341769e-38
-0.0035476086 0.061728567 0.74500006 2.341769e-38
-0.0021228211 0.061562859 0.74300003 2.341769e-38
-0.00070665748 0.061480016 0.74199998 2.341769e-38
0.00070764153 0.061562862 0.74300003 2.341769e-38
0.0021200127 0.061480019 0.74199998 2.341769e-38
0.0035333505 0.061480016 0.74199998 2.341769e-38
0.0049467129 0.061480012 0.74200004 2.341769e-38
0.006360021 0.061480019 0.74199998 2.341769e-38
0.0077733588 0.061480012 0.74200004 2.341769e-38
0.0091866907 0.061480027 0.74199998 2.341769e-38
0.010614317 0.061562855 0.74300003 2.341768e-38
0.012029547 0.061562862 0.74299997 2.2218428e-38
0.013444806 0.061562862 0.74300003 2.1024932e-38
0.014860012 0.061562866 0.74299997 2.1577027e-38
0.016275268 0.061562862 0.74300003 2.222023e-38
0.0176905 0.061562855 0.74299997 2.1667778e-38
0.019105757 0.061562851 0.74300003 2.1206815e-38
0.020576216 0.061728578 0.74500006 2.231387e-38
0.021995239 0.061728582 0.745 2.3417676e-38
0.023414318 0.061728582 0.74500006 2.2583609e-38
0.024899989 0.061894301 0.74699998 2.1762485e-38
0.026358085 0.061977156 0.74799997 2.2590812e-38
0.027782874 0.061977152 0.74800003 2.341769e-38
0.029285723 0.062142871 0.75 2.341769e-38
0.030714277 0.062142875 0.75 2.341769e-38
0.032142866 0.062142871 0.75 2.341769e-38
0.033660959 0.062308591 0.75199997 2.341769e-38
0.035139985 0.062391445 0.75299996 2.341769e-38
0.036671408 0.062557161 0.755 2.3417662e-38
0.038109496 0.062557161 0.755 2.175706e-38
0.039600033 0.062640019 0.75599998 1.9993847e-38
0.041040018 0.062640019 0.75599998 1.9629331e-38
0.042704772 0.062971458 0.75999999 1.9174457e-38
0.044152394 0.062971443 0.75999999 1.9451037e-38
0.045659993 0.063054301 0.76099998 1.9646891e-38
-0.03460094 0.065520957 0.773 1.5860514e-38
-0.033000004 0.065266691 0.76999998 1.6320437e-38
-0.031451426 0.065097161 0.76799995 1.6598484e-38
-0.029871423 0.064842865 0.76499999 1.6876855e-38
-0.028414268 0.064842865 0.76499999 1.7611174e-38
-0.02695711 0.064842865 0.76499999 1.8351263e-38
-0.025433317 0.064673334 0.76299995 2.0469245e-38
-0.023917187 0.064503819 0.76099998 2.2493936e-38
-0.022438083 0.064419061 0.75999999 2.2957784e-38
-0.020935221 0.06424953 0.75800002 2.3415885e-38
-0.019439973 0.06408003 0.75599998 2.3417679e-38
-0.017928572 0.063825712 0.75299996 2.3417684e-38
-0.016472384 0.063740969 0.75199997 2.341769e-38
-0.01499999 0.063571453 0.75 2.341769e-38
-0.013571434 0.063571453 0.75 2.341769e-38
-0.012142849 0.063571438 0.75 2.341769e-38
-0.010714267 0.063571438 0.75 2.341769e-38
-0.0092609413 0.0634019 0.74800003 2.341769e-38
-0.0078257173 0.063317157 0.74699998 2.341769e-38
-0.006402846 0.06331715 0.74700004 2.341769e-38
-0.0049666609 0.063147619 0.745 2.341769e-38
-0.0035476105 0.063147619 0.74500006 2.341769e-38
-0.0021228322 0.062978089 0.74300003 2.341769e-38
-0.00070664444 0.062893346 0.74200004 2.341769e-38
0.0007076583 0.062978096 0.74300003 2.341769e-38
0.0021228867 0.062978104 0.74299997 2.341769e-38
0.0035381208 0.062978096 0.74300003 2.341769e-38
0.0049533495 0.062978104 0.74299997 2.341769e-38
0.0063600023 0.062893361 0.74199998 2.341769e-38
0.0077838418 0.062978081 0.74300003 2.341769e-38
0.0091990717 0.062978089 0.74300003 2.341769e-38
0.01061433 0.062978089 0.74300003 2.3415526e-38
0.012029536 0.062978096 0.74300003 2.2123718e-38
0.013444794 0.062978089 0.74300003 2.0747269e-38
0.014860025 0.062978104 0.74299997 2.1301516e-38
0.016275283 0.062978089 0.74300003 2.1851449e-38
0.017690487 0.062978089 0.74299997 2.1481593e-38
0.019157136 0.063147634 0.745 2.1024218e-38
0.020576214 0.063147627 0.745 2.2223829e-38
0.022054289 0.06331715 0.74699998 2.3413731e-38
0.023414314 0.063147634 0.74500006 2.2575721e-38
0.024933331 0.063401908 0.74800003 2.1667781e-38
0.026358094 0.063401915 0.74799997 2.2591171e-38
0.027782861 0.063401908 0.74800003 2.341769e-38
0.029285716 0.063571446 0.75 2.341769e-38
0.0307143 0.063571453 0.75 2.341769e-38
0.032142885 0.063571446 0.75 2.341769e-38
0.033660933 0.063740961 0.75199997 2.341769e-38
0.035139993 0.063825712 0.75299996 2.341769e-38
0.036574289 0.063825712 0.75300002 2.3417317e-38
0.038109515 0.063995242 0.755 2.2590065e-38
0.03960003 0.06408003 0.75599998 2.1663791e-38
0.041257162 0.064419061 0.75999999 2.2581403e-38
0.042704757 0.064419061 0.75999999 2.3408968e-38
0.044210464 0.064503819 0.76099998 2.3410733e-38
0.045779999 0.064673334 0.76299995 2.3413235e-38
-0.03455618 0.066906691 0.77199996 1.5954876e-38
-0.033 0.066733353 0.76999998 1.7058717e-38
-0.031533338 0.066733345 0.76999998 1.7981396e-38
-0.029871415 0.066300005 0.76499999 1.899302e-38
-0.028414261 0.066300005 0.76499999 1.9270319e-38
-0.02695713 0.066300005 0.76499999 1.9546202e-38
-0.025433317 0.066126667 0.76299995 2.0928416e-38
-0.02391717 0.065953344 0.76099998 2.2308111e-38
-0.022438098 0.065866679 0.75999999 2.2771962e-38
-0.020935219 0.065693356 0.75800002 2.332585e-38
-0.0194143 0.065433346 0.755 2.3325854e-38
-0.017904758 0.065173343 0.75199997 2.3325854e-38
-0.016472409 0.065173343 0.75199997 2.341769e-38
-0.014999997 0.06500002 0.75 2.341769e-38
-0.013571412 0.065000013 0.75000006 2.341769e-38
-0.012142856 0.06500002 0.75 2.341769e-38
-0.010714276 0.065000013 0.75 2.341769e-38
-0.0092609301 0.064826675 0.74800003 2.341769e-38
-0.0078361928 0.064826682 0.74800003 2.341769e-38
-0.0064028646 0.064740002 0.74699998 2.341769e-38
-0.0049800235 0.064740002 0.74699998 2.341769e-38
-0.0035476123 0.064566672 0.74500006 2.341769e-38
-0.0021228173 0.064393327 0.74300003 2.341769e-38
-0.00070663699 0.064306684 0.74199998 2.341769e-38
0.00070764526 0.064393327 0.74300003 2.341769e-38
0.0021228755 0.064393334 0.74299997 2.341769e-38
0.0035381338 0.064393327 0.74300003 2.341769e-38
0.0049533402 0.064393342 0.74299997 2.341769e-38
0.0063600433 0.064306676 0.74199998 2.341769e-38
0.0077838288 0.064393342 0.74299997 2.341769e-38
0.0091990866 0.064393342 0.74300003 2.341769e-38
0.010614291 0.064393342 0.74299997 2.3417676e-38
0.012029549 0.064393327 0.74300003 2.2123355e-38
0.013444811 0.064393327 0.74300003 2.0835154e-38
0.014860038 0.064393327 0.74299997 2.1574866e-38
0.016275274 0.064393327 0.74300003 2.2310982e-38
0.0176905 0.064393334 0.74299997 2.2126948e-38
0.019105762 0.064393312 0.74300003 2.2031895e-38
0.020576211 0.064566672 0.745 2.2772689e-38
0.021995233 0.064566687 0.745 2.341768e-38
0.023477165 0.064740002 0.74699998 2.2953469e-38
0.024933342 0.064826682 0.74800003 2.2497173e-38
0.026358105 0.06482669 0.74799997 2.2958154e-38
0.027782843 0.064826682 0.74799997 2.341769e-38
0.02928571 0.065000027 0.75 2.341769e-38
0.030714322 0.06500002 0.75 2.341769e-38
0.032228559 0.065173365 0.75199997 2.341769e-38
0.033660937 0.065173365 0.75199997 2.341769e-38
0.03514 0.065260001 0.75299996 2.341769e-38
0.036671385 0.065433338 0.755 2.341769e-38
0.03810953 0.065433338 0.755 2.2958152e-38
0.039600018 0.065520033 0.75599998 2.2591161e-38
0.04125715 0.065866679 0.75999999 2.2955982e-38
0.042760938 0.065953329 0.76099998 2.3417613e-38
0.044326689 0.066126674 0.76299995 2.3415402e-38
0.045780022 0.066126667 0.76299995 2.3416119e-38
-0.034556165 0.068377152 0.77200001 1.614177e-38
-0.033 0.068200022 0.76999998 1.7797705e-38
-0.031451438 0.06802287 0.76799995 1.9458306e-38
-0.029871408 0.067757145 0.76499999 2.1020232e-38
-0.028414279 0.067757145 0.76499999 2.0839079e-38
-0.026957123 0.067757145 0.76499999 2.0653976e-38
-0.025433294 0.067580007 0.76299995 2.1389379e-38
-0.02391715 0.067402855 0.76099998 2.2127308e-38
-0.022438083 0.067314297 0.76000005 2.2680132e-38
-0.020935215 0.067137152 0.75800002 2.3141463e-38
-0.019439988 0.066960029 0.75599998 2.323366e-38
-0.017928557 0.066694289 0.75299996 2.3234019e-38
-0.016472379 0.066605724 0.75199997 2.3325854e-38
-0.015040004 0.066605732 0.75199997 2.341769e-38
-0.01360763 0.066605732 0.75199997 2.341769e-38
-0.012142837 0.066428594 0.75 2.341769e-38
-0.010714282 0.066428587 0.75 2.341769e-38
-0.0092856959 0.066428579 0.75 2.341769e-38
-0.0078571411 0.066428587 0.75 2.341769e-38
-0.0064285579 0.066428587 0.75 2.341769e-38
-0.0049999733 0.066428587 0.75 2.341769e-38
-0.0035571491 0.066162854 0.74699998 2.341769e-38
-0.0021228285 0.065808572 0.74300003 2.341769e-38
-0.00070759811 0.065808579 0.74300003 2.341769e-38
0.00070766016 0.065808579 0.74300003 2.341769e-38
0.0021228904 0.065808579 0.74299997 2.341769e-38
0.0035381226 0.065808579 0.74300003 2.341769e-38
0.0049533532 0.065808572 0.74299997 2.341769e-38
0.0063686115 0.065808564 0.74300003 2.341769e-38
0.0077838176 0.065808579 0.74299997 2.341769e-38
0.0091990773 0.065808572 0.74300003 2.341769e-38
0.010614306 0.065808579 0.74299997 2.3414096e-38
0.012029566 0.065808579 0.74300003 2.2117271e-38
0.013444768 0.065808579 0.74299997 2.0838752e-38
0.01486003 0.065808579 0.74300003 2.1759622e-38
0.016275257 0.065808587 0.74299997 2.2680485e-38
0.017738108 0.065985724 0.745 2.2866307e-38
0.01915716 0.065985702 0.74500006 2.304819e-38
0.020576209 0.065985709 0.745 2.3234019e-38
0.021995258 0.065985709 0.74500006 2.3417326e-38
0.023477143 0.066162869 0.74699998 2.3323692e-38
0.024899984 0.066162869 0.74699998 2.3232937e-38
0.02635809 0.066251442 0.74800003 2.3325854e-38
0.027782854 0.066251442 0.74799997 2.341769e-38
0.029207621 0.066251427 0.74800003 2.341769e-38
0.030714314 0.066428587 0.75 2.341769e-38
0.03214287 0.066428587 0.75 2.341769e-38
0.033660963 0.066605732 0.75199997 2.341769e-38
0.035140008 0.066694289 0.75299996 2.341769e-38
0.036574274 0.066694289 0.75299996 2.341769e-38
0.038109519 0.066871442 0.755 2.341769e-38
0.039704774 0.067137152 0.75800002 2.3417684e-38
0.041257162 0.067314312 0.75999999 2.341768e-38
0.042760927 0.067402869 0.76099998 2.3417648e-38
0.044210471 0.067402877 0.76099992 2.3416898e-38
0.045780025 0.067580007 0.76299995 2.3416895e-38
0.047233362 0.067580014 0.76299995 2.3416894e-38
0.048686702 0.067580007 0.76299995 2.3324352e-38
-0.032999992 0.069666699 0.76999998 1.4399793e-38
-0.031451419 0.069485724 0.76799995 1.6882614e-38
-0.029871428 0.069214299 0.76499999 1.9463709e-38
-0.028414274 0.069214299 0.76499999 2.0289166e-38
-0.026957143 0.069214299 0.76499999 2.1208584e-38
-0.025433293 0.069033332 0.76299995 2.1945047e-38
-0.023917135 0.06885238 0.76099998 2.2774819e-38
-0.022438072 0.068761915 0.76000005 2.3049631e-38
-0.020935213 0.068580948 0.75800002 2.3325854e-38
-0.01943999 0.068400025 0.75599998 2.3325854e-38
-0.017928582 0.068128586 0.75299996 2.3325854e-38
-0.016472377 0.068038121 0.75199997 2.341769e-38
-0.015040005 0.068038121 0.75199997 2.341769e-38
-0.013607629 0.068038121 0.75199997 2.341769e-38
-0.012175225 0.068038121 0.75199997 2.341769e-38
-0.010742852 0.068038106 0.75199997 2.341769e-38
-0.0092857024 0.067857154 0.75 2.341769e-38
-0.0078571457 0.067857161 0.75 2.341769e-38
-0.0064285644 0.067857161 0.75 2.341769e-38
-0.004999978 0.067857161 0.75 2.341769e-38
-0.0035714225 0.067857161 0.75 2.341769e-38
-0.0021285412 0.067404762 0.74500006 2.341769e-38
-0.00070758321 0.067223817 0.74300003 2.341769e-38
0.00070765271 0.06722381 0.74300003 2.341769e-38
0.0021228811 0.067223817 0.74300003 2.341769e-38
0.0035381413 0.067223817 0.74300003 2.341769e-38
0.00495337 0.06722381 0.74299997 2.341769e-38
0.006368604 0.067223802 0.74300003 2.341769e-38
0.0077838325 0.067223817 0.74299997 2.341769e-38
0.0091990922 0.06722381 0.74300003 2.341769e-38
0.010614295 0.06722381 0.74299997 2.341769e-38
0.012029555 0.06722381 0.74300003 2.2771254e-38
0.013444783 0.067223817 0.74299997 2.2131993e-38
0.014900004 0.067404769 0.745 2.2590094e-38
0.016319083 0.067404762 0.745 2.3050348e-38
0.017738106 0.067404777 0.745 2.3142183e-38
0.019157154 0.067404762 0.74500006 2.3234019e-38
0.02063141 0.067585722 0.74699998 2.3325854e-38
0.022083808 0.067676201 0.74800003 2.341769e-38
0.023508571 0.067676209 0.74799997 2.3417331e-38
0.024933308 0.067676209 0.74799997 2.3325854e-38
0.026358102 0.067676209 0.74800003 2.341769e-38
0.027782865 0.067676216 0.74799997 2.341769e-38
0.029285721 0.067857169 0.75 2.341769e-38
0.030796163 0.068038106 0.75199997 2.341769e-38
0.032228567 0.068038106 0.75199997 2.341769e-38
0.033705715 0.068128586 0.75299996 2.341769e-38
0.035140015 0.068128571 0.75299996 2.1579186e-38
0.036720008 0.068400025 0.75599998 1.9836106e-38
0.038160026 0.06840001 0.75600004 2.0103361e-38
0.039704777 0.068580955 0.75800002 2.0478954e-38
0.041257143 0.068761922 0.75999999 2.1948322e-38
0.042760942 0.06885238 0.76099998 2.3417684e-38
0.044326685 0.06903334 0.76299995 2.3417677e-38
0.045900017 0.069214299 0.76499999 2.3417673e-38
-0.029871421 0.070671447 0.76499999 1.7794855e-38
-0.02841429 0.070671447 0.76499999 1.9736337e-38
-0.026957136 0.070671447 0.76499999 2.1666678e-38
-0.025433294 0.070486665 0.76300001 2.2499299e-38
-0.023917174 0.07030192 0.76099998 2.3325478e-38
-0.022438087 0.070209518 0.76000005 2.341769e-38
-0.020935209 0.070024773 0.75800002 2.341769e-38
-0.019439969 0.069840021 0.75599998 2.341769e-38
-0.017976217 0.069747634 0.755 2.341769e-38
-0.016494274 0.06956286 0.75299996 2.341769e-38
-0.015040027 0.069470495 0.75199997 2.341769e-38
-0.013607621 0.069470488 0.75199997 2.341769e-38
-0.012175248 0.069470488 0.75199997 2.341769e-38
-0.010742874 0.069470495 0.75199997 2.341769e-38
-0.0092857089 0.069285735 0.75 2.341769e-38
-0.0078571262 0.069285735 0.75 2.341769e-38
-0.006428571 0.069285735 0.75 2.341769e-38
-0.0049999845 0.069285735 0.75 2.341769e-38
-0.00357143 0.069285735 0.75 2.341769e-38
-0.0021371541 0.069100954 0.74799997 2.341769e-38
-0.00070952036 0.068823814 0.745 2.341769e-38
0.00070763595 0.06863907 0.74299997 2.341769e-38
0.0021228942 0.06863907 0.74300003 2.341769e-38
0.0035380984 0.06863907 0.74299997 2.341769e-38
0.0049533607 0.068639055 0.74300003 2.341769e-38
0.0063686189 0.068639055 0.74300003 2.341769e-38
0.0077838493 0.068639062 0.74299997 2.341769e-38
0.009199081 0.068639055 0.74300003 2.341769e-38
0.010614311 0.068639062 0.74300003 2.341769e-38
0.01202957 0.06863904 0.74300003 2.341769e-38
0.01348098 0.068823814 0.745 2.341769e-38
0.014900004 0.068823814 0.745 2.341769e-38
0.016319079 0.068823814 0.745 2.341769e-38
0.017738104 0.068823822 0.745 2.341769e-38
0.019208577 0.069008574 0.74699998 2.341769e-38
0.020659052 0.069100954 0.74799997 2.341769e-38
0.022083819 0.069100946 0.74800003 2.341769e-38
0.023508582 0.069100954 0.74799997 2.341769e-38
0.02493332 0.069100954 0.74799997 2.341769e-38
0.026358113 0.069100954 0.74800003 2.341769e-38
0.02785716 0.069285743 0.75 2.341769e-38
0.029285714 0.06928575 0.75 2.341769e-38
0.030796193 0.069470502 0.75199997 2.3417656e-38
0.032228567 0.06947051 0.75199997 2.3417623e-38
0.033705723 0.069562852 0.75299996 2.3409393e-38
0.035233319 0.069747634 0.755 1.9829264e-38
0.036720004 0.069840021 0.75599998 1.6130002e-38
0.038160015 0.069840021 0.75599998 1.6864315e-38
0.039704785 0.070024773 0.75800002 1.7524398e-38
0.041257158 0.070209526 0.76000005 2.0478934e-38
0.042760957 0.07030192 0.76099998 2.3417673e-38
0.044326685 0.07048668 0.76299995 2.3417677e-38
0.045780022 0.07048668 0.76299995 2.3417677e-38
0.047233358 0.07048668 0.76299995 2.3417677e-38
-0.029871438 0.072128586 0.76499999 9.4144766e-39
-0.028414283 0.072128586 0.76499999 1.2184279e-38
-0.026957126 0.072128586 0.76499999 1.5048418e-38
-0.025433324 0.071940012 0.76299995 1.7256434e-38
-0.023917155 0.071751438 0.76099998 1.9467675e-38
-0.022438074 0.071657151 0.76000005 2.0197349e-38
-0.020935236 0.071468577 0.75799996 2.1029967e-38
-0.019440005 0.071280025 0.75599998 2.2223829e-38
-0.017976226 0.071185715 0.755 2.341769e-38
-0.016494295 0.070997156 0.75299996 2.341769e-38
-0.015059995 0.070997149 0.75299996 2.341769e-38
-0.013607622 0.070902877 0.75199997 2.341769e-38
-0.012175246 0.070902884 0.75199997 2.341769e-38
-0.010742873 0.070902869 0.75199991 2.341769e-38
-0.009310469 0.070902869 0.75199997 2.341769e-38
-0.0078571346 0.07071431 0.75 2.341769e-38
-0.0064285477 0.070714302 0.75 2.341769e-38
-0.0049999929 0.070714302 0.75 2.341769e-38
-0.0035714114 0.070714295 0.75 2.341769e-38
-0.0021371448 0.070525736 0.74800003 2.341769e-38
-0.00070952222 0.070242867 0.745 2.341769e-38
0.00070762477 0.0700543 0.74299997 2.341769e-38
0.0021228848 0.0700543 0.74300003 2.341769e-38
0.0035381133 0.070054308 0.74299997 2.341769e-38
0.0049533737 0.070054293 0.74300003 2.341769e-38
0.0063685761 0.070054293 0.74299997 2.341769e-38
0.0077838362 0.070054293 0.74300003 2.341769e-38
0.009199094 0.070054285 0.74300003 2.341769e-38
0.010614326 0.070054293 0.74299997 2.341769e-38
0.012029558 0.070054278 0.74300003 2.341769e-38
0.013444789 0.070054285 0.74300003 2.341769e-38
0.014899999 0.070242867 0.745 2.341769e-38
0.016319079 0.070242867 0.745 2.341769e-38
0.017738098 0.070242867 0.745 2.341769e-38
0.019157151 0.070242867 0.74500006 2.341769e-38
0.020659037 0.070525721 0.74799997 2.3142183e-38
0.02208383 0.070525721 0.74800003 2.2866677e-38
0.023508567 0.070525721 0.74800003 2.1025304e-38
0.024933331 0.070525728 0.74799997 1.9101422e-38
0.026358098 0.070525721 0.74800003 1.8726905e-38
0.027857151 0.070714302 0.75 1.8366738e-38
0.02928574 0.070714295 0.75 1.605686e-38
0.030796193 0.070902884 0.75199997 1.3774178e-38
0.032271426 0.070997164 0.75299996 1.3197985e-38
0.03370573 0.070997156 0.75300002 1.273885e-38
0.035233334 0.071185715 0.755 1.0419328e-38
0.036720023 0.071280017 0.75599998 8.0821599e-39
0.038160011 0.071280017 0.75599998 1.0776931e-38
0.039704785 0.071468577 0.75800002 1.3469251e-38
0.041257169 0.071657151 0.76000005 1.8359165e-38
0.042873375 0.071940005 0.76299995 2.3325828e-38
0.044326711 0.071940005 0.76299995 2.332584e-38
0.045780022 0.071940005 0.76299995 2.3325845e-38
0.047233358 0.071940005 0.76299995 2.2681924e-38
-0.028414277 0.073585726 0.76499999 4.7218447e-39
-0.026886664 0.073393345 0.76299995 8.4164522e-39
-0.025433326 0.073393345 0.76299995 1.2010256e-38
-0.023917139 0.073200963 0.76099998 1.5500372e-38
-0.022438088 0.073104776 0.76000005 1.705692e-38
-0.020935234 0.07291241 0.75799996 1.8623545e-38
-0.019439982 0.072720021 0.75599998 2.1029964e-38
-0.01797618 0.072623812 0.755 2.341733e-38
-0.016494289 0.072431445 0.75299996 2.341769e-38
-0.015059987 0.072431438 0.75299996 2.3417687e-38
-0.013607646 0.072335266 0.75199997 2.3417686e-38
-0.012175273 0.072335273 0.75199997 2.3417683e-38
-0.010742867 0.072335251 0.75199997 2.3417682e-38
-0.0093104932 0.072335251 0.75199997 2.3417684e-38
-0.0078571411 0.072142884 0.75 2.3417689e-38
-0.0064285561 0.072142877 0.75 2.3417689e-38
-0.0050133406 0.072335258 0.75199997 2.341769e-38
-0.0035714188 0.072142869 0.75 2.341769e-38
-0.0021371299 0.071950473 0.74799997 2.341769e-38
-0.00070952781 0.071661912 0.745 2.341769e-38
0.00070955075 0.071661912 0.74500006 2.341769e-38
0.0021228998 0.07146953 0.74300003 2.341769e-38
0.0035476519 0.071661912 0.74500006 2.341769e-38
0.0049533625 0.07146953 0.74300003 2.341769e-38
0.0063685928 0.071469538 0.74299997 2.341769e-38
0.0077838511 0.071469538 0.74300003 2.341769e-38
0.0091990549 0.071469545 0.74299997 2.341769e-38
0.010614313 0.071469545 0.74300003 2.341769e-38
0.012029544 0.07146953 0.74299997 2.341769e-38
0.013444776 0.07146953 0.74300003 2.3417686e-38
0.014900025 0.071661904 0.74500006 2.3417683e-38
0.016275264 0.07146953 0.74300003 2.3415169e-38
0.017738096 0.071661919 0.745 2.3417679e-38
0.019157151 0.071661897 0.74500006 2.3409061e-38
0.020631433 0.071854293 0.74699998 2.2866649e-38
0.022083811 0.071950495 0.74799997 2.2292665e-38
0.023508579 0.071950488 0.74800003 1.853206e-38
0.024933316 0.071950488 0.74800003 1.4750644e-38
0.026358107 0.07195048 0.74800003 1.4021681e-38
0.027857147 0.072142869 0.75 1.3180441e-38
0.029285733 0.072142869 0.75 8.6690082e-39
0.03079617 0.072335251 0.75199997 4.0761096e-39
0.032271408 0.072431423 0.75299996 3.0443489e-39
0.033705708 0.07243143 0.75299996 1.9527599e-39
0.035233326 0.072623804 0.755 1.0265464e-39
0.036720045 0.072720014 0.75599998 9.9567861e-41
0.038160034 0.072720014 0.75599998 4.7831656e-39
0.039704788 0.072912395 0.75800002 9.4209114e-39
0.041257154 0.073104776 0.76000005 1.6345576e-38
0.042760938 0.073200971 0.76099998 2.3136039e-38
0.044326711 0.073393345 0.76299995 2.323399e-38
-0.026886664 0.074846685 0.76299995 6.5692592e-39
-0.025433326 0.07484667 0.76299995 8.7783586e-39
-0.023917178 0.074650489 0.76099998 1.0986361e-38
-0.022438079 0.074552402 0.75999999 1.0612924e-38
-0.02093523 0.074356198 0.75800002 1.0325663e-38
-0.019439988 0.074160017 0.75599998 1.1356023e-38
-0.017976193 0.0740619 0.755 1.2395993e-38
-0.016494308 0.073865727 0.75299996 1.3211036e-38
-0.015060011 0.073865734 0.75299996 1.4142301e-38
-0.013625711 0.073865727 0.75299996 1.4776534e-38
-0.012175241 0.073767632 0.75199997 1.5427272e-38
-0.010742868 0.07376764 0.75199997 1.5972541e-38
-0.0093104923 0.073767647 0.75199997 1.6530018e-38
-0.0078780884 0.07376764 0.75199997 1.6523566e-38
-0.0064285607 0.073571451 0.75 1.6530026e-38
-0.004999978 0.073571458 0.75 1.6057936e-38
-0.0035714244 0.073571444 0.75 1.5611673e-38
-0.0021371467 0.073375247 0.74800003 1.5874982e-38
-0.00070953154 0.073080957 0.745 1.6162686e-38
0.00070954888 0.073080957 0.745 1.6241607e-38
0.0021228886 0.072884761 0.74300003 1.6346357e-38
0.0035476482 0.073080957 0.745 1.6150489e-38
0.0049533774 0.072884768 0.74300003 1.607085e-38
0.0063685835 0.072884768 0.74300003 1.5873189e-38
0.0077838437 0.072884768 0.74300003 1.5703508e-38
0.0091990717 0.072884776 0.74299997 1.5506923e-38
0.010614332 0.072884776 0.74300003 1.5336166e-38
0.012029534 0.072884768 0.74299997 1.449171e-38
0.013480971 0.073080957 0.745 1.3682762e-38
0.014900023 0.073080957 0.74500006 1.2831481e-38
0.016319074 0.073080957 0.745 1.2111861e-38
0.017738122 0.073080957 0.74500006 1.1904868e-38
0.019157145 0.073080957 0.74500006 1.181194e-38
0.02063141 0.073277153 0.74699998 1.1525655e-38
0.022083797 0.073375247 0.74799997 1.1221066e-38
0.02350859 0.07337524 0.74800003 9.5737398e-39
0.024933331 0.073375247 0.74800003 7.8984244e-39
0.02635809 0.073375255 0.74799997 8.0106712e-39
0.02785714 0.073571444 0.75 8.1738678e-39
0.029363798 0.07376764 0.75199997 5.9801925e-39
0.0307962 0.073767632 0.75199997 3.7657108e-39
0.032271415 0.073865712 0.75299996 3.4980698e-39
0.033705715 0.073865719 0.75299996 3.1239371e-39
0.035233341 0.074061908 0.755 2.3986054e-39
0.036720008 0.074160017 0.75599998 1.6585404e-39
0.038159996 0.074160025 0.75599998 5.4402975e-39
0.039704792 0.074356198 0.75800002 9.3308247e-39
0.041148596 0.074356198 0.75800002 1.2189995e-38
0.042760957 0.074650481 0.76099998 1.5036558e-38
0.044210475 0.074650481 0.76099998 1.3368114e-38
-0.022438094 0.07600002 0.75999999 4.1739987e-39
-0.020935226 0.075800002 0.75800002 1.9538361e-39
-0.019439995 0.075600028 0.75599998 1.6722647e-39
-0.017999982 0.075600013 0.75600004 1.3232279e-39
-0.016538115 0.075500011 0.755 3.0709834e-39
-0.015100025 0.075500019 0.755 4.731204e-39
-0.013625702 0.075300008 0.75299996 6.0262364e-39
-0.012191432 0.075300016 0.75299996 7.3115718e-39
-0.010742865 0.075200021 0.75199991 8.515475e-39
-0.0093104616 0.075200006 0.75199997 9.6149982e-39
-0.0078780856 0.075200021 0.75199997 9.6164415e-39
-0.0064457371 0.075200014 0.75199997 9.5109658e-39
-0.0050133639 0.075200021 0.75199997 8.6715236e-39
-0.00357143 0.075000003 0.75 7.7574692e-39
-0.0021371355 0.074800007 0.74800003 8.307043e-39
-0.00071142399 0.074700005 0.74700004 8.8594629e-39
0.00071141525 0.074700013 0.74699998 9.0388011e-39
0.0021229053 0.074299999 0.74300003 9.1378252e-39
0.0035476482 0.074500009 0.745 8.9509411e-39
0.0049533681 0.074299999 0.74300003 8.679731e-39
0.0063685966 0.074300006 0.74300003 8.3009011e-39
0.0077838567 0.074300006 0.74300003 7.8496088e-39
0.0091990605 0.074300006 0.74300003 7.4783151e-39
0.010614321 0.074300006 0.74300003 7.1102557e-39
0.012029549 0.074300006 0.74299997 5.4385627e-39
0.013535248 0.074800007 0.74800003 3.7944878e-39
0.014959985 0.074800014 0.74799997 2.2056578e-39
0.016362866 0.074700005 0.74700004 6.6848803e-40
0.017809518 0.074800014 0.74800003 3.693038e-40
0.01920855 0.074700013 0.74699998 1.1997637e-40
0.020631447 0.074700013 0.74699998 1.1028219e-40
0.022083811 0.074800022 0.74799997 1.0849413e-40
0.023508579 0.074800014 0.74800003 6.4372849e-40
0.025000025 0.075000018 0.75 1.1118547e-39
0.026428578 0.075000018 0.75 2.1327875e-39
0.027857162 0.074999996 0.75 3.1354417e-39
0.029363802 0.075200021 0.75199997 3.312294e-39
0.030837156 0.075300008 0.75299996 3.500962e-39
0.032271422 0.075300016 0.75299996 3.9665715e-39
0.033795238 0.075500004 0.755 4.3314304e-39
0.03523333 0.075500004 0.755 3.7847502e-39
0.036720008 0.075600013 0.75599998 3.1372494e-39
0.038160019 0.075600013 0.75599998 6.1721368e-39
0.03960003 0.075600021 0.75599998 9.2303796e-39
0.041040014 0.075600021 0.75599998 8.0462516e-39
0.042760946 0.076100014 0.76099998 6.8340527e-39
0.04421046 0.076100029 0.76099992 3.4902659e-39
-0.017999992 0.077040024 0.75599998 1.6534916e-39
-0.016538125 0.0769381 0.755 2.3078363e-39
-0.01510001 0.076938108 0.755 3.032138e-39
-0.013625694 0.076734297 0.75300002 3.4174362e-39
-0.012191425 0.076734297 0.75299996 3.7776022e-39
-0.01074286 0.076632395 0.75199997 4.3465504e-39
-0.0093228566 0.07673429 0.75299996 4.9000857e-39
-0.0078885863 0.076734297 0.75299996 4.8961494e-39
-0.0064542857 0.07673429 0.75300002 4.8792694e-39
-0.0050199893 0.076734297 0.75299996 4.4233009e-39
-0.0035809593 0.076632388 0.75199997 3.9494084e-39
-0.0021428519 0.076428577 0.75 4.6058803e-39
-0.00071238511 0.076224774 0.74800003 5.3268764e-39
0.00071142457 0.076122873 0.74699998 6.0823094e-39
0.0021285957 0.075919047 0.74500006 6.7155015e-39
0.0035476445 0.075919062 0.745 6.8227919e-39
0.0049466831 0.075613357 0.74199998 6.9056423e-39
0.006360021 0.07561335 0.74199998 6.7287704e-39
0.007773357 0.07561335 0.74200004 6.6197031e-39
0.0091990754 0.075715244 0.74300003 6.2674153e-39
0.010614334 0.075715244 0.74300003 5.8810605e-39
0.01206192 0.075919047 0.74500006 5.1589321e-39
0.013535235 0.076224767 0.74800003 4.319857e-39
0.015000014 0.076428592 0.75 3.5962938e-39
0.016384792 0.076224774 0.74800003 2.9555977e-39
0.017809529 0.076224774 0.74800003 3.0531729e-39
0.019285735 0.076428577 0.75 3.157564e-39
0.020659059 0.076224759 0.74800003 2.8756004e-39
0.022083823 0.076224767 0.74799997 2.6934021e-39
0.023571461 0.076428585 0.75 2.220988e-39
0.025000015 0.076428592 0.75 1.761449e-39
0.026428569 0.076428592 0.75 2.8677755e-39
0.027931429 0.076632388 0.75199997 3.8812156e-39
0.029402835 0.07673429 0.75299996 4.0595266e-39
0.030837163 0.076734282 0.75299996 4.3364442e-39
0.032357138 0.076938115 0.755 4.3364204e-39
0.033795226 0.076938115 0.755 4.4293643e-39
0.035233319 0.076938108 0.755 3.5996471e-39
0.03672003 0.077040009 0.75599998 2.7695627e-39
0.038160037 0.077040017 0.75599998 6.4616591e-39
0.039600022 0.077040017 0.75599998 1.0249897e-38
0.041040011 0.077040017 0.75599998 8.0358231e-39
-0.0078885807 0.078168578 0.75299996 1.8877873e-40
-0.0021485833 0.078064784 0.75199991 1.0242609e-39
-0.00071427756 0.077857174 0.75 1.856855e-39
0.00071430794 0.077857167 0.75 3.1568788e-39
0.0021428636 0.077857167 0.75 4.346102e-39
0.012142863 0.077857167 0.75 4.812782e-39
0.013571421 0.077857167 0.75 4.8956352e-39
0.015000006 0.077857167 0.75 5.0879031e-39
0.01642859 0.077857174 0.75 5.1711459e-39
0.017904747 0.078064784 0.75199997 5.7297076e-39
0.019337125 0.078064792 0.75199997 6.1849363e-39
0.020714287 0.077857174 0.75 5.7243224e-39
0.022201903 0.078064784 0.75199997 5.1683096e-39
