# .PCD v0.7 - Point Cloud Data file format
VERSION 0.7
FIELDS x y z rgb
SIZE 4 4 4 4
TYPE F F F F
COUNT 1 1 1 1
WIDTH 974
HEIGHT 1
VIEWPOINT 0 0 0 1 0 0 0
POINTS 974
DATA ascii
0.0035190834 0.045747619 0.73900008 2.341769e-38
0.0049267104 0.045747619 0.73900008 2.341769e-38
0.0063428665 0.045809541 0.74000001 2.341769e-38
0.0077523896 0.045809533 0.74000001 2.3415158e-38
0.0091619147 0.045809533 0.74000001 2.3407245e-38
0.01057144 0.045809537 0.74000001 2.3392841e-38
0.011980965 0.045809533 0.74000001 1.82274e-38
0.013390488 0.045809541 0.74000001 1.3078515e-38
0.014800015 0.045809526 0.74000001 1.3248555e-38
0.016187659 0.045747623 0.73900008 1.3345475e-38
0.017595258 0.045747627 0.73900008 1.8274877e-38
0.019028559 0.045809533 0.74000001 2.3125288e-38
0.02043811 0.045809537 0.74000001 1.9129357e-38
0.021847634 0.045809537 0.74000001 1.5130199e-38
0.023319991 0.04593334 0.74200004 1.9285031e-38
0.024733331 0.045933343 0.74200004 2.331684e-38
0.02618191 0.04599525 0.74300003 2.1108141e-38
0.027671466 0.046119064 0.74500006 1.8817289e-38
0.029168598 0.04624287 0.7470001 2.0019774e-38
0.030632425 0.046304781 0.74800009 2.1120725e-38
0.032142896 0.046428569 0.75000012 2.1213638e-38
0.033571456 0.04642858 0.75000012 2.1298288e-38
0.035093371 0.04655239 0.75200009 2.0736859e-38
0.036525752 0.04655239 0.75200009 2.019518e-38
0.038008589 0.046614297 0.75300008 2.1856478e-38
0.039547686 0.04673811 0.75500011 2.3412287e-38
0.041040055 0.046800017 0.7560001 2.0751913e-38
0.042592444 0.046923809 0.75800008 1.8074679e-38
0.044036228 0.046923805 0.75800008 1.7237026e-38
0.04566 0.047109526 0.76100004 1.6322631e-38
0.047109555 0.047109533 0.76100004 1.6875093e-38
-0.035793312 0.048941925 0.76700002 1.2083409e-38
-0.034242816 0.048814297 0.7650001 1.4940737e-38
-0.032699991 0.048686687 0.76300001 1.7798759e-38
-0.031164747 0.048559058 0.7610001 1.8995851e-38
-0.029715221 0.048559058 0.76100004 2.0286242e-38
-0.028228562 0.04849527 0.76000005 2.0652897e-38
-0.026710436 0.048367627 0.75800008 2.1022408e-38
-0.025199946 0.04824001 0.7560001 2.2220231e-38
-0.02375995 0.048239999 0.7560001 2.3417686e-38
-0.022290437 0.048176195 0.75500011 2.341769e-38
-0.02079712 0.048048574 0.75300008 2.341769e-38
-0.01933714 0.047984771 0.75200009 2.341769e-38
-0.017809486 0.047729526 0.74800003 2.341769e-38
-0.016362833 0.047665738 0.74700004 2.341769e-38
-0.014899953 0.047538113 0.74500012 2.341769e-38
-0.013480919 0.047538109 0.74500012 2.341769e-38
-0.012029531 0.047410488 0.74300003 2.341769e-38
-0.010614266 0.047410477 0.74300003 2.341769e-38
-0.0091990251 0.047410481 0.74300003 2.341769e-38
-0.0077733351 0.047346678 0.74200004 2.341769e-38
-0.0063599916 0.047346681 0.74200004 2.341769e-38
-0.0049466742 0.047346681 0.74200004 2.341769e-38
-0.0035238052 0.047219053 0.74000001 2.341769e-38
-0.0021142783 0.047219057 0.74000001 2.341769e-38
-0.00070475519 0.047219057 0.74000001 2.341769e-38
0.00070385158 0.047155246 0.73900008 2.341769e-38
0.0021114806 0.047155239 0.73900008 2.341769e-38
0.0035191076 0.047155242 0.73900008 2.341769e-38
0.0049333135 0.04721906 0.74000001 2.341769e-38
0.0063428646 0.047219068 0.74000001 2.341769e-38
0.0077523896 0.047219072 0.74000001 2.3417648e-38
0.0091619147 0.047219075 0.74000001 2.2574225e-38
0.01057144 0.047219057 0.74000001 2.1815066e-38
0.011980963 0.04721906 0.74000001 1.9974328e-38
0.013390488 0.047219064 0.74000001 1.8221259e-38
0.014800013 0.047219053 0.74000001 1.6646121e-38
0.016187653 0.047155239 0.73900008 1.5061669e-38
0.017619064 0.047219057 0.74000001 1.9078822e-38
0.019028587 0.04721906 0.74000001 2.3050319e-38
0.020438114 0.047219064 0.74000007 1.8970065e-38
0.021847609 0.04721906 0.74000001 1.49505e-38
0.023320001 0.047346666 0.7420001 1.9096758e-38
0.024733342 0.04734667 0.7420001 2.3325854e-38
0.026181899 0.047410484 0.74300003 2.1577751e-38
0.027671456 0.047538117 0.74500006 1.9927941e-38
0.0291686 0.047665734 0.74700004 2.0662625e-38
0.030632405 0.047729537 0.74800009 2.1305474e-38
0.032142904 0.047857143 0.75000012 1.9923278e-38
0.033660989 0.047984768 0.75200009 1.8542863e-38
0.035093341 0.047984764 0.75200009 1.8352722e-38
0.036574315 0.048048574 0.75300008 1.8273096e-38
0.038109567 0.048176207 0.75500011 2.0845579e-38
0.039547667 0.048176195 0.75500011 2.3416255e-38
0.041040041 0.048240013 0.7560001 2.1485199e-38
0.042592432 0.048367623 0.75800008 1.954872e-38
0.044036217 0.04836762 0.75800008 1.7978148e-38
0.045360051 0.04824001 0.7560001 1.6416249e-38
0.04680004 0.048240025 0.75600004 1.6875807e-38
-0.035793278 0.050402857 0.76700008 1.1440201e-38
-0.03424282 0.050271437 0.7650001 1.4848185e-38
-0.032785688 0.050271437 0.76500005 1.8258674e-38
-0.031246658 0.05014002 0.76300007 1.9732726e-38
-0.029715214 0.050008584 0.76100004 2.1114216e-38
-0.028265685 0.050008569 0.7610001 2.1021315e-38
-0.026780955 0.04994287 0.76000005 2.0839093e-38
-0.025266629 0.04981143 0.75800008 2.2125881e-38
-0.023759967 0.049680009 0.75600004 2.3416248e-38
-0.022319945 0.049680013 0.7560001 2.3417689e-38
-0.020769499 0.049417153 0.75200009 2.341769e-38
-0.019362813 0.049482871 0.75300008 2.341769e-38
-0.017809507 0.0491543 0.74800009 2.341769e-38
-0.016384732 0.049154293 0.74800009 2.341769e-38
-0.014939949 0.049088582 0.7470001 2.341769e-38
-0.013480927 0.048957162 0.74500012 2.341769e-38
-0.012061869 0.048957162 0.74500012 2.341769e-38
-0.010614279 0.048825726 0.74300003 2.341769e-38
-0.0091990381 0.04882573 0.74300003 2.341769e-38
-0.0077837985 0.048825718 0.74300009 2.341769e-38
-0.0063685598 0.048825722 0.74300009 2.341769e-38
-0.004946637 0.048759997 0.74200004 2.341769e-38
-0.0035333214 0.048760001 0.7420001 2.341769e-38
-0.0021142801 0.048628591 0.74000001 2.341769e-38
-0.00070475519 0.048628576 0.74000001 2.341769e-38
0.00070476986 0.04862858 0.74000001 2.341769e-38
0.002114295 0.048628584 0.74000001 2.341769e-38
0.0035238182 0.048628587 0.74000001 2.341769e-38
0.0049333433 0.048628587 0.74000001 2.341769e-38
0.0063428702 0.04862858 0.74000001 2.341769e-38
0.0077523952 0.048628584 0.74000001 2.3413699e-38
0.0091618886 0.048628595 0.74000001 2.1840973e-38
0.010571414 0.048628584 0.74000001 2.0168146e-38
0.012013345 0.048760004 0.74200004 2.1726063e-38
0.01339049 0.048628591 0.74000001 2.3279406e-38
0.014800017 0.048628591 0.74000001 2.005228e-38
0.016209537 0.048628595 0.74000001 1.6763493e-38
0.017619064 0.048628584 0.74000001 1.9927941e-38
0.019028585 0.048628587 0.74000001 2.293947e-38
0.020493351 0.048760012 0.7420001 1.8841641e-38
0.021906663 0.048760012 0.74200004 1.4761089e-38
0.023320008 0.048760012 0.74200004 1.9009586e-38
0.024733325 0.048760012 0.74200004 2.3234019e-38
0.026181912 0.048825722 0.74300003 2.2131993e-38
0.027745731 0.049088582 0.74700004 2.1029608e-38
0.029207639 0.0491543 0.74800003 2.1305474e-38
0.030632414 0.0491543 0.74800003 2.1485194e-38
0.032142889 0.049285725 0.75000012 1.8631475e-38
0.033660978 0.049417146 0.75200009 1.5685905e-38
0.035093363 0.049417149 0.75200009 1.6041392e-38
0.036671478 0.049614299 0.75500011 1.63327e-38
0.038109578 0.049614284 0.75500011 1.9927934e-38
0.039600033 0.049680009 0.7560001 2.3417327e-38
0.041040055 0.049680017 0.7560001 2.2223827e-38
0.042480074 0.049680006 0.7560001 2.0922667e-38
0.04392004 0.049680017 0.7560001 1.8709969e-38
0.045300066 0.04961428 0.75500011 1.6508089e-38
0.046738137 0.049614292 0.75500011 1.6876886e-38
-0.035793304 0.051863831 0.76700008 1.1162183e-38
-0.034242827 0.05172858 0.76500005 1.503401e-38
-0.032785691 0.05172858 0.76500005 1.8909435e-38
-0.031246644 0.051593341 0.76300007 2.019804e-38
-0.029793326 0.051593341 0.76300001 2.1580228e-38
-0.028265707 0.051458105 0.76100004 2.129969e-38
-0.02681618 0.051458094 0.76100004 2.1114597e-38
-0.025266608 0.051255234 0.75800008 2.2218788e-38
-0.023822822 0.051255245 0.75800008 2.3325845e-38
-0.022319958 0.051120013 0.7560001 2.3325852e-38
-0.02079712 0.050917152 0.75300008 2.3417689e-38
-0.019362839 0.050917156 0.75300008 2.341769e-38
-0.017857116 0.050714288 0.75000012 2.341769e-38
-0.016384726 0.050579067 0.74800009 2.341769e-38
-0.014959952 0.050579052 0.74800009 2.341769e-38
-0.013517123 0.050511431 0.7470001 2.341769e-38
-0.012061875 0.050376199 0.74500006 2.341769e-38
-0.010642817 0.050376207 0.74500012 2.341769e-38
-0.009199027 0.050240964 0.74300003 2.341769e-38
-0.0077837873 0.050240953 0.74300003 2.341769e-38
-0.0063685467 0.050240956 0.74300009 2.341769e-38
-0.0049533369 0.050240967 0.74300003 2.341769e-38
-0.0035380973 0.05024096 0.74300003 2.341769e-38
-0.0021199966 0.050173342 0.74200004 2.341769e-38
-0.00070665323 0.05017335 0.7420001 2.341769e-38
0.00070669025 0.050173335 0.7420001 2.341769e-38
0.002114295 0.05003811 0.74000001 2.341769e-38
0.0035238201 0.050038114 0.74000001 2.341769e-38
0.0049333451 0.050038114 0.74000001 2.341769e-38
0.0063600065 0.050173342 0.74200004 2.341769e-38
0.0077733519 0.050173346 0.74200004 2.3417644e-38
0.0091619184 0.050038107 0.74000001 2.1562592e-38
0.010571443 0.05003811 0.74000001 1.9697868e-38
0.012013356 0.050173339 0.7420001 1.8873826e-38
0.013390492 0.050038099 0.74000007 1.8148476e-38
0.014799989 0.05003811 0.74000001 1.8785949e-38
0.016209511 0.050038114 0.74000001 1.9541872e-38
0.017619036 0.050038103 0.74000001 2.130081e-38
0.019028563 0.050038107 0.74000001 2.3050319e-38
0.020493332 0.050173331 0.74200004 1.9172033e-38
0.021906676 0.050173335 0.74200004 1.5425461e-38
0.023320017 0.050173342 0.7420001 1.6428507e-38
0.024766684 0.050240945 0.74300009 1.7540218e-38
0.026252417 0.050376214 0.74500006 1.8272032e-38
0.027745761 0.050511423 0.7470001 1.9007434e-38
0.029168583 0.050511438 0.74700004 1.9188594e-38
0.030632418 0.050579064 0.74800003 1.9371181e-38
0.032142881 0.050714284 0.75000006 1.780136e-38
0.033661004 0.050849527 0.75200009 1.6231526e-38
0.035140008 0.050917156 0.75300008 1.5953845e-38
0.036574315 0.050917145 0.75300008 1.5680513e-38
0.038109586 0.051052388 0.75500011 1.7804947e-38
0.039547656 0.051052388 0.75500011 1.9927931e-38
0.041040063 0.051120013 0.7560001 1.8813714e-38
0.042592421 0.051255234 0.75800008 1.7790218e-38
0.044036232 0.051255248 0.75800008 1.7148412e-38
0.045600019 0.051390499 0.76000005 1.6599929e-38
-0.034242831 0.05318572 0.76500005 1.5215907e-38
-0.032785665 0.053185724 0.7650001 1.9457588e-38
-0.031246655 0.053046666 0.76300007 2.0752642e-38
-0.029793337 0.053046681 0.76300001 2.1943629e-38
-0.028265702 0.052907631 0.76100004 2.1666685e-38
-0.026780924 0.052838109 0.76000011 2.129935e-38
-0.025266614 0.052699044 0.75800008 2.2216278e-38
-0.023759967 0.052560005 0.7560001 2.3140379e-38
-0.022290412 0.05249048 0.75500011 2.3325849e-38
-0.02079712 0.052351441 0.75300008 2.3417687e-38
-0.019362839 0.052351441 0.75300008 2.341769e-38
-0.017857129 0.052142862 0.75000012 2.341769e-38
-0.016384747 0.052003827 0.74800009 2.341769e-38
-0.014959971 0.052003816 0.74800009 2.341769e-38
-0.013517124 0.051934306 0.74700004 2.341769e-38
-0.012094272 0.051934291 0.74700004 2.341769e-38
-0.010642824 0.051795255 0.74500006 2.341769e-38
-0.0092237648 0.051795259 0.74500006 2.341769e-38
-0.0078047318 0.051795255 0.74500012 2.341769e-38
-0.0063856738 0.051795248 0.74500012 2.341769e-38
-0.0049666464 0.051795263 0.74500006 2.341769e-38
-0.0035381122 0.051656205 0.74300003 2.341769e-38
-0.0021200152 0.05158668 0.74200004 2.341769e-38
-0.00070667185 0.051586669 0.74200004 2.341769e-38
0.00070667162 0.051586673 0.74200004 2.341769e-38
0.0021142988 0.051447622 0.74000007 2.341769e-38
0.0035333307 0.051586661 0.74200004 2.341769e-38
0.0049466761 0.051586665 0.74200004 2.3417675e-38
0.0063600177 0.051586669 0.7420001 2.3417659e-38
0.0077733612 0.051586673 0.7420001 2.3412949e-38
0.0091866506 0.05158668 0.74200004 2.1293871e-38
0.010599992 0.051586673 0.74200004 1.9153637e-38
0.012013336 0.051586676 0.74200004 1.6013974e-38
0.013426679 0.051586676 0.74200004 1.2903399e-38
0.014840023 0.051586665 0.74200004 1.7584851e-38
0.016253337 0.051586669 0.7420001 2.2291881e-38
0.017666683 0.051586673 0.7420001 2.2683002e-38
0.019080026 0.051586665 0.7420001 2.3048884e-38
0.020493312 0.051586676 0.74200004 1.9554446e-38
0.021936189 0.051656205 0.74300009 1.6049291e-38
0.023351431 0.051656194 0.74300009 1.3922386e-38
0.024833381 0.051795255 0.74500012 1.1735198e-38
0.026252408 0.051795267 0.74500006 1.4315923e-38
0.027782908 0.052003823 0.74800009 1.6888036e-38
0.029207626 0.052003819 0.74800003 1.7069556e-38
0.030714307 0.052142862 0.75000012 1.7160311e-38
0.032142896 0.052142851 0.75000012 1.6970536e-38
0.033660971 0.05228192 0.75200009 1.6784345e-38
0.035093356 0.052281905 0.75200009 1.5861318e-38
0.036671467 0.052490491 0.75500005 1.4945117e-38
0.038109567 0.052490491 0.75500011 1.5682674e-38
0.039600059 0.052560005 0.7560001 1.6421664e-38
0.041148607 0.052699059 0.75800008 1.5495778e-38
0.042592444 0.052699052 0.75800008 1.4577407e-38
0.044152394 0.052838113 0.76000011 1.5677624e-38
0.045780007 0.053046681 0.76300001 1.6690336e-38
0.047233324 0.053046681 0.76300001 1.6967648e-38
-0.034242835 0.054642875 0.76500005 1.4847508e-38
-0.032785673 0.054642864 0.76500005 1.9461903e-38
-0.03124664 0.054500014 0.76300001 2.0471754e-38
-0.029715221 0.054357141 0.7610001 2.1570553e-38
-0.028339975 0.054500014 0.76300007 2.1574859e-38
-0.026780922 0.054285735 0.76000005 2.166885e-38
-0.025266619 0.054142859 0.75800008 2.2404254e-38
-0.023759954 0.05400002 0.7560001 2.3234006e-38
-0.022290429 0.053928584 0.75500011 2.3325846e-38
-0.02079712 0.053785726 0.75300008 2.3417686e-38
-0.019362839 0.05378573 0.75300008 2.341769e-38
-0.017857142 0.053571437 0.75000006 2.341769e-38
-0.016384741 0.053428587 0.74800009 2.341769e-38
-0.014959966 0.053428579 0.74800009 2.341769e-38
-0.013517119 0.053357158 0.7470001 2.341769e-38
-0.012094242 0.05335715 0.7470001 2.341769e-38
-0.01064283 0.053214304 0.74500006 2.341769e-38
-0.0092237722 0.053214312 0.74500006 2.341769e-38
-0.0078047393 0.053214297 0.74500012 2.341769e-38
-0.0063856803 0.0532143 0.74500012 2.341769e-38
-0.0049666213 0.053214304 0.74500012 2.341769e-38
-0.0035380693 0.053071432 0.74300009 2.341769e-38
-0.0021228595 0.053071447 0.74300003 2.3416255e-38
-0.00070666254 0.052999999 0.7420001 2.341769e-38
0.00070668093 0.053000003 0.7420001 2.341769e-38
0.0021200264 0.052999996 0.7420001 2.341769e-38
0.0035333382 0.053000007 0.74200004 2.2772689e-38
0.0049466556 0.053000007 0.74200004 2.2223798e-38
0.0063600009 0.053000011 0.74200004 2.1293932e-38
0.0077733425 0.053000014 0.74200004 2.047203e-38
0.009186686 0.052999999 0.74200004 1.8706303e-38
0.010600003 0.053000003 0.7420001 1.7037441e-38
0.012013347 0.053000007 0.7420001 1.6116893e-38
0.01342669 0.052999996 0.7420001 1.5203183e-38
0.014840004 0.053000011 0.74200004 1.741152e-38
0.016253321 0.053000007 0.74200004 1.9623237e-38
0.017666662 0.052999996 0.74200004 2.083158e-38
0.019105725 0.053071432 0.74300003 2.2131964e-38
0.020520967 0.053071436 0.74300003 1.9912106e-38
0.021936204 0.053071439 0.74300003 1.7681877e-38
0.023414318 0.053214297 0.74500006 1.4837497e-38
0.024833377 0.053214304 0.74500012 1.1998496e-38
0.026322886 0.053357147 0.7470001 1.5134899e-38
0.027782887 0.053428579 0.74800009 1.8261615e-38
0.029207632 0.053428594 0.74800003 1.8080099e-38
0.030632403 0.053428583 0.74800003 1.7985393e-38
0.032142881 0.053571425 0.75000012 1.7433659e-38
0.033660997 0.053714287 0.75200009 1.6879422e-38
0.035233382 0.053928576 0.75500011 1.623299e-38
0.036671478 0.053928584 0.75500011 1.5586179e-38
0.038160048 0.054000013 0.7560001 1.6232597e-38
0.039600044 0.054000016 0.7560001 1.6967281e-38
0.041257162 0.054285727 0.76000005 1.6325148e-38
0.042704761 0.054285739 0.76000005 1.5774853e-38
0.044210482 0.054357149 0.7610001 1.6324072e-38
0.045779999 0.054500002 0.76300001 1.6964774e-38
-0.034242813 0.056100007 0.7650001 1.4477302e-38
-0.032700002 0.055953357 0.76300001 1.936361e-38
-0.031246651 0.055953346 0.76300007 2.0284849e-38
-0.029793337 0.055953346 0.76300001 2.1113525e-38
-0.028339988 0.055953335 0.76300007 2.1576654e-38
-0.026780948 0.055733349 0.76000005 2.1944361e-38
-0.025266625 0.055586673 0.75800008 2.2680845e-38
-0.023759943 0.05544002 0.7560001 2.3325131e-38
-0.022319976 0.055440016 0.75600004 2.3417327e-38
-0.020852322 0.055366665 0.75500011 2.3417689e-38
-0.019362839 0.055220019 0.75300008 2.341769e-38
-0.017857097 0.055000007 0.75000012 2.341769e-38
-0.016384732 0.05485335 0.74800003 2.341769e-38
-0.01495996 0.054853357 0.74800009 2.341769e-38
-0.013517119 0.05478001 0.74700004 2.341769e-38
-0.012094269 0.05478001 0.74700004 2.341769e-38
-0.010642806 0.054633345 0.74500012 2.341769e-38
-0.0092238029 0.054633357 0.74500006 2.341769e-38
-0.0078047458 0.05463336 0.74500006 2.341769e-38
-0.0063856877 0.054633349 0.74500006 2.3417687e-38
-0.0049666287 0.054633353 0.74500006 2.3417686e-38
-0.0035475707 0.054633357 0.74500012 2.341336e-38
-0.0021228725 0.054486681 0.74300003 2.3411188e-38
-0.00070763298 0.054486681 0.74300003 2.3409411e-38
0.00070666231 0.054413341 0.74200004 2.3417679e-38
0.0021200059 0.054413345 0.74200004 2.3412994e-38
0.0035333494 0.054413334 0.74200004 2.221445e-38
0.0049466928 0.054413337 0.74200004 2.0916148e-38
0.0063600102 0.054413337 0.7420001 1.9153288e-38
0.0077523952 0.054266687 0.74000001 1.7414502e-38
0.0091619221 0.054266676 0.74000001 1.6204848e-38
0.010600011 0.054413345 0.74200004 1.4923453e-38
0.012013328 0.054413341 0.74200004 1.6212377e-38
0.01342667 0.054413348 0.74200004 1.7416985e-38
0.014840013 0.054413337 0.74200004 1.7234376e-38
0.016253356 0.054413341 0.74200004 1.695819e-38
0.017666675 0.054413341 0.7420001 1.9071879e-38
0.019105714 0.05448667 0.74300003 2.1098388e-38
0.020520952 0.05448667 0.74300003 2.0187596e-38
0.021995254 0.054633364 0.74500006 1.9253827e-38
0.023414312 0.054633349 0.74500006 1.5746511e-38
0.024900015 0.05478001 0.74700004 1.2277943e-38
0.026358124 0.054853357 0.74800009 1.5963218e-38
0.027782895 0.054853346 0.74800009 1.955162e-38
0.029207639 0.054853361 0.74800003 1.9186792e-38
0.030714307 0.055000015 0.75000006 1.8817656e-38
0.032142874 0.055000003 0.75000012 1.789966e-38
0.033660967 0.055146676 0.75200009 1.6976643e-38
0.035233386 0.055366684 0.75500005 1.6605356e-38
0.036671486 0.055366673 0.75500011 1.6234051e-38
0.038160037 0.055440016 0.7560001 1.687796e-38
0.039704803 0.055586658 0.75800008 1.7428973e-38
0.041257158 0.055733353 0.76000005 1.7245662e-38
0.042760957 0.055806667 0.76100004 1.6970522e-38
0.044210486 0.05580667 0.7610001 1.7062006e-38
0.045900039 0.056100007 0.7650001 1.715384e-38
-0.034242816 0.057557162 0.76500005 1.4757478e-38
-0.032785706 0.057557162 0.76500005 1.9648444e-38
-0.031246666 0.057406671 0.76300007 2.0471742e-38
-0.029793322 0.05740669 0.76300001 2.1389388e-38
-0.028339975 0.057406679 0.76300001 2.1575219e-38
-0.026780946 0.057180967 0.76000005 2.1759619e-38
-0.025266632 0.057030484 0.75800008 2.2589377e-38
-0.023822822 0.057030484 0.75800002 2.341769e-38
-0.022319961 0.056880012 0.7560001 2.341769e-38
-0.020852342 0.056804765 0.75500011 2.341769e-38
-0.019362839 0.056654304 0.75300008 2.341769e-38
-0.01785711 0.056428581 0.75000012 2.341769e-38
-0.016428545 0.05642857 0.75000012 2.341769e-38
-0.014999981 0.056428585 0.75000006 2.341769e-38
-0.013535205 0.056278102 0.74800009 2.341769e-38
-0.012094238 0.05620287 0.7470001 2.341769e-38
-0.010642813 0.056052402 0.74500006 2.341769e-38
-0.0092237797 0.056052398 0.74500012 2.341769e-38
-0.0078047207 0.056052387 0.74500012 2.341769e-38
-0.0063856943 0.056052402 0.74500006 2.3417686e-38
-0.0049666362 0.056052405 0.74500006 2.2217003e-38
-0.0035475763 0.056052394 0.74500006 2.0926602e-38
-0.0021228315 0.055901907 0.74300009 2.0548098e-38
-0.0007076218 0.055901919 0.74300003 2.0176485e-38
0.00070667535 0.055826675 0.7420001 2.1108864e-38
0.0021200171 0.05582666 0.7420001 2.2122962e-38
0.0035333307 0.055826675 0.74200004 2.0548444e-38
0.0049466742 0.055826679 0.74200004 1.8878478e-38
0.0063599916 0.055826683 0.74200004 1.8327038e-38
0.0077733351 0.055826683 0.74200004 1.7868607e-38
0.0091866786 0.055826671 0.74200004 1.7498423e-38
0.01060002 0.055826675 0.74200004 1.7126811e-38
0.012013366 0.055826679 0.7420001 1.8061344e-38
0.013426683 0.055826668 0.7420001 1.9089103e-38
0.014839997 0.055826679 0.74200004 1.8524447e-38
0.016253337 0.055826683 0.74200004 1.7964051e-38
0.017666681 0.055826671 0.74200004 1.7589119e-38
0.019105701 0.055901919 0.74300003 1.7216476e-38
0.020520939 0.055901922 0.74300003 1.8427637e-38
0.021995276 0.056052387 0.74500012 1.9634066e-38
0.023477165 0.056202877 0.74700004 1.806893e-38
0.024900042 0.056202866 0.74700004 1.6515645e-38
0.026358124 0.056278102 0.74800003 1.8449955e-38
0.027782898 0.05627811 0.74800009 2.0477871e-38
0.029207673 0.05627811 0.74800009 2.0108377e-38
0.030714324 0.05642857 0.75000012 1.9831438e-38
0.032228608 0.056579057 0.75200009 1.8635067e-38
0.033795301 0.056804772 0.75500011 1.7439769e-38
0.035233397 0.056804761 0.75500011 1.6974133e-38
0.036720049 0.056880012 0.75600004 1.6601037e-38
0.038160045 0.056880012 0.7560001 1.6877604e-38
0.0397048 0.057030469 0.75800008 1.7246743e-38
0.041257136 0.057180986 0.76000005 1.715491e-38
0.042760964 0.057256196 0.76100004 1.7064524e-38
0.044326682 0.057406686 0.76300007 1.6971266e-38
0.046020012 0.05770763 0.76700008 1.6881217e-38
-0.03424282 0.059014302 0.76500005 1.5037631e-38
-0.03278568 0.059014294 0.7650001 1.9824567e-38
-0.031328544 0.059014291 0.76500005 2.0747957e-38
-0.029871408 0.059014294 0.76500005 2.1574488e-38
-0.028339986 0.058860019 0.76300007 2.1574858e-38
-0.026816176 0.058705732 0.76100004 2.1576663e-38
-0.025333337 0.058628585 0.76000005 2.2499335e-38
-0.023822797 0.058474287 0.75800008 2.341769e-38
-0.02231995 0.058320016 0.7560001 2.341769e-38
-0.020852335 0.058242872 0.75500011 2.341769e-38
-0.019362839 0.058088597 0.75300008 2.341769e-38
-0.017857123 0.057857163 0.75000006 2.341769e-38
-0.016472345 0.058011442 0.75200009 2.341769e-38
-0.014999964 0.057857152 0.75000012 2.341769e-38
-0.013571403 0.057857156 0.75000006 2.341769e-38
-0.012094261 0.057625718 0.74700004 2.341769e-38
-0.01064282 0.057471447 0.74500006 2.341769e-38
-0.0092237862 0.05747145 0.74500006 2.3417686e-38
-0.0078047281 0.05747145 0.74500012 2.3417682e-38
-0.0063856691 0.057471443 0.74500012 2.3409763e-38
-0.0049666436 0.057471454 0.74500006 2.0921568e-38
-0.0035475856 0.057471458 0.74500006 1.8431218e-38
-0.0021228446 0.057317141 0.74300009 1.767821e-38
-0.00070763484 0.057317153 0.74300003 1.6868584e-38
0.00070667907 0.057240017 0.74200004 1.8901556e-38
0.0021199966 0.057240017 0.74200004 2.0827919e-38
0.0035333401 0.057240002 0.74200004 1.8886432e-38
0.0049466835 0.057240006 0.74200004 1.6860998e-38
0.0063600289 0.057240009 0.7420001 1.7591347e-38
0.0077733463 0.057239998 0.7420001 1.8241022e-38
0.0091866599 0.057240009 0.74200004 1.879276e-38
0.010600003 0.057240013 0.74200004 1.9254476e-38
0.012013345 0.057240017 0.74200004 2.0000308e-38
0.013444758 0.057317145 0.74300003 2.073066e-38
0.014840006 0.057240009 0.74200004 1.990232e-38
0.01625335 0.057240009 0.7420001 1.8969223e-38
0.017690504 0.057317141 0.74300009 1.6196189e-38
0.01910574 0.057317145 0.74300009 1.3358679e-38
0.020576209 0.057471454 0.74500006 1.6672353e-38
0.021995269 0.057471454 0.74500006 1.9908508e-38
0.023477171 0.057625715 0.7470001 2.0287001e-38
0.024933361 0.05770288 0.74800003 2.0655792e-38
0.026358109 0.05770288 0.74800009 2.1026734e-38
0.027782883 0.057702869 0.74800009 2.139587e-38
0.029285744 0.05785716 0.75000006 2.1120365e-38
0.030714307 0.057857148 0.75000012 2.075087e-38
0.0322286 0.058011435 0.75200009 1.9277199e-38
0.03370576 0.058088582 0.75300008 1.7806395e-38
0.035233378 0.058242865 0.75500011 1.7342552e-38
0.036720037 0.058320008 0.7560001 1.6877977e-38
0.03816006 0.058320012 0.7560001 1.696872e-38
0.039809532 0.058628585 0.76000005 1.7060912e-38
0.041257165 0.058628589 0.76000011 1.7061987e-38
0.042760976 0.058705717 0.76100004 1.7060914e-38
0.044326697 0.058860011 0.76300007 1.6876887e-38
0.046020016 0.059168588 0.76700002 1.6596697e-38
-0.032871421 0.060629535 0.76700002 1.9456137e-38
-0.031328548 0.06047143 0.76500005 1.9827799e-38
-0.029871382 0.060471438 0.7650001 2.0289503e-38
-0.028414246 0.060471438 0.76500005 2.0652913e-38
-0.026886681 0.06031334 0.76300001 2.1023137e-38
-0.025333336 0.060076218 0.76000005 2.2220957e-38
-0.023822803 0.059918087 0.75800008 2.341769e-38
-0.022319963 0.059760012 0.7560001 2.341769e-38
-0.020852353 0.059680961 0.75500005 2.341769e-38
-0.019362837 0.059522867 0.75300008 2.341769e-38
-0.017904732 0.059443817 0.75200009 2.341769e-38
-0.016472377 0.059443828 0.75200009 2.341769e-38
-0.014999977 0.059285715 0.75000012 2.341769e-38
-0.013571386 0.059285719 0.75000012 2.341769e-38
-0.012110447 0.059127629 0.74800009 2.341769e-38
-0.010671411 0.059048586 0.74700004 2.3325854e-38
-0.0092237946 0.058890503 0.74500006 2.3142175e-38
-0.0078047356 0.058890488 0.74500006 2.2860562e-38
-0.0063856775 0.058890495 0.74500006 2.2667516e-38
-0.0049666176 0.058890499 0.74500012 2.08243e-38
-0.0035475614 0.058890484 0.74500012 1.8974299e-38
-0.0021228334 0.05873239 0.74300003 1.8423625e-38
-0.00070665323 0.058653336 0.7420001 1.7972376e-38
0.00070669025 0.058653343 0.7420001 2.0003195e-38
0.0021200338 0.058653332 0.7420001 2.2115035e-38
0.0035333214 0.058653343 0.74200004 2.1100521e-38
0.004946663 0.058653343 0.74200004 2.0077425e-38
0.0063600084 0.058653336 0.74200004 2.008389e-38
0.0077733519 0.05865334 0.74200004 2.0088185e-38
0.0091866674 0.05865334 0.7420001 1.971868e-38
0.010614292 0.058732394 0.74300003 1.9353151e-38
0.012013354 0.058653347 0.7420001 1.8153209e-38
0.013444769 0.058732387 0.74300003 1.7043606e-38
0.014860007 0.05873239 0.74300003 1.6948856e-38
0.016275246 0.05873239 0.74300003 1.6946694e-38
0.017690487 0.058732376 0.74300009 1.5655965e-38
0.019105725 0.058732379 0.74300009 1.4461432e-38
0.020520937 0.058732394 0.74300003 1.7235915e-38
0.022054296 0.059048578 0.74700004 2.0010042e-38
0.023477172 0.059048586 0.74700004 2.0933467e-38
0.024933342 0.059127636 0.74800003 2.185541e-38
0.026358115 0.059127625 0.74800003 2.185541e-38
0.027782885 0.059127629 0.74800009 2.1856487e-38
0.029285733 0.059285723 0.75000006 2.139695e-38
0.030796211 0.059443831 0.75200009 2.0938132e-38
0.032228597 0.059443817 0.75200009 1.9372982e-38
0.033795286 0.059680961 0.75500005 1.7900743e-38
0.035233386 0.059680969 0.75500011 1.7063819e-38
0.036720049 0.059760004 0.7560001 1.6323736e-38
0.038261 0.059918098 0.75800008 1.6230804e-38
0.039809536 0.060076218 0.76000005 1.6140039e-38
0.041257165 0.060076203 0.76000005 1.623115e-38
0.042760976 0.060155246 0.76100004 1.6230426e-38
0.044326685 0.060313337 0.76300007 1.6134996e-38
0.045900054 0.06047143 0.7650001 1.6034878e-38
-0.034377132 0.062171455 0.76800001 1.4759964e-38
-0.032914247 0.062171444 0.76800007 1.899625e-38
-0.0314514 0.062171448 0.76800001 1.9000572e-38
-0.029949501 0.062090501 0.76700002 1.8905152e-38
-0.028414253 0.061928593 0.76500005 1.972414e-38
-0.026816163 0.061604768 0.76100004 2.0469605e-38
-0.025333306 0.061523836 0.76000011 2.1944014e-38
-0.023822809 0.061361901 0.75800008 2.3324777e-38
-0.02231995 0.061200012 0.7560001 2.341769e-38
-0.02087996 0.061200026 0.75600004 2.341769e-38
-0.019414246 0.061119065 0.75500005 2.341769e-38
-0.017904738 0.060876209 0.75200009 2.341769e-38
-0.016472355 0.060876198 0.75200009 2.341769e-38
-0.01499999 0.06071429 0.75000012 2.341769e-38
-0.013571399 0.060714293 0.75000012 2.341769e-38
-0.012110441 0.060552392 0.74800009 2.3417687e-38
-0.010685697 0.060552407 0.74800003 2.3142179e-38
-0.0092485286 0.060471434 0.7470001 2.286163e-38
-0.0078047421 0.060309555 0.74500006 2.2398126e-38
-0.006385684 0.060309544 0.74500006 2.183882e-38
-0.004966625 0.060309548 0.74500006 2.0642407e-38
-0.003547593 0.060309548 0.74500012 1.9438497e-38
-0.0021228464 0.060147624 0.74300009 1.9252669e-38
-0.00070760876 0.060147628 0.74300009 1.8987255e-38
0.00070760294 0.060147628 0.74300003 2.1207855e-38
0.0021200133 0.06006667 0.74200004 2.3411538e-38
0.0035333326 0.060066674 0.7420001 2.332364e-38
0.0049466761 0.060066663 0.7420001 2.3220677e-38
0.0063600177 0.060066663 0.7420001 2.2578899e-38
0.007773363 0.060066666 0.7420001 2.1930645e-38
0.009199067 0.060147628 0.74300009 2.0731734e-38
0.010599992 0.060066681 0.74200004 1.9441003e-38
0.012013336 0.060066674 0.74200004 1.6399657e-38
0.013444756 0.060147632 0.74300003 1.3267896e-38
0.014859994 0.060147636 0.74300003 1.4085779e-38
0.016275235 0.060147624 0.74300003 1.4827317e-38
0.017690497 0.060147628 0.74300003 1.5202949e-38
0.019105738 0.060147628 0.74300009 1.5483517e-38
0.020576227 0.060309544 0.74500012 1.7799891e-38
0.022054322 0.060471438 0.7470001 2.010513e-38
0.023477174 0.060471438 0.7470001 2.158098e-38
0.024933346 0.0605524 0.74800003 2.2958154e-38
0.02635812 0.060552403 0.74800003 2.2591171e-38
0.027857156 0.060714297 0.75000012 2.2223829e-38
0.029363833 0.060876209 0.75200009 2.1672816e-38
0.030796211 0.060876209 0.75200003 2.1120365e-38
0.032271452 0.06095716 0.75300008 1.9559877e-38
0.033795297 0.061119054 0.75500011 1.7895342e-38
0.035233367 0.06111905 0.75500011 1.6780028e-38
0.036720064 0.061200008 0.7560001 1.5675831e-38
0.038260993 0.061361909 0.75800008 1.5489991e-38
0.03980954 0.061523836 0.76000011 1.5219496e-38
0.041257143 0.061523832 0.76000005 1.530809e-38
0.042760987 0.061604753 0.7610001 1.5402781e-38
0.044326697 0.061766677 0.76300001 1.5489223e-38
0.045900051 0.06192857 0.76500005 1.5494606e-38
-0.03437712 0.063634306 0.76800001 1.4941489e-38
-0.03291424 0.063634299 0.76800007 1.9187105e-38
-0.031451389 0.063634291 0.76800001 1.9183894e-38
-0.029949497 0.063551441 0.76700008 1.9085232e-38
-0.028414253 0.063385725 0.7650001 2.0004295e-38
-0.026886679 0.063220009 0.76300001 2.0932002e-38
-0.025433332 0.063220009 0.76300007 2.2129118e-38
-0.023822814 0.062805712 0.75800008 2.3417687e-38
-0.022379005 0.062805727 0.75800008 2.341769e-38
-0.020879973 0.062640026 0.7560001 2.341769e-38
-0.019414235 0.062557146 0.75500011 2.341769e-38
-0.01790474 0.062308576 0.75200009 2.341769e-38
-0.016472358 0.062308576 0.75200003 2.341769e-38
-0.014999948 0.062142856 0.75000012 2.341769e-38
-0.013571411 0.062142856 0.75000006 2.341769e-38
-0.012110435 0.061977152 0.74800009 2.3417686e-38
-0.010685692 0.061977167 0.74800003 2.2771603e-38
-0.0092485547 0.061894301 0.74700004 2.2212664e-38
-0.0078256773 0.06189429 0.7470001 2.1012312e-38
-0.0063856905 0.061728597 0.74500006 1.9810525e-38
-0.0049666306 0.0617286 0.74500006 1.8151354e-38
-0.0035475986 0.061728586 0.74500006 1.6589085e-38
-0.0021228334 0.061562877 0.74300003 1.6401478e-38
-0.00070759386 0.061562866 0.74300003 1.6322257e-38
0.00070764392 0.061562866 0.74300009 1.8995947e-38
0.0021228539 0.061562881 0.74300003 2.167245e-38
0.0035380954 0.06156287 0.74300003 2.1945085e-38
0.0049533332 0.061562873 0.74300003 2.2310972e-38
0.0063685728 0.061562873 0.74300003 2.1293228e-38
0.0077838143 0.061562859 0.74300003 2.0283355e-38
0.0091990521 0.061562862 0.74300009 1.9262361e-38
0.010614292 0.061562866 0.74300009 1.8340375e-38
0.012029528 0.061562866 0.74300003 1.5936823e-38
0.013444769 0.06156287 0.74300003 1.3531514e-38
0.014860007 0.061562873 0.74300003 1.2613508e-38
0.016275248 0.061562873 0.74300003 1.1696675e-38
0.017690485 0.061562862 0.74300003 1.1336593e-38
0.019105725 0.061562866 0.74300009 1.0979688e-38
0.020631481 0.06189429 0.7470001 1.5594095e-38
0.0220543 0.061894298 0.74700004 2.0203448e-38
0.023508608 0.061977163 0.74800009 2.1120726e-38
0.024933383 0.061977148 0.74800009 2.2040158e-38
0.026428606 0.06214286 0.75000012 2.1578469e-38
0.027857173 0.06214286 0.75000006 2.1121803e-38
0.029363822 0.062308583 0.75200009 2.0658679e-38
0.030796207 0.062308576 0.75200009 2.0106944e-38
0.032271449 0.062391445 0.75300008 1.8170143e-38
0.033795279 0.062557146 0.75500011 1.6330173e-38
0.035280053 0.062640019 0.7560001 1.6779275e-38
0.036817178 0.062805727 0.75800008 1.7323816e-38
0.038361911 0.062971458 0.76000005 1.8344753e-38
0.039809544 0.062971443 0.76000005 1.9357796e-38
0.041311435 0.063054308 0.76100004 1.935993e-38
0.042873334 0.063220009 0.76300001 1.9450311e-38
0.044326685 0.063220017 0.76300007 1.9453519e-38
-0.034466635 0.065266669 0.77000004 1.5216648e-38
-0.032914259 0.065097153 0.76800007 1.9364325e-38
-0.031451408 0.065097153 0.76800001 1.9370437e-38
-0.029949496 0.065012403 0.76700002 1.9271059e-38
-0.028414257 0.064842865 0.7650001 2.0367694e-38
-0.026957121 0.064842865 0.76500005 2.1389746e-38
-0.025433317 0.064673334 0.76300001 2.2405702e-38
-0.023885695 0.064419068 0.76000011 2.3417328e-38
-0.022379009 0.06424953 0.75800008 2.341769e-38
-0.02087996 0.06408003 0.7560001 2.341769e-38
-0.019414227 0.06399525 0.75500011 2.341769e-38
-0.017904745 0.063740954 0.75200009 2.341769e-38
-0.01647236 0.063740939 0.75200009 2.341769e-38
-0.014999959 0.063571438 0.75000012 2.341769e-38
-0.013571393 0.063571423 0.75000012 2.341769e-38
-0.012110453 0.063401908 0.74800009 2.3416966e-38
-0.010685682 0.063401923 0.74800009 2.249681e-38
-0.0092485249 0.063317157 0.7470001 2.1473652e-38
-0.0078257034 0.06331715 0.74700004 1.962792e-38
-0.0064028269 0.063317157 0.74700004 1.7781505e-38
-0.0049666082 0.063147634 0.74500012 1.5747115e-38
-0.0035476061 0.063147649 0.74500006 1.3636702e-38
-0.0021228483 0.062978111 0.74300003 1.3625233e-38
-0.0007076069 0.062978104 0.74300003 1.3643569e-38
0.00070763275 0.062978104 0.74300009 1.6780367e-38
0.0021228706 0.062978104 0.74300009 1.9818117e-38
0.0035380805 0.062978104 0.74300003 2.0656479e-38
0.004953322 0.062978104 0.74300003 2.1380751e-38
0.0063685859 0.062978111 0.74300003 1.9999982e-38
0.0077838255 0.062978104 0.74300003 1.8520893e-38
0.009199067 0.062978104 0.74300003 1.787801e-38
0.010614305 0.062978104 0.74300009 1.7132887e-38
0.012029544 0.062978089 0.74300009 1.5475509e-38
0.013444754 0.062978104 0.74300003 1.3810615e-38
0.014859994 0.062978104 0.74300003 1.1231313e-38
0.016275235 0.062978104 0.74300003 8.5735574e-39
0.01773813 0.063147642 0.74500012 7.4666017e-39
0.019157156 0.063147642 0.74500006 6.3900709e-39
0.020631453 0.063317157 0.7470001 1.339291e-38
0.022054328 0.063317165 0.7470001 2.0287384e-38
0.023508618 0.063401908 0.74800003 2.0750503e-38
0.024933366 0.063401908 0.74800009 2.1111377e-38
0.026428597 0.063571423 0.75000012 2.0560711e-38
0.02785719 0.063571431 0.75000012 2.0004305e-38
0.029363848 0.063740954 0.75200009 1.954942e-38
0.030796204 0.063740954 0.75200003 1.908273e-38
0.032271452 0.063825727 0.75300008 1.6867577e-38
0.033840049 0.06408003 0.75600004 1.4670313e-38
0.035280041 0.064080015 0.7560001 1.6774968e-38
0.036914308 0.064419076 0.76000005 1.8900453e-38
0.038361937 0.064419061 0.76000011 2.1207817e-38
0.039861917 0.064503826 0.76100004 2.3410782e-38
0.041420009 0.064673334 0.76300007 2.3414715e-38
0.042873327 0.064673349 0.76300001 2.3411467e-38
0.044442907 0.064842872 0.76500005 2.3414317e-38
-0.034466621 0.066733345 0.7700001 1.6506661e-38
-0.032914251 0.066560015 0.76800007 1.9550155e-38
-0.0314514 0.06656003 0.76800001 1.9274657e-38
-0.029871374 0.066300005 0.7650001 1.8903719e-38
-0.028414262 0.066300005 0.76500005 2.0373436e-38
-0.026816199 0.065953344 0.76100004 2.1761396e-38
-0.02543333 0.066126674 0.76300001 2.2589373e-38
-0.023885693 0.065866686 0.76000005 2.3417689e-38
-0.022379017 0.065693341 0.75800002 2.341769e-38
-0.020879947 0.065520018 0.7560001 2.341769e-38
-0.019414246 0.065433353 0.75500011 2.341769e-38
-0.017904719 0.065173343 0.75200009 2.341769e-38
-0.016472366 0.065173358 0.75200009 2.341769e-38
-0.014999972 0.065000013 0.75000012 2.341769e-38
-0.013571406 0.064999998 0.75000012 2.341769e-38
-0.012110448 0.064826667 0.74800009 2.341768e-38
-0.010685674 0.064826667 0.74800009 2.110851e-38
-0.0092609311 0.064826675 0.74800003 1.8709595e-38
-0.0078256736 0.06474001 0.7470001 1.8152769e-38
-0.0064028213 0.064740002 0.7470001 1.7685337e-38
-0.0049666399 0.064566687 0.74500012 1.5845751e-38
-0.0035475837 0.064566672 0.74500012 1.4095864e-38
-0.0021228595 0.064393342 0.74300003 1.4281338e-38
-0.0007076218 0.064393334 0.74300003 1.4550053e-38
0.00070764392 0.064393334 0.74300003 1.5846537e-38
0.0021228855 0.064393342 0.74300009 1.722372e-38
0.0035380935 0.064393342 0.74300003 1.7416009e-38
0.0049533332 0.064393342 0.74300003 1.750462e-38
0.0063685747 0.064393342 0.74300003 1.6578734e-38
0.0077838125 0.064393334 0.74300003 1.5646719e-38
0.0091990521 0.064393342 0.74300003 1.5100342e-38
0.010614294 0.064393342 0.74300009 1.4633963e-38
0.012029531 0.064393327 0.74300009 1.390284e-38
0.013444771 0.064393327 0.74300009 1.3258534e-38
0.014900031 0.064566687 0.74500006 1.1789861e-38
0.016319064 0.064566687 0.74500006 1.0419603e-38
0.017738124 0.064566672 0.74500006 1.0881748e-38
0.019157179 0.064566687 0.74500012 1.1353857e-38
0.020631455 0.06474001 0.74700004 1.4761113e-38
0.022054303 0.06474001 0.74700004 1.8169421e-38
0.023508593 0.064826667 0.74800009 1.8251921e-38
0.025000017 0.065000013 0.75000006 1.8338712e-38
0.026428584 0.065000013 0.75000012 1.8059235e-38
0.027857173 0.06500002 0.75000012 1.7866572e-38
0.029402895 0.06526003 0.75300008 1.8799251e-38
0.030837176 0.065260023 0.75300008 1.9714424e-38
0.032357197 0.065433353 0.75500011 1.8623563e-38
0.033840034 0.065520018 0.7560001 1.7616218e-38
0.035280053 0.065520011 0.7560001 1.8630686e-38
0.036914282 0.065866701 0.76000005 1.9652366e-38
0.038412396 0.065953329 0.7610001 2.1487649e-38
0.039861921 0.065953337 0.76100004 2.3417624e-38
0.04142002 0.066126682 0.76300001 2.34169e-38
0.043098126 0.066473335 0.76700008 2.3417597e-38
0.044617176 0.066560023 0.76800007 2.3415784e-38
-0.031328544 0.067757159 0.76500005 1.9182824e-38
-0.029793356 0.067580029 0.76300001 1.853602e-38
-0.028340006 0.067580014 0.76300001 2.0368774e-38
-0.026816191 0.067402877 0.76100004 2.2125869e-38
-0.025366636 0.067402862 0.76100004 2.277197e-38
-0.023885693 0.067314312 0.76000005 2.3416971e-38
-0.022379022 0.067137145 0.75800002 2.341769e-38
-0.020879958 0.066960022 0.7560001 2.341769e-38
-0.019414265 0.066871442 0.75500011 2.341769e-38
-0.017928556 0.066694304 0.75300008 2.341769e-38
-0.016472341 0.066605717 0.75200009 2.341769e-38
-0.014999985 0.066428587 0.75000006 2.341769e-38
-0.013571394 0.066428579 0.75000012 2.341769e-38
-0.012142828 0.066428579 0.75000012 2.3409394e-38
-0.010685668 0.066251442 0.74800009 1.9718353e-38
-0.0092609506 0.066251442 0.74800003 1.5939802e-38
-0.0078256968 0.066162877 0.74700004 1.677168e-38
-0.0064028213 0.066162869 0.74700004 1.7506366e-38
-0.0049799709 0.066162869 0.7470001 1.6038077e-38
-0.0035570944 0.066162869 0.7470001 1.4566575e-38
-0.0021285312 0.065985732 0.74500012 1.5037967e-38
-0.00070760876 0.065808587 0.74300003 1.5393454e-38
0.00070762902 0.065808587 0.74300003 1.5014975e-38
0.0021228688 0.065808572 0.74300009 1.4652607e-38
0.0035381103 0.065808594 0.74300009 1.4186925e-38
0.0049533183 0.065808594 0.74300003 1.3631648e-38
0.0063857632 0.065985732 0.74500012 1.3254659e-38
0.0078048212 0.065985724 0.74500012 1.2797972e-38
0.0092238234 0.065985739 0.74500006 1.2425945e-38
0.010642882 0.065985739 0.74500006 1.2060389e-38
0.01206194 0.065985724 0.74500006 1.2427365e-38
0.013480998 0.065985739 0.74500012 1.2708962e-38
0.014900058 0.065985732 0.74500012 1.2433804e-38
0.016319059 0.065985724 0.74500006 1.2167311e-38
0.017785728 0.066162869 0.74700004 1.4286388e-38
0.019208606 0.066162877 0.74700004 1.6308204e-38
0.020659059 0.066251457 0.74800003 1.6127763e-38
0.02208383 0.066251442 0.74800003 1.5940862e-38
0.023508605 0.066251434 0.74800003 1.574858e-38
0.025000039 0.066428579 0.75000012 1.5569572e-38
0.026428599 0.066428594 0.75000006 1.5654233e-38
0.027931456 0.066605724 0.75200009 1.5670383e-38
0.029402871 0.066694304 0.75300008 1.7974888e-38
0.030837175 0.066694312 0.75300008 2.0281573e-38
0.032357182 0.066871442 0.75500011 2.0387075e-38
0.033795308 0.066871434 0.75500011 2.0474937e-38
0.035280067 0.066960007 0.7560001 2.0387019e-38
0.036720034 0.066960007 0.7560001 2.0295206e-38
0.038412374 0.067402869 0.76100004 2.1856432e-38
0.039966661 0.067580029 0.76300001 2.3417642e-38
0.041637171 0.067934304 0.76700008 2.3417291e-38
0.043098129 0.067934304 0.76700002 2.3417635e-38
0.044617187 0.068022877 0.76800001 2.3417621e-38
0.046080034 0.068022877 0.76800001 2.3416902e-38
-0.031246658 0.069033355 0.76300001 1.9276455e-38
-0.029793341 0.069033347 0.76300001 1.9454018e-38
-0.028265713 0.068852395 0.76100004 2.1020951e-38
-0.026816186 0.06885238 0.76100004 2.2682982e-38
-0.025366655 0.068852387 0.7610001 2.3049631e-38
-0.023885718 0.06876193 0.76000005 2.341769e-38
-0.022379028 0.068580955 0.75800002 2.341769e-38
-0.020879947 0.06840001 0.7560001 2.341769e-38
-0.019414227 0.068309531 0.75500011 2.341769e-38
-0.017928557 0.068128601 0.75300008 2.341769e-38
-0.016472373 0.068038099 0.75200009 2.341769e-38
-0.015039961 0.068038121 0.75200009 2.341769e-38
-0.013571406 0.067857154 0.75000006 2.2035135e-38
-0.01214284 0.067857146 0.75000012 2.0655731e-38
-0.010685689 0.067676201 0.74800009 1.7410916e-38
-0.0092609152 0.067676201 0.74800009 1.425374e-38
-0.0078361714 0.067676201 0.74800003 1.501428e-38
-0.0064028157 0.067585722 0.7470001 1.5764758e-38
-0.0049799671 0.067585737 0.74700004 1.4931073e-38
-0.0035571186 0.067585737 0.74700004 1.41957e-38
-0.0021285368 0.067404799 0.74500006 1.6137186e-38
-0.0007076218 0.067223817 0.74300003 1.8165042e-38
0.00070955127 0.067404784 0.74500012 1.7790106e-38
0.0021228818 0.067223817 0.74300003 1.751091e-38
0.0035476396 0.067404792 0.74500006 1.6121077e-38
0.0049533332 0.067223825 0.74300003 1.4723533e-38
0.0063857557 0.067404799 0.74500006 1.3439346e-38
0.0078048138 0.067404784 0.74500006 1.2159734e-38
0.0092238458 0.067404784 0.74500012 1.1411761e-38
0.010642876 0.067404799 0.74500006 1.0774306e-38
0.012061932 0.067404792 0.74500006 1.2981957e-38
0.01348099 0.067404792 0.74500006 1.5195699e-38
0.014940008 0.067585737 0.74700004 1.5477667e-38
0.016319081 0.067404777 0.74500012 1.5753881e-38
0.017785737 0.067585729 0.7470001 1.5751001e-38
0.01923432 0.067676201 0.74800009 1.5658075e-38
0.020659091 0.067676187 0.74800009 1.5283545e-38
0.022083836 0.067676201 0.74800003 1.4911545e-38
0.02357146 0.067857154 0.75000006 1.5282839e-38
0.025066687 0.068038106 0.75200009 1.5567694e-38
0.026499072 0.068038106 0.75200009 1.5395167e-38
0.027968587 0.068128586 0.75300002 1.5226244e-38
0.029480994 0.068309546 0.75500011 1.6427678e-38
0.03091912 0.068309531 0.75500011 1.7723804e-38
0.032400038 0.06840001 0.7560001 1.7080263e-38
0.033929586 0.06858097 0.75800008 1.6346267e-38
0.035466678 0.068761937 0.76000005 1.882436e-38
0.036962885 0.068852395 0.7610001 2.1305389e-38
0.038513329 0.06903334 0.76300001 2.2314539e-38
0.039966676 0.069033355 0.76300001 2.3417661e-38
0.041637152 0.069395244 0.76700002 2.341768e-38
0.04315434 0.069485724 0.76800007 2.3417672e-38
0.044733372 0.069666669 0.7700001 2.3417663e-38
-0.03124667 0.070486695 0.76300001 1.9461923e-38
-0.029715231 0.070301905 0.76100004 2.0283777e-38
-0.028228557 0.070209533 0.76000005 2.1762113e-38
-0.026780922 0.07020954 0.76000011 2.3233289e-38
-0.025333321 0.07020954 0.76000005 2.3325854e-38
-0.02382282 0.070024773 0.75800008 2.341769e-38
-0.022379005 0.070024759 0.75800008 2.341769e-38
-0.020879934 0.069840021 0.7560001 2.341769e-38
-0.019414246 0.069747634 0.75500011 2.341769e-38
-0.017976122 0.069747627 0.75500011 2.341769e-38
-0.01649425 0.069562875 0.75300008 2.341769e-38
-0.015039993 0.069470495 0.75200009 2.3414087e-38
-0.013571389 0.069285721 0.75000012 2.0648602e-38
-0.012142853 0.069285721 0.75000006 1.7885596e-38
-0.010714262 0.069285721 0.75000012 1.5200076e-38
-0.0092856698 0.069285728 0.75000012 1.2532535e-38
-0.0078361658 0.069100961 0.74800003 1.3266137e-38
-0.0064028418 0.069008589 0.7470001 1.391727e-38
-0.0049799634 0.069008574 0.7470001 1.3909055e-38
-0.003557113 0.069008574 0.7470001 1.3834452e-38
-0.0021285424 0.068823829 0.74500006 1.7333544e-38
-0.00070948445 0.068823822 0.74500006 2.0832241e-38
0.00070954568 0.068823837 0.74500012 2.056138e-38
0.0021286057 0.068823822 0.74500012 2.0276486e-38
0.0035476638 0.068823814 0.74500012 1.8063406e-38
0.0049666921 0.068823844 0.74500006 1.5751374e-38
0.0063857501 0.068823829 0.74500006 1.3619067e-38
0.0078047821 0.068823814 0.74500006 1.1418214e-38
0.0092238402 0.068823829 0.74500012 1.0378221e-38
0.010642898 0.068823822 0.74500012 9.3953461e-39
0.012061958 0.068823814 0.74500012 1.3530867e-38
0.013517163 0.069008574 0.7470001 1.7597091e-38
0.014940039 0.069008574 0.7470001 1.8527636e-38
0.016362889 0.069008581 0.7470001 1.9343356e-38
0.017809555 0.069100961 0.74800003 1.7213165e-38
0.019234326 0.069100969 0.74800009 1.5013793e-38
0.020659074 0.069100969 0.74800009 1.4437327e-38
0.022142883 0.069285713 0.75000012 1.3903526e-38
0.023571443 0.069285728 0.75000006 1.4719637e-38
0.025066681 0.069470495 0.75200003 1.5576325e-38
0.026499067 0.069470495 0.75200009 1.5131892e-38
0.027968585 0.069562875 0.75300002 1.4683496e-38
0.029480999 0.069747627 0.75500005 1.4968708e-38
0.030919099 0.069747634 0.75500011 1.5150926e-38
0.032400053 0.069840014 0.7560001 1.3679747e-38
0.033929575 0.070024766 0.75800008 1.2208619e-38
0.03546669 0.070209533 0.76000011 1.7259247e-38
0.036962885 0.070301905 0.7610001 2.222126e-38
0.038513348 0.07048668 0.76300001 2.2862699e-38
0.039966665 0.07048668 0.76300001 2.3416583e-38
0.041637182 0.070856214 0.76700008 2.3417661e-38
0.043098114 0.070856206 0.76700002 2.3417656e-38
0.044617172 0.070948593 0.76800001 2.3417654e-38
-0.031246655 0.07194002 0.76300001 1.0981131e-38
-0.029715225 0.071751431 0.7610001 1.209931e-38
-0.028228553 0.071657166 0.76000005 1.6793332e-38
-0.026780922 0.071657173 0.76000005 2.1489142e-38
-0.025333319 0.071657173 0.76000005 2.24075e-38
-0.023885686 0.071657166 0.76000005 2.3234019e-38
-0.022378985 0.071468577 0.75800008 2.3325854e-38
-0.020879976 0.071280025 0.75600004 2.341769e-38
-0.019439954 0.071280017 0.7560001 2.341769e-38
-0.017976139 0.071185715 0.75500011 2.341769e-38
-0.016494252 0.070997164 0.75300008 2.341769e-38
-0.015039968 0.070902862 0.75200009 2.3417658e-38
-0.013607615 0.070902877 0.75200003 2.2031125e-38
-0.012142808 0.070714295 0.75000012 2.06403e-38
-0.010714272 0.070714287 0.75000006 1.9353148e-38
-0.0092856809 0.070714295 0.75000012 1.7971272e-38
-0.0078361863 0.070525728 0.74800003 1.7599227e-38
-0.006402811 0.070431449 0.7470001 1.7229433e-38
-0.0049866391 0.070525736 0.74800009 1.7143036e-38
-0.003557113 0.070431449 0.74700004 1.7154877e-38
-0.0021285219 0.070242874 0.74500012 1.936216e-38
-0.0007094919 0.070242889 0.74500006 2.1575201e-38
0.00070954009 0.070242874 0.74500006 2.1207163e-38
0.0021285983 0.070242874 0.74500006 2.0929487e-38
0.0035476563 0.070242882 0.74500006 1.9911745e-38
0.0049667144 0.070242867 0.74500012 1.8895378e-38
0.0063857725 0.070242874 0.74500012 1.7509516e-38
0.0078047765 0.070242882 0.74500006 1.60358e-38
0.0092238327 0.070242867 0.74500006 1.6211176e-38
0.010642891 0.070242874 0.74500006 1.6305976e-38
0.012061951 0.070242882 0.74500012 1.8431559e-38
0.013517163 0.070431441 0.74700004 2.0563129e-38
0.014940013 0.070431441 0.74700004 2.0925788e-38
0.016362891 0.070431449 0.74700004 2.1378443e-38
0.017809559 0.070525736 0.74800003 2.0273123e-38
0.019234307 0.070525721 0.74800009 1.9266567e-38
0.020714307 0.070714302 0.75000012 1.8980704e-38
0.02214287 0.070714295 0.75000012 1.8708768e-38
0.023571463 0.07071428 0.75000012 1.9075733e-38
0.025066705 0.070902877 0.75200009 1.9549309e-38
0.026534311 0.070997164 0.75300008 1.7164862e-38
0.027968593 0.070997149 0.75300008 1.4876867e-38
0.029481012 0.071185708 0.75500011 1.4048554e-38
0.030919079 0.071185723 0.75500011 1.3221257e-38
0.032400038 0.07128001 0.7560001 1.3857228e-38
0.033929572 0.071468577 0.75800008 1.4589857e-38
0.03546669 0.071657166 0.76000011 1.8544621e-38
0.036962867 0.071751446 0.76100004 2.2406034e-38
0.038513333 0.07194002 0.76300001 2.2864868e-38
0.039966684 0.071940005 0.76300007 2.3325822e-38
0.041691449 0.072411448 0.76800001 2.3417641e-38
0.043154329 0.072411448 0.76800007 2.3417642e-38
0.044733379 0.072600007 0.7700001 2.3325807e-38
