# .PCD v0.7 - Point Cloud Data file format
VERSION 0.7
FIELDS x y z rgb
SIZE 4 4 4 4
TYPE F F F F
COUNT 1 1 1 1
WIDTH 985
HEIGHT 1
VIEWPOINT 0 0 0 1 0 0 0
POINTS 985
DATA ascii
-0.014859986 0.026181906 0.74299997 1.5419034e-38
-0.013426663 0.026146673 0.74199998 1.5882875e-38
-0.011980961 0.026076198 0.74000001 1.6340258e-38
-0.010557139 0.026040956 0.73899996 1.6525364e-38
-0.0091495467 0.026040941 0.73900002 1.6710111e-38
-0.0077209449 0.025970481 0.73699999 1.7079965e-38
-0.0063171289 0.025970481 0.73699999 1.7352959e-38
-0.0049133454 0.025970474 0.73700005 1.7446586e-38
-0.0035047608 0.025935248 0.73600006 1.7535911e-38
-0.002097144 0.025864772 0.73399997 1.7630975e-38
-0.00069902028 0.025864772 0.73399997 1.7718504e-38
0.00069906999 0.02586478 0.73399997 1.8088714e-38
0.0021028609 0.025935225 0.73600006 1.8454263e-38
0.0034952478 0.025864772 0.73399997 1.799939e-38
0.0049066716 0.02593524 0.73600006 1.753483e-38
0.0062914412 0.02586478 0.73399997 1.7904323e-38
0.0076895296 0.025864765 0.73399997 1.8177677e-38
0.0090876194 0.02586478 0.73399997 1.8366731e-38
0.010485729 0.02586478 0.73399997 1.8453544e-38
0.01188382 0.025864787 0.73399997 1.9744265e-38
0.013281937 0.025864787 0.73399997 2.0934899e-38
0.014680025 0.02586478 0.73399997 2.0754458e-38
0.016078115 0.02586478 0.73399997 2.0567558e-38
0.017523829 0.02593524 0.73600006 2.0846295e-38
0.018925728 0.02593524 0.73600006 2.1028171e-38
0.020327626 0.02593524 0.73600006 2.1121798e-38
0.021729525 0.025935233 0.736 2.1212558e-38
0.023162862 0.025970466 0.73699999 2.1029964e-38
0.024566665 0.025970474 0.73699999 2.0845217e-38
0.025970496 0.025970481 0.73699999 2.0846295e-38
0.027448568 0.026040941 0.73900002 2.0753742e-38
0.028895238 0.026076205 0.73999995 2.029528e-38
0.030386668 0.026146673 0.74199998 1.9835387e-38
0.031800002 0.026146673 0.74200004 1.9651717e-38
0.033258107 0.026181906 0.74299997 1.9466251e-38
0.034673337 0.026181921 0.74299997 1.7994012e-38
0.036185708 0.026252382 0.74500006 1.6425976e-38
0.037705701 0.026322871 0.74699998 1.7059123e-38
0.039128587 0.026322879 0.74699998 1.7710944e-38
0.04060572 0.026358105 0.74800003 2.0567177e-38
0.042142872 0.026428588 0.75000006 2.3414782e-38
0.043687616 0.02649904 0.75200003 2.3414411e-38
0.045300025 0.026604772 0.755 2.3324373e-38
0.046799991 0.026640013 0.75599998 2.3416572e-38
0.048239995 0.026639998 0.75600004 2.3416942e-38
0.05013999 0.026886679 0.76299995 2.3417669e-38
0.051593326 0.026886679 0.76299995 2.3417668e-38
0.053046662 0.026886687 0.76299995 2.3417665e-38
0.054642852 0.026957154 0.76500005 2.3417662e-38
-0.034153339 0.028340012 0.76299995 1.4847458e-38
-0.03261428 0.02826573 0.76099998 1.5860528e-38
-0.031123817 0.028228588 0.75999999 1.5952732e-38
-0.029598115 0.028154284 0.75799996 1.5954932e-38
-0.028154314 0.028154284 0.75800002 1.5772385e-38
-0.026640005 0.028080009 0.75599998 1.5585841e-38
-0.025166653 0.028042853 0.75500005 1.5773097e-38
-0.023665717 0.027968578 0.75300002 1.5956771e-38
-0.022142861 0.027857155 0.75000006 1.6144749e-38
-0.020659026 0.027782865 0.74799997 1.6333084e-38
-0.019208577 0.027745731 0.74699998 1.6423843e-38
-0.0177381 0.027671427 0.74500006 1.6424919e-38
-0.016275223 0.027597144 0.74299997 1.661146e-38
-0.014859999 0.027597137 0.74299997 1.6800512e-38
-0.01342667 0.027559996 0.74199998 1.6982748e-38
-0.011980955 0.027485713 0.74000001 1.7258613e-38
-0.010557144 0.027448572 0.73899996 1.7352242e-38
-0.0091495384 0.027448572 0.73900002 1.7540218e-38
-0.0077209412 0.027374282 0.73699999 1.7814649e-38
-0.0063171391 0.02737429 0.73699999 1.8091231e-38
-0.0049133222 0.027374275 0.73699999 1.8181991e-38
-0.0035095189 0.027374282 0.73699999 1.8183067e-38
-0.0021028344 0.027337149 0.736 1.8274185e-38
-0.00070093694 0.027337156 0.736 1.8366738e-38
0.00070097641 0.027337141 0.736 1.836602e-38
0.0021028749 0.027337149 0.736 1.8458573e-38
0.0035047734 0.027337156 0.736 1.8274543e-38
0.0049066856 0.027337149 0.736 1.8183067e-38
0.006308598 0.027337156 0.736 1.8457138e-38
0.0077104964 0.027337141 0.736 1.873408e-38
0.0091123944 0.027337149 0.736 1.9008869e-38
0.010514294 0.027337149 0.736 1.9376928e-38
0.011916219 0.027337141 0.736 2.0019418e-38
0.013318119 0.027337149 0.736 2.0662625e-38
0.014720016 0.027337156 0.736 2.0570431e-38
0.016121915 0.027337149 0.736 2.0387119e-38
0.01752382 0.027337141 0.73600006 2.0478237e-38
0.018925739 0.027337164 0.736 2.0478954e-38
0.020327616 0.027337134 0.73600006 2.0570072e-38
0.021729516 0.027337141 0.73600006 2.0662625e-38
0.023162866 0.027374282 0.73699999 2.0478237e-38
0.024566669 0.027374282 0.73699999 2.0387119e-38
0.026040941 0.027448572 0.73899996 2.0294566e-38
0.027448561 0.027448565 0.73900002 2.0295283e-38
0.028973341 0.027560003 0.74199998 2.0110535e-38
0.030386645 0.027560003 0.74199998 2.0019777e-38
0.031842858 0.027597137 0.74299997 1.9925789e-38
0.033258095 0.027597137 0.74300003 1.9925786e-38
0.034673352 0.027597152 0.74299997 1.9002047e-38
0.036185715 0.027671434 0.74500006 1.8079013e-38
0.037705708 0.027745724 0.74699998 1.8442751e-38
0.03912859 0.027745724 0.74699998 1.8813679e-38
0.040605728 0.027782865 0.74799997 2.1116022e-38
0.042142857 0.027857147 0.75000006 2.3412986e-38
0.043687593 0.027931429 0.75200003 2.3414779e-38
0.045300011 0.028042853 0.75500005 2.3416572e-38
0.046799988 0.028080009 0.75600004 2.3416569e-38
0.04823998 0.028080024 0.75599998 2.3415501e-38
0.050139982 0.028340012 0.76299995 2.3415868e-38
0.051593319 0.028340012 0.76300001 2.3325113e-38
0.053185694 0.028414272 0.76500005 2.3416952e-38
-0.034153342 0.029793337 0.76300001 1.5958459e-38
-0.032700021 0.029793337 0.76300001 1.7887377e-38
-0.031123815 0.029676199 0.75999999 1.834621e-38
-0.029676193 0.029676199 0.75999999 1.8715009e-38
-0.028154286 0.029598102 0.75799996 1.8716109e-38
-0.026710503 0.029598087 0.75799996 1.862426e-38
-0.025166644 0.029480956 0.755 1.8622094e-38
-0.023665715 0.02940286 0.75300002 1.8623541e-38
-0.022142842 0.029285721 0.75 1.8623196e-38
-0.020659029 0.029207639 0.74799997 1.8534236e-38
-0.019208562 0.029168591 0.74699998 1.8256584e-38
-0.017738106 0.029090472 0.74500006 1.7892119e-38
-0.016275235 0.029012382 0.74299997 1.7986114e-38
-0.01486001 0.029012367 0.74300003 1.8081178e-38
-0.01342666 0.028973341 0.74199998 1.8081177e-38
-0.012013339 0.028973341 0.74199998 1.8084047e-38
-0.010571417 0.028895244 0.74000001 1.8176601e-38
-0.009149543 0.028856196 0.73900002 1.8270232e-38
-0.0077209543 0.028778091 0.73699999 1.8546457e-38
-0.0063171373 0.028778099 0.73699999 1.882304e-38
-0.0049133333 0.028778091 0.73699999 1.8823041e-38
-0.0035095161 0.028778099 0.73699999 1.8823759e-38
-0.0021028428 0.028739057 0.73600006 1.8915953e-38
-0.00070094626 0.02873905 0.736 1.891667e-38
0.0007009671 0.02873905 0.73600006 1.8641523e-38
0.0021028656 0.028739057 0.73600006 1.8365299e-38
0.0035047641 0.02873905 0.736 1.8640089e-38
0.0049066762 0.028739057 0.736 1.8824476e-38
0.0063085896 0.028739043 0.736 1.9098548e-38
0.007710488 0.028739057 0.736 1.9282936e-38
0.009112386 0.028739057 0.736 1.9741755e-38
0.010514284 0.02873905 0.736 2.020201e-38
0.011916211 0.02873905 0.736 2.0293487e-38
0.013318109 0.028739057 0.736 2.038604e-38
0.014720009 0.02873905 0.736 2.0293488e-38
0.016121905 0.028739057 0.736 2.020201e-38
0.017523833 0.028739065 0.736 2.0109098e-38
0.018925732 0.028739057 0.736 1.9926145e-38
0.020327631 0.028739065 0.736 2.0016545e-38
0.021759037 0.028778099 0.73700005 2.001798e-38
0.023162868 0.028778091 0.73700005 1.9925068e-38
0.024566671 0.028778099 0.73699999 1.9833232e-38
0.026040945 0.028856188 0.73900002 1.9832873e-38
0.027485713 0.028895237 0.74000001 1.9833589e-38
0.028973319 0.028973334 0.74199998 2.0015466e-38
0.030386673 0.028973348 0.74199998 2.0108018e-38
0.031842846 0.029012375 0.74300003 2.0289535e-38
0.033258103 0.029012375 0.74299997 2.038065e-38
0.034673344 0.029012382 0.74300003 2.0009001e-38
0.036185697 0.029090479 0.74500006 1.9639494e-38
0.037705738 0.029168583 0.74699998 1.9819566e-38
0.03912859 0.029168591 0.74699998 1.9917859e-38
0.040605742 0.029207639 0.74799997 2.1669551e-38
0.042142861 0.029285736 0.75 2.3414784e-38
0.043687601 0.029363804 0.75200003 2.3415503e-38
0.04535998 0.029520012 0.75600004 2.3416572e-38
0.046800006 0.02952002 0.75599998 2.3417641e-38
0.04823998 0.029519998 0.75600004 2.3415861e-38
0.050271414 0.029871427 0.76499999 2.3321169e-38
0.051728558 0.029871434 0.76499999 2.3232203e-38
-0.034242868 0.031328574 0.76500005 1.5680088e-38
-0.032700002 0.031246677 0.76299995 1.7894921e-38
-0.03116475 0.031164773 0.76099998 1.8075022e-38
-0.029676199 0.031123817 0.75999999 1.8169369e-38
-0.028228588 0.031123817 0.75999999 1.8904769e-38
-0.026710497 0.031041898 0.75800002 1.9735927e-38
-0.025200011 0.030960016 0.75600004 1.9823431e-38
-0.023728563 0.030919045 0.755 1.9914931e-38
-0.022201912 0.030796185 0.75200003 1.9915673e-38
-0.020659037 0.030632384 0.74799997 1.9913174e-38
-0.01920856 0.030591443 0.74699998 1.9083439e-38
-0.017738111 0.030509517 0.74500006 1.8349129e-38
-0.016275246 0.03042762 0.74300003 1.8536401e-38
-0.014859987 0.030427635 0.74299997 1.8722582e-38
-0.013426668 0.030386679 0.74199998 1.94587e-38
-0.012013327 0.030386671 0.74199998 2.0196972e-38
-0.010571434 0.030304767 0.74000001 2.0196613e-38
-0.0091619175 0.030304775 0.74000001 2.0195181e-38
-0.0077419081 0.030263811 0.73900002 2.0382442e-38
-0.006334296 0.030263826 0.73899996 2.0566116e-38
-0.0049266904 0.030263804 0.73900002 2.0566835e-38
-0.003519065 0.030263804 0.73900002 2.0567194e-38
-0.0021028512 0.030140951 0.73600006 2.0567553e-38
-0.00070095184 0.030140959 0.73600006 2.056827e-38
0.00070096058 0.030140959 0.73600006 2.0751582e-38
0.0021028591 0.030140951 0.73600006 2.0843419e-38
0.0035047575 0.030140959 0.73600006 2.1028525e-38
0.0049133464 0.030181915 0.73699999 2.1120359e-38
0.0063085821 0.030140959 0.73600006 2.1211835e-38
0.0077104806 0.030140959 0.73600006 2.1394431e-38
0.0091123795 0.030140951 0.73600006 2.1579537e-38
0.010514277 0.030140959 0.73600006 2.1855403e-38
0.011932383 0.0301819 0.73699999 2.1855405e-38
0.013336186 0.030181907 0.73699999 2.1947242e-38
0.014720001 0.030140959 0.73600006 2.1855406e-38
0.0161219 0.030140966 0.73600006 2.1855047e-38
0.017523825 0.030140959 0.73600006 2.1763569e-38
0.018925725 0.030140966 0.73600006 2.1671734e-38
0.020355256 0.030181907 0.73699999 2.1671374e-38
0.021759041 0.030181907 0.73700005 2.176285e-38
0.023162842 0.030181892 0.73700005 2.1670297e-38
0.024566673 0.030181907 0.73700005 2.1667785e-38
0.026040941 0.030263789 0.73900002 2.1670295e-38
0.027485717 0.030304767 0.74000001 2.1670295e-38
0.028973345 0.030386679 0.74199998 2.1669934e-38
0.030386649 0.030386664 0.74199998 2.1760332e-38
0.031842884 0.030427627 0.74299997 2.1852165e-38
0.033258092 0.030427612 0.74299997 2.1941487e-38
0.034673352 0.030427627 0.74299997 2.1481587e-38
0.036185704 0.030509524 0.74500006 2.1018098e-38
0.037604772 0.030509539 0.745 2.0559631e-38
0.039128594 0.030591451 0.74699998 2.0103685e-38
0.040605705 0.030632384 0.74799997 2.0472105e-38
0.042142872 0.030714296 0.75000006 2.0936306e-38
0.043745719 0.030837141 0.75300002 2.0840526e-38
0.045359999 0.030960016 0.75599998 2.084446e-38
0.046923805 0.031041905 0.75799996 2.1392951e-38
0.048686657 0.03124667 0.76299995 2.2040123e-38
-0.03424288 0.032785706 0.76500005 1.5494991e-38
-0.03270001 0.03270001 0.76300001 1.7887383e-38
-0.03112381 0.032571442 0.75999999 1.7797347e-38
-0.029598106 0.032485716 0.75799996 1.7615481e-38
-0.028154308 0.032485716 0.75800002 1.9181001e-38
-0.026640005 0.032400012 0.75600004 2.074399e-38
-0.025166661 0.032357141 0.755 2.1020923e-38
-0.023665711 0.03227143 0.75300002 2.1206049e-38
-0.022201922 0.032228574 0.75200003 2.1211091e-38
-0.020659037 0.032057151 0.74799997 2.120319e-38
-0.01920856 0.032014303 0.74699998 1.9997841e-38
-0.017738082 0.031928577 0.745 1.8811521e-38
-0.016319048 0.031928584 0.74500006 1.9087036e-38
-0.014859999 0.031842865 0.74300003 1.9363986e-38
-0.013444753 0.031842865 0.74299997 2.0833364e-38
-0.012029517 0.031842858 0.74300003 2.2217352e-38
-0.010599996 0.031800009 0.74199998 2.2125516e-38
-0.0091619119 0.03171429 0.74000001 2.203584e-38
-0.0077419127 0.031671435 0.73900002 2.2221671e-38
-0.0063342876 0.031671427 0.73899996 2.2310629e-38
-0.0049266801 0.031671427 0.73900002 2.2311341e-38
-0.0035095254 0.031585716 0.73700005 2.2218431e-38
-0.0021057085 0.031585708 0.73700005 2.2218791e-38
-0.00070190645 0.031585716 0.73699999 2.2219871e-38
0.00070097268 0.031542867 0.736 2.2769096e-38
0.0021028712 0.031542867 0.736 2.3323698e-38
0.0035047696 0.03154286 0.736 2.3417687e-38
0.0049133352 0.031585723 0.73699999 2.3417327e-38
0.0063171652 0.031585708 0.73699999 2.3417686e-38
0.0077209701 0.031585716 0.73699999 2.3416968e-38
0.0091247717 0.031585723 0.73699999 2.3417686e-38
0.010528556 0.031585708 0.73700005 2.3417328e-38
0.011932386 0.031585701 0.73700005 2.3417687e-38
0.013336188 0.031585716 0.73700005 2.3417328e-38
0.014720013 0.03154286 0.736 2.3417689e-38
0.016121911 0.031542867 0.736 2.3417328e-38
0.017523836 0.031542875 0.736 2.3417687e-38
0.018925736 0.031542867 0.736 2.3417328e-38
0.020327635 0.031542875 0.736 2.3417687e-38
0.021759063 0.031585708 0.73699999 2.3417328e-38
0.023162866 0.031585716 0.73699999 2.3417687e-38
0.024566667 0.031585723 0.73699999 2.341661e-38
0.026040934 0.03167142 0.73900002 2.3417686e-38
0.027485725 0.031714298 0.74000001 2.3416967e-38
0.028973324 0.031799994 0.74199998 2.3417684e-38
0.030386677 0.031800002 0.74199998 2.3416607e-38
0.031842873 0.031842858 0.74299997 2.3417682e-38
0.033258099 0.031842858 0.74299997 2.3415887e-38
0.034673337 0.031842858 0.74299997 2.2865948e-38
0.036088578 0.03184285 0.74300003 2.2309539e-38
0.037604783 0.031928591 0.745 2.1297541e-38
0.039128594 0.032014295 0.74699998 2.0284842e-38
0.04071429 0.032142863 0.75000006 1.9362544e-38
0.042255253 0.032228567 0.75199997 1.8352715e-38
0.043861914 0.032357149 0.755 1.8257655e-38
0.045359995 0.032400005 0.75600004 1.8167608e-38
0.046923794 0.032485716 0.75799996 1.9360747e-38
0.048367608 0.032485701 0.75800002 2.056071e-38
-0.034332398 0.034332395 0.76699996 1.5580736e-38
-0.032785736 0.034242861 0.76500005 1.7699403e-38
-0.031164771 0.034063809 0.76100004 1.7518593e-38
-0.0295981 0.033929527 0.75799996 1.7334948e-38
-0.028154302 0.033929519 0.75800002 1.8903351e-38
-0.02664 0.033840016 0.75599998 2.037488e-38
-0.025166651 0.033795245 0.755 2.0468159e-38
-0.023665708 0.033705719 0.75300002 2.0657227e-38
-0.022201918 0.033660948 0.75200003 2.1025661e-38
-0.020714272 0.033571444 0.75 2.1486244e-38
-0.019234266 0.033481918 0.74799997 2.1205684e-38
-0.017785702 0.033437155 0.74699998 2.0934127e-38
-0.016319051 0.033347629 0.74500006 2.102166e-38
-0.014860009 0.033258095 0.74300003 2.119997e-38
-0.013444752 0.033258103 0.74299997 2.2033682e-38
-0.012029528 0.033258088 0.74300003 2.2866657e-38
-0.010600002 0.033213347 0.74199998 2.2773386e-38
-0.0091866618 0.033213355 0.74199998 2.2774832e-38
-0.0077523948 0.033123814 0.74000001 2.277233e-38
-0.0063428632 0.033123814 0.74000001 2.2858053e-38
-0.0049266857 0.03307905 0.73900002 2.2769433e-38
-0.0035190575 0.033079036 0.73900002 2.2581818e-38
-0.0021057196 0.032989509 0.73700005 2.2679036e-38
-0.00070190273 0.032989517 0.73700005 2.2864512e-38
0.00070190028 0.032989509 0.73700005 2.3140387e-38
0.0021028637 0.032944761 0.73600006 2.3417689e-38
0.0035047622 0.032944769 0.73600006 2.341769e-38
0.0049133371 0.032989524 0.73699999 2.341769e-38
0.0063171419 0.032989524 0.73699999 2.341769e-38
0.0077209719 0.032989524 0.73699999 2.341769e-38
0.0091247745 0.032989517 0.73699999 2.341769e-38
0.010528578 0.032989524 0.73699999 2.341769e-38
0.011932381 0.032989532 0.73699999 2.341769e-38
0.013336191 0.032989502 0.73700005 2.341769e-38
0.014739995 0.032989509 0.73700005 2.341769e-38
0.016143797 0.032989502 0.73700005 2.341769e-38
0.017547628 0.032989509 0.73700005 2.341769e-38
0.018951431 0.032989517 0.73699999 2.341769e-38
0.020355234 0.032989524 0.73699999 2.341769e-38
0.021759065 0.032989517 0.73699999 2.341769e-38
0.023162868 0.032989524 0.73699999 2.341769e-38
0.024566673 0.032989509 0.73699999 2.341769e-38
0.026040932 0.03307905 0.73900002 2.341769e-38
0.027485728 0.033123821 0.74000001 2.341769e-38
0.028973348 0.03321334 0.74199998 2.341769e-38
0.030386653 0.03321334 0.74199998 2.341769e-38
0.031842858 0.033258095 0.74300003 2.341769e-38
0.033258118 0.033258095 0.74299997 2.341769e-38
0.034673329 0.033258095 0.74300003 2.3141107e-38
0.036185693 0.033347614 0.74500006 2.2863069e-38
0.03760476 0.033347622 0.745 2.1574838e-38
0.039128575 0.033437155 0.74699998 2.0283046e-38
0.04071429 0.033571444 0.75 1.8531717e-38
0.042311441 0.033705719 0.75300002 1.6782543e-38
0.043861903 0.033795238 0.75500005 1.6690355e-38
0.045359988 0.033840016 0.75599998 1.6687129e-38
0.046923783 0.033929527 0.75800002 1.7150254e-38
-0.034332391 0.035793342 0.76699996 1.5668987e-38
-0.032700017 0.035606675 0.76300001 1.7424255e-38
-0.031123796 0.035466686 0.75999999 1.7243087e-38
-0.029598109 0.035373338 0.75800002 1.7061592e-38
-0.028154312 0.03537333 0.75800002 1.8538517e-38
-0.026640015 0.035280004 0.75600004 2.000682e-38
-0.025166664 0.035233341 0.75500005 2.0003244e-38
-0.023665708 0.035140008 0.75300002 2.0010066e-38
-0.022201926 0.035093315 0.75200003 2.0839821e-38
-0.020714287 0.035000011 0.75000006 2.1667765e-38
-0.019285718 0.035000011 0.75000006 2.2312756e-38
-0.017785721 0.034860015 0.74699998 2.2955968e-38
-0.016362842 0.034860022 0.74699998 2.295705e-38
-0.014859988 0.034673333 0.74299997 2.2954907e-38
-0.013480944 0.034766681 0.745 2.3234011e-38
-0.012029519 0.034673326 0.74299997 2.341768e-38
-0.010614282 0.034673333 0.74300003 2.341768e-38
-0.009186672 0.03462667 0.74199998 2.3417684e-38
-0.007752391 0.034533352 0.74000001 2.341769e-38
-0.0063428595 0.034533344 0.74000001 2.3415531e-38
-0.0049266904 0.034486666 0.73900002 2.3234005e-38
-0.003519064 0.034486666 0.73900002 2.2956347e-38
-0.0021057113 0.034393333 0.73699999 2.3234008e-38
-0.00070189434 0.034393333 0.73699999 2.3417324e-38
0.00070190307 0.034393333 0.73700005 2.3417689e-38
0.0021057071 0.03439334 0.73700005 2.341769e-38
0.0035047678 0.034346662 0.73600006 2.341769e-38
0.0049133259 0.03439334 0.73700005 2.341769e-38
0.0063171438 0.034393325 0.73699999 2.341769e-38
0.0077104769 0.03434667 0.73600006 2.341769e-38
0.0091123758 0.034346677 0.73600006 2.341769e-38
0.010528581 0.034393325 0.73699999 2.341769e-38
0.011932383 0.034393333 0.73699999 2.341769e-38
0.013336216 0.034393325 0.73699999 2.341769e-38
0.014740018 0.034393333 0.73699999 2.341769e-38
0.016143819 0.034393333 0.73699999 2.341769e-38
0.017547604 0.034393333 0.73700005 2.341769e-38
0.018951433 0.034393325 0.73700005 2.341769e-38
0.020355238 0.034393333 0.73700005 2.341769e-38
0.021759041 0.034393325 0.73699999 2.341769e-38
0.02316287 0.034393333 0.73700005 2.341769e-38
0.024633314 0.034486659 0.73900002 2.341769e-38
0.026040927 0.034486674 0.73900002 2.341769e-38
0.027485706 0.034533344 0.73999995 2.341769e-38
0.029012401 0.034673341 0.74299997 2.341769e-38
0.030427609 0.034673341 0.74300003 2.341769e-38
0.031842869 0.034673341 0.74299997 2.341769e-38
0.033258107 0.034673333 0.74300003 2.341769e-38
0.034673337 0.034673333 0.74299997 2.341769e-38
0.0361857 0.034766667 0.74500006 2.3416597e-38
0.037756201 0.034906685 0.74799997 2.1855377e-38
0.039285708 0.035000011 0.75000006 2.0279813e-38
0.040822852 0.03509333 0.75200003 1.7698723e-38
0.042311426 0.03514 0.75300002 1.5127336e-38
0.043861911 0.035233349 0.755 1.5217387e-38
0.045359988 0.035280012 0.75600004 1.5217747e-38
0.046800014 0.035280012 0.75599998 1.4942961e-38
-0.036073308 0.037545729 0.773 1.4203877e-38
-0.034466676 0.037400007 0.77000004 1.6320807e-38
-0.032785729 0.037157141 0.76499999 1.8442698e-38
-0.031164754 0.036962859 0.76099998 1.7888086e-38
-0.029676197 0.036914289 0.75999999 1.7424987e-38
-0.028228572 0.036914296 0.75999999 1.8903345e-38
-0.026710503 0.036817148 0.75800002 2.0375956e-38
-0.025166657 0.03667143 0.755 2.0190864e-38
-0.023665708 0.036574289 0.75300002 1.9917864e-38
-0.022201918 0.036525704 0.75200003 2.0470308e-38
-0.020714268 0.036428586 0.75 2.0930573e-38
-0.019234277 0.036331445 0.74799997 2.1482672e-38
-0.017809516 0.036331438 0.74799997 2.2037639e-38
-0.016362861 0.036282867 0.74699998 2.2590094e-38
-0.014900002 0.036185712 0.74500006 2.3234019e-38
-0.013480948 0.036185712 0.745 2.3325854e-38
-0.012029517 0.036088564 0.74300003 2.341769e-38
-0.010614273 0.036088571 0.74299997 2.341769e-38
-0.009186673 0.036040016 0.74199998 2.341769e-38
-0.0077733411 0.036040001 0.74200004 2.341769e-38
-0.0063428539 0.03594286 0.74000001 2.341769e-38
-0.004926682 0.03589429 0.73900002 2.3325854e-38
-0.0035190538 0.035894297 0.73900002 2.3234019e-38
-0.0021057075 0.035797134 0.73699999 2.3325854e-38
-0.00070189062 0.035797141 0.73699999 2.341769e-38
0.00070191146 0.035797134 0.73699999 2.341769e-38
0.0021057294 0.035797141 0.73699999 2.341769e-38
0.0035095324 0.035797149 0.73699999 2.341769e-38
0.0049133277 0.035797149 0.73700005 2.341769e-38
0.0063171457 0.035797134 0.73700005 2.341769e-38
0.0077209487 0.035797141 0.73700005 2.341769e-38
0.0091247531 0.035797134 0.73699999 2.341769e-38
0.010528583 0.035797134 0.73699999 2.341769e-38
0.011932385 0.035797141 0.73699999 2.341769e-38
0.01333619 0.035797134 0.73699999 2.341769e-38
0.01474002 0.035797141 0.73699999 2.341769e-38
0.016143823 0.035797134 0.73699999 2.341769e-38
0.017547626 0.035797134 0.73699999 2.341769e-38
0.018951429 0.035797141 0.73699999 2.341769e-38
0.02035524 0.035797141 0.73700005 2.341769e-38
0.021759043 0.035797134 0.73700005 2.341769e-38
0.023162846 0.035797141 0.73700005 2.341769e-38
0.024633311 0.035894282 0.73900002 2.341769e-38
0.026040951 0.035894297 0.73900002 2.341769e-38
0.027559999 0.036040001 0.74199998 2.341769e-38
0.028973326 0.036040016 0.74199998 2.341769e-38
0.030427648 0.036088578 0.74299997 2.341769e-38
0.031842854 0.036088571 0.74299997 2.341769e-38
0.033258114 0.036088578 0.74299997 2.341769e-38
0.034766663 0.036185719 0.74500006 2.341769e-38
0.03618573 0.036185712 0.745 2.3417677e-38
0.037756212 0.036331445 0.74799997 2.1110657e-38
0.039285742 0.036428593 0.75 1.8894025e-38
0.04082286 0.036525719 0.75200003 1.7517186e-38
0.042311441 0.036574289 0.75300002 1.6137153e-38
0.043861922 0.03667143 0.755 1.5677626e-38
0.045479979 0.036817141 0.75800002 1.5308493e-38
0.04692379 0.036817126 0.75800002 1.4941153e-38
-0.036073316 0.039018109 0.773 1.4570152e-38
-0.034466665 0.038866669 0.76999998 1.6967963e-38
-0.032785725 0.038614288 0.76500005 1.9360703e-38
-0.031164743 0.038412381 0.76099998 1.8533101e-38
-0.02967618 0.038361929 0.75999999 1.7705887e-38
-0.028228574 0.038361922 0.75999999 1.927357e-38
-0.026710495 0.038260952 0.75800002 2.0743661e-38
-0.0252 0.038160015 0.75599998 2.0281976e-38
-0.023665708 0.038008582 0.75300002 1.9824593e-38
-0.022201914 0.037958093 0.75200003 2.0008981e-38
-0.020714268 0.037857149 0.75 2.0193375e-38
-0.019285697 0.037857149 0.75 2.0648971e-38
-0.017785717 0.037705723 0.74699998 2.1024934e-38
-0.016362861 0.037705731 0.74699998 2.2223829e-38
-0.014900006 0.037604764 0.74500006 2.341769e-38
-0.013480953 0.037604757 0.745 2.341769e-38
-0.012029508 0.037503824 0.74299997 2.341769e-38
-0.010614284 0.037503816 0.74299997 2.341769e-38
-0.0091866814 0.037453346 0.74199998 2.341769e-38
-0.0077733272 0.037453339 0.74199998 2.341769e-38
-0.0063428679 0.037352376 0.74000001 2.341769e-38
-0.0049333363 0.037352383 0.74000001 2.341769e-38
-0.0035190585 0.037301898 0.73900002 2.341769e-38
-0.0021057178 0.03720095 0.73699999 2.341769e-38
-0.00070190179 0.037200958 0.73699999 2.341769e-38
0.00070191425 0.037200958 0.73699999 2.341769e-38
0.0021057182 0.03720095 0.73699999 2.341769e-38
0.0035095343 0.037200958 0.73699999 2.341769e-38
0.004913338 0.03720095 0.73699999 2.341769e-38
0.006317141 0.037200958 0.73699999 2.341769e-38
0.0077209505 0.03720095 0.73700005 2.341769e-38
0.0091247549 0.037200958 0.73700005 2.341769e-38
0.010514279 0.037150487 0.73600006 2.341769e-38
0.01193239 0.03720095 0.73700005 2.341769e-38
0.013336192 0.037200943 0.73699999 2.341769e-38
0.014739995 0.03720095 0.73699999 2.341769e-38
0.016143825 0.037200958 0.73699999 2.341769e-38
0.017547628 0.03720095 0.73699999 2.341769e-38
0.018951431 0.037200958 0.73699999 2.341769e-38
0.020410461 0.037301898 0.73900002 2.341769e-38
0.021759065 0.03720095 0.73699999 2.341769e-38
0.02325714 0.037352383 0.74000001 2.341769e-38
0.024666658 0.037352391 0.74000001 2.341769e-38
0.026076181 0.037352376 0.74000001 2.341769e-38
0.027559998 0.037453339 0.74199998 2.341769e-38
0.029012375 0.037503805 0.74300003 2.341769e-38
0.030427635 0.037503812 0.74299997 2.341769e-38
0.031842843 0.037503809 0.74300003 2.341769e-38
0.033258103 0.037503805 0.74299997 2.341769e-38
0.034766674 0.037604772 0.74500006 2.341769e-38
0.036331441 0.037756201 0.74799997 2.3413004e-38
0.037756205 0.037756201 0.74800003 2.0459538e-38
0.039285727 0.037857153 0.75 1.7424655e-38
0.040822867 0.037958089 0.75200003 1.7338912e-38
0.042311426 0.038008578 0.75300002 1.7152011e-38
0.043919999 0.038160022 0.75599998 1.6230783e-38
0.045599997 0.038361918 0.75999999 1.5311708e-38
0.047047619 0.038361918 0.75999999 1.5030102e-38
-0.03446668 0.040333331 0.77000004 1.6692101e-38
-0.032785725 0.040071428 0.76500005 1.854029e-38
-0.031164775 0.039861906 0.76100004 1.8166132e-38
-0.029793333 0.039966676 0.76299995 1.7795943e-38
-0.028228577 0.03980954 0.75999999 1.9273941e-38
-0.026710505 0.039704762 0.75800002 2.0838728e-38
-0.0252 0.039600007 0.75600004 2.0374882e-38
-0.023728555 0.039547622 0.755 1.9916068e-38
-0.022201903 0.039390482 0.75199997 2.0285565e-38
-0.020769533 0.039390475 0.75200003 2.0654702e-38
-0.019285716 0.039285727 0.75000006 2.1113522e-38
-0.017809512 0.039180968 0.74800003 2.1577379e-38
-0.016362859 0.03912859 0.74699998 2.2314947e-38
-0.014899991 0.039023817 0.745 2.3142183e-38
-0.013480943 0.039023805 0.74500006 2.1851464e-38
-0.012029519 0.038919054 0.74299997 2.057079e-38
-0.010614282 0.038919035 0.74300003 2.1210768e-38
-0.0091866674 0.038866665 0.74199998 2.1856487e-38
-0.0077733486 0.038866669 0.74200004 2.2406423e-38
-0.0063428623 0.038761906 0.74000001 2.2958513e-38
-0.0049333326 0.038761918 0.74000001 2.3142183e-38
-0.0035238008 0.038761914 0.74000001 2.3325854e-38
-0.0021057159 0.038604755 0.73700005 2.3325854e-38
-0.00070189993 0.038604766 0.73700005 2.341769e-38
0.00070190401 0.038604759 0.73699999 2.341769e-38
0.0021057201 0.038604759 0.73699999 2.341769e-38
0.0035095222 0.038604766 0.73699999 2.341769e-38
0.0049133408 0.038604774 0.73699999 2.341769e-38
0.0063171429 0.038604766 0.73699999 2.341769e-38
0.0077209729 0.038604766 0.73699999 2.341769e-38
0.0091247782 0.038604759 0.73699999 2.341769e-38
0.01052858 0.038604766 0.73699999 2.341769e-38
0.011932365 0.038604755 0.73700005 2.341769e-38
0.013336195 0.038604748 0.73700005 2.341769e-38
0.014739997 0.038604755 0.73700005 2.341769e-38
0.016143801 0.038604748 0.73699999 2.341769e-38
0.01754763 0.038604755 0.73700005 2.341769e-38
0.018951435 0.038604766 0.73699999 2.341769e-38
0.020438084 0.038761906 0.74000001 2.341769e-38
0.021818096 0.038709529 0.73899996 2.341769e-38
0.023257146 0.038761914 0.74000001 2.341769e-38
0.024666663 0.038761921 0.73999995 2.341769e-38
0.026146669 0.038866669 0.74199998 2.341769e-38
0.027560003 0.038866673 0.74199998 2.341769e-38
0.029012386 0.038919047 0.74299997 2.341769e-38
0.030427624 0.038919043 0.74300003 2.341769e-38
0.031842854 0.038919039 0.74299997 2.341769e-38
0.033258092 0.038919043 0.74300003 2.341769e-38
0.034906697 0.039180961 0.74799997 2.341769e-38
0.036331456 0.039180968 0.74799997 2.3417658e-38
0.037756216 0.039180968 0.74799997 1.981344e-38
0.039285708 0.039285723 0.75000006 1.6312583e-38
0.040822841 0.039390467 0.75200003 1.6598504e-38
0.042423822 0.039547622 0.75500005 1.6972648e-38
0.043919995 0.039600007 0.75600004 1.6510586e-38
0.045479964 0.039704762 0.75800002 1.6054272e-38
-0.034377132 0.041691445 0.76799995 1.6413008e-38
-0.032785743 0.04152856 0.76500005 1.7613321e-38
-0.031164767 0.041311435 0.76100004 1.7703716e-38
-0.029715238 0.041311435 0.76100004 1.7799164e-38
-0.028228562 0.041257147 0.75999999 1.9371514e-38
-0.026710493 0.041148573 0.75799996 2.0835499e-38
-0.025199998 0.041040018 0.75599998 2.0370938e-38
-0.023728546 0.04098573 0.755 1.9913913e-38
-0.022201898 0.040822849 0.75199997 2.0470307e-38
-0.02076954 0.040822849 0.75200003 2.1021687e-38
-0.019285694 0.040714305 0.75 2.1572349e-38
-0.017809514 0.040605713 0.74799997 2.2036202e-38
-0.016362842 0.040551446 0.74699998 2.24075e-38
-0.014899995 0.040442873 0.745 2.2767656e-38
-0.013480948 0.040442854 0.74500006 2.0275173e-38
-0.012029531 0.040334284 0.74300003 1.7710595e-38
-0.010614272 0.040334292 0.74299997 1.8998086e-38
-0.0091990484 0.040334292 0.74300003 2.019446e-38
-0.0077733384 0.040280011 0.74199998 2.1392629e-38
-0.0063600182 0.040280011 0.74200004 2.2494655e-38
-0.004933327 0.040171441 0.74000001 2.2865944e-38
-0.0035238157 0.040171433 0.74000001 2.313966e-38
-0.0021057066 0.040008575 0.73699999 2.3325845e-38
-0.00070191111 0.040008571 0.73700005 2.3416247e-38
0.00070190587 0.040008578 0.73700005 2.3417682e-38
0.0021057089 0.040008571 0.73700005 2.3416247e-38
0.003509525 0.040008578 0.73700005 2.3417683e-38
0.0049133287 0.040008564 0.73699999 2.341661e-38
0.0063171447 0.040008571 0.73699999 2.341769e-38
0.0077209496 0.040008578 0.73699999 2.341769e-38
0.0091247801 0.040008578 0.73699999 2.341769e-38
0.010528583 0.040008575 0.73699999 2.341769e-38
0.011932387 0.040008582 0.73699999 2.341769e-38
0.01333619 0.040008575 0.73699999 2.341769e-38
0.014779997 0.040117148 0.73899996 2.341769e-38
0.016187608 0.040117148 0.73899996 2.341769e-38
0.017595228 0.040117133 0.73900002 2.341769e-38
0.019028567 0.040171437 0.73999995 2.341769e-38
0.02043809 0.040171437 0.74000001 2.341769e-38
0.021847608 0.040171448 0.74000001 2.341769e-38
0.023319989 0.040279996 0.74199998 2.341769e-38
0.024733344 0.040280007 0.74199998 2.341769e-38
0.02614665 0.040280011 0.74199998 2.341769e-38
0.027597163 0.040334299 0.74299997 2.341769e-38
0.029012371 0.040334277 0.74300003 2.341769e-38
0.030509502 0.040442862 0.74500006 2.341769e-38
0.031928569 0.040442862 0.745 2.341769e-38
0.033347618 0.040442858 0.74500006 2.341769e-38
0.034906685 0.040605709 0.74800003 2.341769e-38
0.036331441 0.040605728 0.74799997 2.3405789e-38
0.037857171 0.040714301 0.75 1.9247301e-38
0.039285742 0.040714309 0.75 1.5120846e-38
0.040822845 0.040822856 0.75200003 1.5953508e-38
0.042423833 0.04098573 0.755 1.6783608e-38
0.044036169 0.041148573 0.75800002 1.6784676e-38
0.045480002 0.041148584 0.75799996 1.669463e-38
-0.034332402 0.043098107 0.76699996 1.6873622e-38
-0.03278574 0.042985715 0.76500005 1.8439478e-38
-0.031246675 0.042873349 0.76299995 1.8347631e-38
-0.029715246 0.042760961 0.76099998 1.8254031e-38
-0.028228568 0.04270478 0.75999999 1.872077e-38
-0.026710488 0.04259238 0.75799996 1.9271066e-38
-0.025200013 0.042480011 0.75600004 1.7519734e-38
-0.023760004 0.042480018 0.75599998 1.5868126e-38
-0.022290453 0.042423815 0.755 1.6512405e-38
-0.020797141 0.04231143 0.75300002 1.7256074e-38
-0.019337157 0.04225523 0.75200003 1.807938e-38
-0.017809501 0.042030502 0.74799997 1.9005993e-38
-0.016362842 0.041974306 0.74699998 2.0195914e-38
-0.0149 0.041861907 0.745 2.1296843e-38
-0.013480955 0.041861895 0.74500006 2.0464561e-38
-0.012061907 0.041861903 0.74500006 1.9539033e-38
-0.010614287 0.04174953 0.74300003 2.0096503e-38
-0.0091990419 0.041749526 0.74299997 2.0550663e-38
-0.0077733467 0.041693345 0.74200004 2.1386512e-38
-0.0063600061 0.041693348 0.74199998 2.2210881e-38
-0.0049333391 0.041580945 0.74000001 2.2308098e-38
-0.0035238091 0.041580956 0.74000001 2.2305594e-38
-0.0021114324 0.041524772 0.73899996 2.2309905e-38
-0.00070382591 0.041524764 0.73900002 2.2310265e-38
0.00070191611 0.04141238 0.73699999 2.2402102e-38
0.0021057322 0.041412387 0.73699999 2.2401744e-38
0.0035095157 0.041412383 0.73700005 2.2495374e-38
0.0049133315 0.041412376 0.73700005 2.2495023e-38
0.0063171485 0.041412368 0.73700005 2.2957436e-38
0.0077209524 0.041412372 0.73699999 2.341769e-38
0.0091247549 0.04141238 0.73699999 2.341769e-38
0.010528587 0.04141238 0.73699999 2.341769e-38
0.011964739 0.04152476 0.73900002 2.341769e-38
0.013336192 0.04141238 0.73699999 2.341769e-38
0.014779993 0.041524764 0.73899996 2.341769e-38
0.016187605 0.04152476 0.73899996 2.341769e-38
0.017619055 0.041580968 0.74000001 2.341769e-38
0.019080002 0.041693352 0.74199998 2.341769e-38
0.020493308 0.041693337 0.74200004 2.341769e-38
0.021906663 0.041693341 0.74199998 2.341769e-38
0.023320016 0.041693337 0.74199998 2.341769e-38
0.024733322 0.041693341 0.74199998 2.341769e-38
0.026146675 0.041693352 0.74199998 2.341769e-38
0.027597152 0.041749522 0.74300003 2.341769e-38
0.029012382 0.041749533 0.74299997 2.341769e-38
0.030509511 0.041861895 0.74500006 2.341769e-38
0.032014292 0.041974291 0.74699998 2.341769e-38
0.033437151 0.041974299 0.74699998 2.341769e-38
0.03490667 0.042030476 0.74799997 2.3047837e-38
0.03633143 0.042030483 0.74799997 2.2581034e-38
0.037857156 0.042142875 0.75000006 1.9164374e-38
0.039390463 0.042255249 0.75199997 1.5857655e-38
0.040877163 0.042311437 0.75300002 1.6044991e-38
0.042423841 0.042423818 0.755 1.6321931e-38
0.043919984 0.042480007 0.75600004 1.6415917e-38
0.045479991 0.04259238 0.75800002 1.6601382e-38
-0.034332395 0.044559058 0.76699996 1.7335311e-38
-0.032785717 0.044442859 0.76499999 1.9175969e-38
-0.031246683 0.04432667 0.76300001 1.8992658e-38
-0.029793344 0.044326674 0.76300001 1.8719679e-38
-0.028265707 0.044210479 0.76099998 1.8170476e-38
-0.026780959 0.04415239 0.75999999 1.761227e-38
-0.025266699 0.044036195 0.75800002 1.4659886e-38
-0.023760004 0.04392001 0.75600004 1.1723308e-38
-0.022290464 0.043861903 0.75500005 1.2546964e-38
-0.020797139 0.043745719 0.75300002 1.3379947e-38
-0.019337153 0.043687612 0.75200003 1.4666727e-38
-0.01780951 0.043455236 0.74799997 1.5956734e-38
-0.016362861 0.043397166 0.74699998 1.788959e-38
-0.014939982 0.043397158 0.74699998 1.9826033e-38
-0.013480959 0.043280948 0.74500006 2.0655429e-38
-0.012061912 0.043280952 0.74500006 2.138832e-38
-0.010642858 0.043280967 0.745 2.1206084e-38
-0.0091990381 0.043164764 0.74299997 2.0929861e-38
-0.0077838148 0.043164752 0.74300003 2.1483029e-38
-0.0063600126 0.043106664 0.74200004 2.1941848e-38
-0.0049333484 0.042990476 0.74000001 2.1758178e-38
-0.0035238166 0.042990487 0.74000001 2.1483034e-38
-0.0021114445 0.04293238 0.73900002 2.1389407e-38
-0.00070381752 0.042932376 0.73900002 2.120789e-38
0.00070191798 0.042816188 0.73699999 2.1295062e-38
0.0021057201 0.042816196 0.73699999 2.1391561e-38
0.0035095389 0.042816188 0.73699999 2.148268e-38
0.0049133408 0.042816196 0.73699999 2.1578465e-38
0.0063171242 0.042816192 0.73700005 2.2499335e-38
0.0077209543 0.042816192 0.73700005 2.341769e-38
0.0091247577 0.042816177 0.73700005 2.341769e-38
0.010557123 0.042932384 0.73900002 2.341769e-38
0.011964764 0.04293238 0.73900002 2.341769e-38
0.013372376 0.042932391 0.73900002 2.341769e-38
0.014800001 0.042990491 0.74000001 2.341769e-38
0.016209515 0.042990487 0.74000001 2.341769e-38
0.01761904 0.042990487 0.74000001 2.341769e-38
0.019079981 0.043106668 0.74200004 2.341769e-38
0.020493336 0.043106671 0.74199998 2.341769e-38
0.021906661 0.043106668 0.74199998 2.341769e-38
0.023319993 0.043106671 0.74199998 2.341769e-38
0.02473335 0.043106675 0.74199998 2.341769e-38
0.026146654 0.043106664 0.74199998 2.341769e-38
0.027597141 0.043164752 0.74300003 2.341769e-38
0.029012401 0.043164764 0.74299997 2.341769e-38
0.030509541 0.043280955 0.745 2.341769e-38
0.032014292 0.043397162 0.74699998 2.341769e-38
0.033481922 0.043455243 0.74799997 2.341769e-38
0.035 0.043571439 0.75000006 2.2591171e-38
0.036428571 0.043571435 0.75000006 2.1746626e-38
0.037857141 0.043571442 0.75000006 1.9154698e-38
0.039390471 0.043687623 0.75199997 1.6500505e-38
0.040877152 0.043745726 0.75299996 1.6137895e-38
0.042423826 0.043861896 0.75500005 1.5770911e-38
0.043920003 0.043920025 0.75599998 1.613861e-38
0.045600016 0.044152394 0.75999999 1.6416265e-38
0.047047611 0.044152401 0.75999999 1.6601725e-38
-0.034332402 0.046020012 0.76699996 1.7152357e-38
-0.032785729 0.045899995 0.76499999 1.9181363e-38
-0.031328585 0.045899998 0.76499999 1.9549079e-38
-0.02987144 0.045900002 0.76499999 1.9920729e-38
-0.028265718 0.045660008 0.76099998 1.945689e-38
-0.026816189 0.045660004 0.76099998 1.8898668e-38
-0.025266673 0.045479998 0.75799996 1.6868925e-38
-0.023760002 0.045360006 0.75599998 1.4838157e-38
-0.022290457 0.045299996 0.755 1.5027944e-38
-0.020852365 0.045300007 0.755 1.5295197e-38
-0.019337142 0.045120001 0.75199997 1.5668634e-38
-0.01780951 0.044880014 0.74799997 1.6029523e-38
-0.016362857 0.044820011 0.74699998 1.8806834e-38
-0.014940001 0.044820014 0.74699998 2.1574131e-38
-0.013517125 0.044820026 0.74699998 2.203657e-38
-0.012061896 0.044700012 0.745 2.24075e-38
-0.010642848 0.044700015 0.74500006 2.231387e-38
-0.0091990512 0.044579994 0.74300003 2.2223829e-38
-0.0077838073 0.044579994 0.74299997 2.2406065e-38
-0.0063600014 0.044520009 0.74199998 2.2683006e-38
-0.0049466607 0.04452002 0.74199998 2.2589736e-38
-0.0035238129 0.044400014 0.74000001 2.2499335e-38
-0.0021114473 0.044339992 0.73900002 2.2405706e-38
-0.00070382218 0.04434 0.73900002 2.2315664e-38
0.0007038039 0.044340011 0.73900002 2.2404988e-38
0.0021057248 0.044220001 0.73699999 2.24075e-38
0.0035095268 0.044220008 0.73699999 2.24979e-38
0.0049133427 0.044220001 0.73699999 2.2499335e-38
0.0063171466 0.044220008 0.73699999 2.2958513e-38
0.0077418867 0.044340003 0.73899996 2.341769e-38
0.0091247801 0.044220001 0.73699999 2.341769e-38
0.010528564 0.044219993 0.73700005 2.341769e-38
0.011964758 0.044340007 0.73900002 2.341769e-38
0.01337237 0.044339992 0.73899996 2.341769e-38
0.014800006 0.044399999 0.74000001 2.341769e-38
0.01620952 0.04440001 0.73999995 2.341769e-38
0.017619045 0.04440001 0.74000001 2.341769e-38
0.019028561 0.044400007 0.74000001 2.341769e-38
0.020493312 0.044520013 0.74200004 2.341769e-38
0.021906666 0.044520002 0.74199998 2.341769e-38
0.023319993 0.044520013 0.74199998 2.341769e-38
0.024733325 0.044520009 0.74199998 2.341769e-38
0.026181892 0.044579994 0.74300003 2.341769e-38
0.027597148 0.044580001 0.74299997 2.341769e-38
0.029012386 0.044579998 0.74300003 2.341769e-38
0.03050952 0.044699997 0.745 2.341769e-38
0.032014295 0.044820033 0.74699998 2.341769e-38
0.033481915 0.044880003 0.74799997 2.341769e-38
0.035000008 0.045000017 0.75 2.1758553e-38
0.036428574 0.045000006 0.75 2.0180047e-38
0.037857145 0.045000013 0.75 1.9348063e-38
0.039390478 0.045120008 0.75199997 1.8524834e-38
0.040877145 0.04518 0.75300002 1.7609767e-38
0.042423833 0.045299999 0.755 1.6689259e-38
0.043919999 0.045360003 0.75600004 1.6598138e-38
0.045599997 0.045600027 0.75999999 1.6598848e-38
0.047109548 0.045660015 0.76099998 1.669247e-38
-0.034332391 0.047480959 0.76699996 1.6967636e-38
-0.032785732 0.047357146 0.76500005 1.9180299e-38
-0.031328585 0.047357135 0.76500005 2.0193002e-38
-0.029793352 0.047233336 0.76300001 2.1113874e-38
-0.028265707 0.047109533 0.76099998 2.0653269e-38
-0.026816197 0.047109537 0.76099998 2.0189409e-38
-0.025266681 0.046923812 0.75799996 1.9078756e-38
-0.023822883 0.046923809 0.75800002 1.797853e-38
-0.022320006 0.04680001 0.75599998 1.7614784e-38
-0.020852376 0.046738099 0.75500005 1.7148428e-38
-0.019362859 0.046614297 0.75300002 1.6590953e-38
-0.017857127 0.046428587 0.75000006 1.604928e-38
-0.016384739 0.04630477 0.74799997 1.9734192e-38
-0.01494 0.046242867 0.74699998 2.3321533e-38
-0.013517143 0.046242867 0.74699998 2.341769e-38
-0.012061902 0.04611906 0.745 2.341769e-38
-0.010642854 0.046119057 0.74500006 2.341769e-38
-0.0091990419 0.045995243 0.74299997 2.341769e-38
-0.0077838027 0.045995239 0.74300003 2.341769e-38
-0.0063599893 0.045933347 0.74199998 2.341769e-38
-0.0049466691 0.045933336 0.74199998 2.341769e-38
-0.0035238073 0.045809541 0.74000001 2.341769e-38
-0.0021114389 0.045747615 0.73900002 2.341769e-38
-0.00070382777 0.045747619 0.73900002 2.341769e-38
0.00070379925 0.045747612 0.73899996 2.341769e-38
0.0021057127 0.045623817 0.73700005 2.341769e-38
0.0035095287 0.045623802 0.73699999 2.341769e-38
0.0049133315 0.045623809 0.73699999 2.341769e-38
0.006334269 0.045747627 0.73900002 2.341769e-38
0.007741909 0.045747634 0.73899996 2.341769e-38
0.0091495011 0.045747612 0.73900002 2.341769e-38
0.010557142 0.045747615 0.73900002 2.341769e-38
0.011964754 0.045747608 0.73900002 2.341769e-38
0.013390466 0.045809537 0.74000001 2.341769e-38
0.014800011 0.045809548 0.74000001 2.341769e-38
0.016209505 0.04580953 0.74000001 2.341769e-38
0.017619051 0.04580953 0.74000001 2.341769e-38
0.019079987 0.045933343 0.74200004 2.341769e-38
0.02049334 0.04593334 0.74199998 2.341769e-38
0.021906665 0.045933343 0.74199998 2.341769e-38
0.023319997 0.04593334 0.74199998 2.341769e-38
0.024733325 0.045933351 0.74199998 2.341769e-38
0.026181929 0.045995243 0.74299997 2.341769e-38
0.027597137 0.045995247 0.74300003 2.341769e-38
0.029012397 0.045995243 0.74299997 2.341769e-38
0.030509531 0.046119049 0.745 2.341769e-38
0.032014277 0.046242867 0.74699998 2.341769e-38
0.033481926 0.04630477 0.74799997 2.341732e-38
0.035000019 0.046428587 0.75000006 2.1028152e-38
0.036428589 0.046428587 0.75000006 1.8525945e-38
0.037958104 0.046552371 0.75200003 1.9533216e-38
0.039390482 0.046552379 0.75199997 2.0461305e-38
0.040877134 0.046614293 0.75300002 1.8994497e-38
0.042423844 0.046738107 0.755 1.7522245e-38
0.043919992 0.046800014 0.75599998 1.7148791e-38
0.045659993 0.047109533 0.76099998 1.6782888e-38
0.047109526 0.047109518 0.76100004 1.678361e-38
0.04855907 0.047109529 0.76099998 1.6785412e-38
-0.034332398 0.048941918 0.76699996 1.6602113e-38
-0.032785729 0.048814278 0.76500005 1.9000946e-38
-0.031328585 0.048814286 0.76500005 2.0011841e-38
-0.029793337 0.048686679 0.76299995 2.1024552e-38
-0.0282657 0.048559062 0.76099998 2.1208232e-38
-0.026816186 0.048559062 0.76099998 2.1300066e-38
-0.02526669 0.048367623 0.75800002 2.0470675e-38
-0.023822878 0.048367608 0.75800002 1.9647742e-38
-0.02232001 0.048240002 0.75600004 1.92743e-38
-0.020852368 0.048176207 0.755 1.8817629e-38
-0.019362859 0.048048571 0.75300002 1.8721483e-38
-0.017857142 0.047857158 0.75000006 1.8637561e-38
-0.016384762 0.047729526 0.74799997 2.0841633e-38
-0.014939996 0.04766573 0.74699998 2.3142183e-38
-0.013517142 0.04766573 0.74699998 2.3234019e-38
-0.012094285 0.047665734 0.74699998 2.341769e-38
-0.010642859 0.047538109 0.74500006 2.341769e-38
-0.0091990372 0.047410473 0.74299997 2.341769e-38
-0.0077837952 0.047410481 0.74299997 2.341769e-38
-0.0063685714 0.04741047 0.74299997 2.341769e-38
-0.004946657 0.047346678 0.74199998 2.341769e-38
-0.0035333394 0.047346674 0.74199998 2.341769e-38
-0.0021114436 0.047155239 0.73900002 2.341769e-38
-0.00070381846 0.047155246 0.73900002 2.341769e-38
0.00070380856 0.047155242 0.73899996 2.341769e-38
0.0021114207 0.047155246 0.73899996 2.341769e-38
0.0035190263 0.047155228 0.73900002 2.341769e-38
0.004926654 0.047155239 0.73900002 2.341769e-38
0.0063342652 0.047155246 0.73899996 2.341769e-38
0.0077419053 0.047155239 0.73899996 2.341769e-38
0.0091494974 0.047155239 0.73900002 2.341769e-38
0.010557136 0.047155242 0.73900002 2.341769e-38
0.011964749 0.047155239 0.73900002 2.341769e-38
0.013390473 0.04721906 0.74000001 2.341769e-38
0.014799996 0.047219042 0.74000001 2.341769e-38
0.016209513 0.047219053 0.74000001 2.341769e-38
0.017666658 0.04734667 0.74200004 2.341769e-38
0.019080011 0.047346666 0.74199998 2.341769e-38
0.020493338 0.047346681 0.74199998 2.341769e-38
0.02190667 0.047346674 0.74199998 2.341769e-38
0.023319997 0.047346685 0.74199998 2.341769e-38
0.024733331 0.04734667 0.74199998 2.341769e-38
0.026181916 0.047410477 0.74300003 2.341769e-38
0.027597144 0.047410473 0.74299997 2.341769e-38
0.029090494 0.047538098 0.745 2.341769e-38
0.030509539 0.047538102 0.74500006 2.341769e-38
0.032014281 0.04766573 0.74699998 2.341769e-38
0.033481915 0.047729515 0.74800003 2.3417669e-38
0.035 0.047857143 0.75000006 1.9350339e-38
0.036428574 0.04785715 0.75000006 1.5290191e-38
0.037958078 0.04798476 0.75200003 1.8156448e-38
0.039442856 0.048048586 0.75299996 2.1118538e-38
0.04098573 0.048176203 0.755 2.0192686e-38
0.042480011 0.048240006 0.75599998 1.9276456e-38
0.043919988 0.048240006 0.75600004 1.7888494e-38
0.045660015 0.048559062 0.76099998 1.6600303e-38
0.047233313 0.048686683 0.76299995 1.6600677e-38
0.04868665 0.048686672 0.76299995 1.669323e-38
-0.034332391 0.050402865 0.76699996 1.6136451e-38
-0.032785747 0.050271414 0.76500005 1.871968e-38
-0.0313286 0.050271422 0.76500005 1.982852e-38
-0.029793344 0.050140001 0.76300001 2.0931278e-38
-0.028340021 0.050140001 0.76300001 2.1671358e-38
-0.026816176 0.050008576 0.76099998 2.2405686e-38
-0.025333336 0.049942877 0.75999999 2.1855752e-38
-0.023822868 0.04981143 0.75799996 2.129863e-38
-0.022320006 0.049680009 0.75599998 2.0925178e-38
-0.020880014 0.049680006 0.75600004 2.0468512e-38
-0.019414276 0.049614295 0.75500005 2.0839801e-38
-0.017857123 0.049285728 0.75 2.1115317e-38
-0.016384751 0.049154293 0.74799997 2.2036193e-38
-0.014959988 0.049154293 0.74799997 2.2863797e-38
-0.013535228 0.049154297 0.74799997 2.3142183e-38
-0.012061897 0.048957158 0.74500006 2.3417328e-38
-0.010642864 0.048957143 0.74500006 2.3417686e-38
-0.0091990521 0.048825704 0.74300003 2.3417689e-38
-0.0077838083 0.048825715 0.74299997 2.341769e-38
-0.0063685686 0.048825718 0.74300003 2.341769e-38
-0.0049533243 0.048825722 0.74299997 2.341769e-38
-0.0035333254 0.048760019 0.74199998 2.341769e-38
-0.0021142859 0.048628587 0.74000001 2.341769e-38
-0.00070475443 0.048628591 0.74000001 2.341769e-38
0.00070475665 0.048628576 0.74000001 2.341769e-38
0.0021142883 0.048628584 0.74000001 2.341769e-38
0.0035190366 0.048562855 0.73900002 2.341769e-38
0.0049266615 0.048562862 0.73900002 2.341769e-38
0.0063342876 0.048562869 0.73900002 2.341769e-38
0.0077418997 0.048562862 0.73899996 2.341769e-38
0.0091618998 0.048628576 0.74000001 2.341769e-38
0.010571417 0.048628584 0.74000001 2.341769e-38
0.011980961 0.048628576 0.74000001 2.341769e-38
0.013390479 0.048628587 0.73999995 2.341769e-38
0.014800002 0.04862858 0.74000001 2.341769e-38
0.01625333 0.048760004 0.74200004 2.341769e-38
0.017666657 0.048760016 0.74199998 2.341769e-38
0.019079989 0.048759997 0.74200004 2.341769e-38
0.020493343 0.048760008 0.74199998 2.341769e-38
0.02190667 0.048760019 0.74199998 2.341769e-38
0.023351457 0.048825726 0.74299997 2.341769e-38
0.024766665 0.048825711 0.74299997 2.341769e-38
0.026181903 0.048825707 0.74300003 2.341769e-38
0.027597163 0.048825718 0.74299997 2.341769e-38
0.029090475 0.048957147 0.745 2.341769e-38
0.030591425 0.049088594 0.74699998 2.3417682e-38
0.032014281 0.049088597 0.74699998 2.3417675e-38
0.033481929 0.049154282 0.74799997 2.339574e-38
0.035000008 0.049285725 0.75 1.7664939e-38
0.036525704 0.049417146 0.75200003 1.1985513e-38
0.037958082 0.049417149 0.75200003 1.6867886e-38
0.039442852 0.04948286 0.75300002 2.1752062e-38
0.040985718 0.049614284 0.755 2.1381166e-38
0.042423841 0.049614288 0.755 2.1016667e-38
0.043920007 0.049680009 0.75599998 1.8712504e-38
0.045479994 0.04981143 0.75800002 1.6324795e-38
0.046923783 0.049811434 0.75800002 1.6509199e-38
0.048367616 0.049811438 0.75799996 1.6602113e-38
-0.034242868 0.051728573 0.76499999 1.6321886e-38
-0.032785721 0.051728576 0.76499999 1.8351602e-38
-0.031328574 0.051728584 0.76499999 1.8627117e-38
-0.029871453 0.051728558 0.76500005 1.8996272e-38
-0.028414305 0.051728562 0.76500005 2.0933088e-38
-0.026886668 0.051593333 0.76299995 2.2866663e-38
-0.025333334 0.051390503 0.75999999 2.1853968e-38
-0.023822876 0.051255241 0.75800002 2.0836582e-38
-0.022320006 0.051120002 0.75600004 2.0281602e-38
-0.020852372 0.051052388 0.75500005 1.9730596e-38
-0.019362856 0.050917145 0.75300002 1.9733113e-38
-0.01785714 0.050714299 0.75000006 1.9733472e-38
-0.016428571 0.050714292 0.75 1.9916783e-38
