# .PCD v0.7 - Point Cloud Data file format
VERSION 0.7
FIELDS x y z rgb
SIZE 4 4 4 4
TYPE F F F F
COUNT 1 1 1 1
WIDTH 982
HEIGHT 1
VIEWPOINT 0 0 0 1 0 0 0
POINTS 982
DATA ascii
0.01333617 0.032989517 0.73700005 2.341769e-38
0.014779989 0.033079028 0.73900008 2.341769e-38
0.016187616 0.033079043 0.73900008 2.341769e-38
0.017595222 0.033079036 0.73900008 2.341769e-38
0.019002849 0.033079028 0.73900002 2.341769e-38
0.020410456 0.033079036 0.73900008 2.341769e-38
0.02184763 0.033123799 0.74000001 2.341769e-38
0.023257142 0.033123791 0.74000001 2.341769e-38
0.024733327 0.03321331 0.7420001 2.341769e-38
0.026146667 0.033213317 0.74200004 2.341769e-38
0.027559986 0.033213325 0.74200004 2.341769e-38
0.029012358 0.03325808 0.74300009 2.341769e-38
0.030509518 0.033347614 0.74500006 2.341769e-38
0.031928558 0.033347622 0.74500006 2.341769e-38
0.033437118 0.033437133 0.74700004 2.341769e-38
0.034859989 0.03343714 0.74700004 2.3325137e-38
0.036331434 0.033481896 0.74800003 2.3323334e-38
0.037756186 0.033481881 0.74800009 2.1941485e-38
0.039285716 0.033571407 0.75000012 2.0562502e-38
0.040985696 0.033795223 0.75500011 1.8716449e-38
0.042423811 0.033795208 0.75500011 1.678359e-38
0.043919988 0.033840001 0.75600004 1.6781786e-38
0.045600008 0.034019023 0.76000011 1.6782168e-38
0.047047619 0.034019038 0.76000005 1.7425397e-38
0.04868665 0.034153312 0.76300007 1.8067888e-38
-0.036259994 0.036259994 0.77700001 1.2819137e-38
-0.034690484 0.036166638 0.7750001 1.4023804e-38
-0.033214301 0.036166638 0.7750001 1.5215875e-38
-0.031328596 0.035699971 0.7650001 1.4382543e-38
-0.029715262 0.035513312 0.76100004 1.3464211e-38
-0.028228581 0.035466649 0.76000011 1.4476578e-38
-0.026710499 0.035373315 0.75800008 1.5496111e-38
-0.025266681 0.035373315 0.75800008 1.5772709e-38
-0.023760026 0.035279989 0.75600004 1.5957808e-38
-0.022290494 0.035233311 0.75500011 1.586776e-38
-0.020797148 0.035139985 0.75300002 1.5776634e-38
-0.019337181 0.035093307 0.75200009 1.6781077e-38
-0.017809531 0.034906648 0.74800003 1.7713095e-38
-0.016384767 0.034906663 0.74800003 2.057079e-38
-0.014960005 0.034906656 0.74800003 2.341769e-38
-0.013517172 0.034859993 0.74700004 2.341769e-38
-0.012061911 0.034766667 0.74500006 2.3417687e-38
-0.010642864 0.034766674 0.74500006 2.332585e-38
-0.0091990586 0.034673326 0.74300009 2.3233297e-38
-0.0077733453 0.03462664 0.7420001 2.3325852e-38
-0.0063600056 0.034626655 0.74200004 2.3417689e-38
-0.0049466705 0.034626663 0.7420001 2.341769e-38
-0.0035238154 0.034533337 0.74000001 2.341769e-38
-0.0021114368 0.034486659 0.73900008 2.341769e-38
-0.00070192013 0.034393325 0.73700011 2.341769e-38
0.00070189871 0.034393318 0.73700011 2.341769e-38
0.0021057166 0.034393333 0.73700005 2.341769e-38
0.003509515 0.034393318 0.73700011 2.341769e-38
0.0049133189 0.034393333 0.73700005 2.341769e-38
0.0063171517 0.034393325 0.73700005 2.341769e-38
0.0077209482 0.034393311 0.73700011 2.341769e-38
0.009124768 0.034393325 0.73700005 2.341769e-38
0.010528586 0.034393325 0.73700005 2.341769e-38
0.011932355 0.034393325 0.73700011 2.341769e-38
0.013336173 0.034393333 0.73700005 2.341769e-38
0.014779986 0.034486659 0.73900002 2.341769e-38
0.016187591 0.034486651 0.73900008 2.341769e-38
0.017619032 0.034533337 0.74000001 2.341769e-38
0.019028572 0.034533322 0.74000007 2.341769e-38
0.020438107 0.034533337 0.74000001 2.341769e-38
0.021847617 0.034533337 0.74000001 2.341769e-38
0.023319984 0.034626648 0.7420001 2.341769e-38
0.024733335 0.034626633 0.7420001 2.341769e-38
0.026146675 0.034626648 0.74200004 2.341769e-38
0.027597101 0.034673318 0.74300009 2.341769e-38
0.029090447 0.034766659 0.74500012 2.341769e-38
0.030509507 0.034766652 0.74500012 2.341769e-38
0.031928547 0.034766652 0.74500012 2.341769e-38
0.033437125 0.034859993 0.7470001 2.341769e-38
0.034906674 0.034906663 0.74800003 2.3325854e-38
0.036331426 0.034906663 0.74800003 2.3138586e-38
0.037857134 0.035000004 0.75000006 2.1478004e-38
0.039442852 0.03514 0.75300002 1.9823155e-38
0.040985711 0.035233319 0.75500011 1.7700161e-38
0.042479973 0.035279982 0.75600004 1.5495743e-38
0.043919984 0.035280004 0.75600004 1.5586137e-38
0.045599997 0.035466656 0.76000011 1.5584722e-38
0.047109518 0.035513327 0.76100004 1.5122695e-38
-0.036259998 0.03774 0.77700001 1.2085536e-38
-0.034556221 0.037497114 0.77200007 1.3745072e-38
-0.033085737 0.037497126 0.77200013 1.5401701e-38
-0.031615265 0.037497122 0.77200007 1.4570161e-38
-0.029871436 0.037157126 0.7650001 1.3834428e-38
-0.028228568 0.036914267 0.76000005 1.5033699e-38
-0.026780961 0.036914274 0.76000005 1.6237972e-38
-0.025266677 0.036817133 0.75800002 1.6509181e-38
-0.023760015 0.036719993 0.75600004 1.6873649e-38
-0.022290492 0.036671408 0.75500011 1.8072168e-38
-0.020797154 0.036574267 0.75300008 1.925882e-38
-0.019337175 0.036525689 0.75200009 1.963366e-38
-0.017857157 0.036428556 0.75000012 1.9909227e-38
-0.016384777 0.036331415 0.74800003 2.1668152e-38
-0.014960013 0.036331423 0.74800003 2.341769e-38
-0.013517177 0.036282837 0.7470001 2.3234019e-38
-0.012094304 0.036282845 0.7470001 2.3141462e-38
-0.010642875 0.036185704 0.74500006 2.2864874e-38
-0.0092238253 0.036185712 0.74500012 2.267977e-38
-0.0077838311 0.036088556 0.74300009 2.2865236e-38
-0.0063685915 0.036088564 0.74300009 2.295851e-38
-0.0049533658 0.036088549 0.74300009 2.3234019e-38
-0.0035333429 0.036039993 0.7420001 2.341769e-38
-0.0021143053 0.035942852 0.74000007 2.341769e-38
-0.00070475973 0.035942867 0.74000001 2.341769e-38
0.00070378836 0.035894267 0.73900008 2.341769e-38
0.0021114154 0.035894282 0.73900008 2.341769e-38
0.0035095168 0.035797134 0.73700011 2.341769e-38
0.0049133366 0.035797127 0.73700005 2.341769e-38
0.0063171331 0.035797134 0.73700011 2.341769e-38
0.0077209519 0.035797127 0.73700005 2.341769e-38
0.0091247717 0.035797141 0.73700005 2.341769e-38
0.010528568 0.035797127 0.73700011 2.341769e-38
0.011932387 0.035797127 0.73700005 2.341769e-38
0.013372381 0.035894275 0.73900002 2.341769e-38
0.01477999 0.03589426 0.73900008 2.341769e-38
0.016187616 0.035894282 0.73900002 2.341769e-38
0.017619049 0.035942845 0.74000001 2.341769e-38
0.019028582 0.03594286 0.74000001 2.341769e-38
0.020438092 0.035942852 0.74000001 2.341769e-38
0.021847604 0.035942845 0.74000007 2.341769e-38
0.023319991 0.036039978 0.7420001 2.341769e-38
0.024733312 0.036039971 0.7420001 2.341769e-38
0.02614666 0.036039956 0.7420001 2.341769e-38
0.027597118 0.036088556 0.74300009 2.341769e-38
0.029090459 0.036185719 0.74500006 2.341769e-38
0.030509518 0.036185712 0.74500006 2.341769e-38
0.032014266 0.036282845 0.7470001 2.341769e-38
0.033437107 0.036282852 0.7470001 2.341769e-38
0.034906667 0.036331408 0.74800003 2.2774842e-38
0.036331415 0.036331423 0.74800003 2.2131626e-38
0.037857126 0.036428548 0.75000012 2.1204652e-38
0.039390463 0.036525689 0.75200003 2.0285921e-38
0.0409857 0.036671408 0.75500011 1.8533138e-38
0.042423807 0.036671408 0.75500005 1.6780726e-38
0.043919981 0.03672 0.75600004 1.6227913e-38
0.045360003 0.036719993 0.75600004 1.5674408e-38
0.047109526 0.036962852 0.76100004 1.5399995e-38
-0.03783714 0.039320949 0.77900004 1.5182447e-38
-0.036260001 0.039220002 0.77700001 1.1253999e-38
-0.034600973 0.039018087 0.77300006 1.3468844e-38
-0.033085741 0.038967606 0.77200007 1.5585009e-38
-0.031328585 0.038614273 0.7650001 1.4845305e-38
-0.029793333 0.038513321 0.76300001 1.4111352e-38
-0.028265746 0.03841237 0.76100004 1.5493559e-38
-0.026780972 0.0383619 0.76000011 1.6874697e-38
-0.025333345 0.038361892 0.76000011 1.7335329e-38
-0.023822859 0.038260948 0.75800002 1.7796314e-38
-0.022320027 0.038160007 0.75600004 2.0288083e-38
-0.020852381 0.038109515 0.75500005 2.2765114e-38
-0.019362876 0.038008559 0.75300008 2.2493894e-38
-0.017857144 0.037857134 0.75000006 2.2125865e-38
-0.016384771 0.037756179 0.74800009 2.2774842e-38
-0.014960007 0.037756175 0.74800003 2.341769e-38
-0.01351718 0.037705701 0.7470001 2.3142183e-38
-0.012094323 0.037705693 0.7470001 2.2773761e-38
-0.010642865 0.037604753 0.74500006 2.2495739e-38
-0.0092238178 0.03760476 0.74500006 2.2129116e-38
-0.0077838264 0.037503794 0.74300009 2.2312431e-38
-0.0063685877 0.037503801 0.74300009 2.2498616e-38
-0.004953349 0.037503798 0.74300009 2.2958513e-38
-0.0035333494 0.037453324 0.7420001 2.341769e-38
-0.0021142848 0.037352376 0.74000001 2.341769e-38
-0.00070477277 0.037352368 0.74000001 2.341769e-38
0.00070477277 0.037352376 0.74000001 2.341769e-38
0.00211142 0.037301891 0.73900008 2.341769e-38
0.0035190471 0.037301883 0.73900008 2.341769e-38
0.0049266536 0.037301891 0.73900008 2.341769e-38
0.0063342806 0.037301891 0.73900002 2.341769e-38
0.0077209556 0.037200943 0.73700005 2.341769e-38
0.009149516 0.037301891 0.73900002 2.341769e-38
0.010528572 0.037200943 0.73700005 2.341769e-38
0.01196475 0.037301898 0.73900002 2.341769e-38
0.013372356 0.037301883 0.73900008 2.341769e-38
0.014800013 0.037352376 0.74000001 2.341769e-38
0.016209522 0.037352383 0.74000001 2.341769e-38
0.017666666 0.037453324 0.7420001 2.341769e-38
0.019079987 0.037453316 0.7420001 2.341769e-38
0.020493308 0.037453316 0.7420001 2.341769e-38
0.021906648 0.037453324 0.74200004 2.341769e-38
0.023319997 0.037453316 0.7420001 2.341769e-38
0.024733318 0.037453309 0.7420001 2.341769e-38
0.026146639 0.037453301 0.7420001 2.341769e-38
0.027597109 0.03750379 0.74300009 2.341769e-38
0.029090466 0.037604768 0.74500006 2.341769e-38
0.030591423 0.037705716 0.74700004 2.341769e-38
0.032014266 0.037705712 0.74700004 2.341769e-38
0.033481885 0.037756175 0.74800009 2.3417684e-38
0.034906659 0.037756167 0.74800003 2.2223816e-38
0.036428574 0.03785713 0.75000006 2.10199e-38
0.037857138 0.03785713 0.75000012 2.0831557e-38
0.039390448 0.037958074 0.75200009 2.0652541e-38
0.040985733 0.0381095 0.75500005 1.9365761e-38
0.042479996 0.038159989 0.75600004 1.8071099e-38
0.044036198 0.038260929 0.75800008 1.6869707e-38
0.045659978 0.038412362 0.7610001 1.5678002e-38
0.047233324 0.038513318 0.76300001 1.5678366e-38
0.048686657 0.038513321 0.76300007 1.5586161e-38
-0.037837159 0.040804747 0.7790001 1.5472316e-38
-0.036260005 0.0407 0.77700001 1.0891685e-38
-0.034690481 0.040595233 0.7750001 1.3378798e-38
-0.032871444 0.040176176 0.76700008 1.5960599e-38
-0.03132857 0.040071409 0.76500005 1.5492815e-38
-0.029793339 0.039966647 0.76300001 1.511937e-38
-0.028265748 0.039861888 0.7610001 1.595019e-38
-0.02678098 0.03980951 0.76000011 1.6870727e-38
-0.025333356 0.039809503 0.76000011 1.7148415e-38
-0.023822855 0.039704762 0.75800002 1.7422879e-38
-0.022320028 0.039599996 0.75600004 2.0286315e-38
-0.020852383 0.039547596 0.75500005 2.3142183e-38
-0.019362859 0.039442856 0.75300002 2.2957078e-38
-0.017857146 0.039285697 0.75000006 2.2774842e-38
-0.016384779 0.039180942 0.74800009 2.3142183e-38
-0.014960016 0.039180934 0.74800003 2.341769e-38
-0.013517166 0.039128568 0.74700004 2.3234019e-38
-0.012094308 0.039128561 0.74700004 2.3142179e-38
-0.010642875 0.039023805 0.74500012 2.2957069e-38
-0.0092238281 0.039023805 0.74500012 2.2773042e-38
-0.0077838451 0.03891902 0.74300009 2.2865598e-38
-0.0063685859 0.038919039 0.74300009 2.2958511e-38
-0.0049533602 0.038919047 0.74300009 2.3234019e-38
-0.0035333438 0.038866647 0.7420001 2.341769e-38
-0.0021200227 0.038866654 0.7420001 2.341769e-38
-0.00070666801 0.038866654 0.74200004 2.341769e-38
0.0007047588 0.038761903 0.74000001 2.341769e-38
0.0021142708 0.038761891 0.74000001 2.341769e-38
0.0035238164 0.03876191 0.74000001 2.341769e-38
0.0049266648 0.038709503 0.73900002 2.341769e-38
0.0063342853 0.038709506 0.73900008 2.341769e-38
0.0077419123 0.038709506 0.73900002 2.341769e-38
0.0091495207 0.03870951 0.73900008 2.341769e-38
0.010557148 0.038709506 0.73900002 2.341769e-38
0.011964754 0.038709514 0.73900008 2.341769e-38
0.013372381 0.03870951 0.73900002 2.341769e-38
0.014839985 0.03886665 0.7420001 2.341769e-38
0.016253326 0.038866654 0.74200004 2.341769e-38
0.017666673 0.038866654 0.7420001 2.341769e-38
0.019079996 0.03886665 0.7420001 2.341769e-38
0.020493316 0.038866639 0.7420001 2.341769e-38
0.021906657 0.038866658 0.74200004 2.341769e-38
0.023320004 0.038866661 0.7420001 2.341769e-38
0.024733325 0.038866654 0.7420001 2.341769e-38
0.026146647 0.038866643 0.7420001 2.341769e-38
0.027597124 0.038919035 0.74300009 2.341769e-38
0.029090455 0.039023813 0.74500006 2.341769e-38
0.030591404 0.039128561 0.7470001 2.341769e-38
0.032014277 0.039128572 0.7470001 2.2866677e-38
0.033481922 0.039180949 0.74800003 2.2223816e-38
0.034906652 0.039180953 0.74800009 2.0466732e-38
0.036331426 0.039180946 0.74800003 1.8617098e-38
0.037857123 0.039285704 0.75000012 1.9914264e-38
0.039390456 0.039390456 0.75200003 2.1299692e-38
0.040985722 0.039547607 0.75500005 1.9456526e-38
0.042592388 0.039704755 0.75800002 1.7614445e-38
0.044152368 0.039809525 0.76000005 1.7059496e-38
0.04566 0.039861899 0.76100004 1.6417715e-38
0.047233343 0.039966661 0.76300001 1.6600301e-38
-0.036260009 0.042179991 0.77700001 1.0426038e-38
-0.034690488 0.042071402 0.7750001 1.337772e-38
-0.032871448 0.041637119 0.76700008 1.6230357e-38
-0.031246673 0.041419972 0.76300007 1.6137802e-38
-0.029715255 0.041311421 0.76100004 1.6043109e-38
-0.028228581 0.041257132 0.76000011 1.6408311e-38
-0.026780954 0.041257124 0.76000011 1.6782131e-38
-0.025266673 0.041148547 0.75800008 1.6965106e-38
-0.023822872 0.041148558 0.75800008 1.706271e-38
-0.022320032 0.041039988 0.75600004 2.029169e-38
-0.020880025 0.041039996 0.75600004 2.341697e-38
-0.019414293 0.040985692 0.75500011 2.341769e-38
-0.017857147 0.040714279 0.75000006 2.341769e-38
-0.016428582 0.040714271 0.75000012 2.341769e-38
-0.014960011 0.040605694 0.74800009 2.341769e-38
-0.013517169 0.040551413 0.7470001 2.341769e-38
-0.012094312 0.040551424 0.74700004 2.3417689e-38
-0.010642867 0.040442854 0.74500006 2.3417686e-38
-0.0092238178 0.040442862 0.74500006 2.3417328e-38
-0.0077838423 0.040334273 0.74300009 2.3417689e-38
-0.0063686036 0.040334266 0.74300009 2.341769e-38
-0.0049533444 0.040334266 0.74300009 2.341769e-38
-0.0035381177 0.040334273 0.74300009 2.341769e-38
-0.0021200161 0.040279973 0.7420001 2.341769e-38
-0.00070667546 0.040279992 0.74200004 2.341769e-38
0.00070665963 0.040279981 0.74200004 2.341769e-38
0.0021142922 0.040171444 0.74000001 2.341769e-38
0.0035238033 0.04017143 0.74000001 2.341769e-38
0.0049333153 0.040171422 0.74000001 2.341769e-38
0.0063428478 0.040171437 0.74000001 2.341769e-38
0.0077418899 0.040117133 0.73900008 2.341769e-38
0.0091619184 0.040171441 0.74000001 2.341769e-38
0.01057143 0.04017143 0.74000001 2.341769e-38
0.011980942 0.040171418 0.74000007 2.341769e-38
0.013390473 0.040171433 0.74000001 2.341769e-38
0.014839992 0.040279973 0.7420001 2.341769e-38
0.016253332 0.040279988 0.74200004 2.341769e-38
0.017666651 0.040279996 0.74200004 2.341769e-38
0.019080002 0.040279984 0.7420001 2.341769e-38
0.020493321 0.040279977 0.7420001 2.341769e-38
0.021906663 0.040279996 0.74200004 2.341769e-38
0.023319982 0.040279984 0.74200004 2.341769e-38
0.024733333 0.040279988 0.7420001 2.341769e-38
0.026146652 0.040279981 0.7420001 2.341769e-38
0.027597113 0.040334269 0.74300009 2.341769e-38
0.029168541 0.040551409 0.7470001 2.341769e-38
0.030591412 0.04055142 0.7470001 2.341769e-38
0.03205714 0.040605702 0.74800003 2.2223829e-38
0.033481915 0.040605713 0.74800003 2.1020625e-38
0.035000011 0.040714286 0.75000006 1.8618178e-38
0.036428548 0.040714271 0.75000012 1.6236914e-38
0.037857134 0.040714268 0.75000006 1.9092427e-38
0.039390441 0.040822841 0.75200009 2.1848561e-38
0.040985707 0.0409857 0.75500005 1.9546211e-38
0.042592376 0.041148555 0.75800002 1.715347e-38
0.04415236 0.041257132 0.76000011 1.715168e-38
0.04565997 0.041311421 0.76100004 1.7152392e-38
0.047233339 0.041419983 0.76300001 1.7521522e-38
-0.031246679 0.042873316 0.76300007 1.6230699e-38
-0.029715266 0.04276095 0.76100004 1.6322564e-38
-0.028228592 0.042704746 0.76000011 1.6691728e-38
-0.026780965 0.042704754 0.76000011 1.7159888e-38
-0.02526667 0.042592365 0.75800002 1.7704815e-38
-0.023822868 0.042592373 0.75800002 1.8255135e-38
-0.022320034 0.042480007 0.75600004 2.0563961e-38
-0.020880027 0.042479999 0.75600004 2.2958507e-38
-0.019414308 0.042423788 0.75500011 2.3234019e-38
-0.017904775 0.04225523 0.75200009 2.341769e-38
-0.016428584 0.042142838 0.75000012 2.341769e-38
-0.014959998 0.042030472 0.74800003 2.341769e-38
-0.013517174 0.041974276 0.7470001 2.341769e-38
-0.012094316 0.041974269 0.7470001 2.341769e-38
-0.010642878 0.041861899 0.74500012 2.341769e-38
-0.0092238281 0.041861892 0.74500012 2.341769e-38
-0.0078047803 0.041861903 0.74500012 2.341769e-38
-0.0063685989 0.0417495 0.74300009 2.341769e-38
-0.0049533602 0.041749507 0.74300009 2.341769e-38
-0.0035381159 0.041749511 0.74300009 2.341769e-38
-0.0021200245 0.041693315 0.7420001 2.341769e-38
-0.00070666801 0.04169333 0.74200004 2.341769e-38
0.00070666615 0.041693319 0.74200004 2.341769e-38
0.0021199873 0.041693307 0.7420001 2.341769e-38
0.0035333214 0.041693319 0.7420001 2.341769e-38
0.0049333358 0.041580964 0.74000001 2.341769e-38
0.0063599972 0.041693322 0.74200004 2.341769e-38
0.007752372 0.041580942 0.74000007 2.341769e-38
0.0091619035 0.041580956 0.74000001 2.341769e-38
0.010571416 0.041580945 0.74000001 2.341769e-38
0.011980946 0.04158096 0.74000001 2.341769e-38
0.013390459 0.041580953 0.74000001 2.341769e-38
0.014799999 0.041580938 0.74000007 2.341769e-38
0.01620953 0.041580953 0.74000001 2.341769e-38
0.017666658 0.041693319 0.74200004 2.341769e-38
0.019079978 0.041693322 0.7420001 2.341769e-38
0.020493329 0.041693311 0.7420001 2.341769e-38
0.021906668 0.041693315 0.74200004 2.341769e-38
0.023319988 0.041693322 0.74200004 2.341769e-38
0.024733311 0.041693315 0.7420001 2.341769e-38
0.026181886 0.0417495 0.74300009 2.341769e-38
0.027597131 0.041749522 0.74300009 2.341769e-38
0.029090455 0.041861895 0.74500012 2.341769e-38
0.030591415 0.04197428 0.74700004 2.341769e-38
0.032057133 0.042030457 0.74800003 2.2863448e-38
0.033481907 0.042030469 0.74800003 2.2210178e-38
0.034999996 0.042142846 0.75000006 2.1017374e-38
0.03642856 0.042142846 0.75000012 1.9823169e-38
0.037857149 0.042142842 0.75000006 2.0287741e-38
0.039442867 0.042311423 0.75300002 2.0751208e-38
0.041039996 0.042479999 0.75600004 1.8811168e-38
0.042479988 0.042479992 0.75600004 1.6964053e-38
0.044036176 0.042592369 0.75800008 1.6874369e-38
0.04565997 0.042760942 0.76100004 1.6875444e-38
0.047233328 0.042873323 0.76300001 1.7152382e-38
-0.031246686 0.044326644 0.76300007 1.6323626e-38
-0.029715268 0.044210456 0.7610001 1.6506606e-38
-0.028228579 0.044152379 0.76000005 1.7059082e-38
-0.026780955 0.044152368 0.76000005 1.7523295e-38
-0.025266666 0.04403618 0.75800002 1.8439511e-38
-0.023822865 0.044036191 0.75800002 1.9365775e-38
-0.022320023 0.043919984 0.75600004 2.0934529e-38
-0.02088003 0.043919992 0.75600004 2.2495736e-38
-0.019414304 0.043861877 0.75500011 2.2958507e-38
-0.017904792 0.043687608 0.75200009 2.3417687e-38
-0.016428586 0.04357142 0.75000006 2.341769e-38
-0.015 0.043571435 0.75000006 2.341769e-38
-0.013535251 0.043455221 0.74800009 2.341769e-38
-0.012094321 0.043397129 0.7470001 2.341769e-38
-0.010671463 0.04339714 0.7470001 2.341769e-38
-0.0092238206 0.043280941 0.74500006 2.341769e-38
-0.0078047719 0.043280948 0.74500012 2.341769e-38
-0.0063857241 0.043280944 0.74500012 2.341769e-38
-0.0049533583 0.043164741 0.74300009 2.341769e-38
-0.0035381326 0.043164734 0.74300009 2.341769e-38
-0.0021200161 0.04310663 0.7420001 2.341769e-38
-0.00070666149 0.043106653 0.74200004 2.341769e-38
0.0007066587 0.043106657 0.74200004 2.341769e-38
0.0021199938 0.043106645 0.7420001 2.341769e-38
0.003533314 0.043106638 0.7420001 2.341769e-38
0.0049333358 0.042990468 0.74000001 2.341769e-38
0.0063600037 0.043106645 0.74200004 2.341769e-38
0.0077523785 0.042990476 0.74000001 2.341769e-38
0.0091618905 0.04299048 0.74000001 2.341769e-38
0.010571403 0.042990468 0.74000007 2.341769e-38
0.011980963 0.042990465 0.74000001 2.341769e-38
0.013390475 0.042990472 0.74000007 2.341769e-38
0.014800006 0.042990472 0.74000001 2.341769e-38
0.016253317 0.043106649 0.74200004 2.341769e-38
0.017666666 0.043106653 0.7420001 2.341769e-38
0.019079985 0.043106645 0.7420001 2.341769e-38
0.020493308 0.043106649 0.7420001 2.341769e-38
0.021906676 0.043106653 0.74200004 2.341769e-38
0.023319997 0.043106645 0.74200004 2.341769e-38
0.024766648 0.043164745 0.74300009 2.341769e-38
0.026181873 0.043164741 0.74300009 2.341769e-38
0.027597098 0.043164745 0.74300009 2.341769e-38
0.029090462 0.043280952 0.74500006 2.341769e-38
0.030591426 0.04339714 0.74700004 2.341769e-38
0.032057125 0.043455221 0.74800003 2.341769e-38
0.0334819 0.043455228 0.74800003 2.3414452e-38
0.034999989 0.043571413 0.75000012 2.3417672e-38
0.036428574 0.043571424 0.75000012 2.332117e-38
0.037958082 0.043687601 0.75200009 2.1483741e-38
0.039442856 0.043745715 0.75300002 1.9548371e-38
0.040985711 0.043861888 0.75500011 1.8166526e-38
0.042479984 0.043919992 0.75600004 1.6784328e-38
0.044036191 0.044036191 0.75800008 1.6689262e-38
0.045659993 0.044210464 0.76100004 1.6506658e-38
0.047233351 0.044326644 0.76300001 1.6781798e-38
0.048814278 0.044442836 0.76500005 1.6968715e-38
-0.031246679 0.045779981 0.76300007 1.6414758e-38
-0.029793343 0.045779992 0.76300001 1.641335e-38
-0.028265731 0.045659982 0.76100004 1.7153442e-38
-0.026780967 0.045599993 0.76000011 1.789316e-38
-0.025333341 0.04559999 0.76000011 1.8905875e-38
-0.023822868 0.045479979 0.75800008 1.9925402e-38
-0.022320025 0.045359991 0.75600004 2.0839819e-38
-0.020880032 0.045359995 0.75600004 2.1754232e-38
-0.019414304 0.045299977 0.75500011 2.2127677e-38
-0.017904786 0.045119993 0.75200009 2.2591165e-38
-0.016428573 0.044999991 0.75000006 2.2958513e-38
-0.015000023 0.044999979 0.75000012 2.341769e-38
-0.013535237 0.044879988 0.74800003 2.341769e-38
-0.012110483 0.044879988 0.74800009 2.341769e-38
-0.010671446 0.044819992 0.74700004 2.341769e-38
-0.0092238104 0.0447 0.74500006 2.341769e-38
-0.0078047616 0.044700008 0.74500006 2.341769e-38
-0.0063857138 0.0447 0.74500006 2.341769e-38
-0.0049666651 0.044699993 0.74500006 2.341769e-38
-0.0035381308 0.044579979 0.74300009 2.341769e-38
-0.0021200106 0.044519968 0.7420001 2.341769e-38
-0.00070666894 0.044519991 0.74200004 2.341769e-38
0.00070666522 0.044519994 0.74200004 2.341769e-38
0.0021199863 0.044519983 0.7420001 2.341769e-38
0.0035333205 0.044519976 0.7420001 2.341769e-38
0.0049466621 0.044519991 0.74200004 2.341769e-38
0.0063599823 0.044519983 0.74200004 2.341769e-38
0.0077733304 0.044519991 0.7420001 2.341769e-38
0.0091866525 0.04451998 0.7420001 2.341769e-38
0.010599993 0.044519983 0.74200004 2.341769e-38
0.012013313 0.044519987 0.74200004 2.341769e-38
0.013426661 0.044519976 0.7420001 2.341769e-38
0.014839984 0.044519983 0.7420001 2.341769e-38
0.016253322 0.044519983 0.74200004 2.341769e-38
0.017666671 0.044519991 0.7420001 2.341769e-38
0.019079993 0.044519983 0.7420001 2.341769e-38
0.020493314 0.044519987 0.7420001 2.341769e-38
0.021906653 0.044519991 0.74200004 2.341769e-38
0.023351414 0.044579975 0.74300009 2.341769e-38
0.024766637 0.044579983 0.74300009 2.341769e-38
0.026181892 0.044579975 0.74300009 2.341769e-38
0.027597116 0.044579979 0.74300009 2.341769e-38
0.029090451 0.0447 0.74500012 2.341769e-38
0.030591404 0.044819985 0.7470001 2.341769e-38
0.032057144 0.044879977 0.74800009 2.341769e-38
0.033481892 0.044879992 0.74800003 2.341769e-38
0.035 0.044999991 0.75000012 2.3234019e-38
0.03642856 0.044999987 0.75000006 2.3142165e-38
0.037958086 0.04511999 0.75200003 2.0926257e-38
0.039442848 0.045179989 0.75300002 1.8802201e-38
0.040985696 0.045299973 0.75500011 1.7888867e-38
0.04259238 0.045479987 0.75800002 1.7061986e-38
0.04403618 0.045479994 0.75800002 1.6691054e-38
0.045779992 0.045779977 0.76300001 1.632262e-38
0.047233343 0.045779988 0.76300001 1.659847e-38
0.048814271 0.04589998 0.7650001 1.696547e-38
-0.031246671 0.047233321 0.76300007 1.6505525e-38
-0.029793337 0.047233317 0.76300001 1.6324743e-38
-0.028265731 0.047109507 0.76100004 1.7247423e-38
-0.026816206 0.047109518 0.76100004 1.8167948e-38
-0.025333351 0.047047608 0.76000011 1.9364698e-38
-0.023885727 0.047047604 0.76000011 2.0470675e-38
-0.022379061 0.04692379 0.75800002 2.0745111e-38
-0.020880023 0.04679998 0.75600004 2.1020976e-38
-0.019414296 0.046738084 0.75500005 2.1390472e-38
-0.017904801 0.046552356 0.75200009 2.1670293e-38
-0.016428577 0.046428572 0.75000006 2.2591171e-38
-0.015000011 0.046428557 0.75000012 2.341769e-38
-0.013535246 0.046304751 0.74800003 2.341769e-38
-0.012110471 0.046304759 0.74800003 2.341769e-38
-0.010671451 0.046242841 0.74700004 2.341769e-38
-0.0092485948 0.046242852 0.74700004 2.341769e-38
-0.0078047737 0.046119034 0.74500012 2.341769e-38
-0.0063857241 0.046119042 0.74500012 2.341769e-38
-0.0049666772 0.046119034 0.74500012 2.341769e-38
-0.0035381261 0.045995228 0.74300009 2.341769e-38
-0.0021200171 0.045933306 0.7420001 2.341769e-38
-0.00070666242 0.045933321 0.74200004 2.341769e-38
0.00070665777 0.045933317 0.74200004 2.341769e-38
0.0021199929 0.045933321 0.7420001 2.341769e-38
0.0035333131 0.045933314 0.7420001 2.341769e-38
0.0049466686 0.045933314 0.74200004 2.341769e-38
0.0063599898 0.045933317 0.74200004 2.341769e-38
0.0077733099 0.045933325 0.7420001 2.341769e-38
0.0091866599 0.045933317 0.7420001 2.341769e-38
0.010600002 0.045933317 0.74200004 2.341769e-38
0.012013321 0.045933325 0.74200004 2.341769e-38
0.01342667 0.045933314 0.7420001 2.341769e-38
0.014839991 0.045933317 0.7420001 2.341769e-38
0.016253332 0.045933325 0.74200004 2.341769e-38
0.017666651 0.04593331 0.74200004 2.341769e-38
0.01908 0.045933317 0.7420001 2.341769e-38
0.020493321 0.04593331 0.7420001 2.341769e-38
0.021936156 0.045995232 0.74300009 2.341769e-38
0.023351401 0.045995239 0.74300009 2.341769e-38
0.024766654 0.045995228 0.74300009 2.341769e-38
0.026181879 0.045995232 0.74300009 2.341769e-38
0.027671428 0.046119042 0.74500006 2.341769e-38
0.029168565 0.046242855 0.74700004 2.341769e-38
0.030591387 0.046242841 0.7470001 2.341769e-38
0.032057133 0.046304744 0.74800009 2.341769e-38
0.033481907 0.046304751 0.74800003 2.341769e-38
0.034999985 0.04642855 0.75000012 2.3142183e-38
0.036428571 0.046428565 0.75000006 2.2860913e-38
0.037958074 0.04655236 0.75200009 2.0459894e-38
0.039442845 0.046614271 0.75300008 1.7980707e-38
0.040985715 0.046738073 0.75500011 1.77088e-38
0.04259238 0.046923794 0.75800008 1.7339289e-38
0.044036198 0.046923812 0.75800002 1.6689966e-38
0.045659993 0.047109507 0.76100004 1.6048553e-38
0.047233336 0.047233324 0.76300001 1.650773e-38
0.048941892 0.047480945 0.76700008 1.68758e-38
0.050402839 0.047480933 0.76700008 1.7340011e-38
-0.031246681 0.048686646 0.76300007 1.6138548e-38
-0.029793343 0.048686642 0.76300001 1.5866642e-38
-0.028340025 0.048686646 0.76300007 1.6694249e-38
-0.026816217 0.048559025 0.76100004 1.7523305e-38
-0.02536669 0.048559036 0.76100004 1.8904089e-38
-0.023885716 0.048495241 0.76000005 2.0377765e-38
-0.022379059 0.048367612 0.75800002 2.083802e-38
-0.020880025 0.048239995 0.75600004 2.1296477e-38
-0.019414296 0.048176173 0.75500005 2.1942191e-38
-0.017904783 0.047984749 0.75200009 2.2587568e-38
-0.016428599 0.047857121 0.75000012 2.2957795e-38
-0.015000012 0.047857136 0.75000012 2.341769e-38
-0.01353524 0.047729511 0.74800003 2.341769e-38
-0.012110477 0.047729507 0.74800003 2.3325854e-38
-0.010671456 0.0476657 0.7470001 2.3047837e-38
-0.0092486003 0.047665711 0.7470001 2.2774842e-38
-0.0078047635 0.047538087 0.74500006 2.3050348e-38
-0.0063857147 0.047538098 0.74500006 2.341769e-38
-0.0049666669 0.04753809 0.74500006 2.341769e-38
-0.0035476182 0.047538083 0.74500006 2.341769e-38
-0.0021200106 0.047346644 0.7420001 2.341769e-38
-0.00070666894 0.047346644 0.74200004 2.341769e-38
0.00070666522 0.047346652 0.74200004 2.341769e-38
0.0021199863 0.047346659 0.7420001 2.341769e-38
0.0035333205 0.047346648 0.7420001 2.341769e-38
0.0049466761 0.047346652 0.74200004 2.341769e-38
0.0063599963 0.047346655 0.74200004 2.341769e-38
0.0077733165 0.047346648 0.7420001 2.341769e-38
0.0091866385 0.047346652 0.7420001 2.341769e-38
0.010600007 0.047346652 0.74200004 2.341769e-38
0.012013327 0.047346648 0.74200004 2.341769e-38
0.013426648 0.047346652 0.7420001 2.341769e-38
0.014839998 0.04734664 0.7420001 2.341769e-38
0.016253337 0.047346659 0.74200004 2.341769e-38
0.017666657 0.047346652 0.74200004 2.341769e-38
0.019079978 0.04734664 0.7420001 2.341769e-38
0.020493327 0.047346648 0.7420001 2.341769e-38
0.021936173 0.047410455 0.74300009 2.341769e-38
0.023351399 0.047410458 0.74300009 2.341769e-38
0.024766644 0.047410462 0.74300009 2.341769e-38
0.026181897 0.04741047 0.74300009 2.341769e-38
0.027671417 0.047538087 0.74500012 2.341769e-38
0.029090451 0.047538079 0.74500012 2.341769e-38
0.030591415 0.047665711 0.74700004 2.341769e-38
0.032057147 0.047729511 0.74800003 2.341769e-38
0.033481903 0.047729496 0.74800009 2.341769e-38
0.034999996 0.047857128 0.75000012 2.3049272e-38
0.036428582 0.047857143 0.75000006 2.2770149e-38
0.037958074 0.047984757 0.75200003 2.055674e-38
0.039442856 0.048048567 0.75300002 1.8350204e-38
0.0409857 0.048176173 0.75500011 1.8628248e-38
0.042479977 0.048239995 0.75600004 1.8905876e-38
0.044036198 0.048367601 0.75800008 1.7613332e-38
0.045659967 0.048559036 0.76100004 1.6326933e-38
0.047233328 0.048686653 0.76300001 1.6601019e-38
0.048814297 0.048814263 0.7650001 1.6965855e-38
0.05027141 0.048814267 0.7650001 1.7337865e-38
-0.029793337 0.050139982 0.76300001 1.5311316e-38
-0.028340017 0.050139986 0.76300007 1.6047086e-38
-0.026816217 0.05000855 0.76100004 1.6785021e-38
-0.02536669 0.050008561 0.76100004 1.8533506e-38
-0.023885727 0.049942847 0.76000011 2.028592e-38
-0.022379041 0.049811427 0.75800002 2.0932362e-38
-0.020880027 0.049679983 0.75600004 2.1575217e-38
-0.019440034 0.049679991 0.75600004 2.2493578e-38
-0.017904779 0.049417131 0.75200003 2.3415529e-38
-0.016428584 0.049285699 0.75000012 2.341769e-38
-0.015000015 0.049285695 0.75000006 2.341769e-38
-0.013571429 0.04928571 0.75000006 2.3325854e-38
-0.012142879 0.049285695 0.75000012 2.3231502e-38
-0.010685712 0.049154278 0.74800003 2.267331e-38
-0.0092486041 0.049088556 0.7470001 2.2037282e-38
-0.0078257462 0.049088549 0.7470001 2.2774483e-38
-0.0063857269 0.048957143 0.74500012 2.341769e-38
-0.0049666772 0.048957139 0.74500012 2.341769e-38
-0.0035476303 0.048957132 0.74500012 2.341769e-38
-0.0021200171 0.048759986 0.7420001 2.341769e-38
-0.00070666242 0.048759986 0.74200004 2.341769e-38
0.00070665777 0.048759993 0.74200004 2.341769e-38
0.0021199929 0.048759982 0.7420001 2.341769e-38
0.0035333131 0.048759986 0.7420001 2.341769e-38
0.0049466537 0.048759989 0.74200004 2.341769e-38
0.0063600019 0.048759978 0.74200004 2.341769e-38
0.0077733221 0.048759982 0.7420001 2.341769e-38
0.0091866441 0.048759975 0.7420001 2.341769e-38
0.010599985 0.048759993 0.74200004 2.341769e-38
0.012013334 0.048759978 0.74200004 2.341769e-38
0.013426653 0.048759975 0.7420001 2.341769e-38
0.014839975 0.048759978 0.7420001 2.341769e-38
0.016253343 0.048759993 0.74200004 2.341769e-38
0.017666664 0.048759986 0.74200004 2.341769e-38
0.019079983 0.048759978 0.7420001 2.341769e-38
0.020493306 0.048759986 0.7420001 2.341769e-38
0.021936161 0.048825704 0.74300009 2.341769e-38
0.023351386 0.048825696 0.74300009 2.341769e-38
0.024766641 0.048825689 0.74300009 2.341769e-38
0.026252363 0.048957147 0.74500006 2.341769e-38
0.027671425 0.048957139 0.74500006 2.341769e-38
0.029168556 0.049088564 0.7470001 2.341769e-38
0.030632388 0.049154282 0.74800003 2.341769e-38
0.03205714 0.049154274 0.74800003 2.341769e-38
0.033571426 0.049285695 0.75000012 2.341769e-38
0.035000008 0.049285706 0.75000006 2.3050348e-38
0.036525685 0.049417138 0.75200003 2.2585044e-38
0.038008574 0.049482845 0.75300002 2.0646067e-38
0.039547596 0.049614254 0.75500011 1.8627141e-38
0.040985707 0.049614273 0.75500005 1.9548385e-38
0.042479973 0.049679995 0.75600004 2.0373089e-38
0.043919966 0.049679987 0.75600004 1.8530975e-38
0.045899987 0.050271407 0.7650001 1.6602081e-38
0.047357149 0.050271422 0.7650001 1.6786481e-38
0.048941914 0.050402846 0.76700008 1.6968371e-38
0.050402831 0.050402839 0.76700008 1.7244606e-38
-0.028414298 0.051728558 0.7650001 1.6230029e-38
-0.026886674 0.051593307 0.76300007 1.6597392e-38
-0.025433337 0.051593319 0.76300001 1.8257268e-38
-0.023885718 0.051390465 0.76000005 1.9921798e-38
-0.022379057 0.051255234 0.75800008 2.0839805e-38
-0.020935256 0.051255226 0.75800008 2.1670645e-38
-0.019440038 0.051119991 0.75600004 2.2588298e-38
-0.017904796 0.050849512 0.75200009 2.3417689e-38
-0.016472401 0.050849512 0.75200003 2.341769e-38
-0.015040027 0.050849516 0.75200009 2.341769e-38
-0.013571451 0.050714273 0.75000012 2.3325854e-38
-0.012142866 0.050714273 0.75000012 2.3234009e-38
-0.010714293 0.050714269 0.75000006 2.2493216e-38
-0.0092485882 0.050511427 0.74700004 2.1762848e-38
-0.0078257509 0.050511412 0.7470001 2.2590812e-38
-0.0063857175 0.050376195 0.74500006 2.341769e-38
-0.0049800351 0.050511416 0.7470001 2.341769e-38
-0.003547634 0.050376184 0.74500006 2.341769e-38
-0.0021200106 0.050173309 0.7420001 2.341769e-38
-0.00070667081 0.050173324 0.74200004 2.341769e-38
0.00070666522 0.050173312 0.74200004 2.341769e-38
0.0021199854 0.05017332 0.7420001 2.341769e-38
0.0035333205 0.050173312 0.7420001 2.341769e-38
0.0049466621 0.050173331 0.74200004 2.341769e-38
0.0063599823 0.05017332 0.74200004 2.341769e-38
0.0077733304 0.050173309 0.7420001 2.341769e-38
0.0091866525 0.050173312 0.7420001 2.341769e-38
0.010599992 0.050173312 0.74200004 2.341769e-38
0.012013341 0.05017332 0.74200004 2.341769e-38
0.013426661 0.050173309 0.7420001 2.341769e-38
0.014839984 0.050173301 0.7420001 2.341769e-38
0.016253322 0.05017332 0.74200004 2.341769e-38
0.017666671 0.050173324 0.74200004 2.341769e-38
0.019079991 0.050173312 0.7420001 2.341769e-38
0.020493314 0.050173309 0.7420001 2.341769e-38
0.021936176 0.050240941 0.74300009 2.341769e-38
0.023351403 0.050240938 0.74300009 2.341769e-38
0.02476663 0.050240941 0.74300009 2.341769e-38
0.02618188 0.050240934 0.74300015 2.341769e-38
0.027671436 0.050376195 0.74500006 2.341769e-38
0.029168537 0.05051142 0.7470001 2.341769e-38
0.030632382 0.050579038 0.74800003 2.341769e-38
0.032057133 0.050579038 0.74800003 2.341769e-38
0.033571411 0.050714273 0.75000006 2.341769e-38
0.034999993 0.050714273 0.75000006 2.2957795e-38
0.036574293 0.050917141 0.75300002 2.2403886e-38
0.038008567 0.05091713 0.75300008 2.037451e-38
0.039442867 0.050917145 0.75300002 1.8443107e-38
0.040985722 0.051052369 0.75500005 1.8627867e-38
0.042479973 0.051119991 0.75600004 1.88126e-38
0.043919992 0.051119983 0.7560001 1.7797013e-38
0.045899998 0.05172855 0.7650001 1.6784677e-38
0.047480945 0.051863793 0.76700008 1.6969073e-38
0.048941895 0.051863797 0.76700008 1.7152405e-38
-0.028340017 0.053046636 0.76300007 1.6415495e-38
-0.026816214 0.052907608 0.76100004 1.6415878e-38
-0.025333351 0.052838083 0.76000011 1.7976389e-38
-0.023885727 0.052838087 0.76000011 1.9549443e-38
-0.022379054 0.052699033 0.75800002 2.0650765e-38
-0.020880032 0.052559987 0.75600004 2.1759615e-38
-0.019440027 0.05255999 0.7560001 2.2587936e-38
-0.017904777 0.052281894 0.75200003 2.341697e-38
-0.016472416 0.052281898 0.75200009 2.341769e-38
-0.015040022 0.052281894 0.75200003 2.341769e-38
-0.013571439 0.05214284 0.75000012 2.3325854e-38
-0.012142867 0.052142851 0.75000006 2.3138588e-38
-0.010714281 0.052142847 0.75000006 2.230309e-38
-0.0092609525 0.052003808 0.74800003 2.1393355e-38
-0.0078362105 0.05200379 0.74800009 2.24075e-38
-0.0064028772 0.051934276 0.74700004 2.341769e-38
-0.0049800193 0.051934287 0.74700004 2.341769e-38
-0.0035571689 0.051934283 0.7470001 2.341769e-38
-0.0021228762 0.051656172 0.74300009 2.341769e-38
-0.00070666336 0.051586661 0.74200004 2.341769e-38
0.00070665684 0.05158665 0.74200004 2.341769e-38
0.002119991 0.051586658 0.7420001 2.341769e-38
0.0035333112 0.051586647 0.7420001 2.341769e-38
0.0049466677 0.051586661 0.74200004 2.341769e-38
0.0063599879 0.051586658 0.74200004 2.341769e-38
0.007773336 0.051586647 0.7420001 2.341769e-38
0.0091866581 0.05158665 0.7420001 2.341769e-38
0.010599999 0.051586654 0.74200004 2.341769e-38
0.012013319 0.051586654 0.74200004 2.341769e-38
0.013426667 0.051586647 0.7420001 2.341769e-38
0.014839989 0.051586635 0.7420001 2.341769e-38
0.01625333 0.051586654 0.74200004 2.341769e-38
0.017690443 0.051656164 0.74300009 2.341769e-38
0.019105669 0.051656172 0.74300009 2.341769e-38
0.020520942 0.051656172 0.74300009 2.341769e-38
0.021936167 0.051656183 0.74300009 2.341769e-38
0.023351394 0.051656172 0.74300009 2.341769e-38
0.02489998 0.05193428 0.7470001 2.341769e-38
0.026322823 0.051934272 0.74700004 2.341769e-38
0.027745696 0.051934283 0.74700004 2.341769e-38
0.029168567 0.051934291 0.74700004 2.341769e-38
0.030632371 0.052003801 0.74800003 2.341769e-38
0.032057147 0.052003797 0.74800003 2.341769e-38
0.033571422 0.052142851 0.75000006 2.341769e-38
0.034999985 0.052142836 0.75000012 2.2866677e-38
0.036574285 0.052351426 0.75300008 2.2217346e-38
0.038109515 0.052490465 0.75500011 2.0188332e-38
0.039547622 0.052490465 0.75500005 1.8166168e-38
0.041039977 0.05255999 0.75600004 1.7706645e-38
0.042479966 0.052559998 0.75600004 1.7154905e-38
0.044036176 0.052699044 0.75800008 1.7060191e-38
0.045480002 0.052699033 0.75800008 1.696836e-38
0.04748093 0.053324737 0.76700008 1.7152395e-38
0.049005728 0.053394262 0.76800007 1.7245679e-38
-0.028340012 0.054499976 0.76300007 1.6782837e-38
-0.02681621 0.054357134 0.76100004 1.6877571e-38
-0.025333362 0.054285705 0.76000011 1.8352348e-38
-0.023885738 0.054285694 0.76000011 1.9832133e-38
-0.02237905 0.054142855 0.75800002 2.0562885e-38
-0.020880023 0.053999998 0.75600004 2.1302593e-38
-0.019440031 0.05399999 0.75600004 2.2128755e-38
-0.017904792 0.053714275 0.75200009 2.3050344e-38
-0.016472397 0.053714272 0.75200003 2.323366e-38
-0.015000026 0.053571418 0.75000012 2.341769e-38
-0.01357144 0.053571414 0.75000012 2.3325496e-38
-0.01214287 0.053571429 0.75000006 2.3232218e-38
-0.010714305 0.053571414 0.75000012 2.2585415e-38
-0.009260959 0.053428572 0.74800003 2.2037998e-38
-0.0078361845 0.053428568 0.74800003 2.2682647e-38
-0.0064028809 0.053357136 0.7470001 2.341769e-38
-0.004980023 0.05335715 0.74700004 2.341769e-38
-0.0035571521 0.053357139 0.74700004 2.341769e-38
-0.0021228734 0.053071424 0.74300009 2.341769e-38
-0.00070763472 0.053071413 0.74300009 2.341769e-38
0.00070666429 0.052999988 0.74200004 2.341769e-38
0.0021199845 0.052999981 0.7420001 2.341769e-38
0.0035333196 0.052999984 0.7420001 2.341769e-38
0.0049466621 0.052999984 0.74200004 2.341769e-38
0.0063599963 0.052999992 0.74200004 2.341769e-38
0.0077733165 0.052999984 0.74200004 2.341769e-38
0.0091866637 0.052999973 0.7420001 2.341769e-38
0.010600007 0.052999992 0.74200004 2.341769e-38
0.012013326 0.052999996 0.74200004 2.341769e-38
0.013426648 0.052999988 0.7420001 2.341769e-38
0.014839996 0.052999977 0.7420001 2.341769e-38
0.016275207 0.053071413 0.74300009 2.341769e-38
0.017690459 0.053071421 0.74300009 2.341769e-38
0.019105684 0.053071409 0.74300009 2.341769e-38
0.020520911 0.053071406 0.74300009 2.341769e-38
0.021936184 0.053071421 0.74300009 2.341769e-38
0.023351409 0.053071424 0.74300009 2.341769e-38
0.024899961 0.053357128 0.7470001 2.341769e-38
0.026322832 0.053357132 0.7470001 2.341769e-38
0.027745705 0.053357143 0.7470001 2.341769e-38
0.029207638 0.053428575 0.74800003 2.341769e-38
0.030632364 0.05342856 0.74800003 2.341769e-38
0.03205714 0.053428557 0.74800003 2.341769e-38
0.033571433 0.053571433 0.75000006 2.341769e-38
0.035093315 0.053714275 0.75200009 2.2773048e-38
0.0365743 0.053785719 0.75300002 2.2215914e-38
0.0381095 0.053928554 0.75500011 2.0004305e-38
0.039547611 0.053928565 0.75500005 1.7795602e-38
0.04104 0.05399999 0.75600004 1.7613377e-38
0.042592391 0.054142851 0.75800008 1.7336432e-38
0.044036191 0.054142844 0.75800002 1.7244233e-38
0.045779999 0.054499984 0.76300007 1.7152043e-38
0.047480937 0.054785699 0.76700002 1.7336793e-38
0.049005695 0.054857131 0.76800007 1.7613027e-38
-0.028340021 0.055953316 0.76300007 1.7057996e-38
-0.026780961 0.055733323 0.76000011 1.7338545e-38
-0.025333352 0.055733319 0.76000011 1.8723629e-38
-0.023885727 0.055733331 0.76000011 2.0100459e-38
-0.022379065 0.055586644 0.75800008 2.0465666e-38
-0.020935252 0.055586651 0.75800008 2.0747631e-38
-0.019440033 0.055439994 0.75600004 2.1757465e-38
-0.017928582 0.05522 0.75300002 2.2680848e-38
-0.016472412 0.055146653 0.75200009 2.3049272e-38
-0.015040019 0.055146653 0.75200009 2.3417331e-38
-0.013571443 0.054999992 0.75000006 2.341769e-38
-0.012142858 0.054999992 0.75000006 2.3323696e-38
-0.010714306 0.054999992 0.75000012 2.2952046e-38
-0.0092609534 0.054853328 0.74800003 2.2589013e-38
-0.007836191 0.054853324 0.74800003 2.3050348e-38
-0.0064114286 0.054853324 0.74800003 2.341769e-38
-0.0049800286 0.054779992 0.7470001 2.341769e-38
-0.0035571726 0.054779988 0.74700004 2.341769e-38
-0.0021228902 0.054486636 0.74300009 2.341769e-38
-0.000707631 0.054486658 0.74300009 2.341769e-38
0.00070759468 0.054486662 0.74300009 2.341769e-38
0.0021228334 0.054486655 0.74300009 2.341769e-38
0.003538073 0.054486647 0.74300009 2.341769e-38
0.0049466677 0.054413322 0.74200004 2.341769e-38
0.0063600019 0.054413326 0.74200004 2.341769e-38
0.0077733221 0.054413319 0.7420001 2.341769e-38
0.0091866422 0.054413311 0.7420001 2.341769e-38
0.010600013 0.054413326 0.74200004 2.341769e-38
0.012029502 0.054486647 0.74300009 2.341769e-38
0.013444727 0.054486644 0.74300009 2.341769e-38
0.014839973 0.054413315 0.7420001 2.341769e-38
0.016253343 0.054413319 0.74200004 2.341769e-38
0.017690448 0.054486655 0.74300009 2.341769e-38
0.019105675 0.054486647 0.74300009 2.341769e-38
0.020520929 0.054486651 0.74300009 2.341769e-38
0.021936154 0.054486647 0.74300009 2.341769e-38
0.023414264 0.054633327 0.74500006 2.341769e-38
0.024899991 0.054779992 0.74700004 2.341769e-38
0.026322814 0.054779995 0.7470001 2.341769e-38
0.027745685 0.054779988 0.7470001 2.341769e-38
0.029207628 0.054853339 0.74800003 2.341769e-38
0.030632356 0.05485332 0.74800009 2.341769e-38
0.032142859 0.054999992 0.75000006 2.341769e-38
0.033660926 0.055146657 0.75200009 2.341769e-38
0.035140019 0.055219997 0.75300002 2.2774842e-38
0.036671426 0.055366643 0.75500011 2.2123354e-38
0.038109537 0.055366661 0.75500005 1.9816675e-38
0.039547622 0.05536665 0.75500005 1.7429326e-38
0.04104 0.055440001 0.75600004 1.7522971e-38
0.04259238 0.055586658 0.75800002 1.7522256e-38
0.04403621 0.055586662 0.75800002 1.7427914e-38
0.045779996 0.055953313 0.76300001 1.7247111e-38
0.047480952 0.056246646 0.76700008 1.7613016e-38
-0.028340012 0.057406642 0.76300007 1.6968683e-38
-0.026780972 0.057180934 0.76000011 1.7612976e-38
-0.025333349 0.057180945 0.76000011 1.8718241e-38
-0.023885738 0.057180941 0.76000011 1.9819568e-38
-0.022379046 0.057030462 0.75800002 2.0376696e-38
-0.020935247 0.057030469 0.75800008 2.0934169e-38
-0.019440034 0.056879994 0.75600004 2.1944362e-38
-0.017928587 0.056654282 0.75300008 2.3049982e-38
-0.016472409 0.056579035 0.75200009 2.323366e-38
-0.015040033 0.056579039 0.75200009 2.341769e-38
-0.013571431 0.056428555 0.75000006 2.341769e-38
-0.012142879 0.056428555 0.75000012 2.3417687e-38
-0.010714293 0.056428552 0.75000012 2.323222e-38
-0.0092857229 0.056428567 0.75000006 2.3049628e-38
-0.0078361994 0.056278087 0.74800003 2.3234019e-38
-0.0064114248 0.056278083 0.74800003 2.341769e-38
-0.0049800323 0.056202851 0.7470001 2.341769e-38
-0.0035571763 0.056202848 0.7470001 2.341769e-38
-0.0021228874 0.055901889 0.74300009 2.341769e-38
-0.00070764869 0.055901881 0.74300015 2.341769e-38
0.00070759747 0.055901881 0.74300009 2.341769e-38
0.0021228362 0.055901889 0.74300009 2.341769e-38
0.0035380758 0.055901885 0.74300009 2.341769e-38
0.0049533155 0.055901889 0.74300009 2.341769e-38
0.0063600074 0.055826649 0.74200004 2.341769e-38
0.0077733276 0.055826657 0.7420001 2.341769e-38
0.00919904 0.055901889 0.74300009 2.341769e-38
0.010614264 0.055901896 0.74300009 2.341769e-38
0.01202949 0.055901889 0.74300009 2.341769e-38
0.013426659 0.055826645 0.7420001 2.341769e-38
0.01483998 0.055826653 0.7420001 2.341769e-38
0.016253321 0.055826653 0.74200004 2.341769e-38
0.017690467 0.055901896 0.74300009 2.341769e-38
0.019105691 0.055901885 0.74300009 2.341769e-38
0.020576175 0.056052379 0.74500006 2.341769e-38
0.021936169 0.055901885 0.74300009 2.341769e-38
0.023414271 0.056052379 0.74500006 2.341769e-38
0.024899973 0.056202855 0.74700004 2.341769e-38
0.026322844 0.056202851 0.74700004 2.341769e-38
0.027745688 0.056202862 0.74700004 2.341769e-38
0.029207619 0.056278083 0.74800003 2.341769e-38
0.030632397 0.056278091 0.74800003 2.341769e-38
0.032142844 0.056428559 0.75000006 2.341769e-38
0.03366093 0.056579039 0.75200003 2.341769e-38
0.035140011 0.056654282 0.75300002 2.2956719e-38
0.036671415 0.056804743 0.75500011 2.2399572e-38
0.038109522 0.056804746 0.75500005 1.9911368e-38
0.039599977 0.056880005 0.75600004 1.7336764e-38
0.04104 0.056879994 0.75600004 1.7431487e-38
0.042592376 0.057030462 0.75800008 1.7526564e-38
0.044036198 0.057030477 0.75800002 1.715744e-38
0.045779984 0.057406653 0.76300001 1.679583e-38
0.047480937 0.057707589 0.76700008 1.6236558e-38
-0.028340021 0.058859978 0.76300007 1.6878301e-38
-0.026780961 0.05862857 0.76000011 1.7796304e-38
-0.025333336 0.058628567 0.76000005 1.871682e-38
-0.023885714 0.058628559 0.76000005 1.9548733e-38
-0.022379044 0.058474276 0.75800002 2.0286658e-38
-0.020935243 0.058474272 0.75800002 2.1023855e-38
-0.019440023 0.058319993 0.75600004 2.2219513e-38
-0.017928572 0.058088567 0.75300002 2.3324773e-38
-0.016472409 0.058011401 0.75200009 2.341769e-38
-0.01504003 0.058011416 0.75200009 2.341769e-38
-0.013571432 0.057857133 0.75000006 2.341769e-38
-0.012142882 0.057857133 0.75000012 2.3417689e-38
-0.010714296 0.05785713 0.75000006 2.3417687e-38
-0.0092857108 0.057857141 0.75000006 2.3417689e-38
-0.0078361947 0.057702847 0.74800003 2.341769e-38
-0.0064114323 0.057702847 0.74800003 2.341769e-38
-0.0049866699 0.057702858 0.74800003 2.341769e-38
-0.0035571605 0.057625715 0.74700004 2.341769e-38
-0.0021228837 0.05731713 0.74300009 2.341769e-38
-0.00070764497 0.057317123 0.74300009 2.341769e-38
0.00070757978 0.057317127 0.74300015 2.341769e-38
0.0021228399 0.057317134 0.74300009 2.341769e-38
0.0035380786 0.057317123 0.74300009 2.341769e-38
0.0049533024 0.057317127 0.74300009 2.341769e-38
0.0063685281 0.057317138 0.74300009 2.341769e-38
0.0077837827 0.057317127 0.74300009 2.341769e-38
0.009199027 0.05731713 0.74300009 2.341769e-38
0.010599999 0.057239983 0.74200004 2.341769e-38
0.012013319 0.057239991 0.74200004 2.341769e-38
0.013426667 0.057239983 0.7420001 2.341769e-38
0.014859957 0.057317123 0.74300009 2.341769e-38
0.016275208 0.057317115 0.74300015 2.341769e-38
0.017690456 0.05731713 0.74300009 2.341769e-38
0.019105706 0.057317123 0.74300009 2.341769e-38
0.020520933 0.05731713 0.74300009 2.341769e-38
0.021936158 0.057317119 0.74300009 2.341769e-38
0.023414262 0.057471424 0.74500012 2.341769e-38
0.024899984 0.0576257 0.7470001 2.341769e-38
0.026322827 0.057625711 0.7470001 2.341769e-38
0.027745698 0.057625704 0.74700004 2.341769e-38
0.029207611 0.057702847 0.74800003 2.341769e-38
0.030632388 0.057702858 0.74800003 2.341769e-38
0.032142859 0.057857133 0.75000006 2.341769e-38
0.033660941 0.058011416 0.75200009 2.341769e-38
0.035139978 0.058088563 0.75300008 2.3050348e-38
0.036671422 0.058242854 0.75500005 2.2675443e-38
0.038109507 0.058242846 0.75500005 2.0000348e-38
0.039600004 0.058320001 0.75600004 1.7245287e-38
0.041148566 0.058474284 0.75800002 1.733892e-38
0.042592369 0.05847428 0.75800002 1.7430045e-38
0.044152368 0.058628555 0.76000011 1.6878681e-38
0.045780007 0.058859993 0.76300007 1.6324418e-38
0.047357131 0.059014268 0.7650001 1.4851084e-38
-0.028340016 0.060313307 0.76300007 1.5767684e-38
-0.026816217 0.060155224 0.76100004 1.6783619e-38
-0.025333347 0.060076185 0.76000011 1.7983583e-38
-0.023885721 0.060076177 0.76000011 1.9279333e-38
-0.022438113 0.060076188 0.76000011 1.9920395e-38
-0.020935239 0.059918091 0.75800002 2.0563605e-38
