# .PCD v0.7 - Point Cloud Data file format
VERSION 0.7
FIELDS x y z rgb
SIZE 4 4 4 4
TYPE F F F F
COUNT 1 1 1 1
WIDTH 971
HEIGHT 1
VIEWPOINT 0 0 0 1 0 0 0
POINTS 971
DATA ascii
0.029012369 0.019105718 0.74300003 1.1095591e-38
0.030427596 0.019105718 0.74300009 1.1372531e-38
0.031842846 0.019105725 0.74300009 1.1641218e-38
0.03334761 0.019157156 0.74500006 1.2002821e-38
0.034859993 0.01920858 0.7470001 1.2095731e-38
0.036282826 0.019208595 0.74700004 1.2276807e-38
0.037756197 0.019234307 0.74800003 1.2912754e-38
0.039285753 0.019285731 0.75000012 1.3631205e-38
0.040822882 0.019337155 0.75200009 1.3449238e-38
0.042311419 0.019362889 0.75300002 1.335238e-38
0.043745708 0.019362867 0.75300002 1.3168351e-38
0.045299992 0.019414291 0.75500005 1.3055392e-38
0.046738096 0.019414306 0.75500005 1.1965605e-38
0.048239991 0.019440003 0.7560001 1.0854599e-38
-0.033929497 0.020935252 0.75800002 8.1306252e-39
-0.032485727 0.02093526 0.75800002 8.0395113e-39
-0.030960022 0.020880014 0.75600004 8.1338622e-39
-0.029363832 0.020769536 0.75200003 8.2257103e-39
-0.027931435 0.020769529 0.75200009 8.0431295e-39
-0.026499039 0.020769529 0.75200009 7.7715705e-39
-0.024933318 0.020659059 0.74800003 7.4017187e-39
-0.02347718 0.020631455 0.74700004 6.9472048e-39
-0.021995235 0.020576194 0.74500006 7.2184079e-39
-0.02057622 0.020576201 0.74500006 7.4092521e-39
-0.019105736 0.02052097 0.74300003 7.8687869e-39
-0.01769051 0.020520963 0.74300003 8.3347817e-39
-0.016253354 0.020493358 0.74200004 8.5137906e-39
-0.014839999 0.020493336 0.74200004 8.6135182e-39
-0.013426701 0.020493343 0.74199998 9.1648913e-39
-0.011980971 0.020438127 0.73999995 9.6283722e-39
-0.010557165 0.0204105 0.73900002 9.7198476e-39
-0.0091495505 0.0204105 0.73900002 9.8124019e-39
-0.007741936 0.020410508 0.73900002 9.8116859e-39
-0.0063171363 0.020355254 0.73700011 9.8134781e-39
-0.0049133408 0.020355247 0.73700011 1.0177233e-38
-0.0035095192 0.020355254 0.73700005 1.0457403e-38
-0.002097161 0.020272389 0.73400003 1.0733627e-38
-0.00069905573 0.020272389 0.73400003 1.0917299e-38
0.00069714582 0.02021715 0.73200011 1.1282489e-38
0.0020914325 0.02021715 0.73200005 1.1560865e-38
0.0034809434 0.020189546 0.73100001 1.1836013e-38
0.0048932941 0.020272411 0.73400003 1.2021838e-38
0.0062914328 0.020272389 0.73400003 1.1836732e-38
0.0077104629 0.020327643 0.73600006 1.1563019e-38
0.0091123627 0.020327643 0.73600006 1.1009136e-38
0.010514264 0.02032765 0.73600006 1.0460634e-38
0.011916162 0.020327628 0.73600006 1.0915866e-38
0.013318061 0.020327643 0.73600006 1.1378272e-38
0.014680001 0.020272389 0.73400003 1.1374684e-38
0.016078077 0.020272389 0.73400003 1.1284643e-38
0.01747616 0.020272397 0.73400003 1.1558355e-38
0.018925687 0.020327628 0.73600006 1.1744179e-38
0.020327589 0.020327635 0.73600006 1.1653059e-38
0.021759043 0.020355262 0.73700005 1.1554048e-38
0.023162838 0.020355262 0.73700005 1.1827761e-38
0.024633327 0.020410486 0.73900008 1.2102545e-38
0.026040966 0.0204105 0.73900008 1.10902e-38
0.027559968 0.020493343 0.74200004 1.0079651e-38
0.029012362 0.020520963 0.74300003 1.0629587e-38
0.030427611 0.020520963 0.74300003 1.1089485e-38
0.031928573 0.020576194 0.74500012 1.1910628e-38
0.033347644 0.020576194 0.74500012 1.2741809e-38
0.03486 0.020631447 0.74700004 1.310628e-38
0.036282863 0.02063144 0.74700004 1.3475357e-38
0.037756216 0.020659052 0.74800009 1.6319687e-38
0.039180972 0.020659059 0.74800003 1.9167599e-38
0.040714327 0.02071429 0.75000012 1.9260804e-38
0.042255256 0.020769529 0.75200009 1.9349052e-38
0.043745693 0.020797156 0.75300002 1.8702259e-38
0.045360006 0.020880021 0.7560001 1.8054055e-38
-0.034019057 0.022438116 0.76000011 8.4954322e-39
-0.032485723 0.022379071 0.75800002 8.3139192e-39
-0.031041929 0.022379071 0.75800002 8.2220879e-39
-0.029363824 0.022201911 0.75200009 8.2260592e-39
-0.027931456 0.022201918 0.75200003 8.0413372e-39
-0.026428586 0.02214288 0.75000006 7.9541681e-39
-0.024999984 0.02214288 0.75000012 7.4013642e-39
-0.023508547 0.022083826 0.74800009 6.8539358e-39
-0.022054279 0.022054307 0.74700004 7.3105993e-39
-0.020576192 0.021995254 0.74500006 7.7715677e-39
-0.019105744 0.021936201 0.74300003 8.048865e-39
-0.017690493 0.021936201 0.74300003 8.4158511e-39
-0.016253369 0.021906681 0.74200004 8.4187223e-39
-0.01480001 0.021847636 0.74000001 8.4212362e-39
-0.013390473 0.021847643 0.74000001 8.790732e-39
-0.011964777 0.021818109 0.73900002 9.1595061e-39
-0.010557163 0.021818109 0.73900002 9.2509787e-39
-0.0091495486 0.021818109 0.73900002 9.2488291e-39
-0.0077419081 0.021818116 0.73900002 9.5286432e-39
-0.0063171457 0.021759063 0.73700005 9.7137491e-39
-0.0049133501 0.021759063 0.73700005 9.9896129e-39
-0.0035095285 0.021759063 0.73700005 1.0173643e-38
-0.0020971871 0.021670491 0.73400003 1.035839e-38
-0.00069907808 0.021670498 0.73399997 1.0541704e-38
0.00069903268 0.021670491 0.73400003 1.0175798e-38
0.0020971377 0.021670483 0.73400003 9.9010088e-39
0.0034952206 0.021670491 0.73400003 1.0452381e-38
0.004906653 0.021729544 0.73600006 1.1006624e-38
0.0063085523 0.021729529 0.73600006 1.0913354e-38
0.0077104536 0.021729536 0.73600006 1.0824389e-38
0.0091123534 0.021729536 0.73600006 1.0547806e-38
0.010514251 0.021729544 0.73600006 1.0182617e-38
0.011916152 0.021729544 0.73600006 9.9949995e-39
0.013318078 0.021729551 0.73600006 9.9063926e-39
0.014719975 0.021729536 0.73600006 1.00854e-38
0.016121875 0.021729544 0.73600006 1.0363059e-38
0.017523805 0.021729536 0.73600006 1.0450948e-38
0.018925704 0.021729544 0.73600006 1.0640358e-38
0.020355241 0.021759063 0.73700011 1.0447e-38
0.021759065 0.021759063 0.73700011 1.035014e-38
0.023162859 0.021759048 0.73700011 1.0808598e-38
0.024566678 0.021759056 0.73700005 1.1362834e-38
0.025970474 0.021759063 0.73700011 1.1362469e-38
0.027559957 0.021906696 0.74199998 1.1453227e-38
0.028973311 0.021906681 0.74199998 1.283578e-38
0.030427603 0.021936193 0.74300003 1.4210453e-38
0.031842832 0.021936193 0.74300009 1.4584979e-38
0.033347618 0.021995246 0.74500006 1.4956983e-38
0.034766689 0.021995254 0.74500006 1.4766135e-38
0.036282845 0.022054315 0.74700004 1.4586378e-38
0.037756205 0.022083819 0.74800009 1.7987486e-38
0.039180957 0.022083826 0.74800003 2.1305361e-38
0.040714297 0.022142872 0.75000012 2.1391058e-38
0.042311437 0.022231445 0.75300002 2.1397158e-38
0.043861892 0.022290498 0.75500005 2.1113759e-38
0.045299973 0.022290505 0.75500005 2.0754319e-38
0.046923827 0.022379056 0.75800002 2.0559895e-38
0.04836762 0.022379063 0.75800002 2.0384372e-38
0.049811449 0.022379056 0.75800008 1.8988799e-38
-0.034019068 0.023885742 0.76000005 8.7694351e-39
-0.03248572 0.023822881 0.75800002 8.5857753e-39
-0.031041896 0.023822881 0.75800008 8.3985296e-39
-0.029520018 0.023760021 0.7560001 8.1273461e-39
-0.02793145 0.023634285 0.75200009 8.1252133e-39
-0.026499053 0.023634292 0.75200009 8.1302412e-39
-0.025000012 0.023571447 0.75000006 7.4870396e-39
-0.023571409 0.023571454 0.75000012 6.7552437e-39
-0.022083798 0.023508579 0.74800009 7.4895886e-39
-0.020631434 0.023477167 0.74700004 8.1360188e-39
-0.019157147 0.023414306 0.74500006 8.3229141e-39
-0.017690498 0.023351446 0.74300003 8.4129686e-39
-0.016253354 0.023320004 0.74200004 8.3243743e-39
-0.014840024 0.023320019 0.74200004 8.1410592e-39
-0.013390493 0.023257166 0.74000001 8.4176377e-39
-0.011980983 0.023257174 0.74000001 8.6942232e-39
-0.010557161 0.023225732 0.73900008 8.6924309e-39
-0.0091495207 0.02322574 0.73900002 8.6931498e-39
-0.0077419062 0.02322574 0.73900002 9.1569922e-39
-0.0063171261 0.023162872 0.73700011 9.6158096e-39
-0.0049133277 0.023162872 0.73700011 9.8016329e-39
-0.0035095322 0.023162872 0.73700011 9.8920335e-39
-0.0021028868 0.023131453 0.73600006 9.9849452e-39
-0.00070098543 0.023131453 0.73600006 1.0077498e-38
0.00069901033 0.023068585 0.73400003 9.1616543e-39
0.0020971471 0.023068577 0.73400003 8.1496702e-39
0.003509522 0.023162872 0.73700005 9.0658728e-39
0.0049066679 0.023131445 0.73600006 9.8959796e-39
0.0063085672 0.023131445 0.73600006 9.9860228e-39
0.0077104685 0.023131453 0.73600006 1.0080727e-38
0.0091123665 0.023131445 0.73600006 9.991401e-39
0.010514266 0.023131445 0.73600006 9.8941845e-39
0.011916167 0.023131445 0.73600006 9.1584243e-39
0.013318066 0.023131453 0.73600006 8.3319049e-39
0.014719964 0.023131453 0.73600006 8.8807641e-39
0.016121862 0.023131453 0.73600006 9.3395842e-39
0.017523764 0.023131453 0.73600006 9.4260387e-39
0.018925693 0.023131445 0.73600006 9.4296274e-39
0.020355232 0.023162887 0.73700005 9.328109e-39
0.021759054 0.023162872 0.73700005 9.1516126e-39
0.023162849 0.023162872 0.73700005 9.8766122e-39
0.024566645 0.023162872 0.73700005 1.0534526e-38
0.026040943 0.023225732 0.73900002 1.172731e-38
0.027559973 0.023320012 0.74200004 1.2840455e-38
0.028973328 0.023320019 0.74200004 1.5050247e-38
0.030427596 0.023351438 0.74300003 1.7255379e-38
0.031928573 0.023414314 0.74500006 1.7170006e-38
0.033437163 0.023477159 0.7470001 1.7070273e-38
0.034859993 0.023477159 0.74700004 1.6415224e-38
0.036331434 0.023508601 0.74800003 1.5688407e-38
0.03775622 0.023508586 0.74800003 1.9554082e-38
0.039285742 0.023571454 0.75000012 2.3416181e-38
0.040822845 0.0236343 0.75200003 2.3417603e-38
0.042311426 0.023665734 0.75300002 2.3417244e-38
0.043861881 0.023728587 0.75500005 2.3417603e-38
0.045480005 0.023822881 0.75800002 2.3417243e-38
0.046923831 0.023822881 0.75800002 2.34176e-38
0.048559021 0.023917146 0.76100004 2.3416835e-38
0.050008532 0.023917153 0.76100004 2.3417506e-38
-0.034019053 0.025333352 0.76000011 9.9657376e-39
-0.032485738 0.025266677 0.75800002 1.0514618e-38
-0.031041915 0.025266685 0.75800008 1.0331682e-38
-0.029520022 0.025200024 0.7560001 1.0146591e-38
-0.027968584 0.025100015 0.75300002 1.0425697e-38
-0.026604772 0.025166683 0.75500005 1.0699418e-38
-0.025066679 0.025066674 0.75200009 1.0612613e-38
-0.023571441 0.025000028 0.75000012 1.0607991e-38
-0.022142837 0.025000013 0.75000012 1.0980035e-38
-0.020631451 0.024900027 0.74700004 1.1347372e-38
-0.019157145 0.024833351 0.74500006 1.1257682e-38
-0.017690506 0.024766684 0.74300003 1.1068653e-38
-0.016253367 0.024733342 0.74200004 1.1076927e-38
-0.014840038 0.02473335 0.74200004 1.1165525e-38
-0.013426681 0.024733357 0.74200004 1.1077267e-38
-0.01198098 0.024666697 0.73999995 1.0986875e-38
-0.010557133 0.024633341 0.73900008 1.1170194e-38
-0.0091495188 0.024633348 0.73900008 1.1439961e-38
-0.007720957 0.024566688 0.73700005 1.1630805e-38
-0.0063171615 0.024566688 0.73700005 1.1903442e-38
-0.0049133389 0.024566695 0.73700005 1.1908104e-38
-0.0035095415 0.02456668 0.73700005 1.1995993e-38
-0.00210287 0.024533354 0.73600006 1.2093927e-38
-0.00070097053 0.024533354 0.73600006 1.2183252e-38
0.00070093072 0.024533361 0.73600006 1.2738568e-38
0.0021028281 0.024533354 0.73600006 1.31938e-38
0.0035095164 0.024566665 0.73700011 1.3936016e-38
0.0049066287 0.024533354 0.73600006 1.4668188e-38
0.0063171354 0.02456668 0.73700011 1.476397e-38
0.0077104555 0.024533346 0.73600006 1.4754999e-38
0.0091123572 0.024533354 0.73600006 1.3104468e-38
0.010514257 0.024533354 0.73600006 1.1438516e-38
0.011916156 0.024533346 0.73600006 1.1540038e-38
0.013318081 0.024533354 0.73600006 1.1627208e-38
0.014719981 0.024533354 0.73600006 1.2093918e-38
0.016121879 0.024533354 0.73600006 1.2545563e-38
0.01752378 0.024533361 0.73600006 1.2828604e-38
0.018951429 0.02456668 0.73700011 1.3007976e-38
0.020355251 0.02456668 0.73700011 1.3014796e-38
0.021759046 0.024566673 0.73700011 1.3021258e-38
0.02316287 0.02456668 0.73700005 1.4215839e-38
0.024566663 0.02456668 0.73700011 1.5415443e-38
0.026040943 0.024633341 0.73900008 1.5877135e-38
0.027597109 0.024766684 0.74300003 1.6345639e-38
0.029012335 0.024766676 0.74300003 1.7353677e-38
0.03050953 0.024833351 0.74500006 1.8458573e-38
0.032014281 0.024900019 0.74700004 1.8179479e-38
0.033437144 0.024900019 0.74700004 1.7994008e-38
0.034906693 0.024933346 0.74800009 1.7340749e-38
0.036331445 0.024933353 0.74800003 1.6790077e-38
0.037857134 0.025000028 0.75000006 2.0011834e-38
0.039390478 0.025066674 0.75200003 2.3325818e-38
0.040877137 0.025100023 0.75299996 2.3231127e-38
0.042423792 0.025166683 0.75500005 2.3140367e-38
0.043861903 0.025166683 0.75500005 2.323256e-38
0.045480013 0.025266685 0.75800008 2.3324385e-38
0.046923809 0.025266685 0.75800002 2.3324731e-38
0.050008554 0.025366679 0.76100004 2.3417661e-38
0.05159336 0.025433339 0.76300001 2.3417666e-38
-0.034019042 0.026780963 0.76000005 1.1166456e-38
-0.032485705 0.026710488 0.75800008 1.2449653e-38
-0.031041911 0.026710495 0.75800002 1.2266353e-38
-0.029520025 0.026640005 0.7560001 1.2083416e-38
-0.028080022 0.02664002 0.75600004 1.263911e-38
-0.026604781 0.026604779 0.75500005 1.3191916e-38
-0.025100019 0.026534311 0.75300002 1.3839787e-38
-0.023634277 0.026499055 0.75200009 1.4477986e-38
-0.022083797 0.026358113 0.74800003 1.4567324e-38
-0.020631442 0.026322871 0.74700004 1.4570924e-38
-0.019157141 0.026252389 0.74500012 1.4200008e-38
-0.017690513 0.026181921 0.74300003 1.3745132e-38
-0.016275262 0.026181929 0.74300003 1.393203e-38
-0.014860035 0.026181914 0.74300003 1.4114272e-38
-0.013426666 0.026146688 0.74200004 1.3738325e-38
-0.011980971 0.02607622 0.74000001 1.328848e-38
-0.010571434 0.026076213 0.74000001 1.374551e-38
-0.0091495439 0.026040986 0.73900002 1.4117858e-38
-0.0077419304 0.026040979 0.73900002 1.4206447e-38
-0.0063171419 0.025970496 0.73700011 1.421185e-38
-0.0049133203 0.025970489 0.73700005 1.4115373e-38
-0.0035095229 0.025970489 0.73700011 1.4027841e-38
-0.0021028812 0.025935262 0.73600006 1.421187e-38
-0.00070098171 0.02593524 0.73600006 1.4307294e-38
0.00070091768 0.025935255 0.73600006 1.632409e-38
0.0021028169 0.025935255 0.73600006 1.8259454e-38
0.0035047424 0.025935262 0.73600006 1.8908045e-38
0.0049066418 0.025935262 0.73600006 1.9458344e-38
0.0063085412 0.025935262 0.73600006 1.9462294e-38
0.0077104704 0.025935248 0.73600006 1.9454402e-38
0.0091123721 0.025935248 0.73600006 1.6233343e-38
0.01051427 0.025935255 0.73600006 1.2924754e-38
0.011916169 0.025935255 0.73600006 1.393638e-38
0.01331807 0.025935255 0.73600006 1.4949799e-38
0.01471997 0.02593527 0.73600006 1.5413999e-38
0.016121868 0.025935255 0.73600006 1.577919e-38
0.017523767 0.025935255 0.73600006 1.6242313e-38
0.018951422 0.025970489 0.73700005 1.6606069e-38
0.020355245 0.025970496 0.73700005 1.6794045e-38
0.021759039 0.025970504 0.73700005 1.6887678e-38
0.023162836 0.025970504 0.73700005 1.8550047e-38
0.024633331 0.026040964 0.73900008 2.0200218e-38
0.026146648 0.026146688 0.74200004 2.0019777e-38
0.027597131 0.026181921 0.74300009 1.9835387e-38
0.029012356 0.026181914 0.74300003 1.9743193e-38
0.030509505 0.026252404 0.74500006 1.9557724e-38
0.032014292 0.026322879 0.74700004 1.918679e-38
0.033437155 0.026322879 0.7470001 1.8815487e-38
0.034906682 0.026358098 0.74800009 1.8347327e-38
0.036428582 0.026428595 0.75000012 1.7893167e-38
0.03785716 0.02642858 0.75000012 2.0561416e-38
0.039390486 0.02649907 0.75200009 2.3137471e-38
0.040877156 0.026534289 0.75300002 2.304025e-38
0.042423781 0.026604772 0.75500005 2.2861609e-38
0.043919984 0.026640005 0.75600004 2.3047439e-38
0.045480017 0.02671048 0.75800002 2.3139272e-38
0.047047611 0.026780978 0.76000005 2.332294e-38
-0.035699997 0.028414287 0.7650001 1.033064e-38
-0.034019053 0.028228596 0.76000005 1.1163266e-38
-0.032485697 0.028154314 0.75800002 1.1993737e-38
-0.031041903 0.028154306 0.75800002 1.2085577e-38
-0.029598078 0.028154299 0.75800008 1.2179945e-38
-0.028080024 0.028080016 0.75600004 1.2827118e-38
-0.026604788 0.028042883 0.75500005 1.3384581e-38
-0.02510001 0.027968578 0.75300002 1.4211092e-38
-0.023634303 0.027931444 0.75200003 1.4947198e-38
-0.022083811 0.02778288 0.74800003 1.5590751e-38
-0.020631431 0.027745731 0.7470001 1.6240807e-38
-0.019157143 0.027671456 0.74500006 1.6052503e-38
-0.017690491 0.027597144 0.74300009 1.5963511e-38
-0.01627527 0.027597159 0.74300003 1.6238632e-38
-0.014860043 0.027597152 0.74300003 1.6611016e-38
-0.013426705 0.027560011 0.74200004 1.7066624e-38
-0.012013352 0.027560018 0.74200004 1.7529752e-38
-0.01060002 0.027560018 0.74200004 1.7621231e-38
-0.0091619194 0.027485736 0.74000001 1.7722002e-38
-0.0077419276 0.027448587 0.73900002 1.7899898e-38
-0.0063342876 0.027448595 0.73900002 1.8090788e-38
-0.0049266755 0.027448595 0.73900002 1.8174418e-38
-0.0035095322 0.027374305 0.73700005 1.835988e-38
-0.0021028682 0.027337164 0.73600006 1.8451354e-38
-0.00070096867 0.027337156 0.73600006 1.8642205e-38
0.00070093072 0.027337164 0.73600006 1.9647019e-38
0.0021028318 0.027337171 0.73600006 2.0754433e-38
0.0035047294 0.027337164 0.73600006 2.1027434e-38
0.0049066287 0.027337156 0.73600006 2.1305458e-38
0.0063171466 0.027374305 0.73700005 2.1120359e-38
0.0077104294 0.027337164 0.73600006 2.084629e-38
0.0091123572 0.027337171 0.73600006 1.7712766e-38
0.010514258 0.027337164 0.73600006 1.4498882e-38
0.011916184 0.027337156 0.73600006 1.5233566e-38
0.013318081 0.027337156 0.73600006 1.5975067e-38
0.014719984 0.027337164 0.73600006 1.6246629e-38
0.016143793 0.027374312 0.73700005 1.6526799e-38
0.017523779 0.027337171 0.73600006 1.6706165e-38
0.018951442 0.027374297 0.73700011 1.6889834e-38
0.020355238 0.027374297 0.73700011 1.7071348e-38
0.021759057 0.027374305 0.73700011 1.7347935e-38
0.023162855 0.027374305 0.73700011 1.8822687e-38
0.024733305 0.027560011 0.74200004 2.0295283e-38
0.026146663 0.027560003 0.74200004 2.04768e-38
0.027597126 0.027597159 0.74300009 2.0661548e-38
0.029090492 0.027671441 0.74500006 2.0752305e-38
0.030591441 0.027745739 0.74700004 2.0934533e-38
0.032014277 0.027745731 0.74700004 2.047176e-38
0.033481907 0.02778288 0.74800003 2.0008973e-38
0.034906693 0.027782865 0.74800009 1.9638019e-38
0.036428578 0.027857162 0.75000006 1.9362884e-38
0.037857156 0.027857162 0.75000012 2.1299692e-38
0.039390467 0.027931437 0.75200003 2.3325791e-38
0.040877137 0.027968578 0.75300002 2.3229989e-38
0.042423807 0.028042875 0.75500005 2.3136732e-38
0.043919984 0.028080009 0.75600004 2.3230017e-38
0.045599986 0.028228603 0.76000005 2.3321859e-38
0.047233369 0.028340012 0.76300007 2.3322943e-38
-0.03569999 0.029871449 0.7650001 1.0883442e-38
-0.03406385 0.02971524 0.76100004 1.1253305e-38
-0.032571446 0.029676214 0.76000005 1.1533132e-38
-0.031123836 0.029676206 0.76000005 1.1901924e-38
-0.0295981 0.029598102 0.75800008 1.2273225e-38
-0.028080028 0.02952002 0.75600004 1.2920751e-38
-0.026604768 0.029480964 0.75500005 1.3567181e-38
-0.025066691 0.029363826 0.75200003 1.4488761e-38
-0.023634294 0.029363818 0.75200009 1.5406757e-38
-0.022142846 0.029285729 0.75000012 1.6698911e-38
-0.020631447 0.029168591 0.74700004 1.7894225e-38
-0.019157168 0.029090494 0.74500006 1.798895e-38
-0.0176905 0.029012389 0.74300009 1.8078978e-38
-0.016275248 0.029012389 0.74300009 1.8631771e-38
-0.014860026 0.029012389 0.74300003 1.9093835e-38
-0.01342669 0.028973341 0.74200004 2.0478918e-38
-0.012013336 0.028973348 0.74200004 2.1759594e-38
-0.010600034 0.028973348 0.74199998 2.157987e-38
-0.0091619408 0.028895266 0.74000001 2.1303628e-38
-0.0077419006 0.02885621 0.73900008 2.1580194e-38
-0.0063342857 0.028856203 0.73900002 2.1855367e-38
-0.0049266717 0.028856203 0.73900002 2.2315644e-38
-0.0035190578 0.02885621 0.73900008 2.2681191e-38
-0.0021057162 0.028778121 0.73700005 2.2774819e-38
-0.00070191862 0.028778099 0.73700005 2.2866656e-38
0.00070190302 0.028778113 0.73700005 2.305033e-38
0.0021056985 0.028778113 0.73700005 2.3142168e-38
0.0035047461 0.028739072 0.73600006 2.3142172e-38
0.0049066455 0.028739072 0.73600006 2.3142175e-38
0.0063171373 0.028778106 0.73700005 2.2683e-38
0.0077209626 0.028778106 0.73700011 2.2219875e-38
0.0091247605 0.028778106 0.73700011 1.9181053e-38
0.01052858 0.028778106 0.73700011 1.6062235e-38
0.011932376 0.028778106 0.73700011 1.6523925e-38
0.013336197 0.028778099 0.73700011 1.6891267e-38
0.014739995 0.028778106 0.73700011 1.7069917e-38
0.016143816 0.028778113 0.73700005 1.7259329e-38
0.017547613 0.028778113 0.73700005 1.7257178e-38
0.018951435 0.028778113 0.73700005 1.7165699e-38
0.02035523 0.028778121 0.73700005 1.7436538e-38
0.021759048 0.028778128 0.73700005 1.7717426e-38
0.023257142 0.028895259 0.74000001 1.9097473e-38
0.024733292 0.028973348 0.74200004 2.0383528e-38
0.026146648 0.028973356 0.74200004 2.0930238e-38
0.027597118 0.029012397 0.74300009 2.1394438e-38
0.029090466 0.029090486 0.74500006 2.1853974e-38
0.030591423 0.029168591 0.74700004 2.2220236e-38
0.032014284 0.029168591 0.74700004 2.1664196e-38
0.033481922 0.029207647 0.74800003 2.111352e-38
0.034906682 0.029207632 0.74800003 2.0924086e-38
0.036428604 0.029285729 0.75000012 2.0747241e-38
0.037857149 0.029285729 0.75000006 2.2131601e-38
0.039390475 0.029363811 0.75200009 2.3415134e-38
0.040877149 0.029402882 0.75300002 2.3417635e-38
0.042480003 0.029520005 0.7560001 2.3413338e-38
0.043919981 0.029520012 0.7560001 2.3413345e-38
0.045659963 0.029715247 0.76100004 2.3414428e-38
0.047109477 0.029715255 0.76100004 2.3415151e-38
-0.035606649 0.031246684 0.76300007 1.299745e-38
-0.034019049 0.031123824 0.76000005 1.33709e-38
-0.032571435 0.031123839 0.76000005 1.3738626e-38
-0.031123817 0.031123832 0.76000011 1.4016669e-38
-0.029598096 0.03104192 0.75800002 1.4385453e-38
-0.028080029 0.030960023 0.7560001 1.4111387e-38
-0.026604777 0.030919068 0.75500005 1.3841618e-38
-0.025066659 0.030796193 0.75200003 1.3652924e-38
-0.023634287 0.030796193 0.75200009 1.3563971e-38
-0.02214285 0.030714311 0.75000006 1.4943308e-38
-0.020659048 0.030632392 0.74800003 1.6331968e-38
-0.019157138 0.030509531 0.74500006 1.7251046e-38
-0.017738122 0.030509539 0.74500006 1.8170476e-38
-0.016275257 0.030427627 0.74300009 1.8263028e-38
-0.014860004 0.030427627 0.74300009 1.8358107e-38
-0.013444806 0.030427635 0.74300003 1.8910212e-38
-0.012029556 0.030427635 0.74300003 1.9551983e-38
-0.010600017 0.030386679 0.74200004 1.9554492e-38
-0.0091619072 0.03030479 0.74000001 1.964848e-38
-0.0077523976 0.03030479 0.74000001 1.9832151e-38
-0.0063428604 0.030304782 0.74000001 2.0016544e-38
-0.0049266699 0.030263826 0.73900008 2.0475726e-38
-0.0035190559 0.030263811 0.73900008 2.0938132e-38
-0.0021056957 0.030181907 0.73700011 2.1028889e-38
-0.00070189999 0.030181907 0.73700011 2.1213278e-38
0.00070192164 0.030181915 0.73700011 2.1212202e-38
0.0021057189 0.030181922 0.73700011 2.1305113e-38
0.0035095387 0.030181929 0.73700005 2.1488067e-38
0.0049133343 0.030181915 0.73700005 2.1672814e-38
0.0063171298 0.030181915 0.73700011 2.1578107e-38
0.0077209515 0.030181922 0.73700005 2.1577386e-38
0.0091247493 0.030181929 0.73700005 2.0198054e-38
0.010528571 0.030181922 0.73700005 1.8820885e-38
0.011932367 0.030181929 0.73700005 1.9096753e-38
0.013336188 0.030181915 0.73700005 1.9373335e-38
0.01478001 0.030263826 0.73900008 1.9832153e-38
0.016187623 0.030263826 0.73900008 2.0387116e-38
0.017595237 0.030263811 0.73900008 2.0292772e-38
0.019002853 0.030263826 0.73900008 2.0292769e-38
0.020410465 0.030263819 0.73900008 2.0475001e-38
0.021847609 0.03030479 0.74000001 2.056863e-38
0.02325712 0.03030479 0.74000001 2.1211479e-38
0.024666654 0.03030479 0.74000001 2.1946165e-38
0.026146663 0.030386686 0.74200004 2.2129479e-38
0.027597113 0.030427635 0.74300003 2.2407498e-38
0.02916857 0.030591451 0.74700004 2.2590453e-38
0.030591434 0.030591458 0.74700004 2.2866677e-38
0.032014269 0.030591451 0.74700004 2.2589018e-38
0.033481907 0.030632399 0.74800003 2.2315643e-38
0.034906667 0.030632399 0.74800003 2.1944691e-38
0.036428574 0.030714303 0.75000012 2.1671704e-38
0.037857179 0.030714303 0.75000012 2.1300783e-38
0.039390478 0.030796215 0.75200003 2.0836584e-38
0.040985707 0.030919068 0.75500005 2.0744748e-38
0.042480003 0.030960009 0.7560001 2.0654349e-38
0.044036213 0.03104192 0.75800002 2.0745467e-38
0.045659959 0.031164773 0.76100004 2.0752289e-38
0.04710947 0.031164773 0.76100004 2.1485184e-38
-0.035606649 0.03270001 0.76300001 1.5118648e-38
-0.034019064 0.032571465 0.76000005 1.5585724e-38
-0.032485709 0.032485731 0.75800002 1.5949125e-38
-0.031041885 0.032485731 0.75800002 1.622428e-38
-0.029598089 0.032485738 0.75800002 1.6403968e-38
-0.028080007 0.032400012 0.75600004 1.52976e-38
-0.026604785 0.032357164 0.75500005 1.4100538e-38
-0.025100002 0.032271445 0.75300002 1.2900249e-38
-0.023634283 0.032228589 0.75200003 1.16178e-38
-0.02214285 0.03214287 0.75000012 1.3178664e-38
-0.020659035 0.032057166 0.74800003 1.46624e-38
-0.01920859 0.032014303 0.74700004 1.6420565e-38
-0.017738095 0.031928591 0.74500006 1.8165814e-38
-0.01631905 0.031928591 0.74500012 1.7891398e-38
-0.014900007 0.031928584 0.74500006 1.7527291e-38
-0.013444785 0.031842858 0.74300009 1.7435103e-38
-0.012029564 0.031842873 0.74300003 1.7255018e-38
-0.010614312 0.031842873 0.74300003 1.7620923e-38
-0.0091867028 0.031800009 0.74199998 1.7899655e-38
-0.007752392 0.031714313 0.74000001 1.8083325e-38
-0.0063428809 0.031714298 0.74000001 1.8175522e-38
-0.0049333437 0.031714305 0.74000001 1.8632909e-38
-0.0035190559 0.03167145 0.73900002 1.909711e-38
-0.0021057292 0.031585731 0.73700005 1.9280424e-38
-0.0007019093 0.031585738 0.73700005 1.9465171e-38
0.00070188812 0.031585731 0.73700005 1.9463377e-38
0.0021057096 0.031585738 0.73700005 1.9373695e-38
0.0035095052 0.031585731 0.73700005 1.9831438e-38
0.0049133268 0.031585731 0.73700005 2.0199857e-38
0.0063171522 0.031585723 0.73700011 2.0562895e-38
0.0077209738 0.031585723 0.73700011 2.0843063e-38
0.0091247698 0.031585731 0.73700011 2.1212198e-38
0.010528567 0.031585716 0.73700011 2.1578106e-38
0.011932389 0.031585723 0.73700011 2.1668149e-38
0.013336184 0.031585723 0.73700011 2.1762137e-38
0.014779984 0.031671457 0.73900002 2.2589733e-38
0.016187597 0.031671442 0.73900002 2.341733e-38
0.01761906 0.031714305 0.74000001 2.341769e-38
0.019002827 0.031671457 0.73900002 2.3416971e-38
0.020438107 0.031714313 0.74000001 2.3417687e-38
0.021847587 0.031714305 0.73999995 2.3417328e-38
0.023257123 0.031714313 0.73999995 2.3417687e-38
0.024733296 0.031800009 0.74200004 2.3417328e-38
0.026146648 0.031800017 0.74199998 2.3417689e-38
0.027671425 0.031928584 0.74500006 2.341769e-38
0.029168552 0.032014303 0.74700004 2.341769e-38
0.030632379 0.032057159 0.74800003 2.341769e-38
0.03205717 0.032057151 0.74800009 2.3417331e-38
0.0334819 0.032057166 0.74800003 2.3417677e-38
0.034906682 0.032057166 0.74800003 2.3050324e-38
0.036428567 0.032142878 0.75000006 2.2587559e-38
0.037857149 0.032142878 0.75000012 2.047104e-38
0.039442878 0.03227143 0.75300002 1.8261245e-38
0.040985696 0.032357171 0.75500005 1.8070397e-38
0.042592395 0.032485731 0.75800008 1.7889597e-38
0.044152386 0.032571457 0.76000005 1.7978207e-38
0.045659978 0.032614306 0.76100004 1.8076145e-38
0.047233343 0.032700025 0.76300001 1.945727e-38
-0.035606671 0.03415335 0.76300001 1.4851407e-38
-0.034019046 0.034019068 0.76000011 1.4479401e-38
-0.032571431 0.034019075 0.76000005 1.4115277e-38
-0.031123817 0.034019068 0.76000005 1.4845643e-38
-0.029598109 0.033929542 0.75800002 1.5575584e-38
-0.028080011 0.033840016 0.75600004 1.3916006e-38
-0.026604762 0.033795245 0.75500005 1.2250112e-38
-0.025099995 0.033705734 0.75300002 9.2178044e-39
-0.023634277 0.033660956 0.75200009 6.2765854e-39
-0.022142855 0.033571452 0.75000012 7.845709e-39
-0.020714277 0.033571437 0.75000012 9.4119655e-39
-0.019234288 0.033481926 0.74800003 1.1719003e-38
-0.017785747 0.033437163 0.74700004 1.3935283e-38
-0.016362883 0.033437163 0.74700004 1.5866011e-38
-0.014900004 0.033347636 0.74500006 1.7801729e-38
-0.013444767 0.033258103 0.74300003 1.8814786e-38
-0.012029543 0.033258103 0.74300009 1.9921833e-38
-0.010614321 0.03325811 0.74300003 2.0288455e-38
-0.0091990959 0.03325811 0.74300003 2.0654e-38
-0.007773357 0.033213347 0.74200004 2.0747625e-38
-0.0063428772 0.033123836 0.74000001 2.0836951e-38
-0.0049333661 0.033123836 0.74000001 2.1024209e-38
-0.003519054 0.033079073 0.73900002 2.1301514e-38
-0.0021057106 0.032989532 0.73700011 2.1394071e-38
-0.00070188881 0.032989524 0.73700011 2.148483e-38
0.00070190674 0.032989539 0.73700011 2.1394429e-38
0.0021057301 0.032989532 0.73700005 2.1395148e-38
0.0035095257 0.032989539 0.73700011 2.1578821e-38
0.0049133212 0.032989539 0.73700011 2.1853971e-38
0.0063171429 0.032989547 0.73700005 2.1945808e-38
0.0077209384 0.032989547 0.73700005 2.2131992e-38
0.0091247605 0.032989532 0.73700005 2.2315305e-38
0.010528556 0.032989547 0.73700005 2.2499335e-38
0.01193238 0.032989539 0.73700005 2.2590094e-38
0.013336175 0.032989539 0.73700005 2.2591171e-38
0.014779988 0.033079058 0.73900002 2.3049989e-38
0.016209502 0.033123836 0.74000001 2.341769e-38
0.017619038 0.033123836 0.74000001 2.341769e-38
0.019028572 0.033123843 0.74000001 2.341769e-38
0.020438086 0.033123828 0.74000001 2.341769e-38
0.021847596 0.033123836 0.74000001 2.341769e-38
0.023257131 0.033123836 0.74000001 2.341769e-38
0.024733311 0.033213347 0.74200004 2.341769e-38
0.026181867 0.03325811 0.74300003 2.341769e-38
0.027671425 0.033347644 0.74500006 2.341769e-38
0.029168565 0.033437163 0.74700004 2.341769e-38
0.030632395 0.033481926 0.74800003 2.341769e-38
0.032057155 0.033481918 0.74800009 2.3417689e-38
0.033481941 0.033481918 0.74800009 2.3417687e-38
0.034906674 0.033481933 0.74800003 2.2864519e-38
0.036428593 0.033571444 0.75000012 2.2402107e-38
0.037857141 0.033571437 0.75000006 2.0377415e-38
0.03939046 0.033660963 0.75200003 1.8350571e-38
0.040985718 0.033795252 0.75500005 1.7428263e-38
0.042704757 0.034019075 0.76000005 1.6600671e-38
0.044210456 0.034063809 0.76100004 1.6598163e-38
0.04565997 0.034063816 0.76100004 1.6596732e-38
-0.034019057 0.035466686 0.76000005 1.3365143e-38
-0.032571442 0.035466693 0.76000005 1.2168422e-38
-0.031164808 0.035513349 0.76100004 1.3466686e-38
-0.029676212 0.035466693 0.76000005 1.4751269e-38
-0.02815428 0.035373352 0.75800008 1.2632198e-38
-0.026604773 0.035233356 0.75500005 1.042063e-38
-0.02510001 0.035140015 0.75300002 5.6279832e-39
-0.023665747 0.035140023 0.75300002 8.5865965e-40
-0.022201901 0.035093345 0.75200009 2.5153097e-39
-0.020714281 0.035000019 0.75000012 4.1697976e-39
-0.019234275 0.034906685 0.74800003 6.9245164e-39
-0.017785707 0.034860022 0.74700004 9.6939375e-39
-0.016362846 0.034860007 0.7470001 1.3835869e-38
-0.014900006 0.034766689 0.74500006 1.7973141e-38
-0.013480962 0.034766674 0.74500006 2.0284466e-38
-0.012029551 0.034673341 0.74300009 2.2583606e-38
-0.010614297 0.034673341 0.74300009 2.3048549e-38
-0.0091990763 0.034673341 0.74300003 2.3414812e-38
-0.0077733709 0.034626685 0.74200004 2.3415887e-38
-0.0063428688 0.034533352 0.74000001 2.341481e-38
-0.0049333326 0.034533359 0.74000001 2.3417682e-38
-0.0035190522 0.034486681 0.73900008 2.3416607e-38
-0.0021057199 0.034393363 0.73700005 2.3417686e-38
-0.0007019242 0.034393355 0.73700005 2.341661e-38
0.00070189743 0.03439334 0.73700005 2.3417686e-38
0.0021056929 0.034393348 0.73700005 2.3417327e-38
0.0035095164 0.034393355 0.73700005 2.3417687e-38
0.0049133119 0.034393355 0.73700005 2.341697e-38
0.0063171634 0.034393355 0.73700011 2.3417689e-38
0.0077209589 0.03439334 0.73700011 2.341769e-38
0.009124781 0.03439334 0.73700011 2.341769e-38
0.010528577 0.034393348 0.73700011 2.341769e-38
0.011932372 0.034393348 0.73700011 2.341769e-38
0.013372374 0.034486681 0.73900008 2.341769e-38
0.01479997 0.034533359 0.74000001 2.341769e-38
0.016209505 0.034533367 0.74000001 2.341769e-38
0.017619016 0.034533367 0.74000001 2.341769e-38
0.019028554 0.034533359 0.74000001 2.341769e-38
0.02043809 0.034533359 0.74000001 2.341769e-38
0.021906668 0.03462667 0.74200004 2.341769e-38
0.023319969 0.034626693 0.74199998 2.341769e-38
0.024733296 0.034626693 0.74199998 2.341769e-38
0.026252385 0.034766689 0.74500006 2.341769e-38
0.02767143 0.034766674 0.74500012 2.341769e-38
0.029207652 0.034906685 0.74800009 2.341769e-38
0.030632384 0.034906693 0.74800003 2.341769e-38
0.03205717 0.034906678 0.74800003 2.341769e-38
0.033481929 0.034906685 0.74800009 2.341697e-38
0.035000011 0.035000026 0.75000006 2.2771607e-38
0.036428589 0.035000019 0.75000006 2.2127314e-38
0.038008552 0.03514003 0.75300002 2.0285213e-38
0.039547626 0.035233349 0.75500005 1.8348755e-38
0.041039985 0.035280019 0.7560001 1.6783586e-38
0.042704772 0.035466686 0.76000011 1.5218442e-38
0.044210453 0.035513341 0.76100004 1.5216655e-38
0.045659963 0.035513349 0.76100004 1.5125546e-38
0.047109503 0.035513356 0.76100004 1.4941883e-38
-0.034242868 0.037157148 0.7650001 6.7271239e-39
-0.032785717 0.037157163 0.7650001 6.1657399e-39
-0.03132857 0.037157148 0.76500005 1.0700867e-38
-0.029793352 0.037060007 0.76300001 1.5217673e-38
-0.028228579 0.036914304 0.76000011 1.401951e-38
-0.026710479 0.036817163 0.75800002 1.2825627e-38
-0.025200004 0.036720015 0.7560001 8.7669057e-39
-0.023728589 0.036671445 0.75500005 4.8101069e-39
-0.022231445 0.036574297 0.75300002 5.265358e-39
-0.020769529 0.036525726 0.75200009 5.8167269e-39
-0.019285707 0.036428586 0.75000012 6.2812811e-39
-0.017809527 0.036331438 0.74800003 6.8351472e-39
-0.016362863 0.036282875 0.74700004 9.9604057e-39
-0.014900031 0.036185727 0.74500006 1.3174675e-38
-0.013480962 0.036185727 0.74500006 1.5858737e-38
-0.012061917 0.036185727 0.74500006 1.8629997e-38
-0.010642847 0.036185734 0.74500006 2.083948e-38
-0.0091990549 0.036088586 0.74300009 2.3050348e-38
-0.0077838595 0.036088578 0.74300003 2.323366e-38
-0.0063600265 0.036040008 0.74200004 2.341769e-38
-0.00494667 0.036040023 0.74200004 2.341769e-38
-0.0035238168 0.035942875 0.74000001 2.341769e-38
-0.0021114643 0.035894319 0.73900002 2.341769e-38
-0.0007038241 0.035894312 0.73900002 2.341769e-38
0.00070191978 0.035797156 0.73700011 2.341769e-38
0.0021057152 0.035797156 0.73700011 2.341769e-38
0.0035095369 0.035797164 0.73700005 2.341769e-38
0.0049133343 0.035797171 0.73700005 2.341769e-38
0.0063171298 0.035797156 0.73700005 2.341769e-38
0.0077209496 0.035797164 0.73700005 2.341769e-38
0.0091247456 0.035797164 0.73700005 2.341769e-38
0.010528567 0.035797156 0.73700005 2.341769e-38
0.011964762 0.035894305 0.73900008 2.341769e-38
0.013372376 0.035894297 0.73900008 2.341769e-38
0.014800004 0.035942875 0.74000001 2.3325854e-38
0.016209513 0.035942882 0.74000001 2.3325854e-38
0.017666643 0.036040016 0.74199998 2.3325854e-38
0.01907997 0.036040016 0.74200004 2.3325854e-38
0.020438069 0.035942882 0.73999995 2.341769e-38
0.021906653 0.036040023 0.74200004 2.341769e-38
0.023319984 0.03604003 0.74200004 2.341769e-38
0.024733316 0.036040008 0.74200004 2.341769e-38
0.026181882 0.036088571 0.74300009 2.341769e-38
0.027671432 0.036185719 0.74500006 2.341769e-38
0.029090475 0.036185727 0.74500012 2.341769e-38
0.030632371 0.036331445 0.74800003 2.341769e-38
0.032142855 0.036428586 0.75000006 2.341769e-38
0.033571437 0.036428586 0.75000012 2.3417687e-38
0.035000011 0.036428593 0.75000012 2.2680489e-38
0.036525711 0.036525734 0.75200003 2.1947944e-38
0.037958104 0.036525719 0.75200003 2.0191935e-38
0.039442852 0.036574304 0.75300002 1.843483e-38
0.041039981 0.036720015 0.7560001 1.714838e-38
0.042479984 0.036720008 0.75600004 1.5854442e-38
0.044210471 0.036962867 0.76100004 1.5766561e-38
0.045659982 0.036962859 0.76100004 1.576765e-38
0.047233351 0.037060007 0.76300007 1.5309203e-38
-0.034242857 0.03861431 0.76500005 9.2344168e-41
-0.03270001 0.038513344 0.76300001 1.1284236e-40
-0.031164797 0.038412396 0.76100004 7.952991e-39
-0.029793322 0.038513348 0.76300007 1.5676156e-38
-0.028228594 0.038361918 0.76000005 1.5494655e-38
-0.026710499 0.03826097 0.75800002 1.5212308e-38
-0.025200007 0.038160011 0.7560001 1.1987282e-38
-0.023728566 0.038109537 0.75500005 8.6740179e-39
-0.022231461 0.038008589 0.75300002 8.0103517e-39
-0.02076955 0.0379581 0.75200003 7.3836602e-39
-0.019285712 0.037857164 0.75000006 5.6398746e-39
-0.017809512 0.037756205 0.74800003 3.8942883e-39
-0.016384754 0.037756205 0.74800009 6.0875824e-39
-0.014940019 0.037705734 0.74700004 8.3135254e-39
-0.013480957 0.037604772 0.74500012 1.1437376e-38
-0.012061916 0.037604786 0.74500006 1.4579168e-38
-0.010642873 0.037604786 0.74500006 1.8629271e-38
-0.0092238029 0.037604783 0.74500006 2.2669692e-38
-0.007783812 0.037503816 0.74300009 2.3050327e-38
-0.0063686161 0.037503824 0.74300003 2.3417321e-38
-0.0049467101 0.037453346 0.74200004 2.341769e-38
-0.0035238392 0.037352413 0.74000001 2.341769e-38
-0.0021114345 0.037301928 0.73900002 2.341769e-38
-0.00070382038 0.037301928 0.73900002 2.341769e-38
0.0007037936 0.037301913 0.73900002 2.341769e-38
0.0021114075 0.037301913 0.73900002 2.341769e-38
0.0035094996 0.037200972 0.73700005 2.341769e-38
0.004913351 0.037200965 0.73700011 2.341769e-38
0.0063171485 0.037200965 0.73700011 2.341769e-38
0.0077418913 0.03730192 0.73900002 2.341769e-38
0.0091495058 0.037301913 0.73900002 2.341769e-38
0.01055712 0.037301928 0.73900002 2.341769e-38
0.011964736 0.037301928 0.73900002 2.341769e-38
0.013390471 0.037352413 0.74000001 2.3417689e-38
0.014839974 0.037453339 0.74200004 2.332585e-38
0.016253306 0.037453339 0.74200004 2.3141104e-38
0.017666658 0.037453353 0.74200004 2.32333e-38
0.019079989 0.037453339 0.74200004 2.323366e-38
0.020493316 0.037453339 0.74200004 2.3325854e-38
0.021906646 0.037453339 0.74200004 2.341769e-38
0.023319999 0.037453339 0.74200004 2.341769e-38
0.02476665 0.037503809 0.74300003 2.341769e-38
0.026252361 0.037604779 0.74500006 2.341769e-38
0.027745707 0.037705723 0.74700004 2.341769e-38
0.02920763 0.037756197 0.74800009 2.341769e-38
0.030714301 0.037857171 0.75000006 2.341769e-38
0.032142881 0.037857156 0.75000012 2.341769e-38
0.03357143 0.037857171 0.75000006 2.3416249e-38
0.035000008 0.037857164 0.75000012 2.2585061e-38
0.036525719 0.037958104 0.75200009 2.1759249e-38
0.038008574 0.038008589 0.75300002 2.0191937e-38
0.039547611 0.038109541 0.75500005 1.8533854e-38
0.041040003 0.038160007 0.7560001 1.7520772e-38
0.04287336 0.03851334 0.76300001 1.6413728e-38
0.044326663 0.038513344 0.76300001 1.6411582e-38
0.045780025 0.038513336 0.76300007 1.6322626e-38
-0.034332391 0.040176202 0.76700002 2.3939475e-39
-0.032785699 0.040071439 0.7650001 1.0673971e-40
-0.031164804 0.039861914 0.76100004 7.6706812e-39
-0.029715294 0.039861921 0.76100004 1.5314938e-38
-0.028228607 0.039809551 0.76000005 1.5493974e-38
-0.026710464 0.039704777 0.75800008 1.5766586e-38
-0.025200009 0.039600015 0.7560001 1.383694e-38
-0.023728602 0.039547645 0.75500005 1.1908712e-38
-0.022231452 0.039442886 0.75300002 1.1524826e-38
-0.02076952 0.039390489 0.75200003 1.1169353e-38
-0.019337147 0.039390471 0.75200009 9.0496331e-39
-0.01785714 0.039285734 0.75000006 7.024258e-39
-0.016384767 0.039180968 0.74800003 1.0429731e-38
-0.014940006 0.039128598 0.74700004 1.3849518e-38
-0.013480958 0.039023824 0.74500006 1.4764634e-38
-0.012061913 0.039023817 0.74500012 1.5772648e-38
-0.010642842 0.03902382 0.74500012 1.3553865e-38
-0.009223829 0.039023831 0.74500006 1.1438459e-38
-0.0077838204 0.038919058 0.74300009 1.4208987e-38
-0.0063685928 0.038919054 0.74300009 1.6988108e-38
-0.004953342 0.038919054 0.74300009 1.9645977e-38
-0.0035333405 0.03886668 0.74200004 2.2315664e-38
-0.0021143234 0.038761932 0.73999995 2.2866677e-38
-0.00070478523 0.038761936 0.73999995 2.341769e-38
0.00070379546 0.038709544 0.73900008 2.341769e-38
0.0021114093 0.038709547 0.73900008 2.341769e-38
0.0035190494 0.038709547 0.73900002 2.341769e-38
0.0049266652 0.038709536 0.73900002 2.341769e-38
0.0063342792 0.03870954 0.73900002 2.341769e-38
0.0077418932 0.038709544 0.73900002 2.341769e-38
0.0091495076 0.038709544 0.73900002 2.341769e-38
0.010557122 0.038709551 0.73900008 2.341769e-38
0.011980941 0.038761929 0.74000001 2.341769e-38
0.013390451 0.038761929 0.74000001 2.3417686e-38
0.014839989 0.038866673 0.74200004 2.332477e-38
0.016253321 0.038866676 0.74200004 2.3321903e-38
0.017666643 0.038866688 0.74199998 2.3324775e-38
0.019079974 0.03886668 0.74199998 2.3325494e-38
0.020493301 0.038866684 0.74200004 2.341769e-38
0.021906631 0.038866684 0.74200004 2.341769e-38
0.023319986 0.038866691 0.74200004 2.341769e-38
0.024766643 0.038919054 0.74300003 2.3325854e-38
0.026252391 0.03902382 0.74500006 2.341769e-38
0.027745688 0.039128594 0.74700004 2.341769e-38
0.029207617 0.039180964 0.74800003 2.341769e-38
0.030714272 0.039285734 0.75000006 2.341769e-38
0.032142874 0.039285738 0.75000006 2.341769e-38
0.033571456 0.039285723 0.75000012 2.3417323e-38
0.035 0.039285731 0.75000006 2.2586848e-38
0.036525693 0.039390482 0.75200003 2.1669204e-38
0.038008582 0.039442878 0.75300002 2.0195885e-38
0.039547633 0.03954763 0.75500005 1.8722562e-38
0.041040003 0.039600007 0.7560001 1.7521517e-38
0.042873334 0.039966684 0.76300001 1.6327298e-38
0.044326693 0.039966665 0.76300007 1.6417341e-38
0.045780025 0.039966673 0.76300007 1.6607117e-38
-0.034377154 0.041691437 0.76800001 4.7759517e-39
-0.032871429 0.04163716 0.76700008 1.1500176e-40
-0.031246653 0.041420009 0.76300007 7.4920352e-39
-0.0297153 0.041311447 0.76100004 1.4847871e-38
-0.028228564 0.041257169 0.76000005 1.5583302e-38
-0.02671046 0.041148584 0.75800002 1.6232243e-38
-0.025200013 0.041040014 0.7560001 1.568553e-38
-0.023728609 0.040985733 0.75500005 1.5120841e-38
-0.022231441 0.040877145 0.75300002 1.5010308e-38
-0.02076951 0.040822864 0.75200009 1.4842797e-38
-0.019337144 0.040822875 0.75200003 1.2548001e-38
-0.017857114 0.040714305 0.75000012 1.0155291e-38
-0.016384752 0.040605724 0.74800003 1.4757147e-38
-0.014940026 0.040551454 0.74700004 1.9272147e-38
-0.013517162 0.040551458 0.74700004 1.8182673e-38
-0.012061913 0.040442873 0.74500006 1.6959716e-38
-0.010642868 0.040442873 0.74500006 8.5585243e-39
-0.0092237983 0.040442877 0.74500006 1.2331286e-40
-0.0077838269 0.040334292 0.74300003 5.2672007e-39
-0.0063685752 0.040334295 0.74300003 1.0430791e-38
-0.0049533495 0.040334295 0.74300009 1.5770161e-38
-0.0035380977 0.040334299 0.74300009 2.110167e-38
-0.0021200231 0.040280011 0.74200004 2.2315649e-38
-0.00070669444 0.040280018 0.74200004 2.3413019e-38
0.00070663413 0.040280018 0.74200004 2.341769e-38
0.0021142685 0.040171444 0.74000001 2.341769e-38
0.0035333191 0.040280022 0.74200004 2.341769e-38
0.0049333186 0.040171448 0.74000001 2.341769e-38
0.006342853 0.040171459 0.74000001 2.341769e-38
0.007752365 0.040171459 0.74000001 2.341769e-38
0.0091618998 0.040171444 0.74000001 2.341769e-38
0.010571438 0.040171448 0.74000001 2.341769e-38
0.01198095 0.040171448 0.74000001 2.341769e-38
0.013390484 0.040171456 0.74000001 2.3417689e-38
0.014839976 0.040280022 0.74200004 2.3417686e-38
0.016253306 0.040280007 0.74200004 2.3416611e-38
0.017666658 0.040280014 0.74200004 2.3417689e-38
0.019079989 0.040280014 0.74200004 2.341769e-38
0.020493319 0.040280018 0.74200004 2.341769e-38
0.021906648 0.040280018 0.74200004 2.3417689e-38
0.023351409 0.040334295 0.74300003 2.3325136e-38
0.024766637 0.040334292 0.74300003 2.32333e-38
0.026181886 0.040334292 0.74300003 2.3325854e-38
0.027671432 0.04044288 0.74500006 2.341769e-38
0.029207632 0.040605731 0.74800003 2.341769e-38
0.030714298 0.040714309 0.75000012 2.341769e-38
0.032142848 0.040714301 0.75000006 2.341769e-38
0.033571426 0.040714301 0.75000012 2.3415528e-38
0.035093334 0.040822878 0.75200003 2.2491425e-38
0.036574278 0.040877156 0.75300002 2.1575564e-38
0.038109541 0.040985733 0.75500005 2.019981e-38
0.039547596 0.040985737 0.75500005 1.8809725e-38
0.041257162 0.041257162 0.76000011 1.7514703e-38
0.042873364 0.041420005 0.76300007 1.6139685e-38
0.044326697 0.041420009 0.76300007 1.650739e-38
0.045780025 0.041420002 0.76300001 1.6785413e-38
-0.036026698 0.043379065 0.77200001 9.8599185e-39
-0.034332376 0.0430981 0.76700008 7.6490605e-39
-0.03287141 0.043098111 0.76700008 5.533666e-39
-0.031328555 0.042985722 0.7650001 9.0467829e-39
-0.02979332 0.042873349 0.76300001 1.2552345e-38
-0.028228577 0.042704798 0.76000005 1.4026048e-38
-0.02671048 0.042592403 0.75800002 1.5413639e-38
-0.025200015 0.042480014 0.7560001 1.5039136e-38
-0.023728589 0.042423815 0.75500005 1.4664216e-38
-0.02223143 0.042311437 0.75300002 1.4843536e-38
-0.020769533 0.042255238 0.75200003 1.5133753e-38
-0.019337136 0.042255245 0.75200009 1.3745819e-38
-0.017857144 0.042142879 0.75000012 1.2352545e-38
-0.016384766 0.042030491 0.74800003 1.5311055e-38
-0.014940013 0.04197431 0.74700004 1.8360281e-38
-0.013517151 0.041974295 0.74700004 1.7808191e-38
-0.012061912 0.041861925 0.74500006 1.7243496e-38
-0.010642869 0.041861914 0.74500006 8.7608577e-39
-0.0092238244 0.041861914 0.74500006 3.9199643e-40
-0.0077838353 0.041749533 0.74300003 2.8729968e-39
-0.0063685835 0.041749537 0.74300003 5.3507349e-39
-0.0049533579 0.041749533 0.74300009 9.2203533e-39
-0.003538107 0.041749518 0.74300009 1.2985306e-38
-0.0021200082 0.041693345 0.74200004 1.4101379e-38
-0.00070667954 0.041693348 0.74200004 1.5224944e-38
0.00070665276 0.041693352 0.74200004 1.7150276e-38
0.0021199775 0.041693352 0.74199998 1.9101422e-38
0.0035333061 0.041693352 0.74199998 2.1117139e-38
0.0049466346 0.041693352 0.74200004 2.3234019e-38
0.0063599651 0.041693356 0.74200004 2.3325854e-38
0.0077523687 0.041580983 0.74000001 2.341769e-38
0.0091618793 0.041580983 0.74000001 2.341769e-38
0.010599979 0.041693348 0.74200004 2.341769e-38
0.012013308 0.041693348 0.74200004 2.341769e-38
0.013426662 0.041693348 0.74200004 2.341769e-38
0.014839991 0.04169336 0.74200004 2.341769e-38
0.016253321 0.041693341 0.74200004 2.341769e-38
0.017666621 0.041693356 0.74199998 2.341769e-38
0.019079974 0.041693356 0.74199998 2.341769e-38
0.020493304 0.041693345 0.74199998 2.341769e-38
0.021906633 0.041693367 0.74200004 2.3417689e-38
0.023351403 0.041749533 0.74300003 2.3416968e-38
0.024766626 0.041749537 0.74300003 2.3324059e-38
0.026181879 0.041749537 0.74300003 2.3417331e-38
0.027671406 0.041861922 0.74500006 2.341769e-38
0.029207619 0.042030498 0.74800003 2.341769e-38
0.03071429 0.042142872 0.75000006 2.341769e-38
0.032228578 0.042255253 0.75200009 2.341769e-38
0.033660945 0.042255256 0.75200003 2.341768e-38
0.035139997 0.042311434 0.75300002 2.2402099e-38
0.036574289 0.042311437 0.75300002 2.1482641e-38
0.038109507 0.042423818 0.75500005 1.9824553e-38
0.039599989 0.042480014 0.75600004 1.8158257e-38
0.041257147 0.042704787 0.76000005 1.6962616e-38
0.042760927 0.042760968 0.76100004 1.5862748e-38
0.044210438 0.042760976 0.76100004 1.6230454e-38
0.045780025 0.042873345 0.76300001 1.6598878e-38
-0.037545715 0.044907629 0.77300006 8.7539171e-39
-0.036026683 0.044849526 0.77200001 1.0324854e-38
-0.034332387 0.044559062 0.76700008 1.0610813e-38
-0.032871444 0.044559065 0.76700008 1.087988e-38
-0.031328574 0.044442862 0.7650001 1.0609056e-38
-0.029871428 0.044442873 0.76500005 1.0249638e-38
-0.028339988 0.044326674 0.76300007 1.2463049e-38
-0.026780946 0.044152398 0.76000005 1.4576351e-38
-0.025199993 0.043920007 0.7560001 1.4393408e-38
-0.023728598 0.043861926 0.75500005 1.4203977e-38
-0.022231447 0.043745726 0.75300002 1.474959e-38
-0.020769525 0.04368763 0.75200009 1.5313161e-38
-0.019337161 0.043687619 0.75200003 1.4949409e-38
-0.017857147 0.04357145 0.75000006 1.4482359e-38
-0.016428569 0.043571446 0.75000012 1.5957129e-38
-0.014959992 0.043455254 0.74800003 1.7344349e-38
-0.013517167 0.043397166 0.74700004 1.7446589e-38
-0.012094306 0.043397166 0.74700004 1.7421785e-38
-0.010642838 0.043280959 0.74500006 9.0327741e-39
-0.0092238234 0.04328097 0.74500006 6.6785184e-40
-0.0078047807 0.043280967 0.74500006 4.8166832e-40
-0.0063685919 0.043164771 0.74300003 3.0338953e-40
-0.0049533672 0.043164775 0.74300009 2.5917548e-39
-0.0035381126 0.043164775 0.74300009 4.9005691e-39
-0.0021200213 0.043106679 0.74199998 5.9706805e-39
-0.00070669071 0.043106675 0.74200004 7.0195987e-39
0.00070663786 0.043106679 0.74200004 1.0856945e-38
0.0021199663 0.043106683 0.74200004 1.4653071e-38
0.003533321 0.043106675 0.74200004 1.8807213e-38
0.0049466514 0.043106671 0.74200004 2.2941265e-38
0.00635998 0.043106675 0.74200004 2.3234011e-38
0.0077733085 0.043106675 0.74200004 2.3416251e-38
0.0091866655 0.043106683 0.74200004 2.341769e-38
0.010599964 0.043106683 0.74199998 2.341769e-38
0.012013295 0.043106679 0.74200004 2.341769e-38
0.013426649 0.043106683 0.74199998 2.341769e-38
0.01483998 0.043106683 0.74200004 2.341769e-38
0.016253306 0.04310669 0.74200004 2.341769e-38
0.017666636 0.043106675 0.74200004 2.341769e-38
