# .PCD v0.7 - Point Cloud Data file format
VERSION 0.7
FIELDS x y z rgb
SIZE 4 4 4 4
TYPE F F F F
COUNT 1 1 1 1
WIDTH 974
HEIGHT 1
VIEWPOINT 0 0 0 1 0 0 0
POINTS 974
DATA ascii
0.021818087 0.031671442 0.73900002 2.3417689e-38
0.023225714 0.031671442 0.73900002 2.341769e-38
0.024666678 0.03171429 0.74000001 2.3416612e-38
0.026146654 0.031800009 0.74199998 2.3417686e-38
0.027597118 0.03184288 0.74299997 2.3417689e-38
0.029090481 0.031928584 0.74500006 2.341769e-38
0.030591398 0.03201431 0.74699998 2.341769e-38
0.032014277 0.03201431 0.74700004 2.341769e-38
0.033481903 0.032057159 0.74799997 2.3415525e-38
0.034906663 0.032057151 0.74799997 2.1939689e-38
0.03642856 0.032142855 0.75000006 2.0378122e-38
0.037857145 0.032142855 0.75000006 1.92743e-38
0.039390463 0.032228597 0.75199997 1.8169036e-38
0.040985703 0.032357141 0.75500005 1.7885987e-38
0.042592376 0.032485716 0.75800002 1.7521875e-38
0.044152386 0.032571442 0.75999999 1.7607254e-38
0.04565997 0.032614313 0.76099998 1.7708057e-38
0.047233324 0.032700002 0.76300001 1.9271772e-38
-0.034153353 0.034153342 0.76300001 1.4937149e-38
-0.032614335 0.034063831 0.76099998 1.6224266e-38
-0.031123824 0.03401906 0.75999999 1.7058662e-38
-0.029598087 0.033929527 0.75800002 1.7982423e-38
-0.028154302 0.033929527 0.75800002 1.7518247e-38
-0.02664002 0.033840016 0.75599998 1.6964002e-38
-0.025100002 0.033705719 0.75300002 1.7150537e-38
-0.023665711 0.033705726 0.75300002 1.7334928e-38
-0.022201922 0.033660971 0.75199997 1.5030434e-38
-0.02071429 0.03357143 0.75 1.2823536e-38
-0.0192343 0.033481918 0.74799997 1.1711488e-38
-0.017738121 0.033347629 0.745 1.0693749e-38
-0.016319053 0.033347636 0.74500006 1.0609788e-38
-0.014900006 0.033347636 0.74500006 1.0614121e-38
-0.013444802 0.033258103 0.74299997 1.2920081e-38
-0.012029544 0.03325811 0.74299997 1.5320369e-38
-0.010614306 0.033258118 0.74299997 1.6883735e-38
-0.0091866693 0.03321334 0.74200004 1.8547176e-38
-0.0077523743 0.033123821 0.74000001 1.9460866e-38
-0.0063428781 0.033123821 0.74000001 2.0467468e-38
-0.0049266904 0.033079058 0.73900002 2.0932383e-38
-0.0035190503 0.033079058 0.73900002 2.1395506e-38
-0.0021057059 0.032989524 0.73700005 2.1486263e-38
-0.0007019029 0.032989532 0.73700005 2.1486265e-38
0.00070189359 0.032989532 0.73699999 2.1486266e-38
0.0021057124 0.032989539 0.73699999 2.1578462e-38
0.0035047657 0.032944776 0.73600006 2.1671016e-38
0.0049066632 0.032944784 0.73600006 2.1854686e-38
0.0063171354 0.032989524 0.73700005 2.1670296e-38
0.0077209524 0.032989532 0.73700005 2.1394072e-38
0.0091247689 0.032989539 0.73700005 2.1670295e-38
0.010528573 0.032989517 0.73700005 2.2036922e-38
0.011932389 0.032989532 0.73700005 2.2222029e-38
0.013336208 0.032989532 0.73700005 2.2499332e-38
0.014780004 0.033079058 0.73900002 2.2590094e-38
0.016187608 0.033079073 0.73899996 2.2774842e-38
0.01759522 0.033079065 0.73899996 2.3050348e-38
0.019002846 0.033079058 0.73900002 2.341769e-38
0.020410473 0.033079058 0.73900002 2.341769e-38
0.021818079 0.033079073 0.73899996 2.341769e-38
0.023257144 0.033123821 0.74000001 2.341769e-38
0.024666656 0.033123814 0.73999995 2.341769e-38
0.026146665 0.033213355 0.74200004 2.341769e-38
0.02759712 0.03325811 0.74299997 2.341769e-38
0.029168565 0.033437155 0.74700004 2.341769e-38
0.030591421 0.033437163 0.74699998 2.341769e-38
0.032014281 0.033437163 0.74699998 2.341769e-38
0.033481903 0.033481918 0.74799997 2.3417683e-38
0.034906663 0.033481911 0.74799997 2.2219508e-38
0.036428563 0.03357143 0.75000006 2.1021691e-38
0.037857138 0.033571437 0.75000006 1.9364336e-38
0.039547615 0.033795252 0.75500005 1.7796294e-38
0.041039985 0.033840016 0.75599998 1.715163e-38
0.042704776 0.034019053 0.76000005 1.6510229e-38
0.044210441 0.034063838 0.76099998 1.6414817e-38
0.045659989 0.034063824 0.76099998 1.641446e-38
-0.035793334 0.035793349 0.76699996 1.410953e-38
-0.034242868 0.035700001 0.76499999 1.6414405e-38
-0.032700017 0.035606667 0.76300001 1.8619882e-38
-0.031164788 0.035513364 0.76099998 1.9179136e-38
-0.029676173 0.035466678 0.76000005 1.9723333e-38
-0.028154301 0.035373338 0.75800002 1.8986498e-38
-0.026640028 0.035280012 0.75599998 1.8156401e-38
-0.0251 0.035140015 0.75300002 1.8259369e-38
-0.023665715 0.035140023 0.75300002 1.8340812e-38
-0.022201937 0.035093352 0.75199997 1.3636408e-38
-0.020714315 0.035000011 0.75000006 8.9520901e-39
-0.019285716 0.035000011 0.75000006 6.6350473e-39
-0.017785739 0.034860015 0.74699998 4.3506394e-39
-0.016362863 0.034860007 0.74700004 4.3563805e-39
-0.014900028 0.034766681 0.745 4.3603364e-39
-0.01348096 0.034766674 0.74500006 7.6642716e-39
-0.012029544 0.034673341 0.74299997 1.0984339e-38
-0.010614307 0.034673363 0.74299997 1.4665648e-38
-0.0091866795 0.034626685 0.74199998 1.8345168e-38
-0.0077733546 0.034626663 0.74200004 2.046456e-38
-0.0063428483 0.034533359 0.74000001 2.2581815e-38
-0.0049333326 0.034533337 0.74000001 2.2958501e-38
-0.0035190578 0.034486689 0.73899996 2.3325487e-38
-0.0021057078 0.03439334 0.73700005 2.3417684e-38
-0.00070190569 0.034393355 0.73700005 2.3416968e-38
0.00070191314 0.034393333 0.73700005 2.3417686e-38
0.0021057087 0.034393348 0.73699999 2.341697e-38
0.0035095117 0.034393348 0.73699999 2.3417687e-38
0.0049133287 0.03439334 0.73699999 2.3417328e-38
0.0063171317 0.034393348 0.73700005 2.3417686e-38
0.0077209505 0.034393348 0.73700005 2.3416968e-38
0.009124767 0.03439334 0.73700005 2.3417686e-38
0.010528571 0.03439334 0.73700005 2.3416968e-38
0.011932387 0.034393333 0.73700005 2.3417687e-38
0.013336191 0.034393333 0.73700005 2.3417689e-38
0.014779994 0.034486696 0.73900002 2.341769e-38
0.016187621 0.034486674 0.73900002 2.341769e-38
0.017619058 0.034533344 0.74000001 2.341769e-38
0.019002838 0.034486681 0.73899996 2.341769e-38
0.020410463 0.034486674 0.73899996 2.341769e-38
0.021847615 0.034533344 0.74000001 2.341769e-38
0.023257125 0.034533359 0.74000001 2.341769e-38
0.024733324 0.034626685 0.74199998 2.341769e-38
0.026146663 0.03462667 0.74200004 2.341769e-38
0.027597118 0.034673348 0.74299997 2.341769e-38
0.029168554 0.034860015 0.74699998 2.341769e-38
0.030591432 0.034860015 0.74700004 2.341769e-38
0.032057133 0.034906678 0.74799997 2.341769e-38
0.033481896 0.034906685 0.74799997 2.3417684e-38
0.034906656 0.034906685 0.74799997 2.2499324e-38
0.036428571 0.034999996 0.75000006 2.157378e-38
0.038008586 0.035140008 0.75300002 1.9456528e-38
0.039547615 0.035233334 0.75500005 1.7336398e-38
0.041039988 0.035280019 0.75599998 1.6413719e-38
0.042704772 0.035466678 0.75999999 1.54943e-38
0.04421046 0.035513364 0.76099998 1.5310284e-38
0.045779981 0.035606667 0.76299995 1.5032623e-38
-0.037497163 0.037497163 0.77199996 1.3277253e-38
-0.035933346 0.037400015 0.76999998 1.4110605e-38
-0.034242891 0.03715717 0.76499999 1.4938216e-38
-0.032785714 0.037157163 0.76499999 1.5682583e-38
-0.03132857 0.037157163 0.76499999 1.4570149e-38
-0.029793346 0.037060015 0.76300001 1.3469534e-38
-0.028265741 0.036962882 0.76099998 1.1983641e-38
-0.026710495 0.036817148 0.75800002 1.0517528e-38
-0.025200032 0.036720008 0.75599998 1.4392582e-38
-0.023728583 0.036671422 0.75500005 1.8255075e-38
-0.02223143 0.036574304 0.75300002 1.5579669e-38
-0.020769546 0.036525734 0.75199997 1.2906392e-38
-0.019285738 0.036428571 0.75000006 8.8527115e-39
-0.017809536 0.03633143 0.74799997 4.7172625e-39
-0.016362876 0.036282867 0.74699998 3.7024253e-39
-0.0149 0.036185727 0.74500006 2.704066e-39
-0.013480952 0.036185719 0.74500006 5.5523929e-39
-0.012029545 0.036088593 0.74299997 8.4907561e-39
-0.010614308 0.036088601 0.74299997 9.6903432e-39
-0.0091990773 0.036088586 0.74299997 1.0886361e-38
-0.0077733453 0.036040008 0.74200004 1.4480145e-38
-0.0063600116 0.036040016 0.74199998 1.8170821e-38
-0.0049333512 0.035942882 0.74000001 2.0470689e-38
-0.0035190466 0.03589429 0.73900002 2.2774835e-38
-0.0021057106 0.035797141 0.73700005 2.3142183e-38
-0.00070382887 0.035894305 0.73899996 2.341769e-38
0.00070379721 0.035894305 0.73900002 2.341769e-38
0.0021057124 0.035797141 0.73700005 2.341769e-38
0.0035095303 0.035797149 0.73700005 2.341769e-38
0.0049133268 0.035797164 0.73699999 2.341769e-38
0.0063171298 0.035797149 0.73699999 2.341769e-38
0.0077209468 0.035797156 0.73699999 2.341769e-38
0.0091247633 0.035797156 0.73699999 2.341769e-38
0.010528567 0.035797156 0.73700005 2.341769e-38
0.011932385 0.035797156 0.73700005 2.341769e-38
0.013372379 0.035894297 0.73900002 2.341769e-38
0.014779984 0.035894312 0.73899996 2.341769e-38
0.016187612 0.035894297 0.73899996 2.341769e-38
0.01761904 0.035942867 0.74000001 2.341769e-38
0.019002851 0.035894297 0.73900002 2.341769e-38
0.020438101 0.035942867 0.74000001 2.3141825e-38
0.021847611 0.035942867 0.74000001 2.2866677e-38
0.023257144 0.035942875 0.74000001 2.295636e-38
0.024733316 0.036040008 0.74199998 2.3142183e-38
0.026146671 0.036040001 0.74200004 2.3325854e-38
0.027671415 0.036185727 0.745 2.341769e-38
0.029168561 0.036282882 0.74700004 2.341769e-38
0.030591417 0.036282867 0.74699998 2.341769e-38
0.032057129 0.03633143 0.74799997 2.341769e-38
0.033481888 0.03633143 0.74799997 2.3417686e-38
0.034906648 0.036331438 0.74799997 2.2404263e-38
0.036525693 0.036525734 0.75199997 2.1388316e-38
0.038008574 0.036574312 0.75300002 1.954513e-38
0.0395476 0.03667143 0.755 1.7791628e-38
0.041148566 0.036817148 0.75800002 1.6964732e-38
0.042592376 0.036817156 0.75799996 1.6222888e-38
0.044210445 0.036962889 0.76099992 1.5768031e-38
0.045779981 0.037060007 0.76299995 1.5396737e-38
-0.037400007 0.038866669 0.76999998 1.3368704e-38
-0.035933338 0.038866665 0.77000004 1.409585e-38
-0.034332406 0.038715251 0.76699996 1.3453717e-38
-0.032785736 0.038614295 0.76499999 1.2710423e-38
-0.031246684 0.03851334 0.76300001 9.9496199e-39
-0.029793348 0.03851334 0.76300001 7.0951791e-39
-0.028265741 0.038412411 0.76099992 4.9603569e-39
-0.026710493 0.038260959 0.75800002 2.7918798e-39
-0.025200037 0.038160015 0.75599998 1.0445856e-38
-0.0237286 0.038109519 0.755 1.8072157e-38
-0.022231426 0.038008582 0.75300002 1.7521151e-38
-0.02076954 0.037958104 0.75200003 1.6865011e-38
-0.019285735 0.03785716 0.75000006 1.0968866e-38
-0.01780954 0.037756197 0.74799997 5.0820415e-39
-0.016362868 0.037705723 0.74700004 3.0311431e-39
-0.014940012 0.037705723 0.74700004 9.5125605e-40
-0.013480972 0.037604779 0.74500006 3.5338141e-39
-0.012061906 0.037604768 0.74500006 6.0133557e-39
-0.010614308 0.037503824 0.74299997 4.7183163e-39
-0.0091990773 0.037503824 0.74299997 3.4441198e-39
-0.0077733356 0.037453331 0.74200004 8.5826238e-39
-0.0063600023 0.037453339 0.74199998 1.3656888e-38
-0.0049333214 0.037352391 0.74000001 1.7977816e-38
-0.0035238243 0.037352398 0.73999995 2.2211228e-38
-0.0021114289 0.037301913 0.73900002 2.2866645e-38
-0.00070381677 0.037301913 0.73900002 2.3414445e-38
0.00070378976 0.037301913 0.73899996 2.341769e-38
0.0021114149 0.037301913 0.73899996 2.341769e-38
0.0035190419 0.037301913 0.73900002 2.341769e-38
0.0049266671 0.03730192 0.73900002 2.341769e-38
0.0063342736 0.037301928 0.73899996 2.341769e-38
0.0077418857 0.03730192 0.73899996 2.341769e-38
0.0091495113 0.03730192 0.73900002 2.341769e-38
0.010557138 0.037301898 0.73900002 2.341769e-38
0.011964745 0.03730192 0.73899996 2.341769e-38
0.013390484 0.037352398 0.74000001 2.341769e-38
0.014839995 0.037453353 0.74199998 2.341769e-38
0.016253334 0.037453331 0.74200004 2.341769e-38
0.017666653 0.037453353 0.74199998 2.341769e-38
0.019079994 0.037453346 0.74200004 2.3417331e-38
0.020493314 0.037453339 0.74199998 2.2864883e-38
0.021906668 0.037453346 0.74200004 2.2220957e-38
0.023351423 0.037503816 0.74299997 2.2581841e-38
0.024766648 0.037503824 0.74299997 2.2864523e-38
0.026181892 0.037503816 0.74299997 2.3142183e-38
0.027671428 0.037604775 0.74500006 2.341769e-38
0.029168567 0.037705727 0.74700004 2.341769e-38
0.030632358 0.037756205 0.74799991 2.341769e-38
0.03205714 0.037756193 0.74799997 2.341769e-38
0.033571426 0.037857149 0.75000006 2.3416967e-38
0.035 0.037857145 0.75000006 2.2312065e-38
0.0365257 0.037958097 0.75200003 2.1112092e-38
0.038008582 0.038008582 0.75300002 1.9636254e-38
0.039547604 0.038109526 0.75500005 1.8165081e-38
0.041148562 0.038260959 0.75800002 1.7614417e-38
0.042760938 0.0384124 0.76099998 1.6967281e-38
0.044210453 0.038412396 0.76099998 1.6325526e-38
0.045779977 0.03851334 0.76300001 1.5679072e-38
-0.037497167 0.040438112 0.77199996 9.3006533e-39
-0.03602669 0.040438108 0.77199996 8.2868517e-39
-0.034242854 0.040071435 0.76500005 9.1172934e-39
-0.03278571 0.040071428 0.76500005 1.0010543e-38
-0.031246684 0.039966673 0.76300001 6.8070665e-39
-0.029793348 0.039966669 0.76300001 3.5820734e-39
-0.028228588 0.039809536 0.75999999 2.9464108e-39
-0.026710492 0.039704766 0.75800002 2.23263e-39
-0.025200017 0.039600022 0.75599998 1.0347611e-38
-0.023728596 0.039547626 0.75500005 1.8352721e-38
-0.02223143 0.039442852 0.75300002 1.7614802e-38
-0.020769555 0.039390486 0.75200003 1.6971203e-38
-0.019337147 0.039390489 0.75200003 1.4018083e-38
-0.017809562 0.039180972 0.74799997 1.107031e-38
-0.01638478 0.039180964 0.74799997 8.4769645e-39
-0.014940004 0.039128583 0.74700004 5.9236025e-39
-0.013480946 0.039023831 0.74500006 8.9653885e-39
-0.012061899 0.039023813 0.74500006 1.1993432e-38
-0.010642881 0.039023824 0.74500006 1.0242082e-38
-0.0091990773 0.03891905 0.74299997 8.598408e-39
-0.0077838404 0.038919065 0.74299997 1.328959e-38
-0.006360021 0.038866669 0.74200004 1.7978177e-38
-0.0049466663 0.038866665 0.74200004 1.6505893e-38
-0.0035238233 0.03876191 0.74000001 1.4939684e-38
-0.0021114363 0.038709536 0.73899996 1.4850018e-38
-0.00070382515 0.038709532 0.73900002 1.4771848e-38
0.00070380094 0.038709536 0.73900002 1.7803887e-38
0.0021114075 0.038709547 0.73899996 2.0846296e-38
0.0035190326 0.038709536 0.73899996 2.2131634e-38
0.0049266596 0.038709536 0.73899996 2.341769e-38
0.0063342848 0.03870954 0.73900002 2.341769e-38
0.0077418969 0.038709529 0.73900002 2.341769e-38
0.0091495039 0.038709544 0.73899996 2.341769e-38
0.010557131 0.03870954 0.73899996 2.341769e-38
0.011980955 0.038761918 0.74000001 2.341769e-38
0.013390464 0.038761914 0.74000001 2.341769e-38
0.014839991 0.03886668 0.74199998 2.341769e-38
0.01625333 0.038866669 0.74200004 2.341769e-38
0.017666649 0.038866669 0.74199998 2.341769e-38
0.019080006 0.038866673 0.74200004 2.341769e-38
0.020493325 0.038866684 0.74199998 2.3141466e-38
0.021906665 0.038866676 0.74200004 2.2865957e-38
0.023351425 0.038919065 0.74299997 2.2772325e-38
0.02476665 0.038919065 0.74299997 2.2774839e-38
0.026181893 0.038919061 0.74300003 2.2589377e-38
0.027671419 0.039023835 0.74500006 2.2499335e-38
0.02920761 0.039180964 0.74799997 2.2681212e-38
0.030632369 0.039180968 0.74799997 2.2958513e-38
0.032142848 0.039285727 0.75000006 2.3142183e-38
0.033571422 0.039285712 0.75000006 2.3417683e-38
0.035000004 0.039285708 0.75000006 2.221915e-38
0.0365257 0.039390478 0.75200003 2.0928063e-38
0.038008571 0.039442863 0.75300002 1.9546934e-38
0.039547607 0.039547607 0.75500005 1.8076487e-38
0.041148566 0.039704785 0.75800002 1.7246377e-38
0.042760924 0.03986194 0.76099998 1.6512789e-38
0.044210471 0.039861929 0.76099998 1.6326268e-38
0.045779992 0.039966669 0.76300001 1.6142567e-38
-0.037545722 0.041962869 0.77300006 5.3268974e-39
-0.036026675 0.041908588 0.77199996 2.4093688e-39
-0.034242846 0.041528575 0.76500005 4.901885e-39
-0.032785699 0.041528579 0.76500005 7.2791696e-39
-0.031328578 0.041528583 0.76499999 3.685712e-39
-0.029793371 0.041420009 0.76299995 1.0199771e-40
-0.028228557 0.04125715 0.76000005 9.1885382e-40
-0.026710492 0.041148584 0.75800002 1.6855631e-39
-0.025200024 0.041040014 0.75599998 1.0175422e-38
-0.023728594 0.040985718 0.75500005 1.8625356e-38
-0.022231428 0.040877156 0.75300002 1.7797036e-38
-0.02076954 0.040822871 0.75199997 1.6970868e-38
-0.019337162 0.040822871 0.75199997 1.6970142e-38
-0.017857153 0.040714294 0.75000006 1.6952512e-38
-0.016384777 0.040605731 0.74799997 1.3883147e-38
-0.014940018 0.04055145 0.74699998 1.0795602e-38
-0.013480966 0.040442865 0.74500006 1.4410254e-38
-0.01206192 0.040442873 0.74500006 1.7879526e-38
-0.010642852 0.040442862 0.74500006 1.5841898e-38
-0.0091990791 0.040334299 0.74299997 1.3749808e-38
-0.0077838413 0.040334299 0.74299997 1.8091227e-38
-0.0063600107 0.040280007 0.74200004 2.230415e-38
-0.0049333381 0.040171448 0.74000001 1.5035481e-38
-0.0035238075 0.040171437 0.74000001 7.6656729e-39
-0.0021114261 0.040117156 0.73900002 6.8215658e-39
-0.00070476579 0.040171452 0.74000001 6.0173143e-39
0.00070379069 0.040117163 0.73899996 1.2180004e-38
0.0021114186 0.040117156 0.73900002 1.8247964e-38
0.0035190457 0.040117159 0.73900002 2.0844829e-38
0.0049266503 0.040117156 0.73899996 2.3407267e-38
0.0063428464 0.040171444 0.73999995 2.3417683e-38
0.0077418895 0.040117163 0.73900002 2.3416968e-38
0.0091619082 0.040171441 0.74000001 2.341769e-38
0.010571419 0.040171441 0.73999995 2.341769e-38
0.01198095 0.040171437 0.74000001 2.341769e-38
0.01339048 0.040171441 0.74000001 2.341769e-38
0.014839985 0.040280003 0.74200004 2.341769e-38
0.016253341 0.040280007 0.74200004 2.341769e-38
0.01766666 0.040280014 0.74200004 2.341769e-38
0.019105682 0.040334295 0.74299997 2.341769e-38
0.020493317 0.040280011 0.74199998 2.341769e-38
0.021906672 0.040280011 0.74200004 2.3417689e-38
0.023351423 0.040334299 0.74299997 2.3050345e-38
0.024766646 0.04033431 0.74299997 2.2680132e-38
0.026252382 0.040442869 0.74500006 2.2124455e-38
0.027671415 0.04044288 0.74500006 2.1485554e-38
0.029207621 0.040605731 0.74799997 2.1941147e-38
0.030714285 0.040714301 0.75000006 2.2405706e-38
0.032142852 0.040714294 0.75000006 2.2958513e-38
0.033571426 0.04071429 0.75000006 2.3416605e-38
0.035093319 0.040822882 0.75199997 2.2126954e-38
0.0365257 0.040822878 0.75199997 2.0744745e-38
0.038008559 0.040877163 0.75299996 1.9362896e-38
0.039599992 0.041040014 0.75599998 1.7982499e-38
0.041257147 0.041257165 0.75999999 1.6965497e-38
0.042873334 0.041419998 0.76300001 1.5958183e-38
0.044326667 0.041420002 0.76300001 1.6324457e-38
0.045779992 0.041419994 0.76300001 1.6602818e-38
-0.037545718 0.043435253 0.773 6.8044377e-39
-0.03602669 0.043379061 0.77199996 5.2645088e-39
-0.03433238 0.043098118 0.76700002 7.2968372e-39
-0.032785725 0.042985722 0.76500005 9.3250359e-39
-0.031328578 0.042985719 0.76500005 7.5671715e-39
-0.029793344 0.042873342 0.76299995 5.904123e-39
-0.028265733 0.042760983 0.76099998 3.6871904e-39
-0.02671049 0.042592388 0.75800002 1.5879879e-39
-0.02520003 0.042480003 0.75599998 9.5196609e-39
-0.023665717 0.042311441 0.75300002 1.7430777e-38
-0.022231452 0.042311434 0.75299996 1.7245661e-38
-0.020769536 0.042255245 0.75200003 1.7154563e-38
-0.019337177 0.042255253 0.75199997 1.7802452e-38
-0.017857149 0.042142861 0.75000006 1.8448136e-38
-0.016384779 0.042030491 0.74799997 1.4927501e-38
-0.014940009 0.041974295 0.74700004 1.1444604e-38
-0.013480959 0.04186191 0.74500006 1.467574e-38
-0.012061913 0.041861918 0.745 1.7884921e-38
-0.010642873 0.041861918 0.74500006 1.6222514e-38
-0.0091990791 0.041749533 0.74299997 1.4580278e-38
-0.0077838418 0.041749548 0.74299997 1.8545028e-38
-0.0063600023 0.041693334 0.74200004 2.2499318e-38
-0.0049466691 0.041693348 0.74199998 1.4293296e-38
-0.0035333424 0.04169333 0.74200004 5.9875283e-39
-0.0021142955 0.041580968 0.74000001 5.531543e-39
-0.00070476485 0.041580975 0.74000001 5.1728302e-39
0.00070380466 0.041524764 0.73900002 7.4655073e-39
0.0021142759 0.041580968 0.74000001 9.7527879e-39
0.0035238075 0.041580956 0.74000001 1.1894063e-38
0.0049333186 0.041580964 0.74000001 1.3918056e-38
0.0063428492 0.041580968 0.74000001 1.5307094e-38
0.0077523789 0.041580964 0.74000001 1.6803016e-38
0.0091618905 0.041580979 0.74000001 1.83549e-38
0.010571422 0.041580968 0.74000001 2.0019777e-38
0.012013336 0.041693337 0.74200004 2.176214e-38
0.013426655 0.041693348 0.74199998 2.341769e-38
0.014839996 0.041693348 0.74200004 2.341769e-38
0.016253315 0.041693341 0.74199998 2.341769e-38
0.017666655 0.041693337 0.74200004 2.341769e-38
0.019105697 0.041749541 0.74299997 2.341769e-38
0.02052094 0.041749533 0.74299997 2.341769e-38
0.021936165 0.041749544 0.74299997 2.341769e-38
0.023351423 0.04174953 0.74299997 2.3232943e-38
0.024833327 0.041861907 0.74500006 2.3046039e-38
0.026252374 0.041861914 0.74500006 2.2771962e-38
0.027745694 0.041974306 0.74700004 2.2499331e-38
0.0292076 0.042030491 0.74799991 2.2681212e-38
0.030714288 0.042142872 0.75000006 2.2958513e-38
0.032142859 0.042142872 0.75000006 2.3142183e-38
0.033660945 0.042255249 0.75200003 2.3417682e-38
0.035093304 0.042255249 0.75199997 2.1942923e-38
0.036525685 0.042255241 0.75199997 2.0468876e-38
0.038008586 0.042311437 0.75300002 1.9088098e-38
0.0396 0.042480018 0.75599998 1.761659e-38
0.041257165 0.042704772 0.76000005 1.6508479e-38
0.04287333 0.042873327 0.76300001 1.5499719e-38
0.04421046 0.042760983 0.76099998 1.5866697e-38
0.045780003 0.042873327 0.76300001 1.6236548e-38
-0.037545744 0.044907637 0.773 8.3574085e-39
-0.036026679 0.044849534 0.77199996 8.0192233e-39
-0.034332391 0.044559069 0.76699996 9.6956808e-39
-0.032785717 0.044442866 0.76500005 1.1254344e-38
-0.03132857 0.044442866 0.76500005 1.1445877e-38
-0.029871427 0.044442862 0.76500005 1.1608382e-38
-0.028340008 0.044326674 0.76300001 6.5208373e-39
-0.026780952 0.044152386 0.76000005 1.5058367e-39
-0.025200009 0.04392001 0.75599998 8.8836073e-39
-0.023728605 0.043861903 0.75500005 1.6139696e-38
-0.02223143 0.043745723 0.75300002 1.6692154e-38
-0.02076955 0.043687627 0.75200003 1.724784e-38
-0.019337144 0.043687623 0.75200003 1.8545028e-38
-0.017857144 0.043571439 0.75000006 1.9816354e-38
-0.016384782 0.043455243 0.74799997 1.5934133e-38
-0.014940022 0.043397173 0.74699998 1.2002446e-38
-0.013517166 0.043397166 0.74699998 1.4963443e-38
-0.012061913 0.04328097 0.74500006 1.779525e-38
-0.010642866 0.043280955 0.74500006 1.6582349e-38
-0.009199081 0.043164779 0.74299997 1.5408962e-38
-0.0077838427 0.043164771 0.74299997 1.9101422e-38
-0.0063685845 0.043164771 0.74299997 2.2674745e-38
-0.0049466868 0.043106668 0.74200004 1.3558988e-38
-0.0035333331 0.043106671 0.74200004 4.3477737e-39
-0.0021143002 0.042990491 0.73999995 4.3283601e-39
-0.00070476951 0.042990495 0.74000001 4.2372743e-39
0.00070476206 0.042990491 0.74000001 2.7557417e-39
0.0021142722 0.042990491 0.73999995 1.31578e-39
0.0035238019 0.042990495 0.74000001 2.8766149e-39
0.0049333335 0.042990491 0.74000001 4.451083e-39
0.0063428641 0.042990476 0.74000001 7.2728637e-39
0.0077523733 0.042990487 0.74000001 1.0059498e-38
0.009186673 0.043106671 0.74200004 1.3363068e-38
0.010599992 0.043106679 0.74200004 1.6585219e-38
0.012013333 0.043106668 0.74200004 2.0008978e-38
0.01342665 0.043106675 0.74199998 2.3405831e-38
0.014840005 0.043106675 0.74200004 2.3417684e-38
0.016253324 0.043106671 0.74199998 2.3417687e-38
0.017666664 0.043106668 0.74200004 2.341769e-38
0.019105695 0.043164779 0.74299997 2.341769e-38
0.020520942 0.043164779 0.74299997 2.341769e-38
0.021936167 0.043164782 0.74299997 2.341769e-38
0.023414286 0.043280955 0.74500006 2.341769e-38
0.024833322 0.043280963 0.74500006 2.3416611e-38
0.026322838 0.043397166 0.74699998 2.3417686e-38
0.027745713 0.043397158 0.74700004 2.3417687e-38
0.02920761 0.043455258 0.74799997 2.341769e-38
0.030714283 0.043571439 0.75000006 2.341769e-38
0.032142852 0.043571439 0.75000006 2.341769e-38
0.033660945 0.043687634 0.75200003 2.3416241e-38
0.035093322 0.043687634 0.75200003 2.1850359e-38
0.036574297 0.043745726 0.75300002 2.0191577e-38
0.038109504 0.043861911 0.75500005 1.8720053e-38
0.039599992 0.043920007 0.75600004 1.724566e-38
0.041257158 0.044152405 0.75999999 1.6136096e-38
0.042873327 0.044326685 0.76299995 1.4945825e-38
0.044326644 0.044326682 0.76299995 1.5405365e-38
0.045900013 0.044442866 0.76500005 1.5864903e-38
-0.037545722 0.046379998 0.77300006 8.9285287e-39
-0.036026694 0.046320017 0.77199996 9.5861763e-39
-0.034242854 0.045900017 0.76499999 9.8696646e-39
-0.03278571 0.045900013 0.76499999 1.0142318e-38
-0.031328563 0.045900013 0.76500005 1.1900482e-38
-0.029871419 0.045900006 0.76500005 1.3655005e-38
-0.028340008 0.045779996 0.76300001 1.0514265e-38
-0.026816215 0.045660038 0.76099998 7.3980151e-39
-0.025266681 0.045480013 0.75800002 1.0712761e-38
-0.02376001 0.045360021 0.75599998 1.3929903e-38
-0.022290502 0.045300003 0.755 1.4849004e-38
-0.020797143 0.045180012 0.75300002 1.57731e-38
-0.019337159 0.045120008 0.75200003 1.61469e-38
-0.017857166 0.045000006 0.75000006 1.6512084e-38
-0.016384777 0.044880018 0.74799991 1.5585831e-38
-0.014940015 0.044820018 0.74700004 1.475896e-38
-0.013517158 0.044820026 0.74700004 1.6054707e-38
-0.012061905 0.044700015 0.74500006 1.7342185e-38
-0.010642858 0.044700015 0.745 1.6508477e-38
-0.0092238188 0.044700012 0.74500006 1.5779188e-38
-0.0078047719 0.044700015 0.74500006 1.798971e-38
-0.0063685845 0.044580013 0.74299997 2.0110535e-38
-0.0049533737 0.044580005 0.74299997 1.494371e-38
-0.0035381163 0.044580009 0.74299997 9.7703826e-39
-0.0021142843 0.044400018 0.74000001 6.8100751e-39
-0.00070476765 0.044400003 0.74000001 3.9571225e-39
0.0007047425 0.044400014 0.74000001 8.124203e-39
0.0021142731 0.044400018 0.74000001 1.2285478e-38
0.0035238047 0.04440001 0.74000001 1.1172669e-38
0.0049333139 0.04440001 0.74000001 1.0083515e-38
0.0063599874 0.044520017 0.74199998 1.3280855e-38
0.0077733272 0.044520013 0.74200004 1.6573656e-38
0.0091866478 0.044520013 0.74199998 1.3988267e-38
0.010600001 0.044520006 0.74200004 1.1480044e-38
0.01201334 0.044520006 0.74200004 1.6569773e-38
0.01342666 0.044520006 0.74200004 2.1727658e-38
0.014839999 0.044519998 0.74200004 2.2574656e-38
0.016253319 0.044520009 0.74200004 2.3325849e-38
0.017690457 0.044580013 0.74299997 2.341769e-38
0.019105695 0.044580009 0.74299997 2.341769e-38
0.02052094 0.044580001 0.74299997 2.341769e-38
0.021936163 0.044580013 0.74299997 2.341769e-38
0.023414282 0.044700015 0.74500006 2.341769e-38
0.024833314 0.044700023 0.745 2.341769e-38
0.026322847 0.044820011 0.74700004 2.341769e-38
0.027782846 0.04488001 0.74799997 2.341769e-38
0.029285703 0.045000006 0.75000006 2.341769e-38
0.030714288 0.045000002 0.75000006 2.341769e-38
0.032142855 0.045000006 0.75000006 2.341769e-38
0.03366093 0.045120019 0.75199997 2.341767e-38
0.035140004 0.045180008 0.75300002 2.2121549e-38
0.036574285 0.045180008 0.75300002 2.0829405e-38
0.038109507 0.045299999 0.75500005 2.0557853e-38
0.039599981 0.045360025 0.75599998 2.0366629e-38
0.041257136 0.045600023 0.75999999 1.843914e-38
0.042760953 0.04566003 0.76099998 1.6598854e-38
0.044326659 0.045780011 0.76299995 1.6323359e-38
0.04601999 0.04602002 0.76699996 1.6046421e-38
-0.036026683 0.047790501 0.77199996 1.114774e-38
-0.034242876 0.047357161 0.76499999 1.0054417e-38
-0.032785729 0.047357157 0.76499999 8.9534844e-39
-0.031328585 0.047357157 0.76500005 1.2266036e-38
-0.029793346 0.047233328 0.76300001 1.5583595e-38
-0.028340008 0.047233324 0.76300001 1.4482647e-38
-0.026816225 0.047109552 0.76099998 1.3283072e-38
-0.025266681 0.04692382 0.75800002 1.254698e-38
-0.023760017 0.04680001 0.75599998 1.1724062e-38
-0.02232004 0.046800017 0.75599998 1.3001163e-38
-0.020797167 0.0466143 0.75300002 1.4303726e-38
-0.019337174 0.04655239 0.75199997 1.3757023e-38
-0.01785716 0.046428587 0.75000006 1.3115966e-38
-0.01638478 0.046304785 0.74799997 1.5321451e-38
-0.014960019 0.046304774 0.74799997 1.7431875e-38
-0.013517152 0.046242878 0.74700004 1.71535e-38
-0.012094296 0.046242863 0.74700004 1.6791532e-38
-0.010642859 0.046119049 0.74500006 1.6514225e-38
-0.0092238113 0.046119057 0.74500006 1.6145813e-38
-0.0078047658 0.046119064 0.745 1.687548e-38
-0.0063857255 0.04611906 0.74500006 1.7529811e-38
-0.0049533746 0.045995258 0.74299997 1.6334876e-38
-0.0035381173 0.045995243 0.74299997 1.51119e-38
-0.0021142834 0.045809541 0.74000001 9.3678176e-39
-0.0007047723 0.045809541 0.74000001 3.7156872e-39
0.0007047574 0.045809541 0.74000001 1.3498736e-38
0.002114288 0.045809526 0.74000001 2.3222877e-38
0.0035237991 0.045809533 0.74000001 1.9445049e-38
0.0049333307 0.045809537 0.74000001 1.5681931e-38
0.0063599818 0.045933343 0.74199998 1.9376859e-38
0.0077733374 0.045933336 0.74200004 2.302192e-38
0.0091866571 0.045933336 0.74199998 1.4719758e-38
0.010599997 0.04593334 0.74200004 6.3559157e-39
0.012013316 0.04593334 0.74199998 1.3245734e-38
0.01342667 0.045933343 0.74200004 2.0070257e-38
0.014839989 0.045933358 0.74199998 2.1642938e-38
0.01625333 0.045933336 0.74200004 2.3218898e-38
0.017690456 0.04599525 0.74299997 2.3325847e-38
0.019105695 0.045995265 0.74299997 2.3417687e-38
0.02052094 0.045995247 0.74299997 2.341769e-38
0.021995226 0.046119068 0.74500006 2.341769e-38
0.023414273 0.04611906 0.745 2.341769e-38
0.024899978 0.04624287 0.74699998 2.341769e-38
0.026322853 0.046242863 0.74700004 2.341769e-38
0.027782835 0.046304777 0.74799991 2.341769e-38
0.02928571 0.046428584 0.75000006 2.341769e-38
0.030714277 0.046428584 0.75000006 2.341769e-38
0.03222857 0.04655239 0.75200003 2.341769e-38
0.033660926 0.046552401 0.75199997 2.3413008e-38
0.035140015 0.046614297 0.75300002 2.2388092e-38
0.036671419 0.046738092 0.75500005 2.1388317e-38
0.038109504 0.046738099 0.755 2.2407488e-38
0.039599989 0.046800014 0.75599998 2.3410494e-38
0.041311409 0.047109552 0.76099998 2.0838373e-38
0.042760935 0.047109552 0.76099998 1.8259432e-38
0.044326656 0.047233343 0.76300001 1.724277e-38
0.046019975 0.047480978 0.76699996 1.6232234e-38
0.047480948 0.047480978 0.76699996 1.6693575e-38
-0.034242868 0.048814308 0.76499999 1.0787672e-38
-0.032700039 0.048686665 0.76299995 1.1156824e-38
-0.031328578 0.0488143 0.76499999 1.2821358e-38
-0.029793348 0.048686657 0.76300001 1.4492017e-38
-0.028265752 0.04855907 0.76099998 1.4300853e-38
-0.026816227 0.04855907 0.76099998 1.420399e-38
-0.025266681 0.048367627 0.75800002 1.4484512e-38
-0.023822866 0.048367634 0.75799996 1.4764682e-38
-0.022320019 0.048240006 0.75599998 1.5038034e-38
-0.020852396 0.048176203 0.755 1.5417583e-38
-0.019362861 0.048048574 0.75300002 1.6151559e-38
-0.017857155 0.047857154 0.75000006 1.6974852e-38
-0.016428586 0.047857158 0.75000006 1.8173019e-38
-0.014960022 0.047729537 0.74799997 1.9463018e-38
-0.013535261 0.047729526 0.74799997 1.9184638e-38
-0.012094309 0.047665741 0.74699998 1.8910925e-38
-0.010671452 0.047665745 0.74699998 1.7432947e-38
-0.0092238327 0.047538113 0.74500006 1.6057206e-38
-0.0078047649 0.047538109 0.74500006 1.8080454e-38
-0.006385718 0.047538105 0.74500006 2.0103713e-38
-0.0049666711 0.047538113 0.74500006 1.9463024e-38
-0.0035381163 0.047410488 0.74299997 1.8913736e-38
-0.0021199998 0.047346678 0.74200004 1.5857626e-38
-0.00070667965 0.047346681 0.74199998 1.2833939e-38
0.0007066601 0.047346681 0.74200004 1.8085491e-38
0.0021199794 0.047346681 0.74199998 2.3234006e-38
0.0035238001 0.047219064 0.74000001 1.8150754e-38
0.0049466728 0.047346674 0.74200004 1.2995781e-38
0.0063599921 0.04734667 0.74200004 1.8077235e-38
0.0077733318 0.047346666 0.74200004 2.3142146e-38
0.0091866516 0.047346678 0.74199998 1.8793558e-38
0.010600006 0.047346678 0.74200004 1.4538249e-38
0.012013326 0.047346685 0.74199998 1.7212932e-38
0.013426666 0.04734667 0.74200004 1.9899086e-38
0.014839985 0.047346681 0.74199998 1.9614574e-38
0.01627521 0.047410503 0.74299997 1.9346691e-38
0.017690454 0.047410481 0.74299997 1.9726678e-38
0.019105693 0.047410492 0.74299997 2.0111605e-38
0.020520937 0.047410488 0.74299997 2.1116063e-38
0.021995235 0.047538113 0.745 2.2040158e-38
0.023414288 0.047538109 0.74500006 2.212733e-38
0.024899999 0.047665734 0.74700004 2.2131993e-38
0.02632284 0.047665734 0.74700004 2.2679419e-38
0.027782837 0.047729541 0.74799997 2.3142183e-38
0.029285714 0.04785715 0.75000006 2.3325854e-38
0.030714285 0.04785715 0.75000006 2.341769e-38
0.032228556 0.047984771 0.75200003 2.341769e-38
0.0337057 0.048048582 0.75300002 2.3417673e-38
0.03514 0.048048582 0.75300002 2.2490333e-38
0.036719978 0.048240013 0.75599998 2.1489128e-38
0.038160004 0.04824001 0.75600004 2.2499335e-38
0.039704777 0.04836762 0.75800002 2.3417331e-38
0.041311391 0.048559073 0.76099998 2.1668511e-38
0.042760942 0.048559066 0.76099998 1.9827098e-38
0.044326674 0.048686672 0.76300001 1.7887751e-38
0.04607999 0.049005732 0.76800001 1.6047833e-38
0.047542829 0.049005736 0.76799995 1.6508823e-38
0.049005702 0.049005732 0.76800001 1.6968722e-38
-0.034242865 0.050271451 0.76499999 1.1435494e-38
-0.032700013 0.050140012 0.76299995 1.3274757e-38
-0.031246705 0.050140008 0.76299995 1.3370939e-38
-0.029793367 0.050140012 0.76299995 1.3375646e-38
-0.02834003 0.050140012 0.76299995 1.4208306e-38
-0.026816208 0.050008602 0.76099998 1.503804e-38
-0.02533331 0.049942877 0.76000005 1.6422376e-38
-0.023822844 0.04981143 0.75800002 1.7707006e-38
-0.022320027 0.049680009 0.75599998 1.706058e-38
-0.020880001 0.049680006 0.75599998 1.6427782e-38
-0.019414302 0.049614288 0.75500005 1.8640089e-38
-0.017904777 0.049417146 0.75200003 2.074764e-38
-0.016428581 0.049285721 0.75000006 2.1116417e-38
-0.01500001 0.049285725 0.75000006 2.1393718e-38
-0.013535234 0.049154289 0.74799997 2.1211123e-38
-0.012110502 0.049154293 0.74799997 2.102063e-38
-0.010671444 0.04908859 0.74700004 1.8433088e-38
-0.0092238039 0.04895715 0.74500006 1.5874971e-38
-0.0078047579 0.048957154 0.74500006 1.9285086e-38
-0.0063857106 0.048957162 0.74500006 2.2589373e-38
-0.0049666916 0.048957154 0.745 2.2591171e-38
-0.0035476233 0.04895715 0.74500006 2.2590061e-38
-0.0021200036 0.048760001 0.74200004 2.2315595e-38
-0.00070668431 0.048760008 0.74199998 2.1942549e-38
0.00070666941 0.048760008 0.74200004 2.2591171e-38
0.0021199896 0.048760019 0.74199998 2.321894e-38
0.0035333293 0.048760004 0.74200004 1.6744882e-38
0.0049466486 0.048760012 0.74199998 1.0333625e-38
0.0063599884 0.048760012 0.74200004 1.6794405e-38
0.0077733207 0.048760019 0.74199998 2.3231123e-38
0.0091866618 0.048760016 0.74200004 2.295775e-38
0.010600002 0.048760004 0.74200004 2.2648451e-38
0.012013321 0.048760012 0.74200004 2.1168966e-38
0.013426661 0.048760008 0.74200004 1.9698165e-38
0.014839994 0.048760004 0.74199998 1.7569807e-38
0.016253334 0.048760008 0.74200004 1.5389134e-38
0.017690457 0.048825726 0.74299997 1.6121729e-38
0.019105695 0.048825733 0.74299997 1.6784328e-38
0.02052094 0.04882573 0.74299997 1.8710744e-38
0.021995233 0.048957143 0.74500006 2.0650777e-38
0.02341428 0.048957154 0.74500006 2.0735446e-38
0.024900004 0.049088582 0.74700004 2.0837685e-38
0.026358087 0.049154304 0.74799997 2.184142e-38
0.027782846 0.049154308 0.74799997 2.286309e-38
0.029285718 0.049285717 0.75000006 2.3142183e-38
0.030796163 0.049417157 0.75199997 2.341769e-38
0.032228556 0.049417153 0.75199997 2.341769e-38
0.033705726 0.049482871 0.75300002 2.3413727e-38
0.035233334 0.049614292 0.75500005 2.2483158e-38
0.036719989 0.049680006 0.75599998 2.1575221e-38
0.038260944 0.049811445 0.75800002 2.2499329e-38
0.039704762 0.049811438 0.75800002 2.3416608e-38
0.041257165 0.049942873 0.76000005 2.2407494e-38
0.042760924 0.050008602 0.76099998 2.138221e-38
0.04432667 0.050140001 0.76300001 1.8617431e-38
0.046079978 0.050468594 0.76799995 1.5772697e-38
0.04754284 0.050468586 0.76800001 1.6233684e-38
-0.034242861 0.051728573 0.76500005 1.1062004e-38
-0.03278574 0.05172858 0.76499999 1.2360684e-38
-0.031328592 0.051728576 0.76499999 1.1527057e-38
-0.029871447 0.051728588 0.76499999 1.0696637e-38
-0.028340032 0.051593337 0.76300001 1.1904532e-38
-0.026886696 0.051593337 0.76300001 1.3113081e-38
-0.025366688 0.051458113 0.76099998 1.393922e-38
-0.023822872 0.051255245 0.75800002 1.4866206e-38
-0.022320034 0.051120017 0.75599998 1.5047028e-38
-0.020880029 0.051120024 0.75599998 1.5326839e-38
-0.019440031 0.051120017 0.75599998 1.6429941e-38
-0.01790479 0.050849542 0.75200003 1.7535193e-38
-0.016428577 0.050714292 0.75000006 1.8912721e-38
-0.015000005 0.050714292 0.75000006 2.038604e-38
-0.013571436 0.050714292 0.75000006 2.0385325e-38
-0.012110476 0.05057906 0.74799997 2.0292762e-38
-0.010685716 0.05057906 0.74799997 1.8722579e-38
-0.0092485817 0.050511446 0.74700004 1.7070628e-38
-0.0078257257 0.05051145 0.74700004 1.9649924e-38
-0.0064028692 0.050511446 0.74699998 2.2131993e-38
-0.0049666646 0.050376203 0.74500006 2.084522e-38
-0.0035476317 0.05037621 0.74500006 1.9468764e-38
-0.0021228795 0.050240964 0.74299997 2.057079e-38
-0.000706675 0.050173339 0.74199998 2.158098e-38
0.00070666475 0.050173331 0.74200004 2.2499335e-38
0.002119984 0.050173346 0.74200004 2.3325842e-38
0.0035333387 0.050173346 0.74200004 1.8978709e-38
0.0049466579 0.050173335 0.74199998 1.4635901e-38
0.0063599986 0.050173339 0.74200004 1.8992354e-38
0.0077733179 0.05017335 0.74199998 2.3234004e-38
0.0091990223 0.050240975 0.74299997 2.2210896e-38
0.01059999 0.050173339 0.74199998 2.1275203e-38
0.012013331 0.050173342 0.74200004 1.9976114e-38
0.01342665 0.05017335 0.74199998 1.8777269e-38
0.01483999 0.050173346 0.74200004 1.9066087e-38
0.01627521 0.050240971 0.74299997 1.9446378e-38
0.017690456 0.050240967 0.74299997 1.9723353e-38
0.019105693 0.050240975 0.74299997 2.0090731e-38
0.020520937 0.050240971 0.74299997 2.1109568e-38
0.021995241 0.050376203 0.74500006 2.2035114e-38
0.023414277 0.05037621 0.74500006 2.212589e-38
0.024899993 0.050511442 0.74699998 2.2131992e-38
0.026358077 0.050579064 0.74799991 2.2679419e-38
0.027782857 0.050579056 0.74799997 2.3142183e-38
0.02928571 0.050714299 0.75000006 2.3325854e-38
0.030714292 0.050714299 0.75000006 2.341769e-38
0.032271419 0.050917152 0.75300002 2.341769e-38
0.033705715 0.050917152 0.75300002 2.3417673e-38
0.035233315 0.051052388 0.755 2.2769068e-38
0.036719993 0.051120013 0.75599998 2.2125155e-38
0.038159985 0.051120017 0.75599998 2.1207528e-38
0.039704766 0.051255248 0.75800002 2.0291326e-38
0.041148566 0.051255248 0.75800002 1.9179255e-38
0.042873312 0.051593341 0.76299995 1.8156853e-38
0.04432667 0.05159333 0.76300001 1.7240993e-38
0.046199992 0.052066684 0.76999998 1.6324801e-38
0.047790464 0.052201916 0.77199996 1.660175e-38
0.049260955 0.052201912 0.77199996 1.6969806e-38
-0.032785714 0.053185713 0.76500005 1.1427607e-38
-0.031328585 0.053185724 0.76499999 9.6802707e-39
-0.029871441 0.053185735 0.76499999 7.9390186e-39
-0.028340004 0.05304667 0.76300001 9.5074303e-39
-0.026886698 0.05304667 0.76300001 1.1078694e-38
-0.025333349 0.052838106 0.75999999 1.1539322e-38
-0.02382287 0.052699056 0.75800002 1.1918511e-38
-0.022379056 0.052699063 0.75800002 1.3117406e-38
-0.020880036 0.052560013 0.75599998 1.4217636e-38
-0.01944001 0.052560009 0.75599998 1.4217634e-38
-0.017904777 0.052281916 0.75199997 1.4221222e-38
-0.016472399 0.052281909 0.75200003 1.6796562e-38
-0.015000001 0.052142859 0.75000006 1.9371186e-38
-0.01357143 0.052142862 0.75000006 1.9468045e-38
-0.01214286 0.052142859 0.75000006 1.9555929e-38
-0.010714291 0.052142862 0.75000006 1.8910205e-38
-0.0092609785 0.052003827 0.74799991 1.8270232e-38
-0.0078361975 0.052003823 0.74799997 2.0019777e-38
-0.0064114369 0.052003808 0.74799997 2.1669584e-38
-0.0049666851 0.051795244 0.74500006 1.9005633e-38
-0.0035476382 0.051795248 0.745 1.6340613e-38
-0.0021228804 0.051656209 0.74299997 1.8825195e-38
-0.00070763612 0.051656201 0.74299997 2.120933e-38
0.00070758769 0.051656216 0.74299997 2.2315661e-38
0.002122846 0.051656198 0.74300003 2.3416245e-38
0.0035333331 0.051586673 0.74200004 2.1208242e-38
0.0049466533 0.051586684 0.74200004 1.8991638e-38
0.0063685528 0.051656198 0.74299997 2.1121797e-38
0.0077837766 0.051656209 0.74299997 2.3226068e-38
0.0091990214 0.051656201 0.74299997 2.1560061e-38
0.01061426 0.051656213 0.74299997 1.9797919e-38
0.012029504 0.051656213 0.74299997 1.8867318e-38
0.013444728 0.051656201 0.74299997 1.7875483e-38
0.014859986 0.051656198 0.74299997 2.0654643e-38
0.016275208 0.051656213 0.74299997 2.3410084e-38
0.017690456 0.051656194 0.74299997 2.3417635e-38
0.019105695 0.051656201 0.74299997 2.3412631e-38
0.020576188 0.051795252 0.74500006 2.3417672e-38
0.022054268 0.051934309 0.74699998 2.3416604e-38
0.023477124 0.051934309 0.74699998 2.3417689e-38
0.024933312 0.052003823 0.74799997 2.3417689e-38
0.026358072 0.052003816 0.74799997 2.341769e-38
0.027782833 0.052003816 0.74799997 2.341769e-38
0.029285714 0.052142862 0.75000006 2.341769e-38
0.030714285 0.052142862 0.75000006 2.3417689e-38
0.032271441 0.052351445 0.75300002 2.3417687e-38
0.033795208 0.052490495 0.755 2.3417321e-38
0.035233319 0.052490477 0.75500005 2.3050331e-38
0.036719978 0.052560009 0.75599992 2.2585047e-38
0.038159989 0.052560009 0.75599998 1.9822799e-38
0.039704766 0.052699052 0.75800002 1.7063787e-38
0.041311402 0.052907638 0.76099998 1.6044268e-38
0.042873323 0.053046674 0.76299995 1.4944756e-38
0.044442851 0.053185727 0.76499999 1.586455e-38
0.045899998 0.053185724 0.76499999 1.6784341e-38
0.04779046 0.053672403 0.77199996 1.7062003e-38
0.04926094 0.053672392 0.77199996 1.724603e-38
-0.032785702 0.05464286 0.76500005 1.0132928e-38
-0.031328578 0.054642871 0.76499999 1.0413846e-38
-0.029871432 0.054642871 0.76499999 1.0779779e-38
-0.028414287 0.054642867 0.76499999 1.143413e-38
-0.02688667 0.054499999 0.76300001 1.208277e-38
-0.025333319 0.054285716 0.76000005 1.2274385e-38
-0.02382287 0.054142874 0.75800002 1.2558501e-38
-0.022379056 0.054142866 0.75799996 1.320099e-38
-0.020880014 0.05400002 0.75599998 1.3933158e-38
-0.019440018 0.054000013 0.75599998 1.4488113e-38
-0.017928574 0.05378573 0.75300002 1.503913e-38
-0.016472414 0.053714309 0.75199997 1.6422048e-38
-0.015040035 0.053714309 0.75200003 1.7710972e-38
-0.013571425 0.053571429 0.75000006 1.8080465e-38
-0.012142855 0.053571429 0.75000006 1.8541795e-38
-0.010714285 0.053571429 0.75000006 1.8175886e-38
-0.0092857154 0.053571429 0.75000006 1.7906122e-38
-0.0078571457 0.053571433 0.75000006 1.8728699e-38
-0.0064114598 0.053428587 0.74799997 1.9643459e-38
-0.0049800188 0.053357173 0.74699998 1.8263409e-38
-0.0035476233 0.053214297 0.74500006 1.6878347e-38
-0.0021228814 0.053071432 0.74299997 1.688445e-38
-0.00070763705 0.053071436 0.74299997 1.6972698e-38
0.00070760073 0.053071443 0.74299997 1.7065967e-38
0.002122845 0.053071439 0.74299997 1.7172871e-38
0.0035380688 0.053071447 0.74299997 1.8911647e-38
0.0049533281 0.053071447 0.74300003 2.0745848e-38
0.0063685519 0.053071443 0.74299997 2.0465681e-38
0.0077837757 0.053071447 0.74299997 2.0192223e-38
0.0091990354 0.053071447 0.74299997 1.9711059e-38
0.010614259 0.053071443 0.74299997 1.9233609e-38
0.012029503 0.053071436 0.74299997 1.8694814e-38
0.013444727 0.053071447 0.74299997 1.8161461e-38
0.014859985 0.053071443 0.74299997 2.0747286e-38
0.01627521 0.05307145 0.74299997 2.341769e-38
0.017690469 0.053071436 0.74299997 2.341769e-38
0.019157149 0.053214308 0.74500006 2.341769e-38
0.020576179 0.053214297 0.74500006 2.3234019e-38
0.022054274 0.053357158 0.74700004 2.3050348e-38
0.023508564 0.053428587 0.74799997 2.3234019e-38
0.024933323 0.053428575 0.74799997 2.341769e-38
0.026358083 0.053428579 0.74799997 2.341769e-38
0.027857136 0.053571429 0.75000006 2.341769e-38
0.029285703 0.053571433 0.75000006 2.2219882e-38
0.030714288 0.053571433 0.75000006 2.11218e-38
0.03227143 0.053785726 0.75300002 2.10192e-38
0.033795226 0.053928588 0.755 2.0935976e-38
0.035279997 0.054000009 0.75599998 2.1854693e-38
0.036817133 0.054142874 0.75800002 2.2678673e-38
0.038260952 0.054142866 0.75800002 1.991246e-38
0.039809544 0.054285727 0.76000005 1.7055153e-38
0.041419987 0.054499999 0.76300001 1.6598125e-38
0.042873323 0.054499999 0.76300001 1.6050005e-38
0.044442847 0.054642871 0.76499999 1.6692874e-38
0.046319988 0.055142872 0.77199996 1.7334642e-38
0.047852386 0.055214297 0.77300006 1.7429342e-38
-0.032785725 0.056100003 0.76500005 8.7575128e-39
-0.031328581 0.056100003 0.76500005 1.1153855e-38
-0.029871454 0.056100011 0.76499999 1.3545921e-38
-0.028414309 0.056100011 0.76499999 1.3274399e-38
-0.026886672 0.055953342 0.76300001 1.3005396e-38
-0.025366701 0.055806693 0.76099998 1.3100865e-38
-0.02382287 0.05558667 0.75800002 1.3103023e-38
-0.022379056 0.055586673 0.75799996 1.3377818e-38
-0.020880021 0.055440009 0.75599998 1.3657261e-38
-0.019440018 0.05544002 0.75599998 1.4762507e-38
-0.017928571 0.055220015 0.75299996 1.5865625e-38
-0.016472401 0.055146676 0.75199997 1.5958194e-38
-0.015040022 0.055146679 0.75199997 1.6052185e-38
-0.013607644 0.055146679 0.75199997 1.6784362e-38
-0.012142879 0.055000007 0.75000006 1.7434384e-38
-0.01071428 0.055 0.75000006 1.7437252e-38
-0.0092857098 0.055 0.75000006 1.743833e-38
-0.0078571402 0.055 0.75000006 1.7528373e-38
-0.0064114337 0.05485335 0.74799997 1.7529088e-38
-0.0049800114 0.054780018 0.74700004 1.7434021e-38
-0.0035571544 0.054780025 0.74699998 1.7340752e-38
-0.0021228823 0.054486677 0.74299997 1.5044506e-38
-0.00070763798 0.054486673 0.74299997 1.2740712e-38
0.0007075998 0.054486685 0.74299997 1.1801894e-38
0.0021228441 0.054486685 0.74299997 1.0817181e-38
0.0035380679 0.054486677 0.74299997 1.6611791e-38
0.0049533066 0.054486681 0.74299997 2.238771e-38
0.0063685509 0.054486685 0.74299997 1.9802654e-38
0.0077837748 0.054486692 0.74299997 1.7128626e-38
0.0091990344 0.054486688 0.74299997 1.7950806e-38
0.010614258 0.054486681 0.74299997 1.8694438e-38
0.012029503 0.054486681 0.74299997 1.8516487e-38
0.013444739 0.054486692 0.74299997 1.8342244e-38
0.014859984 0.05448667 0.74299997 2.0938132e-38
0.01627521 0.054486677 0.74299997 2.341769e-38
0.017738093 0.054633342 0.74500006 2.341769e-38
0.019157141 0.054633353 0.74500006 2.341769e-38
0.020631403 0.054780014 0.74699998 2.3050348e-38
0.022083793 0.054853339 0.74799997 2.2591171e-38
0.023508552 0.05485335 0.74799997 2.3050348e-38
0.024933314 0.054853354 0.74799991 2.341769e-38
0.026428573 0.055000011 0.75000006 2.341769e-38
0.02785714 0.055000007 0.75000006 2.3320455e-38
0.029363792 0.055146679 0.75200003 2.1014146e-38
0.030837158 0.055220015 0.75300002 1.8705318e-38
0.032357126 0.05536668 0.755 1.860126e-38
0.033839978 0.055440016 0.75599998 1.8440943e-38
0.035280004 0.055440016 0.75599998 2.0662252e-38
0.036817133 0.055586681 0.75799996 2.2765838e-38
0.038260955 0.055586673 0.75800002 1.990959e-38
0.039861891 0.055806689 0.76099998 1.7061256e-38
0.041419987 0.055953342 0.76300001 1.7151299e-38
0.042873323 0.055953342 0.76300001 1.7153472e-38
0.044442855 0.056100018 0.76499999 1.752227e-38
0.046200007 0.056466669 0.77000004 1.7797766e-38
-0.03287144 0.057707645 0.76699996 8.2093361e-39
-0.031410486 0.057707638 0.76699996 1.0884031e-38
-0.029949531 0.057707634 0.76699996 1.3557717e-38
-0.028414302 0.057557158 0.76499999 1.3190428e-38
-0.026886692 0.057406686 0.76299995 1.2828508e-38
-0.025366681 0.057256218 0.76099998 1.3562874e-38
-0.023885714 0.057180971 0.76000005 1.4201787e-38
-0.022379033 0.05703048 0.75800002 1.4206103e-38
-0.020935249 0.057030492 0.75800002 1.4299718e-38
-0.019440023 0.05688002 0.75599998 1.4945423e-38
-0.017928574 0.056654301 0.75300002 1.5590453e-38
-0.016494293 0.056654301 0.75300002 1.5683751e-38
-0.015040018 0.05657905 0.75200003 1.5775595e-38
-0.013607658 0.056579057 0.75199997 1.6052185e-38
-0.012142873 0.056428574 0.75000006 1.6331277e-38
-0.010714304 0.056428578 0.75000006 1.6699694e-38
-0.0092857061 0.056428578 0.75000006 1.7157078e-38
-0.0078571355 0.05642857 0.75000006 1.7343617e-38
-0.0064114374 0.056278102 0.74799997 1.7530161e-38
-0.0049866759 0.056278102 0.74799997 1.7527293e-38
-0.0035619154 0.056278106 0.74799997 1.7618049e-38
-0.0021285699 0.056052383 0.74500006 1.6973763e-38
-0.00070952298 0.05605239 0.74500006 1.632694e-38
0.0007075998 0.05590193 0.74299997 1.61375e-38
0.0021228441 0.055901922 0.74300003 1.5957788e-38
0.0035380679 0.055901915 0.74299997 1.7519003e-38
0.0049533271 0.055901915 0.74300003 1.9166596e-38
0.0063685509 0.055901922 0.74299997 1.6755132e-38
0.0077837748 0.055901919 0.74299997 1.433408e-38
0.0091990344 0.055901915 0.74299997 1.4730151e-38
0.010614258 0.055901922 0.74299997 1.5219402e-38
0.012029503 0.055901922 0.74299997 1.5563725e-38
0.013444739 0.05590193 0.74299997 1.6028402e-38
0.014899987 0.056052398 0.745 1.9733867e-38
0.016319055 0.056052379 0.74500006 2.341769e-38
0.017738087 0.056052387 0.74500006 2.341769e-38
0.019157134 0.056052394 0.745 2.341769e-38
0.020631429 0.056202877 0.74700004 2.3234019e-38
