# .PCD v0.7 - Point Cloud Data file format
VERSION 0.7
FIELDS x y z rgb
SIZE 4 4 4 4
TYPE F F F F
COUNT 1 1 1 1
WIDTH 980
HEIGHT 1
VIEWPOINT 0 0 0 1 0 0 0
POINTS 980
DATA ascii
0.0076685529 0.02579426 0.73200005 1.1079766e-38
0.0090628527 0.025794275 0.73200005 1.1343431e-38
0.010485735 0.025864735 0.73400003 1.1634337e-38
0.011883805 0.025864743 0.73400003 1.3835852e-38
0.013281912 0.02586475 0.73400003 1.6049967e-38
0.014640018 0.025794268 0.73200005 1.5494308e-38
0.016078115 0.02586475 0.73400003 1.4853995e-38
0.017523808 0.025935225 0.73600006 1.475465e-38
0.018925725 0.025935233 0.73600006 1.4583893e-38
0.020327661 0.025935218 0.73600006 1.8264848e-38
0.021759052 0.025970474 0.73700005 2.1940415e-38
0.023162853 0.025970466 0.73700005 2.2131973e-38
0.024633331 0.026040949 0.73900002 2.2312057e-38
0.026040979 0.026040949 0.73899996 2.222381e-38
0.0274857 0.026076175 0.74000007 2.2128387e-38
0.028895235 0.026076183 0.74000001 2.2315647e-38
0.030386679 0.026146658 0.74200004 2.2499317e-38
0.031842876 0.026181906 0.74299997 2.057077e-38
0.033258103 0.026181892 0.74299997 1.8632891e-38
0.034766667 0.026252382 0.74500006 1.7520097e-38
0.036185738 0.026252382 0.745 1.6331614e-38
0.037705708 0.026322842 0.74700004 1.9088111e-38
0.039180983 0.026358083 0.74799997 2.1850345e-38
0.040714324 0.026428565 0.75 2.2401352e-38
0.042255253 0.026499026 0.75200009 2.2862688e-38
0.043745741 0.026534289 0.75300002 2.2862333e-38
0.045359995 0.026639983 0.75600004 2.2863413e-38
0.046923846 0.026710466 0.75800002 2.3138925e-38
0.048367634 0.026710451 0.75800002 2.341587e-38
0.050140038 0.026886649 0.76300001 2.3417668e-38
0.051593382 0.026886642 0.76300001 2.3417659e-38
-0.035933308 0.028599985 0.77000004 1.2265326e-38
-0.034019031 0.028228566 0.75999999 1.2544823e-38
-0.032485705 0.028154276 0.75800002 1.2734975e-38
-0.030960036 0.028079979 0.75600004 1.2919027e-38
-0.029519998 0.028079979 0.75600004 1.3105927e-38
-0.028042868 0.028042831 0.75500005 1.3198121e-38
-0.026604755 0.028042838 0.75500005 1.3386456e-38
-0.025066661 0.027931422 0.75200003 1.3569768e-38
-0.023571394 0.02785714 0.75 1.3848503e-38
-0.022054303 0.027745701 0.7470001 1.3937469e-38
-0.020631425 0.027745716 0.74700004 1.4127238e-38
-0.019157123 0.027671434 0.745 1.4123292e-38
-0.017690476 0.027597137 0.74300003 1.4216921e-38
-0.016253326 0.027559988 0.74200004 1.4214051e-38
-0.01479999 0.027485706 0.74000001 1.4310189e-38
-0.013372401 0.027448572 0.73900002 1.4490628e-38
-0.011964731 0.027448572 0.73900002 1.4771873e-38
-0.010557123 0.027448572 0.73900002 1.4583179e-38
-0.0091247652 0.027374275 0.73700005 1.4492059e-38
-0.0077104643 0.027337134 0.73600006 1.4214039e-38
-0.0063085649 0.027337126 0.73600006 1.3940325e-38
-0.0049066488 0.027337126 0.73600006 1.48576e-38
-0.0034952387 0.027262844 0.73400003 1.5782058e-38
-0.0020914394 0.027188547 0.73200005 1.5779192e-38
-0.00069713971 0.027188562 0.73199999 1.5775604e-38
0.00069714332 0.027188547 0.73200005 1.5499018e-38
0.0020914041 0.027188547 0.73200005 1.5224926e-38
0.003485702 0.027188554 0.73199999 1.5868829e-38
0.0048799869 0.027188547 0.73200005 1.6515258e-38
0.0062914658 0.027262844 0.73400003 1.6694616e-38
0.0076895338 0.027262844 0.73400003 1.6971194e-38
0.0090876427 0.027262844 0.73399997 1.7063384e-38
0.010514298 0.027337134 0.73600006 1.7164138e-38
0.011916215 0.027337134 0.73600006 1.8265036e-38
0.013318131 0.027337149 0.736 1.9468622e-38
0.014720007 0.027337134 0.73600006 1.9093786e-38
0.016121946 0.027337141 0.73600006 1.8820841e-38
0.017523821 0.027337126 0.73600006 1.8082261e-38
0.018925736 0.027337134 0.73600006 1.7356547e-38
0.020327613 0.027337134 0.73600006 1.9741759e-38
0.021759011 0.027374275 0.73700005 2.2223827e-38
0.023162834 0.027374275 0.73700005 2.2315661e-38
0.024633311 0.027448565 0.73900002 2.2499334e-38
0.026040982 0.027448572 0.73900002 2.2223829e-38
0.027485712 0.027485698 0.74000007 2.1948322e-38
0.02897333 0.027559973 0.74200004 2.1579545e-38
0.030427655 0.027597137 0.74299997 2.1213637e-38
0.031842876 0.027597129 0.74299997 2.0013315e-38
0.033347655 0.027671427 0.745 1.8721859e-38
0.034766685 0.027671419 0.745 1.8352345e-38
0.036282863 0.027745716 0.74700004 1.7987516e-38
0.037756227 0.02778285 0.74799997 2.028735e-38
0.039180968 0.027782843 0.74799997 2.2680793e-38
0.040714305 0.027857132 0.75000006 2.2863369e-38
0.042311449 0.027968571 0.75300002 2.3136735e-38
0.043861918 0.028042853 0.755 2.3137823e-38
0.045359991 0.028079972 0.75600004 2.3137119e-38
0.046923872 0.028154276 0.75800002 2.3230402e-38
0.048367653 0.028154276 0.75800002 2.3413354e-38
-0.035840012 0.02998855 0.76800001 1.3552064e-38
-0.034019053 0.029676184 0.75999999 1.364106e-38
-0.032485686 0.02959808 0.75800002 1.3650397e-38
-0.030959995 0.029519983 0.75600004 1.3372031e-38
-0.029519999 0.029519983 0.75600004 1.3104091e-38
-0.028042834 0.029480927 0.755 1.3565097e-38
-0.026604747 0.029480942 0.755 1.3934948e-38
-0.024999982 0.029285699 0.75000006 1.4213321e-38
-0.023571432 0.029285707 0.75 1.448991e-38
-0.022083823 0.029207602 0.74799997 1.4858335e-38
-0.020631427 0.029168561 0.74700004 1.5135992e-38
-0.019157145 0.029090464 0.74500006 1.5598038e-38
-0.017690439 0.029012382 0.74299997 1.5964305e-38
-0.016253335 0.028973311 0.74200004 1.651532e-38
-0.014839996 0.028973326 0.74200004 1.6978801e-38
-0.013390483 0.028895229 0.74000001 1.7625594e-38
-0.011964753 0.028856196 0.73899996 1.8175531e-38
-0.010557143 0.028856181 0.73899996 1.8176247e-38
-0.0091247801 0.028778091 0.73700005 1.8084051e-38
-0.0077104494 0.028739043 0.736 1.8180909e-38
-0.00630855 0.028739043 0.73600006 1.8176961e-38
-0.0049066339 0.028739043 0.73600006 1.9650633e-38
-0.0035047568 0.028739043 0.73600006 2.1026374e-38
-0.0020971354 0.028660938 0.73399997 2.1580976e-38
-0.00069904519 0.028660946 0.73400003 2.203513e-38
0.0006990637 0.028660931 0.73399997 2.2131987e-38
0.0020971317 0.028660946 0.73400003 2.2219148e-38
0.0034952629 0.028660931 0.73400003 2.2591144e-38
0.0048933309 0.028660938 0.73400003 2.2863059e-38
0.0062914398 0.028660953 0.73399997 2.2866642e-38
0.0077104978 0.02873905 0.73600006 2.27705e-38
0.009112414 0.028739043 0.736 2.2774802e-38
0.010514291 0.02873905 0.73600006 2.2680789e-38
0.01191623 0.028739035 0.73600006 2.2774752e-38
0.013336172 0.028778084 0.73700005 2.2774771e-38
0.014720022 0.028739043 0.73600006 2.2774791e-38
0.016143773 0.028778084 0.73700005 2.2773739e-38
0.017547633 0.028778099 0.73699999 2.1489143e-38
0.018925751 0.028739035 0.73600006 2.0111612e-38
0.020355232 0.028778099 0.73700005 2.1305474e-38
0.021759033 0.028778084 0.73700005 2.2407498e-38
0.023162834 0.028778084 0.73700005 2.2499332e-38
0.024633355 0.028856188 0.73899996 2.2588655e-38
0.026040968 0.028856196 0.73899996 2.2131987e-38
0.027485698 0.028895222 0.74000001 2.1668864e-38
0.028973363 0.028973326 0.74200004 2.084091e-38
0.030427627 0.029012375 0.74299997 1.9921478e-38
0.031842854 0.029012382 0.74299997 1.9362932e-38
0.033347633 0.029090472 0.74500006 1.8815129e-38
0.034766704 0.029090472 0.745 1.9272138e-38
0.03628286 0.029168569 0.74700004 1.9643784e-38
0.037756208 0.02920761 0.74799997 2.1576276e-38
0.039285734 0.029285707 0.75 2.3415836e-38
0.040714286 0.029285699 0.75 2.341761e-38
0.042311464 0.029402845 0.75300002 2.3413321e-38
0.043861907 0.029480942 0.755 2.3414414e-38
0.04548002 0.029598087 0.75800002 2.3321872e-38
0.046923805 0.029598072 0.75800002 2.3415873e-38
-0.035793323 0.031410471 0.76700002 1.5023908e-38
-0.034019057 0.031123795 0.76000005 1.5765782e-38
-0.03248569 0.03104189 0.75800002 1.6598756e-38
-0.031041887 0.031041898 0.75800002 1.6322169e-38
-0.029520022 0.030959994 0.75600004 1.6138568e-38
-0.028042868 0.03091903 0.75500005 1.5954607e-38
-0.026604757 0.030919023 0.75500005 1.5859896e-38
-0.025066677 0.030796178 0.75200003 1.5863118e-38
-0.023571411 0.030714266 0.75 1.5957478e-38
-0.022083819 0.030632362 0.74800003 1.6050403e-38
-0.020631453 0.030591421 0.74700004 1.6236223e-38
-0.019157127 0.030509524 0.74500006 1.6421685e-38
-0.017690461 0.030427605 0.74299997 1.6699705e-38
-0.016275238 0.030427612 0.74299997 1.6977008e-38
-0.014840004 0.030386642 0.7420001 1.7352242e-38
-0.013426663 0.030386649 0.74200004 1.7625955e-38
-0.011980942 0.030304752 0.74000001 1.7995091e-38
-0.010557141 0.030263796 0.73900002 1.8177686e-38
-0.0091495328 0.030263804 0.73900002 1.845678e-38
-0.0077209789 0.030181907 0.73700005 1.8639733e-38
-0.0063171554 0.030181892 0.73700005 1.8823763e-38
-0.0049133562 0.030181907 0.73700005 1.9651358e-38
-0.0035047419 0.030140944 0.73600006 2.0387119e-38
-0.0020971391 0.030059032 0.73400003 2.0845579e-38
-0.00069900794 0.03005904 0.73399997 2.1213638e-38
0.00069905998 0.030059032 0.73400003 2.1213279e-38
0.0020971671 0.03005904 0.73399997 2.1305474e-38
0.0034952369 0.03005904 0.73400003 2.1488427e-38
0.0049066953 0.030140944 0.736 2.1764651e-38
0.0063085742 0.030140936 0.73600006 2.1488427e-38
0.0077105109 0.030140936 0.73600006 2.1213638e-38
0.0091123898 0.030140944 0.73600006 2.1212562e-38
0.010514306 0.030140951 0.73600006 2.1213638e-38
0.011916183 0.030140944 0.73600006 2.1304039e-38
0.013336197 0.030181907 0.73700005 2.1489145e-38
0.014739996 0.0301819 0.73700005 2.1763575e-38
0.016143795 0.0301819 0.73700005 2.2040158e-38
0.017547596 0.0301819 0.73700005 2.176465e-38
0.018951394 0.0301819 0.73700005 2.158098e-38
0.020355217 0.030181892 0.73700005 2.1856487e-38
0.021759018 0.030181892 0.73700005 2.2131992e-38
0.023162819 0.0301819 0.73700005 2.0011882e-38
0.024633359 0.030263796 0.73899996 1.7805673e-38
0.026076181 0.030304745 0.74000001 1.7615181e-38
0.027559988 0.030386649 0.74200004 1.7346492e-38
0.029012408 0.03042762 0.74299997 1.872223e-38
0.030427631 0.030427612 0.74299997 2.0105504e-38
0.031842858 0.030427612 0.74300003 2.0563607e-38
0.033347625 0.030509531 0.745 2.1117833e-38
0.034766663 0.030509517 0.74500006 2.1299695e-38
0.036282834 0.030591421 0.74700004 2.15752e-38
0.037756216 0.030632369 0.74799997 2.1484798e-38
0.039285723 0.030714273 0.75000006 2.1489083e-38
0.040822856 0.03079617 0.75200009 2.0839758e-38
0.042311475 0.030837126 0.75300002 2.0286972e-38
0.043919977 0.030959979 0.75600004 2.037847e-38
0.045600004 0.031123802 0.75999999 2.0473544e-38
0.047047596 0.03112381 0.75999999 2.1208237e-38
-0.035840008 0.032914273 0.76800001 1.6410077e-38
-0.033929516 0.032485701 0.75800002 1.7982779e-38
-0.032485671 0.032485694 0.75800002 1.9451793e-38
-0.030960018 0.032399997 0.75600004 1.9270637e-38
-0.029520018 0.032399967 0.75600004 1.9083765e-38
-0.028042838 0.032357134 0.755 1.8438434e-38
-0.026604747 0.032357141 0.755 1.7701592e-38
-0.025066694 0.032228552 0.75200003 1.7605087e-38
-0.023634315 0.032228559 0.75200009 1.7426447e-38
-0.022142872 0.03214284 0.75000006 1.7332827e-38
-0.020659046 0.032057114 0.74800003 1.7244939e-38
-0.019208577 0.032014281 0.74700004 1.7336778e-38
-0.017690461 0.03184285 0.74299997 1.7340738e-38
-0.016275236 0.031842858 0.74300003 1.7523705e-38
-0.014859973 0.03184285 0.74299997 1.7712756e-38
-0.013426658 0.031799987 0.74200004 1.7714189e-38
-0.011980953 0.031714275 0.74000001 1.7715268e-38
-0.010557137 0.03167142 0.73900002 1.8266642e-38
-0.009149529 0.03167142 0.73900002 1.8819808e-38
-0.0077419207 0.03167142 0.73900002 1.9188945e-38
-0.0063171573 0.031585716 0.73699999 1.9465888e-38
-0.0049133319 0.031585708 0.73700005 1.9652072e-38
-0.0035047289 0.031542853 0.73600006 1.9742114e-38
-0.0020971429 0.031457126 0.73400003 2.0108019e-38
-0.00070093578 0.031542853 0.73600006 2.0384961e-38
0.0007009785 0.03154286 0.73600006 2.0384961e-38
0.0020971633 0.031457126 0.73399997 2.0293485e-38
0.0035047941 0.031542853 0.73600006 2.0475723e-38
0.0049066711 0.031542838 0.73600006 2.0568633e-38
0.0063085873 0.031542853 0.73600006 2.0108379e-38
0.0077104643 0.031542845 0.73600006 1.9649202e-38
0.0091124028 0.031542845 0.73600006 1.9648484e-38
0.010514319 0.03154286 0.73600006 1.9649561e-38
0.011932356 0.031585708 0.73700005 1.992184e-38
0.013336156 0.031585701 0.73700005 2.0108741e-38
0.014739979 0.031585693 0.73700005 2.0750156e-38
0.01614378 0.031585693 0.73700005 2.1304396e-38
0.017547619 0.031585716 0.73699999 2.2131632e-38
0.018951416 0.031585708 0.73699999 2.2957434e-38
0.020355217 0.031585708 0.73700005 2.2407497e-38
0.021759041 0.031585701 0.73700005 2.1842846e-38
0.023162842 0.031585708 0.73700005 1.7426846e-38
0.024633359 0.031671412 0.73900002 1.3005811e-38
0.026076194 0.031714275 0.74000001 1.2992521e-38
0.027560018 0.031799994 0.74200004 1.3007219e-38
0.029012408 0.031842843 0.74299997 1.6595611e-38
0.030427629 0.03184285 0.74300003 2.0185444e-38
0.031842854 0.031842835 0.74300003 2.1851037e-38
0.033347644 0.031928562 0.745 2.3412617e-38
0.034859993 0.032014281 0.74700004 2.3417658e-38
0.03633146 0.032057129 0.74799997 2.341299e-38
0.037756197 0.032057129 0.74799997 2.1482289e-38
0.039285719 0.032142855 0.75 1.9458664e-38
0.040985703 0.032357119 0.75500005 1.8256537e-38
0.042480003 0.032399982 0.75600004 1.7065205e-38
0.043920018 0.03239999 0.75600004 1.7339294e-38
0.045600004 0.03257142 0.76000005 1.7616949e-38
0.047109488 0.032614276 0.76100004 1.9087389e-38
-0.035839979 0.034377143 0.76800001 1.6505885e-38
-0.034242831 0.034242831 0.76500005 1.8165762e-38
-0.032485712 0.033929512 0.75800002 1.9914595e-38
-0.03104187 0.033929504 0.75800002 2.0098995e-38
-0.029519981 0.033839978 0.75600004 2.0374847e-38
-0.02804287 0.033795215 0.75500005 2.0190446e-38
-0.02653425 0.033705704 0.75299996 1.9913141e-38
-0.025066692 0.033660941 0.75200009 2.0003536e-38
-0.023634274 0.033660933 0.75200003 2.0004259e-38
-0.02214285 0.033571415 0.75 2.0004622e-38
-0.020659063 0.033481896 0.74800003 2.0002119e-38
-0.019208603 0.033437133 0.74700004 2.0189384e-38
-0.017738082 0.033347614 0.745 2.0373439e-38
-0.016275235 0.033258095 0.74300003 2.028414e-38
-0.014859973 0.033258088 0.74299997 2.0096879e-38
-0.013426665 0.033213325 0.74200004 1.9547298e-38
-0.01198094 0.033123814 0.74000001 1.8997007e-38
-0.010571446 0.033123799 0.74000001 1.94587e-38
-0.0091619138 0.033123791 0.74000001 2.0009715e-38
-0.0077418797 0.03307905 0.73899996 2.0289171e-38
-0.0063342713 0.033079036 0.73899996 2.0657592e-38
-0.0049133711 0.032989502 0.73700005 2.0658671e-38
-0.0035095476 0.032989509 0.73700005 2.0657952e-38
-0.0021028575 0.032944746 0.73600006 2.1025651e-38
-0.00070092088 0.032944754 0.73600006 2.1394069e-38
0.00070095801 0.032944761 0.73600006 2.1578458e-38
0.0021028705 0.032944746 0.73600006 2.1671372e-38
0.0035047866 0.032944754 0.736 2.1671015e-38
0.004906686 0.032944761 0.73600006 2.1761773e-38
0.0063086022 0.032944754 0.73600006 2.1577024e-38
0.0077104811 0.032944761 0.73600006 2.1483754e-38
0.0091123953 0.032944754 0.73600006 2.1486624e-38
0.010514297 0.032944754 0.73600006 2.1579895e-38
0.011932379 0.032989524 0.73700005 2.1670656e-38
0.01333618 0.032989517 0.73700005 2.1763572e-38
0.014739981 0.032989517 0.73700005 2.2038723e-38
0.016143803 0.032989509 0.73700005 2.2407138e-38
0.017547606 0.032989509 0.73700005 2.2497894e-38
0.018951405 0.032989502 0.73700005 2.2587578e-38
0.020355206 0.032989509 0.73700005 1.8900525e-38
0.021759007 0.032989517 0.73700005 1.5303508e-38
0.02322573 0.03307905 0.73899996 1.0976469e-38
0.024633341 0.03307905 0.73899996 6.5529116e-39
0.026076183 0.033123806 0.74000001 7.2943821e-39
0.027560007 0.033213317 0.74200004 8.0333512e-39
0.029012406 0.033258088 0.74300003 1.2085573e-38
0.030427629 0.033258095 0.74300003 1.6128481e-38
0.031928591 0.033347614 0.74500006 1.6689892e-38
0.033347629 0.033347607 0.74500006 1.7253514e-38
0.034859985 0.033437133 0.7470001 1.8626435e-38
0.036331438 0.033481896 0.74799997 2.0013647e-38
0.037857134 0.033571415 0.75000006 1.9366128e-38
0.039547618 0.033795223 0.75500005 1.8811158e-38
0.041039985 0.033839986 0.75600004 1.7522221e-38
0.042592429 0.033929512 0.75800002 1.6234387e-38
0.044036213 0.033929519 0.75800002 1.6048579e-38
0.045659959 0.034063801 0.76100004 1.5954573e-38
-0.035933323 0.035933323 0.77000004 1.6597011e-38
-0.034332342 0.035793319 0.76699996 1.8442712e-38
-0.032785695 0.035699986 0.76500005 2.0283745e-38
-0.031123826 0.035466664 0.76000005 2.1019525e-38
-0.029598068 0.035373315 0.75800002 2.1664517e-38
-0.028042838 0.035233326 0.755 2.1942886e-38
-0.026534274 0.035139993 0.75300002 2.2124049e-38
-0.025066653 0.035093322 0.75200003 2.2399558e-38
-0.023634294 0.03509333 0.75200003 2.2584308e-38
-0.022142826 0.034999996 0.75 2.2679375e-38
-0.020714276 0.035000004 0.75 2.2676508e-38
-0.019234292 0.034906648 0.74800003 2.3045648e-38
-0.017738063 0.034766667 0.745 2.3413003e-38
-0.016319029 0.034766659 0.74500006 2.2958501e-38
-0.014899958 0.034766667 0.745 2.2491789e-38
-0.013444772 0.034673341 0.74300003 2.1381152e-38
-0.012029508 0.034673333 0.74299997 2.0285585e-38
-0.010614283 0.034673341 0.74299997 2.0745122e-38
-0.0091866571 0.034626648 0.74200004 2.1115694e-38
-0.0077418759 0.034486659 0.73900002 2.1483757e-38
-0.0063342676 0.034486659 0.73900002 2.1852533e-38
-0.0049266592 0.034486659 0.73900002 2.1758544e-38
-0.0035095494 0.034393333 0.73700005 2.157631e-38
-0.0021028444 0.034346662 0.73600006 2.2034412e-38
-0.00070090598 0.034346662 0.73600006 2.2404265e-38
0.00070097105 0.034346662 0.73600006 2.2771249e-38
0.0021028854 0.03434667 0.73600006 2.3049268e-38
0.0035047624 0.034346655 0.73600006 2.295851e-38
0.0049066786 0.034346648 0.73600006 2.2864879e-38
0.006308578 0.034346648 0.73600006 2.3046398e-38
0.0077104941 0.034346662 0.73600006 2.3231862e-38
0.0091124102 0.034346662 0.736 2.332585e-38
0.010514287 0.034346662 0.73600006 2.3417327e-38
0.011932364 0.034393318 0.73700005 2.3417687e-38
0.013336163 0.034393325 0.73700005 2.341733e-38
0.014739964 0.034393333 0.73700005 2.341769e-38
0.016143803 0.034393325 0.73699999 2.341733e-38
0.017595239 0.034486666 0.73900002 2.2773404e-38
0.01900287 0.034486644 0.73900002 2.2121573e-38
0.020410476 0.034486651 0.73900002 1.5487522e-38
0.021818124 0.034486674 0.73899996 8.7749128e-39
0.023225734 0.034486659 0.73900002 4.4392645e-39
0.02466666 0.034533329 0.74000001 1.2512755e-40
0.026076194 0.034533322 0.74000001 1.5991394e-39
0.027559979 0.03462664 0.74200004 3.0771309e-39
0.029012382 0.034673333 0.74300003 7.5849764e-39
0.030509537 0.034766659 0.74500006 1.1997005e-38
0.031928588 0.034766667 0.745 1.1526687e-38
0.033437122 0.03486 0.74700004 1.0979982e-38
0.03486 0.034859993 0.74700004 1.3820428e-38
0.036331445 0.034906656 0.74799997 1.6593092e-38
0.03785716 0.034999996 0.75000006 1.7341071e-38
0.039547652 0.035233326 0.755 1.8072877e-38
0.041040022 0.035279997 0.75600004 1.6694617e-38
0.042704776 0.035466664 0.75999999 1.5310996e-38
0.044152368 0.035466664 0.76000005 1.4757839e-38
0.045660008 0.035513334 0.76100004 1.4207538e-38
-0.036026657 0.037497126 0.77200001 1.6599531e-38
-0.03433238 0.037254274 0.76700002 1.8535272e-38
-0.032785717 0.037157126 0.76500005 2.0564289e-38
-0.031246651 0.037059985 0.76300001 2.111461e-38
-0.029676199 0.036914289 0.75999999 2.1667414e-38
-0.028080028 0.036719978 0.75600004 2.1851082e-38
-0.026604757 0.036671415 0.755 2.20362e-38
-0.025099983 0.036574282 0.75300002 2.2495748e-38
-0.02363429 0.036525697 0.75200003 2.2866677e-38
-0.022201909 0.036525697 0.75200003 2.2957795e-38
-0.02071429 0.036428571 0.75000006 2.3050348e-38
-0.019234311 0.036331423 0.74800003 2.2865242e-38
-0.017738106 0.036185712 0.74500006 2.2774842e-38
-0.016319035 0.036185719 0.745 2.2681571e-38
-0.014900002 0.036185704 0.745 2.2591171e-38
-0.013444772 0.036088556 0.74300003 2.2219524e-38
-0.01202951 0.036088556 0.74299997 2.1855768e-38
-0.010614283 0.036088564 0.74299997 2.2037642e-38
-0.0091866646 0.036039986 0.74200004 2.2315663e-38
-0.0077523999 0.035942838 0.74000001 2.24979e-38
-0.0063428674 0.035942852 0.74000001 2.2683002e-38
-0.0049266573 0.03589429 0.73900002 2.2589368e-38
-0.0035190489 0.035894275 0.73900002 2.2497537e-38
-0.0021057222 0.035797141 0.73699999 2.2681212e-38
-0.00070189877 0.035797149 0.73700005 2.2958513e-38
0.00070098409 0.035748564 0.73600006 2.3049631e-38
0.0021028612 0.035748564 0.73600006 2.3234019e-38
0.0035047755 0.035748564 0.73600006 2.3234019e-38
0.0049066916 0.035748571 0.73600006 2.3142183e-38
0.0063085686 0.035748556 0.73600006 2.3232943e-38
0.0077105071 0.035748564 0.73600006 2.3325854e-38
0.0091123842 0.035748571 0.73600006 2.341769e-38
0.010528564 0.035797134 0.73699999 2.341769e-38
0.011932366 0.035797149 0.73699999 2.3142183e-38
0.013336187 0.035797134 0.73700005 2.2866677e-38
0.014739988 0.035797141 0.73700005 2.2585072e-38
0.016143788 0.035797127 0.73700005 2.24075e-38
0.017547591 0.035797141 0.73700005 2.2589736e-38
0.018951412 0.035797127 0.73700005 2.2678675e-38
0.020355213 0.035797127 0.73700005 1.8255477e-38
0.021759052 0.035797141 0.73699999 1.3919829e-38
0.023225734 0.03589429 0.73900002 9.685342e-39
0.024733329 0.036039971 0.74200004 5.4494185e-39
0.026076205 0.035942852 0.74000001 7.5756143e-39
0.027560009 0.036039986 0.74200004 9.6921831e-39
0.029012386 0.036088556 0.74300003 1.2828986e-38
0.03042765 0.036088564 0.74299997 1.5962121e-38
0.031928606 0.036185712 0.745 1.3186214e-38
0.033437155 0.03628286 0.74700004 1.0410654e-38
0.03486 0.036282845 0.74700004 1.1889301e-38
0.036331456 0.036331415 0.74800003 1.3360155e-38
0.03785716 0.036428571 0.75 1.5766582e-38
0.039547645 0.036671415 0.75500005 1.8158603e-38
0.041148599 0.036817126 0.75800002 1.705657e-38
0.04259238 0.036817133 0.75800002 1.594522e-38
0.044152401 0.036914289 0.75999999 1.5491067e-38
0.045660015 0.036962859 0.76100004 1.5124807e-38
0.047109552 0.036962844 0.76100004 1.5032977e-38
-0.036026649 0.038967617 0.77199996 1.6598093e-38
-0.034153316 0.038513329 0.76299995 1.8718221e-38
-0.032699972 0.038513314 0.76300001 2.0744726e-38
-0.031328544 0.038614281 0.76499999 2.1207516e-38
-0.029676203 0.038361888 0.76000005 2.166669e-38
-0.028079988 0.038159985 0.75600004 2.1850001e-38
-0.026639992 0.038159981 0.75600004 2.1943282e-38
-0.025099969 0.038008563 0.75300002 2.2587934e-38
-0.023665689 0.038008574 0.75299996 2.3141462e-38
-0.022201929 0.037958074 0.75200003 2.3325854e-38
-0.020714264 0.03785713 0.75 2.341733e-38
-0.019234266 0.037756179 0.74799997 2.2773402e-38
-0.017785717 0.037705705 0.74700004 2.2037282e-38
-0.016319016 0.037604764 0.745 2.2309201e-38
-0.014899983 0.03760476 0.745 2.2589015e-38
-0.013480949 0.037604745 0.74500006 2.3050348e-38
-0.012029508 0.037503794 0.74299997 2.3417689e-38
-0.010614282 0.037503794 0.74300003 2.3417689e-38
-0.0091990195 0.037503794 0.74299997 2.3417689e-38
-0.0077733323 0.037453316 0.7420001 2.341769e-38
-0.0063428562 0.037352383 0.74000001 2.3417689e-38
-0.0049266778 0.037301905 0.73900002 2.3417686e-38
-0.0035190471 0.037301891 0.73900002 2.341733e-38
-0.002105739 0.037200935 0.73700005 2.341769e-38
-0.00070193975 0.03720095 0.73700005 2.341769e-38
0.00070188375 0.037200935 0.73700005 2.341769e-38
0.0021057241 0.03720095 0.73699999 2.341769e-38
0.0035095233 0.037200958 0.73700005 2.341769e-38
0.0049066674 0.037150472 0.73600006 2.341769e-38
0.0063085835 0.03715048 0.73600006 2.341769e-38
0.0077104997 0.03715048 0.736 2.341769e-38
0.0091247503 0.037200943 0.73700005 2.341769e-38
0.01052855 0.037200935 0.73700005 2.3417651e-38
0.011932351 0.037200943 0.73700005 2.2866599e-38
0.01333615 0.037200943 0.73700005 2.2202616e-38
0.014780026 0.037301898 0.73900002 2.1831717e-38
0.016143814 0.03720095 0.73700005 2.1389767e-38
0.017595245 0.037301898 0.73900002 2.2315664e-38
0.018951412 0.03720095 0.73700005 2.3232571e-38
0.020355236 0.037200928 0.73700005 2.1119624e-38
0.021818109 0.037301898 0.73899996 1.8988386e-38
0.023320016 0.037453316 0.74200004 1.4840715e-38
0.024733353 0.037453316 0.74200004 1.070775e-38
0.026146658 0.037453309 0.7420001 1.3469983e-38
0.027559996 0.037453309 0.74200004 1.6230807e-38
0.029012423 0.037503809 0.74299997 1.8076146e-38
0.030509548 0.037604764 0.745 1.9910316e-38
0.032014273 0.037705697 0.74700004 1.4936461e-38
0.033481907 0.037756171 0.74799997 9.8635843e-39
0.034906674 0.037756179 0.74799997 9.9664999e-39
0.036331438 0.037756186 0.74799997 1.0063411e-38
0.037857145 0.03785713 0.75000006 1.4114629e-38
0.039547589 0.038109507 0.75500005 1.8162204e-38
0.041148618 0.038260933 0.75800002 1.7336401e-38
0.04276095 0.038412381 0.76100004 1.6507011e-38
0.044210486 0.03841237 0.76100004 1.6227918e-38
0.045780003 0.03851331 0.76300001 1.5953485e-38
-0.034242824 0.040071417 0.76499999 1.8533829e-38
-0.03270001 0.039966643 0.76300001 2.0284108e-38
-0.031246662 0.039966643 0.76300001 2.092985e-38
-0.029676165 0.039809514 0.75999999 2.1574491e-38
-0.028154291 0.039704747 0.75800002 2.1666683e-38
-0.026640013 0.039599977 0.75600004 2.1850363e-38
-0.02509998 0.039442856 0.75300002 2.2403535e-38
-0.023665678 0.039442852 0.75299996 2.2958504e-38
-0.022201924 0.03939046 0.75200003 2.3234019e-38
-0.020714305 0.039285701 0.75000006 2.3417686e-38
-0.019234259 0.039180949 0.74799997 2.3049263e-38
-0.017785717 0.039128575 0.74700004 2.2771244e-38
-0.016319036 0.039023809 0.74500006 2.2863436e-38
-0.014899965 0.039023802 0.745 2.3047831e-38
-0.013480932 0.039023809 0.74500006 2.3233302e-38
-0.012029508 0.038919039 0.74300003 2.341769e-38
-0.010614283 0.038919039 0.74300003 2.341769e-38
-0.0091866665 0.038866639 0.74200004 2.341769e-38
-0.0077733267 0.038866654 0.74200004 2.341769e-38
-0.0063428674 0.038761895 0.74000001 2.341769e-38
-0.0049266741 0.038709518 0.73900002 2.341769e-38
-0.0035190638 0.038709514 0.73900002 2.341769e-38
-0.0021057166 0.038604762 0.73700005 2.341769e-38
-0.00070191739 0.038604751 0.73700005 2.341769e-38
0.00070188561 0.038604759 0.73700005 2.341769e-38
0.002105685 0.038604762 0.73700005 2.341769e-38
0.0035095084 0.038604755 0.73700005 2.341769e-38
0.0049133096 0.038604759 0.73700005 2.341769e-38
0.0063085984 0.03855237 0.73600006 2.341769e-38
0.0077104755 0.03855237 0.73600006 2.341769e-38
0.0091247726 0.038604748 0.73700005 2.1208616e-38
0.010528572 0.038604755 0.73700005 1.8917672e-38
0.011932373 0.038604759 0.73700005 1.5022835e-38
0.013336172 0.038604755 0.73700005 1.1143565e-38
0.014780006 0.038709514 0.73899996 1.5666525e-38
0.016187616 0.038709521 0.73900002 2.0289527e-38
0.017619051 0.038761891 0.74000001 2.1763216e-38
0.019028584 0.038761899 0.74000001 2.3234019e-38
0.020438116 0.038761903 0.74000001 2.2221317e-38
0.021847609 0.038761888 0.74000001 2.1206098e-38
0.023319984 0.038866643 0.74200004 1.7613027e-38
0.024733346 0.038866643 0.74200004 1.4030005e-38
0.026146686 0.038866654 0.74200004 1.5777027e-38
0.027597135 0.038919039 0.74300003 1.7623775e-38
0.029090498 0.039023798 0.74500006 1.8448492e-38
0.03059143 0.039128564 0.74700004 1.9370769e-38
0.03201431 0.039128575 0.74700004 1.4562654e-38
0.033481915 0.039180946 0.74799997 9.7426901e-39
0.034906678 0.039180934 0.74799997 1.1521608e-38
0.036428597 0.039285712 0.75 1.3281246e-38
0.037857171 0.039285704 0.75000006 1.5496475e-38
0.039547618 0.039547618 0.755 1.7712009e-38
0.041257132 0.039809514 0.76000005 1.7156335e-38
0.042760957 0.039861899 0.76100004 1.670146e-38
0.044210494 0.039861903 0.76100004 1.6510253e-38
0.045780025 0.039966643 0.76300001 1.6418406e-38
-0.034242842 0.041528564 0.76499999 1.8349084e-38
-0.032699984 0.041419972 0.76300001 1.9822774e-38
-0.031246662 0.041419983 0.76300001 2.0652539e-38
-0.02967619 0.041257139 0.75999999 2.1481935e-38
-0.028154274 0.041148547 0.75800002 2.1575214e-38
-0.026640015 0.041039985 0.75600004 2.1667053e-38
-0.025166653 0.0409857 0.75500005 2.2217712e-38
-0.023634301 0.040822841 0.75200003 2.2773039e-38
-0.022201922 0.040822834 0.75200009 2.3142183e-38
-0.020714279 0.040714279 0.75000006 2.3417689e-38
-0.019285705 0.040714286 0.75000006 2.3417686e-38
-0.017785721 0.040551424 0.7470001 2.3416967e-38
-0.016362842 0.04055142 0.74700004 2.3417684e-38
-0.014900009 0.040442858 0.74500006 2.341697e-38
-0.013480938 0.040442873 0.745 2.341769e-38
-0.012061905 0.040442858 0.74500006 2.341769e-38
-0.010614268 0.040334292 0.74299997 2.341769e-38
-0.0091990419 0.040334284 0.74299997 2.341769e-38
-0.0077733342 0.040279977 0.74200004 2.341769e-38
-0.0063428544 0.040171411 0.74000001 2.341769e-38
-0.004933361 0.040171407 0.74000001 2.341769e-38
-0.0035190266 0.040117145 0.73899996 2.341769e-38
-0.0021057297 0.040008556 0.73700005 2.341769e-38
-0.00070193043 0.04000856 0.73700005 2.341769e-38
0.00070190983 0.040008564 0.73699999 2.341769e-38
0.0021057092 0.040008575 0.73699999 2.341769e-38
0.0035047587 0.039954271 0.73600006 2.341769e-38
0.0049133338 0.040008567 0.73700005 2.3417649e-38
0.0063171331 0.040008571 0.73700005 2.3417609e-38
0.0077104904 0.039954275 0.73600006 2.3400415e-38
0.0091247335 0.040008567 0.73700005 1.8897632e-38
0.010528557 0.040008567 0.73700005 1.4367501e-38
0.011964792 0.040117133 0.73899996 7.2555731e-39
0.013372401 0.040117145 0.73900002 1.0896777e-40
0.01478001 0.040117145 0.73900002 9.5853047e-39
0.016187619 0.040117137 0.73900002 1.9085626e-38
0.017619042 0.040171418 0.74000001 2.1213638e-38
0.019028574 0.040171415 0.74000001 2.3234019e-38
0.020438105 0.040171426 0.74000001 2.3325854e-38
0.021847621 0.040171407 0.74000001 2.3321185e-38
0.023320012 0.040279992 0.74200004 2.0375627e-38
0.024733316 0.040279977 0.74200004 1.7339673e-38
0.026181908 0.040334269 0.74300003 1.8168343e-38
0.027597172 0.040334284 0.74299997 1.8908047e-38
0.029090492 0.040442862 0.745 1.890625e-38
0.030591406 0.04055142 0.74700004 1.8810097e-38
0.032057155 0.040605705 0.74799997 1.4292209e-38
0.033571441 0.040714275 0.75000006 9.6874916e-39
0.035000011 0.040714279 0.75000006 1.3096499e-38
0.036525711 0.040822841 0.75200003 1.6502334e-38
0.0380086 0.040877145 0.75300002 1.6877956e-38
0.039547611 0.040985703 0.75500005 1.7245661e-38
0.041257165 0.041257147 0.75999999 1.7058764e-38
0.042760961 0.041311413 0.76100004 1.6786125e-38
0.044210453 0.041311424 0.76100004 1.6785405e-38
0.045780003 0.041419979 0.76299995 1.6785761e-38
-0.034242839 0.042985704 0.76500005 1.8164697e-38
-0.032699984 0.042873323 0.76299995 1.9730217e-38
-0.031246636 0.042873327 0.76300001 2.0652527e-38
-0.029715238 0.042760942 0.76100004 2.1573769e-38
-0.028154278 0.042592369 0.75800002 2.1850726e-38
-0.026639998 0.042479992 0.75600004 2.2034398e-38
-0.025099955 0.042311423 0.75300002 2.2403177e-38
-0.0236343 0.042255227 0.75200009 2.2865592e-38
-0.022201903 0.042255223 0.75200003 2.3141825e-38
-0.020714253 0.042142846 0.75 2.341769e-38
-0.019285705 0.042142861 0.75 2.341769e-38
-0.017809505 0.042030461 0.74799997 2.341769e-38
-0.016362866 0.041974269 0.74700004 2.341769e-38
-0.014899991 0.041861899 0.74500006 2.341769e-38
-0.013480919 0.041861903 0.745 2.341769e-38
-0.012061886 0.041861895 0.745 2.341769e-38
-0.010642854 0.041861895 0.74500006 2.341769e-38
-0.0091990419 0.041749507 0.74300003 2.341769e-38
-0.0077733081 0.041693322 0.74200004 2.341769e-38
-0.0063600056 0.041693304 0.7420001 2.341769e-38
-0.0049333498 0.041580949 0.74000001 2.341769e-38
-0.0035238173 0.041580938 0.74000001 2.341769e-38
-0.0021057297 0.041412372 0.73699999 2.341769e-38
-0.00070190808 0.041412368 0.73700005 2.341769e-38
0.00070380227 0.041524757 0.73900002 2.2590812e-38
0.0021114126 0.04152476 0.73900002 2.1856487e-38
0.0035094935 0.041412368 0.73700005 1.9639162e-38
0.0049266908 0.041524749 0.73900002 1.7540137e-38
0.0063342992 0.041524757 0.73900002 1.4658716e-38
0.0077209566 0.041412383 0.73699999 1.1797878e-38
0.009149516 0.041524753 0.73900002 9.4880518e-39
0.010557123 0.041524757 0.73900002 7.2556222e-39
0.01196477 0.041524764 0.73899996 3.6757936e-39
0.013372403 0.041524753 0.73900002 9.3553488e-41
0.014780012 0.041524757 0.73900002 1.0053819e-38
0.016187619 0.041524749 0.73900002 2.0019771e-38
0.017619053 0.041580953 0.74000001 2.158098e-38
0.019080024 0.04169333 0.74200004 2.3234019e-38
0.020493325 0.041693311 0.7420001 2.3142183e-38
0.021906666 0.041693322 0.74200004 2.3050342e-38
0.023320004 0.041693315 0.74200004 2.037778e-38
0.024733346 0.041693326 0.74200004 1.7703072e-38
0.026181912 0.041749518 0.74300003 1.8169424e-38
0.027597174 0.041749507 0.74299997 1.8730125e-38
0.029090509 0.041861899 0.745 1.8633628e-38
0.030591441 0.041974276 0.74700004 1.863004e-38
0.032057162 0.042030457 0.74800003 1.6231195e-38
0.033571437 0.042142849 0.75 1.3924528e-38
0.035093334 0.042255227 0.75200003 1.4936851e-38
0.036525715 0.04225523 0.75200003 1.5865613e-38
0.038008593 0.042311423 0.75300002 1.6324435e-38
0.039547641 0.042423803 0.755 1.678254e-38
0.041148588 0.042592369 0.75799996 1.6506679e-38
0.042760968 0.042760938 0.76100004 1.6231888e-38
0.04421046 0.04276095 0.76100004 1.6416991e-38
0.045779992 0.042873323 0.76300001 1.6693938e-38
-0.034242831 0.044442844 0.76500005 1.797959e-38
-0.032699998 0.044326648 0.76300001 1.9547266e-38
-0.031164769 0.044210464 0.76100004 2.0653611e-38
-0.02979333 0.044326637 0.76300001 2.1667401e-38
-0.028228564 0.044152379 0.76000005 2.203619e-38
-0.026710454 0.04403618 0.75800002 2.2403177e-38
-0.0252 0.043919973 0.75600004 2.2679046e-38
-0.0236657 0.043745708 0.75300002 2.2864876e-38
-0.022201899 0.043687601 0.75200003 2.3142183e-38
-0.020714294 0.043571416 0.75000006 2.341769e-38
-0.01928572 0.043571416 0.75000006 2.341769e-38
-0.017785711 0.043397136 0.74700004 2.341769e-38
-0.016362868 0.04339714 0.74700004 2.341769e-38
-0.014899974 0.043280955 0.745 2.341769e-38
-0.013480941 0.043280944 0.74500006 2.341769e-38
-0.01206187 0.043280955 0.745 2.341769e-38
-0.010642836 0.043280955 0.74500006 2.341769e-38
-0.0091990419 0.043164745 0.74300003 2.341769e-38
-0.007783778 0.043164756 0.74299997 2.341769e-38
-0.0063599963 0.04310666 0.74200004 2.341769e-38
-0.0049466584 0.043106653 0.74200004 2.341769e-38
-0.003523808 0.042990461 0.74000001 2.3417683e-38
-0.0021114107 0.042932376 0.73900002 2.3417675e-38
-0.00070194533 0.042816192 0.73700005 2.3410485e-38
0.00070380786 0.042932376 0.73900002 2.1855004e-38
0.0021114163 0.042932384 0.73900002 2.0167167e-38
0.0035190638 0.04293238 0.73899996 1.5834038e-38
0.0049266703 0.042932384 0.73899996 1.1524901e-38
0.0063343029 0.042932365 0.73900002 5.7869339e-39
0.0077419095 0.042932369 0.73900002 1.1900247e-40
0.0091495179 0.042932376 0.73900002 9.2855641e-41
0.010557165 0.042932376 0.73899996 1.0142738e-40
0.011964776 0.042932384 0.73900002 9.8878422e-41
0.013390483 0.042990468 0.74000001 1.0610772e-40
0.014799977 0.042990468 0.74000001 1.0516578e-38
0.016209532 0.042990472 0.74000001 2.0835167e-38
0.017666653 0.043106645 0.74200004 2.2040158e-38
0.019079993 0.043106638 0.74200004 2.3142182e-38
0.020493332 0.043106649 0.74200004 2.2958511e-38
0.021906694 0.043106657 0.74200004 2.2772684e-38
0.023319997 0.043106638 0.7420001 2.0382445e-38
0.024733337 0.043106649 0.7420001 1.7988265e-38
0.026181925 0.043164752 0.74299997 1.8259826e-38
0.027597152 0.043164756 0.74299997 1.8542508e-38
0.02909049 0.043280948 0.74500006 1.8451033e-38
0.030591436 0.043397143 0.74700004 1.8357046e-38
0.032057144 0.043455224 0.74799997 1.8261625e-38
0.033571426 0.043571427 0.75000006 1.8161159e-38
0.035 0.043571416 0.75000006 1.6677419e-38
0.036428608 0.043571424 0.75 1.5217382e-38
0.0380086 0.0437457 0.75300002 1.5770912e-38
0.03954763 0.043861885 0.75500005 1.6325143e-38
0.041148607 0.044036187 0.75800002 1.6045321e-38
0.042760927 0.044210464 0.76100004 1.5679421e-38
0.044210464 0.044210471 0.76100004 1.6140758e-38
0.045780018 0.044326656 0.76300001 1.6508823e-38
-0.034153316 0.045779977 0.76300001 1.788847e-38
-0.032614298 0.045659989 0.76100004 1.9458303e-38
-0.031123832 0.045599986 0.76000005 2.037847e-38
-0.029715247 0.045659989 0.76100004 2.130329e-38
-0.028154243 0.045479987 0.75800002 2.1760324e-38
-0.026710458 0.045479991 0.75800002 2.2220224e-38
-0.025200022 0.045359977 0.75600004 2.2588289e-38
-0.023665687 0.045179985 0.75300002 2.2956713e-38
-0.022201896 0.045119993 0.75200003 2.323366e-38
-0.020769536 0.045119986 0.75200003 2.341769e-38
-0.019285697 0.044999987 0.75 2.341769e-38
-0.017809514 0.044879999 0.74799997 2.341769e-38
-0.016362835 0.044819996 0.74700004 2.341769e-38
-0.014899979 0.044700004 0.745 2.341769e-38
-0.013480945 0.044700004 0.745 2.341769e-38
-0.012061913 0.044699993 0.74500006 2.341769e-38
-0.010642841 0.0447 0.745 2.341769e-38
-0.0091990642 0.04457999 0.74300003 2.341769e-38
-0.0077838022 0.044579998 0.74299997 2.341769e-38
-0.0063600074 0.04451998 0.74200004 2.341769e-38
-0.0049466677 0.044519991 0.74200004 2.3228997e-38
-0.003533328 0.044519983 0.74200004 2.3050333e-38
-0.0021114312 0.04434 0.73900002 1.9263179e-38
-0.00070379867 0.044339996 0.73900002 1.5491793e-38
0.00070380972 0.044339985 0.73900002 1.5198677e-38
0.002114296 0.044399995 0.74000001 1.4877968e-38
0.0035190638 0.044339988 0.73899996 1.611631e-38
0.00493332 0.044399984 0.74000001 1.7407385e-38
0.0063428506 0.044399995 0.74000001 1.2899909e-38
0.007741889 0.044339996 0.73900002 8.4200872e-39
0.0091495216 0.044339996 0.73900002 9.5052807e-39
0.010571431 0.044399995 0.74000001 1.0682603e-38
0.011980964 0.044399992 0.74000001 8.2891022e-39
0.013390457 0.044399992 0.74000001 5.8784709e-39
0.01479999 0.044399999 0.74000001 1.1432058e-38
0.01620952 0.044399999 0.74000001 1.708103e-38
0.017619053 0.044400007 0.74000001 1.8088361e-38
0.01908002 0.044519987 0.74200004 1.9192897e-38
0.020493321 0.044519972 0.74200004 2.0936692e-38
0.021906663 0.04451998 0.74200004 2.2586859e-38
0.023320004 0.044519991 0.74200004 2.1393353e-38
0.024733342 0.044519983 0.74200004 2.0106939e-38
0.026181925 0.04457999 0.74299997 2.0013668e-38
0.02759715 0.044579994 0.74299997 1.992291e-38
0.029090485 0.0447 0.745 1.9555927e-38
0.030591412 0.044819996 0.74700004 1.9279707e-38
0.032057147 0.04487998 0.74800003 1.8910576e-38
0.033571448 0.044999991 0.75 1.8454962e-38
0.035000019 0.044999983 0.75000006 1.834373e-38
0.0365257 0.04511999 0.75200003 1.8156836e-38
0.038109526 0.045299996 0.755 1.8993764e-38
0.039547615 0.045299992 0.755 1.9915322e-38
0.041148588 0.045479987 0.75800002 1.8441266e-38
0.042760938 0.045659997 0.76100004 1.6962948e-38
0.044210471 0.045659997 0.76100004 1.6688893e-38
0.04578004 0.045779988 0.76300001 1.6415186e-38
-0.034063827 0.047109503 0.76100004 1.7705503e-38
-0.032614313 0.047109511 0.76100004 1.9269959e-38
-0.031123796 0.047047611 0.75999999 2.0098294e-38
-0.029676206 0.047047615 0.76000005 2.0837654e-38
-0.028154286 0.046923801 0.75800002 2.1389396e-38
-0.026710439 0.046923798 0.75800002 2.194364e-38
-0.025199983 0.046799995 0.75600004 2.249645e-38
-0.023728544 0.046738092 0.755 2.3049263e-38
-0.022231396 0.046614278 0.75300002 2.3234019e-38
-0.020769533 0.046552364 0.75200003 2.341769e-38
-0.019337151 0.046552364 0.75200009 2.341769e-38
-0.01780951 0.046304751 0.74799997 2.341769e-38
-0.016362859 0.046242848 0.74700004 2.341769e-38
-0.014940019 0.046242848 0.74700004 2.341769e-38
-0.013517138 0.046242848 0.74700004 2.341769e-38
-0.012061894 0.046119049 0.74500006 2.341769e-38
-0.010642823 0.046119042 0.745 2.341769e-38
-0.009199027 0.045995235 0.74299997 2.341769e-38
-0.0077838004 0.045995243 0.74299997 2.341769e-38
-0.0063685775 0.045995228 0.74300003 2.3411905e-38
-0.0049466752 0.045933314 0.7420001 2.3029452e-38
-0.0035333354 0.045933321 0.74200004 2.2651345e-38
-0.0021143127 0.045809522 0.74000001 1.5092133e-38
-0.00070382102 0.045747615 0.73900002 7.5662886e-39
0.00070378737 0.045747608 0.73900002 8.5703834e-39
0.0021114573 0.045747619 0.73900002 9.5816697e-39
0.0035190657 0.045747623 0.73900002 1.6438143e-38
0.0049333312 0.045809519 0.74000001 2.3214947e-38
0.0063428618 0.045809515 0.74000001 1.9893077e-38
0.0077523571 0.045809515 0.74000001 1.6597782e-38
0.0091618877 0.045809522 0.74000001 1.9009562e-38
0.010571443 0.045809515 0.74000001 2.1281395e-38
0.01201335 0.045933314 0.74200004 1.6495887e-38
0.01342669 0.045933321 0.74200004 1.1616061e-38
0.01484003 0.045933317 0.74200004 1.2435058e-38
0.016253334 0.045933306 0.74200004 1.3207068e-38
0.017666671 0.045933302 0.74200004 1.4223017e-38
0.019080011 0.04593331 0.74200004 1.5240023e-38
0.020493349 0.045933317 0.74200004 1.8824477e-38
0.021906652 0.045933302 0.7420001 2.2405343e-38
0.023351435 0.045995235 0.74300003 2.2313147e-38
0.024766698 0.045995239 0.74299997 2.2222029e-38
0.026181923 0.045995228 0.74299997 2.1764647e-38
0.02767143 0.046119042 0.74500006 2.1212199e-38
0.029090501 0.046119053 0.745 2.0753739e-38
0.030632393 0.046304744 0.74800003 2.0200218e-38
0.032057159 0.046304747 0.74800003 1.9461948e-38
0.033571444 0.046428569 0.75 1.8718626e-38
0.035000023 0.046428569 0.75 1.9902056e-38
0.0365257 0.046552368 0.75200009 2.110885e-38
0.038109519 0.046738084 0.75500005 2.2315646e-38
0.0396 0.046799984 0.75600004 2.3411561e-38
0.041148607 0.04692379 0.75800002 2.0840872e-38
0.042760946 0.047109511 0.76100004 1.8165438e-38
0.044210479 0.047109514 0.76100004 1.7236314e-38
0.045780025 0.04723331 0.76300001 1.6230797e-38
-0.034153327 0.04868665 0.76300001 1.7610066e-38
-0.032614306 0.048559029 0.76100004 1.9082332e-38
-0.031123821 0.048495229 0.75999999 1.9913541e-38
-0.029676167 0.048495237 0.75999999 2.0743305e-38
-0.028154263 0.048367608 0.75800002 2.1297921e-38
-0.026710482 0.048367612 0.75800002 2.1944356e-38
-0.025200006 0.04823998 0.75600004 2.240425e-38
-0.023728576 0.048176181 0.755 2.2958144e-38
-0.022231383 0.048048552 0.75300002 2.3142183e-38
-0.020769529 0.047984742 0.75200009 2.341769e-38
-0.019337174 0.047984745 0.75200003 2.341769e-38
-0.017809505 0.047729518 0.74799997 2.341769e-38
-0.016384739 0.047729507 0.74799997 2.341769e-38
-0.014939982 0.047665711 0.74700004 2.341769e-38
-0.013517141 0.047665697 0.74700004 2.341769e-38
-0.012094263 0.047665708 0.74700004 2.341769e-38
-0.010642843 0.04753809 0.74500006 2.341769e-38
-0.0092237722 0.047538087 0.745 2.341769e-38
-0.0077838041 0.047410466 0.74300003 2.3325137e-38
-0.0063685402 0.047410477 0.74299997 2.3322895e-38
-0.0049533136 0.04741047 0.74299997 2.2197103e-38
-0.0035380907 0.04741047 0.74300003 2.1075715e-38
-0.0021142997 0.047219034 0.74000001 1.8130891e-38
-0.00070476724 0.047219038 0.74000001 1.5171028e-38
0.0007047634 0.047219031 0.74000001 1.2318425e-38
0.0021142792 0.047219031 0.74000007 9.5515642e-39
0.0035238117 0.047219038 0.74000001 1.6415592e-38
0.0049333423 0.047219038 0.74000001 2.3234004e-38
0.0063428767 0.047219045 0.74000001 1.8970095e-38
0.0077523682 0.047219042 0.74000001 1.4751417e-38
0.0091619007 0.047219038 0.74000001 1.8449964e-38
0.010571433 0.047219045 0.74000001 2.2223829e-38
0.012013318 0.047346655 0.74200004 1.9641673e-38
0.013426657 0.047346648 0.74200004 1.7164239e-38
0.014839998 0.047346652 0.74200004 1.7521867e-38
0.016253337 0.047346663 0.74200004 1.7997212e-38
0.017666679 0.047346659 0.74200004 1.8362427e-38
0.019080004 0.047346655 0.7420001 1.8821965e-38
0.020493343 0.047346648 0.74200004 2.0844858e-38
0.021906685 0.047346652 0.74200004 2.2958511e-38
0.023351416 0.047410473 0.74300003 2.2865958e-38
0.024766678 0.04741047 0.74299997 2.2774842e-38
0.026181903 0.047410473 0.74299997 2.2131993e-38
0.027597129 0.047410477 0.74300003 2.158098e-38
0.029207611 0.047729511 0.74799997 2.0386042e-38
0.030632377 0.047729511 0.74799997 1.9193257e-38
0.032142863 0.047857139 0.75 1.7895722e-38
0.033571437 0.047857128 0.75000006 1.6688557e-38
0.035093326 0.047984742 0.75200009 1.7604727e-38
0.036574312 0.048048563 0.75300002 1.8550378e-38
0.038109526 0.048176181 0.755 2.1028532e-38
0.039547637 0.048176188 0.755 2.3411592e-38
0.041148581 0.048367601 0.75800002 2.157524e-38
0.042760953 0.04855904 0.76100004 1.9641283e-38
0.044210441 0.048559036 0.76100004 1.7978528e-38
0.045900002 0.048814278 0.76500005 1.6324785e-38
-0.034153301 0.050139979 0.76300001 1.7516085e-38
-0.032699984 0.05013999 0.76300001 1.8807906e-38
-0.031246636 0.050139979 0.76300001 1.9730232e-38
-0.029676193 0.049942855 0.75999999 2.056071e-38
-0.028228579 0.049942855 0.76000005 2.1298637e-38
-0.02678095 0.049942866 0.75999999 2.1942919e-38
-0.025200004 0.049679987 0.75600004 2.2402096e-38
-0.023728583 0.049614269 0.75500005 2.2773395e-38
-0.022231393 0.049482856 0.75299996 2.3142183e-38
-0.020769551 0.049417123 0.75200003 2.341769e-38
-0.019337131 0.049417131 0.75200003 2.341769e-38
-0.017857136 0.04928571 0.75 2.341769e-38
-0.016384756 0.049154278 0.74799997 2.341769e-38
-0.014959992 0.049154282 0.74799997 2.341769e-38
-0.013517166 0.049088567 0.74700004 2.341769e-38
-0.012094287 0.049088575 0.74700004 2.341769e-38
-0.010642849 0.048957154 0.745 2.341769e-38
-0.0092238169 0.048957143 0.74500006 2.341769e-38
-0.0078047458 0.048957132 0.745 2.3325854e-38
-0.006385712 0.048957136 0.745 2.3132047e-38
-0.0049533155 0.048825704 0.74300003 2.1268696e-38
-0.0035380907 0.048825707 0.74300003 1.9431272e-38
-0.0021199975 0.048759989 0.74200004 2.1184041e-38
-0.00070665783 0.048760001 0.74200004 2.2810896e-38
0.00070666702 0.048759982 0.7420001 1.6163587e-38
0.0021200068 0.048759986 0.74200004 9.4966333e-39
0.0035237987 0.048628561 0.74000001 1.6438192e-38
0.0049466882 0.048759986 0.74200004 2.3211751e-38
0.0063600279 0.048759982 0.74200004 1.8001493e-38
0.0077523794 0.048628561 0.74000001 1.2821067e-38
0.0091866702 0.048759982 0.74200004 1.7999037e-38
0.010600008 0.048759978 0.74200004 2.3142183e-38
0.012013348 0.048759989 0.74200004 2.2866677e-38
0.013426688 0.048759997 0.74200004 2.2586852e-38
0.014839991 0.048759982 0.74200004 2.2674368e-38
0.01625333 0.048759986 0.74200004 2.2680479e-38
0.01766667 0.048759978 0.74200004 2.2591168e-38
0.019080009 0.048759989 0.74200004 2.2406422e-38
0.020493351 0.048759982 0.74200004 2.2958511e-38
0.021936191 0.048825711 0.74300003 2.3417689e-38
0.023351455 0.048825707 0.74299997 2.3325854e-38
0.024766676 0.048825711 0.74299997 2.3234019e-38
0.026252372 0.04895715 0.74500006 2.2591171e-38
0.027671445 0.048957143 0.745 2.1854691e-38
0.029207617 0.04915427 0.74800003 2.0016187e-38
0.030632379 0.049154282 0.74800003 1.8175161e-38
0.032142885 0.04928571 0.75 1.6422025e-38
0.033660945 0.049417131 0.75200009 1.4567331e-38
0.035140019 0.049482852 0.75300002 1.5277933e-38
0.036671448 0.049614273 0.755 1.5956353e-38
0.038109522 0.049614269 0.75500005 1.9744266e-38
0.039600044 0.049679983 0.75600004 2.3415175e-38
0.041148596 0.049811423 0.75799996 2.2315661e-38
0.042704776 0.049942859 0.76000005 2.1107064e-38
0.044152364 0.049942862 0.76000005 1.8802899e-38
0.045599997 0.049942859 0.75999999 1.6416984e-38
-0.034153339 0.051593311 0.76300001 1.7609721e-38
-0.032699991 0.051593311 0.76300001 1.8811497e-38
-0.031246673 0.051593315 0.76300001 1.9732027e-38
-0.029676195 0.051390469 0.76000005 2.0746535e-38
-0.028228566 0.05139048 0.75999999 2.1391188e-38
-0.026710467 0.051255226 0.75800002 2.2034753e-38
-0.025200002 0.051119976 0.75600004 2.2404246e-38
-0.023759991 0.051119987 0.75599998 2.2774829e-38
-0.022290464 0.051052373 0.755 2.3141825e-38
-0.020797137 0.050917134 0.75300002 2.341769e-38
-0.019337129 0.050849508 0.75200003 2.341769e-38
-0.017857149 0.050714273 0.75000006 2.341769e-38
-0.016384751 0.05057903 0.74799997 2.341769e-38
-0.014959986 0.050579038 0.74799997 2.341769e-38
-0.013535222 0.050579038 0.74800003 2.341769e-38
-0.012094289 0.050511427 0.74700004 2.341769e-38
-0.010671411 0.050511423 0.74700004 2.341769e-38
-0.0092485696 0.050511423 0.74700004 2.341769e-38
-0.0078047253 0.050376195 0.745 2.3325854e-38
-0.0063856933 0.050376195 0.745 2.332504e-38
-0.0049666595 0.050376184 0.74500006 2.0731308e-38
-0.0035475884 0.050376192 0.745 1.8145561e-38
-0.0021200087 0.050173312 0.74200004 1.878661e-38
-0.000706669 0.05017332 0.74200004 1.9439472e-38
0.00070667261 0.050173316 0.74200004 1.7951777e-38
0.0021200124 0.05017332 0.74200004 1.6496533e-38
0.0035333131 0.050173305 0.74200004 1.991969e-38
0.0049466547 0.050173312 0.74200004 2.3325815e-38
0.0063599944 0.05017332 0.74200004 1.9161969e-38
0.0077733565 0.050173312 0.74200004 1.5042684e-38
0.0091866963 0.05017332 0.74200004 1.8729416e-38
0.010599999 0.05017332 0.7420001 2.24075e-38
0.012013339 0.050173312 0.74200004 2.2499335e-38
0.013426678 0.05017332 0.74200004 2.2683006e-38
0.014840018 0.050173312 0.74200004 2.1945452e-38
0.01625336 0.05017332 0.74200004 2.1305474e-38
0.01766666 0.050173301 0.74200004 2.1489145e-38
0.01908 0.050173309 0.74200004 2.1764651e-38
0.020520965 0.050240945 0.74300003 2.1212921e-38
