# .PCD v0.7 - Point Cloud Data file format
VERSION 0.7
FIELDS x y z rgb
SIZE 4 4 4 4
TYPE F F F F
COUNT 1 1 1 1
WIDTH 989
HEIGHT 1
VIEWPOINT 0 0 0 1 0 0 0
POINTS 989
DATA ascii
0.033258125 0.02052094 0.74299997 9.8898671e-39
0.034673378 0.020520948 0.74299997 1.172082e-38
0.036088601 0.020520948 0.74299997 1.3565393e-38
0.037705734 0.020631433 0.74700004 1.6051739e-38
0.039180979 0.020659044 0.74799997 1.8527978e-38
0.040605739 0.020659052 0.74799997 1.9535565e-38
0.042142868 0.020714283 0.75 2.0448179e-38
0.043745726 0.020797148 0.75300002 1.9523365e-38
0.045360018 0.020879999 0.75599998 1.8607185e-38
-0.033929501 0.022379033 0.75799996 8.5854012e-39
-0.032271422 0.02223143 0.75300002 8.3996184e-39
-0.030837126 0.022231437 0.75300002 8.4021688e-39
-0.029402837 0.02223143 0.75299996 8.4036065e-39
-0.027931377 0.022201903 0.75199991 8.2206544e-39
-0.026499011 0.022201896 0.75199997 8.0380736e-39
-0.024999978 0.02214285 0.75 7.6736155e-39
-0.023508556 0.022083804 0.74799997 7.4049389e-39
-0.022054274 0.022054285 0.74699998 7.5857527e-39
-0.020576175 0.021995239 0.74499995 7.7722893e-39
-0.019105688 0.021936186 0.74299997 8.1414208e-39
-0.017666655 0.021906674 0.74199998 8.4223124e-39
-0.016209491 0.021847613 0.73999995 8.4241103e-39
-0.014799982 0.021847621 0.73999995 8.4262627e-39
-0.013372377 0.021818087 0.73899996 9.0691112e-39
-0.011964736 0.021818087 0.73899996 9.7133946e-39
-0.010528565 0.021759056 0.73699999 1.0175442e-38
-0.0091247438 0.021759033 0.73699999 1.0638207e-38
-0.0077209217 0.021759048 0.73699999 1.073076e-38
-0.0063085635 0.021729529 0.736 1.0822954e-38
-0.0049066641 0.021729529 0.736 1.1191372e-38
-0.0035047631 0.021729529 0.736 1.165055e-38
-0.0020971119 0.021670483 0.73399997 1.2020403e-38
-0.00069715705 0.02161143 0.73199999 1.2387027e-38
0.00069713156 0.021611422 0.73199999 1.2297344e-38
0.002097185 0.021670483 0.73399997 1.220515e-38
0.0034952641 0.021670483 0.73399997 1.2022196e-38
0.0049066856 0.021729536 0.73599994 1.192785e-38
0.0062914523 0.021670483 0.73399997 1.2115467e-38
0.0076895612 0.021670483 0.73399997 1.2393843e-38
0.0090876669 0.021670483 0.73399997 1.1933231e-38
0.010485749 0.021670483 0.73399997 1.1563019e-38
0.011916209 0.021729536 0.73599994 1.1471542e-38
0.013281905 0.021670476 0.73399997 1.1469031e-38
0.014720006 0.021729521 0.736 1.100806e-38
0.016121905 0.021729521 0.736 1.0549959e-38
0.017523805 0.021729521 0.736 1.0456329e-38
0.01892573 0.021729521 0.736 1.0365211e-38
0.02032763 0.021729521 0.736 1.0545654e-38
0.021729529 0.021729536 0.736 1.073076e-38
0.023162898 0.021759063 0.73699993 1.081829e-38
0.024566665 0.021759048 0.73699999 1.0911558e-38
0.025970487 0.021759048 0.73699999 1.1457186e-38
0.027374309 0.021759048 0.73699999 1.2004251e-38
0.028856207 0.021818087 0.73899996 1.2648891e-38
0.030386686 0.021906659 0.74199998 1.3381065e-38
0.031800017 0.021906681 0.74199998 1.3750919e-38
0.033258136 0.021936193 0.74299997 1.4114285e-38
0.034673363 0.021936193 0.74299997 1.4577017e-38
0.036185727 0.021995239 0.745 1.5135171e-38
0.037604772 0.021995239 0.745 1.7986341e-38
0.039128564 0.022054285 0.74700004 2.0842176e-38
0.040605724 0.022083804 0.74800003 2.1389926e-38
0.042142875 0.022142857 0.75 2.194811e-38
0.04357142 0.02214285 0.75 2.1479602e-38
0.045300014 0.022290476 0.755 2.1029771e-38
0.046738125 0.022290483 0.755 2.0468733e-38
-0.034019008 0.023885719 0.75999993 9.2350852e-39
-0.032357141 0.023728579 0.755 8.9581606e-39
-0.030837135 0.023665719 0.75300002 8.8634734e-39
-0.029402841 0.023665719 0.75299996 8.7727197e-39
-0.027931407 0.023634285 0.75199997 8.4017974e-39
-0.026499012 0.023634285 0.75199997 8.036968e-39
-0.024999972 0.023571439 0.75 7.5767157e-39
-0.023508541 0.023508564 0.74799997 7.0278649e-39
-0.022083784 0.023508571 0.74799997 7.3923469e-39
-0.020631419 0.023477152 0.74699998 7.765088e-39
-0.019157132 0.023414277 0.745 8.3225764e-39
-0.017666668 0.023319997 0.74199998 8.782114e-39
-0.016209496 0.023257144 0.73999995 8.6059792e-39
-0.01479996 0.023257159 0.73999995 8.3261694e-39
-0.013372377 0.023225702 0.73900002 9.248113e-39
-0.011964764 0.023225702 0.73899996 1.0073915e-38
-0.010528528 0.023162864 0.73699999 1.0537757e-38
-0.0091247326 0.023162864 0.73699993 1.0999805e-38
-0.0077209086 0.023162864 0.73699993 1.1096304e-38
-0.0063085747 0.023131438 0.736 1.1093435e-38
-0.0049066753 0.02313143 0.736 1.155656e-38
-0.0035047519 0.02313143 0.736 1.1922467e-38
-0.0020914141 0.023005724 0.73199999 1.2016457e-38
-0.0006971496 0.023005724 0.73199999 1.2108292e-38
0.00069713715 0.023005724 0.73199999 1.1835297e-38
0.0020914257 0.023005724 0.73199999 1.1558354e-38
0.0034952585 0.023068585 0.73399997 1.1377194e-38
0.0048933658 0.023068577 0.73399997 1.1098818e-38
0.0062914467 0.023068577 0.73399997 1.1837089e-38
0.0076895538 0.023068577 0.73399997 1.2480295e-38
0.0090876352 0.023068577 0.73399997 1.1934303e-38
0.010485741 0.023068577 0.73399997 1.1374679e-38
0.011916223 0.02313143 0.73599994 1.1284636e-38
0.013281929 0.023068577 0.73399997 1.109343e-38
0.014639997 0.023005724 0.73199999 1.0541699e-38
0.016121924 0.023131445 0.73599994 9.8988508e-39
0.01752382 0.02313143 0.736 9.8062979e-39
0.018925719 0.02313143 0.736 9.7158973e-39
0.020327618 0.02313143 0.736 1.0080012e-38
0.021729544 0.023131423 0.736 1.0357311e-38
0.023162881 0.023162864 0.73699999 1.0813618e-38
0.024566703 0.023162857 0.73699999 1.1273865e-38
0.026040981 0.023225702 0.73899996 1.27339e-38
0.027448591 0.023225695 0.73900002 1.4121112e-38
0.028895251 0.023257151 0.73999995 1.5960326e-38
0.030386671 0.023320004 0.74199998 1.7799914e-38
0.031842895 0.023351423 0.74299997 1.8075429e-38
0.033258121 0.023351423 0.74299997 1.825873e-38
0.034766681 0.023414284 0.745 1.7521524e-38
0.036185727 0.023414284 0.745 1.6696774e-38
0.037705719 0.023477145 0.74699998 1.9916373e-38
0.039180983 0.023508586 0.74799997 2.3046297e-38
0.040605739 0.023508571 0.74800003 2.3233898e-38
0.042142875 0.023571432 0.75 2.3417571e-38
0.043687657 0.02363427 0.75199997 2.3417572e-38
0.045360006 0.023759991 0.75600004 2.3417581e-38
0.046923824 0.023822851 0.75799996 2.3417588e-38
-0.033929504 0.02526667 0.7579999 1.0156687e-38
-0.03235713 0.025166668 0.755 1.0803119e-38
-0.030837115 0.025099993 0.75300002 1.0800243e-38
-0.02940282 0.0251 0.75299996 1.0799178e-38
-0.027931381 0.025066666 0.75199991 1.0613365e-38
-0.026499018 0.025066659 0.75199997 1.0335336e-38
-0.025066648 0.025066674 0.75199997 1.0152012e-38
-0.023571417 0.024999999 0.75 9.961891e-39
-0.022142839 0.025000006 0.75 9.8743659e-39
-0.020631399 0.024900012 0.74699998 9.8690256e-39
-0.01915713 0.024833329 0.745 9.8758821e-39
-0.017690443 0.024766661 0.74299991 9.8694264e-39
-0.016253322 0.024733342 0.74199998 9.5103352e-39
-0.014799992 0.02466666 0.74000001 9.2283744e-39
-0.013372348 0.024633333 0.73899996 9.5110569e-39
-0.011964732 0.024633333 0.73899996 9.7858487e-39
-0.010528547 0.024566665 0.73699999 1.0528426e-38
-0.0091247512 0.024566658 0.73699999 1.1359609e-38
-0.007720931 0.024566658 0.73699999 1.0254713e-38
-0.0063085356 0.024533346 0.73599994 9.2445257e-39
-0.0049066641 0.024533339 0.736 9.9817222e-39
-0.003504765 0.024533331 0.736 1.0720714e-38
-0.0020914364 0.024399996 0.73199999 1.0810398e-38
-0.00069714774 0.024399996 0.73199999 1.0907973e-38
0.00069714087 0.024399988 0.73200005 1.1089132e-38
0.0020914294 0.024399988 0.73200005 1.1366431e-38
0.003485692 0.024400003 0.73199999 1.1364636e-38
0.004893336 0.024466664 0.73399997 1.1364994e-38
0.0062914412 0.024466664 0.73399997 1.1917084e-38
0.0076895501 0.024466664 0.73399997 1.2469889e-38
0.0091123832 0.024533346 0.73599994 1.2007121e-38
0.01051431 0.024533339 0.736 1.154256e-38
0.011916208 0.024533339 0.73599994 1.1728379e-38
0.013318108 0.024533339 0.73599994 1.1904157e-38
0.014639999 0.024399988 0.73200005 1.3476479e-38
0.016121935 0.024533346 0.73599994 1.5034456e-38
0.017523834 0.024533346 0.73599994 1.5041989e-38
0.018925734 0.024533339 0.73599994 1.513275e-38
0.020327631 0.024533331 0.736 1.5411843e-38
0.021729529 0.024533331 0.736 1.5682685e-38
0.02316289 0.024566665 0.73699993 1.6054689e-38
0.024566712 0.024566665 0.73699993 1.6422023e-38
0.026040979 0.024633326 0.73899996 1.7250685e-38
0.027485741 0.024666667 0.73999995 1.7990021e-38
0.028973358 0.024733335 0.74199998 1.8726486e-38
0.030427651 0.024766669 0.74299997 1.9466209e-38
0.031842876 0.024766669 0.74299997 1.9096013e-38
0.03334764 0.024833329 0.745 1.873155e-38
0.034766685 0.024833329 0.74499995 1.7156006e-38
0.036282875 0.024900004 0.74699998 1.5591919e-38
0.037705742 0.024900012 0.74699998 1.9273934e-38
0.039180998 0.024933338 0.74799997 2.2865925e-38
0.040714279 0.025000006 0.75 2.3049598e-38
0.042142883 0.025000006 0.75 2.3325829e-38
0.043687653 0.025066666 0.75199997 2.3232206e-38
0.04536004 0.025200002 0.75599998 2.3233995e-38
0.046923824 0.025266655 0.75799996 2.3325468e-38
0.048367649 0.025266662 0.75799996 2.341767e-38
0.050140016 0.025433339 0.76299995 2.3417677e-38
0.051593348 0.025433324 0.76299995 2.341767e-38
-0.033929504 0.02671048 0.7579999 1.1167983e-38
-0.032357119 0.026604779 0.755 1.2640573e-38
-0.030919034 0.026604764 0.75500005 1.2734555e-38
-0.02940283 0.026534289 0.75299996 1.2824616e-38
-0.027968567 0.026534274 0.75300002 1.27328e-38
-0.026499016 0.026499055 0.75199991 1.2641674e-38
-0.025066651 0.026499048 0.75199997 1.2733502e-38
-0.023571411 0.026428573 0.75 1.2824267e-38
-0.02208381 0.02635809 0.74800003 1.2458007e-38
-0.020631433 0.026322871 0.74699998 1.1995261e-38
-0.019157127 0.026252389 0.74499995 1.1442832e-38
-0.017690463 0.026181892 0.74299997 1.0892177e-38
-0.016253335 0.026146658 0.74199998 1.0520887e-38
-0.014839982 0.026146665 0.74199998 1.0064214e-38
-0.013390456 0.026076183 0.73999995 9.7818858e-39
-0.011964734 0.026040941 0.73899996 9.4224234e-39
-0.01055712 0.026040941 0.73899996 1.0521927e-38
-0.00912474 0.025970489 0.73699993 1.1630784e-38
-0.0077209179 0.025970474 0.73699993 9.5024403e-39
-0.0063170963 0.025970489 0.73699993 7.4009859e-39
-0.0049066474 0.025935255 0.73599994 8.4047191e-39
-0.0035047482 0.025935255 0.73599994 9.4252988e-39
-0.0020971231 0.025864765 0.73399997 9.5049234e-39
-0.00069901784 0.025864765 0.73399997 9.6107537e-39
0.00069909106 0.025864765 0.73399997 1.0338626e-38
0.002097172 0.025864765 0.73399997 1.1083706e-38
0.003495279 0.025864772 0.73399997 1.1349163e-38
0.0048933602 0.025864787 0.73399997 1.15436e-38
0.0062914672 0.025864765 0.73399997 1.1996324e-38
0.0076895482 0.025864787 0.73399997 1.2371557e-38
0.0091123981 0.025935248 0.736 1.20817e-38
0.010514297 0.025935248 0.736 1.1725854e-38
0.011916197 0.02593524 0.73599994 1.2181821e-38
0.013318122 0.02593524 0.736 1.2652109e-38
0.01468 0.025864765 0.73399997 1.6425607e-38
0.016121922 0.02593524 0.73599994 2.009939e-38
0.017523821 0.025935248 0.73599994 2.0285578e-38
0.018925749 0.025935248 0.736 2.0471048e-38
0.020327646 0.025935248 0.73599994 2.0752301e-38
0.021729548 0.025935248 0.73599994 2.1022784e-38
0.023162872 0.025970481 0.73699999 2.1300084e-38
0.024566695 0.025970481 0.73699999 2.1575585e-38
0.026040953 0.026040941 0.73899996 2.1764633e-38
0.027485762 0.026076183 0.73999995 2.185431e-38
0.028973373 0.026146673 0.74199998 2.1489115e-38
0.030427661 0.026181892 0.74299997 2.1028508e-38
0.031842887 0.026181899 0.74299997 2.0110518e-38
0.033347644 0.026252382 0.74499995 1.9182118e-38
0.034860037 0.026322857 0.74699998 1.6870445e-38
0.036282867 0.026322857 0.74700004 1.4490606e-38
0.037756227 0.02635809 0.74799997 1.8628936e-38
0.039180957 0.026358098 0.74800003 2.2679011e-38
0.040714312 0.02642858 0.75 2.2955938e-38
0.04214289 0.02642858 0.75 2.3137827e-38
0.043745752 0.026534282 0.75299996 2.3134251e-38
0.045479994 0.02671048 0.75799996 2.3047442e-38
0.047047667 0.026780955 0.75999999 2.3232192e-38
0.048495255 0.026780955 0.75999999 2.3416944e-38
0.050140016 0.026886679 0.76299995 2.3417666e-38
0.051593348 0.026886664 0.76299995 2.3417663e-38
0.053185746 0.026957154 0.76499999 2.3417659e-38
0.054785732 0.027027629 0.76699996 2.3417645e-38
0.056246676 0.027027622 0.76699996 2.3417633e-38
-0.033929512 0.028154276 0.75799996 1.2454784e-38
-0.032399975 0.028079994 0.75599998 1.3010095e-38
-0.030919051 0.02804286 0.755 1.2825699e-38
-0.029402865 0.027968563 0.75300002 1.264385e-38
-0.027968548 0.027968578 0.75300002 1.3012296e-38
-0.02649902 0.027931429 0.75199997 1.3387526e-38
-0.025066623 0.027931437 0.75199997 1.3476488e-38
-0.023571406 0.027857155 0.75 1.3663752e-38
-0.022083795 0.027782857 0.74800003 1.3568333e-38
-0.020631412 0.027745731 0.74699998 1.3385019e-38
-0.019157128 0.027671427 0.745 1.3292105e-38
-0.017690454 0.027597129 0.74299997 1.320493e-38
-0.016253321 0.027559996 0.74199998 1.3293174e-38
-0.014839966 0.027560018 0.74199998 1.3388223e-38
-0.013390434 0.027485706 0.73999995 1.3383544e-38
-0.011964762 0.027448557 0.73899996 1.3384954e-38
-0.010557122 0.027448565 0.73899996 1.5132671e-38
-0.0091247605 0.02737429 0.73699999 1.6975152e-38
-0.0077209366 0.02737429 0.73699999 1.5589399e-38
-0.0063171168 0.02737429 0.73699999 1.4298679e-38
-0.0049133194 0.02737429 0.73699999 1.4761799e-38
-0.0035047352 0.027337156 0.73599994 1.5224176e-38
-0.0020971305 0.027262874 0.73399997 1.5313469e-38
-0.00069902343 0.027262874 0.73399997 1.5496792e-38
0.00069905753 0.027262874 0.73399997 1.5868088e-38
0.0020971645 0.027262866 0.73399997 1.6331919e-38
0.0034952716 0.027262866 0.73399997 1.688041e-38
0.0048933546 0.027262866 0.73399997 1.7432866e-38
0.0063085849 0.027337149 0.736 1.7617263e-38
0.0077104843 0.027337156 0.736 1.7805596e-38
0.0091123823 0.027337149 0.736 1.7064812e-38
0.010514283 0.027337149 0.736 1.6331603e-38
0.011916209 0.027337149 0.736 1.6517464e-38
0.013318107 0.027337141 0.736 1.6709369e-38
0.014720008 0.027337149 0.736 1.918891e-38
0.016121909 0.027337149 0.736 2.1672783e-38
0.017523833 0.027337141 0.736 2.1762118e-38
0.018925734 0.027337149 0.73599994 2.1856475e-38
0.020327633 0.027337156 0.73599994 2.1856128e-38
0.021729559 0.027337149 0.736 2.1856487e-38
0.023162881 0.02737429 0.73699993 2.1395874e-38
0.024566703 0.02737429 0.73699993 2.1029967e-38
0.026040981 0.027448572 0.73899996 2.0937773e-38
0.02748573 0.027485713 0.74000001 2.0938132e-38
0.029012393 0.027597137 0.74299997 2.0476084e-38
0.030427646 0.027597137 0.74299997 2.0016903e-38
0.031928603 0.027671434 0.74499995 1.9551981e-38
0.033437137 0.027745716 0.74699998 1.9179248e-38
0.034860026 0.027745716 0.74699998 1.8257654e-38
0.036331456 0.02778285 0.74799997 1.7432568e-38
0.037756216 0.027782865 0.74799997 2.0287716e-38
0.039285742 0.02785714 0.75 2.3050285e-38
0.04071432 0.02785714 0.75 2.3139578e-38
0.042255275 0.027931422 0.75199997 2.3318962e-38
0.043745745 0.027968578 0.75299996 2.3228576e-38
0.045480017 0.028154276 0.75799996 2.3231816e-38
0.047109544 0.028265715 0.76100004 2.332438e-38
0.048559055 0.028265715 0.76099998 2.3416577e-38
0.050402887 0.028488576 0.76699996 2.3417296e-38
0.051728591 0.028414294 0.76499999 2.3417655e-38
0.053185739 0.028414279 0.76500005 2.3417296e-38
0.054785743 0.028488576 0.76699996 2.3417669e-38
0.056319982 0.02852571 0.76800001 2.3417682e-38
-0.034019027 0.029676177 0.75999999 1.3741882e-38
-0.032399971 0.029519998 0.75599998 1.3374185e-38
-0.030959962 0.029519998 0.75599998 1.2913935e-38
-0.029480958 0.029480949 0.755 1.2456582e-38
-0.027968554 0.02940286 0.75300002 1.3284926e-38
-0.026498996 0.029363818 0.75199997 1.4027143e-38
-0.025066655 0.029363804 0.75199997 1.4304085e-38
-0.023571426 0.029285707 0.75 1.4489554e-38
-0.02214285 0.029285707 0.75 1.4673946e-38
-0.020659018 0.029207617 0.74799997 1.4766498e-38
-0.019157127 0.029090472 0.745 1.5135634e-38
-0.01769047 0.029012375 0.74299997 1.5412931e-38
-0.016275216 0.029012382 0.74299997 1.6059007e-38
-0.01483998 0.028973334 0.74199998 1.661073e-38
-0.013390468 0.028895229 0.74000001 1.6978422e-38
-0.011980931 0.028895229 0.74000001 1.7253916e-38
-0.010557148 0.028856173 0.73899996 1.9740278e-38
-0.0091495058 0.028856166 0.73900002 2.2219493e-38
-0.0077209272 0.028778106 0.73699993 2.16728e-38
-0.0063171037 0.028778106 0.73699993 2.1114252e-38
-0.0049133082 0.028778099 0.73699993 2.1119632e-38
-0.0035094849 0.028778099 0.73699993 2.1023835e-38
-0.0020971342 0.028660953 0.73399997 2.1211438e-38
-0.00069902901 0.028660953 0.73399997 2.1299332e-38
0.00069905381 0.028660953 0.73399997 2.1489105e-38
0.0021028754 0.028739057 0.73599994 2.1577348e-38
0.0034952417 0.02866096 0.73399997 2.2499286e-38
0.0049067023 0.028739065 0.73599994 2.3321864e-38
0.00630857 0.028739043 0.736 2.3325814e-38
0.0077104713 0.02873905 0.736 2.3231466e-38
0.0091123972 0.028739057 0.736 2.2131951e-38
0.010514296 0.02873905 0.736 2.0934162e-38
0.011916195 0.02873905 0.736 2.0846292e-38
0.013318095 0.028739057 0.736 2.0661536e-38
0.014720022 0.02873905 0.736 2.1948301e-38
0.01612192 0.02873905 0.736 2.3234004e-38
0.017523821 0.02873905 0.736 2.3234008e-38
0.018925723 0.028739057 0.736 2.3234013e-38
0.020327646 0.028739057 0.736 2.2958513e-38
0.021729546 0.028739057 0.736 2.2683006e-38
0.023162864 0.028778091 0.73699999 2.1580621e-38
0.024633365 0.028856173 0.73899996 2.0386041e-38
0.026076216 0.028895222 0.73999995 2.0202008e-38
0.02756002 0.028973334 0.74199998 1.9922913e-38
0.029012404 0.029012367 0.74299997 1.9460148e-38
0.030509558 0.029090472 0.74499995 1.8909491e-38
0.031928573 0.029090479 0.745 1.8992715e-38
0.033437155 0.029168576 0.74699998 1.9089202e-38
0.034860019 0.029168576 0.74699998 1.9732041e-38
0.036331471 0.029207617 0.74799997 2.0378481e-38
0.037756201 0.029207617 0.74800003 2.1946505e-38
0.039285749 0.029285707 0.75 2.341585e-38
0.040714324 0.029285721 0.75 2.3416904e-38
0.042255275 0.029363818 0.75199991 2.3412963e-38
0.043745738 0.029402867 0.75299996 2.341297e-38
0.045600049 0.029676192 0.75999999 2.3415851e-38
0.047233358 0.029793344 0.76299995 2.3417299e-38
-0.034019012 0.03112381 0.75999999 1.5857294e-38
-0.03248569 0.031041905 0.75799996 1.5759015e-38
-0.030959982 0.030960001 0.75599998 1.5394197e-38
-0.029520007 0.030959994 0.75599998 1.502366e-38
-0.028042832 0.030919053 0.755 1.5398928e-38
-0.02653427 0.030837141 0.75299996 1.5775242e-38
-0.025066631 0.030796193 0.75199997 1.5956765e-38
-0.023634233 0.030796193 0.75199997 1.6142234e-38
-0.022142842 0.030714288 0.75 1.5959285e-38
-0.020659029 0.030632377 0.74799997 1.5687724e-38
-0.019208569 0.030591421 0.74700004 1.5963589e-38
-0.017690461 0.030427627 0.74299997 1.6241966e-38
-0.016275207 0.030427605 0.74299997 1.688589e-38
-0.014859982 0.030427612 0.74299997 1.7445513e-38
-0.013426635 0.030386679 0.74199998 1.7625597e-38
-0.011980933 0.030304767 0.73999995 1.7902179e-38
-0.010557118 0.030263789 0.73899996 1.9280429e-38
-0.0091495039 0.030263796 0.73899996 2.0754461e-38
-0.0077209459 0.030181922 0.73699999 2.047716e-38
-0.0063171242 0.0301819 0.73699999 2.0294924e-38
-0.0049133007 0.030181915 0.73699999 2.0202013e-38
-0.0035095073 0.0301819 0.73699999 2.0111612e-38
-0.0021028358 0.030140966 0.736 2.0386042e-38
-0.00070093822 0.030140966 0.736 2.0662625e-38
0.00070096302 0.030140966 0.73599994 2.0661908e-38
0.0021028884 0.030140966 0.736 2.0754461e-38
0.0035047878 0.030140959 0.73599994 2.1121085e-38
0.0049066874 0.030140966 0.73599994 2.158098e-38
0.0063085868 0.030140966 0.73599994 2.1579545e-38
0.0077105132 0.030140959 0.73599994 2.158098e-38
0.0091123814 0.030140951 0.736 2.1120726e-38
0.010514282 0.030140959 0.736 2.0753743e-38
0.011932401 0.030181907 0.73699999 2.0937773e-38
0.013336197 0.030181907 0.73699999 2.1121803e-38
0.014720007 0.030140959 0.736 2.1856487e-38
0.016121909 0.030140959 0.736 2.2591171e-38
0.017547637 0.030181922 0.73699999 2.1853617e-38
0.018925732 0.030140959 0.736 2.1029967e-38
0.020355256 0.030181915 0.73699999 2.1117857e-38
0.021759078 0.030181915 0.73699999 2.1213638e-38
0.023162901 0.030181915 0.73699999 2.1119291e-38
0.024633339 0.030263789 0.73899996 2.0935258e-38
0.026076214 0.030304767 0.73999995 2.1300443e-38
0.027560005 0.030386679 0.74199998 2.166312e-38
0.029012414 0.03042762 0.74299997 2.1391557e-38
0.03050953 0.030509524 0.745 2.1209319e-38
0.031928599 0.030509524 0.745 2.1207165e-38
0.033437148 0.030591428 0.74700004 2.1300067e-38
0.034860007 0.030591428 0.74699998 2.1483727e-38
0.03633146 0.030632392 0.74799997 2.1668486e-38
0.037756212 0.030632384 0.74800003 2.1207526e-38
0.039285727 0.030714281 0.75 2.0657573e-38
0.040714301 0.030714281 0.75 2.0654688e-38
0.042255271 0.030796193 0.75199997 2.0655762e-38
0.043861911 0.03091906 0.755 2.0654681e-38
0.045660026 0.031164758 0.76100004 2.0662586e-38
0.047233362 0.031246677 0.76299995 2.1577725e-38
-0.033929519 0.032485709 0.75799996 1.807141e-38
-0.032399986 0.03239999 0.75599998 1.8158583e-38
-0.030959975 0.032399997 0.75599998 1.7879848e-38
-0.029480936 0.032357141 0.755 1.7512873e-38
-0.028042853 0.032357134 0.75500005 1.7512164e-38
-0.026534278 0.032271415 0.75300002 1.7517548e-38
-0.025066635 0.032228559 0.75199997 1.7697636e-38
-0.023571413 0.032142855 0.75 1.7795221e-38
-0.022142865 0.032142863 0.75 1.7240991e-38
-0.020659018 0.032057136 0.74799997 1.6601382e-38
-0.019208549 0.032014288 0.74699998 1.6880128e-38
-0.017738082 0.031928569 0.745 1.7064162e-38
-0.016275197 0.03184285 0.74299997 1.7704502e-38
-0.014859973 0.031842858 0.74299997 1.8265564e-38
-0.013426649 0.031800002 0.74199998 1.8359199e-38
-0.011980909 0.031714275 0.73999995 1.8450674e-38
-0.010571397 0.031714283 0.73999995 1.8816938e-38
-0.0091495039 0.031671427 0.73899996 1.918751e-38
-0.0077418895 0.031671412 0.73899996 1.9277912e-38
-0.0063342755 0.031671435 0.73899996 1.9372978e-38
-0.0049266354 0.03167142 0.73899996 1.9281501e-38
-0.0035094942 0.031585723 0.73699993 1.9191101e-38
-0.0021028507 0.031542867 0.736 1.9650635e-38
-0.0007009494 0.031542875 0.736 2.0017619e-38
0.00070097606 0.031542867 0.736 1.9925067e-38
0.0021028754 0.031542867 0.736 1.9834308e-38
0.0035047748 0.031542867 0.73599994 1.9832516e-38
0.0049066762 0.031542875 0.73599994 1.9833592e-38
0.0063086017 0.031542867 0.73599994 1.9922199e-38
0.0077209729 0.031585723 0.73699999 1.992507e-38
0.009124795 0.031585723 0.73699999 2.0199859e-38
0.010514326 0.031542867 0.73599994 2.0477877e-38
0.011932413 0.031585723 0.73699999 2.1029608e-38
0.013336236 0.031585716 0.73699999 2.1487707e-38
0.01474003 0.031585716 0.73699993 2.1764647e-38
0.016143853 0.031585723 0.73699993 2.1941854e-38
0.017547648 0.031585731 0.73699993 2.037598e-38
0.018951442 0.031585716 0.73699999 1.8805807e-38
0.020355264 0.031585708 0.73699999 1.926857e-38
0.021759059 0.031585716 0.73699999 1.9725962e-38
0.023162881 0.031585716 0.73699999 2.0655806e-38
0.024633368 0.031671435 0.73899996 2.1479806e-38
0.026076237 0.031714283 0.73999995 2.249286e-38
0.027560022 0.031800009 0.74199998 2.3413731e-38
0.029012425 0.03184285 0.74299997 2.3417684e-38
0.030509559 0.031928569 0.745 2.3416607e-38
0.031928603 0.031928569 0.745 2.3417682e-38
0.03343717 0.032014288 0.74699998 2.3416242e-38
0.03486003 0.032014303 0.74699998 2.3234001e-38
0.036331475 0.032057144 0.74799997 2.2953108e-38
0.037756205 0.032057144 0.74799997 2.0465294e-38
0.039285731 0.03214284 0.75 1.789353e-38
0.040822901 0.032228574 0.75199997 1.7888856e-38
0.042423837 0.032357149 0.755 1.779917e-38
0.04392001 0.032400005 0.75600004 1.7887774e-38
0.045600027 0.032571428 0.75999999 1.7893519e-38
0.047109552 0.032614283 0.76099998 1.973167e-38
-0.033929519 0.033929534 0.75799996 1.8256535e-38
-0.032485694 0.033929527 0.7579999 1.8720365e-38
-0.030959969 0.033840001 0.75599998 1.8808601e-38
-0.029480953 0.03379523 0.75500005 1.8900419e-38
-0.02804284 0.033795238 0.755 1.9359937e-38
-0.026534284 0.033705719 0.75300002 1.9820194e-38
-0.025066637 0.033660956 0.75199997 1.991275e-38
-0.023571437 0.033571422 0.75 2.0007473e-38
-0.022142859 0.033571437 0.75 1.9268501e-38
-0.020659026 0.033481903 0.74799997 1.8433036e-38
-0.019208586 0.033437148 0.74700004 1.8439516e-38
-0.01773808 0.033347622 0.745 1.8440599e-38
-0.016319035 0.033347622 0.745 1.90874e-38
-0.014859963 0.033258103 0.74299997 1.9736716e-38
-0.013426633 0.033213332 0.74199998 1.9644171e-38
-0.011980941 0.033123806 0.74000001 1.9642017e-38
-0.010571404 0.033123799 0.74000001 1.9919315e-38
-0.0091618942 0.033123806 0.73999995 2.0196976e-38
-0.0077418913 0.033079043 0.73900002 2.0381368e-38
-0.0063428213 0.033123814 0.73999995 2.0474281e-38
-0.0049266615 0.03307905 0.73899996 2.0382805e-38
-0.0035190217 0.033079028 0.73899996 2.0291327e-38
-0.0021056931 0.032989524 0.73699999 2.0842339e-38
-0.00070187141 0.032989524 0.73699999 2.1301159e-38
0.00070096302 0.032944769 0.736 2.1486265e-38
0.0021028642 0.032944776 0.736 2.1671374e-38
0.0035047897 0.032944776 0.736 2.1671375e-38
0.0049066874 0.032944776 0.736 2.1671375e-38
0.0063085887 0.032944776 0.736 2.1670658e-38
0.0077209831 0.032989532 0.73699993 2.1671018e-38
0.0091247754 0.032989524 0.73699999 2.1855049e-38
0.010514312 0.032944776 0.73599994 2.1948321e-38
0.011932393 0.032989517 0.73699999 2.1025661e-38
0.013336214 0.032989517 0.73699999 2.0105867e-38
0.014740011 0.032989524 0.73699999 1.7891407e-38
0.016143834 0.032989524 0.73699999 1.55973e-38
0.01754763 0.032989524 0.73699999 1.3468209e-38
0.018951451 0.032989524 0.73699999 1.1425585e-38
0.020355273 0.032989524 0.73699999 1.1436344e-38
0.02175907 0.032989524 0.73699999 1.1521023e-38
0.023162892 0.032989524 0.73699999 1.3099821e-38
0.024633341 0.033079036 0.73899996 1.476397e-38
0.026076205 0.033123799 0.74000001 1.7799194e-38
0.027597181 0.033258088 0.74299997 2.0938118e-38
0.02909049 0.033347622 0.74499995 2.2130917e-38
0.030509561 0.033347622 0.74499995 2.3325854e-38
0.032014299 0.033437155 0.74699998 2.3325853e-38
0.033437159 0.03343714 0.74700004 2.341769e-38
0.034860022 0.033437155 0.74700004 2.3232943e-38
0.036331434 0.033481896 0.74800003 2.3046022e-38
0.03775622 0.033481903 0.74800003 2.0468149e-38
0.039285742 0.033571422 0.75 1.7981051e-38
0.040822871 0.033660948 0.75199997 1.7242773e-38
0.042592414 0.033929527 0.75799996 1.6416611e-38
0.044152424 0.034019053 0.75999999 1.650665e-38
0.045660019 0.034063824 0.76100004 1.6597408e-38
0.047109563 0.034063801 0.76099998 1.7334241e-38
-0.034242846 0.035700001 0.76499999 1.8533474e-38
-0.032485694 0.035373338 0.7579999 1.9270668e-38
-0.031041902 0.03537333 0.75799996 1.9733432e-38
-0.029519984 0.035280004 0.75599998 2.019225e-38
-0.027968552 0.035140008 0.75299996 2.1114908e-38
-0.026534293 0.03514 0.75300002 2.2031112e-38
-0.025066642 0.03509333 0.75199997 2.2125103e-38
-0.023571428 0.035000004 0.75 2.2216591e-38
-0.022142854 0.035000011 0.75 2.130076e-38
-0.020659013 0.034906678 0.74799997 2.0282327e-38
-0.019234283 0.034906656 0.74800003 2.0003601e-38
-0.017738078 0.034766667 0.74499995 1.9732042e-38
-0.01631901 0.034766681 0.74499995 2.0467088e-38
-0.014899965 0.034766667 0.74499995 2.1205726e-38
-0.013444727 0.034673333 0.74299991 2.1021706e-38
-0.011980944 0.034533329 0.73999995 2.0746915e-38
-0.010571408 0.034533329 0.73999995 2.1021702e-38
-0.00916187 0.034533329 0.73999995 2.1207528e-38
-0.0077418857 0.034486674 0.73899996 2.1391918e-38
-0.0063342755 0.034486659 0.73900002 2.1577024e-38
-0.0049266615 0.034486659 0.73900002 2.1483754e-38
-0.0035190459 0.034486659 0.73899996 2.1392278e-38
-0.0021028488 0.034346677 0.736 2.2034411e-38
-0.00070188817 0.03439334 0.73699999 2.2587936e-38
0.00070190738 0.034393325 0.73699999 2.3046756e-38
0.0021028754 0.03434667 0.736 2.341661e-38
0.0035047748 0.034346685 0.736 2.3417687e-38
0.0049133482 0.03439334 0.73699999 2.3417328e-38
0.0063171699 0.034393325 0.73699999 2.3417687e-38
0.0077209664 0.034393348 0.73699999 2.341733e-38
0.0091247857 0.034393333 0.73699999 2.3417689e-38
0.010528608 0.03439334 0.73699999 2.3414798e-38
0.011932405 0.034393333 0.73699993 2.111028e-38
0.013336227 0.034393348 0.73699999 1.871143e-38
0.014740024 0.034393333 0.73699993 1.4005575e-38
0.016143844 0.034393348 0.73699993 9.234086e-39
0.017547667 0.034393333 0.73699993 6.6576811e-39
0.018951464 0.034393348 0.73699993 3.9901413e-39
0.020355256 0.034393318 0.73699999 3.622435e-39
0.021759052 0.03439334 0.73699999 3.2558161e-39
0.023162872 0.03439334 0.73699999 5.6413922e-39
0.024666693 0.034533329 0.74000001 8.0409547e-39
0.026146691 0.03462667 0.74199998 1.318482e-38
0.027597165 0.034673341 0.74299997 1.8349484e-38
0.029168593 0.034860015 0.74699998 2.0749396e-38
0.030591426 0.034859993 0.74700004 2.3131038e-38
0.032014288 0.034860015 0.74699998 2.3325845e-38
0.033437151 0.03486 0.74699998 2.3413377e-38
0.034906693 0.03490667 0.74799997 2.3234011e-38
0.036331449 0.034906663 0.74800003 2.3044224e-38
0.037857167 0.035000004 0.75 2.0563932e-38
0.039285745 0.035000011 0.75 1.8070017e-38
0.040985748 0.035233334 0.755 1.6592391e-38
0.042704798 0.035466664 0.75999999 1.5034418e-38
0.044152416 0.035466671 0.75999999 1.512482e-38
0.045660004 0.035513319 0.76100004 1.5216658e-38
0.047109544 0.035513327 0.76099998 1.4939002e-38
-0.035840016 0.037302844 0.76800001 1.7794093e-38
-0.034242827 0.037157148 0.76499999 1.8532394e-38
-0.032614283 0.036962859 0.76100004 1.936e-38
-0.031246658 0.037060007 0.76299995 1.964054e-38
-0.029676152 0.036914282 0.75999993 1.9918572e-38
-0.02808 0.036719985 0.75599998 2.0838376e-38
-0.026604764 0.03667143 0.755 2.1850004e-38
-0.025066644 0.036525726 0.75199997 2.1389752e-38
-0.023634247 0.036525726 0.75199997 2.1024568e-38
-0.022201879 0.036525719 0.75199997 2.0656155e-38
-0.020714272 0.036428578 0.75 2.038208e-38
-0.019285694 0.036428578 0.75 2.0563235e-38
-0.017785709 0.03628286 0.74700004 2.0659733e-38
-0.016362846 0.036282845 0.74699998 2.1023126e-38
-0.014899993 0.036185727 0.745 2.148554e-38
-0.013444749 0.036088571 0.74299997 2.1577026e-38
-0.012029496 0.036088571 0.74299997 2.1761054e-38
-0.010614269 0.036088556 0.74299997 2.1944365e-38
-0.0091866469 0.036039993 0.74199998 2.2219873e-38
-0.007752337 0.035942867 0.73999995 2.2313144e-38
-0.0063428548 0.035942845 0.74000001 2.2498608e-38
-0.0049266336 0.035894282 0.73899996 2.2496454e-38
-0.0035190198 0.03589429 0.73899996 2.2401753e-38
-0.0021056987 0.035797149 0.73699999 2.2680132e-38
-0.000701877 0.035797149 0.73699999 2.3050347e-38
0.00070191856 0.035797149 0.73699999 2.3233302e-38
0.0021057401 0.035797156 0.73699999 2.341769e-38
0.0035095636 0.035797156 0.73699999 2.341769e-38
0.0049133594 0.035797156 0.73699993 2.341769e-38
0.006317181 0.035797149 0.73699993 2.2863807e-38
0.0077209766 0.035797149 0.73699993 2.2315664e-38
0.0091247987 0.035797149 0.73699993 2.2866677e-38
0.010528591 0.035797141 0.73699999 2.3416929e-38
0.011932387 0.035797141 0.73699999 2.1754161e-38
0.013336208 0.035797141 0.73699999 2.0082464e-38
0.014740004 0.035797149 0.73699999 1.5758656e-38
0.016143829 0.035797149 0.73699999 1.1512377e-38
0.017595245 0.035894282 0.73899996 7.291927e-39
0.019002885 0.035894275 0.73899996 3.0714304e-39
0.0204105 0.035894275 0.73899996 5.4609372e-39
0.021818114 0.03589429 0.73899996 7.8500894e-39
0.023225728 0.03589429 0.73899996 9.6850001e-39
0.024666687 0.035942845 0.73999995 1.1614636e-38
0.026146708 0.036040008 0.74199998 1.4479487e-38
0.027597176 0.036088571 0.74299997 1.7423576e-38
0.029012427 0.036088571 0.74299997 1.4476201e-38
0.030591447 0.036282852 0.74699998 1.1622877e-38
0.03201431 0.036282875 0.74699998 1.3560423e-38
0.033481948 0.036331438 0.74799997 1.5594796e-38
0.034906678 0.036331423 0.74800003 1.7977496e-38
0.036428597 0.036428571 0.75 2.0373099e-38
0.037857175 0.036428578 0.75 1.9360026e-38
0.039442882 0.036574289 0.75300002 1.8335838e-38
0.041040014 0.036719993 0.75600004 1.7054078e-38
0.042480022 0.03672 0.75599998 1.5768746e-38
0.044152401 0.036914282 0.75999999 1.5676556e-38
0.045600049 0.036914282 0.75999999 1.5582218e-38
0.047109555 0.036962859 0.76100004 1.5306719e-38
-0.035840008 0.03876571 0.76800001 1.7794822e-38
-0.034242805 0.038614292 0.76499999 1.8624954e-38
-0.032700013 0.038513333 0.76299995 1.9361079e-38
-0.031246658 0.038513321 0.76299995 1.9549421e-38
-0.029676165 0.038361892 0.75999999 1.9641631e-38
-0.028154282 0.038260948 0.75799996 2.0652913e-38
-0.026604749 0.03810953 0.755 2.1574139e-38
-0.025099985 0.038008571 0.75299996 2.0650763e-38
-0.023634251 0.0379581 0.75199997 1.9736358e-38
-0.022201881 0.037958104 0.75199997 2.0100833e-38
-0.020714263 0.037857141 0.75 2.0471763e-38
-0.019285686 0.037857145 0.75 2.1024212e-38
-0.017809495 0.037756186 0.74799997 2.157666e-38
-0.016362827 0.037705716 0.74699998 2.1663832e-38
-0.014899991 0.037604764 0.74499995 2.1668858e-38
-0.01348092 0.037604772 0.74499995 2.2223464e-38
-0.012029513 0.037503801 0.74299997 2.2773042e-38
-0.010614262 0.037503809 0.74299997 2.2958507e-38
-0.0091990074 0.037503801 0.74299997 2.3141103e-38
-0.007773303 0.037453331 0.74199998 2.332585e-38
-0.0063600023 0.037453339 0.74199998 2.3417686e-38
-0.0049333205 0.037352383 0.73999995 2.3417684e-38
-0.0035237826 0.037352376 0.73999995 2.3416251e-38
-0.002111404 0.037301891 0.73899996 2.3417689e-38
-0.00070378993 0.037301905 0.73899996 2.3417689e-38
0.00070192601 0.03720095 0.73699999 2.341769e-38
0.0021057215 0.037200958 0.73699999 2.341769e-38
0.0035095413 0.037200958 0.73699999 2.341769e-38
0.0049133389 0.03720095 0.73699999 2.3414802e-38
0.0063171606 0.03720095 0.73699999 2.2303789e-38
0.0077209841 0.03720095 0.73699999 2.1197836e-38
0.0091247791 0.03720095 0.73699999 2.2315664e-38
0.0105286 0.03720095 0.73699999 2.3417668e-38
0.011964789 0.037301891 0.73899996 2.2499292e-38
0.013372404 0.037301905 0.73899996 2.1478335e-38
0.014780018 0.037301891 0.73899996 1.7617654e-38
0.016187631 0.037301898 0.73900002 1.3736901e-38
0.017619081 0.037352376 0.74000001 7.9265274e-39
0.019028593 0.037352383 0.73999995 2.0630378e-39
0.020438129 0.037352376 0.73999995 7.207971e-39
0.021818113 0.037301898 0.73899996 1.2358281e-38
0.023257175 0.037352391 0.73999995 1.37254e-38
0.024733339 0.037453324 0.74199998 1.5123762e-38
0.026146693 0.037453331 0.74199998 1.5786004e-38
0.027671449 0.037604757 0.745 1.640907e-38
0.029168602 0.037705731 0.74699998 8.2926993e-39
0.030591436 0.037705708 0.74700004 1.2115486e-40
0.032014299 0.037705723 0.74699998 3.881409e-39
0.033481933 0.037756197 0.74799997 7.6559675e-39
0.035000026 0.037857149 0.75 1.2615419e-38
0.036428604 0.037857153 0.75 1.7601479e-38
0.037958153 0.037958112 0.75199997 1.8075761e-38
0.039390519 0.037958089 0.75199997 1.8528847e-38
0.041040052 0.03816 0.75599998 1.7519381e-38
0.042704806 0.038361907 0.75999993 1.6509193e-38
0.04415242 0.0383619 0.75999999 1.623082e-38
0.04566 0.038412374 0.76100004 1.5952792e-38
0.047109541 0.038412381 0.76100004 1.5764807e-38
-0.034242842 0.04007142 0.76499999 1.8440213e-38
-0.032699987 0.039966669 0.76299995 1.9175259e-38
-0.031164747 0.039861895 0.76100004 1.9361803e-38
-0.029715208 0.039861903 0.76099998 1.9546925e-38
-0.028154284 0.039704774 0.75799996 2.0655066e-38
-0.026639983 0.039599992 0.75599998 2.1672792e-38
-0.025099967 0.039442871 0.75299996 2.1668128e-38
-0.023665702 0.039442845 0.75300002 2.1577729e-38
-0.022201885 0.039390471 0.75199997 2.1759249e-38
-0.020714257 0.039285712 0.75 2.1940415e-38
-0.019285709 0.039285716 0.75 2.2220589e-38
-0.017809507 0.039180957 0.74799997 2.2499327e-38
-0.016362863 0.039128587 0.74699998 2.2496458e-38
-0.014899963 0.039023809 0.74499995 2.2588654e-38
-0.013480948 0.039023805 0.745 2.2865238e-38
-0.012029502 0.03891905 0.74299997 2.3138595e-38
-0.010614251 0.038919047 0.74299997 2.3233302e-38
-0.0091990242 0.038919039 0.74299997 2.3325854e-38
-0.007773316 0.038866673 0.74199998 2.3325854e-38
-0.0063599874 0.038866676 0.74199998 2.341769e-38
-0.0049332981 0.038761903 0.73999995 2.341769e-38
-0.0035237863 0.038761914 0.73999995 2.341769e-38
-0.0021114058 0.038709514 0.73899996 2.341769e-38
-0.00070378993 0.038709521 0.73899996 2.341769e-38
0.00070382404 0.038709521 0.73899996 2.2591171e-38
0.0021057327 0.038604766 0.73699999 2.1856487e-38
0.0035095543 0.038604777 0.73699999 1.9550913e-38
0.0049266941 0.038709521 0.73899996 1.7264675e-38
0.0063343081 0.038709529 0.73899996 1.3922686e-38
0.0077209934 0.038604759 0.73699993 1.0693414e-38
0.0091247894 0.038604777 0.73699993 1.706669e-38
0.010557148 0.038709525 0.73899996 2.341769e-38
0.011932405 0.038604766 0.73699999 2.2866677e-38
0.013372403 0.038709521 0.73899996 2.2223467e-38
0.014780017 0.038709525 0.73899996 1.9918967e-38
0.016209539 0.038761918 0.73999995 1.7615898e-38
0.017619077 0.038761899 0.73999995 1.3100885e-38
0.019028613 0.038761918 0.73999995 8.5973542e-39
0.020438123 0.038761903 0.73999995 1.2371931e-38
0.021847662 0.038761918 0.73999995 1.6149368e-38
0.023320025 0.038866673 0.74199998 1.6597408e-38
0.024733355 0.038866661 0.74199998 1.7073477e-38
0.026181942 0.038919043 0.74299997 1.670473e-38
0.027671451 0.039023817 0.745 1.6419465e-38
0.029168595 0.039128583 0.74700004 9.8553069e-39
0.030632405 0.039180942 0.74799997 3.4121225e-39
0.032057166 0.039180972 0.74799997 7.7416724e-39
0.033571452 0.039285716 0.75 1.2032423e-38
0.035000034 0.039285719 0.75 1.3989618e-38
0.036428582 0.039285712 0.75 1.5943006e-38
0.037958123 0.039390471 0.75199997 1.6966557e-38
0.039390519 0.039390478 0.75199997 1.7980715e-38
0.041148603 0.039704766 0.7579999 1.7337888e-38
0.042760961 0.039861891 0.76100004 1.6792616e-38
0.044210501 0.039861899 0.76099998 1.6602489e-38
0.045660011 0.039861891 0.76100004 1.6417355e-38
-0.03424282 0.041528571 0.76499999 1.8255818e-38
-0.032699984 0.041420002 0.76299995 1.8900468e-38
-0.031246651 0.041419998 0.76299995 1.9175983e-38
-0.029715225 0.041311432 0.76099998 1.9457602e-38
-0.028154284 0.041148562 0.7579999 2.0655064e-38
-0.026640002 0.041039992 0.75599998 2.1759965e-38
-0.025099974 0.040877152 0.75299996 2.2586849e-38
-0.023634255 0.040822845 0.75199997 2.3415882e-38
-0.022201862 0.040822864 0.75199997 2.341768e-38
-0.020714281 0.040714297 0.75 2.3415888e-38
-0.019285701 0.040714286 0.75 2.3417684e-38
-0.017809492 0.04060572 0.74799997 2.3417686e-38
-0.016362842 0.040551446 0.74699998 2.3417687e-38
-0.014899991 0.040442858 0.745 2.341697e-38
-0.013480946 0.040442854 0.745 2.3417689e-38
-0.012061875 0.040442869 0.745 2.3416971e-38
-0.010642831 0.040442858 0.74499995 2.341769e-38
-0.009199013 0.040334277 0.74299997 2.341769e-38
-0.0077837617 0.040334288 0.74299997 2.341769e-38
-0.0063685668 0.040334281 0.74299997 2.341769e-38
-0.00494667 0.040279999 0.74199998 2.341769e-38
-0.0035333156 0.040279999 0.74199998 2.3417665e-38
-0.0021142575 0.04017143 0.74000001 2.341764e-38
-0.00070378993 0.040117137 0.73900002 2.341228e-38
0.00070382404 0.040117137 0.73899996 2.1856478e-38
0.0021114398 0.040117137 0.73899996 2.0171138e-38
0.0035190538 0.040117137 0.73899996 1.5665085e-38
0.0049266941 0.040117133 0.73899996 1.1060729e-38
0.0063343099 0.040117145 0.73899996 5.6129935e-39
0.0077419239 0.040117145 0.73899996 1.3088968e-40
0.0091495635 0.040117141 0.73899996 1.1839602e-38
0.010557178 0.040117141 0.73899996 2.3415896e-38
0.011980977 0.04017143 0.73999995 2.3234019e-38
0.013390487 0.04017143 0.73999995 2.2956717e-38
0.014800026 0.040171433 0.73999995 2.2218086e-38
0.016209563 0.040171433 0.73999995 2.1480885e-38
0.017619073 0.040171433 0.73999995 1.8263051e-38
0.019028611 0.04017143 0.73999995 1.5040555e-38
0.020438118 0.040171422 0.74000001 1.7440474e-38
0.021847628 0.04017143 0.74000001 1.9822088e-38
0.02332001 0.040279999 0.74199998 1.9349987e-38
0.02473334 0.040280003 0.74199998 1.8908405e-38
0.026181953 0.040334288 0.74299997 1.7632054e-38
0.027597178 0.040334288 0.74299991 1.6312188e-38
0.029207636 0.040605713 0.74799997 1.1479972e-38
0.030632421 0.040605713 0.74799997 6.7411719e-39
0.032057181 0.040605728 0.74799997 1.1641152e-38
0.033571433 0.04071429 0.75 1.6483268e-38
0.035000011 0.04071429 0.75 1.5368274e-38
0.036525752 0.040822856 0.75199997 1.4197436e-38
0.037958145 0.040822856 0.75199991 1.5775206e-38
0.03960003 0.041039992 0.75599998 1.733606e-38
0.041257165 0.041257147 0.75999999 1.7150605e-38
0.042760946 0.041311432 0.76100004 1.6970167e-38
0.044210486 0.041311424 0.76099998 1.687726e-38
0.045659997 0.041311432 0.76100004 1.678541e-38
-0.034242824 0.042985726 0.76499999 1.8441633e-38
-0.03269998 0.042873338 0.76299995 1.9177767e-38
-0.031246681 0.042873323 0.76299995 1.9547993e-38
-0.02971521 0.042760961 0.76100004 1.9921443e-38
-0.028228525 0.042704761 0.75999999 2.0930567e-38
-0.026639996 0.042480003 0.75600004 2.1941844e-38
-0.02510001 0.042311426 0.75300002 2.2680484e-38
-0.023665715 0.04231143 0.75300002 2.3417684e-38
-0.022201888 0.042255234 0.75199997 2.341769e-38
-0.020769494 0.042255249 0.75199997 2.341769e-38
-0.019285697 0.042142853 0.75 2.341769e-38
-0.017809503 0.042030476 0.74799997 2.341769e-38
-0.016362851 0.04197428 0.74699998 2.341769e-38
-0.014899988 0.04186191 0.745 2.341769e-38
-0.013480918 0.04186191 0.745 2.341769e-38
-0.012061873 0.04186191 0.74499995 2.341769e-38
-0.010642829 0.041861914 0.74499995 2.341769e-38
-0.0091990056 0.041749533 0.74299997 2.341769e-38
-0.0077837822 0.041749507 0.74299997 2.2773407e-38
-0.0063685575 0.041749522 0.74299997 2.2131993e-38
-0.004946657 0.041693341 0.74199998 2.046891e-38
-0.0035333007 0.041693337 0.74199998 1.89177e-38
-0.0021142575 0.04158096 0.73999995 1.5588254e-38
-0.00070472126 0.041580945 0.73999995 1.2375848e-38
0.00070478889 0.041580964 0.73999995 1.1244806e-38
0.0021114361 0.041524757 0.73900002 1.0102572e-38
0.0035238371 0.041580971 0.73999995 7.82136e-39
0.0049333437 0.041580949 0.74000001 5.6083272e-39
0.0063428818 0.04158096 0.74000001 2.8564769e-39
0.0077419211 0.041524753 0.73899996 1.1222719e-40
0.0091495346 0.041524753 0.73899996 1.1827046e-38
0.010571465 0.041580945 0.73999995 2.341769e-38
0.011980976 0.041580964 0.73999995 2.2771972e-38
0.013390512 0.041580953 0.73999995 2.2039081e-38
0.014800023 0.041580971 0.73999995 2.2222035e-38
0.016209561 0.041580956 0.73999995 2.2407497e-38
0.01761907 0.04158096 0.74000001 1.9643101e-38
0.019080011 0.041693334 0.74199998 1.696373e-38
0.02049334 0.041693334 0.74199998 1.8355253e-38
0.02190667 0.041693334 0.74199998 1.9828205e-38
0.023351459 0.041749515 0.74299997 1.8995224e-38
0.02476671 0.041749515 0.74299997 1.8180191e-38
0.026181936 0.041749518 0.74299991 1.7439056e-38
0.027671451 0.041861899 0.745 1.6594852e-38
0.029207651 0.042030469 0.74799997 1.3911068e-38
0.03063241 0.04203048 0.74799997 1.126767e-38
0.032142859 0.042142861 0.75 1.3753426e-38
0.033571437 0.042142864 0.75 1.6330501e-38
0.035000015 0.042142868 0.75 1.6035205e-38
0.036525745 0.042255249 0.75199997 1.5763684e-38
0.038008586 0.042311437 0.75300002 1.6507017e-38
0.039600011 0.042480007 0.75599998 1.7334971e-38
0.04125718 0.042704765 0.75999999 1.6875434e-38
0.042760953 0.042760946 0.76100004 1.6416981e-38
0.044210494 0.042760953 0.76100004 1.641591e-38
0.045660034 0.042760953 0.76099998 1.6414478e-38
-0.034242835 0.044442847 0.76499999 1.8627828e-38
-0.03269998 0.044326674 0.76299995 1.9362876e-38
-0.031246673 0.044326659 0.76299995 1.9916766e-38
-0.029793316 0.044326678 0.76299995 2.0377391e-38
-0.028265689 0.044210486 0.76099998 2.1204283e-38
-0.026710467 0.044036191 0.75799996 2.2036193e-38
-0.025166649 0.043861907 0.75500005 2.2774835e-38
-0.0236657 0.043745726 0.75300002 2.3417327e-38
-0.022201864 0.043687619 0.75199997 2.341769e-38
-0.020769469 0.043687619 0.75199997 2.341769e-38
-0.019285688 0.043571427 0.75 2.341769e-38
-0.01785714 0.043571424 0.75 2.341769e-38
-0.016362833 0.043397158 0.74699998 2.341769e-38
-0.014899986 0.043280955 0.74499995 2.3417689e-38
-0.013480916 0.043280963 0.74499995 2.3417687e-38
-0.012061901 0.043280952 0.745 2.3417323e-38
-0.010642855 0.043280955 0.745 2.3417677e-38
-0.0092237862 0.043280955 0.745 2.3408331e-38
-0.007783799 0.043164752 0.74299997 2.2126203e-38
-0.0063685481 0.043164752 0.74299997 2.0813963e-38
-0.0049532955 0.043164756 0.74299997 1.7591474e-38
-0.0035380709 0.043164756 0.74299997 1.4282865e-38
-0.0021199852 0.043106664 0.74199998 7.825662e-39
-0.00070472498 0.042990483 0.73999995 1.3204281e-39
0.00070481125 0.042990487 0.73999995 7.3535659e-40
0.0021142934 0.042990476 0.74000001 1.0431826e-40
0.0035238296 0.042990476 0.74000001 9.3170934e-41
0.0049333661 0.042990472 0.74000001 9.9618308e-41
0.0063428762 0.042990487 0.73999995 9.2433851e-41
0.0077524134 0.042990483 0.73999995 1.2944214e-40
0.0091619259 0.042990487 0.73999995 1.1846417e-38
0.010571462 0.042990483 0.73999995 2.3415177e-38
0.011980998 0.042990483 0.73999995 2.2305258e-38
0.013390509 0.042990487 0.73999995 2.1118931e-38
0.014800016 0.042990476 0.74000001 2.2223829e-38
0.016209554 0.042990476 0.74000001 2.3325853e-38
0.017666673 0.043106671 0.74199998 2.11218e-38
0.019080028 0.043106668 0.74199998 1.8814787e-38
0.020493357 0.043106671 0.74199998 1.9372255e-38
0.021906687 0.043106671 0.74199998 1.9826766e-38
0.023351466 0.043164756 0.74299997 1.8622857e-38
0.024766695 0.04316476 0.74299997 1.7438689e-38
0.026252383 0.043280948 0.745 1.7164983e-38
0.027671454 0.043280948 0.745 1.6875428e-38
0.029207639 0.043455239 0.74799997 1.6301399e-38
0.030632423 0.043455236 0.74799997 1.5679756e-38
0.032142866 0.043571431 0.75 1.5957457e-38
0.033571444 0.043571435 0.75 1.6136765e-38
0.035000023 0.043571439 0.75 1.6770587e-38
0.036574312 0.043745715 0.75300002 1.732739e-38
0.038109537 0.0438619 0.75500005 1.7337127e-38
0.039600015 0.043919999 0.75599998 1.7244567e-38
0.041148569 0.044036187 0.75799996 1.6506647e-38
0.042704783 0.04415239 0.75999999 1.577269e-38
0.044152431 0.044152379 0.75999999 1.5863461e-38
0.045660019 0.044210479 0.76099998 1.5955658e-38
-0.034242839 0.045900002 0.76499999 1.8349462e-38
-0.032699976 0.045780011 0.76299995 1.9178133e-38
-0.03124667 0.045779992 0.76299995 1.9546908e-38
-0.029793313 0.045780014 0.76299995 2.0008255e-38
-0.0282657 0.045660008 0.76099998 2.1206437e-38
-0.026780931 0.045600012 0.75999999 2.2407486e-38
-0.025200002 0.045359988 0.75599998 2.2774121e-38
-0.023728555 0.045300007 0.755 2.3231865e-38
-0.022231411 0.045180012 0.75299996 2.3325136e-38
-0.020769499 0.045120005 0.75199997 2.341769e-38
-0.019337103 0.045120005 0.75199997 2.341769e-38
-0.017857134 0.045000009 0.75 2.341769e-38
-0.016362842 0.044820003 0.74699998 2.341769e-38
-0.014939979 0.044820014 0.74699998 2.3417687e-38
-0.013517115 0.044820014 0.74699998 2.2953843e-38
-0.012061899 0.044700012 0.745 2.2589361e-38
-0.010642827 0.044699997 0.745 2.0917657e-38
-0.0092237843 0.044700012 0.74499995 1.9345655e-38
-0.0078047388 0.044700008 0.74499995 1.8414707e-38
-0.006368537 0.044579998 0.74299997 1.7364704e-38
-0.0049533122 0.044579998 0.74299997 1.6923469e-38
-0.0035380598 0.044580001 0.74299997 1.6378566e-38
-0.0021199703 0.044520002 0.74199998 1.3455984e-38
-0.00070475665 0.044399999 0.73999995 1.0609442e-38
0.00070477958 0.044399995 0.74000001 1.0698765e-38
0.0021143176 0.044399999 0.73999995 1.0792012e-38
0.0035238278 0.044399999 0.73999995 8.5750217e-39
0.0049333642 0.044399999 0.73999995 6.3587673e-39
0.0063429023 0.044399995 0.73999995 4.242958e-39
0.0077524125 0.044400003 0.73999995 2.2423704e-39
0.0091619482 0.044399999 0.73999995 1.1644092e-38
0.01057143 0.044399992 0.74000001 2.1029964e-38
0.011980966 0.044399999 0.74000001 2.028846e-38
0.013390505 0.044399999 0.74000001 1.9651714e-38
0.014800015 0.044399999 0.73999995 2.0752667e-38
0.016209554 0.044399999 0.73999995 2.1856487e-38
0.017666686 0.044520009 0.74199998 2.1025304e-38
0.019080013 0.044519998 0.74199998 2.018945e-38
0.020493342 0.044519998 0.74199998 2.0012945e-38
0.021936227 0.044579986 0.74299997 1.9922543e-38
0.023351479 0.044580001 0.74299997 1.9550535e-38
0.024766706 0.044579998 0.74299997 1.909316e-38
0.026252411 0.044700004 0.745 1.9462661e-38
0.027745726 0.044820003 0.74700004 1.9920038e-38
0.029207652 0.044880003 0.74799997 1.9639142e-38
0.030632412 0.04488001 0.74799997 1.9468008e-38
0.032057166 0.044879995 0.74800003 1.7614061e-38
0.033571452 0.045000006 0.75 1.5763303e-38
0.035093375 0.045120008 0.75199991 1.7504174e-38
0.036525741 0.045119997 0.75199997 1.9161938e-38
0.038109526 0.045299999 0.755 1.9727721e-38
0.039600018 0.045359991 0.75600004 2.0370915e-38
0.041148596 0.045479998 0.75799996 1.8442356e-38
0.042704798 0.045600008 0.75999999 1.6508086e-38
0.04415242 0.045600004 0.75999993 1.6414472e-38
