# .PCD v0.7 - Point Cloud Data file format
VERSION 0.7
FIELDS x y z rgb
SIZE 4 4 4 4
TYPE F F F F
COUNT 1 1 1 1
WIDTH 986
HEIGHT 1
VIEWPOINT 0 0 0 1 0 0 0
POINTS 986
DATA ascii
0.045659993 0.04566 0.76100004 1.6228297e-38
0.047233347 0.045779996 0.76299995 1.6599222e-38
0.048686691 0.045779996 0.76299995 1.6968361e-38
-0.034242857 0.047357127 0.76500005 1.5582541e-38
-0.032785721 0.047357142 0.76500005 1.7981751e-38
-0.031246644 0.047233339 0.76299995 1.9272478e-38
-0.029793324 0.047233339 0.76299995 2.0562857e-38
-0.028265739 0.047109529 0.76099998 2.1762119e-38
-0.026816214 0.047109529 0.76099998 2.2956335e-38
-0.025266679 0.046923801 0.75800002 2.3140362e-38
-0.02376 0.046799995 0.75600004 2.3324044e-38
-0.022290457 0.046738096 0.755 2.2499331e-38
-0.020797158 0.046614282 0.75300002 2.1568018e-38
-0.019337146 0.046552368 0.75200003 1.8611304e-38
-0.017857144 0.046428569 0.75000006 1.5679051e-38
-0.016428582 0.046428569 0.75000006 1.6227937e-38
-0.014959978 0.046304762 0.74799997 1.6782186e-38
-0.013517166 0.046242837 0.74700004 1.6597446e-38
-0.01209429 0.046242848 0.74699998 1.6413052e-38
-0.01064284 0.046119031 0.74500006 1.768834e-38
-0.0092237815 0.046119042 0.745 1.8997371e-38
-0.0077838064 0.045995243 0.74299997 2.1213638e-38
-0.0063685705 0.045995221 0.74300003 2.341769e-38
-0.0049533364 0.045995224 0.74300003 2.341769e-38
-0.0035333247 0.045933336 0.74199998 2.341769e-38
-0.0021114373 0.045747619 0.73899996 2.341769e-38
-0.00070381386 0.045747615 0.73900002 2.341769e-38
0.00070381502 0.04574763 0.73899996 2.341769e-38
0.002111414 0.045747615 0.73899996 2.341769e-38
0.0035190373 0.045747615 0.73900002 2.341769e-38
0.0049266662 0.04574763 0.73899996 2.341769e-38
0.0063342652 0.045747612 0.73900002 2.341769e-38
0.0077523976 0.045809511 0.74000001 2.341769e-38
0.0091619184 0.045809507 0.74000001 2.341769e-38
0.010571443 0.045809526 0.73999995 2.341769e-38
0.011964771 0.045747619 0.73899996 2.341769e-38
0.013390514 0.045809519 0.73999995 2.341769e-38
0.014800008 0.045809515 0.73999995 2.341769e-38
0.01620953 0.045809507 0.74000001 2.341769e-38
0.017619079 0.045809511 0.73999995 2.341769e-38
0.019080026 0.045933329 0.74199998 2.341769e-38
0.020493338 0.045933329 0.74199998 2.341769e-38
0.021906652 0.045933332 0.74199998 2.341769e-38
0.023320023 0.045933329 0.74199998 2.341769e-38
0.024733337 0.045933332 0.74199998 2.341769e-38
0.026146675 0.045933321 0.74199998 2.341769e-38
0.027597142 0.045995243 0.74300003 2.341769e-38
0.029012378 0.045995224 0.74300003 2.341769e-38
0.030509563 0.046119042 0.745 2.341769e-38
0.032014273 0.046242848 0.74700004 2.341769e-38
0.033481918 0.046304762 0.74799997 2.341769e-38
0.035000004 0.046428569 0.75000006 2.341769e-38
0.036428563 0.046428565 0.75000006 2.3410124e-38
0.037958115 0.046552364 0.75200003 2.0916542e-38
0.039547652 0.046738103 0.755 1.8437712e-38
0.041040022 0.046800006 0.75599998 1.7798461e-38
0.042592403 0.046923805 0.75799996 1.7154896e-38
0.04403621 0.046923809 0.75799996 1.6871858e-38
0.045659982 0.047109522 0.76100004 1.6506305e-38
0.047233324 0.047233324 0.76299995 1.6783961e-38
0.048686668 0.047233321 0.76299995 1.7060191e-38
-0.034242861 0.048814282 0.76500005 1.502903e-38
-0.032785725 0.048814278 0.76500005 1.7250305e-38
-0.031246666 0.048686665 0.76299995 1.8999487e-38
-0.029793324 0.048686665 0.76299995 2.0840168e-38
-0.028265728 0.048559051 0.76100004 2.1945448e-38
-0.026816202 0.048559047 0.76100004 2.3142181e-38
-0.025266683 0.048367608 0.75800002 2.3233659e-38
-0.023759989 0.048240006 0.75599998 2.341769e-38
-0.022320002 0.048240006 0.75599998 2.2957436e-38
-0.020797165 0.048048552 0.75300002 2.2495354e-38
-0.019362887 0.048048556 0.75300002 2.1019853e-38
-0.01785714 0.047857139 0.75000006 1.9554806e-38
-0.016428579 0.047857124 0.75000006 1.9641995e-38
-0.014959993 0.047729526 0.74799997 1.9827821e-38
-0.013517151 0.047665704 0.74700004 1.9826029e-38
-0.012094303 0.0476657 0.74700004 1.992002e-38
-0.01064284 0.047538079 0.74500006 2.0560001e-38
-0.0092237815 0.04753809 0.745 2.1213625e-38
-0.0077838008 0.047410473 0.74300003 2.2315664e-38
-0.0063685649 0.047410458 0.74300003 2.341769e-38
-0.0049533253 0.04741047 0.74299997 2.341769e-38
-0.0035380893 0.04741047 0.74300003 2.341769e-38
-0.0021142685 0.047219042 0.74000001 2.341769e-38
-0.00070381572 0.047155246 0.73899996 2.341769e-38
0.00070378522 0.047155235 0.73900002 2.341769e-38
0.0021114382 0.047155242 0.73899996 2.341769e-38
0.0035190373 0.047155231 0.73899996 2.341769e-38
0.0049333419 0.047219034 0.74000001 2.341769e-38
0.006342893 0.047219045 0.73999995 2.341769e-38
0.0077523883 0.047219049 0.73999995 2.341769e-38
0.009161911 0.047219031 0.74000001 2.341769e-38
0.010571461 0.047219042 0.73999995 2.341769e-38
0.011980956 0.047219027 0.74000001 2.341769e-38
0.013390508 0.047219038 0.73999995 2.341769e-38
0.014800028 0.047219038 0.74000001 2.341769e-38
0.016209522 0.047219042 0.74000001 2.341769e-38
0.017619072 0.047219038 0.73999995 2.341769e-38
0.019079981 0.047346659 0.74199998 2.341769e-38
0.020493351 0.04734667 0.74199998 2.341769e-38
0.021906665 0.047346655 0.74199998 2.341769e-38
0.023320032 0.047346666 0.74199998 2.341769e-38
0.024733348 0.047346666 0.74199998 2.341769e-38
0.026146661 0.047346666 0.74199998 2.341769e-38
0.02759715 0.047410473 0.74300003 2.341769e-38
0.029012358 0.047410458 0.74300003 2.341769e-38
0.030509561 0.047538087 0.745 2.341769e-38
0.032014266 0.047665711 0.74699998 2.341769e-38
0.033481929 0.047729518 0.74799997 2.341769e-38
0.035000008 0.047857128 0.75000006 2.2034059e-38
0.036428571 0.047857128 0.75000006 2.0654341e-38
0.037958115 0.04798476 0.75200003 1.9908142e-38
0.039442841 0.04804856 0.75300002 1.9177439e-38
0.040985733 0.048176192 0.755 1.9180343e-38
0.042592376 0.048367627 0.75799996 1.9277534e-38
0.044036184 0.048367627 0.75799996 1.7705185e-38
0.045780018 0.048686672 0.76299995 1.6048913e-38
0.047357138 0.048814286 0.76500005 1.6508445e-38
0.048814274 0.048814282 0.76500005 1.6967632e-38
-0.034242865 0.050271418 0.76500005 1.4469046e-38
-0.032785729 0.050271418 0.76500005 1.6417684e-38
-0.031246658 0.050140001 0.76300001 1.8817967e-38
-0.029793343 0.050140001 0.76299995 2.1114596e-38
-0.028339999 0.050140001 0.76299995 2.222095e-38
-0.026816187 0.050008569 0.76100004 2.3232939e-38
-0.02533331 0.049942866 0.75999999 2.3325854e-38
-0.023760015 0.049680006 0.75599998 2.341769e-38
-0.022319997 0.049680002 0.75600004 2.341769e-38
-0.020852366 0.049614288 0.755 2.3416597e-38
-0.019362865 0.049482852 0.75299996 2.3417655e-38
-0.017857136 0.049285702 0.75000006 2.3416224e-38
-0.016428575 0.049285702 0.75000006 2.3141439e-38
-0.014960006 0.049154278 0.74799997 2.2770874e-38
-0.013517158 0.049088567 0.74699998 2.3050333e-38
-0.01209431 0.049088564 0.74700004 2.3324045e-38
-0.010642841 0.048957128 0.74500006 2.3417676e-38
-0.0092237834 0.048957139 0.745 2.3416966e-38
-0.0078047556 0.048957139 0.745 2.341769e-38
-0.0063685835 0.048825707 0.74300003 2.341769e-38
-0.0049533178 0.048825704 0.74300003 2.341769e-38
-0.0035380838 0.0488257 0.74300003 2.341769e-38
-0.0021142741 0.048628569 0.74000001 2.341769e-38
-0.00070472469 0.048628561 0.73999995 2.341769e-38
0.00070477056 0.048628561 0.74000001 2.341769e-38
0.0021142918 0.048628561 0.74000001 2.341769e-38
0.003523841 0.048628572 0.74000001 2.341769e-38
0.0049333363 0.048628561 0.74000001 2.341769e-38
0.0063428874 0.048628569 0.73999995 2.341769e-38
0.0077524069 0.048628569 0.74000001 2.341769e-38
0.0091619026 0.048628557 0.74000001 2.341769e-38
0.010600001 0.048759989 0.74199998 2.341769e-38
0.011980973 0.048628565 0.74000001 2.341769e-38
0.0133905 0.048628576 0.73999995 2.341769e-38
0.01480002 0.048628561 0.73999995 2.341769e-38
0.016253367 0.048760008 0.74199998 2.341769e-38
0.017666681 0.048759997 0.74199998 2.341769e-38
0.019079993 0.048760001 0.74199998 2.341769e-38
0.020493362 0.048760008 0.74199998 2.341769e-38
0.021906676 0.048759993 0.74199998 2.341769e-38
0.023319989 0.048759997 0.74199998 2.341769e-38
0.024733357 0.048760004 0.74199998 2.341769e-38
0.026146671 0.048760004 0.74199998 2.341769e-38
0.027597129 0.048825711 0.74300003 2.341769e-38
0.029090505 0.048957139 0.745 2.341769e-38
0.030509559 0.048957136 0.745 2.341769e-38
0.032014281 0.049088564 0.74699998 2.341769e-38
0.033481915 0.049154278 0.74799997 2.3413727e-38
0.035000011 0.049285702 0.75000006 2.064609e-38
0.036428574 0.049285702 0.75000006 1.788168e-38
0.037958112 0.049417134 0.75199997 1.888396e-38
0.03944286 0.049482841 0.75300002 1.9819569e-38
0.040985741 0.049614277 0.755 2.0650787e-38
0.042479999 0.049679995 0.75600004 2.138581e-38
0.043920018 0.049680006 0.75599998 1.8530638e-38
0.045899995 0.050271422 0.76500005 1.5590828e-38
0.047357135 0.050271425 0.76500005 1.6233678e-38
0.048941918 0.050402846 0.76699996 1.6876528e-38
-0.034242868 0.051728562 0.76500005 1.493683e-38
-0.032785706 0.051728554 0.76500005 1.6418399e-38
-0.03132857 0.051728558 0.76500005 1.8167941e-38
-0.029793313 0.051593337 0.76299995 2.0007543e-38
-0.028339999 0.051593322 0.76300001 2.0471407e-38
-0.026816202 0.051458094 0.76100004 2.1028525e-38
-0.025333321 0.051390477 0.75999999 2.1669946e-38
-0.023822846 0.051255245 0.75800002 2.2315664e-38
-0.022319987 0.051120006 0.75599998 2.2866677e-38
-0.020852359 0.051052369 0.755 2.341769e-38
-0.019414263 0.051052369 0.755 2.341769e-38
-0.017857132 0.05071428 0.75000006 2.3417682e-38
-0.016428569 0.050714262 0.75000006 2.2494655e-38
-0.014959963 0.050579052 0.74799997 2.1574156e-38
-0.013517141 0.050511416 0.74699998 2.1945093e-38
-0.012094295 0.050511416 0.74699998 2.2315663e-38
-0.01067145 0.050511416 0.74700004 2.1484478e-38
-0.0092237834 0.050376192 0.745 2.0751589e-38
-0.0078047556 0.050376192 0.745 2.1486633e-38
-0.0063857031 0.050376192 0.74500006 2.2223829e-38
-0.0049666432 0.050376203 0.745 2.2221676e-38
-0.0035475888 0.050376184 0.745 2.2223829e-38
-0.0021199738 0.050173324 0.74199998 2.2403912e-38
-0.00070666184 0.050173324 0.74199998 2.2683006e-38
0.00070668163 0.050173335 0.74199992 2.3050348e-38
0.0021200213 0.050173335 0.74199998 2.341769e-38
0.0035333331 0.050173324 0.74199998 2.3047478e-38
0.0049333549 0.050038081 0.74000001 2.2683006e-38
0.0063600144 0.050173331 0.74199998 2.3050348e-38
0.0077524004 0.050038092 0.74000001 2.341769e-38
0.0091619212 0.050038081 0.74000001 2.341769e-38
0.010571446 0.050038092 0.73999995 2.341769e-38
0.011980967 0.050038088 0.74000001 2.341769e-38
0.013390517 0.050038084 0.73999995 2.341769e-38
0.014800012 0.050038088 0.73999995 2.341769e-38
0.016209533 0.050038084 0.74000001 2.341769e-38
0.017619085 0.050038096 0.73999995 2.341769e-38
0.019080006 0.050173324 0.74199998 2.341769e-38
0.020493319 0.050173324 0.74199998 2.341769e-38
0.021906687 0.050173331 0.74199998 2.341769e-38
0.023320001 0.050173335 0.74199998 2.341769e-38
0.024733339 0.050173331 0.74199998 2.341769e-38
0.026181899 0.050240945 0.74300003 2.341769e-38
0.027597135 0.050240945 0.74300003 2.341769e-38
0.029012401 0.050240953 0.74300003 2.341769e-38
0.030509558 0.050376184 0.745 2.341769e-38
0.032014273 0.050511416 0.74699998 2.341769e-38
0.0334819 0.050579038 0.74799997 2.3417656e-38
0.034999993 0.050714284 0.75000006 1.971945e-38
0.036428578 0.050714277 0.75000006 1.6117417e-38
0.037857141 0.050714277 0.75000006 1.7234507e-38
0.039442848 0.05091713 0.75300002 1.8269486e-38
0.040985726 0.051052377 0.755 1.8722242e-38
0.042423822 0.051052377 0.755 1.9094232e-38
0.04403618 0.051255234 0.75800002 1.7614086e-38
0.045899995 0.051728565 0.76500005 1.6233334e-38
0.047480948 0.051863801 0.76699996 1.6601402e-38
0.048941907 0.051863804 0.76699996 1.7061291e-38
-0.034242872 0.053185698 0.76500005 1.5397779e-38
-0.032785736 0.053185716 0.76500005 1.632476e-38
-0.031246651 0.053046674 0.76299995 1.7611193e-38
-0.029793305 0.05304667 0.76299995 1.8904422e-38
-0.028339988 0.053046674 0.76299995 1.8812226e-38
-0.026816187 0.052907623 0.76099998 1.8724e-38
-0.025333328 0.052838091 0.75999999 2.0009002e-38
-0.02382285 0.052699041 0.75800002 2.1208969e-38
-0.02232001 0.052560005 0.75599998 2.2315664e-38
-0.020879989 0.052559987 0.75599998 2.341769e-38
-0.019362858 0.052351423 0.75300002 2.341769e-38
-0.017904723 0.052281898 0.75199997 2.341481e-38
-0.016428564 0.052142851 0.75000006 2.1844629e-38
-0.014959979 0.052003808 0.74799997 2.0287015e-38
-0.013535235 0.052003812 0.74799997 2.0748708e-38
-0.012094304 0.05193428 0.74699998 2.1206088e-38
-0.010671431 0.051934268 0.74699998 1.9635913e-38
-0.0092485826 0.051934268 0.74700004 1.8080455e-38
-0.0078047332 0.05179524 0.745 1.9553056e-38
-0.006385705 0.05179524 0.74500006 2.10235e-38
-0.004966645 0.051795237 0.745 2.1021348e-38
-0.0035475907 0.051795233 0.745 2.0931662e-38
-0.002122859 0.051656187 0.74299997 2.1382944e-38
-0.00070665067 0.051586661 0.74199998 2.1852173e-38
0.00070666301 0.051586665 0.74199998 2.2591171e-38
0.0021200064 0.051586661 0.74199998 2.3322976e-38
0.0035333461 0.051586658 0.74199998 2.2579676e-38
0.0049466579 0.051586658 0.74199998 2.1852891e-38
0.0063600275 0.051586654 0.74199998 2.2683006e-38
0.0077523938 0.051447619 0.73999995 2.341769e-38
0.0091619147 0.0514476 0.74000001 2.341769e-38
0.01057144 0.051447615 0.73999995 2.341769e-38
0.01198096 0.051447615 0.74000001 2.341769e-38
0.01339051 0.051447622 0.73999995 2.341769e-38
0.014800031 0.051447608 0.74000001 2.341769e-38
0.016209526 0.051447611 0.74000001 2.341769e-38
0.017666701 0.051586658 0.74199998 2.341769e-38
0.019080015 0.051586658 0.74199998 2.341769e-38
0.02049333 0.051586658 0.74199998 2.341769e-38
0.021906698 0.051586669 0.74199998 2.341769e-38
0.023351435 0.051656194 0.74299997 2.341769e-38
0.024766669 0.051656175 0.74300003 2.341769e-38
0.026181905 0.051656175 0.74300003 2.341769e-38
0.027671445 0.051795229 0.745 2.341769e-38
0.029090503 0.051795237 0.745 2.341769e-38
0.030591417 0.051934268 0.74700004 2.3417677e-38
0.032057144 0.052003801 0.74799997 2.3417665e-38
0.033481911 0.052003797 0.74800003 2.3309274e-38
0.034999996 0.052142855 0.75000006 1.8879953e-38
0.036525723 0.052281894 0.75200003 1.4378595e-38
0.038008563 0.052351415 0.75300002 1.5574624e-38
0.039547641 0.052490484 0.755 1.6691394e-38
0.041039992 0.052560005 0.75599998 1.678255e-38
0.042479984 0.052560005 0.75599998 1.6786135e-38
0.044152405 0.052838095 0.75999999 1.6781828e-38
0.046020012 0.053324759 0.76699996 1.6784337e-38
-0.034242876 0.054642837 0.76500005 1.6140331e-38
-0.032785717 0.054642852 0.76500005 1.7800218e-38
-0.031328581 0.054642849 0.76500005 1.8995904e-38
-0.02979333 0.054499999 0.76299995 2.028875e-38
-0.028339988 0.054499999 0.76299995 2.0193302e-38
-0.026816206 0.054357134 0.76100004 2.00972e-38
-0.025333313 0.054285705 0.75999999 2.0652555e-38
-0.023822876 0.054142859 0.75800002 2.129721e-38
-0.022319976 0.054000016 0.75599998 2.2405347e-38
-0.020852363 0.053928573 0.755 2.341769e-38
-0.019362865 0.053785712 0.75300002 2.341769e-38
-0.017904727 0.05371429 0.75199997 2.3417679e-38
-0.016428584 0.053571414 0.75000006 2.1940765e-38
-0.014999999 0.053571414 0.75000006 2.0470678e-38
-0.013535224 0.053428572 0.74800003 2.0931289e-38
-0.012094285 0.053357143 0.74699998 2.1389027e-38
-0.010671439 0.053357132 0.74699998 1.9914273e-38
-0.009248592 0.053357132 0.74699998 1.8442402e-38
-0.0078047332 0.053214286 0.745 1.9734206e-38
-0.006385705 0.053214289 0.74500006 2.1111738e-38
-0.0049666469 0.053214286 0.745 2.1114966e-38
-0.0035475907 0.053214282 0.745 2.1027429e-38
-0.0021200092 0.052999992 0.74199998 2.120392e-38
-0.00070761738 0.053071417 0.74300003 2.1301871e-38
0.00070667418 0.053000003 0.74199998 2.2314947e-38
0.0021200175 0.052999999 0.74199992 2.3417675e-38
0.0035333573 0.052999996 0.74199998 2.2491769e-38
0.0049466691 0.052999996 0.74199998 2.1577736e-38
0.006342893 0.052857142 0.73999995 2.2498618e-38
0.0077523864 0.052857138 0.73999995 2.341769e-38
0.0091619072 0.052857123 0.74000001 2.341769e-38
0.010571457 0.052857134 0.73999995 2.341769e-38
0.01201335 0.053000003 0.74199998 2.341769e-38
0.013390503 0.052857131 0.73999995 2.341769e-38
0.014840031 0.052999999 0.74199998 2.341769e-38
0.016253345 0.053000003 0.74199998 2.341769e-38
0.017666658 0.052999988 0.74199998 2.341769e-38
0.019080026 0.052999996 0.74199998 2.341769e-38
0.02049334 0.052999996 0.74199998 2.341769e-38
0.021906655 0.052999996 0.74199998 2.341769e-38
0.02335144 0.053071424 0.74300003 2.341769e-38
0.024766674 0.053071424 0.74300003 2.341769e-38
0.026181914 0.053071436 0.74299997 2.341769e-38
0.027671443 0.053214278 0.745 2.341769e-38
0.029168559 0.053357136 0.74699998 2.341769e-38
0.030632388 0.053428572 0.74800003 2.3417665e-38
0.032057129 0.05342856 0.74800003 2.2490316e-38
0.033571437 0.053571433 0.75000006 2.1460324e-38
0.035 0.053571429 0.75000006 1.8882759e-38
0.036525719 0.053714283 0.75200003 1.640144e-38
0.038008556 0.0537857 0.75300002 1.668236e-38
0.039547652 0.053928565 0.755 1.6965798e-38
0.041040026 0.054000005 0.75599998 1.7150583e-38
0.042704795 0.054285724 0.75999999 1.733319e-38
0.044210464 0.054357141 0.76099998 1.7243519e-38
0.045780003 0.054499999 0.76300001 1.7152028e-38
-0.032785717 0.056099992 0.76500005 1.917776e-38
-0.031328581 0.056099992 0.76500005 2.0375593e-38
-0.029793326 0.055953335 0.76299995 2.1573398e-38
-0.02834001 0.055953339 0.76299995 2.1482993e-38
-0.026816221 0.055806659 0.76100004 2.1390099e-38
-0.025333321 0.055733334 0.75999999 2.1390475e-38
-0.02382285 0.055586662 0.75799996 2.1393355e-38
-0.022319995 0.055440016 0.75599998 2.2406782e-38
-0.02085238 0.055366665 0.755 2.341769e-38
-0.019362843 0.055219993 0.75300002 2.341769e-38
-0.01790476 0.055146661 0.75200003 2.3415168e-38
-0.016428581 0.054999992 0.75000006 2.2029732e-38
-0.014959983 0.054853331 0.74800003 2.0654711e-38
-0.013535239 0.054853331 0.74800003 2.1116401e-38
-0.012094297 0.054779988 0.74700004 2.1481227e-38
-0.01067142 0.054779995 0.74699998 2.0097951e-38
-0.0092237871 0.054633334 0.745 1.8720064e-38
-0.0078047351 0.054633334 0.745 2.001294e-38
-0.0063857068 0.054633323 0.74500006 2.1206444e-38
-0.0049666227 0.054633334 0.745 2.1207161e-38
-0.0035475944 0.054633334 0.745 2.1113885e-38
-0.0021228702 0.054486651 0.74300003 2.0920166e-38
-0.00070665439 0.054413341 0.74199998 2.0748347e-38
0.00070668536 0.054413326 0.74199998 2.2131993e-38
0.0021199971 0.054413326 0.74199998 2.341373e-38
0.0035333424 0.054413337 0.74199998 2.2392045e-38
0.0049466821 0.054413319 0.74199998 2.1300079e-38
0.0063599939 0.054413322 0.74199998 2.24075e-38
0.0077524032 0.054266661 0.74000001 2.341769e-38
0.0091619007 0.05426665 0.74000001 2.341769e-38
0.01059999 0.054413334 0.74199998 2.341769e-38
0.012013359 0.054413326 0.74199998 2.341769e-38
0.013426675 0.05441333 0.74199998 2.341769e-38
0.014839987 0.05441333 0.74199998 2.341769e-38
0.016253356 0.054413326 0.74199998 2.341769e-38
0.01766667 0.054413326 0.74199998 2.341769e-38
0.019105708 0.054486666 0.74300003 2.341769e-38
0.020520974 0.054486673 0.74299997 2.341769e-38
0.02193621 0.054486658 0.74300003 2.341769e-38
0.02335142 0.054486662 0.74300003 2.341769e-38
0.024766656 0.054486658 0.74300003 2.341769e-38
0.026252413 0.054633327 0.745 2.341769e-38
0.027671443 0.054633327 0.745 2.341769e-38
0.029168578 0.054779995 0.74699998 2.341769e-38
0.030632373 0.054853335 0.74800003 2.3415874e-38
0.03205717 0.054853328 0.74799997 2.1574121e-38
0.033571444 0.054999992 0.75000006 1.9625067e-38
0.035000004 0.054999992 0.75000006 1.8972832e-38
0.036525741 0.055146657 0.75200003 1.8333591e-38
0.038109541 0.055366673 0.755 1.778762e-38
0.039547637 0.055366665 0.755 1.7240951e-38
0.041148581 0.05558667 0.75800002 1.7612637e-38
0.042704783 0.055733338 0.75999999 1.7888158e-38
0.044210449 0.055806667 0.76100004 1.7707371e-38
0.045780011 0.055953346 0.76299995 1.752297e-38
-0.03455618 0.058083795 0.77200001 1.6324752e-38
-0.032914277 0.057782855 0.76799995 1.807682e-38
-0.031410445 0.057707626 0.76699996 1.8997706e-38
-0.029871423 0.057557147 0.76500005 1.992146e-38
-0.028340003 0.05740666 0.76299995 2.0565044e-38
-0.026816202 0.057256196 0.76100004 2.1303313e-38
-0.025333306 0.057180945 0.75999999 2.176177e-38
-0.023822853 0.05703048 0.75799996 2.2223823e-38
-0.022320017 0.056880008 0.75600004 2.2866677e-38
-0.020879971 0.056880016 0.75599998 2.341769e-38
-0.019414274 0.05680475 0.755 2.341769e-38
-0.017904734 0.056579031 0.75200003 2.341768e-38
-0.016428577 0.056428567 0.75000006 2.2033679e-38
-0.014959996 0.056278091 0.74800003 2.0562521e-38
-0.013535223 0.056278102 0.74799997 2.1023852e-38
-0.012094306 0.056202851 0.74700004 2.1393343e-38
-0.010671431 0.056202844 0.74699998 2.0005762e-38
-0.009223789 0.056052387 0.745 1.8531015e-38
-0.0078047351 0.056052372 0.745 1.991895e-38
-0.0063857068 0.056052372 0.74500006 2.1207879e-38
-0.0049666227 0.056052379 0.745 2.1023133e-38
-0.0035475963 0.056052368 0.745 2.0932728e-38
-0.0021228665 0.055901885 0.74300003 2.1019536e-38
-0.00070667302 0.055826668 0.74199998 2.1210754e-38
0.00070667046 0.055826664 0.74199998 2.2314947e-38
0.0021200082 0.055826668 0.74199998 2.3417677e-38
0.0035333219 0.055826649 0.74199998 2.2583969e-38
0.0049466933 0.05582666 0.74199998 2.1669574e-38
0.006360007 0.055826664 0.74199998 2.2590453e-38
0.0077733486 0.055826671 0.74199992 2.341769e-38
0.0091866888 0.055826671 0.74199998 2.341769e-38
0.010600002 0.055826657 0.74199998 2.341769e-38
0.012013345 0.055826664 0.74199992 2.341769e-38
0.013426684 0.055826668 0.74199998 2.341769e-38
0.014839998 0.055826657 0.74199998 2.341769e-38
0.016253343 0.055826664 0.74199992 2.341769e-38
0.017690478 0.055901896 0.74300003 2.341769e-38
0.019105714 0.055901892 0.74300003 2.341769e-38
0.020520953 0.055901907 0.74299997 2.341769e-38
0.021936189 0.055901892 0.74300003 2.341769e-38
0.023351425 0.055901892 0.74300003 2.341769e-38
0.024766691 0.0559019 0.74299997 2.341769e-38
0.026252411 0.056052376 0.745 2.341769e-38
0.02767144 0.056052376 0.745 2.341769e-38
0.029207615 0.05627808 0.74800003 2.341769e-38
0.030632416 0.056278087 0.74799997 2.3417672e-38
0.032142859 0.056428567 0.75 2.0645727e-38
0.033571422 0.056428567 0.75000006 1.7870167e-38
0.03509336 0.056579039 0.75199997 1.6766299e-38
0.036671426 0.056804746 0.75500005 1.5580338e-38
0.038109548 0.056804758 0.755 1.576294e-38
0.039599992 0.056880008 0.75600004 1.5863426e-38
0.041039988 0.056880005 0.75600004 1.6785407e-38
0.042704798 0.057180949 0.75999999 1.7705932e-38
0.044210464 0.057256185 0.76100004 1.7430441e-38
0.045780014 0.057406671 0.76299995 1.7157434e-38
-0.034556184 0.059554275 0.77200001 1.5862706e-38
-0.032914296 0.059245721 0.76800001 1.6877569e-38
-0.031410456 0.05916857 0.76700002 1.7616208e-38
-0.029871423 0.059014287 0.76500005 1.826194e-38
-0.028414289 0.059014287 0.76500005 1.9735268e-38
-0.026816221 0.058705714 0.76100004 2.111568e-38
-0.025333317 0.058628578 0.75999999 2.2129828e-38
-0.023822857 0.058474287 0.75800002 2.3049982e-38
-0.022319982 0.058320001 0.75599998 2.3234019e-38
-0.020879989 0.058320001 0.75599998 2.341769e-38
-0.019414289 0.05824285 0.755 2.341769e-38
-0.017904738 0.058011428 0.75199997 2.3415884e-38
-0.016428573 0.057857126 0.75000006 2.1941121e-38
-0.01495998 0.057702862 0.74799997 2.0470681e-38
-0.013535212 0.057702862 0.74799997 2.0931297e-38
-0.012094289 0.057625704 0.74699998 2.1296843e-38
-0.010671442 0.057625704 0.74700004 1.9817428e-38
-0.0092485659 0.057625711 0.74699998 1.8352726e-38
-0.007804737 0.057471421 0.745 1.9832143e-38
-0.0063857087 0.057471421 0.745 2.1207164e-38
-0.0049666245 0.057471428 0.745 2.092843e-38
-0.0035475981 0.057471413 0.745 2.0654353e-38
-0.0021199998 0.057240006 0.74199998 2.1105992e-38
-0.00070666184 0.057240006 0.74199998 2.1575945e-38
0.00070668163 0.057240002 0.74199992 2.2499335e-38
0.0021200213 0.057240006 0.74199998 2.3415165e-38
0.0035333331 0.057239991 0.74199998 2.276441e-38
0.0049466765 0.057240002 0.74199992 2.2036197e-38
0.0063600182 0.057240002 0.74199998 2.2774842e-38
0.0077733309 0.057240002 0.74199998 2.341769e-38
0.0091866739 0.057240013 0.74199998 2.341769e-38
0.010600014 0.057239994 0.74199998 2.341769e-38
0.012013326 0.057239998 0.74199998 2.341769e-38
0.013426695 0.057240006 0.74199998 2.341769e-38
0.014860013 0.057317145 0.74299997 2.341769e-38
0.016275248 0.05731713 0.74300003 2.341769e-38
0.017690485 0.057317127 0.74300003 2.341769e-38
0.019105725 0.057317141 0.74299997 2.341769e-38
0.020520961 0.057317138 0.74300003 2.341769e-38
0.021936195 0.057317138 0.74300003 2.341769e-38
0.023351435 0.057317134 0.74299997 2.341769e-38
0.024833357 0.057471424 0.745 2.341769e-38
0.026252409 0.057471421 0.745 2.341769e-38
0.027745711 0.057625704 0.74699998 2.341769e-38
0.02920763 0.057702854 0.74799997 2.341769e-38
0.030632401 0.057702851 0.74799997 2.3411904e-38
0.032142866 0.057857145 0.75000006 1.9812337e-38
0.033571426 0.057857141 0.75000006 1.6120591e-38
0.035093382 0.058011428 0.75199997 1.4457477e-38
0.036671411 0.05824285 0.75500005 1.2814485e-38
0.038109533 0.058242857 0.755 1.3637061e-38
0.0396 0.058320012 0.75599998 1.4480853e-38
0.041148551 0.058474276 0.75800002 1.5959244e-38
0.042704791 0.058628578 0.75999999 1.7427897e-38
0.044210475 0.058705721 0.76100004 1.7151317e-38
0.045779988 0.05886 0.76299995 1.6782161e-38
-0.034556191 0.061024755 0.77199996 1.5770513e-38
-0.032914311 0.060708571 0.76800001 1.7148761e-38
-0.031410471 0.060629524 0.76699996 1.8257243e-38
-0.02987143 0.060471423 0.76500005 1.9356768e-38
-0.028414294 0.060471427 0.76499999 2.0007158e-38
-0.026816206 0.06015525 0.76099998 2.0650748e-38
-0.025333324 0.060076188 0.75999999 2.1850731e-38
-0.023822857 0.059918087 0.75800002 2.3050341e-38
-0.022320004 0.059760015 0.75599998 2.3234019e-38
-0.020880012 0.059760001 0.75599998 2.341769e-38
-0.019414278 0.059680954 0.755 2.341769e-38
-0.017904742 0.059443802 0.75199997 2.3417675e-38
-0.016428569 0.0592857 0.75000006 2.1849638e-38
-0.015000007 0.059285704 0.75000006 2.037669e-38
-0.013535225 0.059127625 0.74799997 2.0746908e-38
-0.012110481 0.059127625 0.74799997 2.1208593e-38
-0.01067145 0.059048563 0.74699998 1.9913925e-38
-0.0092486031 0.059048571 0.74700004 1.8536041e-38
-0.0078047407 0.058890469 0.745 1.9920395e-38
-0.0063857106 0.058890469 0.745 2.1207527e-38
-0.0049666264 0.058890477 0.745 2.111569e-38
-0.0035475981 0.058890469 0.745 2.1027078e-38
-0.0021228516 0.058732379 0.74300003 2.1389392e-38
-0.00070665067 0.058653329 0.74199998 2.1763204e-38
0.00070666301 0.058653317 0.74199998 2.2498976e-38
0.0021200064 0.058653329 0.74199998 2.3234004e-38
0.0035333461 0.058653329 0.74199998 2.2675442e-38
0.0049466579 0.058653332 0.74199998 2.2220943e-38
0.0063600275 0.05865334 0.74199998 2.2774124e-38
0.0077733402 0.058653325 0.74199998 2.341769e-38
0.0091866562 0.058653325 0.74199998 2.341769e-38
0.010600026 0.058653332 0.74199998 2.341769e-38
0.012013339 0.058653321 0.74199998 2.341769e-38
0.013444753 0.058732368 0.74300003 2.341769e-38
0.014860019 0.058732376 0.74300003 2.341769e-38
0.016275229 0.058732379 0.74300003 2.341769e-38
0.017690463 0.058732379 0.74300003 2.341769e-38
0.019105731 0.058732372 0.74300003 2.341769e-38
0.020520967 0.058732372 0.74300003 2.341769e-38
0.021936176 0.058732376 0.74300003 2.341769e-38
0.02335144 0.058732372 0.74299997 2.341769e-38
0.024766676 0.058732368 0.74300003 2.341769e-38
0.026322853 0.059048571 0.74699998 2.341769e-38
0.027745701 0.059048571 0.74699998 2.341769e-38
0.029207643 0.05912761 0.74799997 2.341769e-38
0.030632386 0.05912761 0.74799997 2.3417617e-38
0.032142866 0.0592857 0.75 1.9257323e-38
0.033660971 0.059443794 0.75200003 1.5189284e-38
0.035093348 0.059443794 0.75200003 1.3911463e-38
0.036574274 0.059522841 0.75300002 1.2633298e-38
0.038109545 0.059680961 0.755 1.3183591e-38
0.039600007 0.059760008 0.75600004 1.374974e-38
0.041148577 0.059918102 0.75799996 1.5311728e-38
0.042704783 0.060076192 0.75999999 1.6783238e-38
0.04421046 0.060155246 0.76100004 1.6776411e-38
0.045779996 0.060313337 0.76299995 1.6775663e-38
-0.034556169 0.062495239 0.77199996 1.5771581e-38
-0.033000007 0.062333338 0.77000004 1.7428936e-38
-0.031410456 0.062090479 0.76699996 1.8907284e-38
-0.02987143 0.061928567 0.76500005 2.0375229e-38
-0.028414294 0.061928567 0.76499999 2.0285558e-38
-0.026886648 0.061766669 0.76299995 2.0103336e-38
-0.02536667 0.061604753 0.76100004 2.1572359e-38
-0.023885706 0.061523803 0.75999999 2.304819e-38
-0.022379052 0.061361898 0.75800002 2.3234019e-38
-0.020879976 0.061200004 0.75599998 2.341769e-38
-0.019414267 0.061119039 0.75500005 2.341769e-38
-0.017904719 0.060876176 0.75199997 2.3415165e-38
-0.016428588 0.060714282 0.75000006 2.1846414e-38
-0.015000003 0.060714278 0.75000006 2.0193381e-38
-0.013535238 0.060552385 0.74799997 2.0654718e-38
-0.01211047 0.060552381 0.74800003 2.1112092e-38
-0.010685697 0.060552381 0.74799997 1.991033e-38
-0.0092485882 0.060471416 0.74699998 1.8721143e-38
-0.0078257415 0.060471416 0.74700004 2.001331e-38
-0.0063857124 0.060309522 0.745 2.1207887e-38
-0.0049666283 0.060309533 0.745 2.130008e-38
-0.0035476 0.060309518 0.745 2.1391192e-38
-0.002122846 0.060147613 0.74300003 2.1660954e-38
-0.00070666557 0.06006667 0.74199998 2.1944722e-38
0.00070667418 0.060066655 0.74199998 2.2499335e-38
0.0021200175 0.060066666 0.74199992 2.2954194e-38
0.0035333573 0.060066663 0.74199998 2.26654e-38
0.0049466691 0.060066666 0.74199998 2.2310269e-38
0.0063600126 0.060066666 0.74199992 2.2866677e-38
0.0077733533 0.060066663 0.74199998 2.341769e-38
0.0091866665 0.060066663 0.74199998 2.341769e-38
0.010600011 0.060066663 0.74199992 2.341769e-38
0.012013351 0.060066659 0.74199998 2.341769e-38
0.013444764 0.060147628 0.74299997 2.341769e-38
0.014859999 0.060147613 0.74300003 2.341769e-38
0.016275233 0.060147613 0.74300003 2.341769e-38
0.0176905 0.060147621 0.74299997 2.341769e-38
0.019105708 0.060147613 0.74300003 2.341769e-38
0.020520946 0.060147613 0.74300003 2.341769e-38
0.021936212 0.060147621 0.74299997 2.341769e-38
0.023414295 0.060309514 0.74500006 2.341769e-38
0.024833353 0.060309526 0.745 2.341769e-38
0.026322842 0.060471423 0.74700004 2.341769e-38
0.027745718 0.06047143 0.74699998 2.3417689e-38
0.029285697 0.060714271 0.75000006 2.3417686e-38
0.030714283 0.060714267 0.75000006 2.331288e-38
0.032142874 0.060714282 0.75000006 1.879423e-38
0.033660967 0.060876187 0.75199997 1.4283875e-38
0.035093345 0.060876183 0.75199997 1.3365509e-38
0.036574267 0.06095713 0.75300002 1.235458e-38
0.03810953 0.06111905 0.755 1.2714009e-38
0.039600015 0.061200004 0.75599998 1.3007147e-38
0.041148573 0.061361898 0.75799996 1.4570198e-38
0.042704798 0.061523817 0.75999999 1.6133876e-38
0.044210475 0.061604764 0.76099998 1.6394997e-38
0.045779996 0.061766658 0.76300001 1.6688091e-38
-0.034556203 0.063965693 0.77200001 1.7054399e-38
-0.033000007 0.063800007 0.77000004 1.6602063e-38
-0.031451464 0.063634291 0.76800001 1.8261224e-38
-0.029949505 0.063551433 0.76699996 1.9920377e-38
-0.028414302 0.06338571 0.76499999 2.0195539e-38
-0.02688667 0.063219994 0.76299995 2.056755e-38
-0.025366655 0.063054293 0.76099998 2.1853251e-38
-0.023885692 0.062971428 0.75999999 2.3234016e-38
-0.022379026 0.06280572 0.75799996 2.3325854e-38
-0.020880001 0.062639996 0.75599998 2.341769e-38
-0.019414281 0.062557146 0.755 2.341769e-38
-0.017904719 0.062308569 0.75199997 2.3417679e-38
-0.016472341 0.062308569 0.75199997 2.1757094e-38
-0.015000024 0.062142842 0.75000006 2.019195e-38
-0.013571406 0.062142849 0.75000006 2.0654362e-38
-0.012110455 0.061977152 0.74799997 2.1113524e-38
-0.010685684 0.061977137 0.74799997 1.9912831e-38
-0.0092609413 0.061977137 0.74799997 1.8720423e-38
-0.0078257229 0.061894268 0.74700004 1.9828207e-38
-0.0063857143 0.061728556 0.745 2.0841264e-38
-0.0049666301 0.061728567 0.745 2.0931303e-38
-0.0035476019 0.061728567 0.745 2.1026003e-38
-0.0021228646 0.061562844 0.74300003 2.157414e-38
-0.00070665439 0.061480008 0.74199998 2.2039429e-38
0.0007066835 0.061479993 0.74199998 2.2499335e-38
0.0021199989 0.061479993 0.74199998 2.29585e-38
0.0035333424 0.061480004 0.74199998 2.2676165e-38
0.0049466821 0.061480004 0.74199998 2.2406769e-38
0.0063599939 0.061479989 0.74199998 2.2866677e-38
0.0077733384 0.061480001 0.74199998 2.341769e-38
0.0091866776 0.061480001 0.74199998 2.341769e-38
0.010614294 0.061562847 0.74300003 2.341769e-38
0.012013362 0.061479997 0.74199998 2.341769e-38
0.01344477 0.061562859 0.74300003 2.341769e-38
0.014860005 0.061562844 0.74300003 2.341769e-38
0.016275244 0.061562859 0.74299997 2.341769e-38
0.01769048 0.061562859 0.74299997 2.341769e-38
0.019105716 0.061562859 0.74300003 2.341769e-38
0.02052098 0.061562866 0.74299997 2.341769e-38
0.021995265 0.061728563 0.745 2.341769e-38
0.023414293 0.061728563 0.74500006 2.341769e-38
0.024899986 0.061894275 0.74699998 2.341769e-38
0.026358128 0.061977141 0.74799997 2.341769e-38
0.027782872 0.061977144 0.74799997 2.3417686e-38
0.029207615 0.061977133 0.74799997 2.1756751e-38
0.030632382 0.061977129 0.74800003 2.0091834e-38
0.032142852 0.06214286 0.75 1.7136916e-38
0.033660989 0.062308561 0.75199997 1.428642e-38
0.035139982 0.062391415 0.75300002 1.4653393e-38
0.036574289 0.062391426 0.75300002 1.5021772e-38
0.038109541 0.062557131 0.755 1.640608e-38
0.039599992 0.062640019 0.75599998 1.7698634e-38
0.041257158 0.062971435 0.75999999 1.8714603e-38
0.042704787 0.062971435 0.75999999 1.9817285e-38
0.04421046 0.063054286 0.76100004 1.9909057e-38
0.045780003 0.063220009 0.76299995 2.0104617e-38
-0.03455621 0.065436177 0.77200001 1.8335693e-38
-0.033 0.065266669 0.77000004 1.5682218e-38
-0.031451423 0.065097146 0.76799995 1.7522942e-38
-0.029949494 0.065012388 0.76699996 1.9364332e-38
-0.028414275 0.064842857 0.76500005 2.0191943e-38
-0.02688667 0.064673319 0.76300001 2.0932015e-38
-0.02536667 0.064503804 0.76100004 2.2222382e-38
-0.023885699 0.064419046 0.75999999 2.3416608e-38
-0.022379052 0.064249523 0.75799996 2.341769e-38
-0.020879991 0.064080015 0.75599998 2.341769e-38
-0.019439973 0.064080007 0.75599998 2.341769e-38
-0.017928587 0.063825712 0.75300002 2.3415525e-38
-0.016472375 0.063740939 0.75200003 2.1756015e-38
-0.01500002 0.063571416 0.75000006 2.0102983e-38
-0.013571428 0.063571423 0.75 2.0656873e-38
-0.01211047 0.0634019 0.74799997 2.1111371e-38
-0.010685701 0.0634019 0.74799997 1.9906734e-38
-0.0092609581 0.0634019 0.74800003 1.8720062e-38
-0.0078257322 0.063317135 0.74699998 1.9645249e-38
-0.0063857143 0.063147619 0.74500006 2.0470691e-38
-0.004966632 0.063147619 0.745 2.0558219e-38
-0.0035476019 0.063147619 0.745 2.0653633e-38
-0.002122859 0.062978074 0.74300003 2.1386158e-38
-0.00070667302 0.062893324 0.74199998 2.2128749e-38
0.00070761668 0.062978089 0.74300003 2.2499335e-38
0.0021200082 0.062893331 0.74199998 2.2863436e-38
0.0035333238 0.062893331 0.74199998 2.2673654e-38
0.0049466952 0.062893331 0.74199998 2.2404617e-38
0.006360007 0.062893331 0.74199998 2.2958513e-38
0.0077733197 0.062893331 0.74199998 2.341769e-38
0.0091866897 0.062893324 0.74199998 2.341769e-38
0.010614273 0.062978081 0.74300003 2.341769e-38
0.012013346 0.062893339 0.74199992 2.341769e-38
0.013444774 0.062978089 0.74300003 2.341769e-38
0.014859985 0.062978081 0.74300003 2.341769e-38
0.016275251 0.062978089 0.74299997 2.341769e-38
0.017690485 0.062978089 0.74300003 2.341769e-38
0.019105695 0.062978074 0.74300003 2.341769e-38
0.020576211 0.063147634 0.745 2.341769e-38
0.021995265 0.063147612 0.745 2.341769e-38
0.023414293 0.063147612 0.74500006 2.341769e-38
0.024933346 0.063401908 0.74799997 2.341769e-38
0.026358113 0.063401908 0.74799997 2.341769e-38
0.027782856 0.063401893 0.74799997 2.3414782e-38
0.029285705 0.063571423 0.75000006 2.0100057e-38
0.030714268 0.063571408 0.75000006 1.6769566e-38
0.032142855 0.063571416 0.75 1.5467347e-38
0.033660986 0.063740954 0.75199997 1.4194212e-38
0.035140004 0.063825712 0.75300002 1.5939092e-38
0.036671456 0.063995235 0.755 1.7699367e-38
0.038109548 0.063995235 0.755 2.0097826e-38
0.039704759 0.064249523 0.75800002 2.2397337e-38
0.041257173 0.064419046 0.75999999 2.295628e-38
0.042760946 0.064503804 0.76099998 2.3411122e-38
0.044326663 0.064673334 0.76299995 2.3411809e-38
0.04589998 0.06484285 0.76500005 2.3413628e-38
-0.031451441 0.06656 0.76800001 1.9084493e-38
-0.029871445 0.066300005 0.76500005 1.9730229e-38
-0.028414283 0.06629999 0.76500005 2.0836218e-38
-0.026886659 0.066126674 0.76299995 2.1848571e-38
-0.025366684 0.065953322 0.76100004 2.2587568e-38
-0.02388571 0.065866672 0.75999999 2.3414096e-38
-0.022379056 0.065693334 0.75800002 2.3416973e-38
-0.020935247 0.065693334 0.75800002 2.341769e-38
-0.019439993 0.065519989 0.75599998 2.3325854e-38
-0.017928595 0.065259993 0.75300002 2.3234005e-38
-0.016472375 0.065173313 0.75199997 2.1665611e-38
-0.015039995 0.065173313 0.75200003 2.0195176e-38
-0.013607585 0.065173328 0.75199997 2.0656154e-38
-0.012142863 0.064999998 0.75000006 2.1115678e-38
-0.010714275 0.064999998 0.75000006 1.972988e-38
-0.009260945 0.064826638 0.74800003 1.8444196e-38
-0.0078257136 0.064739995 0.74699998 1.9367227e-38
-0.0064028674 0.064740002 0.74699998 2.0378851e-38
-0.0049800207 0.06473998 0.74700004 2.0377415e-38
-0.0035476056 0.064566672 0.745 2.0378481e-38
-0.0021228516 0.064393342 0.74299997 2.1295749e-38
-0.00070665998 0.064306661 0.74199998 2.2314209e-38
0.00070762227 0.064393327 0.74300003 2.2406423e-38
0.0021200231 0.064306676 0.74199998 2.2587929e-38
0.0035333349 0.064306676 0.74199998 2.2585406e-38
0.0049466784 0.064306669 0.74199998 2.2497887e-38
0.00636002 0.064306669 0.74199998 2.2958154e-38
0.0077733318 0.064306654 0.74199998 2.341769e-38
0.0091866748 0.064306661 0.74199998 2.341769e-38
0.010614309 0.064393327 0.74299997 2.341769e-38
0.012029519 0.064393334 0.74300003 2.341769e-38
0.013444754 0.064393312 0.74300003 2.341769e-38
0.01486002 0.064393327 0.74299997 2.341769e-38
0.016275257 0.064393327 0.74300003 2.341769e-38
0.017690467 0.064393327 0.74300003 2.341769e-38
0.019105731 0.064393334 0.74299997 2.341769e-38
0.020576207 0.064566657 0.745 2.341769e-38
0.021995263 0.064566664 0.745 2.341769e-38
0.023414291 0.064566664 0.74500006 2.341769e-38
0.024933357 0.064826652 0.74799997 2.341769e-38
0.0263581 0.064826652 0.74799997 2.341769e-38
0.027782869 0.064826652 0.74800003 2.3417619e-38
0.029285708 0.064999998 0.75000006 2.0087791e-38
0.030714301 0.065000013 0.75 1.6652929e-38
0.032228574 0.06517332 0.75199997 1.6760907e-38
0.033705719 0.065259993 0.75300002 1.6777789e-38
0.035139993 0.065259993 0.75300002 1.8070322e-38
0.036671441 0.065433338 0.755 1.946291e-38
0.038109533 0.065433338 0.755 2.1116297e-38
0.039704755 0.065693334 0.75800002 2.2774752e-38
0.041420005 0.06612666 0.76300001 2.3141769e-38
0.042873323 0.06612666 0.76299995 2.3417635e-38
0.044442873 0.066300005 0.76499999 2.3416202e-38
-0.029871445 0.067757145 0.76500005 2.0101168e-38
-0.028414283 0.067757137 0.76500005 2.1482671e-38
-0.026886655 0.067580014 0.76299995 2.2770883e-38
-0.025366673 0.067402855 0.76100004 2.3048906e-38
-0.023885692 0.067314282 0.75999999 2.3324774e-38
-0.022379059 0.067137137 0.75800002 2.341769e-38
-0.020935247 0.067137137 0.75800002 2.341769e-38
-0.019439986 0.066960014 0.75599998 2.3234019e-38
-0.017928576 0.06669426 0.75300002 2.3047105e-38
-0.016472353 0.066605702 0.75199997 2.1660232e-38
-0.015039973 0.066605702 0.75200003 2.0195892e-38
-0.013607618 0.066605702 0.75200003 2.065687e-38
-0.012175208 0.066605717 0.75199997 2.1022762e-38
-0.010714294 0.066428564 0.75000006 1.9544411e-38
-0.0092857312 0.066428564 0.75000006 1.8079003e-38
-0.0078571457 0.066428564 0.75000006 1.9183915e-38
-0.0064285533 0.066428572 0.75000006 2.0286298e-38
-0.0049866741 0.066251412 0.74800003 2.0193744e-38
-0.0035571572 0.066162847 0.74700004 2.0008989e-38
-0.0021285494 0.065985709 0.74500006 2.1196388e-38
-0.00070763601 0.065808564 0.74300003 2.2402821e-38
0.00070763158 0.065808564 0.74299997 2.24075e-38
0.0021228655 0.065808564 0.74300003 2.2312426e-38
0.0035381014 0.065808564 0.74300003 2.2490706e-38
0.0049533113 0.065808564 0.74300003 2.258865e-38
0.006368577 0.065808579 0.74300003 2.3050348e-38
0.0077838129 0.065808564 0.74300003 2.341769e-38
0.0091990503 0.065808564 0.74300003 2.341769e-38
0.01061429 0.065808564 0.74299997 2.341769e-38
0.012029525 0.065808564 0.74300003 2.341769e-38
0.013480954 0.065985709 0.745 2.341769e-38
0.014900037 0.065985695 0.745 2.341769e-38
0.016319068 0.065985695 0.745 2.341769e-38
0.017738121 0.065985695 0.74500006 2.341769e-38
0.019157179 0.065985709 0.745 2.341769e-38
0.02063144 0.066162854 0.74699998 2.341769e-38
0.022054289 0.06616284 0.74699998 2.341769e-38
0.023477135 0.06616284 0.74700004 2.341769e-38
0.024933342 0.066251427 0.74799997 2.341769e-38
0.026358111 0.066251427 0.74800003 2.341769e-38
0.027782883 0.066251419 0.74799997 2.3411908e-38
0.029207628 0.066251419 0.74799997 1.9997091e-38
0.030714305 0.066428564 0.75 1.6589118e-38
0.032228597 0.066605695 0.75199997 1.7961254e-38
0.033660974 0.066605695 0.75200003 1.9357828e-38
0.035139985 0.066694282 0.75300002 2.028518e-38
0.036574267 0.066694289 0.75300002 2.1117066e-38
0.038159996 0.06696 0.75599998 2.2129396e-38
0.039809551 0.067314275 0.75999999 2.3140324e-38
0.041311394 0.067402855 0.76100004 2.3325808e-38
0.04287336 0.06758 0.76299995 2.3417645e-38
0.04444287 0.067757137 0.76499999 2.3417648e-38
0.046199996 0.068200007 0.77000004 2.3417642e-38
0.047666665 0.068200007 0.76999998 2.3325443e-38
-0.028339997 0.069033332 0.76299995 2.1118574e-38
-0.026886653 0.069033325 0.76299995 2.2774842e-38
-0.025366684 0.06885238 0.76100004 2.3049989e-38
-0.023885703 0.0687619 0.75999999 2.341769e-38
-0.02237903 0.068580955 0.75799996 2.341769e-38
-0.020935221 0.068580955 0.75799996 2.341769e-38
-0.019439979 0.068399996 0.75599998 2.3325854e-38
-0.017976198 0.068309523 0.75500005 2.3233288e-38
-0.01649428 0.068128571 0.75300002 2.2495002e-38
-0.015039977 0.068038091 0.75199997 2.1852518e-38
-0.013607596 0.068038091 0.75200003 2.2037628e-38
-0.012175215 0.068038091 0.75200003 2.2223436e-38
-0.010742832 0.068038106 0.75199997 2.1482637e-38
-0.0092857275 0.067857124 0.75000006 2.0745459e-38
-0.0078571662 0.067857131 0.75000006 2.1299e-38
-0.0064285495 0.067857131 0.75000006 2.1848217e-38
-0.0049999882 0.067857131 0.75000006 2.1758174e-38
-0.0035571666 0.067585692 0.74699998 2.1756738e-38
-0.002128555 0.067404762 0.74500006 2.2309543e-38
-0.00070762855 0.06722381 0.74300003 2.2958501e-38
0.00070763717 0.067223817 0.74300003 2.2866318e-38
0.0021228488 0.067223802 0.74300003 2.2864876e-38
0.0035380828 0.067223802 0.74300003 2.2955627e-38
0.0049533485 0.067223802 0.74299997 2.3049624e-38
0.0063685845 0.067223802 0.74300003 2.3234019e-38
0.0077837924 0.067223802 0.74300003 2.341769e-38
0.0091990577 0.06722381 0.74299997 2.341769e-38
0.010614295 0.06722381 0.74300003 2.341769e-38
0.01202953 0.06722381 0.74300003 2.341769e-38
0.013480953 0.067404769 0.74500006 2.341769e-38
0.014900036 0.067404762 0.745 2.341769e-38
0.016319064 0.067404762 0.745 2.341769e-38
0.017785709 0.067585714 0.74699998 2.341769e-38
0.019208556 0.067585714 0.74700004 2.341769e-38
0.020631403 0.067585707 0.74700004 2.341769e-38
0.022083815 0.067676201 0.74799997 2.341769e-38
0.023508584 0.067676187 0.74800003 2.341769e-38
0.024933327 0.067676187 0.74800003 2.341769e-38
0.026358128 0.067676194 0.74799997 2.341769e-38
0.02778287 0.067676179 0.74799997 2.3417677e-38
0.029285718 0.067857116 0.75000006 2.1756732e-38
0.030796215 0.068038091 0.75199997 2.0010392e-38
0.032228593 0.068038091 0.75199997 2.0558863e-38
0.033705704 0.068128556 0.75300002 2.1121751e-38
0.035233337 0.068309516 0.75500005 2.1486618e-38
0.036671437 0.068309531 0.755 2.1856456e-38
0.038260948 0.068580955 0.75799996 2.2588612e-38
0.03980954 0.0687619 0.75999999 2.3321149e-38
0.041311409 0.068852387 0.76100004 2.3323666e-38
0.04287336 0.069033347 0.76299995 2.3417656e-38
0.044442866 0.069214277 0.76499999 2.3417658e-38
0.046199996 0.069666654 0.77000004 2.3417648e-38
-0.028340016 0.070486657 0.76299995 2.0750477e-38
-0.026816195 0.07030192 0.76099998 2.2679028e-38
-0.02536667 0.070301913 0.76099998 2.3050323e-38
-0.023885714 0.070209511 0.75999999 2.3417677e-38
-0.022379033 0.070024751 0.75799996 2.341769e-38
-0.020935221 0.070024751 0.75799996 2.341769e-38
-0.019440001 0.069840014 0.75600004 2.341769e-38
-0.017976187 0.069747604 0.75500005 2.3417683e-38
-0.016494287 0.069562852 0.75300002 2.3417676e-38
-0.015039979 0.069470473 0.75199997 2.3416603e-38
-0.013607598 0.069470473 0.75199997 2.3417682e-38
-0.012175218 0.069470473 0.75199997 2.3417673e-38
-0.010742838 0.069470473 0.75200003 2.3417665e-38
-0.0093104569 0.069470458 0.75200003 2.3415521e-38
-0.0078571625 0.069285698 0.75000006 2.3417682e-38
-0.0064285719 0.069285713 0.75 2.3415529e-38
-0.0049999827 0.069285706 0.75000006 2.341768e-38
-0.0035619033 0.069100946 0.74799997 2.3415887e-38
-0.002128555 0.068823814 0.74500006 2.3417679e-38
-0.00070759316 0.06863904 0.74299997 2.3417684e-38
0.00070761668 0.06863904 0.74300003 2.341769e-38
0.0021228525 0.06863904 0.74300003 2.3417327e-38
0.0035381182 0.068639047 0.74299997 2.3417683e-38
0.0049533281 0.068639055 0.74300003 2.3417686e-38
0.006368564 0.068639055 0.74300003 2.341769e-38
0.0077838297 0.06863904 0.74299997 2.341769e-38
0.0091990642 0.06863904 0.74300003 2.341769e-38
0.010614274 0.068639025 0.74300003 2.341769e-38
0.012029541 0.06863904 0.74299997 2.341769e-38
0.013480951 0.068823807 0.745 2.341769e-38
0.014939977 0.069008552 0.74699998 2.341769e-38
0.016362824 0.069008552 0.74700004 2.341769e-38
0.0177857 0.069008559 0.74699998 2.341769e-38
0.019208573 0.069008559 0.74699998 2.341769e-38
0.020631419 0.069008559 0.74700004 2.341769e-38
0.022083828 0.069100946 0.74800003 2.341769e-38
0.023508569 0.069100931 0.74800003 2.341769e-38
0.024933368 0.069100946 0.74799997 2.341769e-38
0.026358113 0.069100946 0.74799997 2.341769e-38
0.027782882 0.069100946 0.74799997 2.3417683e-38
0.029363828 0.069470465 0.75200003 2.3417677e-38
0.030796211 0.06947048 0.75199997 2.3415498e-38
0.032271419 0.069562837 0.75300002 2.3142118e-38
0.033705693 0.069562837 0.75300002 2.2863412e-38
0.035233349 0.069747612 0.755 2.2682999e-38
0.036817133 0.070024759 0.75799996 2.2498598e-38
0.038260944 0.070024759 0.75799996 2.2955612e-38
0.039809532 0.070209533 0.75999999 2.3414792e-38
0.041311421 0.070301905 0.76100004 2.3413717e-38
0.042873338 0.070486665 0.76299995 2.3416583e-38
0.044326682 0.070486665 0.76299995 2.3417655e-38
-0.026816214 0.071751438 0.76100004 1.4864729e-38
-0.025366688 0.071751438 0.76100004 1.5963179e-38
-0.023885699 0.071657136 0.76000005 1.6988821e-38
-0.022379037 0.071468562 0.75800002 1.845104e-38
-0.02093525 0.071468569 0.75799996 2.0019777e-38
-0.019439993 0.071280003 0.75599998 2.1119291e-38
-0.017976178 0.071185708 0.75500005 2.2223829e-38
-0.016494298 0.070997134 0.75300002 2.2683006e-38
-0.015039954 0.070902847 0.75199997 2.3142183e-38
-0.013571431 0.07071428 0.75 2.3234019e-38
-0.012175222 0.070902854 0.75199997 2.341769e-38
-0.010742841 0.070902847 0.75199997 2.341769e-38
-0.0093104606 0.070902847 0.75200003 2.341769e-38
-0.0078571569 0.070714273 0.75000006 2.341769e-38
-0.0064285682 0.070714287 0.75 2.341769e-38
-0.005000005 0.07071428 0.75000006 2.341769e-38
-0.0035618902 0.070525706 0.74800003 2.341769e-38
-0.0021285568 0.070242867 0.74500006 2.341769e-38
-0.00070761365 0.070054278 0.74299997 2.341769e-38
0.00070762227 0.070054285 0.74300003 2.341769e-38
0.0021228581 0.070054285 0.74300003 2.341769e-38
0.0035380977 0.0700543 0.74299997 2.341769e-38
0.0049533336 0.070054285 0.74300003 2.341769e-38
0.0063685696 0.070054278 0.74300003 2.341769e-38
0.0077838092 0.070054278 0.74299997 2.341769e-38
0.0091990447 0.070054278 0.74300003 2.341769e-38
0.01061428 0.070054278 0.74300003 2.341769e-38
0.012029544 0.070054285 0.74300003 2.341769e-38
0.013517148 0.070431426 0.74699998 2.341769e-38
0.014939994 0.070431419 0.74699998 2.341769e-38
0.01636284 0.070431419 0.74700004 2.341769e-38
0.017785689 0.070431396 0.74700004 2.341769e-38
0.019208565 0.070431411 0.74699998 2.341769e-38
0.020659069 0.070525721 0.74800003 2.341769e-38
0.022083813 0.070525721 0.74800003 2.341769e-38
0.023508586 0.070525721 0.74799997 2.341769e-38
0.024933355 0.070525721 0.74799997 2.341769e-38
0.0263581 0.070525721 0.74799997 2.3325854e-38
