# .PCD v0.7 - Point Cloud Data file format
VERSION 0.7
FIELDS x y z rgb
SIZE 4 4 4 4
TYPE F F F F
COUNT 1 1 1 1
WIDTH 989
HEIGHT 1
VIEWPOINT 0 0 0 1 0 0 0
POINTS 989
DATA ascii
-0.00070478313 0.042990495 0.74000001 2.341769e-38
0.00070667162 0.043106679 0.74200004 2.341769e-38
0.0021142724 0.042990487 0.74000001 2.341769e-38
0.0035238124 0.042990491 0.74000001 2.341769e-38
0.0049333284 0.042990495 0.74000001 2.341769e-38
0.0063600065 0.043106679 0.74200004 2.341769e-38
0.0077733397 0.043106671 0.74200004 2.341769e-38
0.009186673 0.043106675 0.74200004 2.341769e-38
0.010600005 0.043106679 0.74200004 2.341769e-38
0.01201334 0.043106675 0.74200004 2.341769e-38
0.013426674 0.043106679 0.74200004 2.341769e-38
0.014840007 0.043106683 0.74200004 2.341769e-38
0.016253339 0.043106671 0.74200004 2.341769e-38
0.017666671 0.043106675 0.74200004 2.341769e-38
0.019105721 0.043164786 0.74300003 2.341769e-38
0.02049334 0.043106671 0.74200004 2.341769e-38
0.021906674 0.043106675 0.74200004 2.341769e-38
0.023351436 0.043164786 0.74300003 2.341769e-38
0.024766665 0.043164775 0.74299997 2.341769e-38
0.026181923 0.043164786 0.74300003 2.341769e-38
0.027671436 0.043280974 0.745 2.341769e-38
0.029168589 0.043397155 0.74700004 2.341769e-38
0.030632393 0.043455258 0.74800003 2.341769e-38
0.032057159 0.043455262 0.74800003 2.341769e-38
0.033571422 0.043571442 0.75000006 2.341769e-38
0.035000004 0.04357145 0.75000006 2.341769e-38
0.036525737 0.043687645 0.75199997 2.3416241e-38
0.038008574 0.043745738 0.75300002 2.1758526e-38
0.039547596 0.043861918 0.75500005 2.0099731e-38
0.041040029 0.043920033 0.75599998 1.844273e-38
0.042480014 0.043920029 0.75600004 1.6784323e-38
0.044036213 0.044036217 0.75800002 1.641233e-38
0.045780029 0.0443267 0.76299995 1.5956026e-38
0.047233336 0.044326689 0.76300001 1.632373e-38
-0.033000004 0.046200037 0.77000004 1.3372342e-38
-0.031410478 0.04602002 0.76700002 1.5492134e-38
-0.029949529 0.046020031 0.76699996 1.7614414e-38
-0.028414277 0.045900028 0.76500005 1.8351986e-38
-0.026957121 0.045900021 0.76499999 1.9084511e-38
-0.025366683 0.045660015 0.76100004 1.9085221e-38
-0.023885731 0.045600019 0.76000011 1.8996986e-38
-0.022438107 0.045600012 0.76000005 1.9641999e-38
-0.020880003 0.04536004 0.75599998 2.0195893e-38
-0.019414298 0.045300025 0.75500005 2.1115693e-38
-0.017904751 0.045120008 0.75200003 2.1947599e-38
-0.016472377 0.045120016 0.75200003 2.2590812e-38
-0.014999983 0.04500002 0.75 2.3325854e-38
-0.013571432 0.045000017 0.75000006 2.3325854e-38
-0.012110464 0.044880018 0.74800003 2.341769e-38
-0.010671412 0.044820014 0.74700004 2.341769e-38
-0.0092485705 0.044820018 0.74700004 2.341769e-38
-0.0078047523 0.044700027 0.74500006 2.341769e-38
-0.0063857036 0.044700034 0.74500006 2.341769e-38
-0.0049533127 0.044580031 0.74299997 2.341769e-38
-0.0035380844 0.044580016 0.74299997 2.341769e-38
-0.0021199912 0.04452002 0.74200004 2.341769e-38
-0.00070665882 0.044520024 0.74200004 2.341769e-38
0.00070667721 0.044520013 0.74199998 2.341769e-38
0.0021199796 0.044520009 0.74200004 2.341769e-38
0.0035333119 0.044520009 0.74200004 2.341769e-38
0.0049466463 0.044520017 0.74200004 2.341769e-38
0.0063599814 0.044520006 0.74200004 2.341769e-38
0.0077733146 0.044520006 0.74200004 2.341769e-38
0.0091866478 0.04452002 0.74200004 2.341769e-38
0.010600006 0.044520006 0.74200004 2.341769e-38
0.012013339 0.044520013 0.74200004 2.341769e-38
0.013426675 0.044520013 0.74200004 2.341769e-38
0.014840008 0.044520006 0.74200004 2.341769e-38
0.016253341 0.044520009 0.74200004 2.341769e-38
0.017666673 0.044520013 0.74200004 2.341769e-38
0.019105719 0.044580016 0.74300003 2.341769e-38
0.020520974 0.044580027 0.74300003 2.341769e-38
0.021936206 0.044580016 0.74299997 2.341769e-38
0.023351435 0.04458002 0.74299997 2.341769e-38
0.024766689 0.044580024 0.74300003 2.341769e-38
0.026181921 0.044580016 0.74299997 2.341769e-38
0.027671423 0.044700027 0.74500006 2.341769e-38
0.029090473 0.044700019 0.74500006 2.341769e-38
0.030591434 0.044820011 0.74700004 2.341769e-38
0.032057159 0.044880033 0.74799997 2.341769e-38
0.033571418 0.045000017 0.75000006 2.341769e-38
0.035093341 0.045120016 0.75200003 2.341769e-38
0.036525719 0.045120023 0.75200003 2.3417673e-38
0.038008582 0.045180015 0.75300002 2.1667041e-38
0.039547626 0.045300018 0.75500005 2.0007526e-38
0.04104 0.045360029 0.75600004 1.8255459e-38
0.042480011 0.045360036 0.75600004 1.6596329e-38
0.044036169 0.045480017 0.75800002 1.6505934e-38
0.045659993 0.045660023 0.76100004 1.6509175e-38
0.047233354 0.045780022 0.76300001 1.6599587e-38
0.048814293 0.045900032 0.76500005 1.6781107e-38
-0.031410474 0.047480982 0.76699996 1.5488876e-38
-0.029949531 0.047480986 0.76700002 1.7796992e-38
-0.028414268 0.047357183 0.76499999 1.8448482e-38
-0.026957141 0.047357164 0.76500005 1.8994113e-38
-0.025433332 0.047233362 0.76300001 1.8715377e-38
-0.023917137 0.047109541 0.76099998 1.8444541e-38
-0.022438101 0.047047637 0.76000005 1.9182101e-38
-0.020935256 0.046923835 0.75800002 1.9917873e-38
-0.019439995 0.04680004 0.75599998 2.1206093e-38
-0.017904736 0.046552397 0.75199997 2.2497176e-38
-0.016472362 0.046552405 0.75199997 2.2865599e-38
-0.015000018 0.046428598 0.75000006 2.3141465e-38
-0.013571437 0.046428591 0.75000006 2.3325853e-38
-0.012110463 0.046304792 0.74800003 2.341769e-38
-0.0106857 0.046304781 0.74799997 2.341769e-38
-0.009248565 0.046242859 0.74700004 2.341769e-38
-0.0078047374 0.046119072 0.745 2.341769e-38
-0.0063856887 0.046119075 0.745 2.341769e-38
-0.0049666399 0.046119068 0.745 2.341769e-38
-0.00353809 0.045995258 0.74300003 2.341769e-38
-0.0021199912 0.045933343 0.74200004 2.341769e-38
-0.00070665882 0.045933343 0.74200004 2.341769e-38
0.00070667721 0.045933351 0.74200004 2.341769e-38
0.0021200094 0.04593334 0.74200004 2.341769e-38
0.0035333436 0.045933343 0.74200004 2.341769e-38
0.0049466761 0.045933355 0.74200004 2.341769e-38
0.0063600093 0.045933347 0.74200004 2.341769e-38
0.0077733444 0.045933347 0.74200004 2.341769e-38
0.0091866776 0.045933351 0.74200004 2.341769e-38
0.010600011 0.045933343 0.74200004 2.341769e-38
0.012013344 0.045933343 0.74200004 2.341769e-38
0.013426679 0.045933347 0.74200004 2.341769e-38
0.014840012 0.04593334 0.74200004 2.341769e-38
0.016253345 0.045933351 0.74200004 2.341769e-38
0.017666677 0.045933355 0.74200004 2.341769e-38
0.019105744 0.045995262 0.74299997 2.341769e-38
0.020520974 0.045995269 0.74299997 2.341769e-38
0.021936204 0.045995262 0.74299997 2.341769e-38
0.023351459 0.045995262 0.74299997 2.341769e-38
0.024766689 0.045995265 0.74299997 2.341769e-38
0.026181946 0.045995262 0.74299997 2.341769e-38
0.027671441 0.046119072 0.745 2.341769e-38
0.029168574 0.046242855 0.7470001 2.341769e-38
0.030591415 0.046242863 0.7470001 2.341769e-38
0.032057133 0.046304777 0.74800003 2.341769e-38
0.033571441 0.046428598 0.75 2.341769e-38
0.03509336 0.046552401 0.75199997 2.341769e-38
0.03652576 0.04655239 0.75199997 2.3416603e-38
0.038008563 0.046614304 0.75300002 2.1668488e-38
0.039547626 0.046738118 0.75500005 1.9823515e-38
0.041039992 0.046800025 0.75600004 1.8158627e-38
0.042480003 0.046800032 0.75600004 1.6417695e-38
0.044036184 0.046923827 0.75800002 1.668961e-38
0.045659993 0.047109541 0.76100004 1.6967278e-38
0.047233369 0.047233354 0.76300001 1.6968361e-38
0.048941929 0.047480974 0.76699996 1.6875453e-38
-0.031451434 0.049005736 0.76800001 1.5582834e-38
-0.029949529 0.048941936 0.76699996 1.8167189e-38
-0.028414289 0.048814323 0.76500005 1.8537445e-38
-0.026957132 0.048814315 0.76499999 1.899304e-38
-0.025433317 0.048686694 0.76300001 1.8809371e-38
-0.023917137 0.048559073 0.76099998 1.8720766e-38
-0.022467621 0.048559062 0.76100004 1.9456528e-38
-0.020935245 0.048367642 0.75800002 2.0188714e-38
-0.019440003 0.048240032 0.75600004 2.1482676e-38
-0.017904755 0.047984775 0.75200003 2.286667e-38
-0.016472351 0.047984779 0.75200003 2.3049626e-38
-0.015039976 0.04798479 0.75199997 2.3323341e-38
-0.013571414 0.047857173 0.75 2.3325134e-38
-0.012142862 0.047857158 0.75000006 2.3417689e-38
-0.010685726 0.047729544 0.74800003 2.341769e-38
-0.0092485854 0.047665726 0.74700004 2.341769e-38
-0.0078257183 0.047665715 0.74700004 2.341769e-38
-0.0063857259 0.047538113 0.745 2.341769e-38
-0.004966679 0.047538117 0.745 2.341769e-38
-0.00353809 0.047410499 0.74300003 2.3325854e-38
-0.0021200154 0.047346681 0.74200004 2.341769e-38
-0.00070668303 0.047346689 0.74200004 2.341769e-38
0.0007076253 0.047410499 0.74300003 2.341769e-38
0.0021199852 0.047346681 0.74200004 2.341769e-38
0.0035333175 0.047346685 0.74200004 2.341769e-38
0.0049466519 0.047346681 0.74200004 2.341769e-38
0.0063600102 0.047346681 0.74200004 2.341769e-38
0.0077838264 0.047410499 0.74299997 2.341769e-38
0.0091866786 0.047346674 0.74200004 2.341769e-38
0.010614313 0.047410492 0.74299997 2.341769e-38
0.012013345 0.047346685 0.74200004 2.341769e-38
0.013444772 0.047410507 0.74299997 2.341769e-38
0.014840013 0.047346681 0.74200004 2.341769e-38
0.016253345 0.047346685 0.74200004 2.341769e-38
0.017666679 0.047346674 0.74200004 2.341769e-38
0.019105744 0.04741051 0.74299997 2.341769e-38
0.020520972 0.047410514 0.74299997 2.341769e-38
0.021936227 0.047410499 0.74299997 2.341769e-38
0.023351429 0.047410496 0.74300003 2.341769e-38
0.024766684 0.047410503 0.74300003 2.341769e-38
0.026181914 0.047410496 0.74300003 2.341769e-38
0.027671456 0.047538117 0.745 2.341769e-38
0.029168583 0.047665734 0.74700004 2.341769e-38
0.030632373 0.047729541 0.74800003 2.341769e-38
0.032057162 0.047729533 0.74800003 2.341769e-38
0.033571433 0.047857162 0.75000006 2.341769e-38
0.035093371 0.047984775 0.75200003 2.341769e-38
0.036525741 0.047984786 0.75200003 2.3417684e-38
0.038109507 0.04817621 0.75500005 2.1852888e-38
0.039547618 0.048176218 0.75500005 2.0377417e-38
0.041039985 0.048240032 0.75600004 1.9456904e-38
0.042479996 0.048240028 0.75600004 1.8542483e-38
0.044036195 0.048367649 0.75800002 1.7613711e-38
0.045659993 0.048559062 0.76100004 1.6783608e-38
0.047233362 0.048686691 0.76299995 1.6692134e-38
0.048941903 0.048941936 0.76699996 1.6692143e-38
0.050402876 0.048941944 0.76699996 1.7153479e-38
-0.031451408 0.050468594 0.76800001 1.5763676e-38
-0.029871434 0.050271459 0.76499999 1.8533833e-38
-0.028414275 0.050271466 0.76499999 1.8724346e-38
-0.026957151 0.050271455 0.76500005 1.8902275e-38
-0.025433324 0.050140031 0.76300001 1.890012e-38
-0.023979958 0.050140042 0.76299995 1.8902996e-38
-0.022467623 0.050008591 0.76100004 1.9641991e-38
-0.020990472 0.049942885 0.76000005 2.0377046e-38
-0.019491456 0.049811453 0.75800002 2.176069e-38
-0.017928556 0.049482882 0.75300002 2.314074e-38
-0.016472369 0.049417157 0.75200003 2.3325853e-38
-0.015039993 0.049417164 0.75200003 2.3416971e-38
-0.013607592 0.049417157 0.75200003 2.3417689e-38
-0.012142867 0.049285747 0.75000006 2.341769e-38
-0.010685723 0.049154315 0.74800003 2.341769e-38
-0.0092485761 0.049088586 0.74700004 2.341769e-38
-0.0078257089 0.049088594 0.74700004 2.341769e-38
-0.0063857092 0.048957177 0.745 2.341769e-38
-0.0049666623 0.04895718 0.745 2.3325854e-38
-0.0035476137 0.048957169 0.745 2.3234019e-38
-0.0021228374 0.048825737 0.74300003 2.3325854e-38
-0.00070760504 0.048825741 0.74299997 2.341769e-38
0.00070764951 0.048825741 0.74300003 2.341769e-38
0.0021200131 0.048760016 0.74200004 2.341769e-38
0.0035333491 0.048760023 0.74200004 2.341769e-38
0.0049466817 0.048760012 0.74200004 2.341769e-38
0.0063599851 0.048760008 0.74200004 2.341769e-38
0.0077838255 0.048825745 0.74299997 2.341769e-38
0.0091866534 0.048760004 0.74200004 2.341769e-38
0.010599987 0.048760004 0.74200004 2.341769e-38
0.01201332 0.048760012 0.74200004 2.341769e-38
0.013444796 0.048825748 0.74299997 2.341769e-38
0.014839986 0.048760004 0.74200004 2.341769e-38
0.016253319 0.048760012 0.74200004 2.341769e-38
0.017666653 0.048760004 0.74200004 2.341769e-38
0.019105712 0.048825733 0.74300003 2.341769e-38
0.020520967 0.048825733 0.74300003 2.341769e-38
0.021936197 0.048825741 0.74300003 2.341769e-38
0.023351427 0.04882573 0.74300003 2.341769e-38
0.024766682 0.048825733 0.74300003 2.341769e-38
0.02625237 0.048957165 0.745 2.341769e-38
0.027745696 0.049088582 0.74700004 2.341769e-38
0.029168563 0.049088582 0.74700004 2.341769e-38
0.030632403 0.049154311 0.74800003 2.341769e-38
0.032142874 0.049285743 0.75000006 2.341769e-38
0.033571452 0.049285732 0.75 2.341769e-38
0.035093352 0.049417153 0.75200003 2.341769e-38
0.036574282 0.049482878 0.75300002 2.3417327e-38
0.038008578 0.049482871 0.75300002 2.2130908e-38
0.039547622 0.049614318 0.75500005 2.0839107e-38
0.041040007 0.049680024 0.75600004 2.074906e-38
0.042479996 0.049680036 0.75599998 2.0558562e-38
0.044036206 0.049811453 0.75800002 1.8530278e-38
0.045660015 0.050008591 0.76100004 1.6509175e-38
0.047480956 0.050402891 0.76699996 1.6507736e-38
0.049005728 0.050468586 0.76800001 1.6509539e-38
0.050468601 0.050468594 0.76800001 1.7062357e-38
-0.031410474 0.051863831 0.76699996 1.5860932e-38
-0.029949531 0.051863831 0.76700002 1.8724699e-38
-0.02848858 0.051863845 0.76699996 1.8905865e-38
-0.026957139 0.05172861 0.76499999 1.9083788e-38
-0.025499983 0.051728602 0.76499999 1.871572e-38
-0.023979997 0.051593367 0.76300001 1.8440583e-38
-0.022467623 0.051458113 0.76100004 1.8903359e-38
-0.020935249 0.051255248 0.75800008 1.9457253e-38
-0.019491443 0.05125526 0.75800002 2.0929142e-38
-0.017928546 0.05091716 0.75300002 2.2405337e-38
-0.016472355 0.050849546 0.75199997 2.2866318e-38
-0.015040007 0.050849546 0.75200003 2.341769e-38
-0.013607608 0.050849535 0.75200003 2.341769e-38
-0.012142845 0.050714321 0.75 2.341769e-38
-0.010714293 0.050714299 0.75000006 2.341769e-38
-0.0092609301 0.050579078 0.74800003 2.341769e-38
-0.0078257052 0.050511431 0.74700004 2.341769e-38
-0.0064028641 0.050511435 0.74700004 2.341769e-38
-0.0049666753 0.050376218 0.74500006 2.3234019e-38
-0.0035476268 0.050376207 0.745 2.3049989e-38
-0.0021228374 0.050240982 0.74299997 2.3141825e-38
-0.0007076069 0.05024099 0.74299997 2.3142183e-38
0.00070764951 0.050240975 0.74299997 2.3325854e-38
0.0021228779 0.050240982 0.74299997 2.341769e-38
0.0035333473 0.05017335 0.74200004 2.341769e-38
0.0049466817 0.05017335 0.74200004 2.341769e-38
0.0063600158 0.050173339 0.74200004 2.341769e-38
0.0077733491 0.050173346 0.74200004 2.341769e-38
0.0091990503 0.050240986 0.74300003 2.341769e-38
0.010614279 0.050240971 0.74300003 2.341769e-38
0.012029536 0.050240975 0.74300003 2.341769e-38
0.013444765 0.050240986 0.74300003 2.341769e-38
0.01486002 0.050240971 0.74300003 2.341769e-38
0.016253348 0.050173346 0.74200004 2.341769e-38
0.017666683 0.050173353 0.74200004 2.341769e-38
0.019105734 0.050240971 0.74300003 2.341769e-38
0.020520967 0.050240979 0.74300003 2.341769e-38
0.021936195 0.050240986 0.74299997 2.341769e-38
0.023351451 0.050240971 0.74300003 2.341769e-38
0.024766682 0.050240982 0.74299997 2.341769e-38
0.026252387 0.050376222 0.745 2.341769e-38
0.027671434 0.050376214 0.745 2.341769e-38
0.029168567 0.050511431 0.7470001 2.341769e-38
0.030632403 0.050579071 0.74800003 2.341769e-38
0.032142837 0.05071431 0.75000006 2.341769e-38
0.033571418 0.050714314 0.75000006 2.341769e-38
0.035093363 0.050849542 0.75200003 2.341769e-38
0.036525741 0.050849549 0.75199997 2.3417687e-38
0.038109504 0.051052399 0.75500005 2.1852892e-38
0.039547618 0.051052403 0.75500005 2.0282356e-38
0.040985707 0.051052403 0.75500005 1.9455114e-38
0.042480014 0.051120043 0.75600004 1.8534238e-38
0.043920025 0.051120032 0.75599998 1.7703762e-38
0.045780007 0.051593356 0.76300001 1.6878308e-38
0.047480952 0.051863845 0.76699996 1.6969413e-38
0.049005728 0.051931448 0.76800001 1.706198e-38
-0.032914262 0.053394303 0.76800001 1.3006803e-38
-0.031451445 0.05339431 0.76800001 1.5952033e-38
-0.029949531 0.0533248 0.76699996 1.890191e-38
-0.028488582 0.053324785 0.76700002 1.9090266e-38
-0.026957158 0.05318575 0.76500005 1.9271057e-38
-0.025500003 0.053185742 0.76499999 1.8622099e-38
-0.023979979 0.0530467 0.76300001 1.7889216e-38
-0.022438115 0.052838113 0.76000005 1.8164729e-38
-0.02093526 0.052699059 0.75800002 1.8442758e-38
-0.019439995 0.052560031 0.75600004 2.000146e-38
-0.017928595 0.052351456 0.75300002 2.1575589e-38
-0.016472369 0.052281927 0.75200003 2.2499335e-38
-0.015039969 0.052281927 0.75200003 2.341769e-38
-0.013607594 0.05228192 0.75199997 2.341769e-38
-0.012142853 0.052142877 0.75000006 2.341769e-38
-0.010714296 0.052142885 0.75000006 2.341769e-38
-0.0092609571 0.052003823 0.74800003 2.341769e-38
-0.0078361938 0.052003831 0.74800003 2.341769e-38
-0.0064114304 0.052003819 0.74800003 2.341769e-38
-0.0049800174 0.051934309 0.74700004 2.3142183e-38
-0.0035476082 0.05179527 0.745 2.286596e-38
-0.002122869 0.051656216 0.74300003 2.2865601e-38
-0.00070761435 0.051656205 0.74300003 2.2866318e-38
0.00070761784 0.051656213 0.74300003 2.3142183e-38
0.0021199889 0.051586684 0.74200004 2.341769e-38
0.0035333231 0.051586673 0.74200004 2.341769e-38
0.0049466575 0.051586676 0.74200004 2.341769e-38
0.0063599898 0.051586684 0.74200004 2.341769e-38
0.0077733239 0.051586673 0.74200004 2.341769e-38
0.0091866571 0.051586676 0.74200004 2.341769e-38
0.01059999 0.05158668 0.74200004 2.341769e-38
0.012029535 0.051656209 0.74300003 2.341769e-38
0.013444765 0.051656216 0.74299997 2.341769e-38
0.014860019 0.051656216 0.74300003 2.341769e-38
0.016275249 0.051656209 0.74299997 2.341769e-38
0.017690504 0.051656213 0.74300003 2.341769e-38
0.019105734 0.05165622 0.74299997 2.341769e-38
0.020520965 0.051656213 0.74299997 2.341769e-38
0.021995228 0.051795259 0.74500006 2.3325854e-38
0.023414277 0.051795267 0.74500006 2.341769e-38
0.024900001 0.051934294 0.74700004 2.341769e-38
0.026322868 0.051934294 0.74700004 2.341769e-38
0.02778288 0.052003827 0.74800003 2.341769e-38
0.029207643 0.052003834 0.74800003 2.341769e-38
0.030714277 0.052142888 0.75000006 2.341769e-38
0.032142859 0.052142877 0.75000006 2.341769e-38
0.033660974 0.052281924 0.75200003 2.341769e-38
0.035093352 0.052281916 0.75200003 2.341769e-38
0.036671415 0.052490488 0.75500005 2.3417328e-38
0.03810953 0.052490495 0.75500005 2.1579897e-38
0.039547618 0.052490506 0.75500005 1.9731695e-38
0.041039996 0.052560024 0.75600004 1.8162945e-38
0.042480011 0.052560035 0.75600004 1.6509548e-38
0.04415236 0.052838109 0.76000011 1.6871507e-38
0.045780022 0.053046692 0.76300001 1.72453e-38
0.047233362 0.053046703 0.76300001 1.7429682e-38
0.049133338 0.05353336 0.77000004 1.7521169e-38
0.050600026 0.053533368 0.76999998 1.7521179e-38
-0.034377139 0.054857168 0.76800001 1.3099318e-38
-0.032914266 0.054857165 0.76800001 1.4570509e-38
-0.031451423 0.054857168 0.76800001 1.6689211e-38
-0.029949527 0.05478574 0.76699996 1.8901909e-38
-0.028414279 0.054642886 0.76500005 1.9456903e-38
-0.026957123 0.054642893 0.76500005 2.0104044e-38
-0.025433324 0.054500025 0.76300001 1.9178143e-38
-0.023979988 0.054500036 0.76300001 1.8257997e-38
-0.022438139 0.054285731 0.76000011 1.8809371e-38
-0.020935249 0.054142885 0.75800002 1.9361113e-38
-0.019439999 0.054000035 0.75600004 2.0652201e-38
-0.017928585 0.053785738 0.75300002 2.1946519e-38
-0.016472386 0.053714301 0.75200003 2.268193e-38
-0.015039984 0.053714305 0.75200003 2.3325854e-38
-0.013607611 0.053714298 0.75200003 2.341769e-38
-0.012142858 0.053571451 0.75 2.341769e-38
-0.010714277 0.053571455 0.75 2.341769e-38
-0.0092609534 0.053428594 0.74800003 2.341769e-38
-0.0078361901 0.053428587 0.74800003 2.341769e-38
-0.0064114267 0.053428594 0.74800003 2.341769e-38
-0.0049666697 0.053214312 0.74500006 2.3325496e-38
-0.0035476212 0.0532143 0.74500006 2.314039e-38
-0.0021228448 0.053071447 0.74300003 2.3141466e-38
-0.00070761435 0.053071454 0.74300003 2.3142183e-38
0.00070761598 0.053071443 0.74300003 2.3325854e-38
0.0021200187 0.053000018 0.74200004 2.341769e-38
0.0035333529 0.053000007 0.74200004 2.341769e-38
0.0049466854 0.053000011 0.74200004 2.341769e-38
0.0063600214 0.053000014 0.74200004 2.341769e-38
0.0077733546 0.053000007 0.74200004 2.341769e-38
0.0091866869 0.053000011 0.74200004 2.341769e-38
0.010614303 0.053071447 0.74299997 2.341769e-38
0.012029531 0.053071454 0.74299997 2.341769e-38
0.013444789 0.053071458 0.74299997 2.341769e-38
0.014860018 0.053071465 0.74299997 2.341769e-38
0.016275249 0.053071458 0.74299997 2.341769e-38
0.017690502 0.053071454 0.74299997 2.341769e-38
0.019105732 0.053071465 0.74299997 2.341769e-38
0.020520989 0.053071454 0.74299997 2.341769e-38
0.021995246 0.053214315 0.74500006 2.341769e-38
0.023414293 0.053214308 0.745 2.341769e-38
0.02489998 0.053357147 0.7470001 2.341769e-38
0.026322847 0.05335715 0.7470001 2.341769e-38
0.027782856 0.05342859 0.74800003 2.341769e-38
0.029207619 0.053428594 0.74800003 2.341769e-38
0.030714298 0.053571455 0.75 2.341769e-38
0.032142852 0.053571455 0.75000006 2.341769e-38
0.033660989 0.053714313 0.75199997 2.341769e-38
0.035093363 0.053714305 0.75199997 2.341769e-38
0.036574308 0.053785738 0.75300002 2.3417687e-38
0.03810953 0.053928614 0.75500005 2.1484833e-38
0.039547615 0.053928591 0.75500005 1.9636624e-38
0.041039992 0.054000035 0.75600004 1.8164008e-38
0.042592388 0.054142874 0.75800002 1.6785049e-38
0.044152364 0.054285739 0.76000005 1.7153117e-38
0.045900006 0.054642878 0.76500005 1.7525479e-38
0.047480956 0.054785751 0.76699996 1.7705562e-38
0.049133323 0.055000026 0.77000004 1.7887445e-38
-0.034377113 0.05632003 0.76800001 1.4299634e-38
-0.032999989 0.056466695 0.77000004 1.6134955e-38
-0.031451426 0.05632003 0.76800001 1.7515403e-38
-0.029988557 0.056320041 0.76800001 1.8809366e-38
-0.028488582 0.056246705 0.76699996 1.9914637e-38
-0.026957111 0.056100029 0.76499999 2.092697e-38
-0.025499986 0.056100029 0.76500005 1.9820631e-38
-0.023979969 0.055953369 0.76299995 1.8626415e-38
-0.022438107 0.055733357 0.76000005 1.9453656e-38
-0.020935236 0.055586688 0.75800002 2.0193015e-38
-0.019440005 0.055440031 0.75600004 2.1299357e-38
-0.017928578 0.055220019 0.75300002 2.2311707e-38
-0.016472347 0.055146702 0.75200003 2.2772326e-38
-0.015039971 0.055146694 0.75199997 2.32333e-38
-0.0136076 0.05514669 0.75200003 2.3325854e-38
-0.012142866 0.055000011 0.75000006 2.341769e-38
-0.010714283 0.055000018 0.75000006 2.341769e-38
-0.0092609497 0.05485335 0.74800003 2.341769e-38
-0.0078361863 0.054853357 0.74800003 2.341769e-38
-0.006411423 0.054853365 0.74800003 2.341769e-38
-0.0049800025 0.054780021 0.74700004 2.341769e-38
-0.0035476044 0.054633364 0.745 2.3417331e-38
-0.0021228448 0.054486692 0.74300003 2.341769e-38
-0.00070761621 0.054486699 0.74299997 2.341769e-38
0.00070764206 0.054486685 0.74300003 2.341769e-38
0.0021228704 0.054486692 0.74299997 2.341769e-38
0.0035333268 0.054413345 0.74200004 2.341769e-38
0.0049466612 0.054413356 0.74200004 2.341769e-38
0.0063599935 0.054413341 0.74200004 2.341769e-38
0.0077733295 0.054413348 0.74200004 2.341769e-38
0.0091866618 0.054413352 0.74200004 2.341769e-38
0.010614301 0.054486696 0.74299997 2.341769e-38
0.012029557 0.054486699 0.74299997 2.341769e-38
0.013444788 0.054486692 0.74299997 2.341769e-38
0.014860013 0.054486685 0.74300003 2.341769e-38
0.016275242 0.054486688 0.74300003 2.341769e-38
0.017690472 0.054486681 0.74300003 2.341769e-38
0.019105727 0.054486685 0.74300003 2.341769e-38
0.020576213 0.054633357 0.745 2.341769e-38
0.021995263 0.054633364 0.745 2.341769e-38
0.02341431 0.054633353 0.745 2.341769e-38
0.024933333 0.054853346 0.74800003 2.341769e-38
0.026358096 0.054853354 0.74800003 2.341769e-38
0.027782859 0.054853361 0.74800003 2.341769e-38
0.029285708 0.055000015 0.75000006 2.341769e-38
0.03071429 0.055000018 0.75000006 2.341769e-38
0.0322286 0.055146687 0.75200003 2.341769e-38
0.033660974 0.055146694 0.75200003 2.341769e-38
0.035139989 0.055220019 0.75300002 2.341769e-38
0.036671411 0.055366691 0.75500005 2.3417684e-38
0.038109526 0.055366699 0.75500005 2.1489133e-38
0.039547615 0.055366691 0.75500005 1.945546e-38
0.041040014 0.055440031 0.75600004 1.8255123e-38
0.042592403 0.055586684 0.75800002 1.706271e-38
0.044152372 0.055733364 0.76000005 1.7430425e-38
0.045900021 0.056100029 0.76499999 1.7707008e-38
0.047542896 0.056320034 0.76800001 1.7980003e-38
-0.033000004 0.05793336 0.77000004 1.4940391e-38
-0.031533342 0.057933372 0.77000004 1.6321931e-38
-0.029988563 0.057782888 0.76800001 1.7803491e-38
-0.028488584 0.057707645 0.76700002 1.9182455e-38
-0.026957132 0.057557169 0.76500005 2.0653612e-38
-0.025499977 0.057557181 0.76499999 1.9823141e-38
-0.023979982 0.057406694 0.76300001 1.8993757e-38
-0.022467624 0.057256207 0.76100004 1.9547287e-38
-0.02099051 0.057180978 0.76000005 2.0015085e-38
-0.01944001 0.056880023 0.75600004 2.0839822e-38
-0.017928571 0.056654315 0.75300002 2.1667422e-38
-0.016494304 0.056654312 0.75300002 2.2403904e-38
-0.015039986 0.056579072 0.75199997 2.3050344e-38
-0.013607587 0.056579061 0.75199997 2.3234019e-38
-0.012142844 0.0564286 0.75000006 2.341769e-38
-0.010714288 0.056428593 0.75 2.341769e-38
-0.0092609441 0.056278124 0.74800003 2.341769e-38
-0.0078361807 0.056278117 0.74799997 2.341769e-38
-0.0064114174 0.056278121 0.74799997 2.341769e-38
-0.0049799969 0.056202866 0.7470001 2.341769e-38
-0.0035571561 0.056202877 0.74700004 2.341769e-38
-0.0021228467 0.055901926 0.74299997 2.341769e-38
-0.000707592 0.05590193 0.74299997 2.341769e-38
0.00070763833 0.05590193 0.74299997 2.341769e-38
0.0021228946 0.055901922 0.74299997 2.341769e-38
0.003538125 0.05590193 0.74299997 2.341769e-38
0.0049533537 0.055901933 0.74299997 2.341769e-38
0.0063686101 0.055901922 0.74299997 2.341769e-38
0.0077838097 0.055901922 0.74300003 2.341769e-38
0.0091990409 0.055901926 0.74300003 2.341769e-38
0.010614296 0.055901911 0.74300003 2.341769e-38
0.012029526 0.055901919 0.74300003 2.341769e-38
0.013444757 0.05590193 0.74300003 2.341769e-38
0.014860012 0.05590193 0.74300003 2.341769e-38
0.01627524 0.055901919 0.74300003 2.341769e-38
0.017690497 0.055901922 0.74300003 2.341769e-38
0.019105727 0.05590193 0.74300003 2.341769e-38
0.020576201 0.056052409 0.74500006 2.341769e-38
0.02199525 0.056052398 0.74500006 2.341769e-38
0.023477128 0.056202866 0.74700004 2.341769e-38
0.024933336 0.056278106 0.74800003 2.341769e-38
0.0263581 0.05627811 0.74800003 2.341769e-38
0.027782863 0.056278121 0.74800003 2.341769e-38
0.029285731 0.056428585 0.75000006 2.341769e-38
0.030796211 0.056579065 0.75199997 2.341769e-38
0.032228611 0.056579072 0.75199997 2.341769e-38
0.0337057 0.056654312 0.75300002 2.341769e-38
0.035139997 0.056654301 0.75300002 2.341769e-38
0.036671437 0.056804787 0.75500005 2.3417682e-38
0.038109526 0.056804795 0.75500005 2.1392629e-38
0.039599992 0.056880031 0.75600004 1.9266764e-38
0.041148581 0.057030503 0.75800002 1.8164361e-38
0.04270475 0.057180963 0.76000011 1.7065224e-38
0.044210467 0.057256214 0.76100004 1.7064168e-38
0.045900028 0.057557166 0.76500005 1.7065604e-38
0.047542866 0.057782885 0.76800001 1.6785434e-38
-0.033085722 0.059554324 0.77199996 1.3649299e-38
-0.031533353 0.059400022 0.77000004 1.5212329e-38
-0.029988568 0.059245735 0.76800001 1.6786463e-38
-0.028488556 0.059168596 0.76699996 1.8541038e-38
-0.026957123 0.059014317 0.76499999 2.0284116e-38
-0.025499996 0.05901432 0.76500005 1.9823861e-38
-0.02397999 0.05886003 0.76300001 1.9362535e-38
-0.022438126 0.058628593 0.76000005 1.9635175e-38
-0.020935237 0.05847431 0.75800002 1.9827106e-38
-0.019491434 0.058474302 0.75800002 2.0469246e-38
-0.017976195 0.058242872 0.75500005 2.1023134e-38
-0.016494296 0.058088597 0.75300002 2.1941496e-38
-0.015039978 0.05801145 0.75200003 2.2864878e-38
-0.013571435 0.057857152 0.75000006 2.3142183e-38
-0.012142878 0.057857163 0.75000006 2.341769e-38
-0.010714298 0.057857167 0.75000006 2.341769e-38
-0.0092857154 0.057857163 0.75000006 2.341769e-38
-0.0078571336 0.057857167 0.75000006 2.341769e-38
-0.0064114211 0.05770288 0.74800003 2.341769e-38
-0.0049866578 0.057702884 0.74800003 2.341769e-38
-0.0035618946 0.05770288 0.74800003 2.341769e-38
-0.0021285538 0.05747145 0.745 2.341769e-38
-0.0007076218 0.057317164 0.74300003 2.341769e-38
0.00070760667 0.057317171 0.74300003 2.341769e-38
0.0021228648 0.057317156 0.74300003 2.341769e-38
0.0035380933 0.057317164 0.74300003 2.341769e-38
0.0049533481 0.057317168 0.74300003 2.341769e-38
0.0063685803 0.057317156 0.74300003 2.341769e-38
0.0077838087 0.057317164 0.74300003 2.341769e-38
0.0091990642 0.057317171 0.74300003 2.341769e-38
0.010614295 0.05731716 0.74300003 2.341769e-38
0.012029524 0.057317164 0.74300003 2.341769e-38
0.013444779 0.057317168 0.74300003 2.341769e-38
0.014860011 0.05731716 0.74299997 2.341769e-38
0.016275264 0.057317164 0.74300003 2.341769e-38
0.017690495 0.057317168 0.74300003 2.341769e-38
0.019157143 0.05747145 0.745 2.341769e-38
0.020576192 0.057471454 0.745 2.341769e-38
0.022054294 0.057625722 0.74700004 2.341769e-38
0.023477161 0.057625726 0.74700004 2.341769e-38
0.024933338 0.057702877 0.74800003 2.341769e-38
0.026358102 0.057702884 0.74800003 2.341769e-38
0.027857143 0.057857182 0.75 2.341769e-38
0.029285695 0.057857167 0.75000006 2.341769e-38
0.030714277 0.057857171 0.75000006 2.341769e-38
0.032228597 0.05801145 0.75200003 2.341769e-38
0.033660971 0.058011461 0.75199997 2.341769e-38
0.035140004 0.058088601 0.75300002 2.341769e-38
0.036671408 0.058242872 0.75500005 2.3417686e-38
0.038109522 0.05824288 0.75500005 2.1305465e-38
0.039599989 0.058320038 0.75600004 1.908668e-38
0.041148569 0.05847431 0.75800002 1.8070007e-38
0.042704754 0.058628589 0.76000005 1.7061609e-38
0.044210467 0.058705732 0.76100004 1.6694626e-38
0.045780011 0.058860034 0.76300001 1.632191e-38
0.047542859 0.059245747 0.76800001 1.5492888e-38
-0.033085715 0.061024785 0.77200001 1.2633715e-38
-0.031533342 0.060866699 0.77000004 1.374005e-38
-0.02998857 0.060708597 0.76800001 1.4946143e-38
-0.028488584 0.06062955 0.76699996 1.7065568e-38
-0.026957143 0.06047146 0.76500005 1.9270338e-38
-0.025499986 0.060471471 0.76499999 1.8535297e-38
-0.023979973 0.060313363 0.76300001 1.7895679e-38
-0.022438096 0.060076214 0.76000005 1.8537811e-38
-0.020990502 0.060076211 0.76000011 1.9188917e-38
-0.019439995 0.059760042 0.75600004 2.0195527e-38
-0.017976193 0.059680991 0.75500005 2.1208237e-38
-0.016494287 0.059522878 0.75300002 2.2128752e-38
-0.015039963 0.059443835 0.75199997 2.3050342e-38
-0.013607619 0.05944382 0.75200003 2.3234019e-38
-0.012142858 0.059285734 0.75000006 2.341769e-38
-0.010714275 0.059285741 0.75000006 2.341769e-38
-0.0092856931 0.059285745 0.75 2.341769e-38
-0.0078571374 0.059285738 0.75 2.341769e-38
-0.0064285835 0.059285734 0.75000006 2.341769e-38
-0.004986654 0.059127644 0.74800003 2.341769e-38
-0.0035618909 0.059127633 0.74800003 2.341769e-38
-0.0021285911 0.058890499 0.74500006 2.341769e-38
-0.00070954219 0.058890492 0.74500006 2.341769e-38
0.00070953078 0.058890499 0.74500006 2.341769e-38
0.002122863 0.058732402 0.74300003 2.341769e-38
0.0035381175 0.058732409 0.74300003 2.341769e-38
0.0049533481 0.058732416 0.74300003 2.341769e-38
0.0063685784 0.058732405 0.74300003 2.341769e-38
0.0077838339 0.058732405 0.74300003 2.341769e-38
0.0091990624 0.058732413 0.74300003 2.341769e-38
0.010614294 0.058732405 0.74299997 2.341769e-38
0.012029549 0.058732409 0.74299997 2.341769e-38
0.013444779 0.058732413 0.74299997 2.341769e-38
0.014900017 0.058890507 0.745 2.341769e-38
0.016275264 0.058732409 0.74299997 2.341769e-38
0.017690493 0.058732416 0.74299997 2.341769e-38
0.01915713 0.058890499 0.74500006 2.341769e-38
0.020576179 0.058890492 0.74500006 2.341769e-38
0.022054274 0.059048589 0.74700004 2.341769e-38
0.023477141 0.059048578 0.74700004 2.341769e-38
0.024933342 0.059127651 0.74799997 2.341769e-38
0.026428554 0.059285741 0.75000006 2.341769e-38
0.027857134 0.059285745 0.75000006 2.341769e-38
0.029285716 0.059285734 0.75000006 2.341769e-38
0.0307143 0.059285741 0.75000006 2.341769e-38
0.032228582 0.059443831 0.75200003 2.341769e-38
0.033660982 0.059443835 0.75200003 2.341769e-38
0.035140011 0.059522878 0.75300002 2.341769e-38
0.036671434 0.059680972 0.75500005 2.341769e-38
0.038109522 0.059680983 0.75500005 2.1668152e-38
0.039600011 0.05976003 0.75600004 2.000073e-38
0.041148551 0.059918113 0.75800008 1.825367e-38
0.042704761 0.060076214 0.76000005 1.6600252e-38
0.044210497 0.06015525 0.76100004 1.6500504e-38
0.045900013 0.060471453 0.76500005 1.6401149e-38
0.047542881 0.060708605 0.76800001 1.6956122e-38
-0.033128604 0.062576205 0.77300006 1.1526666e-38
-0.031615257 0.062495269 0.77200001 1.2352126e-38
-0.030066663 0.06233336 0.77000004 1.3102977e-38
-0.028525705 0.062171455 0.76800001 1.5688746e-38
-0.027027609 0.062090501 0.76700002 1.8166146e-38
-0.025500007 0.061928593 0.76500005 1.7243122e-38
-0.02397998 0.061766699 0.76299995 1.6327998e-38
-0.022467626 0.061604779 0.76100004 1.7430746e-38
-0.020990498 0.061523821 0.76000005 1.8537089e-38
-0.019491438 0.061361924 0.75800008 1.9915711e-38
-0.017976196 0.061119061 0.75500005 2.1299714e-38
-0.01649428 0.060957178 0.75300002 2.23153e-38
-0.015059981 0.060957167 0.75300002 2.3233656e-38
-0.013607603 0.060876209 0.75199997 2.3325852e-38
-0.012175202 0.060876213 0.75199997 2.3417689e-38
-0.010714309 0.060714304 0.75000006 2.341769e-38
-0.0092857266 0.060714308 0.75000006 2.341769e-38
-0.0078571448 0.060714316 0.75000006 2.341769e-38
-0.006428563 0.060714304 0.75000006 2.341769e-38
-0.0049866503 0.0605524 0.74800003 2.341769e-38
-0.0035618872 0.060552407 0.74799997 2.341769e-38
-0.0021342963 0.060471449 0.74700004 2.341769e-38
-0.00070952729 0.060309552 0.745 2.341769e-38
0.00070951961 0.060309559 0.745 2.341769e-38
0.0021228592 0.060147647 0.74299997 2.341769e-38
0.0035381175 0.060147639 0.74299997 2.341769e-38
0.0049533462 0.060147643 0.74299997 2.341769e-38
0.0063686008 0.060147647 0.74299997 2.341769e-38
0.007783832 0.060147639 0.74299997 2.341769e-38
0.0091990614 0.060147651 0.74299997 2.341769e-38
0.010614319 0.060147651 0.74299997 2.341769e-38
0.012029548 0.060147639 0.74299997 2.341769e-38
0.013480953 0.060309552 0.74500006 2.341769e-38
0.014900003 0.06030954 0.74500006 2.341769e-38
0.016275262 0.060147643 0.74299997 2.341769e-38
0.017738098 0.060309559 0.745 2.341769e-38
0.019157145 0.060309548 0.745 2.341769e-38
0.020576194 0.060309552 0.745 2.341769e-38
0.022054279 0.060471438 0.7470001 2.341769e-38
0.02347712 0.060471445 0.7470001 2.341769e-38
0.024933316 0.060552396 0.74800003 2.341769e-38
0.026428575 0.060714308 0.75 2.341769e-38
0.027857156 0.060714312 0.75 2.341769e-38
0.02928574 0.060714308 0.75 2.341769e-38
0.030796221 0.060876209 0.75199997 2.341769e-38
0.032228593 0.060876217 0.75199997 2.341769e-38
0.033660997 0.06087622 0.75199997 2.341769e-38
0.035139989 0.060957152 0.75300002 2.341769e-38
0.036671404 0.061119061 0.75500005 2.341769e-38
0.038109522 0.061119068 0.75500005 2.2131993e-38
0.039600004 0.061200038 0.75600004 2.0834414e-38
0.041148562 0.061361916 0.75800002 1.8435169e-38
0.042704735 0.061523829 0.76000005 1.6045627e-38
0.044210494 0.061604783 0.76100004 1.6214565e-38
0.045900024 0.061928608 0.76499999 1.6409733e-38
0.047790479 0.062495273 0.77199996 1.8429416e-38
0.049324747 0.062576212 0.77300006 2.0460208e-38
0.050928589 0.062738106 0.77500004 2.1849944e-38
-0.034780029 0.064380012 0.77700001 1.2353878e-38
-0.033214308 0.064214297 0.77500004 1.1891499e-38
-0.031615254 0.06396573 0.77200001 1.2906379e-38
-0.03006665 0.063800037 0.77000004 1.3832642e-38
-0.02852571 0.063634321 0.76800001 1.6235088e-38
-0.027027607 0.063551471 0.76699996 1.8533474e-38
-0.025499996 0.06338574 0.76499999 1.7795189e-38
-0.023979992 0.063220024 0.76300001 1.696724e-38
-0.022467626 0.063054308 0.76100004 1.8072859e-38
-0.020990465 0.062971458 0.76000005 1.9265304e-38
-0.019491451 0.062805735 0.75800002 2.0283404e-38
-0.017976196 0.062557176 0.75500005 2.130079e-38
-0.01649427 0.062391456 0.75300002 2.1761781e-38
-0.015039994 0.062308591 0.75200003 2.2314585e-38
-0.013607619 0.062308602 0.75200003 2.2496818e-38
-0.01217522 0.062308591 0.75200003 2.277448e-38
-0.010714286 0.062142886 0.75 2.3050348e-38
-0.0092857061 0.062142879 0.75 2.341769e-38
-0.0078571243 0.062142882 0.75 2.341769e-38
-0.0064285686 0.062142897 0.75 2.341769e-38
-0.0049866466 0.061977174 0.74799997 2.341769e-38
-0.0035619133 0.06197717 0.74800003 2.341769e-38
-0.0021342908 0.061894294 0.7470001 2.341769e-38
-0.00070951052 0.0617286 0.745 2.341769e-38
0.00070950657 0.061728593 0.74500006 2.341769e-38
0.0021285571 0.061728586 0.74500006 2.341769e-38
0.0035381156 0.061562888 0.74299997 2.341769e-38
0.004966653 0.061728597 0.74500006 2.341769e-38
0.0063857017 0.061728586 0.745 2.341769e-38
0.0077838311 0.061562885 0.74299997 2.341769e-38
0.0091990866 0.061562888 0.74299997 2.341769e-38
0.010642873 0.061728586 0.745 2.341769e-38
0.012061921 0.061728593 0.745 2.341769e-38
0.01348097 0.0617286 0.745 2.341769e-38
0.014900018 0.061728589 0.745 2.341769e-38
0.016319066 0.061728593 0.745 2.341769e-38
0.017738115 0.061728597 0.745 2.341769e-38
0.019157162 0.061728593 0.745 2.341769e-38
0.020631421 0.061894294 0.74700004 2.341769e-38
0.022054289 0.061894298 0.74700004 2.341769e-38
0.023508582 0.061977159 0.74800003 2.341769e-38
0.024933346 0.061977163 0.74800003 2.341769e-38
0.026428565 0.062142871 0.75000006 2.341769e-38
0.027857123 0.062142875 0.75000006 2.341769e-38
0.029285705 0.062142882 0.75000006 2.341769e-38
0.030796204 0.062308587 0.75200003 2.341769e-38
0.032228608 0.062308591 0.75200003 2.341769e-38
0.033660978 0.062308598 0.75200003 2.341769e-38
0.035139997 0.062391452 0.75300002 2.341769e-38
0.036671434 0.062557161 0.75500005 2.341769e-38
0.038109522 0.062557161 0.75500005 2.2681571e-38
0.0396 0.062640026 0.75600004 2.1942888e-38
0.041257147 0.062971458 0.76000005 2.0833634e-38
0.042704765 0.06297145 0.76000005 1.9727631e-38
0.0443267 0.063220032 0.76300001 1.9818718e-38
0.045900006 0.063385732 0.76500005 1.9919906e-38
0.047852371 0.064048603 0.77300006 2.0928685e-38
0.049452383 0.064214304 0.77500004 2.1948241e-38
0.050928552 0.064214289 0.77500004 2.2588975e-38
-0.034779992 0.065860033 0.77700001 1.2627587e-38
-0.033128578 0.065520965 0.77300006 1.2264576e-38
-0.03161522 0.065436222 0.77200001 1.3457389e-38
-0.030066663 0.065266684 0.77000004 1.4574856e-38
-0.028525686 0.065097168 0.76800001 1.679399e-38
-0.027062844 0.065097168 0.76800001 1.8900817e-38
-0.02556669 0.06501241 0.76700002 1.8252937e-38
-0.02404286 0.064842895 0.76500005 1.7611888e-38
-0.022467628 0.064503834 0.76099998 1.8811496e-38
-0.020990491 0.064419061 0.76000005 1.991318e-38
-0.019491438 0.064249545 0.75800002 2.0651469e-38
-0.0179762 0.063995257 0.75500005 2.1297916e-38
-0.016494293 0.063825727 0.75300002 2.1300439e-38
-0.015059995 0.063825734 0.75300002 2.130116e-38
-0.01360758 0.063740969 0.75199997 2.1664203e-38
-0.012175235 0.063740969 0.75200003 2.2038004e-38
-0.010742836 0.063740969 0.75200003 2.2774483e-38
-0.0092857135 0.063571438 0.75000006 2.341769e-38
-0.0078571578 0.063571453 0.75000006 2.3417331e-38
-0.0064285761 0.063571438 0.75000006 2.341769e-38
-0.0049999943 0.063571453 0.75000006 2.341769e-38
-0.0035619095 0.063401923 0.74800003 2.341769e-38
-0.0021342814 0.063317165 0.74700004 2.341769e-38
-0.00070952356 0.063147649 0.745 2.341769e-38
0.00070952333 0.063147642 0.745 2.341769e-38
0.0021285738 0.063147649 0.745 2.341769e-38
0.0035476226 0.063147649 0.745 2.341769e-38
0.0049666697 0.063147642 0.745 2.341769e-38
0.0063857194 0.063147649 0.745 2.341769e-38
0.0078047663 0.063147649 0.745 2.341769e-38
0.009223816 0.063147649 0.745 2.341769e-38
0.010642865 0.063147649 0.745 2.341769e-38
0.012061912 0.063147649 0.745 2.341769e-38
0.013480958 0.063147649 0.74500006 2.341769e-38
0.014900004 0.063147642 0.74500006 2.341769e-38
0.016319051 0.063147649 0.74500006 2.341769e-38
0.017738102 0.063147649 0.74500006 2.341769e-38
0.019157149 0.063147642 0.74500006 2.341769e-38
0.020631427 0.063317142 0.7470001 2.341769e-38
0.022054268 0.06331715 0.74700004 2.341769e-38
0.023508586 0.06340193 0.74800003 2.341769e-38
0.024933349 0.063401923 0.74800003 2.341769e-38
0.026428562 0.063571453 0.75000006 2.341769e-38
0.027857143 0.063571446 0.75 2.341769e-38
0.029285725 0.063571453 0.75 2.341769e-38
0.030796189 0.063740961 0.75200003 2.341769e-38
0.032228589 0.063740969 0.75200003 2.341769e-38
0.033705708 0.063825727 0.75300002 2.341769e-38
0.035140004 0.063825734 0.75300002 2.341769e-38
0.036671434 0.063995272 0.75500005 2.341769e-38
0.038109519 0.063995257 0.75500005 2.3234019e-38
0.039704759 0.064249545 0.75800002 2.2955609e-38
0.041257147 0.064419083 0.76000005 2.3228213e-38
0.04276095 0.064503819 0.76100004 2.3410793e-38
0.044326689 0.064673349 0.76300001 2.341293e-38
0.045900013 0.064842895 0.76500005 2.3413298e-38
0.047852345 0.065520965 0.77300006 2.3416537e-38
0.049324747 0.065520972 0.77300006 2.3416188e-38
-0.033128574 0.066993356 0.77300006 1.3837256e-38
-0.031656228 0.066993356 0.77300006 1.5124415e-38
-0.03006665 0.066733368 0.77000004 1.6419814e-38
-0.028600017 0.066733345 0.77000004 1.7708755e-38
-0.027062848 0.06656003 0.76800001 1.8992654e-38
-0.02556666 0.066473357 0.76699996 1.853096e-38
-0.024042848 0.066300049 0.76499999 1.7976726e-38
-0.022467628 0.065953352 0.76099998 1.8809708e-38
-0.020990483 0.065866686 0.76000005 1.9638755e-38
-0.019491425 0.065693364 0.75800002 1.9916431e-38
-0.017999977 0.065520033 0.75599998 2.0193375e-38
-0.016538084 0.065433353 0.75500005 2.0837301e-38
-0.015059987 0.065260023 0.75300002 2.1486262e-38
-0.013607595 0.065173343 0.75200003 2.2129123e-38
-0.012175222 0.065173358 0.75199997 2.2774842e-38
-0.010742821 0.065173358 0.75199997 2.3050348e-38
-0.0092857173 0.065000027 0.75000006 2.341769e-38
-0.0078571355 0.065000035 0.75 2.341769e-38
-0.0064285537 0.065000027 0.75 2.341769e-38
-0.0050000278 0.065000013 0.75000006 2.341769e-38
-0.0035619077 0.064826682 0.74800003 2.341769e-38
-0.0021343019 0.06474001 0.74700004 2.341769e-38
-0.00071143464 0.064740017 0.74700004 2.341769e-38
0.00071143254 0.064740002 0.74700004 2.341769e-38
0.0021285906 0.064566702 0.745 2.341769e-38
0.0035476096 0.064566687 0.74500006 2.341769e-38
0.0049666567 0.064566687 0.74500006 2.341769e-38
0.0063857064 0.064566702 0.74500006 2.341769e-38
0.0078047533 0.064566687 0.74500006 2.341769e-38
0.0092238029 0.064566694 0.745 2.341769e-38
0.010642852 0.064566702 0.745 2.341769e-38
0.0120619 0.064566687 0.745 2.341769e-38
0.013480948 0.064566702 0.745 2.341769e-38
0.014899996 0.064566702 0.745 2.341769e-38
0.01631907 0.064566694 0.745 2.341769e-38
0.017785728 0.06474001 0.74700004 2.341769e-38
0.019208569 0.064740017 0.74700004 2.341769e-38
0.020631436 0.064740017 0.74700004 2.341769e-38
0.022083823 0.064826682 0.74800003 2.341769e-38
0.023508586 0.064826682 0.74800003 2.341769e-38
0.024933349 0.064826697 0.74800003 2.341769e-38
0.026428584 0.065000027 0.75 2.341769e-38
0.027857136 0.065000027 0.75000006 2.341769e-38
0.029285718 0.065000013 0.75000006 2.341769e-38
0.030796228 0.065173343 0.75200003 2.341769e-38
0.0322286 0.065173358 0.75199997 2.341769e-38
0.033661004 0.065173365 0.75199997 2.341769e-38
0.035233315 0.065433353 0.75500005 2.2958513e-38
0.03667143 0.065433353 0.75500005 2.2591171e-38
0.03816 0.065520026 0.75600004 2.2310283e-38
0.039704774 0.065693364 0.75800002 2.2039069e-38
0.041257124 0.065866694 0.76000005 2.2773021e-38
0.04276095 0.065953344 0.76100004 2.3417663e-38
0.044326682 0.066126689 0.76300001 2.3323675e-38
0.045899998 0.066300035 0.76500005 2.3230042e-38
-0.034690473 0.068642884 0.77500004 1.4481869e-38
-0.033128604 0.068465732 0.77300006 1.5308778e-38
-0.031615265 0.06837716 0.77200001 1.6782482e-38
-0.030066663 0.068200029 0.77000004 1.8257609e-38
-0.0286 0.068200044 0.77000004 1.8720393e-38
-0.027062852 0.068022892 0.76800001 1.9087731e-38
-0.025566664 0.067934319 0.76700002 1.8717515e-38
-0.024042845 0.067757167 0.76500005 1.8351618e-38
-0.022526657 0.067580029 0.76300001 1.8812241e-38
-0.021018114 0.067402884 0.76100004 1.9273938e-38
-0.019542862 0.067314304 0.76000005 1.9181394e-38
-0.017999984 0.066960044 0.75599998 1.8997721e-38
-0.016538113 0.066871457 0.75500005 2.0277318e-38
-0.015100023 0.066871464 0.75500005 2.1575944e-38
-0.013625738 0.066694304 0.75300002 2.2499335e-38
-0.012175211 0.066605732 0.75200003 2.341769e-38
-0.010742838 0.066605732 0.75200003 2.341769e-38
-0.0093104625 0.066605732 0.75199997 2.341769e-38
-0.0078571448 0.066428602 0.75000006 2.341769e-38
-0.0064285873 0.066428602 0.75000006 2.341769e-38
-0.0050000055 0.066428594 0.75000006 2.341769e-38
-0.0035714239 0.066428602 0.75000006 2.341769e-38
-0.0021342684 0.066162869 0.74700004 2.341769e-38
-0.00071145699 0.066162854 0.74700004 2.341769e-38
0.00071141019 0.066162877 0.7470001 2.341769e-38
0.0021285776 0.065985739 0.74500006 2.341769e-38
0.0035476263 0.065985732 0.745 2.341769e-38
0.0049666734 0.065985739 0.745 2.341769e-38
0.0063857241 0.065985739 0.745 2.341769e-38
0.007804771 0.065985739 0.745 2.341769e-38
0.0092485864 0.066162877 0.74700004 2.341769e-38
0.010671427 0.066162869 0.74700004 2.341769e-38
0.012094296 0.066162862 0.74700004 2.341769e-38
0.013517133 0.066162869 0.7470001 2.341769e-38
0.014939974 0.066162869 0.74700004 2.341769e-38
0.01636284 0.066162854 0.74700004 2.341769e-38
0.017785706 0.066162869 0.74700004 2.341769e-38
0.019208573 0.066162869 0.74700004 2.341769e-38
0.020659063 0.066251442 0.74800003 2.341769e-38
0.022083826 0.066251457 0.74800003 2.341769e-38
0.02350859 0.066251457 0.74800003 2.341769e-38
0.024933353 0.066251449 0.74799997 2.341769e-38
0.026428577 0.066428587 0.75000006 2.341769e-38
0.027857132 0.066428602 0.75 2.341769e-38
0.029285714 0.066428602 0.75 2.341769e-38
0.030796213 0.066605724 0.75200003 2.341769e-38
0.032228585 0.066605732 0.75200003 2.341769e-38
0.033705726 0.066694319 0.75300002 2.3417677e-38
0.035140023 0.066694312 0.75300002 2.2591145e-38
0.03667143 0.066871457 0.75500005 2.1659129e-38
0.03816 0.066960037 0.75600004 2.1376061e-38
0.039704785 0.067137159 0.75800002 2.1115294e-38
0.041311428 0.067402869 0.76100004 2.2315644e-38
0.042760946 0.067402884 0.76100004 2.341767e-38
0.0443267 0.067580037 0.76300001 2.3233999e-38
0.045900006 0.067757174 0.76499999 2.304817e-38
0.047357161 0.067757182 0.76499999 2.3138207e-38
-0.034690484 0.070119068 0.77500004 1.4936021e-38
-0.033214286 0.070119068 0.77500004 1.3286246e-38
-0.031656198 0.069938116 0.77300006 1.5403877e-38
-0.030144779 0.069847636 0.77200001 1.7525444e-38
-0.028674297 0.069847636 0.77199996 1.8721482e-38
-0.027062828 0.069485746 0.76800001 2.0012557e-38
-0.02556666 0.069395274 0.76699996 2.0102954e-38
-0.024042834 0.069214322 0.76499999 2.0104402e-38
-0.02252664 0.069033369 0.76300001 2.0747982e-38
-0.021018114 0.06885241 0.76100004 2.1392267e-38
-0.019542856 0.06876193 0.76000005 2.1299356e-38
-0.017999988 0.06840004 0.75599998 2.1205722e-38
-0.016560007 0.068400033 0.75600004 2.185e-38
-0.015099997 0.06830956 0.75500005 2.2499321e-38
-0.013625728 0.068128601 0.75300002 2.2958513e-38
-0.012175228 0.068038106 0.75200003 2.341769e-38
-0.010742852 0.068038113 0.75200003 2.341769e-38
-0.0093104513 0.068038106 0.75200003 2.341769e-38
-0.0078780772 0.068038121 0.75200003 2.341769e-38
-0.0064285668 0.067857161 0.75 2.341769e-38
-0.004999985 0.067857161 0.75 2.341769e-38
-0.0035714351 0.067857161 0.75000006 2.341769e-38
-0.0021371406 0.067676201 0.74800003 2.341769e-38
-0.0007114216 0.067585722 0.74700004 2.341769e-38
0.00071144558 0.067585737 0.74700004 2.341769e-38
0.0021285943 0.067404784 0.745 2.341769e-38
0.0035476412 0.067404792 0.745 2.341769e-38
0.0049666902 0.067404799 0.745 2.341769e-38
0.0064028334 0.067585737 0.74700004 2.341769e-38
0.0078256987 0.067585729 0.74700004 2.341769e-38
0.0092485659 0.067585729 0.74700004 2.341769e-38
0.010671433 0.067585737 0.74700004 2.341769e-38
0.012094275 0.067585729 0.74700004 2.341769e-38
0.013535252 0.067676216 0.74800003 2.341769e-38
0.014960015 0.067676201 0.74800003 2.341769e-38
0.016362876 0.067585729 0.74700004 2.341769e-38
0.01780954 0.067676216 0.74800003 2.341769e-38
0.019234305 0.067676209 0.74800003 2.341769e-38
0.020659069 0.067676216 0.74800003 2.341769e-38
0.022083802 0.067676216 0.74800003 2.341769e-38
0.023508566 0.067676201 0.74800003 2.341769e-38
0.025000015 0.067857161 0.75 2.341769e-38
0.026428597 0.067857176 0.75000006 2.341769e-38
0.027857123 0.067857161 0.75000006 2.341769e-38
