# .PCD v0.7 - Point Cloud Data file format
VERSION 0.7
FIELDS x y z rgb
SIZE 4 4 4 4
TYPE F F F F
COUNT 1 1 1 1
WIDTH 957
HEIGHT 1
VIEWPOINT 0 0 0 1 0 0 0
POINTS 957
DATA ascii
-0.0078571467 -0.015000023 0.75000006 4.7081106e-40
-0.00642857 -0.015000023 0.75000006 5.6337103e-40
-0.0049999948 -0.015000015 0.75000006 5.640955e-40
-0.0035714176 -0.015000023 0.75 6.5629393e-40
-0.0021371241 -0.014960013 0.74799997 8.4068519e-40
-0.00071141549 -0.014940023 0.74699998 1.0250779e-39
0.00071143307 -0.014940009 0.74699998 1.0257981e-39
0.0021342807 -0.014940016 0.74699998 1.1172693e-39
0.0035571298 -0.014940023 0.74700004 1.025068e-39
0.0049800063 -0.014940031 0.74700004 9.3359268e-40
0.0063857324 -0.014900006 0.745 1.2094593e-39
0.0078047714 -0.014900021 0.74500006 1.5775202e-39
0.0092238309 -0.014899999 0.745 1.3016563e-39
0.01064287 -0.014900006 0.745 1.0261498e-39
0.01206191 -0.014900014 0.745 8.4247745e-40
0.01348097 -0.014900006 0.745 7.4990627e-40
0.014900009 -0.014899999 0.745 4.6792439e-40
0.016362844 -0.014940016 0.74700004 2.7891024e-40
0.017809538 -0.014960006 0.74799997 5.813829e-39
0.01923429 -0.014960013 0.74799997 1.1347997e-38
0.020659044 -0.014960006 0.74799997 1.271441e-38
0.022142863 -0.015000008 0.75 1.4078208e-38
0.023571454 -0.015000008 0.75 1.3143965e-38
0.025066672 -0.015040018 0.75200003 1.2215224e-38
0.026499044 -0.015040018 0.75200003 1.1573468e-38
0.027968554 -0.015060022 0.75300002 1.0933483e-38
0.02948097 -0.015100002 0.755 8.7322937e-39
0.031041922 -0.015160002 0.75799996 6.6254667e-39
0.032485723 -0.015160009 0.75800002 6.3528384e-39
0.033929523 -0.015160002 0.75799996 6.1709569e-39
0.035466682 -0.015200019 0.75999999 6.0794745e-39
-0.01811903 -0.013770483 0.76099998 4.6863064e-40
-0.016560001 -0.013680026 0.75600004 5.5471801e-40
-0.015099981 -0.013661891 0.755 6.4943177e-40
-0.013625732 -0.013625734 0.75300002 5.5903961e-40
-0.012175252 -0.013607644 0.75200009 4.6864465e-40
-0.010742868 -0.013607644 0.75200003 4.6865166e-40
-0.0092857229 -0.013571456 0.75000006 4.6937193e-40
-0.0078571485 -0.013571449 0.75000006 5.6192769e-40
-0.006428571 -0.013571441 0.75000006 6.5448766e-40
-0.0050000097 -0.013571449 0.75000006 6.5521213e-40
-0.0035714325 -0.013571449 0.75000006 5.640969e-40
-0.0021371455 -0.013535254 0.74800003 6.5629533e-40
-0.00071237847 -0.013535246 0.74800003 7.4921263e-40
0.00071237463 -0.013535254 0.74800003 9.336081e-40
0.0021371483 -0.013535239 0.74799997 1.0250765e-39
0.0035571461 -0.013517171 0.74699998 9.3251648e-40
0.0049799955 -0.013517171 0.74700004 7.4956156e-40
0.0064028436 -0.013517164 0.74700004 1.0254268e-39
0.0078257201 -0.013517164 0.74700004 1.3016535e-39
0.0092485892 -0.013517156 0.74699998 1.1183441e-39
0.010671437 -0.013517156 0.74699998 8.4247885e-40
0.012094285 -0.013517164 0.74699998 8.4212012e-40
0.013480966 -0.013480954 0.745 7.4488963e-40
0.014940011 -0.013517156 0.74700004 5.5367124e-40
0.016362861 -0.013517164 0.74700004 3.9049144e-40
0.017809518 -0.013535261 0.74800003 7.4945127e-39
0.01923429 -0.013535231 0.74799997 1.4554323e-38
0.020659072 -0.013535239 0.74799997 1.4079677e-38
0.022142863 -0.013571449 0.75000006 1.3514264e-38
0.023571426 -0.013571449 0.75000006 1.2858092e-38
0.025066664 -0.013607636 0.75200003 1.2124125e-38
0.026534298 -0.013625734 0.75299996 1.1665305e-38
0.028042877 -0.013661921 0.755 1.1116431e-38
0.029480962 -0.013661899 0.755 8.8226802e-39
0.03096001 -0.013680018 0.75600004 6.5329039e-39
0.03248572 -0.013716199 0.75799996 6.3535517e-39
0.033929527 -0.013716206 0.75799996 6.0787571e-39
0.035466682 -0.013752401 0.75999999 5.8039624e-39
0.036914296 -0.013752408 0.76000005 5.4369792e-39
-0.01809524 -0.012304775 0.76000005 4.6289933e-40
-0.016538085 -0.012223817 0.755 5.5579701e-40
-0.015099994 -0.012223817 0.75500005 6.4871711e-40
-0.013625729 -0.012191452 0.75300002 5.5904102e-40
-0.012175241 -0.012175255 0.75200003 4.6900619e-40
-0.010742876 -0.012175262 0.75200009 4.6901319e-40
-0.0093104895 -0.012175262 0.75200003 3.771791e-40
-0.0078571429 -0.012142874 0.75000006 4.7009079e-40
-0.0064285654 -0.012142882 0.75000006 6.5412752e-40
-0.0049999892 -0.012142882 0.75 6.54852e-40
-0.003571427 -0.012142882 0.75 7.4704903e-40
-0.0021371325 -0.012110487 0.74799997 8.3996352e-40
-0.00071237941 -0.012110494 0.74799997 8.406908e-40
0.0007123737 -0.012110494 0.74799997 9.3289343e-40
0.0021371548 -0.012110479 0.74800003 1.0243618e-39
0.0035571358 -0.012094304 0.74699998 9.3287522e-40
0.0049800123 -0.012094297 0.74700004 8.4139565e-40
0.0064028604 -0.012094304 0.74700004 1.0257813e-39
0.0078047845 -0.012061916 0.745 1.3016507e-39
0.0092485575 -0.012094311 0.74700004 1.1179839e-39
0.010671427 -0.012094304 0.74699998 9.3431435e-40
0.012094303 -0.012094297 0.74699998 6.5522054e-40
0.013517152 -0.012094297 0.74700004 4.6651748e-40
0.014939999 -0.012094304 0.74700004 2.7717221e-39
0.016384764 -0.012110487 0.74799997 5.0809331e-39
0.017809516 -0.012110479 0.74799997 9.5949134e-39
0.019234298 -0.012110487 0.74800003 1.4183371e-38
0.02065905 -0.012110494 0.74800003 1.360931e-38
0.022142883 -0.012142874 0.75 1.304108e-38
0.023634279 -0.012175255 0.75200003 1.2582981e-38
0.025066657 -0.012175269 0.75200009 1.2032667e-38
0.026604759 -0.012223832 0.75500005 1.157383e-38
0.028042873 -0.012223817 0.755 1.1207542e-38
0.029519999 -0.012240022 0.75600004 8.8241011e-39
0.031041922 -0.012272388 0.75799996 6.4417774e-39
0.032485727 -0.012272395 0.75799996 6.1691576e-39
0.034019046 -0.012304783 0.76000005 5.986916e-39
0.035466682 -0.012304775 0.75999999 5.5284489e-39
0.036962878 -0.012320958 0.76099998 5.0703365e-39
-0.022526676 -0.010900028 0.76300001 7.4736712e-39
-0.021073347 -0.010900028 0.76300001 1.0692549e-38
-0.01956857 -0.010871433 0.76100004 5.5400489e-39
-0.018095242 -0.010857157 0.76000005 3.7752382e-40
-0.016559999 -0.010800026 0.75600004 5.5616695e-40
-0.015120017 -0.010800034 0.75600004 6.4944018e-40
-0.013625727 -0.010757171 0.75300002 5.5904102e-40
-0.012175248 -0.010742866 0.75200003 4.6864605e-40
-0.010742862 -0.010742866 0.75200003 3.7753363e-40
-0.0093104979 -0.01074288 0.75200003 2.8605546e-40
-0.0078571429 -0.010714307 0.75000006 4.7044392e-40
-0.0064285803 -0.010714315 0.75000006 5.6264516e-40
-0.0050000041 -0.0107143 0.75000006 7.4632456e-40
-0.0035714279 -0.010714307 0.75000006 9.3035848e-40
-0.0021371334 -0.010685734 0.74799997 9.3143889e-40
-0.00071238034 -0.01068572 0.74799997 9.3180322e-40
0.00071240164 -0.010685727 0.74799997 9.3252489e-40
0.0021371539 -0.01068572 0.74799997 9.3216055e-40
0.003561907 -0.010685727 0.74799997 9.3287381e-40
0.0049866601 -0.010685727 0.74799997 9.3286961e-40
0.0064028497 -0.010671444 0.74700004 1.1179713e-39
0.0078257257 -0.010671452 0.74700004 1.2094537e-39
0.0092485743 -0.010671452 0.74700004 1.1176238e-39
0.010671423 -0.010671444 0.74700004 1.0243492e-39
0.012094292 -0.010671444 0.74699998 5.619403e-40
0.01351714 -0.010671444 0.74699998 1.0384182e-40
0.014960009 -0.01068572 0.74799997 4.9851179e-39
0.016384762 -0.01068572 0.74799997 9.7742151e-39
0.017809544 -0.010685727 0.74799997 1.1803585e-38
0.019234296 -0.010685734 0.74799997 1.3706229e-38
0.02065905 -0.010685727 0.74799997 1.3133621e-38
0.022142854 -0.010714307 0.75000006 1.2582969e-38
0.023634268 -0.010742873 0.75200003 1.2307824e-38
0.025099998 -0.010757163 0.75300002 1.1941187e-38
0.026604781 -0.010785721 0.755 1.1573833e-38
0.028042866 -0.010785706 0.755 1.120827e-38
0.029519983 -0.010800019 0.75600004 8.8237634e-39
0.030960001 -0.010800019 0.75600004 6.3499532e-39
0.032485705 -0.010828592 0.75800002 6.0780438e-39
0.03401906 -0.010857157 0.75999999 5.8028918e-39
0.035466675 -0.010857165 0.76000005 5.2518747e-39
0.036962859 -0.01087144 0.76099998 4.6104527e-39
-0.022526678 -0.0094466805 0.76300001 7.3850615e-39
-0.021073334 -0.009446688 0.76300001 1.0793709e-38
-0.019568576 -0.0094219223 0.76100004 5.5368161e-39
-0.018095244 -0.0094095394 0.76000005 2.7780041e-40
-0.016559994 -0.0093600154 0.75599998 4.647014e-40
-0.015120011 -0.0093600154 0.75600004 6.5016325e-40
-0.013625724 -0.0093228742 0.75300002 5.5939975e-40
-0.012191433 -0.0093228742 0.75300002 4.6900339e-40
-0.010742859 -0.0093104839 0.75200003 4.6936492e-40
-0.0093104867 -0.0093104914 0.75200003 4.7008098e-40
-0.0078571364 -0.0092857331 0.75 5.6227241e-40
-0.0064285598 -0.0092857257 0.75000006 6.5447645e-40
-0.0049999985 -0.0092857182 0.75 6.5412612e-40
-0.0035714214 -0.0092857257 0.75 6.53773e-40
-0.0021371343 -0.0092609525 0.74799997 7.4669029e-40
-0.00071238127 -0.0092609599 0.74799997 8.3888592e-40
0.00071239978 -0.0092609674 0.74799997 7.4740916e-40
0.0021371534 -0.0092609674 0.74799997 6.5521353e-40
0.0035619065 -0.0092609525 0.74799997 7.4740636e-40
0.0049800174 -0.0092485845 0.74699998 7.4668469e-40
0.0064028669 -0.009248592 0.74699998 9.3250247e-40
0.0078257145 -0.009248592 0.74700004 1.1168979e-39
0.0092485631 -0.0092485994 0.74700004 1.3005745e-39
0.010671412 -0.009248592 0.74700004 1.4838798e-39
0.012094309 -0.0092485845 0.74699998 1.1104323e-39
0.013517157 -0.009248592 0.74699998 7.3808492e-40
0.014940006 -0.009248592 0.74699998 6.4631108e-39
0.01638479 -0.0092609525 0.74799997 1.2267751e-38
0.017809542 -0.0092609599 0.74799997 1.2612484e-38
0.019285722 -0.0092857331 0.75 1.2949277e-38
0.020714311 -0.0092857406 0.75 1.2766268e-38
0.022142874 -0.0092857257 0.75 1.2583318e-38
0.023634288 -0.0093104914 0.75200003 1.2308532e-38
0.025100002 -0.0093228817 0.75300002 1.1942261e-38
0.026604777 -0.0093476176 0.755 1.1574194e-38
0.028042888 -0.0093476176 0.755 1.1299042e-38
0.029519988 -0.0093600228 0.75600004 8.9156185e-39
0.030960007 -0.0093600228 0.75599998 6.5350717e-39
0.032485727 -0.0093847588 0.75799996 6.2610001e-39
0.03401906 -0.009409532 0.75999999 5.985851e-39
0.035513349 -0.0094219148 0.76099998 5.4359114e-39
0.037060011 -0.0094466805 0.76300001 4.8856103e-39
0.03851334 -0.0094466805 0.76300001 4.9774402e-39
-0.024042828 -0.0080142766 0.76499999 3.8820368e-39
-0.022526663 -0.0079933405 0.76299995 7.3951186e-39
-0.021073334 -0.0079933479 0.76299995 1.087514e-38
-0.019620003 -0.0079933479 0.76299995 5.535007e-39
-0.018119046 -0.0079724044 0.76100004 1.0093553e-40
-0.016560007 -0.0079200268 0.75600004 3.739393e-40
-0.015119991 -0.0079200268 0.75600004 5.5832495e-40
-0.013661901 -0.0079095289 0.755 5.5868228e-40
-0.012223788 -0.0079095289 0.755 4.6792719e-40
-0.010757144 -0.0078885853 0.75300002 5.6048575e-40
-0.0093104802 -0.0078781098 0.75200003 5.6156195e-40
-0.0078780949 -0.0078781098 0.75200003 6.5375618e-40
-0.0064457296 -0.0078781098 0.75200009 7.4559868e-40
-0.0050133443 -0.0078781098 0.75200003 5.6121863e-40
-0.0035714223 -0.0078571737 0.75000006 3.7862664e-40
-0.0021371418 -0.0078362077 0.74800003 5.619431e-40
-0.00071237382 -0.0078362003 0.74800003 6.5449747e-40
0.00071237929 -0.0078362077 0.74800003 5.6266337e-40
0.0021371525 -0.0078361928 0.74799997 3.7970844e-40
0.0035619056 -0.0078362003 0.74799997 4.7046774e-40
0.0049866866 -0.0078362077 0.74799997 5.6337663e-40
0.0064114402 -0.0078362003 0.74799997 8.3995652e-40
0.0078361919 -0.0078362003 0.74799997 1.0250638e-39
0.0092609739 -0.0078362003 0.74799997 1.4842427e-39
0.010685727 -0.0078362077 0.74799997 1.8490666e-39
0.01211048 -0.0078362152 0.74799997 1.5656624e-39
0.013517146 -0.0078257322 0.74699998 1.3059653e-39
0.014960014 -0.0078362077 0.74800003 8.0454977e-39
0.016384767 -0.0078362077 0.74800003 1.4646135e-38
0.017809521 -0.0078362003 0.74800003 1.3428558e-38
0.019285722 -0.0078571737 0.75000006 1.2127763e-38
0.020714283 -0.0078571588 0.75000006 1.2398218e-38
0.022142874 -0.0078571588 0.75000006 1.2583677e-38
0.023634281 -0.0078781173 0.75200003 1.2308884e-38
0.025100004 -0.0078885928 0.75300002 1.1941894e-38
0.026604773 -0.0079095215 0.755 1.1665664e-38
0.028042866 -0.0079095289 0.755 1.1299398e-38
0.029480977 -0.0079095289 0.755 9.0049471e-39
0.030959992 -0.0079200193 0.75600004 6.716233e-39
0.032485735 -0.0079409555 0.75800002 6.4446725e-39
0.034019057 -0.0079619214 0.75999999 6.0784053e-39
0.035466675 -0.0079619214 0.76000005 5.6199453e-39
0.036962878 -0.0079723895 0.76099998 5.068568e-39
0.038412396 -0.0079723895 0.76099998 5.0678449e-39
0.039861917 -0.0079723969 0.76099998 4.9774514e-39
-0.024042841 -0.0065571517 0.76499999 3.5039314e-39
-0.022526681 -0.0065400153 0.76300001 4.9848082e-39
-0.021073353 -0.0065400228 0.76300001 6.4602185e-39
-0.019620009 -0.0065400228 0.76300001 3.3216113e-39
-0.018119054 -0.0065228641 0.76100004 2.7742206e-40
-0.016560003 -0.0064800158 0.75600004 3.7250016e-40
-0.015120006 -0.0064800307 0.75600004 3.7429383e-40
-0.013661895 -0.0064714327 0.755 3.7500989e-40
-0.012223796 -0.0064714327 0.755 4.6756986e-40
-0.010757142 -0.0064543039 0.75300002 5.6048856e-40
-0.0093104886 -0.0064457282 0.75200003 6.5304432e-40
-0.0078781033 -0.0064457282 0.75200003 8.3707545e-40
-0.0064457171 -0.0064457208 0.75200003 1.0211108e-39
-0.0050133518 -0.0064457282 0.75200003 7.4632736e-40
-0.0035809665 -0.0064457357 0.75200003 3.7970564e-40
-0.0021371427 -0.0064114407 0.74799997 4.7118381e-40
-0.00071237568 -0.0064114407 0.74799997 5.630207e-40
0.00071237743 -0.0064114407 0.74799997 5.6338084e-40
0.0021371306 -0.0064114332 0.74800003 5.6481577e-40
0.0035619126 -0.0064114407 0.74800003 6.5557507e-40
0.0049866657 -0.0064114407 0.74800003 7.4705183e-40
0.0064114393 -0.0064114332 0.74799997 9.3251648e-40
0.0078361919 -0.0064114407 0.74799997 1.1179783e-39
0.009260973 -0.0064114258 0.74799997 1.4845987e-39
0.010685726 -0.0064114258 0.74799997 1.9434118e-39
0.012110479 -0.0064114332 0.74799997 2.3979187e-39
0.013535232 -0.0064114407 0.74799997 2.9554253e-39
0.014960013 -0.0064114481 0.74799997 8.8612734e-39
0.016384767 -0.0064114332 0.74799997 1.4741188e-38
0.017857151 -0.0064285919 0.75 1.3425646e-38
0.01928574 -0.006428577 0.75 1.2214561e-38
0.020769523 -0.0064457357 0.75200003 1.2399303e-38
0.022201922 -0.0064457208 0.75200003 1.2585472e-38
0.023665702 -0.0064543113 0.75300002 1.2309236e-38
0.025166681 -0.0064714253 0.755 1.1942604e-38
0.026604773 -0.0064714327 0.75500005 1.1574538e-38
0.028042858 -0.0064714253 0.755 1.1298679e-38
0.029520007 -0.0064800233 0.75600004 9.0989378e-39
0.030959995 -0.0064800233 0.75600004 6.900983e-39
0.032485712 -0.0064971521 0.75800002 6.4450313e-39
0.034019053 -0.0065142959 0.75999999 6.0791256e-39
0.035513345 -0.0065228716 0.76100004 5.6195908e-39
0.036962885 -0.0065228641 0.76099998 5.1593315e-39
0.038513321 -0.0065400153 0.76300001 4.9767311e-39
-0.024042854 -0.0051000044 0.76499999 3.1401445e-39
-0.022526668 -0.0050866827 0.76300001 2.5794556e-39
-0.02107334 -0.0050866827 0.76300001 1.9408881e-39
-0.019568566 -0.0050733387 0.76100004 1.1975707e-39
-0.018095251 -0.0050666854 0.76000005 4.6324405e-40
-0.01656002 -0.0050400272 0.75600004 3.7284348e-40
-0.015120003 -0.0050400272 0.75600004 1.9025569e-40
-0.013661885 -0.005033344 0.755 2.8317299e-40
-0.012191443 -0.0050200224 0.75300002 3.7573436e-40
-0.010742881 -0.0050133467 0.75200003 5.6013263e-40
-0.009310496 -0.0050133467 0.75200003 6.5268699e-40
-0.0078781117 -0.0050133541 0.75200003 1.0203891e-39
-0.0064457259 -0.0050133392 0.75200003 1.296976e-39
-0.0050133406 -0.0050133392 0.75200003 8.3888032e-40
-0.0035809758 -0.0050133541 0.75200003 3.7898397e-40
-0.0021371287 -0.0049866736 0.74799997 4.7153553e-40
-0.00071237568 -0.0049866661 0.74799997 4.71181e-40
0.00071237743 -0.0049866736 0.74799997 5.6337803e-40
0.0021371585 -0.004986681 0.74799997 6.5557366e-40
0.0035619116 -0.004986681 0.74799997 8.3960479e-40
0.0049866647 -0.004986681 0.74799997 9.3144029e-40
0.0064114179 -0.0049866736 0.74800003 1.1165462e-39
0.0078361984 -0.004986681 0.74800003 1.2090978e-39
0.0092609515 -0.004986681 0.74800003 1.5764398e-39
0.010685725 -0.0049866736 0.74799997 1.939114e-39
0.012110478 -0.004986681 0.74799997 3.2194272e-39
0.013535259 -0.0049866736 0.74799997 4.5299187e-39
0.014960012 -0.0049866736 0.74799997 9.7025233e-39
0.016428558 -0.0050000325 0.75000006 1.4728277e-38
0.017857149 -0.005000025 0.75000006 1.3502045e-38
0.019285711 -0.0050000176 0.75000006 1.2307106e-38
0.020769514 -0.0050133616 0.75200003 1.2491135e-38
0.022231421 -0.0050200224 0.75299996 1.2584037e-38
0.023665706 -0.0050200298 0.75300002 1.2308519e-38
0.025166703 -0.0050333291 0.755 1.1941533e-38
0.026604768 -0.0050333366 0.755 1.1574547e-38
0.028042881 -0.0050333366 0.755 1.1208644e-38
0.029520011 -0.0050400272 0.75600004 9.1907789e-39
0.031041915 -0.0050533488 0.75800002 7.0850057e-39
0.032485738 -0.0050533488 0.75799996 6.5386422e-39
0.034019053 -0.0050666779 0.75999999 5.9869272e-39
0.035513323 -0.0050733462 0.76100004 5.6192419e-39
0.036962844 -0.0050733462 0.76100004 5.2522488e-39
0.038513318 -0.0050866827 0.76300001 4.9774514e-39
-0.024042834 -0.0036428496 0.76499999 6.8242955e-39
-0.022526668 -0.0036333427 0.76299995 5.4377821e-39
-0.021073325 -0.0036333501 0.76299995 4.0466277e-39
-0.019619996 -0.0036333501 0.76299995 2.1170145e-39
-0.018095253 -0.0036190599 0.76000005 2.8100799e-40
-0.016559999 -0.0036000162 0.75600004 2.813513e-40
-0.015119997 -0.0036000162 0.75599998 2.8208278e-40
-0.01366189 -0.0035952404 0.755 3.7500709e-40
-0.012223796 -0.003595233 0.755 4.6792999e-40
-0.010742857 -0.0035809651 0.75200003 5.6013403e-40
-0.0093104914 -0.00358098 0.75200003 6.5232966e-40
-0.0078781052 -0.0035809726 0.75200003 7.4524275e-40
-0.0064457194 -0.0035809577 0.75200003 9.2999415e-40
-0.0050133341 -0.0035809577 0.75200003 6.53773e-40
-0.0035809488 -0.0035809651 0.75200003 4.6866287e-40
-0.0021371306 -0.0035619065 0.74799997 4.700936e-40
-0.00071237754 -0.003561914 0.74799997 5.6265216e-40
0.0007124035 -0.0035619214 0.74799997 6.5449326e-40
0.0021371567 -0.0035619065 0.74799997 7.4597283e-40
0.0035619107 -0.003561914 0.74799997 8.3852719e-40
0.0049866638 -0.003561914 0.74799997 9.3036409e-40
0.0064114449 -0.0035619214 0.74799997 1.0239932e-39
0.0078361975 -0.0035619214 0.74799997 1.2094593e-39
0.0092609506 -0.003561914 0.74799997 1.1151141e-39
0.010685704 -0.0035619214 0.74800003 1.0164627e-39
0.012110485 -0.0035619214 0.74800003 3.6868653e-39
0.013535238 -0.0035619214 0.74800003 6.2834181e-39
0.014960011 -0.0035619214 0.74799997 1.0331044e-38
0.016428579 -0.0035714433 0.75 1.4263007e-38
0.01785717 -0.0035714433 0.75 1.3232265e-38
0.019285731 -0.0035714507 0.75 1.2306381e-38
0.020714274 -0.0035714582 0.75000006 1.2398938e-38
0.022231422 -0.0035857409 0.75299996 1.258296e-38
0.023728585 -0.003595233 0.755 1.2399639e-38
0.025166677 -0.0035952404 0.75500005 1.2216328e-38
0.026604764 -0.0035952404 0.755 1.1574556e-38
0.028042877 -0.0035952404 0.755 1.1024981e-38
0.029520016 -0.0036000088 0.75600004 9.0096247e-39
0.031041909 -0.0036095306 0.75799996 7.086435e-39
0.032485712 -0.0036095381 0.75799996 6.5371891e-39
0.034063812 -0.0036238208 0.76099998 6.078041e-39
0.03551333 -0.0036238283 0.76100004 5.6192503e-39
0.036962852 -0.0036238208 0.76100004 5.2533306e-39
0.038513329 -0.0036333501 0.76300001 5.0692883e-39
-0.022585696 -0.0021857172 0.76499999 8.3008871e-39
-0.021128556 -0.0021857098 0.76499999 6.0810286e-39
-0.019620014 -0.002180025 0.76300001 3.1268462e-39
-0.018166685 -0.0021800175 0.76300001 9.6265001e-41
-0.016603794 -0.0021657199 0.75799996 2.8100378e-40
-0.015160003 -0.0021657273 0.75799996 3.7392528e-40
-0.013679995 -0.0021600202 0.75600004 4.6648805e-40
-0.012223789 -0.0021571368 0.755 5.5940675e-40
-0.010757149 -0.0021514446 0.75300002 5.5977389e-40
-0.0093104793 -0.0021485835 0.75200003 5.6085289e-40
-0.0078781126 -0.0021485984 0.75200003 5.6229203e-40
-0.0064457278 -0.0021485761 0.75200003 5.6229483e-40
-0.0050133425 -0.0021485835 0.75200003 5.6158157e-40
-0.0035809572 -0.0021485835 0.75200003 4.6938874e-40
-0.0021371371 -0.0021371692 0.74800003 5.6122564e-40
-0.00071237009 -0.0021371618 0.74800003 6.5341987e-40
0.00071238301 -0.0021371543 0.74800003 7.456127e-40
0.0021371567 -0.0021371469 0.74799997 8.3780552e-40
0.0035619098 -0.0021371543 0.74799997 8.3816426e-40
0.0049866908 -0.0021371543 0.74799997 8.3852439e-40
0.0064114439 -0.0021371394 0.74799997 1.0236331e-39
0.0078571476 -0.0021428838 0.75000006 1.2083845e-39
0.0092609497 -0.0021371543 0.74799997 6.580932e-40
0.010714272 -0.0021428764 0.75000006 9.8837785e-41
0.012110484 -0.0021371469 0.74799997 4.0441866e-39
0.013535237 -0.0021371469 0.74799997 8.0268604e-39
0.01495999 -0.0021371543 0.74800003 1.0982482e-38
0.016428577 -0.0021428764 0.75000006 1.3797363e-38
0.01785714 -0.0021428764 0.75000006 1.3041061e-38
0.019285729 -0.0021428764 0.75000006 1.2214913e-38
0.020714292 -0.0021428689 0.75000006 1.2399312e-38
0.022231424 -0.0021514371 0.75300002 1.2582969e-38
0.023728607 -0.0021571442 0.755 1.2491121e-38
0.025166674 -0.0021571517 0.755 1.2400362e-38
0.026604785 -0.0021571517 0.755 1.157456e-38
0.028042879 -0.0021571591 0.75500005 1.0751989e-38
0.029520003 -0.0021600351 0.75600004 8.9203031e-39
0.031041915 -0.0021657273 0.75799996 6.9949708e-39
0.032571431 -0.0021714494 0.75999999 6.5368541e-39
0.034019046 -0.0021714419 0.76000005 6.0780452e-39
0.035513338 -0.0021742955 0.76100004 5.7103543e-39
0.036962859 -0.0021742955 0.76100004 5.2525963e-39
0.038412377 -0.0021743029 0.76100004 5.2525823e-39
-0.023980001 -0.00072667748 0.76300001 9.5837114e-39
-0.022585707 -0.00072856992 0.76499999 9.1303381e-39
-0.021128556 -0.00072856992 0.76499999 8.6660851e-39
-0.019620001 -0.00072668493 0.76300001 4.3307507e-39
-0.018119035 -0.00072477013 0.76100004 9.3759479e-41
-0.016603803 -0.00072191656 0.75799996 3.7213302e-40
-0.015159998 -0.00072192401 0.75800002 5.5760328e-40
-0.013680012 -0.00072002411 0.75600004 5.5832635e-40
-0.012240008 -0.00072002411 0.75600004 5.5976689e-40
-0.010757146 -0.00071717054 0.75300002 5.5977249e-40
-0.0093228556 -0.00071715564 0.75300002 5.6013683e-40
-0.0078781005 -0.00071620941 0.75200003 5.6121723e-40
-0.0064457362 -0.00071620196 0.75200003 5.619389e-40
-0.0050133509 -0.00071620196 0.75200003 6.5341987e-40
-0.0035809656 -0.00071620196 0.75200003 7.4490364e-40
-0.002137138 -0.00071238726 0.74799997 6.5271642e-40
-0.00071237102 -0.00071239471 0.74799997 6.5270941e-40
0.00071238208 -0.00071239471 0.74799997 6.537786e-40
0.0021371352 -0.00071238726 0.74800003 6.5413313e-40
0.0035714251 -0.00071431696 0.75000006 7.4632315e-40
0.0049866694 -0.00071239471 0.74800003 8.3744539e-40
0.0064114225 -0.00071240216 0.74800003 1.0229142e-39
0.0078361956 -0.00071239471 0.74799997 1.2080272e-39
0.0092609767 -0.00071238726 0.74799997 6.5414995e-40
0.010714292 -0.00071430951 0.75000006 9.4547009e-41
0.012110483 -0.00071238726 0.74799997 4.6128013e-39
0.013535236 -0.00071239471 0.74799997 9.1435958e-39
0.014960018 -0.00071240216 0.74799997 1.1428725e-38
0.016428569 -0.00071430951 0.75 1.3688657e-38
0.01785716 -0.00071430951 0.75 1.3042137e-38
0.019285701 -0.00071430206 0.75000006 1.2490067e-38
0.02076952 -0.00071621686 0.75200009 1.2674476e-38
0.022231428 -0.00071716309 0.75300002 1.2858487e-38
0.023665732 -0.00071716309 0.75299996 1.2491843e-38
0.025166696 -0.00071905553 0.755 1.2217771e-38
0.026604759 -0.00071905553 0.75500005 1.1576717e-38
0.028042872 -0.00071905553 0.755 1.1029292e-38
0.029520003 -0.00072001666 0.75600004 8.8295466e-39
0.031041892 -0.00072190911 0.75800002 6.7219881e-39
0.032571431 -0.00072383136 0.75999999 6.1695346e-39
0.034019046 -0.00072381645 0.76000005 5.5270364e-39
0.035513345 -0.00072477013 0.76100004 5.0667729e-39
0.036962867 -0.00072477013 0.76100004 4.609731e-39
0.038412388 -0.00072477758 0.76100004 4.608638e-39
-0.023980021 0.00072664768 0.76300001 8.7554025e-39
-0.02252668 0.00072664022 0.76300001 9.9697775e-39
-0.02107333 0.00072664768 0.76299995 1.1148166e-38
-0.019568561 0.00072475523 0.76099998 5.6196917e-39
-0.018119041 0.00072474778 0.76099998 9.9503401e-41
-0.016603814 0.0007218942 0.75800002 4.6468038e-40
-0.015159988 0.00072190911 0.75799996 7.4055401e-40
-0.013680006 0.00071997195 0.75600004 6.4872692e-40
-0.012223805 0.00071904063 0.75500005 4.668552e-40
-0.010785706 0.00071904808 0.755 4.67937e-40
-0.0093228528 0.00071712583 0.75300002 4.679412e-40
-0.0078780958 0.00071617216 0.75200003 4.6794541e-40
-0.0064457306 0.00071617216 0.75200009 4.6938454e-40
-0.0050133453 0.00071617216 0.75200003 7.4489523e-40
-0.00358096 0.00071617961 0.75200003 9.2856762e-40
-0.002137139 0.00071236491 0.74799997 7.4418057e-40
-0.00071237196 0.00071237236 0.74799997 5.6158577e-40
0.00071238115 0.00071237236 0.74799997 5.6266197e-40
0.0021428545 0.00071426481 0.75 4.7118381e-40
0.0035714451 0.00071427971 0.75 6.5592959e-40
0.0049866685 0.00071235746 0.74799997 7.4669029e-40
0.0064114216 0.00071236491 0.74800003 9.3108015e-40
0.0078362022 0.00071237236 0.74800003 1.1154686e-39
0.0092609553 0.00071236491 0.74800003 6.5521633e-40
0.010714292 0.00071427226 0.75000006 1.0279225e-40
0.012110482 0.00071237981 0.74799997 5.1684778e-39
0.013535264 0.00071237981 0.74799997 1.0148041e-38
0.015000005 0.00071425736 0.75000006 1.1900089e-38
0.016428569 0.00071426481 0.75000006 1.3606493e-38
0.017857131 0.00071427226 0.75000006 1.3132882e-38
0.019285722 0.00071426481 0.75000006 1.2673717e-38
0.020769531 0.00071617216 0.75200003 1.2857402e-38
0.022231428 0.00071711838 0.75300002 1.3041784e-38
0.023665732 0.00071711093 0.75299996 1.258296e-38
0.025166688 0.00071904808 0.755 1.2034462e-38
0.026604783 0.00071904063 0.75500005 1.1668202e-38
0.028042866 0.00071904063 0.755 1.1212235e-38
0.02951999 0.00071997195 0.75600004 8.8302332e-39
0.031041918 0.00072190166 0.75799996 6.447534e-39
0.032571428 0.00072378665 0.75999999 5.7081879e-39
0.034063835 0.00072474778 0.76099998 4.9727766e-39
0.03551333 0.00072474778 0.76099998 4.4199616e-39
0.036962878 0.00072475523 0.76100004 3.8696577e-39
0.038412396 0.00072475523 0.76100004 4.0551139e-39
-0.023980007 0.0021799803 0.76300001 8.8508309e-39
-0.022526678 0.0021799803 0.76300001 9.6845909e-39
-0.021073336 0.0021799803 0.76300001 1.0602544e-38
-0.019568555 0.0021742731 0.76099998 5.7183585e-39
-0.018119035 0.002174288 0.76099998 8.3168185e-40
-0.016647615 0.0021714196 0.76000005 8.3129789e-40
-0.015159995 0.0021657124 0.75799996 8.323853e-40
-0.013680002 0.0021599904 0.75599998 6.4944298e-40
-0.012240004 0.0021599755 0.75600004 4.6685379e-40
-0.010785698 0.0021571368 0.755 5.5977109e-40
-0.0093228528 0.0021514073 0.75300002 6.5125206e-40
-0.0078885639 0.0021514073 0.75299996 4.6866147e-40
-0.0064457175 0.0021485612 0.75200003 3.7826511e-40
-0.0050133527 0.0021485537 0.75200009 4.701034e-40
-0.0035809674 0.0021485463 0.75200003 6.5305413e-40
-0.0021428601 0.0021428317 0.75000006 6.5340866e-40
-0.00071237289 0.002137132 0.74799997 6.5341566e-40
0.00071238022 0.0021371394 0.74799997 5.6230464e-40
0.0021428536 0.0021428391 0.75000006 5.6338224e-40
0.0035714163 0.0021428391 0.75000006 6.5521773e-40
0.0049866675 0.002137132 0.74799997 8.3816986e-40
0.0064114206 0.002137132 0.74799997 9.3108015e-40
0.0078571578 0.0021428466 0.75000006 1.0247051e-39
0.009285721 0.0021428466 0.75000006 5.6157737e-40
0.010714282 0.0021428466 0.75 9.4895932e-41
0.012142873 0.0021428466 0.75 5.0766409e-39
0.013571435 0.0021428391 0.75 1.0154851e-38
0.014999998 0.002142854 0.75 1.1794969e-38
0.016428588 0.0021428466 0.75 1.3500296e-38
0.017857131 0.0021428391 0.75000006 1.3041031e-38
0.01928572 0.0021428391 0.75000006 1.2674057e-38
0.020769522 0.0021485537 0.75200003 1.2766258e-38
0.022231432 0.0021514073 0.75300002 1.2858458e-38
0.0237286 0.0021571368 0.755 1.2400721e-38
0.025166664 0.0021571293 0.75500005 1.2035541e-38
0.026604777 0.0021571293 0.755 1.1575656e-38
0.028042892 0.0021571442 0.755 1.1208995e-38
0.029519996 0.0021599829 0.75600004 1.0030521e-38
0.031041922 0.002165705 0.75799996 8.8456363e-39
0.032571424 0.0021714121 0.75999999 8.4711267e-39
0.034063816 0.0021742731 0.76099998 8.0922968e-39
0.035606652 0.0021799877 0.76300001 7.4533846e-39
0.037060011 0.0021799803 0.76300001 6.8941208e-39
0.038513336 0.0021799803 0.76300001 6.7172657e-39
-0.023979994 0.0036333129 0.76300001 8.8504582e-39
-0.022526665 0.0036333129 0.76300001 9.4065396e-39
-0.021073336 0.0036333129 0.76300001 9.9571645e-39
-0.019568561 0.0036238134 0.76099998 5.7273212e-39
-0.018119039 0.0036238059 0.76099998 1.4824098e-39
-0.016647616 0.0036190376 0.76000005 1.1957518e-39
-0.015160005 0.0036095157 0.75800002 9.2313339e-40
-0.013680003 0.0035999715 0.75600004 6.4908145e-40
-0.012240001 0.0035999715 0.75600004 3.7537703e-40
-0.010785711 0.0035952255 0.75500005 5.6049136e-40
-0.009347612 0.0035952255 0.755 7.4416515e-40
-0.0078885742 0.0035857037 0.75299996 5.6121583e-40
-0.0064543043 0.0035856888 0.75300002 2.8643101e-40
-0.0050133415 0.0035809427 0.75200003 2.8751141e-40
-0.0035809767 0.0035809278 0.75200009 2.8679255e-40
-0.0021428545 0.003571406 0.75 4.7046074e-40
-0.00071427837 0.0035714209 0.75 6.5413593e-40
0.00071238674 0.0035618916 0.74800003 6.537814e-40
0.0021371399 0.0035618842 0.74800003 5.6302491e-40
0.0035619135 0.0035618991 0.74799997 7.4705743e-40
0.0049866666 0.0035618916 0.74799997 9.3072422e-40
0.0064114477 0.0035618991 0.74799997 9.3072142e-40
0.0078571299 0.0035714135 0.75000006 9.3143468e-40
0.0092609534 0.0035618991 0.74799997 5.6337103e-40
0.010714282 0.0035713986 0.75000006 1.0206778e-40
0.012142844 0.0035713986 0.75000006 5.0712571e-39
0.013571435 0.003571406 0.75000006 1.005369e-38
0.014999998 0.0035714135 0.75000006 1.1807531e-38
0.016428588 0.003571406 0.75000006 1.3422089e-38
0.017857151 0.003571406 0.75000006 1.304102e-38
0.019285712 0.003571406 0.75000006 1.2582214e-38
0.020769514 0.0035809353 0.75200003 1.2582944e-38
0.022231432 0.0035856888 0.75300002 1.2583671e-38
0.023728594 0.0035952404 0.755 1.2309611e-38
0.025166687 0.0035952255 0.755 1.1941901e-38
0.026640011 0.003599979 0.75600004 1.1573115e-38
0.028079981 0.003599979 0.75600004 1.1128663e-38
0.029519999 0.003599979 0.75600004 1.1237377e-38
0.031123808 0.0036190301 0.75999999 1.1240591e-38
0.032571424 0.0036190301 0.76000005 1.1238426e-38
0.03406382 0.0036238059 0.76099998 1.1145147e-38
0.035606679 0.0036333203 0.76299995 1.0590179e-38
0.037060007 0.0036333203 0.76299995 9.9458826e-39
0.038513336 0.0036333203 0.76299995 9.2962042e-39
-0.022585694 0.0051000118 0.76499999 7.8435075e-39
-0.021073354 0.005086638 0.76300001 9.8674603e-39
-0.019671425 0.0050999969 0.76500005 5.3527976e-39
-0.018166684 0.0050866455 0.76300001 8.3739634e-40
-0.016647618 0.0050666556 0.76000005 6.4723173e-40
-0.015159994 0.0050533265 0.75799996 5.557816e-40
-0.013679999 0.0050399825 0.75600004 4.6540625e-40
-0.012240016 0.005039975 0.75600004 3.7573436e-40
-0.010799998 0.005039975 0.75600004 5.6013403e-40
-0.0093476037 0.0050333366 0.755 7.4416656e-40
-0.0078885723 0.0050199777 0.75299996 5.6121583e-40
-0.0064543025 0.0050199702 0.75300002 4.6974467e-40
-0.005013335 0.0050133243 0.75200003 3.7899098e-40
-0.0035809497 0.0050133169 0.75200003 3.7934971e-40
-0.0021428554 0.0049999878 0.75000006 5.630193e-40
-0.00071428024 0.0049999878 0.75000006 7.4633296e-40
0.00071428291 0.0049999803 0.75000006 6.5449887e-40
0.0021428443 0.0049999803 0.75000006 5.6302631e-40
0.0035714349 0.0049999803 0.75000006 6.5558347e-40
0.0049999976 0.0049999878 0.75000006 6.5557927e-40
0.0064285873 0.0049999878 0.75000006 8.3924466e-40
0.0078571504 0.0049999803 0.75000006 1.0232702e-39
0.0092857117 0.0049999878 0.75 5.6121723e-40
0.010714302 0.0049999803 0.75 9.6326658e-41
0.012142864 0.0049999952 0.75 4.5205987e-39
0.013571427 0.0049999878 0.75 8.9566878e-39
0.015000016 0.0049999878 0.75 1.1335445e-38
0.016428558 0.0049999729 0.75000006 1.3594638e-38
0.017857149 0.0049999729 0.75000006 1.2949891e-38
0.019337134 0.0050133094 0.75200009 1.2398177e-38
0.020769505 0.0050133169 0.75200003 1.2582583e-38
0.022231435 0.0050199702 0.75300002 1.2766986e-38
0.023728568 0.0050333217 0.75500005 1.2400377e-38
0.025166681 0.0050333217 0.755 1.1941532e-38
0.026639996 0.0050399676 0.75600004 1.167389e-38
0.028080015 0.0050399676 0.75600004 1.1413521e-38
0.029519983 0.005039975 0.75600004 1.2069356e-38
0.031123808 0.0050666556 0.75999999 1.2722215e-38
0.03257142 0.0050666481 0.76000005 1.364233e-38
0.034063831 0.0050733313 0.76099998 1.456821e-38
0.03560666 0.0050866455 0.76300001 1.4101848e-38
0.037059989 0.0050866455 0.76300001 1.3736991e-38
0.038715251 0.0051133186 0.76699996 1.3362806e-38
-0.022585705 0.0065571442 0.76499999 6.28266e-39
-0.021128554 0.0065571442 0.76499999 9.7709543e-39
-0.019671416 0.0065571442 0.76499999 4.9793473e-39
-0.018166669 0.0065399781 0.76300001 1.0056699e-40
-0.016669519 0.0065228567 0.76099998 9.2295122e-41
-0.015200007 0.0065142661 0.76000005 9.5181797e-41
-0.013716196 0.0064971372 0.75800002 1.8882777e-40
-0.01227237 0.0064971372 0.75799996 2.831814e-40
-0.010828578 0.0064971298 0.75800002 5.5941236e-40
-0.0093847504 0.0064971372 0.75799996 7.4416235e-40
-0.0079409452 0.0064971298 0.75799996 6.5340726e-40
-0.0064543006 0.0064542592 0.75300002 5.619333e-40
-0.0050200108 0.0064542592 0.75300002 5.630137e-40
-0.0035809581 0.0064456984 0.75200003 4.7153833e-40
-0.0021428489 0.0064285621 0.75 6.5592959e-40
-0.00071428769 0.0064285547 0.75 7.4704903e-40
0.0007143034 0.0064285547 0.75 6.5521493e-40
0.0021428647 0.0064285547 0.75 5.640997e-40
0.0035714344 0.0064285547 0.75000006 4.7226701e-40
0.0049999962 0.0064285472 0.75000006 3.8006577e-40
0.0064285588 0.0064285547 0.75000006 7.4668329e-40
0.0078571485 0.0064285472 0.75000006 1.1140281e-39
0.0092857108 0.0064285472 0.75000006 6.5341987e-40
0.010714273 0.0064285547 0.75000006 9.9909778e-41
0.012142863 0.0064285547 0.75000006 3.9577335e-39
0.013571425 0.0064285547 0.75000006 7.8442586e-39
0.015000016 0.0064285547 0.75000006 1.089135e-38
0.016428579 0.0064285472 0.75000006 1.3796256e-38
0.01785714 0.0064285621 0.75000006 1.2949181e-38
0.019337146 0.0064456984 0.75200003 1.2122665e-38
0.020797132 0.0064542666 0.75300002 1.2581847e-38
0.022231435 0.0064542666 0.75300002 1.2949918e-38
0.023665713 0.0064542741 0.75300002 1.2490753e-38
0.025166677 0.0064714253 0.755 1.1944071e-38
0.02660477 0.0064714253 0.75500005 1.1859077e-38
0.02808 0.0064799786 0.75600004 1.1697338e-38
0.029519988 0.0064799786 0.75600004 1.2904521e-38
0.031123832 0.0065142736 0.76000005 1.410338e-38
0.032571416 0.0065142661 0.76000005 1.6040151e-38
0.034063816 0.0065228418 0.76100004 1.7968692e-38
0.03560666 0.0065399855 0.76300001 1.7694976e-38
0.037059989 0.0065399855 0.76300001 1.741695e-38
0.038513321 0.0065399706 0.76300001 1.7511288e-38
-0.021128569 0.0080142915 0.76499999 1.0790825e-38
-0.019671418 0.0080142841 0.76499999 8.201472e-39
-0.01811903 0.007972382 0.76099998 5.6056801e-39
-0.016647624 0.0079618841 0.76000005 4.6962893e-39
-0.015200009 0.0079618916 0.76000005 3.6767802e-39
-0.013716185 0.007940948 0.75799996 1.936935e-39
-0.012272378 0.0079409406 0.75800002 2.8389886e-40
-0.010828551 0.007940948 0.75799996 4.6792999e-40
-0.0093599902 0.0079199821 0.75600004 6.5268138e-40
-0.0079095075 0.0079095215 0.755 6.5304432e-40
-0.0064714071 0.0079095215 0.755 7.4452389e-40
-0.005020008 0.0078885481 0.75300002 5.6264796e-40
-0.003585719 0.0078885406 0.75300002 4.7153413e-40
-0.0021428647 0.0078571215 0.75000006 5.6373256e-40
-0.00071428862 0.0078571141 0.75000006 7.4704763e-40
0.0007142736 0.0078571215 0.75000006 7.4776649e-40
0.0021428638 0.007857129 0.75000006 8.4067959e-40
0.0035714256 0.007857129 0.75000006 7.4812803e-40
0.0050000162 0.0078571215 0.75000006 5.6337243e-40
0.0064285779 0.0078571215 0.75 9.3106334e-40
0.0078571402 0.0078571215 0.75 1.390252e-39
0.0092857303 0.0078571364 0.75 1.1133218e-39
0.010714293 0.007857129 0.75 9.2714391e-40
0.012142855 0.0078571215 0.75 3.4145972e-39
0.013571424 0.0078571066 0.75000006 5.8267476e-39
0.014999988 0.0078571215 0.75000006 9.9633232e-39
0.016472368 0.0078780875 0.75200003 1.4076796e-38
0.017904766 0.00787808 0.75200003 1.3047839e-38
0.019337138 0.00787808 0.75200003 1.212266e-38
0.020797135 0.0078885481 0.75300002 1.2398156e-38
0.022290474 0.007909514 0.755 1.2765867e-38
0.023728585 0.0079095215 0.755 1.2492162e-38
0.025166677 0.0079095066 0.75500005 1.2219247e-38
0.026639987 0.0079199672 0.75600004 1.2244795e-38
0.028080005 0.0079199746 0.75600004 1.2265629e-38
0.029520024 0.0079199895 0.75600004 1.262905e-38
0.03112383 0.0079618916 0.76000005 1.3001757e-38
0.032699984 0.0079933107 0.76300001 1.5118979e-38
0.034153331 0.0079933181 0.76299995 1.7235143e-38
0.035700042 0.0080142915 0.76499999 1.7050038e-38
0.037157156 0.0080142841 0.76500005 1.6867455e-38
-0.019671429 0.0094714314 0.76500005 1.1521595e-38
-0.018119058 0.009421885 0.76100004 1.1147074e-38
-0.016647624 0.0094094947 0.76000005 9.2271356e-39
-0.015200011 0.0094095096 0.76000005 7.2795535e-39
-0.013716195 0.0093847513 0.75799996 3.7811727e-39
-0.012272368 0.0093847588 0.75799996 1.934955e-40
-0.010828563 0.0093847588 0.75799996 3.7573716e-40
-0.009384769 0.0093847662 0.75800002 4.6865026e-40
-0.0079200016 0.0093599856 0.75600004 7.4523575e-40
-0.0064714197 0.0093476102 0.75500005 9.2891094e-40
-0.0050333203 0.0093476102 0.755 6.5448626e-40
-0.0035857172 0.009322837 0.75300002 3.7970144e-40
-0.0021485747 0.0093104616 0.75200003 5.6337663e-40
-0.00071426906 0.0092856959 0.75 6.5557366e-40
0.0007142736 0.0092856959 0.75000006 9.3108155e-40
0.0021428638 0.0092856884 0.75000006 1.11547e-39
0.0035714251 0.0092856884 0.75000006 9.3251648e-40
0.0049999878 0.0092856884 0.75000006 7.4811962e-40
0.0064285775 0.0092856884 0.75000006 1.2072887e-39
0.0078571402 0.0092856959 0.75000006 1.5742804e-39
0.0092857014 0.0092856959 0.75000006 1.666483e-39
0.010714293 0.0092856884 0.75000006 1.7558032e-39
0.012142854 0.0092856959 0.75000006 2.7627608e-39
0.013571445 0.0092856884 0.75000006 3.7952347e-39
0.015000006 0.0092856959 0.75000006 9.0582413e-39
0.01647236 0.0093104616 0.75200003 1.4266583e-38
0.017904758 0.0093104616 0.75200003 1.3133971e-38
0.019362854 0.009322837 0.75299996 1.2031207e-38
0.020797137 0.0093228221 0.75300002 1.2306333e-38
0.022290496 0.0093476102 0.755 1.2492195e-38
0.023728579 0.0093476176 0.755 1.2492951e-38
0.025199996 0.0093599781 0.75599998 1.2517054e-38
0.026639992 0.0093599856 0.75600004 1.2635145e-38
0.028080009 0.009359993 0.75600004 1.2719076e-38
0.029520007 0.0093599781 0.75600004 1.2251995e-38
0.031164769 0.0094218999 0.76099998 1.1802861e-38
0.032699984 0.0094466507 0.76300001 1.4106639e-38
0.034242872 0.0094714314 0.76499999 1.6404317e-38
0.035700012 0.0094714314 0.76499999 1.6310685e-38
0.037254281 0.0094961822 0.76700002 1.6220655e-38
-0.019671408 0.010928571 0.76499999 7.5716472e-39
-0.018166674 0.010899983 0.76300001 7.5809714e-39
-0.016647628 0.01085712 0.76000005 6.5603735e-39
-0.015200014 0.010857128 0.76000005 5.5451076e-39
-0.013716203 0.010828555 0.75800002 2.9560811e-39
-0.012272376 0.010828562 0.75799996 4.6612932e-40
-0.01082857 0.01082857 0.75800002 4.6757266e-40
-0.0093600014 0.010799974 0.75600004 4.6829153e-40
-0.0079200184 0.010799974 0.75600004 5.6084449e-40
-0.0064714248 0.010785706 0.755 6.5340445e-40
-0.005040017 0.010799982 0.75600004 5.6229343e-40
-0.0035952325 0.010785714 0.75500005 4.7153974e-40
-0.0021485831 0.010742843 0.75200003 5.6337944e-40
-0.0007162118 0.010742843 0.75200003 6.559352e-40
0.00071429223 0.010714278 0.75000006 7.4741336e-40
0.0021428545 0.01071427 0.75000006 8.3924746e-40
0.0035714451 0.01071427 0.75000006 7.4848676e-40
0.0050000069 0.010714263 0.75 7.4883708e-40
0.0064285696 0.010714278 0.75 1.0236177e-39
0.0078571588 0.010714278 0.75 1.2987711e-39
0.0092857219 0.01071427 0.75 1.3913296e-39
0.010714283 0.01071427 0.75 1.5749894e-39
0.012142854 0.01071427 0.75000006 1.7561367e-39
0.013571415 0.01071427 0.75000006 2.0327726e-39
0.015039999 0.010742851 0.75200003 7.6613359e-39
0.016472371 0.010742858 0.75200003 1.335865e-38
0.01792858 0.010757126 0.75300002 1.2783167e-38
0.019362858 0.010757118 0.75299996 1.2214543e-38
0.020797139 0.010757126 0.75300002 1.2587591e-38
0.022290489 0.010785714 0.755 1.2953925e-38
0.02376001 0.010799982 0.75600004 1.2976594e-38
0.025200007 0.010799974 0.75600004 1.299638e-38
0.026639996 0.010799974 0.75600004 9.6842602e-39
0.028154274 0.010828555 0.75800002 6.4681751e-39
0.029598104 0.01082857 0.75799996 9.1299205e-39
0.031123824 0.010857135 0.76000005 1.1799261e-38
0.032700013 0.010899983 0.76300001 1.4104129e-38
0.034153342 0.010899983 0.76300001 1.6402881e-38
0.035700012 0.010928579 0.76500005 1.631068e-38
0.037254278 0.010957122 0.76700002 1.6126661e-38
-0.022644771 0.012418084 0.76700002 3.4149237e-39
-0.021128561 0.012385719 0.76499999 3.2384456e-39
-0.019671423 0.012385711 0.76499999 3.6090358e-39
-0.018166659 0.012353316 0.76299995 3.8856185e-39
-0.016669521 0.012320943 0.76100004 3.8881296e-39
-0.015219982 0.012320943 0.76099998 3.7858558e-39
-0.013716177 0.012272373 0.75799996 2.2156491e-39
-0.012272385 0.01227238 0.75800002 6.5158697e-40
-0.010828558 0.012272388 0.75799996 5.5976268e-40
-0.0093847513 0.01227238 0.75799996 4.6829012e-40
-0.0079199998 0.012239978 0.75600004 4.6865306e-40
-0.0064800163 0.01223997 0.75600004 3.7790077e-40
-0.0050399983 0.01223997 0.75600004 4.6974327e-40
-0.0036000148 0.01223997 0.75600004 4.7010621e-40
-0.0021485914 0.012175225 0.75200003 5.6194591e-40
-0.00071619224 0.012175225 0.75200003 6.5522054e-40
0.00071617909 0.012175232 0.75200003 6.5522614e-40
0.0021485789 0.012175232 0.75200003 5.6481997e-40
0.0035809502 0.012175232 0.75200003 6.5701e-40
0.0050000069 0.012142837 0.75000006 6.5699738e-40
0.0064285686 0.012142837 0.75000006 8.399383e-40
0.0078571308 0.01214283 0.75000006 1.0239764e-39
0.0092857201 0.012142822 0.75000006 1.2083747e-39
0.010714283 0.012142844 0.75000006 1.2994843e-39
0.012142872 0.012142844 0.75000006 7.4595181e-40
0.013571436 0.012142844 0.75000006 2.0143665e-40
0.014999998 0.012142837 0.75000006 6.287374e-39
0.01647239 0.012175225 0.75200003 1.2344889e-38
0.017928582 0.012191415 0.75300002 1.2333727e-38
0.019362858 0.012191415 0.75300002 1.2324389e-38
0.020797143 0.0121914 0.75300002 1.2875032e-38
0.022290513 0.012223803 0.755 1.3348234e-38
0.023759993 0.01223997 0.75600004 1.3370868e-38
0.025200011 0.01223997 0.75600004 1.3356894e-38
0.026710475 0.012272373 0.75800002 6.821165e-39
0.028154302 0.01227238 0.75799996 2.0789804e-40
0.029598108 0.012272373 0.75799996 6.0003166e-39
0.031164782 0.012320943 0.76099998 1.1706695e-38
0.032699991 0.012353316 0.76300001 1.4107356e-38
0.034242868 0.012385719 0.76499999 1.6402166e-38
0.035700034 0.012385711 0.76499999 1.6218851e-38
0.037302878 0.012434274 0.76799995 1.6035186e-38
-0.02258569 0.013842858 0.76499999 4.8864118e-39
-0.021128554 0.013842858 0.76499999 4.9667763e-39
-0.019671401 0.013842858 0.76499999 3.5010027e-39
-0.018166678 0.013806641 0.76300001 2.1166585e-39
-0.016669527 0.013770469 0.76100004 2.1231199e-39
-0.015219987 0.013770469 0.76099998 2.2084814e-39
-0.013752383 0.013752379 0.76000005 1.384815e-39
-0.012272373 0.013716199 0.75799996 4.6683277e-40
-0.010828567 0.013716191 0.75799996 5.5975848e-40
-0.0093847616 0.013716184 0.75800002 6.5231985e-40
-0.0079199942 0.013679974 0.75600004 5.6120882e-40
-0.0064800107 0.013679966 0.75600004 4.700978e-40
-0.0050399932 0.013679981 0.75600004 4.6974467e-40
-0.0036000102 0.013679974 0.75600004 4.6939014e-40
-0.0021485793 0.013607614 0.75200003 6.5414154e-40
-0.00071620062 0.013607599 0.75200003 9.3108996e-40
0.0007161707 0.013607614 0.75200003 8.4033767e-40
0.0021485705 0.013607614 0.75200003 7.499287e-40
0.0035809414 0.013607614 0.75200003 6.5772606e-40
0.0050133406 0.013607606 0.75200003 4.7403825e-40
0.0064285886 0.013571411 0.75 7.4845173e-40
0.0078571504 0.013571411 0.75 9.3249546e-40
0.0092857117 0.013571419 0.75 1.0247023e-39
0.010742861 0.013607614 0.75200003 1.2090852e-39
0.012142844 0.013571404 0.75000006 6.5376179e-40
0.013571435 0.013571404 0.75000006 1.8887541e-40
0.015039983 0.013607606 0.75200003 4.6181753e-39
0.01649428 0.013625696 0.75300002 9.1342519e-39
0.017928556 0.013625696 0.75300002 1.1423675e-38
0.019362861 0.013625696 0.75300002 1.3618411e-38
0.020852394 0.013661899 0.755 1.2340616e-38
0.022290487 0.013661891 0.75500005 1.1162179e-38
0.02376 0.013679989 0.75600004 9.0402753e-39
0.025199996 0.013679974 0.75600004 6.9230156e-39
0.026710501 0.013716191 0.75799996 3.597185e-39
0.02815428 0.013716184 0.75799996 2.7673823e-40
0.029676205 0.013752364 0.76000005 5.3506284e-39
0.031164763 0.013770483 0.76099998 1.0419194e-38
0.032699991 0.013806649 0.76300001 1.1712816e-38
0.034242868 0.013842851 0.76499999 1.3002462e-38
0.035793334 0.013879031 0.76699996 1.3092505e-38
0.037302878 0.013897136 0.76799995 1.3278689e-38
-0.022585705 0.015299991 0.76499999 6.3658607e-39
-0.021128552 0.015300006 0.76499999 6.7231428e-39
-0.019671414 0.015300006 0.76499999 3.4948958e-39
-0.01816668 0.015259981 0.76300001 2.7958567e-40
-0.016669521 0.015219994 0.76100004 4.6326507e-40
-0.01522 0.015219994 0.76100004 6.4800105e-40
-0.013752387 0.015199989 0.76000005 4.6503771e-40
-0.012272383 0.015159994 0.75799996 2.8352892e-40
-0.010828576 0.015159987 0.75800002 5.6012002e-40
-0.0093847504 0.015159987 0.75799996 7.4487421e-40
-0.0079409434 0.015159994 0.75799996 6.5412052e-40
-0.0064971512 0.015159987 0.75800002 4.70095e-40
-0.005040009 0.015119977 0.75600004 4.6973907e-40
-0.0036000055 0.015119977 0.75600004 4.7046214e-40
-0.0021485738 0.015039988 0.75200003 8.3816846e-40
-0.00071618852 0.015039995 0.75200003 1.1151155e-39
0.00071616232 0.01503998 0.75200003 1.0250793e-39
0.0021485616 0.015039995 0.75200003 9.3287802e-40
0.0035857204 0.015059978 0.75300002 6.5772466e-40
0.0050133322 0.015039988 0.75200003 2.8929667e-40
0.0064457045 0.015039988 0.75200003 5.6407588e-40
0.0078780828 0.015039973 0.75200003 8.3995231e-40
0.0093228593 0.015059978 0.75300002 9.3215775e-40
0.010742853 0.015039995 0.75200003 1.0243478e-39
0.012191418 0.01505997 0.75300002 5.6337383e-40
0.013607624 0.015039988 0.75200003 1.0277403e-40
0.015059998 0.015059985 0.75299996 3.0458273e-39
0.016494283 0.01505997 0.75300002 5.9099763e-39
0.017928557 0.01505997 0.75300002 1.0425012e-38
0.019414304 0.015099987 0.755 1.4921707e-38
0.020852417 0.015099987 0.755 1.1890404e-38
0.022319986 0.015119977 0.75600004 8.8494184e-39
0.023760004 0.015119985 0.75599998 4.7049717e-39
0.0252 0.015119977 0.75600004 4.7405367e-40
0.026710479 0.015159987 0.75799996 4.6003648e-40
0.028154282 0.015159979 0.75800002 3.7394771e-40
0.029676201 0.015199982 0.76000005 4.7982015e-39
0.031164771 0.015220001 0.76099998 9.1302807e-39
0.032699991 0.015259981 0.76299995 9.4137073e-39
0.034242868 0.015300006 0.76500005 9.5977342e-39
0.035793331 0.015339993 0.76699996 1.005368e-38
0.037254304 0.015339993 0.76699996 1.0424254e-38
-0.022644779 0.01680094 0.76700002 7.1945676e-39
-0.021128567 0.016757138 0.76500005 8.2072327e-39
-0.019671414 0.016757146 0.76499999 4.4254393e-39
-0.018166665 0.016713314 0.76299995 6.4584725e-40
-0.016669527 0.016669519 0.76100004 6.4693466e-40
-0.015220008 0.016669519 0.76100004 7.4127848e-40
-0.013752374 0.0166476 0.76000005 5.5832075e-40
-0.012304758 0.016647607 0.76000005 3.7644762e-40
-0.010857143 0.016647607 0.76000005 5.6084028e-40
-0.0093847578 0.016603805 0.75799996 7.4487561e-40
-0.0079409527 0.016603798 0.75800002 6.5340305e-40
-0.0064971386 0.016603805 0.75799996 5.6192769e-40
-0.0050400025 0.016559988 0.75600004 4.7045093e-40
-0.0036000065 0.016559973 0.75600004 4.711754e-40
-0.0021514292 0.016494274 0.75300002 7.4668889e-40
-0.00071714033 0.016494274 0.75299996 1.1143938e-39
0.000717143 0.016494259 0.75300002 9.3180182e-40
0.0021514189 0.016494259 0.75300002 8.3924466e-40
0.0035857228 0.016494274 0.75300002 6.5592819e-40
0.0050199986 0.016494274 0.75299996 4.7081947e-40
0.0064457241 0.016472369 0.75200003 6.5520512e-40
0.0078885583 0.016494259 0.75300002 8.3960339e-40
0.0093228612 0.016494259 0.75300002 9.3252489e-40
0.010757117 0.016494267 0.75300002 1.0250765e-39
0.01219142 0.016494267 0.75300002 6.5629673e-40
0.013625724 0.016494267 0.75300002 2.8679815e-40
0.015060001 0.016494267 0.75299996 1.6679123e-39
0.016494285 0.016494267 0.75300002 3.055195e-39
0.017976213 0.016538091 0.755 7.6642534e-39
0.0194143 0.016538091 0.755 1.2273926e-38
0.020880003 0.016559973 0.75600004 1.0511791e-38
0.022319993 0.016559988 0.75600004 8.7414259e-39
0.023759989 0.016559981 0.75600004 4.5101562e-39
0.025200007 0.016559981 0.75600004 3.6855831e-40
