# .PCD v0.7 - Point Cloud Data file format
VERSION 0.7
FIELDS x y z rgb
SIZE 4 4 4 4
TYPE F F F F
COUNT 1 1 1 1
WIDTH 951
HEIGHT 1
VIEWPOINT 0 0 0 1 0 0 0
POINTS 951
DATA ascii
-0.0077419654 -0.038709529 0.73899996 1.0861044e-40
-0.0063343318 -0.038709514 0.73900002 1.1112577e-40
-0.0049266983 -0.038709529 0.73900002 9.2477291e-41
-0.0035191039 -0.038709529 0.73899996 1.0969925e-40
-0.002102877 -0.038552396 0.73600006 9.2484297e-41
-0.00070191646 -0.038604759 0.73700005 1.1364951e-40
0.00070184929 -0.038604759 0.73699999 9.2485699e-41
0.0021056728 -0.038604774 0.73700005 1.1616064e-40
0.0035094982 -0.038604759 0.73700005 9.2725321e-40
0.0049132863 -0.038604759 0.73699999 1.6773613e-39
0.0063171098 -0.038604759 0.73700005 2.7589381e-39
0.0077209361 -0.038604759 0.73700005 3.7845386e-39
0.0091247214 -0.038604759 0.73699999 1.9392023e-39
0.010528548 -0.038604774 0.73700005 1.0750762e-40
0.011916176 -0.038552396 0.73600006 1.6712138e-39
0.013318079 -0.038552396 0.73600006 3.2342095e-39
0.01471998 -0.038552381 0.73600006 2.7761068e-39
0.016143769 -0.038604759 0.73699999 2.3169251e-39
0.017547594 -0.038604759 0.73699999 2.1339674e-39
0.018951418 -0.038604744 0.73700005 1.9488558e-39
0.020410435 -0.038709529 0.73900002 1.7641044e-39
0.021818029 -0.038709514 0.73899996 1.5779041e-39
0.023257066 -0.038761891 0.73999995 2.4958835e-39
0.024733316 -0.038866676 0.74200004 3.3230672e-39
0.026146658 -0.038866676 0.74200004 4.0598517e-39
0.02759712 -0.038919054 0.74300003 4.7037638e-39
0.029012369 -0.038919054 0.74300003 5.3483947e-39
0.03050952 -0.039023809 0.74500006 5.9897942e-39
-0.022231476 -0.038008563 0.75300002 6.5340445e-40
-0.020769544 -0.037958093 0.75200003 5.6229763e-40
-0.019285737 -0.037857138 0.75000006 4.7083208e-40
-0.017857162 -0.037857138 0.75000006 3.8224059e-40
-0.016362898 -0.037705697 0.74699998 4.730153e-40
-0.014900054 -0.037604772 0.745 5.6737874e-40
-0.01344478 -0.037503816 0.74300003 8.4146712e-40
-0.012013352 -0.037453331 0.74200004 1.0269402e-39
-0.010571503 -0.037352391 0.73999995 1.2142055e-39
-0.0091619482 -0.037352391 0.74000001 1.3046425e-39
-0.007741957 -0.037301905 0.73899996 2.4167494e-39
-0.0063343467 -0.037301905 0.73899996 3.5259626e-39
-0.004926715 -0.03730192 0.73900002 6.1985303e-39
-0.0035190815 -0.03730192 0.73900002 8.88508e-39
-0.002105738 -0.03720095 0.73700005 1.0163604e-38
-0.00070191274 -0.03720095 0.73700005 1.1472977e-38
0.00070187537 -0.03720095 0.73699999 1.1453605e-38
0.0021056989 -0.03720095 0.73699999 1.1474412e-38
0.003504741 -0.03715048 0.73600006 1.1822741e-38
0.0049066423 -0.037150495 0.73600006 1.2205509e-38
0.0063085444 -0.03715048 0.73600006 1.1264195e-38
0.0077104466 -0.03715048 0.73600006 1.034796e-38
0.009112346 -0.03715048 0.73600006 6.6551363e-39
0.010514248 -0.037150495 0.73600006 2.9716734e-39
0.01191615 -0.037150495 0.73600006 2.7826214e-39
0.013318052 -0.037150495 0.73600006 2.5960792e-39
0.014719992 -0.037150495 0.73600006 2.1361814e-39
0.016121892 -0.03715048 0.73600006 1.6773543e-39
0.017547596 -0.03720095 0.73699999 1.400403e-39
0.01895142 -0.03720095 0.73700005 1.1252385e-39
0.02035521 -0.03720095 0.73699999 1.02908e-39
0.021818051 -0.037301905 0.73900002 8.4324536e-40
0.023257103 -0.037352391 0.73999995 1.4846463e-39
0.024666598 -0.037352361 0.73999995 2.0366878e-39
0.026146676 -0.037453346 0.74200004 3.1401011e-39
0.027559979 -0.037453361 0.74200004 4.2442542e-39
0.028973304 -0.037453316 0.74200004 4.8874362e-39
0.030427605 -0.037503816 0.74300003 5.5306308e-39
0.032014262 -0.037705727 0.74699998 5.7135717e-39
0.033437107 -0.037705712 0.74700004 5.9883649e-39
-0.022201944 -0.036525704 0.75199997 3.7827071e-40
-0.020769561 -0.036525704 0.75200003 1.9568713e-40
-0.019285737 -0.036428578 0.75000006 3.7972806e-40
-0.01785714 -0.036428563 0.75000006 4.740873e-40
-0.016362907 -0.036282845 0.74699998 7.5104133e-40
-0.014900024 -0.036185704 0.745 1.028008e-39
-0.013444793 -0.036088578 0.74300003 1.4879281e-39
-0.012013334 -0.036040001 0.74200004 1.9525062e-39
-0.01057149 -0.035942875 0.73999995 2.2366433e-39
-0.0091619715 -0.03594286 0.73999995 2.5136029e-39
-0.0077419346 -0.035894282 0.73899996 4.7280763e-39
-0.0063343402 -0.035894282 0.73899996 6.8510603e-39
-0.0049267299 -0.035894297 0.73899996 1.2289809e-38
-0.0035190964 -0.035894282 0.73900002 1.7622367e-38
-0.0021028696 -0.035748579 0.73600006 2.0203448e-38
-0.00070194813 -0.035797127 0.73699999 2.2681571e-38
0.00070187723 -0.035797141 0.73699999 2.2774842e-38
0.0021057008 -0.035797156 0.73700005 2.2773765e-38
0.0035047373 -0.035748579 0.736 2.2774842e-38
0.0049066385 -0.035748594 0.736 2.2680854e-38
0.0063085789 -0.035748579 0.73600006 1.9836106e-38
0.0077104801 -0.035748564 0.73600006 1.6883723e-38
0.0091123823 -0.035748579 0.73600006 1.1362096e-38
0.010514259 -0.035748594 0.73600006 5.8318763e-39
0.011916162 -0.035748594 0.73600006 3.8911326e-39
0.013318064 -0.035748579 0.73600006 1.9597145e-39
0.014719965 -0.035748579 0.73600006 1.4944372e-39
0.016143773 -0.035797141 0.73699999 9.4304584e-40
0.017547598 -0.035797141 0.73700005 6.6464987e-40
0.018951384 -0.035797141 0.73699999 2.9549181e-40
0.020410426 -0.035894297 0.73899996 2.0004797e-40
0.02181806 -0.035894297 0.73899996 1.0712366e-40
0.023257118 -0.03594286 0.74000001 4.7050698e-40
0.024666635 -0.035942845 0.73999995 7.4884269e-40
0.026146671 -0.036040001 0.74200004 2.3110831e-39
0.027559998 -0.036039986 0.74200004 3.7818635e-39
0.029012341 -0.036088564 0.74300003 4.4261245e-39
0.03042759 -0.036088578 0.74300003 4.9788989e-39
0.032014251 -0.036282845 0.74699998 5.4380456e-39
-0.022201901 -0.03509333 0.75200003 5.6267178e-40
-0.020714311 -0.034999989 0.75000006 4.7192509e-40
-0.019285712 -0.035000004 0.75000006 4.730125e-40
-0.017809579 -0.034906633 0.74799997 5.6629274e-40
-0.016362898 -0.034859993 0.74699998 7.517658e-40
-0.014900018 -0.034766652 0.74500006 1.0301758e-39
-0.013444787 -0.034673326 0.74300003 1.3075096e-39
-0.011981009 -0.034533329 0.73999995 1.6813424e-39
-0.010571491 -0.034533314 0.73999995 1.6838871e-39
-0.0091495849 -0.034486659 0.73899996 1.6928554e-39
-0.0077419514 -0.034486674 0.73899996 4.3650531e-39
-0.0063343178 -0.034486674 0.73899996 7.1359022e-39
-0.0049133813 -0.034393333 0.73699999 1.3396859e-38
-0.0035095569 -0.034393348 0.73700005 1.974427e-38
-0.0021028584 -0.034346677 0.73600006 2.1029608e-38
-0.0007009572 -0.034346677 0.73600006 2.2315664e-38
0.00070094405 -0.034346677 0.73600006 2.2223111e-38
0.0021028472 -0.034346677 0.73600006 2.2131993e-38
0.0035047485 -0.034346677 0.73600006 2.2590812e-38
0.0049066497 -0.034346677 0.73600006 2.3050348e-38
0.0063085519 -0.034346677 0.73600006 2.1213638e-38
0.0077104541 -0.034346677 0.73600006 1.9468764e-38
0.0091123534 -0.034346677 0.736 1.2929431e-38
0.010514256 -0.034346677 0.736 6.4801366e-39
0.011883769 -0.034253336 0.73400003 3.8068585e-39
0.013318097 -0.034346677 0.73600006 1.2347443e-39
0.014719999 -0.034346677 0.73600006 2.4181997e-39
0.016121877 -0.034346677 0.73600006 3.6095206e-39
0.0175476 -0.034393333 0.73700005 4.0668736e-39
0.018951386 -0.034393318 0.73699999 4.517775e-39
0.02035521 -0.034393333 0.73700005 4.8908315e-39
0.021759037 -0.034393348 0.73700005 5.342463e-39
0.023225676 -0.034486659 0.73899996 4.5198756e-39
0.024666611 -0.034533314 0.73999995 3.7794197e-39
0.026076166 -0.034533329 0.73999995 3.9626983e-39
0.027559992 -0.03462667 0.74200004 4.1459909e-39
0.029012352 -0.034673311 0.74299997 4.7927658e-39
0.030427577 -0.034673341 0.74300003 5.3476758e-39
0.032014262 -0.034859993 0.74699998 5.6224144e-39
0.033437103 -0.034859993 0.74699998 5.8968769e-39
-0.022142885 -0.033571444 0.75000006 8.3782234e-40
-0.020714289 -0.033571415 0.75000006 7.4743438e-40
-0.019285714 -0.03357143 0.75000006 6.5740516e-40
-0.017785754 -0.033437125 0.74699998 5.6665567e-40
-0.016319085 -0.033347599 0.745 7.5069661e-40
-0.014860011 -0.033258088 0.74300003 9.3725988e-40
-0.0134448 -0.033258073 0.74299997 1.2142251e-39
-0.011980997 -0.033123814 0.74000001 1.4011639e-39
-0.01057148 -0.033123799 0.73999995 1.123903e-39
-0.0091495607 -0.033079065 0.73900002 8.6382343e-40
-0.0077419663 -0.033079036 0.73899996 4.0866768e-39
-0.0063343346 -0.03307905 0.73899996 7.3235193e-39
-0.0049133794 -0.032989539 0.73699999 1.4601482e-38
-0.003509555 -0.032989524 0.73700005 2.1764292e-38
-0.0021028863 -0.032944791 0.73600006 2.1854333e-38
-0.00070098328 -0.032944776 0.73600006 2.1947244e-38
0.00070091797 -0.032944761 0.736 2.1762139e-38
0.0021028193 -0.032944761 0.736 2.1487708e-38
0.0035047596 -0.032944776 0.73600006 2.2406063e-38
0.0048932945 -0.03285525 0.73399997 2.3325496e-38
0.0062913867 -0.032855235 0.73399997 2.2683006e-38
0.0076895198 -0.032855235 0.73400003 2.2037288e-38
0.0090876119 -0.03285525 0.73400003 1.4590003e-38
0.010485706 -0.03285525 0.73400003 7.0390403e-39
0.011883799 -0.032855235 0.73400003 3.8054208e-39
0.013281893 -0.03285525 0.73400003 4.9539684e-40
0.014679985 -0.032855265 0.73400003 3.426242e-39
0.016121874 -0.032944776 0.736 6.281368e-39
0.017523814 -0.032944761 0.73600006 7.4748455e-39
0.01895139 -0.032989524 0.73699999 8.6726418e-39
0.020355213 -0.032989524 0.73700005 9.6871258e-39
0.021759 -0.032989524 0.73699999 1.0601155e-38
0.023225661 -0.03307905 0.73899996 8.6707963e-39
0.024633294 -0.033079036 0.73899996 6.7321699e-39
0.02607614 -0.033123799 0.73999995 5.614682e-39
0.027559986 -0.03321334 0.74200004 4.5208677e-39
0.028973313 -0.033213325 0.74199998 5.1593722e-39
0.030427625 -0.033258088 0.74300003 5.7135871e-39
0.032014251 -0.03343714 0.74699998 5.8071896e-39
0.033437092 -0.03343714 0.74699998 5.8054086e-39
0.034859959 -0.03343714 0.74699998 5.3451675e-39
-0.023571461 -0.032142855 0.75000006 9.3073123e-40
-0.022142865 -0.03214287 0.75000006 8.3890134e-40
-0.020714289 -0.032142855 0.75000006 7.4743719e-40
-0.019234348 -0.032057129 0.74799997 7.4960219e-40
-0.017785763 -0.032014288 0.74699998 7.5104973e-40
-0.016319079 -0.031928562 0.745 8.4397264e-40
-0.014860026 -0.03184285 0.74300003 9.3797454e-40
-0.013444775 -0.031842835 0.74300003 1.1227343e-39
-0.011981022 -0.031714283 0.73999995 1.4011555e-39
-0.010557186 -0.031671427 0.73899996 1.0392394e-39
-0.0091495542 -0.031671427 0.73899996 6.8373836e-40
-0.0077419439 -0.031671427 0.73900002 4.27537e-39
-0.0063171797 -0.031585701 0.73699999 7.7859254e-39
-0.0049133757 -0.031585731 0.73700005 1.5239309e-38
-0.0035095522 -0.031585716 0.73700005 2.2591169e-38
-0.0021028733 -0.031542875 0.73600006 2.2682286e-38
-0.0007009721 -0.031542875 0.73600006 2.2682644e-38
0.00070092914 -0.03154286 0.73600006 2.2590092e-38
0.0021028323 -0.031542875 0.73600006 2.2497897e-38
0.0034952303 -0.031457163 0.73400003 2.2774121e-38
0.0048933225 -0.031457163 0.73400003 2.3050347e-38
0.0062914165 -0.031457148 0.73400003 2.2866677e-38
0.0076895105 -0.031457163 0.73400003 2.2683006e-38
0.0090876035 -0.031457163 0.73400003 1.7806756e-38
0.010457114 -0.031371422 0.73199999 1.2923685e-38
0.011883791 -0.031457148 0.73400003 8.9593264e-39
0.013281883 -0.031457163 0.73400003 5.0868143e-39
0.014679977 -0.031457148 0.73400003 7.2047733e-39
0.016121885 -0.031542875 0.73600006 9.3284495e-39
0.017523788 -0.03154286 0.73600006 1.0155308e-38
0.018925689 -0.03154286 0.73600006 1.0990799e-38
0.020355217 -0.031585731 0.73700005 1.1352045e-38
0.021759003 -0.031585716 0.73699999 1.1816934e-38
0.023225684 -0.031671427 0.73899996 1.0796671e-38
0.024633277 -0.031671412 0.73899996 9.7817779e-39
0.026040914 -0.031671442 0.73899996 9.0384438e-39
0.027559984 -0.031800009 0.74200004 8.3065722e-39
0.028973309 -0.031799994 0.74200004 6.9157078e-39
0.030386675 -0.031799994 0.74200004 5.6217572e-39
0.03201424 -0.032014303 0.74699998 5.7135885e-39
0.033437107 -0.032014273 0.74699998 5.8972525e-39
0.034859948 -0.032014258 0.74699998 5.6210201e-39
0.036331404 -0.032057144 0.74799997 5.2533166e-39
-0.023634337 -0.030796178 0.75199997 9.3144869e-40
-0.022142865 -0.030714281 0.75000006 8.3997894e-40
-0.02071429 -0.030714296 0.75000006 7.4887071e-40
-0.019234329 -0.030632384 0.74800003 8.4250828e-40
-0.017785776 -0.030591406 0.74699998 8.4323696e-40
-0.016319074 -0.030509524 0.74500006 9.3615986e-40
-0.014860014 -0.030427627 0.74300003 9.376088e-40
-0.01344479 -0.030427627 0.74300003 1.1216539e-39
-0.011980985 -0.030304752 0.73999995 1.3100277e-39
-0.010557203 -0.030263819 0.73899996 9.477486e-40
-0.0091495691 -0.030263819 0.73899996 4.9611431e-40
-0.0077209631 -0.030181892 0.73700005 4.3611057e-39
-0.0063171759 -0.030181892 0.73699999 8.2415155e-39
-0.0049133515 -0.030181907 0.73699999 1.5887179e-38
-0.003509528 -0.030181922 0.73700005 2.341769e-38
-0.0020971531 -0.030059077 0.73400003 2.3417689e-38
-0.00069905916 -0.030059062 0.73400003 2.3417689e-38
0.00070094218 -0.030140959 0.73600006 2.3417689e-38
0.002097127 -0.030059047 0.73400003 2.341733e-38
0.003495221 -0.030059062 0.73400003 2.3142182e-38
0.0048799617 -0.02997715 0.73200005 2.2774842e-38
0.006291409 -0.030059047 0.73400003 2.3049989e-38
0.0076895012 -0.030059047 0.73400003 2.3325854e-38
0.0090875952 -0.030059062 0.73400003 2.1121803e-38
0.010457086 -0.02997715 0.73199999 1.8812281e-38
0.01188378 -0.030059047 0.73400003 1.4204719e-38
0.013281897 -0.030059047 0.73400003 9.6018204e-39
0.014679991 -0.030059062 0.73400003 1.0977917e-38
0.016121898 -0.030140959 0.73600006 1.2271141e-38
0.017523799 -0.030140959 0.73600006 1.2735693e-38
0.018925698 -0.030140959 0.73600006 1.3193428e-38
0.020355219 -0.030181937 0.73700005 1.309728e-38
0.021759007 -0.030181907 0.73699999 1.2916812e-38
0.023162832 -0.030181907 0.73700005 1.282531e-38
0.024566654 -0.030181922 0.73700005 1.2725927e-38
0.025970442 -0.030181892 0.73699999 1.2359289e-38
0.027448528 -0.030263804 0.73899996 1.1983628e-38
0.028895207 -0.030304767 0.73999995 8.7581995e-39
0.030427597 -0.030427612 0.74300003 5.4427637e-39
0.031928565 -0.030509524 0.74500006 5.7117836e-39
0.033437096 -0.030591421 0.74699998 5.9883649e-39
0.034859937 -0.030591421 0.74699998 5.8043352e-39
0.036331385 -0.030632369 0.74799997 5.6206558e-39
0.037756149 -0.030632384 0.74800003 5.804317e-39
-0.023634296 -0.029363804 0.75200003 8.4033066e-40
-0.022142863 -0.029285721 0.75000006 8.3998034e-40
-0.020714305 -0.029285707 0.75 8.4034468e-40
-0.019234328 -0.02920761 0.74799997 8.4178521e-40
-0.017785748 -0.029168569 0.74700004 8.4323135e-40
-0.016319081 -0.029090472 0.745 9.3579412e-40
-0.014860027 -0.029012375 0.74300003 9.376032e-40
-0.013444779 -0.029012375 0.74300003 1.1227245e-39
-0.012013332 -0.028973334 0.74200004 1.2181838e-39
-0.01055718 -0.028856196 0.73899996 1.0367002e-39
-0.009149584 -0.028856196 0.73899996 8.5878436e-40
-0.0077209985 -0.028778084 0.73699999 2.5222419e-39
-0.0063171741 -0.028778099 0.73699999 4.2890005e-39
-0.0049133496 -0.028778099 0.73700005 1.1099895e-38
-0.0035047913 -0.028739057 0.73600006 1.7999396e-38
-0.0020971606 -0.028660975 0.73400003 1.9193257e-38
-0.00069906662 -0.02866096 0.73400003 2.0387119e-38
0.00069902552 -0.02866096 0.73400003 2.0203448e-38
0.0020971177 -0.02866096 0.73400003 1.9927941e-38
0.0034952117 -0.028660975 0.73400003 2.1397309e-38
0.0048799319 -0.028582864 0.73199999 2.2774842e-38
0.0062742168 -0.028582849 0.73199999 2.2958513e-38
0.0076685017 -0.028582849 0.73199999 2.3050348e-38
0.0090628108 -0.028582864 0.73199999 2.0753384e-38
0.010457096 -0.028582864 0.73199999 1.8366738e-38
0.011851379 -0.028582849 0.73199999 1.5224242e-38
0.013245665 -0.028582849 0.73199999 1.2178597e-38
0.01463995 -0.028582849 0.73199999 1.2731038e-38
0.016121868 -0.028739057 0.73600006 1.3378915e-38
0.017523769 -0.028739057 0.736 1.3378922e-38
0.01892571 -0.028739043 0.73600006 1.3378904e-38
0.020355182 -0.028778099 0.73699999 1.3007957e-38
0.021759007 -0.028778099 0.73700005 1.2733863e-38
0.023162832 -0.028778113 0.73700005 1.153352e-38
0.024566621 -0.028778084 0.73699999 1.0334649e-38
0.025970442 -0.028778084 0.73700005 9.9655246e-39
0.027448552 -0.028856196 0.73900002 9.6016957e-39
0.028895179 -0.028895237 0.73999995 7.6558568e-39
0.030427583 -0.029012375 0.74300003 5.7200793e-39
0.03201424 -0.029168554 0.74699998 5.8068351e-39
0.033437118 -0.029168583 0.74700004 5.8965252e-39
0.034906637 -0.02920761 0.74799997 5.8046967e-39
0.036331363 -0.02920761 0.74799997 5.7128458e-39
0.037756152 -0.029207624 0.74799997 5.7131891e-39
-0.023571417 -0.027857147 0.75000006 6.5557086e-40
-0.022083865 -0.02778285 0.74799997 7.4741196e-40
-0.020659076 -0.027782865 0.74799997 8.396104e-40
-0.019234348 -0.02778285 0.74799997 8.4105093e-40
-0.017785737 -0.027745716 0.74699998 8.4141807e-40
-0.01627527 -0.027597137 0.74299997 9.346969e-40
-0.014860042 -0.027597152 0.74300003 9.3578011e-40
-0.013426703 -0.027559988 0.74200004 1.0294149e-39
-0.011980996 -0.027485706 0.73999995 1.1219931e-39
-0.010557195 -0.027448572 0.73899996 1.2142125e-39
-0.0091495616 -0.027448587 0.73899996 1.2167433e-39
-0.0077209966 -0.02737429 0.73699999 7.6296778e-40
-0.0063085975 -0.027337141 0.736 2.3099004e-40
-0.0049066963 -0.027337141 0.736 6.4080258e-39
-0.0035047559 -0.027337156 0.73600006 1.2470966e-38
-0.0020971699 -0.027262859 0.73400003 1.4968824e-38
-0.00069907779 -0.027262859 0.73400003 1.7340404e-38
0.00069901621 -0.027262874 0.73400003 1.689737e-38
0.0020971103 -0.027262874 0.73400003 1.6427789e-38
0.0034952043 -0.027262874 0.73400003 1.9652435e-38
0.0048799412 -0.027188577 0.73199999 2.2771254e-38
0.0062742261 -0.027188562 0.73199999 2.2774842e-38
0.0076685352 -0.027188577 0.73199999 2.2767307e-38
0.0090628201 -0.027188577 0.73199999 2.038281e-38
0.010457103 -0.027188562 0.73199999 1.7892849e-38
0.01185139 -0.027188562 0.73199999 1.6330571e-38
0.013245676 -0.027188577 0.73199999 1.4663888e-38
0.014639961 -0.027188562 0.73200005 1.4571681e-38
0.016078066 -0.027262859 0.73400003 1.4477696e-38
0.01752378 -0.027337141 0.73600006 1.4022108e-38
0.018925682 -0.027337156 0.73600006 1.3465339e-38
0.020355206 -0.027374275 0.73699999 1.3005787e-38
0.021759033 -0.02737429 0.73699999 1.2451156e-38
0.023162859 -0.02737429 0.73700005 1.0240616e-38
0.024566621 -0.02737429 0.73699999 7.9364865e-39
0.025970448 -0.02737429 0.73700005 7.5662844e-39
0.027448533 -0.027448602 0.73899996 7.1956508e-39
0.028856169 -0.027448572 0.73900002 6.5434136e-39
0.030427592 -0.027597137 0.74299997 5.9008861e-39
0.031928562 -0.027671419 0.745 5.8068603e-39
0.033437129 -0.027745701 0.74699998 5.7135815e-39
0.034859974 -0.027745716 0.74699998 5.7132144e-39
0.036331404 -0.02778285 0.74799997 5.7132073e-39
0.037756134 -0.027782835 0.74799997 5.7132017e-39
-0.023571417 -0.026428588 0.75000006 1.021824e-39
-0.022083884 -0.02635809 0.74799997 1.0225443e-39
-0.020659097 -0.02635809 0.74799997 1.021831e-39
-0.019234331 -0.02635809 0.74800003 9.3071582e-40
-0.017738104 -0.026252382 0.74500006 8.3888733e-40
-0.016275246 -0.026181899 0.74300003 7.4813503e-40
-0.014860018 -0.026181899 0.74300003 6.570142e-40
-0.013426707 -0.026146673 0.74200004 7.4992309e-40
-0.011981023 -0.02607619 0.73999995 8.41774e-40
-0.010557212 -0.026040949 0.73899996 8.4142928e-40
-0.0091247801 -0.025970481 0.73700005 9.2934394e-40
-0.0077209929 -0.025970481 0.73700005 5.6955916e-40
-0.0063085863 -0.025935255 0.73600006 2.0835907e-40
-0.0049066851 -0.02593524 0.73600006 3.2483009e-39
-0.0034952732 -0.025864787 0.73400003 6.2824694e-39
-0.0020971792 -0.025864787 0.73400003 7.4777742e-39
-0.00069719093 -0.02579429 0.73199999 8.7509155e-39
0.00069709396 -0.02579429 0.73199999 8.4911933e-39
0.0020913789 -0.02579429 0.73199999 8.3150557e-39
0.0034951949 -0.025864772 0.73400003 9.8812813e-39
0.0048799505 -0.025794275 0.73199999 1.1464726e-38
0.0062742336 -0.02579429 0.73200005 1.1446431e-38
0.0076580299 -0.025759034 0.73099995 1.1453243e-38
0.0090504317 -0.025759034 0.73099995 1.2364419e-38
0.010442794 -0.025759034 0.73099995 1.3277395e-38
0.011835194 -0.025759034 0.73100001 1.2637777e-38
0.013245647 -0.02579429 0.73199999 1.1900924e-38
0.014619941 -0.025759034 0.73099995 1.1805483e-38
0.016078057 -0.025864758 0.73399997 1.1712928e-38
0.017476149 -0.025864758 0.73399997 1.1436343e-38
0.018925695 -0.025935255 0.73600006 1.1159029e-38
0.02035521 -0.025970481 0.73699999 1.1252285e-38
0.021759037 -0.025970481 0.73700005 1.1435918e-38
0.023162821 -0.025970466 0.73699999 9.9596952e-39
0.02463329 -0.026040949 0.73900002 8.5638744e-39
0.025970448 -0.025970481 0.73700005 8.0186068e-39
0.02744852 -0.026040964 0.73899996 7.4589338e-39
0.028895168 -0.02607619 0.73999995 6.8192634e-39
0.030427618 -0.026181899 0.74300003 6.2678735e-39
0.031928569 -0.026252367 0.74500006 5.8987196e-39
0.033437122 -0.026322864 0.74699998 5.6210383e-39
0.034859963 -0.026322864 0.74699998 5.71285e-39
0.036331385 -0.026358075 0.74799997 5.713929e-39
0.037756149 -0.026358075 0.74800003 5.7139304e-39
-0.022083845 -0.024933323 0.74799997 1.2065642e-39
-0.020659117 -0.024933308 0.74799997 1.1132966e-39
-0.019208604 -0.024899997 0.74699998 9.2855081e-40
-0.017738134 -0.024833307 0.745 7.4488262e-40
-0.016253343 -0.02473335 0.74200004 5.6157176e-40
-0.014840014 -0.024733342 0.74200004 2.8714287e-40
-0.013390525 -0.024666652 0.74000001 4.7153273e-40
-0.011964801 -0.024633333 0.73899996 5.6373957e-40
-0.010557167 -0.024633341 0.73899996 5.6339485e-40
-0.0091248173 -0.024566665 0.73699999 5.6197253e-40
-0.0077209929 -0.024566673 0.73700005 3.7688062e-40
-0.0063085752 -0.024533346 0.73600006 1.0283289e-40
-0.0049066739 -0.024533331 0.73600006 9.3529666e-41
-0.0034952825 -0.024466664 0.73400003 1.0250358e-40
-0.0020914664 -0.024399988 0.73199999 9.2464679e-41
-0.00069718348 -0.024399996 0.73199999 9.9639327e-41
0.00069710327 -0.024399996 0.73199999 9.2464679e-41
0.0020913882 -0.024400003 0.73199999 1.0465598e-40
0.003485675 -0.024399996 0.73200005 9.245487e-41
0.004879958 -0.024399981 0.73200005 1.1146489e-40
0.0062742652 -0.024400003 0.73199999 9.2449265e-41
0.0076580485 -0.024366669 0.73099995 1.1578088e-40
0.0090504112 -0.024366669 0.73099995 4.4363694e-39
0.010442811 -0.024366647 0.73100001 8.6748026e-39
0.011835174 -0.024366654 0.73099995 8.9503203e-39
0.013227559 -0.024366647 0.73099995 9.1361339e-39
0.014619959 -0.024366654 0.73099995 9.0363965e-39
0.016078087 -0.024466686 0.73400003 8.9502993e-39
0.017476179 -0.024466686 0.73400003 8.8512877e-39
0.018925667 -0.024533324 0.73600006 8.7676975e-39
0.020355213 -0.02456668 0.73700005 9.5924191e-39
0.021759037 -0.024566673 0.73700005 1.0424297e-38
0.023162823 -0.024566658 0.73699999 9.7825038e-39
0.0246333 -0.024633341 0.73899996 9.1306856e-39
0.025970474 -0.024566673 0.73700005 8.3938479e-39
0.027448501 -0.024633333 0.73899996 7.6530094e-39
0.028895183 -0.024666667 0.74000001 7.0990705e-39
0.030386673 -0.024733327 0.74200004 6.5440933e-39
0.031928536 -0.024833329 0.745 6.0823864e-39
0.033437107 -0.024899997 0.74699998 5.5292e-39
0.034859974 -0.024899982 0.74699998 5.6199383e-39
0.036331363 -0.024933338 0.74799997 5.7132059e-39
0.037756152 -0.024933331 0.74799997 5.8057561e-39
-0.019157164 -0.023414262 0.745 8.3598524e-40
-0.0176905 -0.023351423 0.74299997 6.5051778e-40
-0.016275274 -0.023351423 0.74300003 4.6792018e-40
-0.01484002 -0.023319997 0.74200004 3.7644902e-40
-0.013390528 -0.023257129 0.73999995 3.7824829e-40
-0.011981031 -0.023257129 0.73999995 4.7045373e-40
-0.010557182 -0.023225717 0.73899996 4.7046494e-40
-0.0091495486 -0.023225702 0.73899996 4.7010901e-40
-0.007720992 -0.023162864 0.73700005 4.6975168e-40
-0.0063086012 -0.02313143 0.73600006 4.6688742e-40
-0.0049067 -0.023131445 0.736 4.6617416e-40
-0.0034952527 -0.023068577 0.73400003 5.5406641e-40
-0.0020971587 -0.023068592 0.73400003 5.572964e-40
-0.00069717417 -0.023005709 0.73200005 6.459033e-40
0.00069615705 -0.022974275 0.73100001 5.5657893e-40
0.0020913975 -0.023005717 0.73200005 5.5154687e-40
0.0034856433 -0.023005709 0.73199999 6.4767595e-40
0.0048799282 -0.023005709 0.73199999 8.2703654e-40
0.0062656654 -0.022974283 0.73099995 4.6255881e-40
0.0076580299 -0.022974275 0.73099995 1.842161e-40
0.0090504298 -0.02297429 0.73099995 4.9855243e-39
0.010442791 -0.022974283 0.73099995 9.871838e-39
0.011802834 -0.022911422 0.72900003 1.0423947e-38
0.013227577 -0.022974283 0.73099995 1.0972805e-38
0.014619939 -0.022974275 0.73099995 1.0607253e-38
0.016078077 -0.02306857 0.73400003 1.0333182e-38
0.017476171 -0.023068585 0.73400003 1.0148075e-38
0.0189257 -0.023131438 0.73600006 9.9679951e-39
0.020327603 -0.023131438 0.736 1.0057324e-38
0.021759 -0.023162849 0.73699999 1.0243143e-38
0.023162827 -0.023162864 0.73699999 9.9658371e-39
0.024566652 -0.023162864 0.73700005 9.6903222e-39
0.026040917 -0.023225717 0.73899996 8.2141285e-39
0.02744855 -0.02322571 0.73899996 6.8340233e-39
0.028895177 -0.023257129 0.73999995 6.5487694e-39
0.030386671 -0.023319997 0.74200004 6.1753121e-39
0.031842839 -0.023351431 0.74300003 5.897635e-39
0.033437118 -0.023477122 0.74699998 5.5281224e-39
0.034859963 -0.023477145 0.74699998 5.529179e-39
0.0363314 -0.023508556 0.74799997 5.5295293e-39
0.037857141 -0.023571424 0.75000006 5.6213564e-39
-0.020576214 -0.021995224 0.74500006 1.1125651e-39
-0.019157156 -0.021995232 0.74500006 8.356195e-40
-0.017738122 -0.021995246 0.74500006 4.6791318e-40
-0.016275287 -0.021936193 0.74300003 4.6719011e-40
-0.014860037 -0.021936186 0.74300003 3.7715948e-40
-0.013426698 -0.021906689 0.74200004 3.7788676e-40
-0.012013334 -0.021906659 0.74200004 3.782553e-40
-0.0105715 -0.021847613 0.73999995 3.7826511e-40
-0.0091495654 -0.021818101 0.73899996 3.7898818e-40
-0.0077419318 -0.021818101 0.73899996 6.5629253e-40
-0.0063171778 -0.021759056 0.73699999 8.3925026e-40
-0.0049066907 -0.021729521 0.73600006 9.3396122e-40
-0.0035047876 -0.021729521 0.73600006 9.314529e-40
-0.002097168 -0.021670476 0.73400003 1.1201503e-39
-0.00069720211 -0.02161143 0.73199999 1.2076797e-39
0.00069708092 -0.021611422 0.73199999 1.1201475e-39
0.0020913677 -0.02161143 0.73199999 9.3144729e-40
0.0034952285 -0.021670483 0.73400003 1.2108928e-39
0.0048933225 -0.021670498 0.73400003 1.4810127e-39
0.0062742466 -0.02161143 0.73199999 8.3887471e-40
0.0076580485 -0.021581896 0.73099995 1.9642281e-40
0.0090504093 -0.021581911 0.73099995 5.6330503e-39
0.010442811 -0.021581903 0.73100001 1.1066784e-38
0.011835174 -0.021581896 0.73099995 1.1993047e-38
0.013281883 -0.021670491 0.73400003 1.2816333e-38
0.014679977 -0.021670491 0.73400003 1.2269622e-38
0.016121872 -0.021729529 0.736 1.1618883e-38
0.01752381 -0.021729544 0.73600006 1.1347325e-38
0.018951394 -0.021759063 0.73700005 1.1068586e-38
0.020355217 -0.021759056 0.73700005 1.0609765e-38
0.021759005 -0.021759041 0.73699999 1.0057312e-38
0.023162827 -0.021759056 0.73700005 1.014735e-38
0.024633305 -0.021818101 0.73900002 1.0145185e-38
0.026076119 -0.021847613 0.73999995 8.1212042e-39
0.027559996 -0.021906666 0.74200004 6.0006809e-39
0.028973322 -0.021906659 0.74200004 5.9030497e-39
0.030509513 -0.021995239 0.74500006 5.8079505e-39
0.032014243 -0.022054285 0.74699998 5.7132101e-39
0.033481866 -0.022083797 0.74799997 5.5291804e-39
0.034906656 -0.022083797 0.74799997 5.4387785e-39
0.036428571 -0.022142872 0.75000006 5.3458626e-39
-0.020631481 -0.020631425 0.74699998 1.1122036e-39
-0.019157188 -0.020576186 0.745 8.3668869e-40
-0.01773813 -0.020576179 0.745 5.6153252e-40
-0.01627524 -0.020520955 0.74300003 5.6080665e-40
-0.014860052 -0.020520955 0.74300003 5.6189826e-40
-0.013426702 -0.020493329 0.74200004 4.7007818e-40
-0.011981022 -0.020438083 0.73999995 3.7860983e-40
-0.010571465 -0.020438097 0.73999995 3.7897697e-40
-0.0091495803 -0.020410478 0.73899996 3.7898537e-40
-0.0077419467 -0.020410463 0.73899996 5.6373957e-40
-0.0063171769 -0.020355225 0.73699999 7.4813223e-40
-0.0049133515 -0.02035524 0.73700005 7.4957136e-40
-0.0035047783 -0.020327643 0.73600006 7.499357e-40
-0.0020971773 -0.020272397 0.73400003 8.4249427e-40
-0.00069905916 -0.020272374 0.73400003 1.025445e-39
0.00069709209 -0.020217128 0.73199999 9.3432416e-40
0.0020913789 -0.020217128 0.73199999 9.3432136e-40
0.0034952192 -0.020272382 0.73400003 1.1183469e-39
0.0048933132 -0.020272382 0.73400003 1.3020109e-39
0.0062742578 -0.020217143 0.73199999 7.4632736e-40
0.007658028 -0.020189494 0.73099995 1.8997543e-40
0.0090504279 -0.020189516 0.73099995 5.4501094e-39
0.010442791 -0.020189524 0.73099995 1.0615507e-38
0.011835192 -0.020189516 0.73100001 1.0703406e-38
0.013227575 -0.020189509 0.73099995 1.0703404e-38
0.014719983 -0.020327635 0.73600006 1.0421794e-38
0.016121883 -0.020327628 0.73600006 1.0136965e-38
0.017523784 -0.020327613 0.73600006 9.8672025e-39
0.018951394 -0.020355254 0.73700005 9.6863902e-39
0.02035518 -0.020355232 0.73699999 9.4115899e-39
0.021759005 -0.020355247 0.73699999 9.1364394e-39
0.023162831 -0.020355247 0.73700005 8.4885658e-39
0.024633288 -0.020410478 0.73899996 7.7549426e-39
0.026076157 -0.020438097 0.73999995 6.9183619e-39
0.027559994 -0.020493336 0.74200004 6.0824649e-39
0.028973319 -0.020493336 0.74200004 5.99273e-39
0.030509483 -0.020576186 0.745 5.8997664e-39
0.032014251 -0.02063141 0.74699998 5.5298615e-39
0.033481847 -0.020659037 0.74799997 5.2525795e-39
0.034906633 -0.020659029 0.74799997 5.3458668e-39
0.036428593 -0.02071429 0.75000006 5.4377009e-39
-0.021995274 -0.019157134 0.74500006 1.1143574e-39
-0.020631468 -0.019208558 0.74699998 1.113993e-39
-0.019157182 -0.019157141 0.74500006 8.3776348e-40
-0.017738124 -0.019157127 0.745 5.6189406e-40
-0.016275253 -0.01910571 0.74300003 6.5229182e-40
-0.014860001 -0.019105703 0.74300003 7.4485459e-40
-0.013426686 -0.019080006 0.74199998 5.6190947e-40
-0.011981009 -0.019028559 0.73999995 3.7896295e-40
-0.010571491 -0.019028567 0.73999995 3.7932869e-40
-0.0091495598 -0.019002862 0.73900002 3.7969303e-40
-0.0077419654 -0.019002855 0.73899996 5.6336963e-40
-0.006317175 -0.018951431 0.73699999 6.5664706e-40
-0.0049133478 -0.018951423 0.73700005 5.6589477e-40
-0.0035095634 -0.018951431 0.73699999 4.7442081e-40
-0.0020971624 -0.018874295 0.73400003 6.5845193e-40
-0.00069907034 -0.018874295 0.73400003 7.4992729e-40
0.00069902366 -0.01887428 0.73400003 8.4140406e-40
0.0020971177 -0.018874295 0.73400003 9.3395422e-40
0.0034952117 -0.018874303 0.73400003 1.0265058e-39
0.0048933057 -0.018874295 0.73400003 1.1168993e-39
0.006274228 -0.018822849 0.73199999 6.5376879e-40
0.0076685129 -0.018822841 0.73199999 1.9929547e-40
0.0090627996 -0.018822856 0.73199999 5.1774671e-39
0.010442809 -0.018797144 0.73100001 1.0145918e-38
0.011851368 -0.018822849 0.73199999 9.4101634e-39
0.013318093 -0.018925734 0.73600006 8.5839999e-39
0.014719994 -0.018925719 0.73600006 8.5768238e-39
0.016121894 -0.018925719 0.73600006 8.5771839e-39
0.017523795 -0.018925726 0.73600006 8.4821227e-39
0.01895142 -0.018951431 0.73700005 8.3038257e-39
0.020355206 -0.018951423 0.73699999 8.3059696e-39
0.021759011 -0.018951423 0.73700005 8.2112629e-39
0.023162831 -0.018951438 0.73700005 6.8236859e-39
0.024633273 -0.019002855 0.73899996 5.356455e-39
0.026076131 -0.019028567 0.73999995 5.7148146e-39
0.027559986 -0.019080006 0.74200004 6.0846201e-39
0.028973313 -0.019079998 0.74200004 5.9930971e-39
0.030509513 -0.019157134 0.74500006 5.9001476e-39
0.032014243 -0.019208565 0.74699998 5.4380624e-39
0.033481885 -0.01923427 0.74799997 4.9781646e-39
0.034906615 -0.019234277 0.74799997 5.2536683e-39
0.036428556 -0.019285701 0.75 5.4373351e-39
-0.021995245 -0.017738089 0.74500006 1.4824098e-39
-0.020631481 -0.017785706 0.74699998 1.1154238e-39
-0.019157153 -0.017738082 0.74500006 9.3067238e-40
-0.017738117 -0.017738096 0.74500006 7.4700419e-40
-0.016275266 -0.017690472 0.74300003 6.5337643e-40
-0.014860014 -0.017690472 0.74300003 6.5266177e-40
-0.013426689 -0.017666668 0.74200004 5.62264e-40
-0.012013325 -0.017666675 0.74200004 4.7151031e-40
-0.010571475 -0.017619044 0.73999995 4.7151591e-40
-0.0091495747 -0.017595232 0.73899996 4.7187745e-40
-0.0077419411 -0.017595246 0.73900002 5.6443321e-40
-0.0063171713 -0.017547622 0.73700005 6.5771485e-40
-0.0049133459 -0.01754763 0.73700005 5.6624789e-40
-0.0035095597 -0.017547622 0.73699999 5.6660522e-40
-0.0021028919 -0.01752381 0.73600006 6.5843932e-40
-0.00069907779 -0.017476194 0.73399997 8.4175298e-40
0.00069901434 -0.017476186 0.73399997 9.3394721e-40
0.0020971084 -0.017476186 0.73399997 1.0257827e-39
0.0034952024 -0.017476186 0.73399997 8.4247045e-40
0.0048932945 -0.017476201 0.73399997 7.5062794e-40
0.0062913885 -0.017476194 0.73400003 4.7188446e-40
0.0076685222 -0.017428562 0.73199999 2.8646184e-40
0.0090628071 -0.017428577 0.73199999 5.5412162e-39
0.010457092 -0.017428569 0.73199999 1.069728e-38
0.011916163 -0.01752381 0.73600006 1.0514688e-38
0.013318066 -0.017523803 0.73600006 1.042034e-38
0.014719968 -0.01752381 0.73600006 1.0053355e-38
0.016121868 -0.017523818 0.73600006 9.6845797e-39
0.017547596 -0.017547607 0.73700005 9.3143678e-39
0.018951423 -0.017547622 0.73700005 8.945228e-39
0.02035521 -0.017547615 0.73699999 8.8566169e-39
0.021759033 -0.01754763 0.73700005 8.7626304e-39
0.023225684 -0.017595232 0.73899996 8.3927773e-39
0.024633283 -0.017595232 0.73899996 7.9278475e-39
0.026076145 -0.017619044 0.73999995 7.4682972e-39
0.027560007 -0.017666675 0.74200004 7.0994783e-39
0.029012369 -0.01769048 0.74300003 6.6388224e-39
0.030509517 -0.017738104 0.74500006 6.1774687e-39
0.032014232 -0.017785713 0.74699998 5.8065156e-39
0.033481866 -0.01780951 0.74799997 5.4373575e-39
0.034906633 -0.017809525 0.74800003 5.5291692e-39
0.036428552 -0.017857134 0.75000006 5.621718e-39
-0.021995276 -0.016319044 0.745 1.8486784e-39
-0.020631492 -0.016362853 0.74699998 1.1139916e-39
-0.019157184 -0.016319036 0.745 1.0217946e-39
-0.017738126 -0.016319029 0.745 9.2924305e-40
-0.016319092 -0.016319044 0.745 7.4449866e-40
-0.014860031 -0.016275235 0.74300003 4.6935231e-40
-0.013426693 -0.01625333 0.74200004 4.7042851e-40
-0.012013328 -0.01625333 0.74200004 4.7115158e-40
-0.010571499 -0.016209513 0.73999995 4.7115718e-40
-0.0091495896 -0.016187616 0.73899996 4.7187885e-40
-0.0077419579 -0.016187608 0.73899996 5.6515348e-40
-0.0063171694 -0.016143799 0.73700005 6.5771345e-40
-0.0049133832 -0.016143806 0.73699999 6.5771905e-40
-0.0035095578 -0.016143821 0.73699999 5.6623949e-40
-0.0021028584 -0.016121909 0.73600006 7.4990768e-40
-0.00070095534 -0.016121916 0.73600006 9.339416e-40
0.00070092356 -0.016121909 0.73600006 1.0264988e-39
0.0020971382 -0.016078115 0.73400003 1.0257827e-39
0.0034952303 -0.0160781 0.73400003 6.5808339e-40
0.0048933243 -0.016078107 0.73400003 2.9037567e-40
0.0062914183 -0.0160781 0.73400003 3.8005176e-40
0.0076685296 -0.016034283 0.73199999 3.8475452e-40
0.0090628164 -0.01603429 0.73200005 5.8203072e-39
0.010457101 -0.016034283 0.73200005 1.1248654e-38
0.011883791 -0.016078107 0.73400003 1.1715014e-38
0.013318078 -0.016121909 0.73600006 1.2169882e-38
0.014719979 -0.016121916 0.73600006 1.143914e-38
0.016121879 -0.016121909 0.73600006 1.0696565e-38
0.01752378 -0.016121916 0.73600006 1.0144836e-38
0.018951386 -0.016143806 0.73699999 9.5920225e-39
0.020355212 -0.016143821 0.73699999 9.5037673e-39
0.021759037 -0.016143814 0.73700005 9.3193873e-39
0.023162821 -0.016143791 0.73699999 9.9643966e-39
0.024633303 -0.016187623 0.73899996 1.050893e-38
0.026076157 -0.01620952 0.74000001 9.3143286e-39
0.027560003 -0.016253337 0.74200004 8.0239359e-39
0.029012356 -0.016275235 0.74300003 7.2852736e-39
0.030509487 -0.016319036 0.745 6.4515389e-39
0.032014281 -0.016362853 0.74700004 6.1724058e-39
0.033481844 -0.016384751 0.74799997 5.8039708e-39
0.034906637 -0.016384743 0.74799997 5.8039554e-39
0.036428574 -0.016428567 0.75000006 5.8043072e-39
-0.023508595 -0.014959998 0.74799997 2.6723238e-39
-0.022083867 -0.014959984 0.74799997 2.0312746e-39
-0.0206591 -0.014959991 0.74800003 1.3887835e-39
-0.019208599 -0.014940001 0.74699998 1.0200038e-39
-0.017785735 -0.014939994 0.74699998 7.437826e-40
-0.016319085 -0.014899991 0.74500006 6.5194991e-40
-0.014860044 -0.014859997 0.74300003 5.6118921e-40
-0.013444793 -0.014859997 0.74300003 4.6971104e-40
-0.012013334 -0.014840014 0.74200004 4.7115158e-40
-0.010571488 -0.014800005 0.74000001 4.7079705e-40
-0.0091495439 -0.01478 0.73900002 4.7080405e-40
-0.0077419728 -0.014779992 0.73899996 5.6443882e-40
-0.0063343393 -0.014780007 0.73899996 6.5771205e-40
-0.0049133813 -0.01473999 0.73699999 5.6623668e-40
-0.0035095541 -0.014740005 0.73700005 4.7475572e-40
-0.0021028845 -0.014720008 0.736 6.584225e-40
-0.00070098328 -0.014719993 0.736 9.3357867e-40
0.00070091983 -0.01472 0.736 9.3394441e-40
0.0021028602 -0.01472 0.73600006 1.0257827e-39
0.0034952229 -0.014680013 0.73400003 8.4211452e-40
0.004893315 -0.014680006 0.73400003 7.5063215e-40
0.006291409 -0.014680006 0.73400003 6.5591979e-40
0.007689503 -0.014680006 0.73400003 5.6196833e-40
0.009087597 -0.014680013 0.73400003 4.899797e-39
0.010485689 -0.014680013 0.73400003 9.3233389e-39
0.011883806 -0.014680006 0.73400003 8.3070626e-39
0.013318051 -0.01472 0.73600006 7.2990176e-39
0.014719991 -0.014720023 0.73600006 6.6511398e-39
0.01612189 -0.014720015 0.73600006 6.007934e-39
0.017523792 -0.014720015 0.73600006 6.7397496e-39
0.018951388 -0.01473999 0.73699999 7.3865343e-39
0.020355212 -0.014739998 0.73700005 7.9396898e-39
0.021759037 -0.014739998 0.73700005 8.4961006e-39
0.023225654 -0.014779992 0.73899996 8.7687527e-39
0.024633288 -0.014779992 0.73899996 9.0435109e-39
0.026076134 -0.01479999 0.73999995 8.2119383e-39
0.027559996 -0.014840007 0.74200004 7.3861153e-39
0.028973322 -0.014839992 0.74200004 6.7324824e-39
0.030591402 -0.014940009 0.74700004 6.1713689e-39
0.032014266 -0.014940001 0.74700004 5.8958049e-39
0.033481885 -0.014959991 0.74799997 5.6188551e-39
0.035 -0.014999993 0.75000006 5.7117584e-39
0.036428574 -0.014999993 0.75000006 5.895421e-39
-0.023571428 -0.013571426 0.75000006 2.7752968e-39
-0.022142893 -0.013571419 0.75000006 2.2145883e-39
-0.020714294 -0.013571426 0.75000006 1.5703049e-39
-0.019234333 -0.013535239 0.74799997 1.1096925e-39
-0.017785747 -0.013517134 0.74699998 5.5939835e-40
-0.016319055 -0.013480954 0.74500006 5.5868228e-40
-0.014860033 -0.013444752 0.74299997 5.6047454e-40
-0.01342668 -0.013426669 0.74199998 4.6827891e-40
-0.011981008 -0.013390467 0.73999995 3.7823988e-40
-0.010557192 -0.013372384 0.73899996 4.6972085e-40
-0.0091495588 -0.013372377 0.73899996 4.7080405e-40
-0.0077419272 -0.013372384 0.73899996 5.6336542e-40
-0.0063171638 -0.013336189 0.73700005 6.5663865e-40
-0.0049133776 -0.013336197 0.73700005 5.6588356e-40
-0.0035095522 -0.013336189 0.73700005 3.825699e-40
-0.0021028733 -0.013318107 0.73600006 6.5843231e-40
-0.00070097024 -0.013318092 0.73600006 8.4175298e-40
0.00070093101 -0.013318107 0.73600006 9.3359548e-40
0.0021028323 -0.013318099 0.73600006 1.0254282e-39
0.0034952136 -0.013281919 0.73400003 1.1169035e-39
0.0049066348 -0.013318099 0.736 1.1165406e-39
0.0063085752 -0.013318107 0.73600006 9.3071301e-40
0.0076894956 -0.013281919 0.73400003 6.6025821e-40
0.0090875858 -0.013281904 0.73400003 4.0775739e-39
0.010485702 -0.013281912 0.73400003 7.3822211e-39
0.011883796 -0.013281912 0.73400003 4.8904714e-39
0.013281891 -0.013281912 0.73400003 2.3237354e-39
0.014719964 -0.013318099 0.73600006 1.8580937e-39
0.016121864 -0.013318099 0.73600006 1.3121002e-39
0.017547566 -0.013336182 0.73699999 3.2352632e-39
0.01895139 -0.013336197 0.73699999 5.1724224e-39
0.020355217 -0.013336189 0.73700005 6.3716691e-39
0.021759003 -0.013336189 0.73699999 7.5698409e-39
0.023225676 -0.013372391 0.73900002 7.5702067e-39
0.024666613 -0.013390459 0.73999995 7.5673158e-39
0.026146628 -0.013426661 0.74200004 7.1041712e-39
0.027559994 -0.013426676 0.74200004 6.6424588e-39
0.028973319 -0.013426669 0.74200004 6.2711469e-39
0.030509524 -0.013480954 0.74500006 5.8990952e-39
0.032014258 -0.013517149 0.74700004 5.6203153e-39
0.033481862 -0.013535239 0.74799997 5.3444388e-39
0.035 -0.013571419 0.75000006 5.7124885e-39
0.036428574 -0.013571434 0.75000006 5.9876236e-39
-0.025000002 -0.012142859 0.75000006 7.9335536e-39
-0.023571467 -0.012142844 0.75000006 6.2761832e-39
-0.02214287 -0.012142852 0.75000006 3.7826076e-39
-0.020714296 -0.012142852 0.75000006 1.2919313e-39
-0.019234331 -0.012110464 0.74799997 1.0178612e-39
-0.017785758 -0.012094282 0.74699998 7.4414974e-40
-0.016319089 -0.012061886 0.745 6.5231424e-40
-0.014860011 -0.012029529 0.74300003 5.6155354e-40
-0.013426684 -0.012013324 0.74200004 4.6971525e-40
-0.011980994 -0.011980958 0.74000001 4.7043551e-40
-0.010557209 -0.011964761 0.73899996 4.7043832e-40
-0.0091495775 -0.011964761 0.73899996 4.7152292e-40
-0.0077419439 -0.011964768 0.73899996 7.4703782e-40
-0.0063343104 -0.011964761 0.73900002 1.0225499e-39
-0.004926716 -0.011964768 0.73899996 7.4848396e-40
-0.0035095504 -0.011932388 0.73700005 5.6553043e-40
-0.0021028602 -0.011916205 0.73600006 6.5736593e-40
-0.00070095906 -0.011916198 0.73600006 8.4104533e-40
0.00070094218 -0.011916213 0.73600006 9.3324656e-40
0.0021028453 -0.011916205 0.73600006 1.0254338e-39
0.0035047447 -0.011916183 0.73600006 1.0250666e-39
0.004906646 -0.011916198 0.73600006 1.1172595e-39
0.0063085472 -0.01191619 0.73600006 7.4668609e-40
0.0076895086 -0.011883803 0.73400003 3.7721553e-40
0.0090876007 -0.011883818 0.73400003 4.3437436e-39
0.010485695 -0.01188381 0.73400003 8.298767e-39
0.011883789 -0.011883825 0.73400003 7.1942271e-39
0.013281881 -0.011883803 0.73400003 6.1757802e-39
0.014719998 -0.01191619 0.73600006 5.5375896e-39
0.016121898 -0.011916205 0.73600006 4.9833424e-39
0.017523799 -0.011916198 0.73600006 5.7208893e-39
0.018951394 -0.01193238 0.73700005 6.4516454e-39
0.020355217 -0.011932388 0.73700005 6.9201681e-39
0.021759003 -0.011932373 0.73699999 7.4744069e-39
0.02322566 -0.011964761 0.73899996 6.9212387e-39
0.024666626 -0.011980951 0.73999995 6.4598976e-39
0.026146645 -0.012013339 0.74199998 6.0900333e-39
0.027559986 -0.012013339 0.74200004 5.8084018e-39
0.029012378 -0.012029521 0.74300003 5.7179746e-39
0.0305914 -0.012094289 0.74699998 5.625388e-39
0.032014269 -0.012094289 0.74699998 5.4384534e-39
0.033481844 -0.012110472 0.74799997 5.3448116e-39
0.034999996 -0.012142859 0.75000006 5.52847e-39
0.03642856 -0.012142844 0.75 5.8043212e-39
-0.025000002 -0.010714285 0.75000006 9.6874201e-39
-0.023571443 -0.010714278 0.75000006 9.7695292e-39
-0.022142868 -0.010714278 0.75000006 5.3473956e-39
-0.020714294 -0.010714285 0.75000006 9.2925006e-40
-0.019234313 -0.010685697 0.74800003 9.2566554e-40
-0.017785771 -0.010671422 0.74699998 8.356181e-40
-0.016319079 -0.010642856 0.74500006 6.5265896e-40
-0.014860024 -0.010614283 0.74300003 4.7006837e-40
-0.013390535 -0.010571435 0.73999995 5.6262554e-40
-0.011981018 -0.010571428 0.73999995 5.6227101e-40
-0.010557187 -0.010557145 0.73900002 5.6191788e-40
-0.0091495924 -0.010557145 0.73899996 4.7116419e-40
-0.0077419588 -0.010557137 0.73899996 9.3034727e-40
-0.0063343272 -0.010557145 0.73899996 1.2980564e-39
-0.0049266936 -0.010557145 0.73899996 1.0232758e-39
-0.0035095634 -0.010528564 0.73699999 6.5664986e-40
-0.0021028882 -0.010514289 0.73600006 7.4848396e-40
-0.00070098514 -0.010514297 0.73600006 7.4920563e-40
0.00070091611 -0.010514282 0.73600006 8.4140266e-40
0.0021028155 -0.010514289 0.736 9.3323115e-40
0.0035047559 -0.010514289 0.73600006 1.0239848e-39
0.0049066572 -0.010514304 0.73600006 1.0236261e-39
0.0063085603 -0.010514297 0.73600006 5.6122003e-40
0.0077104615 -0.010514289 0.73600006 1.056523e-40
0.0090875914 -0.010485716 0.73400003 4.7132338e-39
0.010514266 -0.010514297 0.73600006 9.2228672e-39
0.011916167 -0.010514289 0.73600006 9.5948812e-39
0.013318068 -0.010514282 0.736 9.956845e-39
0.014719971 -0.010514289 0.736 9.3168692e-39
0.01612187 -0.010514282 0.736 8.6689886e-39
0.017547593 -0.010528564 0.73699999 8.2130299e-39
0.018951394 -0.010528579 0.73700005 7.657715e-39
0.020355184 -0.010528564 0.73699999 7.4751244e-39
0.021759007 -0.010528572 0.73700005 7.289301e-39
0.02325708 -0.010571413 0.73999995 6.3641315e-39
0.0246666 -0.01057142 0.73999995 5.3546445e-39
0.026146641 -0.010600008 0.74200004 5.1706022e-39
0.027560005 -0.010600001 0.74200004 4.8921992e-39
0.029012362 -0.010614283 0.74300003 5.1673203e-39
0.030591391 -0.010671437 0.74699998 5.3491682e-39
0.032014258 -0.010671414 0.74699998 5.3473437e-39
0.033481885 -0.010685705 0.74799997 5.2537006e-39
0.035000023 -0.010714293 0.75000006 5.4362799e-39
0.036428556 -0.010714278 0.75000006 5.6206558e-39
0.03785713 -0.010714285 0.75000006 5.5291664e-39
-0.023571445 -0.0092857182 0.75000006 1.042064e-38
-0.02220192 -0.009310469 0.75199997 6.3633215e-39
-0.020769536 -0.009310469 0.75200003 2.3042686e-39
-0.019234333 -0.0092609525 0.74799997 1.6607054e-39
-0.017785758 -0.0092485622 0.74699998 1.0196394e-39
-0.016319074 -0.0092238039 0.74500006 7.4448045e-40
-0.014860038 -0.0091990456 0.74300003 5.6225419e-40
-0.013426695 -0.0091866776 0.74200004 5.6190527e-40
-0.011981007 -0.009161897 0.74000001 6.5374777e-40
-0.010557178 -0.009149529 0.73899996 6.5447224e-40
-0.00914957 -0.0091495365 0.73900002 6.5519251e-40
-0.0077419756 -0.0091495216 0.73899996 8.3886631e-40
-0.0063171731 -0.0091247633 0.73699999 1.0225485e-39
-0.0049267085 -0.009149529 0.73899996 9.3144169e-40
-0.0035095615 -0.0091247633 0.73699999 8.4068099e-40
-0.0021028752 -0.0091123879 0.73600006 7.4848396e-40
-0.00070097396 -0.0091123953 0.73600006 7.4920142e-40
0.00070092542 -0.0091123804 0.73600006 8.4175298e-40
0.0021028286 -0.0091123953 0.73600006 9.339416e-40
0.0035047298 -0.0091123879 0.73600006 9.328598e-40
0.0049066311 -0.0091123804 0.73600006 1.0239806e-39
0.0063085323 -0.0091123804 0.73600006 5.608599e-40
0.00768949 -0.0090876296 0.73399997 1.8851668e-40
0.009087584 -0.0090876222 0.73399997 4.8043462e-39
0.010514277 -0.0091123879 0.73600006 9.4176646e-39
0.011916178 -0.0091123953 0.73600006 9.4126619e-39
0.013318079 -0.0091123804 0.73600006 9.5052261e-39
0.014719981 -0.0091123879 0.73600006 9.0421124e-39
0.016121881 -0.0091123804 0.73600006 8.5807699e-39
0.017523784 -0.0091123953 0.73600006 8.2134139e-39
0.01895142 -0.0091247633 0.73700005 7.847497e-39
0.020355206 -0.0091247633 0.73699999 7.7524217e-39
0.021759031 -0.0091247559 0.73699999 7.750991e-39
0.023257097 -0.0091619119 0.74000001 5.9067505e-39
0.024666613 -0.009161897 0.73999995 4.0671553e-39
0.026146639 -0.0091866702 0.74200004 4.6177941e-39
0.027560003 -0.0091866702 0.74200004 5.1677057e-39
0.029012349 -0.0091990456 0.74300003 5.2587971e-39
0.030591402 -0.0092485622 0.74699998 5.4406492e-39
0.032057095 -0.009260945 0.74799997 5.4384702e-39
0.033571448 -0.0092857257 0.75000006 5.4373772e-39
0.034999982 -0.0092857033 0.75000006 5.5288371e-39
0.036428578 -0.0092857108 0.75000006 5.5288259e-39
0.037857153 -0.0092857108 0.75000006 5.4366205e-39
-0.023634322 -0.00787808 0.75199997 1.0970944e-38
-0.022201939 -0.0078780949 0.75199997 7.2896065e-39
-0.020797199 -0.007888563 0.75299996 3.6011002e-39
-0.019285716 -0.0078571439 0.75000006 2.3935873e-39
-0.017809564 -0.0078361705 0.74799997 1.1096784e-39
-0.016319081 -0.0078047588 0.745 8.3452648e-40
-0.014900046 -0.0078047588 0.745 5.6082207e-40
-0.013444801 -0.0077838078 0.74300003 6.530233e-40
-0.012013373 -0.0077733397 0.74200004 7.4522173e-40
-0.010571474 -0.0077523738 0.74000001 7.4630354e-40
-0.0091495616 -0.0077418983 0.73899996 7.4666507e-40
-0.0077419514 -0.0077419132 0.73900002 7.4666787e-40
-0.0063343197 -0.0077419132 0.73900002 7.4703642e-40
-0.0049267234 -0.0077419057 0.73899996 8.3959778e-40
-0.0035190908 -0.0077418983 0.73899996 9.3179341e-40
-0.0021057362 -0.0077209398 0.73700005 8.3924185e-40
-0.00070096465 -0.0077104867 0.73600006 7.4920142e-40
0.00070093846 -0.0077104867 0.73600006 8.4175438e-40
0.0021028398 -0.0077104792 0.73600006 9.3358708e-40
0.003504741 -0.0077104867 0.73600006 9.3358427e-40
0.0049066423 -0.0077104792 0.73600006 9.3214934e-40
0.0063085454 -0.0077104867 0.73600006 6.5341426e-40
0.0077104466 -0.0077104792 0.73600006 2.8896736e-40
0.0091123478 -0.0077104867 0.73600006 4.8983453e-39
0.010514251 -0.0077104792 0.73600006 9.5001744e-39
0.01191615 -0.0077104792 0.736 9.3157958e-39
0.01331809 -0.0077104867 0.73600006 9.0417298e-39
0.014719992 -0.0077104941 0.73600006 8.7651541e-39
0.016121894 -0.0077104867 0.73600006 8.4889232e-39
0.017523795 -0.0077104792 0.73600006 8.304169e-39
0.018951423 -0.0077209622 0.73700005 8.0286541e-39
0.02035521 -0.0077209473 0.73699999 8.1197651e-39
0.021818042 -0.0077419057 0.73899996 8.116182e-39
