# .PCD v0.7 - Point Cloud Data file format
VERSION 0.7
FIELDS x y z rgb
SIZE 4 4 4 4
TYPE F F F F
COUNT 1 1 1 1
WIDTH 964
HEIGHT 1
VIEWPOINT 0 0 0 1 0 0 0
POINTS 964
DATA ascii
-0.01928572 -0.023571424 0.75 1.0182031e-39
-0.017857134 -0.023571432 0.75 5.61185e-40
-0.016428577 -0.023571424 0.75 3.7644342e-40
-0.014939992 -0.023477152 0.74699998 2.8532819e-40
-0.013480945 -0.023414277 0.745 3.7680635e-40
-0.012029516 -0.023351431 0.74299997 5.6047595e-40
-0.01059999 -0.023319989 0.74199998 4.7007258e-40
-0.0091618942 -0.023257129 0.73999995 3.7897136e-40
-0.0077419039 -0.023225702 0.73899996 4.71181e-40
-0.0063171345 -0.023162864 0.73699999 5.6337663e-40
-0.0049133184 -0.023162857 0.73700005 5.6266057e-40
-0.0035047594 -0.023131415 0.736 6.5342968e-40
-0.0021028556 -0.02313143 0.736 3.757792e-40
-0.0006971414 -0.023005709 0.73200005 1.8529089e-40
0.00069714629 -0.023005709 0.73200005 5.5586007e-40
0.0020914343 -0.023005702 0.73200005 8.2705897e-40
0.003485722 -0.023005717 0.73200005 8.3171968e-40
0.0048799925 -0.023005702 0.73199999 7.3520805e-40
0.0062742797 -0.023005687 0.73199999 6.4766474e-40
0.0076685678 -0.023005694 0.73199999 6.4335995e-40
0.0090628555 -0.023005709 0.73199999 6.483808e-40
0.010457145 -0.023005702 0.73199999 7.3771778e-40
0.011851433 -0.023005702 0.73199999 7.4275124e-40
0.013245712 -0.023005709 0.73199999 7.4562391e-40
0.014639999 -0.023005709 0.73199999 1.022208e-39
0.016034288 -0.023005687 0.73199999 1.2973529e-39
0.017428575 -0.023005709 0.73199999 1.1158301e-39
0.018874286 -0.023068562 0.73399997 8.3887191e-40
0.020272378 -0.023068562 0.73399997 1.1157965e-39
0.021670472 -0.023068555 0.73399997 1.2994899e-39
0.023131428 -0.023131408 0.736 1.4842595e-39
0.024533331 -0.0231314 0.736 1.5782867e-39
0.025935236 -0.023131415 0.736 5.7295759e-39
0.027374292 -0.023162842 0.73699999 9.8729212e-39
0.028856201 -0.023225717 0.73899996 9.3183055e-39
0.030304767 -0.023257129 0.73999995 8.7679749e-39
0.031800006 -0.023320004 0.74199998 7.377133e-39
0.033258103 -0.023351423 0.74299997 5.9930817e-39
0.034766667 -0.023414277 0.745 5.8968783e-39
0.036185712 -0.023414262 0.745 5.8957993e-39
0.037705723 -0.023477122 0.74699998 5.7132017e-39
0.039180957 -0.023508564 0.74799997 5.5298853e-39
0.040605724 -0.023508564 0.74800003 5.620639e-39
-0.020769512 -0.022201896 0.75200003 2.1281436e-39
-0.019285705 -0.022142872 0.75 1.2001056e-39
-0.017857146 -0.022142835 0.75 1.9169903e-40
-0.01638476 -0.022083811 0.74800003 2.8173246e-40
-0.014939996 -0.022054277 0.74699998 2.8316458e-40
-0.013480958 -0.021995224 0.745 5.6046333e-40
-0.012061909 -0.021995232 0.745 7.4449726e-40
-0.010614275 -0.021936178 0.74300003 5.6154934e-40
-0.0091866571 -0.021906666 0.74199998 2.8605546e-40
-0.0077523817 -0.021847606 0.73999995 4.690216e-40
-0.006334288 -0.021818079 0.73899996 5.6265356e-40
-0.0049133231 -0.021759048 0.73699999 7.4668609e-40
-0.0035095222 -0.021759041 0.73700005 8.3996352e-40
-0.0021028602 -0.021729514 0.736 5.673353e-40
-0.00069904968 -0.021670468 0.73399997 2.8824429e-40
0.00069714722 -0.021611415 0.73200005 9.3504162e-40
0.0020971424 -0.021670461 0.73399997 1.5743014e-39
0.0034952345 -0.021670461 0.73399997 1.4878455e-39
0.0048933346 -0.021670468 0.73399997 1.3906206e-39
0.0062742918 -0.021611437 0.73200005 1.3027227e-39
0.007668579 -0.02161143 0.73200005 1.1143868e-39
0.0090628499 -0.0216114 0.73199999 1.3030787e-39
0.010457137 -0.021611407 0.73199999 1.3913324e-39
0.011851426 -0.021611407 0.73199999 1.3945666e-39
0.013281905 -0.021670461 0.73399997 1.3005801e-39
0.014640001 -0.021611422 0.73199999 1.2091034e-39
0.016034279 -0.02161143 0.73199999 1.116549e-39
0.017476188 -0.021670461 0.73399997 1.0250694e-39
0.018874288 -0.021670468 0.73399997 9.3286821e-40
0.020272382 -0.021670468 0.73399997 1.0243366e-39
0.021670472 -0.021670446 0.73399997 1.0243492e-39
0.023131428 -0.021729521 0.73599994 1.2984319e-39
0.024566684 -0.021759056 0.73700005 1.5836592e-39
0.025970481 -0.021759041 0.73699999 5.5509146e-39
0.027374299 -0.021759041 0.73700005 9.50055e-39
0.028856197 -0.021818101 0.73899996 8.7611927e-39
0.030386681 -0.021906666 0.74200004 8.0243086e-39
0.031800006 -0.021906659 0.74199998 7.0029512e-39
0.033258107 -0.021936193 0.74300003 5.9909251e-39
0.034673352 -0.021936186 0.74300003 5.9883733e-39
0.036428574 -0.02214285 0.75 5.8965252e-39
0.037857145 -0.022142865 0.75 5.7135591e-39
0.039285716 -0.022142857 0.75 5.5298811e-39
0.040714286 -0.022142857 0.75 5.5295167e-39
-0.020769516 -0.020769522 0.75200003 5.9045378e-39
-0.019285716 -0.020714268 0.75 5.5300296e-39
-0.017809525 -0.020659029 0.74799997 5.2444548e-39
-0.016384754 -0.020659044 0.74800003 4.0537967e-39
-0.014959992 -0.020659037 0.74799997 2.8523963e-39
-0.013480945 -0.020576194 0.745 1.6603215e-39
-0.012061907 -0.020576164 0.745 4.682663e-40
-0.010614282 -0.02052094 0.74299997 4.6863765e-40
-0.0091866637 -0.020493321 0.74199998 5.6084168e-40
-0.0077523813 -0.020438083 0.73999995 7.4559728e-40
-0.0063342848 -0.020410478 0.73899996 8.3887191e-40
-0.0049266573 -0.020410463 0.73899996 8.3995091e-40
-0.0035095273 -0.020355225 0.73699999 9.3322834e-40
-0.0021057115 -0.020355225 0.73700005 7.5063915e-40
-0.00069904828 -0.020272367 0.73399997 5.6769263e-40
0.00069905131 -0.020272382 0.73399997 1.0265184e-39
0.0020971443 -0.020272374 0.73399997 1.4864133e-39
0.0034952359 -0.020272359 0.73399997 1.4864133e-39
0.004893336 -0.020272367 0.73399997 1.4856931e-39
0.0062914286 -0.020272382 0.73399997 1.2094649e-39
0.0076895207 -0.020272374 0.73399997 1.0250736e-39
0.0090876212 -0.020272367 0.73399997 1.302371e-39
0.010485713 -0.020272382 0.73399997 1.5789537e-39
0.011883813 -0.020272374 0.73399997 1.3945652e-39
0.013281905 -0.020272359 0.73399997 1.2105355e-39
0.014639995 -0.020217121 0.73199999 1.2098166e-39
0.016034283 -0.020217121 0.73199999 1.1179811e-39
0.01747619 -0.020272374 0.73399997 1.0257855e-39
0.018925715 -0.020327613 0.736 8.4247465e-40
0.020272382 -0.020272382 0.73399997 9.3359408e-40
0.021729525 -0.020327613 0.736 1.025431e-39
0.023131428 -0.020327605 0.736 1.2094621e-39
0.02456668 -0.020355225 0.73699999 1.4885867e-39
0.025970489 -0.020355225 0.73700005 5.7295507e-39
0.027448583 -0.020410478 0.73899996 9.9597204e-39
0.028895248 -0.020438083 0.73999995 8.9473734e-39
0.030386681 -0.020493343 0.74200004 7.9324605e-39
0.031800006 -0.020493336 0.74200004 7.0979901e-39
0.033258103 -0.02052094 0.74299997 6.2653526e-39
0.034906674 -0.020659029 0.74799997 6.0805844e-39
0.036331438 -0.020659044 0.74800003 5.8039807e-39
0.037756193 -0.020659037 0.74799997 5.7128402e-39
0.039285716 -0.020714283 0.75 5.6217138e-39
-0.017857144 -0.019285694 0.75 1.0221874e-38
-0.016384747 -0.019234285 0.74800003 7.8370293e-39
-0.014960001 -0.019234285 0.74799997 5.3448704e-39
-0.013480958 -0.019157127 0.745 2.76016e-39
-0.012061895 -0.019157141 0.745 9.9829904e-41
-0.010614277 -0.019105703 0.74299997 4.6684258e-40
-0.0091866562 -0.019080013 0.74200004 8.3598664e-40
-0.0077523817 -0.019028544 0.73999995 1.0221758e-39
-0.0063342708 -0.019002855 0.73899996 1.1150931e-39
-0.0049266689 -0.019002862 0.73899996 1.024338e-39
-0.0035190412 -0.019002855 0.73899996 9.3322694e-40
-0.0021057157 -0.018951431 0.73699999 8.4211732e-40
-0.00070094725 -0.018925712 0.736 7.5028603e-40
0.00070095679 -0.018925704 0.736 1.1172749e-39
0.0021028542 -0.018925697 0.736 1.3938604e-39
0.0035047578 -0.018925712 0.73599994 1.4853399e-39
0.0049066623 -0.018925689 0.73599994 1.4853343e-39
0.0062914304 -0.01887428 0.73399997 1.2080272e-39
0.0076895221 -0.018874273 0.73399997 9.3359408e-40
0.0090628611 -0.018822834 0.73200005 1.3027269e-39
0.010457144 -0.018822849 0.73200005 1.6704276e-39
0.011883807 -0.018874295 0.73399997 1.3945624e-39
0.013281907 -0.018874288 0.73399997 1.1186958e-39
0.014640005 -0.018822849 0.73200005 1.1183371e-39
0.016034294 -0.018822856 0.73200005 1.1179783e-39
0.01747619 -0.018874273 0.73399997 9.3430874e-40
0.018925708 -0.018925704 0.73599994 7.5028042e-40
0.020327613 -0.018925697 0.73599994 8.4139845e-40
0.021729527 -0.018925704 0.736 9.3359128e-40
0.023131432 -0.018925719 0.736 1.1172609e-39
0.024566678 -0.018951423 0.73700005 1.3099352e-39
0.025970483 -0.018951416 0.73699999 5.82677e-39
0.02744858 -0.019002847 0.73899996 1.032922e-38
0.028856188 -0.019002847 0.73899996 9.135359e-39
0.030304767 -0.019028567 0.73999995 7.8427844e-39
0.031800009 -0.019080006 0.74200004 7.1905473e-39
0.033258107 -0.01910571 0.74299997 6.5426541e-39
0.034766663 -0.019157134 0.745 6.1724199e-39
0.036331438 -0.019234277 0.74800003 5.7125025e-39
0.037756197 -0.019234277 0.74799997 5.7117626e-39
0.039285712 -0.019285701 0.75 5.7128318e-39
-0.017857144 -0.017857142 0.75 9.5872833e-39
-0.016384756 -0.017809518 0.74800003 8.7557822e-39
-0.014959994 -0.017809525 0.74799997 7.9302577e-39
-0.013517127 -0.017785713 0.74700004 6.635151e-39
-0.012061908 -0.017738089 0.745 5.3369461e-39
-0.010614273 -0.017690465 0.74300003 2.9503456e-39
-0.0091866488 -0.017666668 0.74200004 4.6792439e-40
-0.0077523817 -0.017619021 0.73999995 8.3706564e-40
-0.0063342825 -0.017595232 0.73899996 1.208002e-39
-0.004926655 -0.017595232 0.73900002 1.0236191e-39
-0.0035190382 -0.017595239 0.73899996 7.4955595e-40
-0.0021057096 -0.017547615 0.73700005 8.4175859e-40
-0.00070095283 -0.017523795 0.736 9.3323815e-40
0.0007009512 -0.01752381 0.736 1.1179881e-39
0.0021028561 -0.017523803 0.736 1.3023836e-39
0.0035047596 -0.01752381 0.736 1.3023892e-39
0.0049066641 -0.017523795 0.736 1.3030983e-39
0.0062914314 -0.017476186 0.73399997 1.0257883e-39
0.007689524 -0.017476179 0.73399997 8.4175578e-40
0.0090876166 -0.017476179 0.73399997 1.2105285e-39
0.010485717 -0.017476171 0.73399997 1.5782292e-39
0.011883809 -0.017476186 0.73399997 1.3945582e-39
0.01328191 -0.017476179 0.73399997 1.2105285e-39
0.014680001 -0.017476194 0.73399997 1.1183329e-39
0.016078092 -0.017476194 0.73399997 1.0261414e-39
0.017476194 -0.017476179 0.73399997 9.3430874e-40
0.018925719 -0.017523795 0.736 9.3430874e-40
0.020327622 -0.01752381 0.736 1.0257855e-39
0.021729525 -0.017523803 0.736 1.1172581e-39
0.02313143 -0.017523803 0.73599994 1.3941953e-39
0.024566673 -0.017547607 0.73699999 1.7662414e-39
0.025970491 -0.017547615 0.73700005 5.6409494e-39
0.027448583 -0.017595232 0.73899996 9.5066526e-39
0.028856196 -0.017595232 0.73899996 8.398531e-39
0.030386677 -0.017666668 0.74199998 7.296442e-39
0.031800006 -0.01766666 0.74199998 6.6398972e-39
0.03325811 -0.017690472 0.74300003 5.9905678e-39
0.034766678 -0.017738089 0.745 5.8979896e-39
0.036331441 -0.017809525 0.74800003 5.8050555e-39
0.037756197 -0.017809518 0.74799997 5.7128374e-39
0.039285716 -0.017857127 0.75 5.6217124e-39
-0.020797133 -0.016494282 0.75299996 8.1806067e-39
-0.019362843 -0.016494289 0.75300002 8.5432781e-39
-0.017904755 -0.016472369 0.75200003 8.9242856e-39
-0.016428571 -0.016428567 0.75 9.7594483e-39
-0.014959988 -0.016384751 0.74799997 1.0499152e-38
-0.013517133 -0.016362868 0.74700004 1.0605692e-38
-0.012061906 -0.016319029 0.745 1.0589196e-38
-0.010614279 -0.01627522 0.74299997 5.3452516e-39
-0.0091990419 -0.016275227 0.74299997 1.0631371e-40
-0.007773316 -0.016253337 0.74200004 7.4125886e-40
-0.0063428581 -0.016209513 0.73999995 1.2962389e-39
-0.0049266662 -0.016187623 0.73899996 9.2927668e-40
-0.0035190491 -0.016187608 0.73899996 5.6445143e-40
-0.0021114219 -0.016187616 0.73899996 8.4139845e-40
-0.00070095377 -0.016121894 0.73599994 1.1176252e-39
0.00070095074 -0.016121887 0.73599994 1.1187042e-39
0.0021028547 -0.016121902 0.73599994 1.118707e-39
0.0035047689 -0.016121894 0.736 1.1190699e-39
0.004906666 -0.016121902 0.736 1.1187014e-39
0.006308571 -0.016121902 0.736 9.3358567e-40
0.0076895258 -0.016078092 0.73399997 6.5915538e-40
0.0090876194 -0.016078085 0.73400003 1.0272162e-39
0.010485719 -0.016078092 0.73399997 1.3945596e-39
0.01188381 -0.016078085 0.73400003 1.3023682e-39
0.013281911 -0.016078092 0.73399997 1.2108872e-39
0.014680003 -0.016078092 0.73399997 1.0268547e-39
0.016078096 -0.016078085 0.73399997 8.4282918e-40
0.017523805 -0.016121887 0.73599994 9.3467028e-40
0.018925719 -0.016121902 0.736 1.0261456e-39
0.020327624 -0.016121894 0.736 1.1176224e-39
0.021729529 -0.016121909 0.736 1.2094565e-39
0.023162864 -0.016143806 0.73700005 1.7601093e-39
0.02456668 -0.016143799 0.73700005 2.230081e-39
0.026040953 -0.016187608 0.73899996 5.4633684e-39
0.02744858 -0.016187608 0.73899996 8.6722158e-39
0.028895246 -0.01620952 0.73999995 7.6559129e-39
0.030386675 -0.01625333 0.74200004 6.6406595e-39
0.031800002 -0.016253322 0.74199998 5.9902356e-39
0.033258099 -0.016275227 0.74299997 5.3477179e-39
0.03476667 -0.016319029 0.745 5.6231963e-39
0.036428567 -0.01642856 0.75 5.897607e-39
0.037756197 -0.016384751 0.74799997 5.7124829e-39
0.039285719 -0.016428567 0.75 5.5298839e-39
-0.020852381 -0.01509998 0.755 8.1748319e-39
-0.01936285 -0.01506 0.75300002 8.4503132e-39
-0.017904758 -0.015039988 0.75200003 8.7247701e-39
-0.016428571 -0.014999993 0.75 9.194376e-39
-0.014939983 -0.014940009 0.74700004 9.6608052e-39
-0.013480957 -0.014899991 0.745 1.0128311e-38
-0.012061909 -0.014899991 0.745 1.0599291e-38
-0.010614274 -0.014859997 0.74299997 8.4834511e-39
-0.0091866581 -0.014839999 0.74199998 6.2682519e-39
-0.007773323 -0.014840007 0.74200004 3.506343e-39
-0.0063428581 -0.01479999 0.73999995 7.4449866e-40
-0.0049266629 -0.014779992 0.73899996 5.6122144e-40
-0.0035190356 -0.01478 0.73899996 3.8078184e-40
-0.0021114331 -0.014779985 0.73899996 7.4956156e-40
-0.00070095889 -0.014719978 0.736 1.1176238e-39
0.0007009526 -0.014719993 0.736 1.2098208e-39
0.002102857 -0.014719985 0.736 1.3023738e-39
0.0035047615 -0.014719985 0.736 1.2112558e-39
0.0049066651 -0.014719985 0.73599994 1.2108872e-39
0.00630857 -0.014719993 0.73599994 9.3465206e-40
0.0076895165 -0.014679983 0.73399997 6.5986864e-40
0.0090876082 -0.014679983 0.73399997 1.0268575e-39
0.010514286 -0.014719993 0.736 1.3023682e-39
0.011883812 -0.014679991 0.73400003 1.2105355e-39
0.013281913 -0.014679998 0.73399997 1.2112474e-39
0.014680005 -0.014679991 0.73399997 1.0268533e-39
0.016078096 -0.014679998 0.73399997 9.3430734e-40
0.017523807 -0.014719985 0.736 9.3431295e-40
0.018925712 -0.014719978 0.73599994 1.0254296e-39
0.020327616 -0.014719985 0.73599994 1.1172637e-39
0.02172952 -0.014719978 0.73599994 1.209818e-39
0.02316286 -0.014739983 0.73699999 1.5778789e-39
0.024566675 -0.01473999 0.73700005 1.9513445e-39
0.02604096 -0.01478 0.73899996 5.1767314e-39
0.027448576 -0.014779992 0.73899996 8.3895094e-39
0.028895248 -0.01479999 0.73999995 7.4678951e-39
0.030386686 -0.014839999 0.74200004 6.5384012e-39
0.031800009 -0.014839999 0.74200004 5.80585e-39
0.033258103 -0.014859989 0.74299997 5.0718527e-39
0.034860019 -0.014940009 0.74700004 5.3476856e-39
0.03652573 -0.015039988 0.75200003 5.7146535e-39
0.037857149 -0.014999993 0.75 5.6217264e-39
0.039442871 -0.015059993 0.75300002 5.5295321e-39
-0.022379035 -0.013716176 0.75799996 7.7160202e-39
-0.020880006 -0.013679996 0.75599998 8.0829922e-39
-0.019362856 -0.013625711 0.75299996 8.266652e-39
-0.01790476 -0.013607614 0.75199997 8.4496266e-39
-0.016428573 -0.013571434 0.75 8.6329584e-39
-0.014939988 -0.013517156 0.74700004 8.7302057e-39
-0.013480955 -0.013480932 0.745 9.6464405e-39
-0.012029506 -0.013444759 0.74300003 1.0593168e-38
-0.010614281 -0.013444752 0.74299997 1.1537026e-38
-0.0091866655 -0.013426661 0.74200004 1.243849e-38
-0.0077733253 -0.013426661 0.74199998 6.2711315e-39
-0.0063428581 -0.013390467 0.73999995 1.0882904e-40
-0.0049266596 -0.013372377 0.73899996 1.902641e-40
-0.0035190468 -0.013372369 0.73899996 1.9529757e-40
-0.0021114196 -0.013372391 0.73900002 6.5807498e-40
-0.0007018972 -0.013336182 0.73699999 1.1172595e-39
0.00070191792 -0.013336182 0.73700005 1.3002214e-39
0.0021028584 -0.013318092 0.736 1.3942135e-39
0.0035047629 -0.013318077 0.736 1.3960128e-39
0.0049066665 -0.013318084 0.736 1.3034486e-39
0.0063085719 -0.013318084 0.736 1.026496e-39
0.0077104764 -0.013318084 0.736 6.5951131e-40
0.009087611 -0.013281889 0.73399997 9.3465907e-40
0.010514284 -0.013318092 0.73599994 1.2105257e-39
0.011916189 -0.013318084 0.73599994 1.2101698e-39
0.013281902 -0.013281889 0.73399997 1.1183315e-39
0.014679995 -0.013281897 0.73399997 1.0268519e-39
0.016121905 -0.013318084 0.736 9.3429894e-40
0.017523816 -0.013318092 0.736 9.339416e-40
0.018925712 -0.013318084 0.736 9.3322974e-40
0.020327618 -0.013318092 0.736 1.0243534e-39
0.021729521 -0.013318092 0.736 1.1161903e-39
0.023162866 -0.013336182 0.73700005 1.3902646e-39
0.02456668 -0.013336189 0.73700005 1.5836508e-39
0.026040964 -0.013372384 0.73899996 4.8111971e-39
0.027448582 -0.013372377 0.73899996 8.0246968e-39
0.028895244 -0.013390467 0.73999995 7.1952809e-39
0.030386675 -0.013426669 0.74199998 6.3629894e-39
0.031800009 -0.013426669 0.74200004 5.5303379e-39
0.033258107 -0.013444759 0.74300003 4.7045079e-39
0.034906674 -0.013535239 0.74800003 5.072182e-39
0.036428578 -0.013571426 0.75 5.4384309e-39
0.037857138 -0.013571419 0.75 5.5298923e-39
0.039285723 -0.013571434 0.75 5.5302482e-39
-0.023885716 -0.012304746 0.75999999 7.34866e-39
-0.022379041 -0.012272373 0.75799996 7.7160034e-39
-0.020879995 -0.01224 0.75599998 8.1748249e-39
-0.019362848 -0.012191422 0.75299996 8.3584973e-39
-0.017904753 -0.012175232 0.75200003 8.5414663e-39
-0.016428571 -0.012142852 0.75 8.5411215e-39
-0.014939993 -0.012094282 0.74700004 8.5411075e-39
-0.013517133 -0.012094297 0.74700004 9.3755037e-39
-0.012061895 -0.012061901 0.745 1.0222573e-38
-0.010614276 -0.012029514 0.74299997 1.1989433e-38
-0.00919904 -0.012029514 0.74299997 1.383113e-38
-0.0077733323 -0.012013331 0.74199998 1.0051131e-38
-0.0063428581 -0.011980936 0.73999995 6.2693449e-39
-0.0049333298 -0.011980936 0.73999995 3.2304918e-39
-0.0035190436 -0.011964768 0.73899996 1.9420315e-40
-0.0021114158 -0.011964761 0.73899996 6.5519531e-40
-0.00070189161 -0.011932373 0.73700005 1.2094495e-39
0.00070191373 -0.011932373 0.73699999 1.3012962e-39
0.0021057217 -0.01193238 0.73700005 1.4856959e-39
0.0035047545 -0.011916175 0.73599994 1.3956638e-39
0.0049133422 -0.011932366 0.73699999 1.212339e-39
0.0063085733 -0.011916183 0.736 9.3538494e-40
0.0077104778 -0.011916183 0.736 6.5915538e-40
0.0091123832 -0.011916183 0.736 9.350136e-40
0.010514286 -0.011916175 0.736 1.2108788e-39
0.01191619 -0.011916175 0.736 1.2101614e-39
0.013318096 -0.011916175 0.736 1.1172497e-39
0.01472 -0.011916175 0.73599994 1.0261316e-39
0.016121903 -0.011916183 0.73599994 9.3429193e-40
0.017523808 -0.011916175 0.73599994 9.3321153e-40
0.018925704 -0.011916183 0.73599994 1.0243422e-39
0.02032762 -0.011916183 0.736 1.0239946e-39
0.021759063 -0.011932373 0.73700005 1.0239975e-39
0.02316286 -0.011932373 0.73699999 1.2083887e-39
0.024566676 -0.011932373 0.73699999 1.3964009e-39
0.026040958 -0.011964753 0.73899996 4.9005355e-39
0.027448578 -0.011964768 0.73899996 8.3970793e-39
0.028895244 -0.011980936 0.73999995 7.6584268e-39
0.030386675 -0.012013331 0.74199998 6.9222617e-39
0.031842865 -0.012029506 0.74299997 5.9941733e-39
0.033347618 -0.012061894 0.745 5.0714897e-39
0.034906682 -0.012110479 0.74800003 5.2547782e-39
0.036428567 -0.012142852 0.75 5.4373575e-39
0.037857145 -0.012142859 0.75 5.4376995e-39
0.039285719 -0.012142852 0.75 5.5298895e-39
0.040714286 -0.012142852 0.75 5.530244e-39
-0.02543333 -0.010899998 0.76300001 6.3384583e-39
-0.023885712 -0.010857135 0.75999999 7.3490103e-39
-0.022379035 -0.010828555 0.75800002 7.8078319e-39
-0.020935234 -0.01082857 0.75800002 8.1751766e-39
-0.019362856 -0.010757141 0.75299996 8.3584917e-39
-0.017904757 -0.010742851 0.75200003 8.5414522e-39
-0.016428571 -0.010714285 0.75 8.4492664e-39
-0.014939983 -0.010671437 0.74700004 8.3574463e-39
-0.013517138 -0.010671429 0.74700004 9.0921457e-39
-0.012061908 -0.010642841 0.745 9.7677299e-39
-0.010614272 -0.010614283 0.74300003 1.2457957e-38
-0.0091866497 -0.010600001 0.74200004 1.5119736e-38
-0.0077733244 -0.010599993 0.74200004 1.3740754e-38
-0.0063428581 -0.010571413 0.73999995 1.2346303e-38
-0.0049333302 -0.010571413 0.73999995 6.2675218e-39
-0.0035190398 -0.01055713 0.73899996 1.0380679e-40
-0.0021114275 -0.010557145 0.73899996 6.5125767e-40
-0.00070189626 -0.010528564 0.73699999 1.20766e-39
0.0007019128 -0.010528564 0.73700005 1.3934918e-39
0.0021057175 -0.010528557 0.73699999 1.5778873e-39
0.0035095331 -0.010528564 0.73700005 1.396017e-39
0.0049066609 -0.010514274 0.736 1.1194245e-39
0.0063171457 -0.010528572 0.73699999 8.4283338e-40
0.0077104694 -0.010514274 0.73599994 5.6696115e-40
0.0091123739 -0.010514267 0.73599994 9.3537233e-40
0.01051429 -0.010514282 0.736 1.2108788e-39
0.011916193 -0.010514274 0.736 1.2108788e-39
0.013318097 -0.010514282 0.736 1.1183273e-39
0.014720003 -0.010514274 0.736 1.0264946e-39
0.016121905 -0.010514267 0.736 8.4174457e-40
0.01752381 -0.010514282 0.736 9.3250247e-40
0.018925713 -0.010514267 0.736 1.0236289e-39
0.020355254 -0.010528572 0.73700005 1.0229213e-39
0.021759052 -0.010528557 0.73699999 9.3144449e-40
0.023162868 -0.010528564 0.73700005 1.1140393e-39
0.024566673 -0.01052855 0.73699999 1.2152341e-39
0.026040955 -0.010557137 0.73899996 4.9977422e-39
0.027448582 -0.010557137 0.73899996 8.7629807e-39
0.028895246 -0.010571413 0.73999995 8.1183232e-39
0.030386675 -0.010599986 0.74200004 7.4714768e-39
0.031842869 -0.010614268 0.74300003 6.4522676e-39
0.033347618 -0.010642849 0.745 5.4388135e-39
0.034906682 -0.01068572 0.74800003 5.4373435e-39
0.036428582 -0.010714285 0.75 5.344785e-39
0.037756205 -0.010685705 0.74800003 5.4366163e-39
0.039285716 -0.010714285 0.75 5.5288035e-39
0.040605724 -0.010685705 0.74799997 5.5284391e-39
-0.025366668 -0.0094218776 0.76099992 6.0636595e-39
-0.023885725 -0.0094095021 0.75999999 7.3504368e-39
-0.022379041 -0.0093847513 0.75799996 7.8088996e-39
-0.020880008 -0.009359993 0.75599998 8.1751696e-39
-0.019414283 -0.0093476102 0.755 8.3584847e-39
-0.017928571 -0.0093228593 0.75300002 8.6332751e-39
-0.016428582 -0.0092857033 0.75 8.4492468e-39
-0.014959986 -0.0092609525 0.74800003 8.3574575e-39
-0.013517128 -0.0092485771 0.74700004 9.5678655e-39
-0.012061906 -0.0092238039 0.745 1.0879472e-38
-0.010614278 -0.0091990381 0.74299997 1.2912489e-38
-0.0091866674 -0.0091866553 0.74199998 1.4846422e-38
-0.0077733169 -0.0091866702 0.74200004 1.4386892e-38
-0.0063428581 -0.009161897 0.73999995 1.3832203e-38
-0.0049333298 -0.0091618896 0.73999995 9.1266205e-39
-0.0035190515 -0.0091495216 0.73899996 4.4146983e-39
-0.0021114238 -0.0091495216 0.73899996 2.5794514e-39
-0.00070188974 -0.0091247633 0.73700005 7.4992169e-40
0.00070190767 -0.0091247559 0.73699999 1.2091048e-39
0.0021057231 -0.0091247559 0.73700005 1.577167e-39
0.003509528 -0.0091247484 0.73699999 1.4864105e-39
0.0049133436 -0.0091247633 0.73699999 1.3934932e-39
0.0063171512 -0.0091247633 0.73700005 1.0257869e-39
0.0077104787 -0.0091123655 0.736 6.5664426e-40
0.0091123832 -0.0091123655 0.736 1.0261316e-39
0.010514281 -0.0091123655 0.736 1.3023556e-39
0.011916186 -0.009112373 0.73599994 1.2105187e-39
0.01331809 -0.0091123581 0.73599994 1.1179713e-39
0.014719994 -0.009112373 0.73599994 1.0257813e-39
0.016121907 -0.009112373 0.736 1.0250638e-39
0.017523812 -0.0091123655 0.736 1.0239862e-39
0.018925715 -0.009112373 0.736 1.0225583e-39
0.020355249 -0.0091247484 0.73699999 8.396104e-40
0.021759057 -0.0091247633 0.73700005 6.570142e-40
0.023162862 -0.0091247484 0.73699999 1.0243534e-39
0.024633341 -0.0091495216 0.73899996 1.4857127e-39
0.026040958 -0.0091495141 0.73899996 5.2674977e-39
0.027485717 -0.009161897 0.73999995 9.1299598e-39
0.028973341 -0.0091866478 0.74199998 8.3023529e-39
0.030427635 -0.0091990381 0.74300003 7.5658206e-39
0.031928577 -0.0092238039 0.745 6.5448135e-39
0.033437151 -0.0092485845 0.74700004 5.6199551e-39
0.034906678 -0.0092609525 0.74800003 5.4362365e-39
0.036428582 -0.0092857108 0.75 5.3429731e-39
0.037857141 -0.0092857108 0.75 5.3440549e-39
0.039285723 -0.0092857033 0.75 5.4362407e-39
0.040605731 -0.009260945 0.74800003 5.436591e-39
-0.025366668 -0.0079723522 0.76099992 5.8810955e-39
-0.023885712 -0.007961899 0.75999999 7.3504564e-39
-0.022379033 -0.0079409406 0.75800002 7.8096269e-39
-0.020879995 -0.0079199895 0.75599998 8.175534e-39
-0.019414283 -0.0079095066 0.755 8.4499657e-39
-0.017928563 -0.0078885704 0.75299996 8.6332821e-39
-0.016428567 -0.007857129 0.75 8.449258e-39
-0.014960005 -0.0078361779 0.74799997 8.2713842e-39
-0.013535234 -0.0078361854 0.74799997 1.0125729e-38
-0.012061893 -0.0078047514 0.745 1.1984029e-38
-0.010642855 -0.0078047514 0.745 1.3282349e-38
-0.0091990372 -0.0077838004 0.74299997 1.4570561e-38
-0.0077838008 -0.0077838078 0.74300003 1.4944366e-38
-0.0063599837 -0.0077733397 0.74200004 1.5304479e-38
-0.0049333298 -0.0077523589 0.73999995 1.1992248e-38
-0.0035190375 -0.0077418983 0.73899996 8.6578133e-39
-0.0021114205 -0.0077419057 0.73899996 4.5022416e-39
-0.00070189394 -0.0077209473 0.73699999 2.8535341e-40
0.00070191373 -0.0077209473 0.73700005 9.3180042e-40
0.0021057189 -0.0077209473 0.73699999 1.5771642e-39
0.0035095341 -0.0077209398 0.73700005 1.578246e-39
0.0049133422 -0.0077209547 0.73700005 1.5775216e-39
0.006317148 -0.0077209324 0.73699999 1.2094565e-39
0.0077104806 -0.0077104643 0.736 7.4991188e-40
0.0091123851 -0.0077104568 0.736 1.1176042e-39
0.01051429 -0.0077104643 0.736 1.3938295e-39
0.011916194 -0.0077104643 0.736 1.3019968e-39
0.013318091 -0.0077104717 0.736 1.1179699e-39
0.014719996 -0.0077104568 0.736 1.1172567e-39
0.016121898 -0.0077104717 0.736 1.1168979e-39
0.017523803 -0.0077104643 0.736 1.1161805e-39
0.018925708 -0.0077104494 0.73599994 1.0236317e-39
0.020355254 -0.0077209547 0.73700005 7.4705463e-40
0.021759052 -0.0077209398 0.73699999 3.8114477e-40
0.023162868 -0.0077209398 0.73700005 1.0239904e-39
0.024633344 -0.0077418983 0.73899996 1.6740458e-39
0.026076196 -0.0077523664 0.73999995 5.6402235e-39
0.027485717 -0.0077523738 0.73999995 9.4973059e-39
0.028973341 -0.0077733323 0.74199998 8.5785838e-39
0.030386675 -0.0077733174 0.74199998 7.5629578e-39
0.031928569 -0.0078047514 0.745 6.6330701e-39
0.033437148 -0.0078257173 0.74700004 5.7136025e-39
0.034906674 -0.0078361779 0.74799997 5.5284616e-39
0.036331434 -0.0078361928 0.74799997 5.2522306e-39
0.037857145 -0.0078571364 0.75 5.3440605e-39
0.039285712 -0.0078571364 0.75 5.3447709e-39
0.04071429 -0.007857129 0.75 5.3458415e-39
0.042142864 -0.0078571364 0.75 5.3444192e-39
-0.025366658 -0.0065228418 0.76099998 5.6967379e-39
-0.023885708 -0.0065142661 0.75999999 7.4423116e-39
-0.022379039 -0.0064971372 0.75799996 7.8092766e-39
-0.020879999 -0.0064799935 0.75599998 8.1751822e-39
-0.019414281 -0.0064714178 0.755 8.4503286e-39
-0.017928571 -0.0064542741 0.75299996 8.8169615e-39
-0.016428569 -0.0064285696 0.75 8.8166098e-39
-0.01500001 -0.0064285547 0.75 8.8166799e-39
-0.013535229 -0.0064114332 0.74799997 1.0868698e-38
-0.012094279 -0.0064028502 0.74700004 1.2822408e-38
-0.010642858 -0.0063857064 0.745 1.3648979e-38
-0.0091990326 -0.0063685626 0.74300003 1.438295e-38
-0.0077838073 -0.0063685626 0.74299997 1.4663124e-38
-0.006368571 -0.0063685551 0.74299997 1.4939328e-38
-0.0049466509 -0.0063600093 0.74200004 1.2541181e-38
-0.0035238066 -0.0063428506 0.73999995 1.023196e-38
-0.0021114214 -0.0063342825 0.73900002 5.6229049e-39
-0.00070380454 -0.0063342825 0.73899996 9.2639841e-40
0.0007038085 -0.0063342825 0.73899996 1.481733e-39
0.0021057245 -0.0063171387 0.73700005 2.0374165e-39
0.0035095294 -0.0063171387 0.73699999 1.7622744e-39
0.004913338 -0.0063171387 0.73699999 1.5782376e-39
0.0063171536 -0.0063171312 0.73700005 1.2098124e-39
0.0077209584 -0.0063171312 0.73699999 8.4210331e-40
0.0091247745 -0.0063171312 0.73700005 1.3938239e-39
0.010514281 -0.0063085631 0.73599994 1.9455586e-39
0.011916187 -0.0063085556 0.73599994 1.4860266e-39
0.013318101 -0.0063085631 0.736 1.1186874e-39
0.014720005 -0.0063085631 0.736 1.1179727e-39
0.016121909 -0.0063085556 0.736 1.117614e-39
0.017523814 -0.0063085705 0.736 1.1168965e-39
0.018951427 -0.0063171312 0.73699999 1.2083775e-39
0.020355243 -0.0063171387 0.73699999 1.0243506e-39
0.021759059 -0.0063171312 0.73700005 8.4139425e-40
0.023162859 -0.0063171387 0.73699999 1.208016e-39
0.024633341 -0.006334275 0.73899996 1.6683047e-39
0.026076198 -0.0063428506 0.73999995 5.4515317e-39
0.027560016 -0.0063600019 0.74200004 9.2225211e-39
0.028973345 -0.0063599944 0.74200004 8.486754e-39
0.03050952 -0.0063857064 0.745 7.6583876e-39
0.032014295 -0.0064028576 0.74700004 6.6384581e-39
0.033437148 -0.0064028651 0.74700004 5.6232216e-39
0.034906667 -0.0064114258 0.74799997 5.4370142e-39
0.036428578 -0.0064285621 0.75 5.2529663e-39
0.037857141 -0.0064285547 0.75 5.1607538e-39
0.039285708 -0.0064285696 0.75 5.1611084e-39
0.040714294 -0.0064285696 0.75 5.253297e-39
-0.025366658 -0.0050733313 0.76099998 5.6052331e-39
-0.023885719 -0.0050666556 0.75999999 7.4422989e-39
-0.022379033 -0.0050533265 0.75800002 7.8103556e-39
-0.020880012 -0.005039975 0.75599992 8.1759137e-39
-0.01941428 -0.0050333291 0.755 8.5421879e-39
-0.017928574 -0.00502 0.75299996 8.9087984e-39
-0.016472379 -0.0050133318 0.75200003 9.1839308e-39
-0.014999996 -0.0049999952 0.75 9.387077e-39
-0.013535236 -0.0049866661 0.74800003 1.1525943e-38
-0.012094283 -0.0049799979 0.74699998 1.3645718e-38
-0.010642856 -0.0049666539 0.745 1.3923763e-38
-0.0092238076 -0.0049666539 0.745 1.4199989e-38
-0.0077838027 -0.0049533322 0.74299997 1.4385458e-38
-0.0063685663 -0.0049533248 0.74300003 1.4476921e-38
-0.0049466579 -0.0049466714 0.74200004 1.3184395e-38
-0.0035238066 -0.0049333274 0.73999995 1.1797134e-38
-0.0021142783 -0.00493332 0.73999995 6.7389648e-39
-0.000701893 -0.0049133226 0.73700005 1.5793124e-39
0.0007038113 -0.0049266592 0.73899996 2.0309537e-39
0.0021114391 -0.0049266592 0.73899996 2.4036823e-39
0.0035190587 -0.0049266592 0.73899996 2.0392144e-39
0.004913344 -0.0049133226 0.73700005 1.5785964e-39
0.0063171494 -0.0049133301 0.73699999 1.2098152e-39
0.0077209645 -0.0049133226 0.73700005 8.4246344e-40
0.0091247624 -0.0049133301 0.73699999 1.669692e-39
0.010528578 -0.0049133226 0.73699999 2.4047375e-39
0.011932393 -0.0049133226 0.73700005 1.7615331e-39
0.013318093 -0.0049066544 0.736 1.1186916e-39
0.014719998 -0.0049066395 0.73599994 1.1186972e-39
0.016143821 -0.0049133301 0.73700005 1.0261414e-39
0.017547626 -0.0049133226 0.73699999 1.2090936e-39
0.018951435 -0.0049133375 0.73700005 1.3002074e-39
0.020355249 -0.0049133301 0.73700005 1.2998445e-39
0.021759056 -0.0049133226 0.73699999 1.2998487e-39
0.023225725 -0.0049266666 0.73899996 1.4817302e-39
0.024666676 -0.00493332 0.73999995 1.5825662e-39
0.026146675 -0.0049466714 0.74200004 5.2746724e-39
0.027560005 -0.004946664 0.74199998 8.9477307e-39
0.02897335 -0.0049466714 0.74200004 8.39528e-39
0.030509528 -0.0049666539 0.745 7.748428e-39
0.032014299 -0.0049800053 0.74699998 6.6384539e-39
0.033481915 -0.0049866587 0.74800003 5.531742e-39
0.03490667 -0.0049866661 0.74799997 5.4345045e-39
0.036428574 -0.0049999878 0.75 5.2522474e-39
0.037857141 -0.0049999952 0.75 5.0689141e-39
0.039285727 -0.0050000101 0.75 4.8859578e-39
-0.025366658 -0.003623791 0.76099998 5.6959644e-39
-0.023885718 -0.0036190376 0.75999999 7.4419276e-39
-0.022379039 -0.0036095157 0.75799996 7.8092822e-39
-0.020935237 -0.0036095083 0.75799996 8.2677618e-39
-0.01944001 -0.0035999864 0.75599998 8.541853e-39
-0.017928557 -0.0035857111 0.75300002 8.9084411e-39
-0.016472382 -0.0035809353 0.75199997 9.4723306e-39
-0.014999996 -0.0035714209 0.75 9.9499422e-39
-0.01353523 -0.0035619065 0.74800003 1.1801139e-38
-0.012094274 -0.0035571456 0.74699998 1.3556056e-38
-0.010671428 -0.0035571456 0.74699998 1.3739726e-38
-0.0092238216 -0.0035476014 0.745 1.3831564e-38
-0.0078047733 -0.0035476014 0.745 1.4110302e-38
-0.0063685616 -0.003538087 0.74300003 1.448015e-38
-0.0049533355 -0.003538087 0.74299997 1.1989105e-38
-0.0035333247 -0.003533341 0.74200004 9.5949008e-39
-0.0021142787 -0.0035237893 0.73999995 7.6591555e-39
-0.00070380222 -0.0035190433 0.73899996 5.6211729e-39
0.00070381502 -0.0035190359 0.73899996 3.5042691e-39
0.0021114349 -0.0035190359 0.73899996 1.4860448e-39
0.003519055 -0.0035190508 0.73899996 1.4871238e-39
0.0049133394 -0.0035095066 0.73700005 1.4867623e-39
0.0063171554 -0.0035095215 0.73700005 1.1183399e-39
0.0077209603 -0.003509514 0.73699999 8.4246624e-40
0.009124768 -0.0035095215 0.73700005 1.3023514e-39
0.010528584 -0.003509514 0.73700005 1.7618904e-39
0.011932389 -0.0035095215 0.73699999 1.3941911e-39
0.013318094 -0.0035047606 0.736 1.0268589e-39
0.014740002 -0.003509514 0.73699999 1.02651e-39
0.016143817 -0.0035095215 0.73699999 1.1176238e-39
0.017547632 -0.0035095215 0.73700005 1.1172595e-39
0.018951429 -0.0035095066 0.73699999 1.1165308e-39
0.020410482 -0.0035190359 0.73899996 1.1158021e-39
0.021759061 -0.0035095289 0.73700005 1.2083663e-39
0.023225721 -0.0035190433 0.73899996 1.3005717e-39
0.024666674 -0.0035237968 0.73999995 1.487142e-39
0.026146682 -0.0035333335 0.74200004 4.9005089e-39
0.027560009 -0.0035333335 0.74199998 8.3977925e-39
0.029012388 -0.003538087 0.74299997 7.9357452e-39
0.030591439 -0.003557153 0.74699998 7.3832384e-39
0.032014303 -0.0035571381 0.74699998 6.3629432e-39
0.033481918 -0.0035618991 0.74800003 5.3495045e-39
0.035000004 -0.0035714209 0.75 5.2537034e-39
0.036428574 -0.0035714209 0.75 5.2529635e-39
0.037857149 -0.0035714209 0.75 5.0692687e-39
0.039285716 -0.0035714209 0.75 4.8866725e-39
0.04071429 -0.0035714284 0.75 5.0699819e-39
-0.025433335 -0.0021799952 0.76299995 5.7878041e-39
-0.023885714 -0.0021714047 0.75999999 7.3497362e-39
-0.022379033 -0.0021656975 0.75800002 7.8082074e-39
-0.020935232 -0.0021657124 0.75800002 8.267029e-39
-0.019439997 -0.0021599978 0.75599998 8.6329402e-39
-0.017976185 -0.0021571293 0.755 8.9149263e-39
-0.016472375 -0.0021485686 0.75200003 9.7558189e-39
-0.015000007 -0.0021428466 0.75 1.0508535e-38
-0.013571423 -0.0021428391 0.75 1.1988759e-38
-0.012110478 -0.002137132 0.74799997 1.3462428e-38
-0.010671419 -0.0021342859 0.74699998 1.3463861e-38
-0.0092238085 -0.0021285564 0.745 1.34653e-38
-0.0078047607 -0.0021285713 0.745 1.392771e-38
-0.0063857129 -0.0021285638 0.745 1.438293e-38
-0.0049533313 -0.0021228492 0.74299997 1.0880256e-38
-0.0035380807 -0.0021228492 0.74300003 7.3879804e-39
-0.0021142783 -0.0021142736 0.73999995 8.5890011e-39
-0.00070379849 -0.00211142 0.73899996 9.6723449e-39
0.00070477382 -0.0021142811 0.73999995 5.0618894e-39
0.0021142941 -0.0021142736 0.73999995 4.7442221e-40
0.0035190508 -0.0021114126 0.73899996 9.3611502e-40
0.0049133352 -0.002105698 0.73699999 1.3023752e-39
0.0063342876 -0.0021114126 0.73899996 1.1172651e-39
0.0077209659 -0.0021057203 0.73700005 8.4210891e-40
0.0091247642 -0.002105698 0.73699999 1.0268477e-39
0.010528579 -0.002105698 0.73699999 1.1186832e-39
0.011932394 -0.0021057203 0.73700005 1.0268463e-39
0.013318094 -0.002102837 0.73599994 9.3466047e-40
0.014740008 -0.0021057054 0.73699999 1.0261456e-39
0.016143821 -0.0021057129 0.73700005 1.1172609e-39
0.017547626 -0.0021057129 0.73699999 1.0254226e-39
0.018951437 -0.0021057054 0.73700005 8.4067118e-40
0.020410489 -0.0021114275 0.73899996 1.0225429e-39
0.021759057 -0.0021057054 0.73699999 1.1158189e-39
0.023257146 -0.0021142811 0.73999995 1.2083775e-39
0.024733339 -0.0021199957 0.74199998 1.3059793e-39
0.02614668 -0.0021199957 0.74200004 4.6253569e-39
0.027560009 -0.0021199957 0.74200004 7.8421104e-39
0.029012386 -0.0021228492 0.74299997 7.4744083e-39
0.030591436 -0.0021342859 0.74699998 7.0112315e-39
0.032057151 -0.002137132 0.74799997 6.0809851e-39
0.033481918 -0.0021371469 0.74800003 5.1625909e-39
0.035 -0.002142854 0.75 5.1611182e-39
0.036428578 -0.002142854 0.75 5.161114e-39
0.037857145 -0.002142854 0.75 5.0689155e-39
0.039390482 -0.0021485612 0.75200003 4.8855991e-39
0.040822871 -0.0021485761 0.75200003 5.0689071e-39
-0.025433328 -0.00072666258 0.76299995 5.6963301e-39
-0.023885716 -0.00072380155 0.75999999 7.443008e-39
-0.022379037 -0.0007218942 0.75799996 7.8089249e-39
-0.020935237 -0.00072188675 0.75799996 8.175178e-39
-0.019439999 -0.00071999431 0.75599998 8.5435836e-39
-0.017976183 -0.00071904063 0.755 9.0046388e-39
-0.016472379 -0.00071618706 0.75200003 1.0225131e-38
-0.015039983 -0.00071617216 0.75200003 1.1533479e-38
-0.013571424 -0.00071428716 0.75 1.2359691e-38
-0.012110472 -0.00071237236 0.74799997 1.3188358e-38
-0.0106857 -0.00071238726 0.74800003 1.3188711e-38
-0.009248564 -0.00071143359 0.74699998 1.3281271e-38
-0.0078257034 -0.00071141869 0.74699998 1.3651489e-38
-0.006385711 -0.00070951879 0.745 1.4019174e-38
-0.0049533276 -0.00070761889 0.74300003 8.9448875e-39
-0.0035380763 -0.00070761144 0.74300003 3.8856773e-39
-0.0021142783 -0.00070475042 0.73999995 7.2057387e-39
-0.00070381013 -0.00070380419 0.73899996 1.0508916e-38
0.00070381735 -0.00070381165 0.73899996 5.5314729e-39
0.002111427 -0.00070378929 0.73899996 5.6590317e-40
0.0035190545 -0.00070380419 0.73899996 1.0265184e-39
0.0049266741 -0.00070379674 0.73899996 1.4853315e-39
0.0063342941 -0.00070381165 0.73899996 1.2091006e-39
0.0077209617 -0.00070189685 0.73699999 1.0243464e-39
0.0091247698 -0.0007018894 0.73700005 1.3012808e-39
0.010528586 -0.00070191175 0.73700005 1.5771432e-39
0.011932391 -0.00070189685 0.73699999 1.3016325e-39
0.013318094 -0.00070094317 0.736 9.3465627e-40
0.014740003 -0.0007018894 0.73699999 9.3358708e-40
0.016143817 -0.0007018894 0.73699999 9.3251088e-40
0.017547633 -0.0007019043 0.73700005 9.3250948e-40
0.018951433 -0.0007018894 0.73699999 9.3251088e-40
0.020410484 -0.00070379674 0.73899996 1.0232716e-39
0.021818094 -0.00070380419 0.73899996 1.2073013e-39
0.023320008 -0.00070667267 0.74200004 1.2994941e-39
0.024733339 -0.00070665777 0.74200004 1.3931485e-39
0.026146675 -0.00070666522 0.74199998 4.7136009e-39
0.027560009 -0.00070665777 0.74200004 8.0243409e-39
0.028973339 -0.00070666522 0.74200004 7.5655193e-39
0.030509528 -0.00070951134 0.745 7.1055767e-39
0.032014288 -0.00071142614 0.74699998 5.3491752e-39
0.033481907 -0.00071237236 0.74799997 3.59994e-39
0.035000004 -0.00071428716 0.75 4.150178e-39
0.036525726 -0.00071619451 0.75200003 4.7933992e-39
0.037958108 -0.00071617961 0.75200003 4.701219e-39
0.039442867 -0.00071714818 0.75300002 4.7019309e-39
-0.025433322 0.00072666258 0.76300001 5.6970574e-39
-0.02382285 0.00072190166 0.75800002 7.4430122e-39
-0.022379033 0.00072192401 0.75800002 7.7178054e-39
-0.02093523 0.00072190911 0.75800002 7.9926085e-39
-0.019440012 0.00072000921 0.75599992 8.5450704e-39
-0.017976183 0.00071905553 0.755 9.0233392e-39
-0.01649427 0.00071713328 0.75300002 1.0790533e-38
-0.015039986 0.00071620941 0.75200003 1.254153e-38
-0.013571422 0.00071430206 0.75 1.2728096e-38
-0.012110465 0.00071239471 0.74799997 1.2820649e-38
-0.010685709 0.00071237981 0.74800003 1.2913202e-38
-0.0092485687 0.00071144104 0.74699998 1.30072e-38
-0.007825708 0.00071142614 0.74699998 1.3285587e-38
-0.0063857241 0.00070953369 0.745 1.3548152e-38
-0.0049533332 0.00070761889 0.74299997 6.9940824e-39
-0.0035380966 0.00070763379 0.74299997 3.93046e-40
-0.0021200008 0.00070668012 0.74199998 5.8386025e-39
-0.0007047652 0.00070478767 0.73999995 1.1243957e-38
0.00070381362 0.0007038191 0.73899996 5.8977415e-39
0.002111441 0.00070381165 0.73899996 5.6697937e-40
0.0035190503 0.00070382655 0.73899996 1.1183511e-39
0.0049266703 0.00070381165 0.73899996 1.5771642e-39
0.0063342899 0.0007038191 0.73899996 1.3931303e-39
0.0077209594 0.00070191175 0.73700005 1.1168993e-39
0.0091247652 0.0007019192 0.73699999 1.5760712e-39
0.01052858 0.00070191175 0.73699999 2.0359648e-39
0.011932396 0.00070191175 0.73700005 1.484593e-39
0.013318098 0.00070096552 0.736 9.3286401e-40
0.014740009 0.00070191175 0.73700005 8.4031385e-40
0.016143823 0.00070189685 0.73700005 7.4848115e-40
0.01754763 0.0007019192 0.73699999 8.3924326e-40
0.018951438 0.0007019043 0.73700005 9.3143889e-40
0.020410487 0.00070381165 0.73899996 1.1147525e-39
0.021847624 0.00070477277 0.73999989 1.2987809e-39
0.023320004 0.00070668012 0.74199998 1.3895402e-39
0.024733348 0.00070665777 0.74200004 1.4900105e-39
0.02614668 0.00070667267 0.74199998 4.8115376e-39
0.027560005 0.00070667267 0.74199998 8.1176141e-39
0.02897335 0.00070667267 0.74200004 7.6577192e-39
0.03050952 0.00070954114 0.745 7.1012705e-39
0.032014299 0.00071142614 0.74699998 4.5179838e-39
0.033481911 0.00071238726 0.74799997 1.9451116e-39
0.035000008 0.00071429461 0.75 3.1385694e-39
0.036574297 0.00071715564 0.75299996 4.3320708e-39
0.038008589 0.00071713328 0.75300002 4.4246237e-39
0.039442867 0.00071714073 0.75299996 4.5150201e-39
-0.025266657 0.0021657348 0.75799996 5.238247e-39
-0.023822855 0.0021657273 0.75799996 7.4448101e-39
-0.022379037 0.0021657199 0.75799996 7.7170866e-39
-0.020935236 0.0021657348 0.75799996 7.99084e-39
-0.019439999 0.0021600202 0.75599998 9.1108418e-39
-0.017976182 0.0021571591 0.755 1.0231953e-38
-0.016472375 0.0021485835 0.75200003 1.1250826e-38
-0.01503999 0.0021485835 0.75199997 1.2358949e-38
-0.013571423 0.002142854 0.75 1.2543335e-38
-0.012110475 0.0021371394 0.74799997 1.2819565e-38
-0.010671419 0.0021343008 0.74699998 1.3096869e-38
-0.0092485733 0.0021342859 0.74699998 1.3466379e-38
-0.0078257136 0.0021342933 0.74699998 1.3191604e-38
-0.006385712 0.0021285862 0.745 1.2913906e-38
-0.004953329 0.0021228641 0.74299997 6.539909e-39
-0.0035380926 0.0021228641 0.74300003 2.8182634e-40
-0.0021199933 0.0021199957 0.74199998 5.9167992e-39
-0.0007047652 0.0021143109 0.73999995 1.1525918e-38
0.00070381688 0.0021114349 0.73899996 6.1800667e-39
0.0021114368 0.0021114349 0.73899996 8.3925727e-40
0.0035190568 0.00211142 0.73900002 1.209825e-39
0.0049266662 0.0021114498 0.73899996 1.5775216e-39
0.0063342936 0.0021114349 0.73899996 1.3012934e-39
0.0077209552 0.0021057278 0.73699999 1.0243464e-39
0.0091247717 0.0021057129 0.73700005 1.3009235e-39
0.010528577 0.0021057278 0.73699999 1.5775089e-39
0.011932384 0.0021057203 0.73699999 1.3002102e-39
0.013318089 0.0021028742 0.73599994 9.3143188e-40
0.014740006 0.0021057352 0.73699999 8.4066978e-40
0.016143821 0.0021057129 0.73699999 8.4103411e-40
0.017547635 0.0021057203 0.73700005 8.3996352e-40
0.018951435 0.0021057203 0.73699999 9.3072422e-40
0.020410484 0.0021114498 0.73899996 9.3108436e-40
0.021847632 0.002114296 0.73999995 8.3996633e-40
0.023320004 0.0021200031 0.74199998 1.207667e-39
0.024733337 0.0021200106 0.74199998 1.5793376e-39
0.02614668 0.0021199957 0.74200004 5.1763713e-39
0.027597152 0.0021228716 0.74299997 8.8544547e-39
0.029012388 0.0021228641 0.74300003 8.3023655e-39
0.030427633 0.0021228641 0.74300003 7.7466287e-39
0.031928573 0.0021285862 0.745 6.7270496e-39
0.033437151 0.0021342859 0.74699998 5.7996955e-39
0.035000008 0.0021428689 0.75 6.4489689e-39
0.036574304 0.0021514297 0.75300002 7.1753866e-39
0.038008589 0.0021514297 0.75299996 6.8094628e-39
0.039547622 0.0021571591 0.755 6.4378146e-39
-0.026640009 0.0036000237 0.75599992 2.3898879e-39
-0.025266651 0.0036095306 0.75800002 4.8723274e-39
-0.02382285 0.0036095306 0.75800002 7.350448e-39
-0.022379033 0.0036095306 0.75800002 7.6230819e-39
-0.02093523 0.0036095306 0.75800002 7.9140895e-39
-0.019440003 0.0036000013 0.75599998 9.6755399e-39
-0.017976191 0.0035952553 0.755 1.1338308e-38
-0.016472379 0.0035809651 0.75200003 1.1713227e-38
-0.015039981 0.0035809502 0.75200003 1.2082364e-38
-0.013571433 0.0035714507 0.75 1.2450423e-38
-0.012110469 0.0035619065 0.74799997 1.2727368e-38
-0.010685707 0.003561914 0.74799997 1.3280177e-38
-0.009248564 0.003557153 0.74699998 1.3834071e-38
-0.0078257043 0.0035571456 0.74699998 1.3100116e-38
-0.0063857101 0.0035476312 0.745 1.2252742e-38
-0.0049533248 0.0035380945 0.74300003 6.1535262e-39
-0.0035380984 0.0035381168 0.74299997 1.0890191e-40
-0.0021199854 0.0035333335 0.74200004 5.928636e-39
-0.00070475449 0.0035238117 0.73999995 1.1707435e-38
0.0007047659 0.0035238117 0.73999995 6.4573655e-39
0.0021114331 0.0035190582 0.73899996 1.1201447e-39
0.0035190526 0.0035190582 0.73899996 1.3956526e-39
0.0049266801 0.0035190433 0.73900002 1.5778817e-39
0.0063342894 0.0035190582 0.73899996 1.301292e-39
0.0077209617 0.0035095364 0.73700005 9.3322554e-40
0.0091247661 0.0035095364 0.73699999 1.0261288e-39
0.010528582 0.0035095289 0.73699999 1.1176112e-39
0.01193239 0.0035095215 0.73700005 1.0236275e-39
0.013336197 0.0035095364 0.73699999 9.3250247e-40
0.014740012 0.0035095289 0.73700005 9.328542e-40
0.016143827 0.0035095289 0.73700005 8.4103131e-40
0.017595243 0.0035190508 0.73899996 9.3252209e-40
0.01895144 0.0035095289 0.73700005 9.3144589e-40
0.020438096 0.0035238191 0.73999995 6.5522054e-40
0.021847626 0.0035238191 0.73999995 3.7971265e-40
0.023320006 0.003533341 0.74200004 1.0218437e-39
0.024733339 0.0035333335 0.74199998 1.5843613e-39
0.026181918 0.0035381019 0.74300003 5.6430864e-39
0.027597155 0.0035381019 0.74300003 9.5923728e-39
0.029012382 0.0035381019 0.74299997 9.04172e-39
0.030509528 0.0035476312 0.745 8.3920164e-39
0.032014288 0.0035571381 0.74699998 9.0276496e-39
0.033437148 0.0035571381 0.74699998 9.5832896e-39
0.034999996 0.0035714358 0.75 9.8652169e-39
0.0365743 0.0035857111 0.75300002 1.0040617e-38
0.03810953 0.0035952628 0.755 9.1997304e-39
0.039547622 0.0035952479 0.755 8.3771388e-39
-0.026639996 0.0050400048 0.75599998 2.5717582e-39
-0.025266655 0.0050533488 0.75799996 4.870161e-39
-0.023822855 0.0050533488 0.75799996 7.0738499e-39
-0.022379037 0.0050533414 0.75799996 8.0951569e-39
-0.020935236 0.0050533488 0.75799996 9.2137952e-39
-0.019440005 0.0050399974 0.75599998 1.0233781e-38
-0.017976191 0.0050333589 0.755 1.134443e-38
-0.016472381 0.0050133467 0.75199997 1.1621027e-38
-0.015039985 0.0050133467 0.75200003 1.1989808e-38
-0.013571435 0.0050000027 0.75 1.2266394e-38
-0.012142851 0.0050000027 0.75 1.2542619e-38
-0.010685715 0.0049866661 0.74799997 1.3281249e-38
-0.0092609441 0.0049866736 0.74799997 1.3928052e-38
-0.0078256987 0.0049799979 0.74700004 1.1347338e-38
-0.0063857231 0.0049666762 0.745 8.7622562e-39
-0.0049666748 0.0049666837 0.745 4.4201031e-39
-0.003538094 0.0049533471 0.74299997 1.0135452e-40
-0.0021199924 0.004946664 0.74200004 6.0097067e-39
-0.00070475496 0.0049333349 0.73999995 1.1896843e-38
0.00070381968 0.0049266741 0.73900002 6.4598738e-39
0.0021114289 0.0049266815 0.73899996 1.0229297e-39
0.0035190564 0.0049266666 0.73899996 1.2094733e-39
0.0049266764 0.0049266741 0.73899996 1.4856889e-39
0.0063342857 0.0049266815 0.73899996 1.1172609e-39
0.0077209575 0.0049133375 0.73699999 7.4847415e-40
0.0091247717 0.004913345 0.73700005 9.3392899e-40
0.010528577 0.004913345 0.73699999 1.1186846e-39
0.011964764 0.0049266741 0.73899996 1.1172567e-39
0.013336203 0.004913345 0.73700005 1.0250498e-39
0.014740008 0.0049133375 0.73699999 9.3284299e-40
0.016143821 0.0049133524 0.73699999 8.4067118e-40
0.017595239 0.0049266815 0.73899996 9.3216896e-40
0.019002868 0.0049266741 0.73899996 9.3144869e-40
0.020438094 0.0049333423 0.73999995 8.3889293e-40
0.02190667 0.0049466714 0.74199998 7.4705603e-40
0.023320012 0.0049466714 0.74200004 1.1154714e-39
0.024733339 0.0049466714 0.74200004 1.582569e-39
0.026146669 0.0049466789 0.74199998 5.3643541e-39
0.02759715 0.0049533471 0.74299997 9.1364296e-39
0.029012386 0.0049533397 0.74299997 8.2126964e-39
0.030509524 0.0049666762 0.745 7.2928883e-39
0.032014292 0.0049799979 0.74699998 9.3121734e-39
0.033481915 0.0049866661 0.74799997 1.1436903e-38
0.035 0.0050000101 0.75 1.2725069e-38
0.036574293 0.0050200075 0.75299996 1.3922497e-38
0.03810953 0.005033344 0.755 1.3546164e-38
0.039547626 0.0050333515 0.755 1.3090899e-38
-0.02664 0.0064800009 0.75599998 2.7561523e-39
-0.025266651 0.0064971447 0.75800002 4.7786856e-39
-0.023822848 0.0064971521 0.75800002 6.8070063e-39
-0.022379033 0.0064971521 0.75800002 8.6541685e-39
-0.020879999 0.0064800009 0.75599998 1.0414523e-38
-0.019414283 0.0064714551 0.755 1.0884519e-38
-0.017928565 0.0064542815 0.75299996 1.1344066e-38
-0.016494283 0.006454289 0.75299996 1.1620661e-38
-0.015039989 0.0064457282 0.75199997 1.1805771e-38
-0.013607608 0.0064457208 0.75200003 1.2083077e-38
-0.012142862 0.006428577 0.75 1.23611e-38
-0.010685709 0.0064114258 0.74799997 1.3189778e-38
-0.0092609385 0.0064114332 0.74800003 1.4013402e-38
-0.0078361919 0.0064114332 0.74799997 9.5980971e-39
-0.006385711 0.0063857213 0.745 5.1644869e-39
