# .PCD v0.7 - Point Cloud Data file format
VERSION 0.7
FIELDS x y z rgb
SIZE 4 4 4 4
TYPE F F F F
COUNT 1 1 1 1
WIDTH 972
HEIGHT 1
VIEWPOINT 0 0 0 1 0 0 0
POINTS 972
DATA ascii
0.0049333335 0.010571443 0.74000001 1.1530928e-38
0.0063600009 0.010600008 0.74200004 6.0928709e-39
0.0077523813 0.01057145 0.74000001 6.5808339e-40
0.0091619063 0.010571457 0.74000001 1.0239975e-39
0.01057143 0.01057145 0.74000007 1.4842413e-39
0.012013333 0.010600001 0.74200004 1.5767845e-39
0.013426667 0.010600016 0.74200004 1.7608142e-39
0.014840001 0.010600016 0.74200004 1.3016367e-39
0.016253334 0.010600008 0.74200004 9.3430034e-40
0.017666668 0.010600016 0.74200004 7.4991748e-40
0.019080002 0.010600016 0.74200004 5.6552623e-40
0.020520952 0.010614276 0.74300009 5.6444723e-40
0.021936189 0.010614283 0.74300009 5.6374237e-40
0.023351429 0.010614276 0.74300009 9.325305e-40
0.024766667 0.010614291 0.74300009 1.3016732e-39
0.026252382 0.010642864 0.74500012 1.668662e-39
0.027745714 0.010671444 0.7470001 2.1278353e-39
0.029207621 0.010685727 0.74800003 3.5143304e-39
0.030632382 0.010685712 0.74800009 4.8940125e-39
0.032057144 0.010685712 0.74800003 8.1150665e-39
0.03357143 0.010714307 0.75000006 1.1435509e-38
0.035000004 0.010714307 0.75000006 1.4015527e-38
0.036525711 0.010742858 0.75200009 1.6587632e-38
0.038160004 0.010800019 0.75600004 1.6404672e-38
0.039600004 0.010800011 0.75600004 1.6312848e-38
-0.02099048 0.012304768 0.76000005 9.9585798e-39
-0.019491432 0.012272388 0.75800008 1.0792677e-38
-0.018000001 0.012240015 0.75600004 1.1620282e-38
-0.016538098 0.012223825 0.75500005 1.1989426e-38
-0.01506 0.012191437 0.75300002 1.2264219e-38
-0.013625715 0.012191422 0.75300008 1.2357495e-38
-0.012175238 0.012175247 0.75200009 1.2448981e-38
-0.010742858 0.012175247 0.75200009 1.1900131e-38
-0.0093104765 0.012175232 0.75200009 1.1244713e-38
-0.0078571439 0.012142874 0.75000006 8.0265115e-39
-0.0064285719 0.012142874 0.75000006 4.7986065e-39
-0.0049866671 0.012110487 0.74800003 2.4833167e-39
-0.0035476191 0.012061901 0.74500012 9.4139231e-41
-0.0021228574 0.012029521 0.74300009 4.5966794e-40
-0.00070666673 0.012013331 0.74200004 7.359059e-40
0.00070666673 0.012013324 0.7420001 8.2703795e-40
0.0021200001 0.012013331 0.74200004 9.4079956e-40
0.0035333335 0.012013346 0.74200004 6.2116997e-39
0.0049466672 0.012013331 0.7420001 1.1340816e-38
0.0063600009 0.012013339 0.74200004 5.8109171e-39
0.0077733342 0.012013346 0.74200004 2.91819e-40
0.0091619045 0.011980951 0.74000007 9.3359268e-40
0.010600001 0.012013346 0.74200004 1.5767901e-39
0.012013335 0.012013346 0.74200004 2.0366738e-39
0.013426669 0.012013339 0.7420001 2.4036557e-39
0.014840001 0.012013339 0.74200004 1.6689703e-39
0.016253332 0.012013346 0.74200004 9.339388e-40
0.017666666 0.012013331 0.74200004 7.4992169e-40
0.01908 0.012013331 0.74200004 4.7297747e-40
0.020520952 0.012029521 0.74300009 5.6337523e-40
0.021936189 0.012029514 0.74300009 6.5629533e-40
0.023351429 0.012029536 0.74300009 1.0243632e-39
0.024766667 0.012029529 0.74300009 1.392787e-39
0.026252382 0.012061894 0.74500012 2.1274766e-39
0.027782857 0.012110487 0.74800003 2.7735508e-39
0.029207619 0.012110472 0.74800009 3.7008713e-39
0.030714286 0.012142867 0.75000006 4.6199367e-39
0.032057144 0.012110487 0.74800003 8.0217877e-39
0.03357143 0.012142867 0.75000006 1.1342595e-38
0.035000004 0.012142867 0.75000006 1.4018759e-38
0.036574289 0.012191445 0.75300002 1.6679827e-38
0.038109526 0.012223825 0.75500011 1.6496505e-38
0.039600004 0.012240015 0.75600004 1.6312838e-38
0.041040003 0.012240008 0.7560001 1.6220649e-38
-0.020935239 0.013716199 0.75800008 8.1269454e-39
-0.01949143 0.013716191 0.75800008 8.3080926e-39
-0.018000003 0.013680011 0.75600004 8.5897031e-39
-0.016538097 0.013661921 0.75500011 7.9418366e-39
-0.015100002 0.013661928 0.75500005 7.3947711e-39
-0.013625715 0.013625719 0.75300008 6.9277015e-39
-0.01217524 0.013607621 0.75200003 6.4721254e-39
-0.010742858 0.013607614 0.75200009 6.088653e-39
-0.0093104765 0.013607636 0.75200009 5.7051471e-39
-0.0078571439 0.013571449 0.75000006 4.0531619e-39
-0.0064285714 0.013571456 0.75000006 2.4800811e-39
-0.0049866671 0.013535246 0.74800009 1.3794494e-39
-0.003557143 0.013517149 0.74700004 3.6855551e-40
-0.0021228574 0.013444766 0.74300009 4.6076375e-40
-0.00070761907 0.013444752 0.74300009 4.6113369e-40
0.00070761907 0.013444759 0.74300009 2.7663594e-39
0.0021200001 0.013426669 0.7420001 5.0759276e-39
0.0035333335 0.013426669 0.74200004 7.6667421e-39
0.0049466672 0.013426669 0.74200004 1.0237731e-38
0.0063600009 0.013426661 0.7420001 5.1662834e-39
0.0077733342 0.013426669 0.74200004 1.9245293e-40
0.0091866665 0.013426684 0.74200004 8.4031805e-40
0.010600001 0.013426676 0.7420001 1.4856664e-39
0.012013333 0.013426684 0.74200004 1.6693262e-39
0.013426667 0.013426684 0.74200004 1.8526357e-39
0.014840001 0.013426669 0.7420001 1.3927365e-39
0.016253332 0.013426676 0.74200004 9.3357727e-40
0.017690478 0.013444759 0.74300009 7.4920703e-40
0.01908 0.013426669 0.74200004 5.6445844e-40
0.020520953 0.013444759 0.74300009 5.640969e-40
0.021936191 0.013444759 0.74300009 6.5665407e-40
0.023351431 0.013444744 0.74300015 1.0250765e-39
0.024766669 0.013444766 0.74300009 1.4853357e-39
0.026322857 0.013517149 0.74700004 1.8526819e-39
0.027782857 0.013535239 0.74800009 2.2200239e-39
0.029207619 0.013535246 0.74800003 3.6976427e-39
0.030714288 0.013571441 0.75000006 5.1684343e-39
0.032142855 0.013571449 0.75000006 8.0246492e-39
0.033571426 0.013571449 0.75000006 1.0884492e-38
0.035093337 0.013607621 0.75200003 1.2081967e-38
0.036574285 0.013625726 0.75300008 1.3279043e-38
0.038109526 0.013661936 0.75500005 1.3554177e-38
0.0396 0.013680011 0.7560001 1.3925105e-38
-0.02099048 0.015200019 0.76000005 6.2747595e-39
-0.01949143 0.015160002 0.75800008 5.9063385e-39
-0.018000003 0.015120007 0.75600004 5.4468037e-39
-0.016560003 0.015120007 0.75600004 3.977077e-39
-0.0151 0.01510001 0.75500011 2.4112101e-39
-0.013625715 0.015060008 0.75300008 1.3942023e-39
-0.01217524 0.015039995 0.75200009 3.8294264e-40
-0.010742858 0.015040018 0.75200009 2.7640472e-40
-0.0093104765 0.01504001 0.75200009 9.5593779e-41
-0.0078571439 0.015000023 0.75000006 9.2353977e-41
-0.0064285719 0.015000015 0.75000006 9.3772091e-41
-0.0049866671 0.014960006 0.74800003 3.6890303e-40
-0.0035619049 0.014960013 0.74800003 6.4585146e-40
-0.0021228574 0.014859989 0.74300009 4.6218887e-40
-0.00070761907 0.014859997 0.74300009 1.8955785e-40
0.00070761907 0.014860004 0.74300009 4.7016997e-39
0.0021200003 0.014840014 0.74200004 9.127436e-39
0.0035333338 0.014840007 0.7420001 9.1418386e-39
0.0049466672 0.014840007 0.74200004 9.0327377e-39
0.0063600009 0.014840007 0.74200004 4.6080873e-39
0.0077733342 0.014839999 0.7420001 1.0455508e-40
0.0091866683 0.014840007 0.74200004 7.4919301e-40
0.010600001 0.014840014 0.74200004 1.3012752e-39
0.012013335 0.014839999 0.7420001 1.3019856e-39
0.013426669 0.014839999 0.74200004 1.3012682e-39
0.014840001 0.014840007 0.74200004 1.1161623e-39
0.016253332 0.014839999 0.7420001 9.3322134e-40
0.017690478 0.014859989 0.74300015 7.4920422e-40
0.019105716 0.014859997 0.74300009 5.6481296e-40
0.020520953 0.014860004 0.74300009 6.5521213e-40
0.021936191 0.014859989 0.74300009 6.5665266e-40
0.023351431 0.014859989 0.74300009 1.1169105e-39
0.024833333 0.014900014 0.74500006 1.4853329e-39
0.026322857 0.014940009 0.7470001 1.5775328e-39
0.027782857 0.014960013 0.74800003 1.5800425e-39
0.029207619 0.014960013 0.74800003 3.7012272e-39
0.030714288 0.015000008 0.75000012 5.7219613e-39
0.032228574 0.015040003 0.75200009 8.0235842e-39
0.033705711 0.015060008 0.75300008 1.0327016e-38
0.03514 0.015060008 0.75300002 1.0144793e-38
0.036671426 0.01510001 0.75500011 9.8732267e-39
0.038160004 0.015120015 0.7560001 1.0699382e-38
0.039600004 0.015120015 0.75600004 1.1436944e-38
0.041257147 0.015200011 0.76000011 1.2998515e-38
-0.021018099 0.016669542 0.76100004 3.2247675e-39
-0.01954286 0.016647644 0.76000005 3.043972e-39
-0.018000003 0.016560011 0.75600004 2.8545585e-39
-0.016538098 0.016538113 0.75500005 2.2145757e-39
-0.015100002 0.016538121 0.75500005 1.5616813e-39
-0.013625715 0.016494282 0.75300008 9.2349352e-40
-0.01217524 0.016472384 0.75200009 2.7598153e-40
-0.010742858 0.016472392 0.75200009 3.6925055e-40
-0.0093104765 0.016472384 0.75200009 5.5256421e-40
-0.007857142 0.016428597 0.75000006 4.6252238e-40
-0.0064285719 0.01642859 0.75000006 3.7212882e-40
-0.0049866671 0.016384758 0.74800003 3.7249316e-40
-0.0035619049 0.016384766 0.74800009 3.7357076e-40
-0.0021228574 0.016275235 0.74300009 3.6998343e-40
-0.00070761907 0.016275242 0.74300003 4.5966794e-40
0.00070761907 0.016275235 0.74300009 5.4489182e-39
0.0021228574 0.016275235 0.74300009 1.0519301e-38
0.0035333335 0.01625333 0.74200004 7.5687858e-39
0.0049533341 0.016275227 0.74300009 4.7049801e-39
0.0063600009 0.016253345 0.74200004 2.4937087e-39
0.0077733342 0.016253345 0.74200004 1.9458991e-40
0.0091866665 0.016253337 0.7420001 6.5699178e-40
0.010600001 0.016253345 0.74200004 1.1172427e-39
0.012013333 0.016253352 0.74200004 1.2097928e-39
0.013426667 0.016253345 0.7420001 1.3012724e-39
0.014840001 0.016253345 0.74200004 1.1168867e-39
0.016253334 0.016253345 0.74200004 1.0250582e-39
0.017690478 0.016275242 0.74300009 8.4175298e-40
0.019105716 0.016275242 0.74300009 7.4955735e-40
0.020520953 0.016275227 0.74300009 7.4883849e-40
0.021995237 0.016319044 0.74500012 7.4920282e-40
0.023414286 0.016319044 0.74500012 1.1169091e-39
0.024900002 0.016362868 0.74700004 1.4853315e-39
0.026322858 0.016362861 0.74700004 1.7604835e-39
0.027782857 0.01638478 0.74800003 2.1274667e-39
0.029207619 0.01638478 0.74800003 3.6047254e-39
0.030714286 0.016428597 0.75000006 5.0762471e-39
0.03222857 0.016472399 0.75200003 7.4722223e-39
0.033705715 0.016494296 0.75300008 9.8678345e-39
0.035140004 0.016494296 0.75300002 9.7763535e-39
0.03667143 0.016538106 0.75500005 9.6859572e-39
0.038160004 0.016560011 0.75600004 9.9611077e-39
0.039600004 0.016560026 0.75600004 1.023735e-38
0.041148573 0.016603827 0.75800008 1.0973844e-38
-0.021073334 0.018166684 0.76300001 1.9024028e-40
-0.01954286 0.018095255 0.76000011 2.8172265e-40
-0.018000001 0.018000007 0.7560001 2.8208138e-40
-0.016560001 0.018000014 0.75600004 4.6431604e-40
-0.015100002 0.017976202 0.75500005 6.465507e-40
-0.013625715 0.017928578 0.75300008 4.6251818e-40
-0.01219143 0.017928578 0.75300002 1.8701309e-40
-0.010742858 0.017904758 0.75200009 5.557914e-40
-0.0093104765 0.017904773 0.75200009 9.2277606e-40
-0.0078571439 0.017857157 0.75000006 8.3237689e-40
-0.0064285719 0.017857172 0.75000006 6.487045e-40
-0.0049866671 0.017809518 0.74800009 3.7463294e-40
-0.0035619049 0.017809525 0.74800003 9.5543332e-41
-0.0021228574 0.017690472 0.74300009 3.6782543e-40
-0.00070761907 0.01769048 0.74300009 6.6525524e-40
0.00070761907 0.017690472 0.74300009 6.2988296e-39
0.0021228574 0.017690465 0.74300009 1.1799628e-38
0.0035380954 0.017690472 0.74300009 6.0925515e-39
0.0049466672 0.017666675 0.74200004 3.8617964e-40
0.0063685719 0.017690457 0.74300009 3.7504492e-40
0.0077733342 0.017666668 0.74200004 2.875002e-40
0.0091990475 0.017690465 0.74300009 6.5877423e-40
0.010614285 0.017690472 0.74300009 9.3428773e-40
0.012029525 0.017690487 0.74300009 1.1179657e-39
0.013426669 0.017666683 0.74200004 1.3009193e-39
0.014840001 0.017666675 0.7420001 1.2080076e-39
0.016275238 0.01769048 0.74300009 1.0254198e-39
0.017690478 0.01769048 0.74300009 9.3431015e-40
0.019105716 0.017690472 0.74300009 8.4174738e-40
0.020520953 0.017690472 0.74300009 8.4138024e-40
0.021995237 0.017738096 0.74500012 8.4067398e-40
0.023414286 0.017738096 0.74500012 1.1161903e-39
0.024900002 0.017785721 0.7470001 1.3927786e-39
0.026358098 0.017809533 0.74800003 2.0356312e-39
0.027782859 0.017809525 0.74800003 2.5902329e-39
0.029285716 0.017857149 0.75000006 3.5139717e-39
0.030714288 0.017857157 0.75000006 4.3433596e-39
0.03222857 0.017904766 0.75200009 6.8286577e-39
0.033705715 0.017928585 0.75300002 9.3132398e-39
0.035140004 0.017928578 0.75300008 9.4065116e-39
0.03667143 0.01797621 0.75500005 9.4987086e-39
0.03816 0.018000007 0.7560001 9.3132468e-39
0.0396 0.018000022 0.75600004 9.0395354e-39
0.041148569 0.018047623 0.75800008 9.0381032e-39
-0.021073336 0.019620016 0.76300007 6.4904922e-40
-0.019568574 0.019568592 0.76100004 6.4905482e-40
-0.01804762 0.019491442 0.75800008 5.5758086e-40
-0.016560003 0.019440018 0.75600004 5.568648e-40
-0.01512 0.01944001 0.7560001 6.4869889e-40
-0.013625715 0.019362874 0.75300002 5.5614313e-40
-0.01219143 0.019362859 0.75300008 4.6431184e-40
-0.010742858 0.019337155 0.75200009 6.4834437e-40
-0.0093104765 0.019337162 0.75200009 8.3201676e-40
-0.0078571439 0.019285731 0.75000006 7.4018266e-40
-0.0064285719 0.019285731 0.75000006 7.3945819e-40
-0.0049866671 0.019234292 0.74800009 4.6250837e-40
-0.0035619049 0.019234285 0.74800003 2.7669339e-40
-0.0021285713 0.019157149 0.74500012 2.775273e-39
-0.00070761913 0.019105718 0.74300009 5.3607373e-39
0.00070761901 0.01910571 0.74300009 7.0224657e-39
0.0021228576 0.01910571 0.74300009 8.6750801e-39
0.0035380956 0.019105718 0.74300009 4.5255564e-39
0.0049533336 0.019105703 0.74300009 3.8221397e-40
0.0063685719 0.019105703 0.74300009 4.7191248e-40
0.0077733342 0.019080013 0.74200004 5.6444162e-40
0.0091990475 0.019105703 0.74300009 8.4135781e-40
0.010614285 0.019105718 0.74300009 1.2097928e-39
0.012013335 0.019080013 0.74200004 1.2098096e-39
0.013426669 0.019080006 0.74200004 1.3012836e-39
0.014840001 0.019080013 0.74200004 1.1172497e-39
0.016253332 0.019080006 0.74200004 9.3358708e-40
0.017690476 0.01910571 0.74300009 9.3359548e-40
0.019105714 0.01910571 0.74300009 9.3322134e-40
0.020520952 0.019105718 0.74300009 9.3248706e-40
0.021936189 0.01910571 0.74300009 9.3106754e-40
0.023414286 0.019157134 0.74500012 1.1161889e-39
0.024900001 0.01920858 0.7470001 1.3931359e-39
0.026358096 0.019234292 0.74800003 2.0377836e-39
0.027782857 0.019234285 0.74800009 2.6842236e-39
0.029285716 0.019285724 0.75000006 3.3295874e-39
0.030796191 0.019337147 0.75200009 3.9745855e-39
0.032271426 0.019362859 0.75300008 6.8286577e-39
0.033795238 0.019414306 0.75500005 9.6809461e-39
0.035233334 0.019414306 0.75500005 9.8667751e-39
0.036720004 0.019440003 0.7560001 1.0048297e-38
0.038160004 0.01944001 0.75600004 9.6820321e-39
0.039704766 0.019491434 0.75800008 9.4061543e-39
0.041148573 0.019491442 0.75800008 9.1299177e-39
0.042760961 0.019568592 0.76100004 8.7618737e-39
-0.021073336 0.021073349 0.76300007 1.1078708e-39
-0.01954286 0.020990498 0.76000011 1.0160381e-39
-0.018000003 0.020880014 0.75600004 8.3272582e-40
-0.016560003 0.020880014 0.7560001 7.4089032e-40
-0.015120002 0.020880014 0.75600004 5.5685499e-40
-0.013625715 0.020797156 0.75300002 6.4832615e-40
-0.012175238 0.020769536 0.75200009 6.4833456e-40
-0.010742858 0.020769529 0.75200003 6.487031e-40
-0.0092857145 0.020714305 0.75000006 6.4798844e-40
-0.007857142 0.02071429 0.75000006 7.3982533e-40
-0.0064285719 0.020714305 0.75000006 8.2951124e-40
-0.0050000004 0.020714305 0.75000006 6.4333332e-40
-0.0035619049 0.020659059 0.74800003 3.861404e-40
-0.0021285713 0.020576179 0.74500012 5.1870758e-39
-0.00070952391 0.020576201 0.74500012 9.9600525e-39
0.0007095238 0.020576201 0.74500006 7.7542504e-39
0.0021228574 0.020520955 0.74300009 5.5390316e-39
0.0035380954 0.02052094 0.74300009 2.9528834e-39
0.0049533336 0.020520948 0.74300009 2.9001974e-40
0.0063685719 0.020520948 0.74300009 5.651745e-40
0.0077838092 0.02052094 0.74300009 8.4066557e-40
0.0091990475 0.020520948 0.74300009 1.1157979e-39
0.010614285 0.02052094 0.74300009 1.3927477e-39
0.012013335 0.020493336 0.74200004 1.3931163e-39
0.013426669 0.020493358 0.74200004 1.3012808e-39
0.014840001 0.020493343 0.74200004 1.1172511e-39
0.016253332 0.020493343 0.74200004 8.4139145e-40
0.017690476 0.020520955 0.74300009 9.3359268e-40
0.019105714 0.020520963 0.74300003 9.3286541e-40
0.020520952 0.020520955 0.74300009 1.0243338e-39
0.021995237 0.020576194 0.74500006 1.0236275e-39
0.023414286 0.020576186 0.74500012 1.2083873e-39
0.024900001 0.020631447 0.74700004 1.3013032e-39
0.026358096 0.020659059 0.74800003 2.0381438e-39
0.027782857 0.020659052 0.74800009 2.6838663e-39
0.029285714 0.020714298 0.75000006 3.1452004e-39
0.030796191 0.020769529 0.75200009 3.6086757e-39
0.032271426 0.020797156 0.75300008 6.8308031e-39
0.033795241 0.020852387 0.75500011 1.0050445e-38
0.035233337 0.020852394 0.75500005 1.0331711e-38
0.036720004 0.020880021 0.75600004 1.0511787e-38
0.038260955 0.020935237 0.75800008 1.0143362e-38
0.039704766 0.020935237 0.75800008 9.7749368e-39
0.041148573 0.02093526 0.75800008 9.221047e-39
0.042704765 0.020990491 0.76000011 8.5796432e-39
-0.019491432 0.022379048 0.75800008 1.4744967e-39
-0.018000003 0.022320002 0.75600004 1.107512e-39
-0.016560003 0.02232001 0.75600004 9.2312078e-40
-0.01512 0.022320025 0.75600004 8.3163561e-40
-0.013661906 0.022290505 0.75500005 5.5576058e-40
-0.01222381 0.022290498 0.75500011 3.7246373e-40
-0.010757143 0.02223143 0.75300002 3.7140295e-40
-0.0093104765 0.022201926 0.75200009 3.7176448e-40
-0.0078780949 0.022201918 0.75200003 9.220628e-40
-0.0064285719 0.022142865 0.75000006 1.5624142e-39
-0.0050000004 0.022142865 0.75000006 3.6011044e-39
-0.0035714286 0.022142887 0.75000006 5.7233948e-39
-0.0021342859 0.022054285 0.7470001 7.2964658e-39
-0.00070952385 0.021995239 0.74500012 8.9566864e-39
0.00070952385 0.021995239 0.74500006 5.9089015e-39
0.0021285717 0.021995224 0.74500012 2.8650304e-39
0.0035476196 0.021995246 0.74500012 1.7608254e-39
0.0049533336 0.021936193 0.74300009 7.4919862e-40
0.0063685719 0.021936186 0.74300009 8.4139004e-40
0.0077838101 0.021936186 0.74300009 1.025054e-39
0.0091990475 0.021936186 0.74300003 1.2083593e-39
0.010614285 0.021936178 0.74300009 1.4842259e-39
0.012029525 0.021936201 0.74300009 1.3931093e-39
0.013444763 0.021936193 0.74300009 1.3016367e-39
0.01486 0.021936193 0.74300009 1.1168923e-39
0.016275238 0.021936193 0.74300009 9.3215074e-40
0.017690478 0.021936186 0.74300015 1.1161847e-39
0.019105716 0.021936193 0.74300009 1.2994941e-39
0.02057619 0.021995239 0.74500012 1.0236261e-39
0.021995237 0.021995246 0.74500006 7.4633436e-40
0.023477143 0.022054292 0.7470001 1.0240017e-39
0.024933333 0.022083811 0.74800003 1.3005885e-39
0.026358096 0.022083819 0.74800009 2.1299807e-39
0.027782857 0.022083826 0.74800003 2.9597329e-39
0.029285716 0.022142872 0.75000006 3.3288714e-39
0.030714288 0.022142865 0.75000012 3.6976371e-39
0.03227143 0.022231445 0.75300008 6.8293598e-39
0.033795241 0.022290498 0.75500005 1.0051526e-38
0.035233337 0.022290491 0.75500011 1.0145904e-38
0.036720004 0.022320025 0.75600004 1.0238083e-38
0.038160004 0.022320017 0.75600004 1.0145513e-38
0.039704766 0.022379048 0.75800008 1.0054036e-38
0.041148573 0.022379056 0.75800008 9.6845404e-39
0.042704765 0.022438109 0.76000005 9.3168425e-39
0.044152383 0.022438109 0.76000011 9.4068872e-39
-0.019491432 0.023822866 0.75800008 1.9318805e-39
-0.018000001 0.023760013 0.75600004 1.2890264e-39
-0.016560001 0.023760006 0.7560001 1.1964679e-39
-0.015120002 0.023760021 0.75600004 1.0131514e-39
-0.013661906 0.023728587 0.75500005 5.5361098e-40
-0.01222381 0.023728594 0.75500005 9.4444714e-41
-0.010757143 0.023665719 0.75300002 9.2662262e-41
-0.0093104765 0.0236343 0.75200009 9.4837077e-41
-0.0078571439 0.023571461 0.75000006 1.1972428e-39
-0.0064285714 0.023571439 0.75000006 2.2278992e-39
-0.0049999999 0.023571439 0.75000006 6.6582626e-39
-0.0035714288 0.023571447 0.75000006 1.0969156e-38
-0.0021342859 0.023477145 0.7470001 9.5023044e-39
-0.00070952391 0.023414284 0.74500012 7.9260328e-39
0.0007095238 0.023414291 0.74500012 4.0588974e-39
0.0021285717 0.023414284 0.74500012 1.0923822e-40
0.0035476196 0.023414277 0.74500012 6.5951972e-40
0.0049533336 0.023351423 0.74300009 1.1179769e-39
0.0063685719 0.023351431 0.74300009 1.1179727e-39
0.0077838101 0.023351416 0.74300009 1.1172511e-39
0.0091990475 0.023351416 0.74300009 1.3923932e-39
0.010614285 0.023351423 0.74300009 1.5764271e-39
0.012029525 0.023351423 0.74300009 1.484956e-39
0.013444763 0.023351416 0.74300009 1.3012836e-39
0.01486 0.023351438 0.74300009 1.1168937e-39
0.016275238 0.023351431 0.74300009 9.3250948e-40
0.017738093 0.023414284 0.74500006 1.2987809e-39
0.01915714 0.023414291 0.74500012 1.575358e-39
0.020576188 0.023414291 0.74500012 1.0239806e-39
0.021995235 0.023414299 0.74500006 3.8078184e-40
0.023477143 0.023477145 0.74700004 8.4068659e-40
0.024933333 0.023508571 0.74800009 1.209825e-39
0.026358096 0.023508571 0.74800003 2.2218134e-39
0.027857145 0.023571439 0.75000006 3.1426837e-39
0.029285716 0.023571432 0.75000006 3.5121822e-39
0.030837143 0.023665719 0.75300008 3.7909103e-39
0.032357141 0.023728579 0.75500011 6.921561e-39
0.033795238 0.023728579 0.75500005 9.9593253e-39
0.035280004 0.023760006 0.7560001 9.9622147e-39
0.036720004 0.023760006 0.75600004 9.9625679e-39
0.038260955 0.023822851 0.75800008 1.0146952e-38
0.039809529 0.023885719 0.76000005 1.0329904e-38
0.04125715 0.023885727 0.76000011 1.0146233e-38
0.042704768 0.023885734 0.76000011 9.9607686e-39
-0.01949143 0.025266677 0.75800008 3.8679593e-39
-0.018000003 0.025200009 0.7560001 3.0324631e-39
-0.016560003 0.025200009 0.75600004 3.0378343e-39
-0.01512 0.025200017 0.75600004 2.9395416e-39
-0.013661906 0.025166668 0.75500011 3.2215053e-39
-0.01222381 0.02516669 0.75500005 3.3998037e-39
-0.010757143 0.025100015 0.75300002 3.959792e-39
-0.0093104765 0.025066674 0.75200009 4.5955065e-39
-0.0078780949 0.025066666 0.75200009 5.2592021e-39
-0.0064285719 0.025000013 0.75000006 6.0136387e-39
-0.0050000004 0.024999999 0.75000006 6.0107913e-39
-0.0035619049 0.024933346 0.74800003 6.0132842e-39
-0.0021342859 0.024900012 0.74700004 4.9822676e-39
-0.00070952391 0.024833336 0.74500012 4.0427405e-39
0.0007095238 0.024833344 0.74500012 2.3082609e-39
0.0021285715 0.024833336 0.74500012 6.5880786e-40
0.0035380954 0.024766661 0.74300009 9.3467028e-40
0.0049533336 0.024766669 0.74300009 1.2098138e-39
0.0063685719 0.024766654 0.74300009 1.0257785e-39
0.0077838092 0.024766661 0.74300009 9.3322274e-40
0.0091990475 0.024766661 0.74300009 1.1168909e-39
0.010614285 0.024766654 0.74300009 1.3924058e-39
0.012029525 0.024766676 0.74300009 1.3009361e-39
0.013444763 0.024766676 0.74300009 1.3009305e-39
0.01486 0.024766669 0.74300009 1.1168937e-39
0.016319046 0.024833336 0.74500012 8.4103411e-40
0.017738093 0.024833336 0.74500012 1.0247093e-39
0.01915714 0.024833329 0.74500012 1.3009249e-39
0.020576188 0.024833336 0.74500012 9.32857e-40
0.022054285 0.024900019 0.74700004 6.5700159e-40
0.023477143 0.024900012 0.7470001 9.3323535e-40
0.024933334 0.024933338 0.74800003 1.3023752e-39
0.026358098 0.024933338 0.74800003 2.2221679e-39
0.027857143 0.025000028 0.75000006 3.0508454e-39
0.029285714 0.025000006 0.75000006 3.4196265e-39
0.030837143 0.025100015 0.75300008 3.7866069e-39
0.032357145 0.025166675 0.75500005 6.8293724e-39
0.033795241 0.025166668 0.75500011 9.8707128e-39
0.03528 0.025200024 0.75600004 9.8700023e-39
0.036817145 0.025266685 0.75800008 9.7781724e-39
0.038361907 0.025333345 0.76000005 1.0054402e-38
0.039861906 0.025366679 0.7610001 1.0329908e-38
0.041311432 0.025366679 0.76100004 1.0330266e-38
0.042760957 0.025366679 0.76100004 1.0330264e-38
-0.018000003 0.02664002 0.75600004 4.7981847e-39
-0.016560003 0.026640013 0.75600004 4.8910894e-39
-0.015120002 0.026640005 0.7560001 4.8882209e-39
-0.013661906 0.026604779 0.75500005 5.8098045e-39
-0.01222381 0.026604772 0.75500011 6.7288937e-39
-0.010757143 0.026534304 0.75300002 7.9342528e-39
-0.0093104765 0.026499063 0.75200009 9.0323369e-39
-0.0078571439 0.026428595 0.75000006 9.4133163e-39
-0.0064285719 0.026428588 0.75000006 9.6791426e-39
-0.0050000004 0.026428573 0.75000012 5.3578577e-39
-0.0035619047 0.026358098 0.74800003 9.3862755e-40
-0.0021285715 0.026252389 0.74500006 5.540594e-40
-0.00070952391 0.026252389 0.74500012 1.9137954e-40
0.0007095238 0.026252389 0.74500012 6.55938e-40
0.0021285715 0.026252396 0.74500006 1.1172651e-39
0.0035476193 0.026252389 0.74500012 1.2105341e-39
0.0049666674 0.026252389 0.74500012 1.2098124e-39
0.0063685719 0.026181899 0.74300009 9.3430314e-40
0.0077838101 0.026181906 0.74300009 6.5735612e-40
0.0091990475 0.026181899 0.74300009 9.3249967e-40
0.010614285 0.026181892 0.74300009 1.1165336e-39
0.012029525 0.026181906 0.74300009 1.208732e-39
0.013444763 0.026181899 0.74300009 1.3005619e-39
0.01486 0.026181899 0.74300009 1.0250498e-39
0.016319046 0.026252382 0.74500012 7.4919722e-40
0.017738093 0.026252389 0.74500012 8.4140546e-40
0.019208571 0.026322864 0.7470001 9.3323255e-40
0.020631429 0.026322871 0.74700004 9.3358427e-40
0.022054285 0.026322864 0.7470001 8.4103552e-40
0.023508573 0.026358098 0.74800003 1.1169049e-39
0.024933334 0.026358105 0.74800003 1.3942079e-39
0.026358098 0.026358105 0.74800003 2.2221651e-39
0.027857145 0.026428588 0.75000006 2.9593672e-39
0.029285716 0.026428573 0.75000006 3.3292273e-39
0.030837143 0.026534297 0.75300002 3.6997965e-39
0.032357145 0.026604772 0.75500005 6.738976e-39
0.033795241 0.026604779 0.75500005 9.7763661e-39
0.035280004 0.026640028 0.75600004 9.6856096e-39
0.036817145 0.026710488 0.75800008 9.5945014e-39
0.038361911 0.02678097 0.76000011 9.9618532e-39
0.039861906 0.026816212 0.7610001 1.0238079e-38
0.041311432 0.026816212 0.76100004 1.042211e-38
0.042873338 0.026886679 0.76300001 1.0606501e-38
-0.01949143 0.028154299 0.75800008 4.7124925e-39
-0.018000003 0.028080016 0.7560001 4.4423628e-39
-0.016560003 0.028080016 0.75600004 4.6235184e-39
-0.01512 0.028080016 0.75600004 4.8104194e-39
-0.01368 0.028080016 0.75600004 5.1741755e-39
-0.01222381 0.028042883 0.75500005 5.639478e-39
-0.010742858 0.027931444 0.75200009 5.6384285e-39
-0.0093104765 0.027931444 0.75200003 5.7377679e-39
-0.0078571439 0.02785717 0.75000006 5.3574807e-39
-0.0064285714 0.02785717 0.75000006 4.9833116e-39
-0.0049999999 0.027857162 0.75000006 2.9553861e-39
-0.0035619049 0.027782857 0.74800009 9.2102163e-40
-0.0021285713 0.027671434 0.74500006 6.50543e-40
-0.00070952385 0.027671427 0.74500012 4.7154114e-40
0.00070952385 0.027671427 0.74500012 8.4032366e-40
0.0021285717 0.027671434 0.74500006 1.2090992e-39
0.0035380954 0.027597137 0.74300009 1.2098138e-39
0.0049533336 0.027597144 0.74300009 1.2094537e-39
0.0063685719 0.027597144 0.74300009 1.0250624e-39
0.0077838101 0.027597137 0.74300009 8.3887331e-40
0.0091990475 0.027597137 0.74300009 1.0239722e-39
0.010614285 0.027597137 0.74300009 1.2080034e-39
0.012029525 0.027597137 0.74300009 1.3920345e-39
0.013480954 0.027671427 0.74500012 1.6675354e-39
0.014900001 0.027671434 0.74500006 1.2079935e-39
0.016362857 0.027745716 0.7470001 8.4067398e-40
0.017785713 0.027745724 0.74700004 9.325319e-40
0.019208571 0.027745716 0.7470001 1.1161959e-39
0.020631429 0.027745709 0.7470001 9.3287522e-40
0.022054285 0.027745731 0.74700004 7.4812663e-40
0.023508571 0.027782865 0.74800003 1.0254254e-39
0.024933333 0.027782872 0.74800003 1.3945638e-39
0.026358096 0.027782865 0.74800009 1.9473733e-39
0.027857145 0.027857162 0.75000006 2.5923825e-39
0.02940286 0.027968571 0.75300008 2.6853026e-39
0.030919049 0.028042883 0.75500005 2.8725624e-39
0.032357141 0.02804286 0.75500011 6.3705621e-39
0.033840001 0.028080016 0.75600004 9.9625482e-39
0.035280004 0.028080009 0.75600004 9.8699939e-39
0.036817145 0.028154299 0.75800008 9.7781724e-39
0.038361907 0.028228588 0.76000005 1.0054052e-38
0.039861906 0.028265737 0.76100004 1.0421755e-38
0.041419998 0.028340019 0.76300007 1.0513952e-38
0.042985719 0.028414294 0.76500005 1.0698706e-38
-0.01949143 0.029598095 0.75800008 3.5085739e-39
-0.018000001 0.029520005 0.75600004 4.0656839e-39
-0.016560001 0.029520012 0.75600004 4.4419942e-39
-0.01512 0.02952002 0.7560001 4.7114037e-39
-0.01368 0.029520012 0.75600004 4.6202884e-39
-0.01222381 0.029480971 0.75500011 4.4337532e-39
-0.010757143 0.02940286 0.75300008 3.4257207e-39
-0.0093104765 0.029363811 0.75200009 2.3175795e-39
-0.0078571439 0.029285736 0.75000006 1.2955355e-39
-0.0064285719 0.029285729 0.75000006 1.9637657e-40
-0.0050000004 0.029285721 0.75000006 5.586949e-40
-0.0035619047 0.029207617 0.74800003 8.3528319e-40
-0.0021285713 0.029090486 0.74500006 8.3959498e-40
-0.00070952391 0.029090479 0.74500012 7.4812382e-40
0.0007095238 0.029090479 0.74500012 1.0243534e-39
0.0021228576 0.029012375 0.74300009 1.2094579e-39
0.0035380956 0.029012382 0.74300009 1.2101754e-39
0.0049533336 0.029012382 0.74300009 1.2094551e-39
0.0063685719 0.029012375 0.74300009 1.1172595e-39
0.0077838092 0.029012375 0.74300009 9.3250527e-40
0.0091990475 0.029012367 0.74300009 1.1161707e-39
0.010642858 0.029090494 0.74500006 1.300199e-39
0.012061905 0.029090479 0.74500012 1.6678983e-39
0.013480954 0.029090479 0.74500012 1.9430461e-39
0.014940001 0.029168576 0.74700004 1.3902394e-39
0.016362859 0.029168591 0.74700004 8.4031665e-40
0.017785715 0.029168576 0.7470001 1.1154784e-39
0.019234285 0.029207639 0.74800003 1.2998627e-39
0.020659046 0.029207617 0.74800009 1.0247121e-39
0.02208381 0.029207617 0.74800003 6.5700439e-40
0.023508571 0.029207639 0.74800003 1.0250568e-39
0.025 0.029285729 0.75000006 1.3023626e-39
0.026428571 0.029285721 0.75000012 1.7633393e-39
0.027857143 0.029285736 0.75000006 2.1321233e-39
0.029402858 0.029402867 0.75300008 2.1306939e-39
0.030919047 0.029480964 0.75500011 2.0435318e-39
0.032357145 0.029480971 0.75500005 6.0914767e-39
0.033795241 0.029480964 0.75500011 1.0050805e-38
0.03528 0.029520012 0.75600004 9.9618392e-39
0.036817145 0.029598102 0.75800008 9.8703764e-39
0.038361911 0.029676199 0.76000011 1.023845e-38
0.039966665 0.029793359 0.76300001 1.0513955e-38
0.041419998 0.029793352 0.76300001 1.0605432e-38
-0.01512 0.030960023 0.75600004 2.9528932e-39
-0.013716191 0.03104192 0.75800002 2.6781056e-39
-0.01224 0.030960009 0.7560001 2.304291e-39
-0.010757143 0.030837148 0.75300008 1.9401622e-39
-0.0093104765 0.030796193 0.75200009 1.5656441e-39
-0.0078780949 0.030796207 0.75200003 9.2674033e-40
-0.0064457147 0.0307962 0.75200009 3.7573436e-40
-0.0050000004 0.030714296 0.75000006 5.6120462e-40
-0.0035619049 0.030632392 0.74800003 7.4631755e-40
-0.0021342859 0.030591443 0.74700004 6.5556386e-40
-0.00070952391 0.030509531 0.74500012 5.6516889e-40
0.0007095238 0.030509524 0.74500012 8.4068099e-40
0.0021285717 0.030509531 0.74500006 1.209818e-39
0.0035476196 0.030509524 0.74500012 1.2098194e-39
0.0049666669 0.030509531 0.74500012 1.2094579e-39
0.0063857147 0.030509531 0.74500006 1.1169021e-39
0.007804763 0.030509517 0.74500012 1.0243436e-39
0.0092238113 0.030509524 0.74500012 1.1165322e-39
0.010642858 0.030509524 0.74500006 1.2083649e-39
0.012094285 0.030591443 0.7470001 1.3927491e-39
0.013517143 0.030591443 0.74700004 1.6682612e-39
0.014940001 0.030591443 0.74700004 1.2080118e-39
0.016362859 0.030591436 0.7470001 7.4884129e-40
0.017809523 0.030632399 0.74800003 9.3287662e-40
0.019234285 0.030632384 0.74800009 1.1169063e-39
0.020659046 0.030632384 0.74800003 9.3287662e-40
0.02208381 0.030632384 0.74800003 8.4067118e-40
0.023508571 0.030632377 0.74800009 1.1168825e-39
0.025000002 0.030714311 0.75000006 1.3934736e-39
0.026428573 0.030714303 0.75000006 2.0388416e-39
0.027931429 0.0307962 0.75200009 2.6845642e-39
0.02940286 0.030837148 0.75300002 2.8671632e-39
0.030919049 0.03091906 0.75500011 3.1405355e-39
0.032357145 0.030919053 0.75500011 6.6453679e-39
0.033795241 0.03091906 0.75500005 1.0238073e-38
0.035280004 0.030960016 0.7560001 1.0145519e-38
0.036817145 0.03104192 0.75800008 9.9618616e-39
0.038361907 0.031123824 0.76000005 1.02381e-38
0.039966669 0.031246684 0.76300001 1.0605796e-38
-0.013716191 0.032485716 0.75800008 7.4308896e-40
-0.01224 0.032400027 0.75600004 1.9205636e-40
-0.010785714 0.032357149 0.75500011 4.6503211e-40
-0.0093228575 0.032271445 0.75300002 7.4234487e-40
-0.0078780949 0.032228582 0.75200009 6.5339184e-40
-0.0064457147 0.032228574 0.75200009 4.7044252e-40
-0.0050000004 0.032142863 0.75000006 5.6335982e-40
-0.0035714288 0.032142878 0.75000006 6.5448205e-40
-0.0021342859 0.032014295 0.7470001 5.6265076e-40
-0.00071142864 0.032014288 0.74700004 3.8042451e-40
0.0007095238 0.031928569 0.74500012 7.467001e-40
0.0021285715 0.031928569 0.74500006 1.1161931e-39
0.0035476193 0.031928562 0.74500012 1.1176252e-39
0.0049666669 0.031928562 0.74500012 1.1176224e-39
0.0063857147 0.031928584 0.74500006 1.1169021e-39
0.007804763 0.031928569 0.74500012 1.1168965e-39
0.0092238113 0.031928577 0.74500012 1.1168909e-39
0.010642858 0.031928577 0.74500006 1.0257687e-39
0.012094287 0.032014295 0.74700004 1.2105117e-39
0.013517145 0.032014288 0.7470001 1.3012766e-39
0.014940001 0.032014303 0.7470001 1.0250596e-39
0.016362857 0.03201431 0.74700004 6.5772186e-40
0.017809523 0.032057151 0.74800003 8.4175718e-40
0.019234285 0.032057159 0.74800003 9.3359408e-40
0.020659048 0.032057151 0.74800003 9.3287662e-40
0.022083811 0.032057144 0.74800009 9.3251088e-40
0.023508573 0.032057144 0.74800003 1.2076516e-39
0.025000002 0.03214287 0.75000006 1.393482e-39
0.026428573 0.032142863 0.75000006 2.3132775e-39
0.027931429 0.032228582 0.75200009 3.234145e-39
0.029402858 0.03227143 0.75300002 3.6961937e-39
0.030919049 0.032357171 0.75500005 4.160053e-39
0.032357141 0.032357149 0.75500011 7.2943176e-39
0.033840001 0.032400012 0.7560001 1.042031e-38
0.035280004 0.032400019 0.75600004 1.0236997e-38
0.036817145 0.032485731 0.75800008 1.0054053e-38
0.038361907 0.032571435 0.76000011 1.0330285e-38
0.039966665 0.03270001 0.76300007 1.0605432e-38
-0.015160002 0.033929534 0.75800008 1.2040321e-39
-0.013716191 0.033929534 0.75800008 7.4486861e-40
-0.01224 0.033840016 0.7560001 2.856673e-40
-0.010785716 0.03379526 0.75500005 3.7604265e-40
-0.0093228575 0.033705719 0.75300002 4.693397e-40
-0.0078885723 0.033705711 0.75300008 3.7824829e-40
-0.0064457147 0.033660963 0.75200003 3.8076362e-40
-0.0050000004 0.033571437 0.75000012 3.782567e-40
-0.0035714286 0.033571437 0.75000006 3.7861683e-40
-0.0021342859 0.033437148 0.74700004 2.1288736e-39
-0.00071142864 0.03343714 0.7470001 3.7794169e-39
0.00070952385 0.033347622 0.74500012 2.7706753e-39
0.0021285715 0.033347622 0.74500012 1.7579682e-39
0.0035476193 0.033347614 0.74500012 1.4846085e-39
0.0049666669 0.033347614 0.74500012 1.2101754e-39
0.0063857147 0.033347622 0.74500012 1.1179783e-39
0.007804763 0.033347614 0.74500012 9.3430174e-40
0.0092485733 0.03343714 0.74700004 9.339374e-40
0.010671429 0.033437163 0.74700004 1.026126e-39
0.012110477 0.033481918 0.74800003 1.3931037e-39
0.013517145 0.033437163 0.74700004 1.8515721e-39
0.014940001 0.033437155 0.74700004 1.3005661e-39
0.016384764 0.033481911 0.74800003 8.4175158e-40
0.017809525 0.033481903 0.74800009 1.0257855e-39
0.019234287 0.033481911 0.74800003 1.1179811e-39
0.020659048 0.033481911 0.74800003 9.3323535e-40
0.022083811 0.033481911 0.74800009 7.4884549e-40
0.023508573 0.033481911 0.74800003 1.1161847e-39
0.025 0.033571444 0.75000006 1.5778775e-39
0.026428571 0.033571437 0.75000006 2.5880721e-39
0.027968571 0.033705719 0.75300008 3.5993374e-39
0.029480953 0.033795252 0.75500011 3.7891054e-39
0.030919047 0.03379526 0.75500011 3.9788945e-39
0.032357145 0.033795245 0.75500005 7.1092131e-39
0.033840001 0.033840023 0.75600004 1.014624e-38
0.035280004 0.033840023 0.75600004 1.014588e-38
0.036817145 0.033929534 0.75800008 1.0145884e-38
0.038412385 0.034063824 0.7610001 1.0513231e-38
0.039966669 0.034153342 0.76300007 1.0879856e-38
0.041637141 0.034332387 0.76700008 1.0789456e-38
-0.015220001 0.035513349 0.76100004 1.1168727e-39
-0.013752382 0.035466678 0.76000011 7.4594761e-40
-0.012272382 0.035373338 0.75800008 2.8675051e-40
-0.0108 0.035280012 0.75600004 1.9202694e-40
-0.0093476195 0.035233341 0.75500005 1.0092992e-40
-0.0078885723 0.035140008 0.75300008 1.9314517e-40
-0.0064542862 0.035140008 0.75300008 1.9494164e-40
-0.0050133336 0.035093345 0.75200009 1.9028092e-40
-0.0035714288 0.035000019 0.75000006 1.0635155e-40
-0.0021371427 0.03490667 0.74800003 3.7026593e-39
-0.00071238104 0.034906678 0.74800009 7.1888209e-39
0.00071142864 0.03486 0.7470001 4.798947e-39
0.0021285717 0.034766674 0.74500012 2.4051214e-39
0.003557143 0.034860007 0.74700004 1.8530294e-39
0.0049800007 0.034860015 0.7470001 1.3020123e-39
0.0063857147 0.034766667 0.74500012 1.0261442e-39
0.0078257136 0.034860015 0.74700004 7.4991468e-40
0.0092485715 0.034860007 0.7470001 8.4138724e-40
0.010671429 0.034860007 0.7470001 9.3321853e-40
0.012110477 0.034906678 0.74800009 1.667541e-39
0.013535239 0.034906678 0.74800003 2.3107538e-39
0.014940001 0.034860007 0.7470001 1.6679109e-39
0.016384762 0.03490667 0.74800009 1.025424e-39
0.017809523 0.034906678 0.74800003 1.2098166e-39
0.019234285 0.03490667 0.74800003 1.3016535e-39
0.020659046 0.034906656 0.74800009 9.3323675e-40
0.022142859 0.035000004 0.75000006 4.7298447e-40
0.02357143 0.035000011 0.75000006 1.1140421e-39
0.025000002 0.035000034 0.75000006 1.7586828e-39
0.026499048 0.03509336 0.75200003 2.8614248e-39
0.027968571 0.035140008 0.75300002 3.8766404e-39
0.029480953 0.035233349 0.75500005 3.8813067e-39
0.030919047 0.035233341 0.75500011 3.793783e-39
0.032357145 0.035233341 0.75500011 6.8336898e-39
0.033840001 0.035280004 0.7560001 9.8674996e-39
0.035280004 0.035280019 0.75600004 1.005405e-38
0.036962863 0.035513341 0.7610001 1.0238441e-38
0.038513333 0.035606682 0.76300001 1.0697263e-38
0.040071428 0.035700008 0.76500005 1.1157164e-38
0.041528571 0.035700016 0.76500005 1.0790186e-38
-0.018166669 0.037060022 0.76300001 3.684336e-39
-0.016669527 0.036962867 0.7610001 3.969894e-39
-0.015220001 0.036962874 0.76100004 4.252208e-39
-0.013752382 0.036914296 0.76000011 4.1549831e-39
-0.012304762 0.036914296 0.76000011 4.0556016e-39
-0.010828571 0.036817148 0.75800008 3.5939004e-39
-0.0093600005 0.036720023 0.75600004 3.131151e-39
-0.0079095233 0.036671445 0.75500005 3.7847768e-39
-0.006471429 0.036671437 0.75500011 4.4229632e-39
-0.0050200005 0.036574289 0.75300008 3.9655808e-39
-0.0035809525 0.036525704 0.75200009 3.5925271e-39
-0.0021428571 0.036428586 0.75000006 5.6283601e-39
-0.00071238104 0.036331423 0.74800003 7.6580555e-39
0.00071238092 0.03633143 0.74800003 4.8007378e-39
0.0021371429 0.036331438 0.74800009 1.8526735e-39
0.0035619049 0.036331438 0.74800003 1.5778831e-39
0.0049866671 0.036331438 0.74800003 1.3023724e-39
0.006411429 0.03633143 0.74800009 1.117621e-39
0.007836191 0.03633143 0.74800003 9.3286961e-40
0.0092609543 0.036331438 0.74800003 9.3286541e-40
0.010685716 0.036331445 0.74800009 9.3286401e-40
0.012110477 0.036331445 0.74800003 1.3002046e-39
0.013535239 0.036331445 0.74800003 1.6675508e-39
0.014960002 0.036331438 0.74800009 1.2083761e-39
0.016384762 0.036331445 0.74800003 7.4956156e-40
0.017809523 0.036331438 0.74800003 9.3395281e-40
0.019234285 0.03633143 0.74800009 1.2101782e-39
0.020659046 0.03633143 0.74800003 1.4842511e-39
0.02208381 0.03633143 0.74800003 1.8505225e-39
0.02357143 0.036428586 0.75000006 2.4033348e-39
0.025000002 0.036428593 0.75000006 3.042949e-39
0.026499048 0.036525704 0.75200009 3.9699066e-39
0.027968571 0.036574304 0.75300002 4.9808215e-39
0.029480955 0.036671452 0.75500011 3.877725e-39
0.030919049 0.036671452 0.75500005 2.7764137e-39
0.032400001 0.036720008 0.7560001 6.2765616e-39
0.033840001 0.03672003 0.75600004 9.6805944e-39
0.035280004 0.036720023 0.75600004 9.9618616e-39
0.036914289 0.036914311 0.76000011 1.0331357e-38
0.038412385 0.036962867 0.7610001 1.0606507e-38
0.039861906 0.036962889 0.7610001 1.0975293e-38
0.041419998 0.037060015 0.76300001 9.9622428e-39
0.042873334 0.037060007 0.76300001 9.0431521e-39
0.044326667 0.03706003 0.76300001 9.6798825e-39
-0.018166671 0.03851334 0.76300001 6.2718854e-39
-0.016713336 0.038513355 0.76300001 6.8300773e-39
-0.015220001 0.038412388 0.7610001 7.3785693e-39
-0.013752382 0.038361914 0.76000011 7.6576533e-39
-0.012304762 0.038361918 0.76000005 7.832349e-39
-0.010828573 0.038260959 0.75800008 6.9968542e-39
-0.0093847625 0.038260959 0.75800008 6.1800499e-39
-0.0079200007 0.038160019 0.7560001 7.3918774e-39
-0.0064714286 0.038109533 0.75500005 8.5753314e-39
-0.0050333333 0.038109526 0.75500011 7.8402859e-39
-0.0035857146 0.038008574 0.75300008 7.0980728e-39
-0.0021428573 0.037857153 0.75000012 7.6523186e-39
-0.00071428576 0.037857153 0.75000006 8.1150778e-39
0.00071238098 0.037756197 0.74800003 4.709624e-39
0.0021371432 0.03775619 0.74800009 1.3056094e-39
0.0035619051 0.037756186 0.74800003 1.3027353e-39
0.0049866671 0.037756205 0.74800003 1.2101782e-39
0.006411429 0.037756197 0.74800009 1.1172623e-39
0.007836191 0.037756205 0.74800003 1.0247037e-39
0.0092609525 0.037756201 0.74800003 1.0243408e-39
0.010685714 0.037756193 0.74800003 9.328626e-40
0.012110477 0.037756197 0.74800003 9.3250387e-40
0.013535239 0.037756212 0.74800003 9.3286401e-40
0.01496 0.037756205 0.74800009 7.4847835e-40
0.016384762 0.037756201 0.74800003 4.7405226e-40
0.017809523 0.037756205 0.74800003 7.4992029e-40
0.019234285 0.037756197 0.74800003 1.0250722e-39
0.020659046 0.037756201 0.74800003 2.127101e-39
0.022142857 0.037857153 0.75000006 3.1430312e-39
0.023571428 0.037857145 0.75000006 3.789467e-39
0.025066666 0.0379581 0.75200009 4.3430065e-39
0.026604762 0.038109545 0.75500011 5.1777922e-39
0.028042857 0.038109541 0.75500005 5.9967657e-39
0.029519999 0.03816003 0.75600004 3.8723412e-39
0.030960001 0.038160011 0.7560001 1.7619142e-39
0.032400001 0.038160015 0.75600004 5.6315565e-39
0.033840001 0.038160019 0.75600004 9.4976367e-39
0.035466667 0.038361926 0.76000005 9.965086e-39
0.036914289 0.038361914 0.76000011 1.033135e-38
0.038412388 0.038412396 0.7610001 1.0514303e-38
0.039966669 0.038513344 0.76300001 1.0695811e-38
0.041420002 0.038513348 0.76300001 9.2235637e-39
0.042873338 0.038513344 0.76300007 7.6573324e-39
-0.018214291 0.040071439 0.76500005 6.092892e-39
-0.016713336 0.039966684 0.76300001 5.3574891e-39
-0.01526 0.039966702 0.76300001 4.6210017e-39
-0.013770478 0.039861925 0.76100004 5.9066874e-39
-0.012320954 0.039861914 0.7610001 7.2924693e-39
-0.010828573 0.039704777 0.75800008 6.9193862e-39
-0.0093847625 0.039704777 0.75800008 6.6485867e-39
-0.0079200007 0.039600026 0.75600004 7.4805292e-39
-0.006471429 0.039547633 0.75500011 8.3088353e-39
-0.0050333338 0.039547637 0.75500005 7.7495631e-39
-0.0035857146 0.039442871 0.75300008 7.1942271e-39
-0.0021428573 0.039285731 0.75000006 7.933555e-39
-0.00071428576 0.039285727 0.75000006 8.5835795e-39
0.00071428576 0.039285731 0.75000006 5.081275e-39
0.0021371429 0.039180953 0.74800003 1.4892818e-39
0.0035619049 0.039180957 0.74800003 1.4867651e-39
0.0049866675 0.039180964 0.74800009 1.4853259e-39
0.0064114295 0.039180968 0.74800003 1.3005731e-39
0.007836191 0.039180964 0.74800003 1.1165378e-39
0.0092609543 0.039180957 0.74800009 1.0246967e-39
0.010685716 0.039180961 0.74800003 1.0250554e-39
0.012110477 0.039180964 0.74800003 1.1172497e-39
0.013535239 0.039180961 0.74800009 1.1179685e-39
0.014960002 0.039180968 0.74800003 9.3322274e-40
0.016384762 0.039180972 0.74800003 7.4991468e-40
0.017809523 0.039180964 0.74800009 1.2087362e-39
0.019234285 0.039180968 0.74800003 1.7583199e-39
0.020659046 0.039180964 0.74800003 3.1426738e-39
0.02208381 0.039180957 0.74800009 4.5295277e-39
0.02357143 0.039285731 0.75000006 5.7266122e-39
0.0251 0.03944286 0.75300008 6.9230212e-39
0.026604762 0.039547641 0.75500005 7.1099572e-39
0.028042857 0.039547626 0.75500011 7.2014045e-39
0.029520001 0.039600011 0.75600004 4.0549318e-39
0.030960003 0.039600011 0.75600004 9.2032379e-40
0.032485716 0.03970477 0.75800008 4.8896923e-39
0.034019049 0.039809544 0.76000005 8.9476957e-39
0.035466667 0.039809536 0.76000011 9.2253756e-39
0.036914289 0.039809536 0.76000011 9.5963007e-39
0.038412385 0.03986191 0.76100004 9.9604085e-39
0.039861906 0.039861929 0.76100004 1.0324853e-38
0.041419998 0.039966684 0.76300001 1.0598895e-38
-0.018166669 0.041420013 0.76300007 5.907779e-39
-0.016713334 0.04142002 0.76300007 3.8856101e-39
-0.01526 0.041420024 0.76300001 1.7683728e-39
-0.013770476 0.041311443 0.7610001 4.2396832e-39
-0.012320952 0.041311443 0.7610001 6.6424672e-39
-0.010857144 0.041257154 0.76000011 6.9237078e-39
-0.0093847625 0.041148573 0.75800008 7.1077628e-39
-0.0079200007 0.041040003 0.7560001 7.5723479e-39
-0.006471429 0.040985744 0.75500005 8.0290142e-39
-0.0050333338 0.040985737 0.75500011 7.6552136e-39
-0.0035857146 0.040877149 0.75300002 7.2900086e-39
-0.0021428571 0.040714305 0.75000006 8.2126544e-39
-0.00071428576 0.040714301 0.75000012 9.0395354e-39
0.00071428576 0.040714305 0.75000006 5.3582276e-39
0.0021371432 0.040605724 0.74800003 1.6736731e-39
0.0035619051 0.040605716 0.74800009 1.6700717e-39
0.0049866671 0.04060572 0.74800003 1.668634e-39
0.006411429 0.040605716 0.74800003 1.3916898e-39
0.007836191 0.040605724 0.74800009 1.1165336e-39
0.0092609525 0.040605728 0.74800003 1.1168839e-39
0.010685714 0.040605731 0.74800003 1.1172441e-39
0.012110477 0.040605716 0.74800009 1.209797e-39
0.013535239 0.040605716 0.74800003 1.3012766e-39
0.01496 0.04060572 0.74800003 1.2080104e-39
0.016384764 0.040605728 0.74800009 1.0250638e-39
0.017809525 0.040605724 0.74800003 1.760831e-39
0.019234287 0.040605728 0.74800003 2.4051172e-39
0.020659048 0.04060572 0.74800009 4.1557356e-39
0.022142859 0.040714309 0.75000006 5.8184729e-39
0.02357143 0.040714309 0.75000006 7.6641637e-39
0.025066666 0.04082286 0.75200003 9.5008989e-39
0.026604764 0.040985741 0.75500005 8.9538558e-39
0.028080001 0.041040011 0.75600004 8.3884529e-39
0.029520001 0.041040014 0.75600004 4.2249653e-39
0.030960003 0.041040003 0.7560001 9.7748976e-41
0.032485716 0.041148573 0.75800008 4.2421845e-39
0.034063812 0.041311458 0.76100004 8.2990963e-39
0.035466667 0.041257154 0.76000005 8.5764048e-39
0.036962859 0.041311447 0.7610001 8.7651009e-39
0.038412385 0.041311443 0.76100004 9.4057998e-39
0.039966665 0.041420009 0.76300007 9.9607364e-39
0.041419998 0.041420013 0.76300001 1.1981455e-38
-0.021321908 0.043379061 0.77200001 4.9901065e-39
-0.019851431 0.043379057 0.77200001 5.5379091e-39
-0.018214289 0.04298573 0.76500005 6.0918032e-39
-0.016757146 0.042985726 0.76500005 5.4486058e-39
-0.01526 0.042873349 0.76300001 4.7957282e-39
-0.013770476 0.042760972 0.7610001 6.2715673e-39
-0.012320952 0.042760972 0.76100004 7.7470239e-39
-0.010857144 0.04270478 0.76000011 7.3796721e-39
-0.0093847625 0.042592391 0.75800008 7.1030992e-39
-0.0079200007 0.042480011 0.75600004 7.8442502e-39
-0.0064800004 0.042480014 0.75600004 8.5800174e-39
-0.0050333338 0.042423833 0.75500005 8.8558882e-39
-0.0035857146 0.042311437 0.75300002 9.1288724e-39
-0.0021428573 0.042142879 0.75000006 9.4075962e-39
-0.00071428576 0.042142879 0.75000006 9.686697e-39
0.00071428576 0.042142864 0.75000006 5.5415497e-39
0.0021428573 0.042142868 0.75000006 1.4835477e-39
0.0035714288 0.042142875 0.75000006 1.5767957e-39
0.0050000008 0.042142868 0.75000006 1.6682724e-39
0.006411429 0.042030472 0.74800009 1.2087348e-39
0.007836191 0.042030476 0.74800003 7.4882868e-40
0.0092609543 0.042030483 0.74800003 9.3284719e-40
0.010685716 0.042030483 0.74800009 1.1168783e-39
0.012142858 0.042142872 0.75000006 1.2094327e-39
0.013535239 0.042030487 0.74800003 1.3012738e-39
0.014960002 0.04203048 0.74800009 1.025054e-39
0.016384764 0.042030476 0.74800003 8.4067678e-40
0.017809525 0.04203048 0.74800003 1.4846113e-39
0.019234287 0.042030487 0.74800009 2.2203742e-39
0.020714285 0.042142875 0.75000006 3.7912648e-39
0.022142857 0.042142868 0.75000006 5.2707081e-39
0.023571428 0.042142875 0.75000006 7.2028717e-39
0.0251 0.042311434 0.75300008 9.22757e-39
0.026604762 0.042423822 0.75500011 8.7676877e-39
0.02808 0.042480025 0.75600004 8.3055899e-39
0.029519999 0.042480011 0.7560001 4.2357203e-39
0.031041907 0.042592395 0.75800008 9.559518e-41
0.032571431 0.042704772 0.76000011 5.2577587e-39
0.034063812 0.042760976 0.7610001 1.0419554e-38
0.035513334 0.042760976 0.7610001 1.1523009e-38
0.036962859 0.042760976 0.76100004 1.2625045e-38
0.038412385 0.042760968 0.7610001 1.2904507e-38
0.039966665 0.04287336 0.76300001 1.3090316e-38
-0.021321908 0.044849534 0.77200007 4.0602721e-39
-0.019800002 0.044733346 0.7700001 5.1615946e-39
-0.018214289 0.044442873 0.76500005 6.274398e-39
-0.016757146 0.04444287 0.76500005 7.0205768e-39
