# .PCD v0.7 - Point Cloud Data file format
VERSION 0.7
FIELDS x y z rgb
SIZE 4 4 4 4
TYPE F F F F
COUNT 1 1 1 1
WIDTH 983
HEIGHT 1
VIEWPOINT 0 0 0 1 0 0 0
POINTS 983
DATA ascii
0.024933349 0.030632384 0.74800003 6.6485671e-39
0.026499067 0.030796207 0.75200003 6.3626363e-39
0.028042883 0.030919045 0.75500005 6.191954e-39
0.029520012 0.030960009 0.75600004 9.8844609e-39
0.031041913 0.031041935 0.75799996 1.3673395e-38
0.03257148 0.031123839 0.75999999 1.2459448e-38
0.033929538 0.031041935 0.75799996 1.1254047e-38
0.035466701 0.031123824 0.75999999 1.0789428e-38
0.03691433 0.031123839 0.75999999 1.0330267e-38
-0.020935226 0.032485738 0.75799996 9.2888432e-40
-0.019439979 0.032400005 0.75600004 7.4412732e-40
-0.018000001 0.032400005 0.75600004 5.601018e-40
-0.016538072 0.032357149 0.75500005 4.6791318e-40
-0.015099965 0.032357156 0.755 3.7715808e-40
-0.013625713 0.032271452 0.75299996 5.6190947e-40
-0.012175232 0.032228574 0.75200003 7.4523014e-40
-0.01071427 0.03214287 0.75000006 1.0193101e-39
-0.009260946 0.032057159 0.74799997 1.2076488e-39
-0.0078257099 0.03201431 0.74700004 3.1498303e-39
-0.0064028511 0.032014295 0.74700004 5.0805505e-39
-0.0049799746 0.032014325 0.74699998 5.7248577e-39
-0.003547593 0.031928591 0.74500006 6.3677104e-39
-0.0021228315 0.031842865 0.74299997 6.7350566e-39
-0.00070760673 0.031842873 0.74300003 7.0102044e-39
0.00070764037 0.031842887 0.74299997 7.1938754e-39
0.0021200292 0.031800024 0.74199998 7.3793414e-39
0.0035333494 0.031800017 0.74199998 6.6435812e-39
0.0049533648 0.031842873 0.74300003 5.8152513e-39
0.006368611 0.03184288 0.74299997 5.9967531e-39
0.0077838358 0.031842865 0.74299997 6.088583e-39
0.0091990614 0.03184288 0.74300003 5.1687875e-39
0.010614307 0.031842887 0.74299997 4.1604173e-39
0.012061905 0.031928591 0.74500006 4.1550629e-39
0.013517162 0.03201431 0.74700004 4.0707552e-39
0.014940005 0.03201431 0.74700004 4.8854295e-39
0.01636287 0.032014303 0.74699998 5.7273703e-39
0.017785743 0.03201431 0.74699998 7.4675784e-39
0.019234305 0.032057151 0.74799997 9.2217953e-39
0.020659054 0.032057151 0.74799997 1.0515758e-38
0.022083802 0.032057151 0.74800003 1.1710702e-38
0.023508579 0.032057144 0.74800003 1.227356e-38
0.025000036 0.032142878 0.75 1.280983e-38
0.026499055 0.032228597 0.75199997 8.7493026e-39
0.028042885 0.032357156 0.75500005 4.6260646e-39
0.029520024 0.032400005 0.75600004 8.6779793e-39
0.031041928 0.032485731 0.75800002 1.2635882e-38
0.032485723 0.032485731 0.75799996 1.1804349e-38
0.033929523 0.032485738 0.75800002 1.0882739e-38
0.035466727 0.032571442 0.75999999 1.0421382e-38
0.036914337 0.03257145 0.75999999 9.9629308e-39
-0.020935219 0.033929549 0.75799996 9.2888292e-40
-0.019491419 0.033929534 0.75799996 7.4376018e-40
-0.017999969 0.033840008 0.75599998 6.5193449e-40
-0.016538072 0.03379526 0.75500005 5.5939134e-40
-0.015059982 0.033705741 0.75299996 4.6863625e-40
-0.013607606 0.033660963 0.75200003 6.5302751e-40
-0.012175227 0.033660963 0.75200003 8.3742437e-40
-0.010714257 0.033571437 0.75000006 1.0200262e-39
-0.0092609534 0.033481911 0.74799997 1.2019091e-39
-0.0078257127 0.03343717 0.74700004 3.1433745e-39
-0.0064028334 0.033437163 0.74699998 5.0791128e-39
-0.0049799904 0.033437163 0.74699998 5.3567885e-39
-0.0035476023 0.033347622 0.74500006 5.7227025e-39
-0.0021228287 0.033258125 0.74299997 6.5474354e-39
-0.000707603 0.033258118 0.74300003 7.3732346e-39
0.00070764316 0.033258133 0.74299997 7.747747e-39
0.0021228818 0.033258118 0.74299997 8.2062042e-39
0.003538114 0.033258133 0.74299997 6.5506499e-39
0.0049533676 0.033258118 0.74299997 4.8886217e-39
0.0063685933 0.03325811 0.74300003 3.9659395e-39
0.0077838395 0.033258125 0.74299997 3.1404878e-39
0.0091990642 0.033258125 0.74300003 5.4442589e-39
0.01061431 0.033258133 0.74299997 7.744496e-39
0.012061928 0.033347629 0.74500006 8.8569686e-39
0.013517178 0.033437178 0.74699998 1.005406e-38
0.014959989 0.033481911 0.74800003 1.0239166e-38
0.016384788 0.033481926 0.74799997 1.0523638e-38
0.017809536 0.033481911 0.74799997 1.1348002e-38
0.019234283 0.033481903 0.74799997 1.2274644e-38
0.020714335 0.033571459 0.75 1.2639869e-38
0.022142893 0.033571444 0.75 1.3014747e-38
0.023571478 0.033571444 0.75 1.3009369e-38
0.025000036 0.033571467 0.75 1.3006449e-38
0.026534308 0.033705734 0.75300002 9.0345131e-39
0.028042907 0.033795252 0.755 5.170598e-39
0.029520009 0.033840001 0.75600004 8.4885042e-39
0.03096002 0.033840008 0.75600004 1.1888225e-38
0.032485753 0.033929557 0.75799996 1.1339377e-38
0.033929527 0.033929542 0.75799996 1.0785862e-38
0.035466701 0.03401906 0.75999999 1.0512514e-38
0.036962897 0.034063831 0.76099998 1.032956e-38
-0.019491415 0.035373345 0.75799996 8.3416915e-40
-0.017999969 0.035280026 0.75599998 7.426994e-40
-0.016538082 0.035233349 0.75500005 6.4907724e-40
-0.015060001 0.035140015 0.75299996 5.5939835e-40
-0.013607601 0.03509336 0.75199997 7.4379101e-40
-0.012175241 0.035093352 0.75200003 8.3706844e-40
-0.010714258 0.035000026 0.75 1.0207478e-39
-0.0092609469 0.03490667 0.74800003 1.2051335e-39
-0.0078361994 0.034906678 0.74800003 3.1419284e-39
-0.006411436 0.034906678 0.74800003 4.9890709e-39
-0.0049799951 0.034860022 0.74699998 5.0845232e-39
-0.0035571381 0.034860022 0.74700004 5.081296e-39
-0.0021285601 0.034766689 0.74500006 6.3591036e-39
-0.00070760021 0.034673356 0.74299997 7.6566486e-39
0.00070762547 0.034673363 0.74300003 8.3088325e-39
0.0021228855 0.034673356 0.74299997 8.9480852e-39
0.0035380973 0.034673363 0.74300003 6.4638563e-39
0.0049533704 0.034673363 0.74299997 3.8791571e-39
0.0063685961 0.034673356 0.74300003 2.0208924e-39
0.0077838427 0.034673356 0.74299997 1.0671168e-40
0.009199067 0.034673356 0.74299997 5.7230431e-39
0.010614314 0.03467337 0.74299997 1.1341914e-38
0.012094303 0.034860022 0.74699998 1.3658295e-38
0.013517174 0.03486003 0.74699998 1.5948794e-38
0.014940018 0.034860022 0.74699998 1.5677227e-38
0.016384766 0.034906685 0.74799997 1.5306648e-38
0.017809542 0.034906685 0.74799997 1.5309511e-38
0.019234288 0.034906678 0.74799997 1.5213747e-38
0.020714333 0.035000026 0.75 1.4754229e-38
0.022142891 0.035000026 0.75 1.4203572e-38
0.023634285 0.035093345 0.75200003 1.3651123e-38
0.025066681 0.035093352 0.75200003 1.3089663e-38
0.026534308 0.035140038 0.75299996 9.3946748e-39
0.028042881 0.035233349 0.755 5.7259171e-39
0.02952002 0.035280004 0.75600004 8.4009833e-39
0.030960005 0.035280004 0.75600004 1.1063146e-38
0.032485738 0.035373345 0.75800002 1.0878769e-38
0.034019094 0.035466678 0.75999999 1.0603634e-38
0.035513349 0.035513356 0.76100004 1.0604365e-38
0.036962882 0.035513356 0.76099998 1.060579e-38
0.0384124 0.035513349 0.76099998 1.0882365e-38
-0.021018058 0.036962874 0.76099998 1.0210785e-39
-0.01956854 0.036962882 0.76099998 1.111119e-39
-0.017999973 0.036720008 0.75599998 1.2940767e-39
-0.016538082 0.036671437 0.75500005 1.3859164e-39
-0.015059985 0.036574297 0.75299996 1.4781148e-39
-0.013607617 0.036525726 0.75200003 1.1114945e-39
-0.012175236 0.036525711 0.75200003 7.4559588e-40
-0.010714259 0.036428593 0.75 7.4345049e-40
-0.0092856884 0.036428586 0.75 6.4909406e-40
-0.0078361938 0.03633143 0.74800003 3.7879928e-39
-0.0064114304 0.036331438 0.74800003 7.0180614e-39
-0.0049866615 0.036331445 0.74799997 7.3858028e-39
-0.0035619009 0.036331445 0.74799997 7.8417503e-39
-0.0021285499 0.036185727 0.745 8.4863896e-39
-0.00070950104 0.036185727 0.74500006 9.2282707e-39
0.00070953375 0.036185727 0.74500006 9.3212034e-39
0.0021285815 0.036185712 0.74500006 9.5070141e-39
0.0035476517 0.036185719 0.74500006 6.5585799e-39
0.0049533732 0.036088608 0.74299997 3.6119113e-39
0.0063685998 0.036088586 0.74299997 1.9416111e-39
0.0077838241 0.036088586 0.74300003 2.8646044e-40
0.0091990707 0.036088601 0.74299997 5.6344838e-39
0.010614296 0.036088593 0.74300003 1.098646e-38
0.012094297 0.03628289 0.74699998 1.2737122e-38
0.01351717 0.036282875 0.74699998 1.457884e-38
0.014940014 0.036282882 0.74700004 1.3928802e-38
0.016384771 0.036331438 0.74799997 1.337957e-38
0.01780952 0.036331438 0.74799997 1.328198e-38
0.019234296 0.036331438 0.74800003 1.3189429e-38
0.020714313 0.036428593 0.75000006 1.33731e-38
0.022142917 0.036428593 0.75 1.3465289e-38
0.023571474 0.036428601 0.75 1.3095787e-38
0.025066679 0.036525711 0.75200003 1.2815938e-38
0.026534291 0.036574312 0.75299996 9.3996915e-39
0.028042883 0.036671437 0.755 5.9985552e-39
0.02948099 0.036671445 0.755 8.5810754e-39
0.03104192 0.036817163 0.75800002 1.1156065e-38
0.032485742 0.036817156 0.75799996 1.1064236e-38
0.034019094 0.036914311 0.75999999 1.0972421e-38
0.035466705 0.036914304 0.75999999 1.0881321e-38
0.036914334 0.036914319 0.75999999 1.0790187e-38
0.038412433 0.036962889 0.76099998 1.0882006e-38
0.039861947 0.036962874 0.76099998 1.1066401e-38
-0.022585705 0.03861431 0.76499999 1.1139972e-39
-0.021018069 0.038412411 0.76099998 1.1129239e-39
-0.019568542 0.0384124 0.76100004 1.478475e-39
-0.017999973 0.038160011 0.75599998 1.8468974e-39
-0.016559996 0.038160011 0.75600004 2.121692e-39
-0.015099986 0.038109537 0.75500005 2.3993495e-39
-0.013625705 0.0380086 0.75299996 1.5706762e-39
-0.012175217 0.037958115 0.75199997 6.5376179e-40
-0.010742856 0.0379581 0.75200003 3.7467358e-40
-0.0092856763 0.037857164 0.75 1.0347468e-40
-0.0078571048 0.037857167 0.75 4.5262893e-39
-0.0064114193 0.037756205 0.74799997 8.9480558e-39
-0.0049866559 0.037756205 0.74799997 9.7824982e-39
-0.0035618944 0.037756212 0.74800003 1.0513593e-38
-0.0021342672 0.037705746 0.74699998 1.0699417e-38
-0.00071142329 0.037705731 0.74699998 1.0790187e-38
0.00070954306 0.037604786 0.74500006 1.0423933e-38
0.0021285918 0.037604772 0.74500006 9.9600553e-39
0.0035476265 0.037604768 0.74500006 6.6514313e-39
0.0049533565 0.037503839 0.74300003 3.2373652e-39
0.0063857441 0.037604772 0.74500006 1.8469086e-39
0.0078047784 0.037604772 0.74500006 4.7264256e-40
0.0092486069 0.037705742 0.74699998 5.541212e-39
0.010671451 0.037705734 0.74699998 1.0611205e-38
0.012094294 0.037705742 0.74699998 1.1907693e-38
0.013517166 0.037705727 0.74700004 1.3097237e-38
0.01496 0.037756208 0.74799997 1.2262815e-38
0.016384777 0.037756193 0.74799997 1.1346964e-38
0.017857168 0.03785716 0.75 1.1249742e-38
0.019285753 0.037857164 0.75000006 1.1163287e-38
0.020714311 0.03785716 0.75000006 1.1991959e-38
0.022201911 0.037958108 0.75200003 1.2727362e-38
0.023665722 0.038008593 0.75299996 1.2634093e-38
0.025100021 0.0380086 0.75299996 1.2441782e-38
0.026534319 0.038008593 0.75299996 9.3900141e-39
0.028042883 0.038109522 0.75500005 6.2769385e-39
0.029598122 0.038260978 0.75799996 8.7683393e-39
0.031041924 0.038260978 0.75800002 1.1248618e-38
0.032571487 0.038361933 0.75999999 1.1340815e-38
0.034019098 0.038361922 0.75999999 1.1340467e-38
0.035466731 0.038361918 0.75999999 1.1157884e-38
0.036962882 0.0384124 0.76100004 1.0973483e-38
0.038412418 0.038412422 0.76099998 1.0973113e-38
-0.022585705 0.040071461 0.76499999 1.5735377e-39
-0.021018069 0.039861917 0.76100004 1.9394517e-39
-0.019568535 0.039861932 0.76099998 2.586612e-39
-0.018047601 0.039704788 0.75799996 3.3202254e-39
-0.016559985 0.039600011 0.75600004 3.7833545e-39
-0.015099985 0.03954763 0.75500005 4.2428837e-39
-0.013625691 0.039442886 0.75299996 3.8758935e-39
-0.012191425 0.039442867 0.75299996 3.5968039e-39
-0.010742851 0.039390486 0.75200003 2.4919108e-39
-0.0092856772 0.039285731 0.75 1.3845193e-39
-0.0078571048 0.039285742 0.75 3.8841821e-39
-0.0064114276 0.039180957 0.74799997 6.3831331e-39
-0.0049866652 0.039180972 0.74799997 6.6550719e-39
-0.0035619019 0.039180961 0.74800003 6.8426903e-39
-0.0021342719 0.039128587 0.74700004 6.6518447e-39
-0.00071142887 0.039128602 0.74700004 6.4721212e-39
0.00071144948 0.039128594 0.74699998 5.8235344e-39
0.0021343073 0.039128602 0.74699998 5.267799e-39
0.0035619158 0.039180968 0.74799997 3.7883263e-39
0.0049666846 0.039023805 0.74500006 2.3085776e-39
0.0063857194 0.039023817 0.74500006 1.7532822e-39
0.0078047742 0.039023824 0.74500006 1.287684e-39
0.0092486022 0.039128598 0.74699998 5.907475e-39
0.010671446 0.039128598 0.74699998 1.0611903e-38
0.012110482 0.039180975 0.74799997 1.1623538e-38
0.013535258 0.039180961 0.74799997 1.2628697e-38
0.015000022 0.039285745 0.75 1.1986197e-38
0.016428608 0.039285742 0.75 1.143375e-38
0.017857168 0.039285727 0.75 1.1066409e-38
0.019285752 0.039285731 0.75 1.0793772e-38
0.020714309 0.039285742 0.75 1.1806831e-38
0.022201929 0.039390486 0.75199997 1.2817749e-38
0.023665732 0.039442874 0.75300002 1.2633727e-38
0.025100002 0.039442874 0.75299996 1.2539717e-38
0.0265343 0.039442882 0.75299996 9.5858904e-39
0.028042886 0.03954763 0.75500005 6.6442875e-39
0.029598109 0.039704777 0.75800002 8.2123097e-39
0.031041931 0.039704788 0.75799996 9.7803276e-39
0.032571465 0.039809544 0.75999999 9.7763787e-39
0.034063838 0.039861936 0.76099998 9.8707296e-39
0.035466705 0.039809532 0.75999999 9.867145e-39
0.036914334 0.039809551 0.75999999 9.9625595e-39
-0.02413713 0.041691437 0.76799995 1.3909457e-39
-0.02264474 0.04163716 0.76699996 2.0334368e-39
-0.021073319 0.041420016 0.76299995 2.6798768e-39
-0.019568548 0.041311447 0.76099998 3.7001174e-39
-0.018047614 0.041148596 0.75800002 4.7081625e-39
-0.016559985 0.041040014 0.75600004 5.3560416e-39
-0.015119988 0.041040011 0.75600004 5.9978209e-39
-0.013661889 0.04098573 0.75500005 6.2765644e-39
-0.012191411 0.040877167 0.75299996 6.4548375e-39
-0.010742845 0.040822867 0.75199997 4.6120124e-39
-0.0093104504 0.040822878 0.75199997 2.6806125e-39
-0.0078571057 0.040714309 0.75 3.2420427e-39
-0.006411422 0.040605728 0.74799997 3.7955752e-39
-0.0049866596 0.04060572 0.74799997 3.5197184e-39
-0.0035619112 0.040605731 0.74800003 3.1498653e-39
-0.0021342766 0.040551458 0.74700004 2.6849495e-39
-0.00071141211 0.040551454 0.74699998 2.1382427e-39
0.00071144575 0.040551454 0.74699998 1.3131582e-39
0.0021343026 0.040551454 0.74699998 4.7800112e-40
0.0035619214 0.04060572 0.74799997 9.2567114e-40
0.0049866699 0.040605731 0.74800003 1.2955313e-39
0.0064114183 0.040605724 0.74800003 1.6621628e-39
0.0078257266 0.040551454 0.74699998 2.0403046e-39
0.0092609422 0.040605709 0.74800003 6.2802007e-39
0.010671441 0.040551454 0.74700004 1.051504e-38
0.012110488 0.040605724 0.74799997 1.1345509e-38
0.013535236 0.040605731 0.74799997 1.2078754e-38
0.015000049 0.040714305 0.75 1.1803245e-38
0.016428608 0.040714309 0.75 1.1433748e-38
0.017857194 0.040714309 0.75 1.0971698e-38
0.01928575 0.040714312 0.75 1.0424633e-38
0.020714307 0.040714316 0.75 1.1715357e-38
0.022201899 0.040822864 0.75200003 1.2910301e-38
0.023634294 0.040822875 0.75200003 1.2727356e-38
0.02510003 0.040877167 0.75299996 1.2537559e-38
0.026534304 0.040877171 0.7529999 9.7695516e-39
0.028042888 0.040985722 0.75500005 7.0119686e-39
0.029676247 0.041257165 0.75999999 7.6558849e-39
0.031123858 0.041257165 0.75999999 8.2094174e-39
0.032571487 0.041257173 0.75999999 8.2969565e-39
0.034063831 0.041311447 0.76100004 8.3019731e-39
0.035513364 0.041311461 0.76099998 8.6614188e-39
-0.024137113 0.043154318 0.76799995 1.4834916e-39
-0.022674251 0.043154314 0.76799995 2.1263513e-39
-0.021128565 0.042985734 0.76500005 2.8631905e-39
-0.019619999 0.042873342 0.76300001 4.0645881e-39
-0.018047612 0.04259241 0.75799996 5.2620467e-39
-0.016559988 0.042480003 0.75600004 6.0010453e-39
-0.015119977 0.042480014 0.75600004 6.7382628e-39
-0.013661866 0.042423833 0.755 7.0163028e-39
-0.012223793 0.042423815 0.75500005 7.3843258e-39
-0.010742849 0.042255256 0.75200003 4.7085044e-39
-0.0093104672 0.042255245 0.75200003 2.12708e-39
-0.0078571122 0.042142864 0.75000006 2.4061878e-39
-0.0064285416 0.042142875 0.75000006 2.6798964e-39
-0.0049866661 0.042030483 0.74800003 2.4054619e-39
-0.0035619037 0.042030483 0.74800003 2.1227822e-39
-0.0021371422 0.042030483 0.74800003 1.8512232e-39
-0.00071239372 0.042030487 0.74800003 1.5721294e-39
0.00071238918 0.042030498 0.74799997 1.1165392e-39
0.0021371515 0.042030483 0.74799997 7.4238551e-40
0.0035619 0.042030491 0.74799997 7.4310577e-40
0.0049866755 0.042030491 0.74800003 7.4417356e-40
0.0064114244 0.042030487 0.74800003 2.4068885e-39
0.0078361733 0.04203048 0.74800003 4.0735999e-39
0.0092609487 0.04203048 0.74800003 7.4794446e-39
0.010671458 0.041974306 0.74699998 1.0975648e-38
0.012110493 0.042030491 0.74799997 1.1436256e-38
0.013535242 0.042030476 0.74799997 1.189472e-38
0.015000048 0.042142879 0.75 1.1803605e-38
0.016428607 0.04214289 0.75 1.170961e-38
0.017857192 0.042142875 0.75 1.1341544e-38
0.01928575 0.042142887 0.75 1.1064969e-38
0.020714335 0.042142875 0.75 1.2081624e-38
0.022201918 0.042255249 0.75200003 1.3094333e-38
0.023634315 0.04225526 0.75200003 1.2818832e-38
0.025100011 0.042311449 0.75299996 1.245074e-38
0.026534311 0.042311452 0.75299996 9.5858708e-39
0.02804289 0.042423807 0.75500005 6.7328538e-39
0.029676225 0.042704776 0.75999999 9.2192099e-39
0.031123854 0.042704791 0.75999999 1.1696277e-38
0.032614302 0.042760976 0.76100004 1.1885706e-38
0.034063864 0.042760968 0.76099998 1.2071874e-38
0.035513379 0.042760972 0.76099998 1.2256248e-38
-0.024199983 0.044733346 0.76999998 1.4824196e-39
-0.022674255 0.044617169 0.76799995 2.2163973e-39
-0.021128563 0.044442885 0.76499999 2.9553903e-39
-0.01961999 0.04432667 0.76300001 4.3415379e-39
-0.018047605 0.044036217 0.75799996 5.7230262e-39
-0.016559992 0.043920014 0.75600004 6.6474909e-39
-0.015119979 0.043920007 0.75600004 7.4754677e-39
-0.013625697 0.043745749 0.75299996 7.8500067e-39
-0.012191413 0.043745741 0.75299996 8.2101418e-39
-0.010742843 0.043687623 0.75199997 4.8936271e-39
-0.0093104616 0.043687634 0.75199997 1.5792928e-39
-0.007857115 0.043571446 0.75 1.5760572e-39
-0.0064285425 0.043571465 0.75 1.5760656e-39
-0.0049999719 0.043571454 0.75 1.3916856e-39
-0.0035619102 0.043455247 0.74800003 1.1158217e-39
-0.0021371497 0.043455239 0.74800003 1.1169007e-39
-0.00071236672 0.043455251 0.74799997 1.0232716e-39
0.00071239664 0.043455251 0.74799997 1.0218352e-39
0.0021371581 0.043455254 0.74799997 9.2891655e-40
0.0035619065 0.043455239 0.74800003 5.6049136e-40
0.004986654 0.043455247 0.74800003 1.9710244e-40
0.00641143 0.043455254 0.74800003 3.146966e-39
0.0078361789 0.043455243 0.74800003 6.0961346e-39
0.0092609748 0.043455247 0.74799997 8.771233e-39
0.010685723 0.043455247 0.74799997 1.134299e-38
0.012110473 0.043455262 0.74799997 1.152846e-38
0.013571441 0.043571446 0.75000006 1.1713573e-38
0.015000047 0.043571461 0.75 1.1807211e-38
0.016428605 0.043571457 0.75 1.1896524e-38
0.01785719 0.043571457 0.75 1.1802885e-38
0.019285748 0.043571454 0.75 1.16203e-38
0.020714333 0.043571457 0.75 1.2451134e-38
0.022201918 0.043687623 0.75200003 1.3278012e-38
0.023634285 0.043687627 0.75200003 1.2819552e-38
0.025100041 0.043745745 0.75299996 1.2351736e-38
0.026604803 0.043861918 0.75500005 9.3900127e-39
0.028042883 0.043861926 0.755 6.4616591e-39
0.029676251 0.044152398 0.75999999 1.0791898e-38
0.031123862 0.044152401 0.75999999 1.5107819e-38
0.032614335 0.044210512 0.76099998 1.5477685e-38
0.034063853 0.044210501 0.76099998 1.5754625e-38
0.035513368 0.04421049 0.76100004 1.5941882e-38
-0.024137136 0.046080027 0.76799995 1.0232464e-39
-0.022644747 0.046019997 0.76700002 1.7568653e-39
-0.021128565 0.045900032 0.76499999 2.5841093e-39
-0.019619998 0.045780014 0.76300001 4.1560803e-39
-0.018047603 0.045480028 0.75799996 5.7223172e-39
-0.016559992 0.045359999 0.75600004 6.3687642e-39
-0.015119981 0.045360014 0.75600004 7.1052656e-39
-0.013661878 0.045300007 0.755 7.6606058e-39
-0.01222377 0.045300007 0.755 8.3041423e-39
-0.01075712 0.045180026 0.75299996 4.8947201e-39
-0.0093104783 0.045120008 0.75200003 1.5778537e-39
-0.0078780819 0.045120016 0.75200003 1.2998094e-39
-0.0064285453 0.045000024 0.75 1.0232478e-39
-0.0049999729 0.04500002 0.75 1.0247023e-39
-0.0035714032 0.045000024 0.75 1.0257827e-39
-0.0021371376 0.044880018 0.74799997 1.1172623e-39
-0.0007123751 0.044880018 0.74799997 1.2087376e-39
0.00071238732 0.044880006 0.74799997 1.023989e-39
0.0021371357 0.044880018 0.74799997 9.317766e-40
0.0035619121 0.04488001 0.74800003 5.62264e-40
0.0049866606 0.04488001 0.74800003 1.9386964e-40
0.006411436 0.044879999 0.74800003 3.1448248e-39
0.0078361845 0.04488001 0.74800003 6.0964961e-39
0.0092609534 0.044880006 0.74799997 8.7672785e-39
0.01068573 0.044880018 0.74799997 1.1524869e-38
0.012110478 0.04488001 0.74799997 1.1713574e-38
0.013571467 0.045000009 0.75000006 1.1991605e-38
0.015000025 0.045000017 0.75000006 1.2082734e-38
0.016428612 0.045000024 0.75000006 1.2266033e-38
0.017857168 0.045000013 0.75000006 1.2080555e-38
0.019285753 0.045000009 0.75000006 1.1804701e-38
0.020769542 0.045120008 0.75200003 1.2358236e-38
0.022201909 0.045120008 0.75200003 1.2910678e-38
0.023634303 0.045120016 0.75200003 1.2727361e-38
0.025166698 0.045300007 0.75500005 1.2450753e-38
0.026604805 0.045300003 0.75500005 9.5840954e-39
0.028080028 0.045360021 0.75600004 6.8293668e-39
0.029676225 0.045600016 0.75999999 1.1251797e-38
0.031164808 0.045660019 0.76099998 1.5761428e-38
0.032614324 0.045660026 0.76099998 1.5851833e-38
0.034063838 0.045660019 0.76100004 1.5945833e-38
0.035513371 0.045660034 0.76099998 1.6035886e-38
-0.024137117 0.047542874 0.76799995 4.7187605e-40
-0.022585696 0.047357168 0.76499999 1.2948222e-39
-0.02112855 0.047357164 0.76499999 2.1299597e-39
-0.019491419 0.046923835 0.75799996 3.976005e-39
-0.018047618 0.046923839 0.75800002 5.7230375e-39
-0.016559996 0.04680001 0.75600004 6.1829394e-39
-0.015119983 0.046800006 0.75600004 6.6449994e-39
-0.013661876 0.046738114 0.75500005 7.4744013e-39
-0.012223781 0.046738114 0.755 8.2998263e-39
-0.010757139 0.0466143 0.75299996 4.9865556e-39
-0.0093104579 0.04655239 0.75199997 1.5800159e-39
-0.0078780781 0.046552401 0.75199997 1.0214541e-39
-0.0064285314 0.046428595 0.75 3.8112656e-40
-0.0049999608 0.046428598 0.75 6.5843652e-40
-0.0035713892 0.046428591 0.75 9.3394441e-40
-0.0021371311 0.046304777 0.74799997 1.1169007e-39
-0.00071236951 0.04630477 0.74799997 1.3005689e-39
0.00071237894 0.046304774 0.74799997 1.1168965e-39
0.0021371413 0.046304781 0.74800003 9.3214234e-40
0.0035618898 0.04630477 0.74800003 5.6335842e-40
0.0049866661 0.046304762 0.74800003 1.0455228e-40
0.0064114151 0.04630477 0.74800003 3.0504754e-39
0.0078571811 0.046428595 0.75 6.0028683e-39
0.0092857387 0.046428598 0.75 8.8605573e-39
0.010714323 0.046428591 0.75 1.1619935e-38
0.012142881 0.046428584 0.75 1.190083e-38
0.013571466 0.046428591 0.75000006 1.2174908e-38
0.015000024 0.046428598 0.75 1.2449704e-38
0.01642861 0.046428591 0.75000006 1.2633363e-38
0.017857168 0.046428587 0.75 1.235641e-38
0.019285753 0.046428591 0.75000006 1.198944e-38
0.020769535 0.046552397 0.75199997 1.2266752e-38
0.022231456 0.046614315 0.75299996 1.2542615e-38
0.023665752 0.046614308 0.75299996 1.2544047e-38
0.025166698 0.046738099 0.75500005 1.2535769e-38
0.026604779 0.04673811 0.75500005 9.8495545e-39
0.028080011 0.046800014 0.75600004 7.1066711e-39
0.029676251 0.047047637 0.75999999 1.1716726e-38
0.031164795 0.047109548 0.76099998 1.6312447e-38
0.032614309 0.047109537 0.76100004 1.6222046e-38
0.034063846 0.047109541 0.76099998 1.6129143e-38
0.03551336 0.047109544 0.76099998 1.6219912e-38
-0.02404285 0.048814312 0.76499999 4.5212503e-39
-0.022585718 0.048814304 0.76500005 5.2602544e-39
-0.021073321 0.048686668 0.76300001 5.9906434e-39
-0.019619996 0.048686676 0.76300001 5.7226801e-39
-0.018047614 0.048367649 0.75799996 5.4500463e-39
-0.016603792 0.048367646 0.75799996 5.9088664e-39
-0.015119985 0.048240013 0.75600004 6.3687628e-39
-0.013679972 0.04824001 0.75600004 7.0141238e-39
-0.01222378 0.048176203 0.755 7.6580415e-39
-0.010757123 0.048048601 0.75299996 5.0783897e-39
-0.0093104728 0.047984764 0.75200003 2.4990995e-39
-0.007878093 0.047984771 0.75200003 1.7604639e-39
-0.0064285342 0.047857177 0.75 9.3322554e-40
-0.0049999617 0.047857165 0.75 1.0254184e-39
-0.0035713911 0.047857173 0.75 1.0257785e-39
-0.0021371385 0.047729544 0.74799997 1.3009263e-39
-0.00071237603 0.047729533 0.74799997 1.6671906e-39
0.00071238546 0.047729529 0.74800003 1.3002046e-39
0.0021371478 0.047729529 0.74800003 1.025061e-39
0.0035618972 0.047729537 0.74800003 5.630179e-40
0.0049866727 0.047729529 0.74800003 1.9173126e-40
0.0064114416 0.047729529 0.74799997 3.1444591e-39
0.0078571802 0.047857177 0.75 6.0961416e-39
0.0092857378 0.047857169 0.75 8.8612832e-39
0.010714322 0.047857173 0.75 1.1713209e-38
0.01214288 0.047857169 0.75 1.180648e-38
0.013571465 0.047857173 0.75 1.1989794e-38
0.015000022 0.047857169 0.75 1.2082348e-38
0.016428608 0.047857158 0.75 1.2174892e-38
0.017857166 0.047857165 0.75 1.1805386e-38
0.019337138 0.047984775 0.75200003 1.1438058e-38
0.020769533 0.047984768 0.75200003 1.2081638e-38
0.022201927 0.047984764 0.75200003 1.263301e-38
0.023665734 0.048048582 0.75299996 1.2634803e-38
0.025166692 0.048176199 0.755 1.2635136e-38
0.026604779 0.048176199 0.75500005 9.5826548e-39
0.028080022 0.048240002 0.75600004 6.5513576e-39
0.029676229 0.048495248 0.75999999 1.1436924e-38
0.03116478 0.048559066 0.76100004 1.6407158e-38
0.032700021 0.048686683 0.76300001 1.6313524e-38
0.034153346 0.048686672 0.76300001 1.6311736e-38
0.035606671 0.048686668 0.76300001 1.6312101e-38
-0.024042848 0.050271459 0.76499999 8.4920733e-39
-0.022585716 0.050271455 0.76499999 9.2343103e-39
-0.021128569 0.050271448 0.76499999 9.8681904e-39
-0.019620003 0.050140005 0.76300001 7.5658472e-39
-0.018095192 0.049942885 0.75999999 5.1745384e-39
-0.016603809 0.049811445 0.75800002 5.6337173e-39
-0.015119987 0.049680002 0.75600004 6.0010565e-39
-0.013679974 0.049680017 0.75600004 6.4627423e-39
-0.012239997 0.049680002 0.75600004 6.920482e-39
-0.010785685 0.049614292 0.755 5.169149e-39
-0.0093228435 0.049482871 0.75299996 3.4181691e-39
-0.0078780875 0.04941716 0.75199997 2.49658e-39
-0.0064456929 0.049417153 0.75199997 1.4853119e-39
-0.0050133122 0.049417157 0.75199997 1.3009207e-39
-0.0035809521 0.049417146 0.75200003 1.1176098e-39
-0.0021428214 0.049285732 0.75 1.5771474e-39
-0.00071424985 0.049285743 0.75 1.9434076e-39
0.00071432168 0.049285751 0.75 1.5753425e-39
0.0021428932 0.04928574 0.75 1.1158161e-39
0.0035619019 0.049154289 0.74800003 6.5521213e-40
0.0050000353 0.049285743 0.75 1.9818424e-40
0.0064286212 0.049285751 0.75 3.2398735e-39
0.0078571783 0.049285743 0.75 6.1879715e-39
0.0092857638 0.049285732 0.75 8.9581395e-39
0.010714321 0.049285743 0.75 1.1712493e-38
0.012142906 0.049285732 0.75 1.180577e-38
0.013571464 0.049285743 0.75 1.1806123e-38
0.015000049 0.049285732 0.75 1.1714282e-38
0.016428607 0.049285743 0.75 1.1621366e-38
0.017904762 0.049417153 0.75200003 1.1251868e-38
0.019337157 0.049417157 0.75200003 1.0885973e-38
0.020769551 0.049417153 0.75200003 1.1805418e-38
0.022231465 0.049482871 0.75299996 1.2726643e-38
0.023665715 0.049482875 0.75299996 1.2727361e-38
0.025166694 0.049614292 0.755 1.2627608e-38
0.026604781 0.049614295 0.75500005 9.2949584e-39
0.028080035 0.049680009 0.75600004 5.9117447e-39
0.029676251 0.049942877 0.75999999 1.1163937e-38
0.031164818 0.050008602 0.76099998 1.6404293e-38
0.032700002 0.050140016 0.76300001 1.6496481e-38
0.034153353 0.050140005 0.76300001 1.6497202e-38
-0.022585705 0.051728602 0.76499999 8.9634841e-39
-0.021128558 0.051728591 0.76499999 9.7021071e-39
-0.019619996 0.051593333 0.76300001 7.1134857e-39
-0.018095199 0.051390499 0.75999999 4.5284613e-39
-0.016603803 0.051255267 0.75799996 4.8028916e-39
-0.015159982 0.051255263 0.75799996 5.1713028e-39
-0.013679976 0.05112002 0.75600004 5.4493134e-39
-0.012239984 0.051120009 0.75600004 5.8206043e-39
-0.010799986 0.051120006 0.75600004 4.3408345e-39
-0.0093475878 0.051052392 0.755 2.8646436e-39
-0.0079095 0.051052377 0.75500005 2.1288764e-39
-0.0064714067 0.051052392 0.75500005 1.3934722e-39
-0.0050332993 0.051052399 0.755 1.1172455e-39
-0.0035856934 0.050917167 0.75299996 8.4138164e-40
-0.0021428289 0.050714307 0.75000006 1.2094425e-39
-0.00071425823 0.050714299 0.75000006 1.5760586e-39
0.0007143133 0.050714307 0.75000006 1.300185e-39
0.0021428708 0.050714295 0.75000006 1.1161693e-39
0.0035619084 0.050579056 0.74800003 8.3960059e-40
0.0049866783 0.050579075 0.74799997 5.6336963e-40
0.0064286198 0.050714318 0.75 1.9477096e-39
0.0078571765 0.050714314 0.75 3.334967e-39
0.009285762 0.050714314 0.75 7.2025003e-39
0.01071432 0.05071431 0.75 1.1158254e-38
0.012142905 0.050714314 0.75 1.1621746e-38
0.013571463 0.05071431 0.75 1.2174183e-38
0.015000048 0.050714307 0.75 1.2265647e-38
0.016428605 0.05071431 0.75 1.2445733e-38
0.017904783 0.050849535 0.75199997 1.2447528e-38
0.019337157 0.050849531 0.75200003 1.2446106e-38
0.020769522 0.050849527 0.75200003 1.3187258e-38
0.022231448 0.050917163 0.75299996 1.401593e-38
0.023728587 0.051052388 0.75500005 1.37415e-38
0.025166696 0.051052384 0.755 1.3464895e-38
0.026604805 0.051052395 0.755 1.0045434e-38
0.028080018 0.051120013 0.75600004 6.6467958e-39
0.029676229 0.051390491 0.75999999 1.1345823e-38
0.031164803 0.051458117 0.76099998 1.5947633e-38
0.032614321 0.051458109 0.76100004 1.5947982e-38
0.034063853 0.051458124 0.76099998 1.6040179e-38
0.035700023 0.051728595 0.76499999 1.5855076e-38
0.037254307 0.051863819 0.76700002 1.5672136e-38
0.038715247 0.051863812 0.76700002 1.5580673e-38
-0.022585705 0.053185746 0.76499999 8.6893705e-39
-0.021073325 0.053046677 0.76300001 9.422265e-39
-0.019620001 0.053046666 0.76300001 6.6578773e-39
-0.018095188 0.052838124 0.75999999 3.7930333e-39
-0.016603798 0.052699074 0.75799996 4.0610008e-39
-0.015159998 0.052699074 0.75800002 4.3404617e-39
-0.013716176 0.052699074 0.75799996 4.5259348e-39
-0.012272376 0.052699063 0.75800002 4.6166941e-39
-0.010828554 0.052699074 0.75799996 3.4163755e-39
-0.0093599753 0.052560009 0.75600004 2.2210721e-39
-0.0079199979 0.052560009 0.75600004 1.7604541e-39
-0.006479986 0.052560009 0.75600004 1.3012724e-39
-0.0050399723 0.052560005 0.75600004 9.3320873e-40
-0.0035952022 0.052490488 0.755 5.6622968e-40
-0.0021485686 0.052281912 0.75200003 8.431753e-40
-0.00071425916 0.052142885 0.75000006 1.1179629e-39
0.00071431143 0.052142873 0.75000006 1.1168853e-39
0.0021428699 0.052142881 0.75 1.0246967e-39
0.0035714563 0.052142873 0.75000006 1.0239862e-39
0.0050000129 0.052142885 0.75000006 9.3070741e-40
0.006428598 0.052142877 0.75000006 6.5232405e-40
0.007857156 0.052142881 0.75000006 3.8582091e-40
0.0092857396 0.052142873 0.75000006 5.4500827e-39
0.010714298 0.052142881 0.75000006 1.0515408e-38
0.012142884 0.052142873 0.75000006 1.1532797e-38
0.01357144 0.052142866 0.75000006 1.2452579e-38
0.015000026 0.052142873 0.75000006 1.2820628e-38
0.016472386 0.052281912 0.75200003 1.3188333e-38
0.017904781 0.052281909 0.75200003 1.3554603e-38
0.019362878 0.05235146 0.75299996 1.3925901e-38
0.02085242 0.05249048 0.755 1.466526e-38
0.022290502 0.052490495 0.755 1.5307382e-38
0.02372859 0.052490491 0.75500005 1.4757797e-38
0.025200026 0.05256002 0.75599998 1.419312e-38
0.026640018 0.052560009 0.75600004 1.0774368e-38
0.028154306 0.052699082 0.75799996 7.3818217e-39
0.029598108 0.05269907 0.75799996 1.1440506e-38
0.031123865 0.052838121 0.75999999 1.5482346e-38
0.032571495 0.052838121 0.75999999 1.5490957e-38
0.034063838 0.052907642 0.76099998 1.5482706e-38
0.035513356 0.052907646 0.76100004 1.5211505e-38
0.037254296 0.053324781 0.76700002 1.4838428e-38
-0.02258569 0.054642878 0.76499999 8.3212676e-39
-0.021128558 0.05464289 0.76499999 8.9655678e-39
-0.019619996 0.05450001 0.76300001 6.8390189e-39
-0.018095199 0.054285739 0.75999999 4.7924365e-39
-0.016603796 0.054142877 0.75799996 4.1513677e-39
-0.015159995 0.054142885 0.75799996 3.6028897e-39
-0.013716174 0.054142896 0.75799996 3.9720492e-39
-0.012272371 0.054142885 0.75799996 4.4276379e-39
-0.010828549 0.054142881 0.75799996 3.324533e-39
-0.0093599772 0.054000016 0.75600004 2.3114684e-39
-0.0079199849 0.053999998 0.75600004 1.7600911e-39
-0.006479986 0.054000016 0.75600004 1.300908e-39
-0.0050399741 0.054000013 0.75600004 1.116514e-39
-0.0035952013 0.053928576 0.755 9.3320873e-40
-0.002148563 0.053714298 0.75200003 1.1179615e-39
-0.00071425916 0.053571451 0.75 1.3027157e-39
0.00071431143 0.053571455 0.75 1.2098096e-39
0.0021428969 0.053571448 0.75 1.0254198e-39
0.0035714544 0.053571459 0.75 9.3286401e-40
0.0050000399 0.053571448 0.75000006 9.3249827e-40
0.0064285961 0.053571459 0.75 5.5976689e-40
0.0078571821 0.053571448 0.75000006 2.7891164e-40
0.0092857396 0.053571455 0.75000006 5.9081728e-39
0.010714324 0.053571448 0.75000006 1.162497e-38
0.012142882 0.05357144 0.75000006 1.3100116e-38
0.013571468 0.053571451 0.75000006 1.4660596e-38
0.01504001 0.053714305 0.75200003 1.4571623e-38
0.016472405 0.053714298 0.75199997 1.4482663e-38
0.017928589 0.053785738 0.75299996 1.4113892e-38
0.019362859 0.053785734 0.75299996 1.3751582e-38
0.020852424 0.053928584 0.75500005 1.3930957e-38
0.022290502 0.053928584 0.755 1.4116407e-38
0.02372859 0.05392858 0.75500005 1.2822803e-38
0.025200039 0.054000016 0.75599998 1.1529891e-38
0.026640002 0.054000001 0.75600004 8.0203696e-39
0.028154289 0.054142877 0.75800002 4.522709e-39
0.029676231 0.054285727 0.75999999 6.4609192e-39
0.031123862 0.054285742 0.75999999 8.4888461e-39
0.032614313 0.054357164 0.76099998 8.2079698e-39
0.034063831 0.054357171 0.76100004 7.9328207e-39
0.035513364 0.054357171 0.76099998 7.7462784e-39
0.037302874 0.054857161 0.76799995 7.5636794e-39
0.038765747 0.054857157 0.76799995 7.4686097e-39
-0.025733309 0.056613352 0.77199996 6.8447236e-39
-0.024200002 0.056466676 0.77000004 7.4000372e-39
-0.022674266 0.056320012 0.76799995 7.9531984e-39
-0.021183791 0.056246676 0.76699996 8.4131143e-39
-0.01967141 0.056100029 0.76499999 7.1242098e-39
-0.018119011 0.055806704 0.76099998 5.8151938e-39
-0.016647577 0.055733353 0.75999999 4.3332675e-39
-0.015159989 0.055586692 0.75799996 2.7767402e-39
-0.013679983 0.055440016 0.75600004 3.5146667e-39
-0.012239992 0.055440012 0.75600004 4.2475571e-39
-0.010799979 0.055440012 0.75600004 3.3256148e-39
-0.0093599809 0.055440005 0.75600004 2.3121887e-39
-0.0079199867 0.055440009 0.75600004 1.8515693e-39
-0.0064799897 0.055440009 0.75600004 1.3001864e-39
-0.005039976 0.055440016 0.75600004 1.2991004e-39
-0.0035952134 0.055366684 0.755 1.3005479e-39
-0.0021485575 0.055146679 0.75199997 1.3927561e-39
-0.00071617676 0.055146687 0.75199997 1.4856777e-39
0.00071432447 0.055000022 0.75 1.3023766e-39
0.002142895 0.055000033 0.75 1.0257771e-39
0.0035714526 0.055000026 0.75 9.3248986e-40
0.0050000381 0.055000018 0.75 8.388579e-40
0.0064285947 0.055000026 0.75 4.6720832e-40
0.0078571802 0.05500003 0.75 1.0421176e-40
0.0092857378 0.055000022 0.75 6.3702314e-39
0.010714323 0.055000015 0.75 1.2635894e-38
0.012142881 0.055000026 0.75 1.4766089e-38
0.013571466 0.055000018 0.75 1.6779642e-38
0.015040009 0.055146679 0.75200003 1.6230772e-38
0.016472377 0.055146668 0.75200003 1.5675094e-38
0.017928589 0.055220023 0.75299996 1.4667056e-38
0.019362889 0.055220034 0.75299996 1.3556772e-38
0.020852396 0.055366676 0.75500005 1.3282334e-38
0.022290505 0.055366673 0.755 1.2910314e-38
0.023728613 0.05536668 0.755 1.0886692e-38
0.025200021 0.05544002 0.75599998 8.8519197e-39
0.026640015 0.055440009 0.75600004 5.2545091e-39
0.028080028 0.055440016 0.75600004 1.579276e-39
0.02971527 0.055806696 0.76099998 1.4827573e-39
0.031164784 0.055806685 0.76099998 1.3930714e-39
0.037400022 0.056466684 0.77000004 2.8601062e-40
0.038866676 0.056466676 0.76999998 3.6887501e-40
-0.025733311 0.05808384 0.77199996 6.9376325e-39
-0.024199992 0.057933357 0.76999998 7.4922244e-39
-0.022674268 0.057782881 0.76799995 7.9539046e-39
-0.021128561 0.057557173 0.76499999 8.4156198e-39
-0.019671429 0.057557166 0.76500005 7.3042921e-39
-0.018119009 0.057256214 0.76099998 6.2758161e-39
-0.016603792 0.057030495 0.75799996 4.9811606e-39
-0.015159984 0.057030514 0.75799996 3.7890956e-39
-0.013679985 0.056880016 0.75600004 4.2507856e-39
-0.012239994 0.056880005 0.75600004 4.7124771e-39
-0.010799981 0.056880012 0.75600004 3.5107263e-39
-0.0093599809 0.056880016 0.75600004 2.3114754e-39
-0.0079199886 0.056880016 0.75600004 1.7597352e-39
-0.0064799916 0.056880012 0.75600004 1.2998248e-39
-0.0050399778 0.056880012 0.75600004 1.3001668e-39
-0.0035952125 0.056804772 0.75500005 1.3009052e-39
-0.0021514213 0.056654304 0.75299996 1.3931205e-39
-0.00071617862 0.056579061 0.75200003 1.577523e-39
0.00071620202 0.056579053 0.75200003 1.3020305e-39
0.0021485826 0.056579061 0.75200003 1.1183287e-39
0.0035809763 0.056579057 0.75199997 9.3283178e-40
0.0050000371 0.0564286 0.75 8.3992289e-40
0.0064285942 0.056428596 0.75 8.3633696e-40
0.0078571783 0.056428596 0.75 9.2320065e-40
0.0092857359 0.056428593 0.75 4.4381098e-39
0.010714322 0.056428596 0.75 7.9562448e-39
0.012142879 0.056428593 0.75 1.0252896e-38
0.013571464 0.056428604 0.75 1.2644908e-38
0.01504 0.056579061 0.75200003 1.1534616e-38
0.016472396 0.056579053 0.75200003 1.0431508e-38
0.017928598 0.056654312 0.75299996 9.4087551e-39
0.019362871 0.056654304 0.75299996 8.4853541e-39
0.020852398 0.056804765 0.75500005 9.3168706e-39
0.022290507 0.056804761 0.75500005 1.0233061e-38
0.023760021 0.056880012 0.75600004 8.5764216e-39
0.025200034 0.056880027 0.75600004 6.9093501e-39
0.026640026 0.056880012 0.75600004 4.6109081e-39
0.028228622 0.057180975 0.75999999 2.2199384e-39
0.029715285 0.057256222 0.76099998 1.4798553e-39
0.031246686 0.057406675 0.76300001 7.4228321e-40
0.032785732 0.057557173 0.76499999 4.6245372e-40
0.037545756 0.058159079 0.773 1.8980728e-40
0.039018124 0.058159083 0.773 1.8765208e-40
-0.025733301 0.059554312 0.77199996 7.1223727e-39
-0.024199987 0.059400011 0.76999998 7.5837026e-39
-0.022674251 0.059245732 0.76799995 7.9542746e-39
-0.0211838 0.059168581 0.76699996 8.3216404e-39
-0.019671414 0.059014313 0.76499999 7.5848278e-39
-0.018119024 0.058705725 0.76100004 6.7396613e-39
-0.016603786 0.058474306 0.75799996 5.7097475e-39
-0.01516 0.05847431 0.75800002 4.7056583e-39
-0.013679974 0.058320008 0.75600004 4.8947145e-39
-0.012239995 0.058320008 0.75600004 5.0776666e-39
-0.010799983 0.058320008 0.75600004 3.6933183e-39
-0.0093599847 0.058320019 0.75600004 2.2207161e-39
-0.0079199923 0.058320004 0.75600004 1.7590219e-39
-0.0064799804 0.058320001 0.75600004 1.300192e-39
-0.0050399806 0.058320016 0.75600004 1.3005395e-39
-0.0035999874 0.058320019 0.75600004 1.301271e-39
-0.0021514064 0.058088601 0.75299996 1.4853161e-39
-0.00071617303 0.058011442 0.75199997 1.57716e-39
0.00071620761 0.058011439 0.75199997 1.3938562e-39
0.0021485817 0.058011439 0.75200003 1.1172525e-39
0.0035714777 0.057857174 0.75 9.3212692e-40
0.0050000353 0.057857182 0.75 7.481014e-40
0.0064457087 0.058011435 0.75200003 1.2062069e-39
0.0078571774 0.057857167 0.75 1.6661257e-39
0.0093104979 0.058011435 0.75200003 2.4112381e-39
0.010714321 0.057857182 0.75 3.1563491e-39
0.012175259 0.058011442 0.75199997 5.8274944e-39
0.013607625 0.05801145 0.75199997 8.3996002e-39
0.01504002 0.058011446 0.75199997 6.739381e-39
0.016472396 0.058011428 0.75200003 5.0830939e-39
0.0179286 0.058088597 0.75299996 4.2343134e-39
0.019414313 0.058242872 0.755 3.3285239e-39
0.0208524 0.058242854 0.75500005 5.4504373e-39
0.022290509 0.058242865 0.75500005 7.5644221e-39
0.023760032 0.058320019 0.75600004 6.2761902e-39
0.025200017 0.058320019 0.75599998 4.9807837e-39
0.02671048 0.058474317 0.75799996 3.9673408e-39
0.028228626 0.058628589 0.75999999 2.8588296e-39
0.029793343 0.058860011 0.76299995 1.4737344e-39
0.031246666 0.058860004 0.76300001 9.5834802e-41
-0.025733294 0.061024781 0.77199996 6.9372584e-39
-0.024199987 0.060866684 0.76999998 7.4907937e-39
-0.02267427 0.060708601 0.76799995 7.9528508e-39
-0.0211838 0.060629532 0.76700002 8.4134843e-39
-0.019671414 0.060471456 0.76499999 7.7659933e-39
-0.018166663 0.060313337 0.76299995 7.1120297e-39
-0.016603803 0.059918117 0.75800002 6.0878529e-39
-0.015159995 0.059918113 0.75799996 4.9804502e-39
-0.013716174 0.059918117 0.75799996 5.6304775e-39
-0.012239997 0.059760015 0.75600004 6.2758343e-39
-0.010799984 0.059760012 0.75600004 4.3390338e-39
-0.0093599716 0.059760008 0.75600004 2.4040298e-39
-0.0079199942 0.059760012 0.75600004 1.8515791e-39
-0.0064799804 0.059760012 0.75600004 1.3916771e-39
-0.0050399825 0.059760019 0.75600004 1.3923876e-39
-0.0035999902 0.059760008 0.75600004 1.3931135e-39
-0.002151411 0.059522875 0.75299996 1.3934806e-39
-0.00071712577 0.059522867 0.75299996 1.3927674e-39
0.00071619177 0.059443809 0.75200003 1.3012934e-39
0.0021485733 0.059443824 0.75200003 1.2083719e-39
0.0035714768 0.059285741 0.75 1.0246911e-39
0.0050133336 0.059443824 0.75199997 9.328626e-40
0.0064457282 0.059443817 0.75199997 1.2987753e-39
0.0078781229 0.059443828 0.75199997 1.7561591e-39
0.0093104681 0.059443813 0.75200003 2.4029522e-39
0.010742863 0.05944382 0.75200003 2.9510967e-39
0.012175229 0.059443817 0.75200003 4.6177689e-39
0.013607623 0.059443824 0.75200003 6.1818478e-39
0.015040019 0.059443817 0.75200003 5.5404385e-39
0.016472386 0.059443828 0.75200003 4.8957627e-39
0.017928582 0.059522875 0.75299996 3.9648185e-39
0.01936288 0.059522882 0.75299996 3.1336817e-39
0.020852422 0.059680969 0.755 4.063561e-39
0.022290509 0.059680957 0.75500005 4.9912079e-39
0.02372859 0.059680969 0.75500005 3.7883417e-39
0.025200028 0.059760008 0.75599998 2.586584e-39
0.026640022 0.059760008 0.75600004 4.6026545e-39
0.028228624 0.060076214 0.75999999 6.7126793e-39
0.029715281 0.060155265 0.76099998 7.7339512e-39
0.031246673 0.060313333 0.76300001 8.7283574e-39
-0.0257333 0.062495269 0.77199996 6.7550223e-39
-0.024199996 0.062333334 0.76999998 7.3996771e-39
-0.022674274 0.062171437 0.76799995 7.952139e-39
-0.021183794 0.062090479 0.76699996 8.5046163e-39
-0.019671416 0.061928608 0.76499999 8.0451095e-39
-0.018119013 0.061604783 0.76099998 7.4811738e-39
-0.016647575 0.061523821 0.75999999 6.3651488e-39
-0.015159993 0.061361939 0.75799996 5.2613418e-39
-0.013716192 0.061361931 0.75800002 6.3705565e-39
-0.01227237 0.061361928 0.75799996 7.3771498e-39
-0.010799988 0.061200008 0.75600004 4.9825998e-39
-0.0093599735 0.061200015 0.75600004 2.4972988e-39
-0.0079199942 0.061200004 0.75600004 1.9437719e-39
-0.0064799823 0.061200012 0.75600004 1.3916757e-39
-0.0050399844 0.061200015 0.75600004 1.3916701e-39
-0.003599992 0.0612 0.75600004 1.3927561e-39
-0.0021514101 0.060957175 0.75299996 1.3020067e-39
-0.00071713043 0.060957156 0.75299996 1.2098138e-39
0.00071715383 0.060957167 0.75299996 1.3016507e-39
0.0021514529 0.060957164 0.75299996 1.3005619e-39
0.003580967 0.060876198 0.75200003 1.2083551e-39
0.0050133327 0.060876198 0.75200003 1.0239764e-39
0.0064457264 0.060876206 0.75200003 1.482805e-39
0.007878094 0.060876198 0.75200003 1.8497896e-39
0.0092857396 0.060714312 0.75000006 2.3100433e-39
0.010714297 0.060714308 0.75000006 2.7706515e-39
0.012142883 0.060714301 0.75000006 3.4192355e-39
0.01357144 0.060714304 0.75000006 3.9745603e-39
0.015060011 0.060957171 0.75299996 4.3440631e-39
0.016494311 0.060957175 0.75299996 4.6123739e-39
0.017928591 0.06095716 0.75299996 3.779735e-39
0.019414317 0.061119054 0.75500005 2.8606906e-39
0.020852424 0.061119065 0.755 2.6788413e-39
0.022290483 0.061119046 0.75500005 2.4072528e-39
0.02372859 0.061119061 0.75500005 1.2998192e-39
0.025200041 0.061200012 0.75600004 9.9504803e-41
0.026710469 0.06136192 0.75800002 5.3269576e-39
0.028228629 0.061523825 0.75999999 1.0506004e-38
0.029715266 0.06160479 0.76099998 1.4020532e-38
0.031246681 0.061766665 0.76300001 1.7410915e-38
-0.025733309 0.06396573 0.77200001 6.3855279e-39
-0.024199992 0.063800007 0.76999998 7.2170851e-39
-0.022674255 0.063634321 0.76799995 7.7699071e-39
-0.021183807 0.063551426 0.76700002 8.3223943e-39
-0.019671414 0.06338574 0.76499999 7.9518615e-39
-0.018119026 0.063054308 0.76100004 7.667723e-39
-0.016647585 0.062971458 0.75999999 5.1698469e-39
-0.015159993 0.062805735 0.75800002 2.6856488e-39
-0.013716185 0.062805742 0.75799996 3.3313895e-39
-0.012272364 0.062805757 0.75799996 4.0739488e-39
-0.010799988 0.062640011 0.75600004 2.7763954e-39
-0.0093599753 0.062640026 0.75600004 1.4845973e-39
-0.0079199979 0.062640011 0.75600004 1.3920401e-39
-0.006479986 0.062640011 0.75600004 1.2984053e-39
-0.0050399732 0.062640019 0.75600004 1.2998332e-39
-0.0035999948 0.062640004 0.75600004 1.3923974e-39
-0.0021514148 0.062391445 0.75299996 1.3931261e-39
-0.0007171295 0.06239146 0.75299996 1.3934848e-39
0.00071716966 0.062391452 0.75299996 1.3012892e-39
0.0021485901 0.062308576 0.75200003 1.2087222e-39
0.0035809567 0.062308587 0.75200003 1.0243183e-39
0.0050133513 0.06230858 0.75200003 8.3958517e-40
0.006445718 0.062308576 0.75199997 1.3909695e-39
0.0078781126 0.062308587 0.75199997 1.9412678e-39
0.0093105072 0.062308595 0.75199997 1.9423454e-39
0.010742852 0.06230858 0.75200003 1.9426943e-39
0.012175247 0.062308572 0.75200003 2.5894776e-39
0.013607614 0.06230858 0.75200003 3.1473178e-39
0.015060021 0.062391452 0.75299996 2.8660814e-39
0.016494293 0.062391452 0.75299996 2.5826743e-39
0.017928591 0.06239146 0.75299996 2.5837421e-39
0.019414317 0.062557146 0.75500005 2.5844708e-39
0.020852424 0.062557153 0.75500005 2.4026033e-39
0.022290505 0.062557161 0.755 2.220349e-39
0.023760013 0.062640011 0.75600004 2.1220367e-39
0.025266701 0.062805742 0.75799996 2.1127237e-39
0.026780995 0.06297145 0.75999999 8.6660613e-39
0.028228626 0.062971465 0.75999999 1.5228804e-38
0.029715253 0.063054308 0.76099998 1.7804596e-38
0.03124666 0.063219994 0.76300001 2.047895e-38
0.032700013 0.063220009 0.76300001 2.0379226e-38
-0.027309505 0.065690488 0.77499998 4.9975754e-39
-0.025733313 0.065436214 0.77199996 6.0149574e-39
-0.024199991 0.065266676 0.77000004 7.0301771e-39
-0.022674261 0.065097161 0.76799995 7.5880144e-39
-0.021183787 0.065012395 0.76700002 8.0468653e-39
-0.019671421 0.064842887 0.76500005 7.9557781e-39
-0.018166654 0.064673334 0.76300001 7.7537964e-39
-0.016647572 0.064419076 0.75999999 3.961262e-39
-0.01515999 0.064249545 0.75800002 1.0596899e-40
-0.013716183 0.064249545 0.75799996 3.7932729e-40
-0.012272381 0.064249545 0.75800002 6.6022037e-40
-0.01079999 0.064080015 0.75600004 5.6372556e-40
-0.0093599772 0.064080015 0.75600004 3.8220696e-40
-0.0079199998 0.06408 0.75600004 7.4955034e-40
-0.0064799879 0.064080015 0.75600004 1.1165294e-39
-0.0050399732 0.06408003 0.75600004 1.2080034e-39
-0.0035999967 0.064080015 0.75600004 1.3009235e-39
-0.0021514194 0.063825741 0.75299996 1.3927688e-39
-0.00071713323 0.063825727 0.75299996 1.4853231e-39
0.00071715104 0.063825727 0.75299996 1.3016535e-39
0.0021485817 0.063740961 0.75199997 1.1176112e-39
0.0035809763 0.063740954 0.75199997 9.3249266e-40
0.0050200345 0.063825741 0.75299996 6.5735051e-40
0.0064457166 0.063740969 0.75200003 1.2998459e-39
0.0078781107 0.063740954 0.75200003 1.9423356e-39
0.0093104774 0.063740954 0.75200003 1.574995e-39
0.010742872 0.063740961 0.75200003 1.1154532e-39
0.012175239 0.063740969 0.75200003 1.7565024e-39
0.013625723 0.063825749 0.75299996 2.3107468e-39
0.015060022 0.063825756 0.75299996 1.3898835e-39
0.016494302 0.063825741 0.75299996 4.7044532e-40
0.017928572 0.063825734 0.75299996 1.3877171e-39
0.019414319 0.063995242 0.75500005 2.3085902e-39
0.0208524 0.063995242 0.75500005 2.1270786e-39
0.02232001 0.064080015 0.75600004 1.9426705e-39
0.023822885 0.064249545 0.75799996 3.0392973e-39
0.02533339 0.064419061 0.75999999 4.1560929e-39
0.026781019 0.064419076 0.75999999 1.2087371e-38
0.028228629 0.064419076 0.75999999 1.9912816e-38
0.029715288 0.064503834 0.76099998 2.1672811e-38
0.031246668 0.064673327 0.76300001 2.3417689e-38
0.032700013 0.064673349 0.76299995 2.341769e-38
0.034063853 0.064503841 0.76099998 2.341769e-38
-0.027309492 0.067166686 0.77499998 6.8285176e-39
-0.025733303 0.066906691 0.77199996 6.0077813e-39
-0.024200002 0.066733345 0.77000004 5.2806321e-39
-0.022644756 0.06647332 0.76700002 6.0189034e-39
-0.0211838 0.066473335 0.76700002 6.7593523e-39
-0.019671421 0.06630002 0.76499999 6.6628771e-39
-0.018166659 0.066126674 0.76300001 6.6546179e-39
-0.016647581 0.065866694 0.75999999 3.9709309e-39
-0.015159985 0.065693364 0.75799996 1.3876848e-39
-0.013716176 0.065693364 0.75799996 1.3883883e-39
-0.012272375 0.065693356 0.75799996 1.2969396e-39
-0.010828553 0.065693371 0.75799996 1.392389e-39
-0.0093599809 0.065520003 0.75600004 1.3938281e-39
