# .PCD v0.7 - Point Cloud Data file format
VERSION 0.7
FIELDS x y z rgb
SIZE 4 4 4 4
TYPE F F F F
COUNT 1 1 1 1
WIDTH 951
HEIGHT 1
VIEWPOINT 0 0 0 1 0 0 0
POINTS 951
DATA ascii
0.019080002 -0.036039993 0.74199998 3.6120304e-39
0.020493327 -0.036039993 0.74199998 2.6868385e-39
0.021906691 -0.036040008 0.74200004 1.6766312e-39
0.023320017 -0.036040023 0.74199998 1.3989555e-39
0.024766671 -0.036088601 0.74299997 1.1220029e-39
0.02618192 -0.036088586 0.74300003 1.0301576e-39
0.027597168 -0.036088586 0.74300003 8.4503062e-40
0.029012417 -0.036088571 0.74300003 1.3945876e-39
0.030509548 -0.036185741 0.74500006 1.8548119e-39
0.032142874 -0.036428601 0.75000006 2.9571672e-39
0.033571471 -0.036428601 0.75000006 3.9684002e-39
0.035000004 -0.036428601 0.75000006 4.7044854e-39
0.036671422 -0.036671445 0.75500005 5.3462297e-39
0.038109522 -0.036671445 0.755 5.5291538e-39
0.039547633 -0.036671445 0.75500005 5.7146283e-39
-0.016603824 -0.03537336 0.75799996 6.5522895e-40
-0.015119982 -0.035280034 0.75600004 6.5559749e-40
-0.013625664 -0.035140023 0.75300002 7.4959378e-40
-0.012191396 -0.035140023 0.75300002 9.3543259e-40
-0.010742852 -0.035093367 0.75200003 9.3580533e-40
-0.0093104467 -0.035093352 0.75200003 9.3799136e-40
-0.0078571253 -0.035000026 0.75000006 1.5851783e-39
-0.0064114355 -0.034906685 0.74800003 2.2309246e-39
-0.0049866471 -0.03490667 0.74800003 2.05625e-39
-0.0035571202 -0.034860015 0.74700004 1.9744604e-39
-0.0021285701 -0.034766689 0.74500006 4.3689992e-39
-0.00070759165 -0.034673348 0.74300003 6.8553735e-39
0.00070761913 -0.034673348 0.74299997 1.3855319e-38
0.0021199903 -0.034626678 0.74199998 2.0846296e-38
0.0035333543 -0.034626693 0.74200004 2.1764651e-38
0.0049466561 -0.034626678 0.74200004 2.2774121e-38
0.0063599818 -0.034626678 0.74199998 2.2498969e-38
0.0077733076 -0.034626663 0.74199998 2.2130551e-38
0.0091619371 -0.034533352 0.74000007 2.1855762e-38
0.010599995 -0.034626678 0.74199998 2.1489142e-38
0.011980971 -0.034533367 0.74000001 1.9008151e-38
0.013390487 -0.034533367 0.74000001 1.6523571e-38
0.014800006 -0.034533367 0.74000001 9.8913259e-39
0.016253335 -0.034626663 0.74199998 3.255491e-39
0.017666638 -0.034626678 0.74199998 2.9760356e-39
0.019080002 -0.034626693 0.74200004 2.6997977e-39
0.020493325 -0.034626678 0.74199998 2.2323553e-39
0.021906652 -0.034626693 0.74199998 1.7713534e-39
0.023320016 -0.034626678 0.74200004 1.4925861e-39
0.024766659 -0.034673348 0.74300003 1.1230833e-39
0.02618191 -0.034673333 0.74300003 1.1216385e-39
0.027597157 -0.034673333 0.74300003 1.1191092e-39
0.029012406 -0.034673348 0.74300003 1.3949562e-39
0.030427655 -0.034673363 0.74300003 1.7626331e-39
0.032057144 -0.034906685 0.74800003 2.5894861e-39
0.033571437 -0.035000026 0.75000006 3.4166866e-39
0.03500003 -0.035000026 0.75000006 4.2438856e-39
0.036525711 -0.035093352 0.75200003 4.9792478e-39
0.038109541 -0.035233364 0.755 5.3465492e-39
0.03928576 -0.035000026 0.75000006 5.7149758e-39
0.040714331 -0.035000026 0.75000012 5.7146241e-39
-0.016559988 -0.03384003 0.75600004 6.5594921e-40
-0.015099988 -0.033795252 0.755 6.5703382e-40
-0.013625684 -0.033705741 0.75300008 8.4250828e-40
-0.012175246 -0.033660963 0.75200003 9.3507245e-40
-0.010742841 -0.033660978 0.75200003 9.354438e-40
-0.009285694 -0.033571467 0.75000006 9.3798996e-40
-0.0078361779 -0.033481941 0.74800003 1.4904729e-39
-0.0064028339 -0.033437163 0.74700004 1.956853e-39
-0.0049799695 -0.033437148 0.74700004 1.7807435e-39
-0.0035475937 -0.033347651 0.74500006 1.605682e-39
-0.0021228276 -0.03325811 0.74300003 4.4633458e-39
-0.00070666219 -0.033213362 0.74200004 7.2338362e-39
0.00070666173 -0.033213347 0.74200004 1.5336166e-38
0.0021199875 -0.033213347 0.74199998 2.341769e-38
0.0035333133 -0.033213332 0.74199998 2.341769e-38
0.0049466775 -0.033213362 0.74200004 2.3417687e-38
0.0063600014 -0.033213347 0.74199998 2.2958508e-38
0.0077524171 -0.033123836 0.74000001 2.2498253e-38
0.0091619352 -0.033123836 0.74000001 2.1671734e-38
0.010599992 -0.033213347 0.74200004 2.075374e-38
0.011980947 -0.033123836 0.74000001 2.0111612e-38
0.013390501 -0.033123866 0.74000007 1.9463383e-38
0.01480002 -0.033123851 0.74000007 1.1830992e-38
0.016253334 -0.033213362 0.74199998 4.1820968e-39
0.017666658 -0.033213347 0.74199998 2.9746007e-39
0.019080022 -0.033213347 0.74200004 1.7785686e-39
0.020493347 -0.033213332 0.74199998 1.8632127e-39
0.021906672 -0.033213332 0.74199998 1.8628245e-39
0.023319975 -0.033213362 0.74199998 1.4925847e-39
0.024733339 -0.033213362 0.74200004 1.123442e-39
0.026146663 -0.033213347 0.74200004 1.2138356e-39
0.02759717 -0.03325811 0.74300003 1.3045752e-39
0.029012395 -0.03325811 0.74300003 1.4875105e-39
0.030427644 -0.03325811 0.74300003 1.5789663e-39
0.032057166 -0.033481941 0.74800009 2.2210763e-39
0.033571463 -0.033571452 0.75000006 2.8646086e-39
0.035000063 -0.033571467 0.75000006 3.7836488e-39
0.036525723 -0.033660963 0.75200003 4.6115667e-39
0.037958104 -0.033660978 0.75200003 5.1632608e-39
0.039285727 -0.033571437 0.75000006 5.6220781e-39
0.040822852 -0.033660963 0.75200003 5.7135549e-39
0.042255256 -0.033660978 0.75200003 5.806098e-39
-0.016560014 -0.032400012 0.75600004 6.5595061e-40
-0.015059973 -0.03227146 0.75300008 7.4994831e-40
-0.013625683 -0.032271445 0.75300002 7.5067419e-40
-0.012175236 -0.032228589 0.75200003 8.4323696e-40
-0.010742854 -0.032228589 0.75200003 8.4432156e-40
-0.009285666 -0.032142878 0.75000006 9.3870602e-40
-0.0078361947 -0.032057166 0.74800003 1.492984e-39
-0.0064028413 -0.03201431 0.74700004 1.9579292e-39
-0.0049799769 -0.03201431 0.74700004 1.6871129e-39
-0.0035476217 -0.031928584 0.74500006 1.4184237e-39
-0.0021228378 -0.031842887 0.74300003 4.3722278e-39
-0.00070667895 -0.031800002 0.74199998 7.4232469e-39
0.00070668408 -0.031800002 0.74200004 1.5332579e-38
0.0021200089 -0.031800017 0.74199998 2.3142183e-38
0.0035333105 -0.031800002 0.74199998 2.3325853e-38
0.0049466756 -0.031800017 0.74200004 2.3417689e-38
0.0063600014 -0.031800002 0.74200004 2.3049986e-38
0.0077523966 -0.03171432 0.74000001 2.2773402e-38
0.0091619119 -0.03171432 0.74000001 2.1855405e-38
0.010571469 -0.03171432 0.74000007 2.1028529e-38
0.011980984 -0.03171432 0.74000001 2.0478595e-38
0.013390503 -0.03171432 0.74000001 2.0019777e-38
0.014800019 -0.03171432 0.74000001 1.2378776e-38
0.016253332 -0.031800002 0.74200004 4.7280875e-39
0.017666657 -0.031800017 0.74200004 3.2522582e-39
0.019079981 -0.031800002 0.74199998 1.8721936e-39
0.020493345 -0.031800017 0.74200004 2.0504626e-39
0.02190667 -0.031800002 0.74200004 2.1397617e-39
0.023319997 -0.031800017 0.74199998 1.8617189e-39
0.02473332 -0.031800002 0.74199998 1.6748137e-39
0.026146684 -0.031800017 0.74200004 1.5822551e-39
0.027560011 -0.031800017 0.74199998 1.5811607e-39
0.029012408 -0.031842873 0.74300003 1.6726179e-39
0.030427655 -0.031842873 0.74300003 1.7633604e-39
0.032057174 -0.032057181 0.74800003 2.2218022e-39
0.033481922 -0.032057151 0.74800003 2.6802327e-39
0.035000026 -0.032142863 0.75000006 3.5999932e-39
0.036428623 -0.032142892 0.75000006 4.6119451e-39
0.037958112 -0.032228589 0.75200003 5.1625657e-39
0.039390493 -0.032228604 0.75200003 5.7128528e-39
0.04082286 -0.032228574 0.75200003 5.805396e-39
0.042255241 -0.032228589 0.75200003 5.897579e-39
-0.017999982 -0.030960009 0.75600004 4.7118661e-40
-0.01653808 -0.03091906 0.755 6.5522334e-40
-0.015100004 -0.03091906 0.755 7.488595e-40
-0.013625704 -0.030837163 0.75300002 7.5030144e-40
-0.012175249 -0.0307962 0.75200003 6.5883449e-40
-0.010742843 -0.0307962 0.75200003 8.4359148e-40
-0.0092856996 -0.030714303 0.75000006 9.3796473e-40
-0.0078361873 -0.030632406 0.74800003 1.4922329e-39
-0.0064028264 -0.030591443 0.74700004 1.9543069e-39
-0.0049799611 -0.030591443 0.74700004 1.5916565e-39
-0.0035475891 -0.030509546 0.74500006 1.1400264e-39
-0.0021228257 -0.03042765 0.74300003 4.3668398e-39
-0.00070668175 -0.030386671 0.74199998 7.5961531e-39
0.0007066431 -0.030386686 0.74199998 1.5244331e-38
0.0021200071 -0.030386671 0.74200004 2.2866677e-38
0.0035238436 -0.030304804 0.74000001 2.3142183e-38
0.0049333624 -0.03030479 0.74000001 2.3417689e-38
0.0063428557 -0.03030479 0.74000001 2.3234018e-38
0.0077523743 -0.030304775 0.74000001 2.2958152e-38
0.0091619277 -0.03030479 0.74000007 2.213199e-38
0.010571446 -0.030304804 0.74000007 2.1213278e-38
0.011980962 -0.03030479 0.74000001 2.0938132e-38
0.01339048 -0.03030479 0.74000001 2.056792e-38
0.014799996 -0.03030479 0.74000001 1.2936247e-38
0.01625335 -0.030386671 0.74200004 5.1872608e-39
0.017666677 -0.030386686 0.74200004 3.6170806e-39
0.019080004 -0.030386671 0.74199998 1.9618683e-39
0.020493329 -0.030386671 0.74199998 2.2344825e-39
0.021906668 -0.030386686 0.74200004 2.4159857e-39
0.023319995 -0.030386701 0.74200004 2.3230586e-39
0.02473332 -0.030386686 0.74199998 2.1361492e-39
0.026146645 -0.030386671 0.74199998 2.0432277e-39
0.027560012 -0.030386671 0.74200004 1.8584609e-39
0.028973335 -0.030386671 0.74199998 1.8580839e-39
0.03050952 -0.030509546 0.74500006 1.8566308e-39
0.031928577 -0.030509546 0.74500006 2.1310443e-39
0.033481903 -0.030632406 0.74800003 2.4054465e-39
0.035000052 -0.030714288 0.75000006 3.5081619e-39
0.036428586 -0.030714303 0.75000006 4.6108703e-39
0.0379581 -0.030796215 0.75200003 5.1618496e-39
0.039390508 -0.030796215 0.75200003 5.7132115e-39
0.040822849 -0.030796215 0.75200003 5.8050372e-39
0.042255256 -0.0307962 0.75200003 5.8972259e-39
-0.018047614 -0.029598102 0.75800002 6.5449046e-40
-0.016560009 -0.029520005 0.75600004 7.4668889e-40
-0.015099982 -0.029480979 0.755 8.3960619e-40
-0.013625704 -0.029402867 0.75300002 7.4849236e-40
-0.012175238 -0.029363811 0.75200003 5.6590878e-40
-0.010714268 -0.029285744 0.75000006 6.5811282e-40
-0.0092609301 -0.029207647 0.74800003 8.4395302e-40
-0.007836204 -0.029207632 0.74800003 1.0283569e-39
-0.0064028711 -0.029168591 0.74699998 1.214567e-39
-0.004966673 -0.029090494 0.74500006 9.4195703e-40
-0.003547617 -0.029090509 0.74500006 7.6513138e-40
-0.002122836 -0.029012397 0.74300003 2.3306676e-39
-0.00070666033 -0.028973341 0.74199998 3.9004877e-39
0.00070666452 -0.028973341 0.74199998 7.6829692e-39
0.0021199661 -0.028973341 0.74199998 1.1570911e-38
0.0035238212 -0.028895259 0.74000001 1.164768e-38
0.0049333391 -0.028895274 0.74000001 1.1846417e-38
0.0063428958 -0.028895274 0.74000007 1.1649115e-38
0.0077524115 -0.028895259 0.74000007 1.1570911e-38
0.0091495709 -0.028856218 0.73900002 1.1651267e-38
0.010571445 -0.028895259 0.74000001 1.1846417e-38
0.011980964 -0.028895259 0.74000001 1.1191731e-38
0.013390518 -0.028895274 0.74000007 1.0560721e-38
0.014780021 -0.028856218 0.73900002 6.5726924e-39
0.016209552 -0.028895274 0.74000001 2.681152e-39
0.017666673 -0.028973356 0.74200004 2.1376598e-39
0.01908 -0.028973356 0.74200004 1.6852758e-39
0.020438144 -0.028895274 0.74000007 1.7727841e-39
0.021906652 -0.028973356 0.74199998 1.955732e-39
0.023320014 -0.028973341 0.74200004 1.9539313e-39
0.024733342 -0.028973341 0.74199998 1.9528411e-39
0.026146667 -0.028973326 0.74199998 2.0435864e-39
0.027560009 -0.028973356 0.74200004 2.135045e-39
0.028973334 -0.028973341 0.74200004 2.3176215e-39
0.030427659 -0.029012412 0.74300003 2.5916749e-39
0.031928614 -0.029090494 0.74500006 2.4980275e-39
0.033481911 -0.029207632 0.74800003 2.4965674e-39
0.034906682 -0.029207632 0.74800003 3.5996429e-39
0.036428619 -0.029285744 0.75000006 4.6101556e-39
0.037857153 -0.029285714 0.75000006 5.1622084e-39
0.039390489 -0.029363841 0.75200009 5.8054058e-39
0.040877186 -0.029402882 0.75300008 5.9887082e-39
0.042311475 -0.029402867 0.75300002 6.2642147e-39
-0.018095249 -0.028228611 0.76000005 8.3779291e-40
-0.016559996 -0.028080016 0.75600004 9.2927388e-40
-0.015119998 -0.028080016 0.75600004 9.2963541e-40
-0.013625685 -0.027968585 0.75300008 7.4560849e-40
-0.012175251 -0.027931452 0.75200003 4.7082928e-40
-0.01071424 -0.027857184 0.75000006 5.6303332e-40
-0.0092609469 -0.027782887 0.74800003 6.5523455e-40
-0.0078257211 -0.027745739 0.74699998 5.6269e-40
-0.0064028553 -0.027745724 0.74699998 3.8118681e-40
-0.0049666413 -0.027671441 0.74500006 3.8048476e-40
-0.0035475835 -0.027671441 0.74500006 3.840889e-40
-0.0021228229 -0.027597159 0.74300003 2.897605e-40
-0.00070666219 -0.027560025 0.74200004 1.104027e-40
0.00070666266 -0.027559996 0.74200004 1.0754265e-40
0.0021142832 -0.027485743 0.74000001 1.2656668e-40
0.0035238389 -0.027485743 0.74000007 1.2299056e-40
0.0049333549 -0.027485728 0.74000007 1.3196308e-40
0.0063428734 -0.027485728 0.74000001 1.2909882e-40
0.007741923 -0.027448595 0.73900002 1.3555741e-40
0.0091495551 -0.027448595 0.73900002 1.2390211e-39
0.01055715 -0.02744858 0.73900002 2.3414058e-39
0.011964779 -0.027448595 0.73900002 1.4219746e-39
0.013390495 -0.027485743 0.74000001 4.9857779e-40
0.014780008 -0.02744858 0.73900002 2.9659183e-40
0.01620953 -0.027485758 0.74000001 1.0861464e-40
0.01766666 -0.027559996 0.74199998 7.5074285e-40
0.019080024 -0.027560011 0.74200004 1.3989569e-39
0.020493325 -0.027559996 0.74200004 1.3985841e-39
0.021906652 -0.027559996 0.74199998 1.3996575e-39
0.023319976 -0.027560011 0.74199998 1.5844019e-39
0.024733339 -0.027560025 0.74200004 1.7673527e-39
0.026146665 -0.027560011 0.74199998 2.0428563e-39
0.02755999 -0.027560011 0.74199998 2.3183474e-39
0.028973352 -0.027560011 0.74200004 2.7775095e-39
0.030427646 -0.027597174 0.74300003 3.234159e-39
0.031928584 -0.027671456 0.74500006 2.9568421e-39
0.033481937 -0.027782887 0.74800009 2.5883986e-39
0.034906685 -0.027782887 0.74800003 3.5996401e-39
0.036428582 -0.02785717 0.75000006 4.6108689e-39
0.037857179 -0.027857184 0.75000006 5.2547543e-39
0.039390501 -0.027931437 0.75200003 5.8054114e-39
0.040877186 -0.027968585 0.75300002 6.172396e-39
0.042311452 -0.0279686 0.75300002 6.5393695e-39
-0.019491414 -0.02671048 0.75800002 1.0210926e-39
-0.018047644 -0.02671051 0.75799996 1.0214555e-39
-0.016560007 -0.026640013 0.75600004 9.2926407e-40
-0.015099999 -0.026604787 0.755 8.3599364e-40
-0.013625685 -0.026534334 0.75300002 5.6084589e-40
-0.01217524 -0.026499063 0.75200003 3.7574978e-40
-0.010714274 -0.026428595 0.75000006 4.6902861e-40
-0.0092485705 -0.026322857 0.74699998 5.5907044e-40
-0.0078257052 -0.026322871 0.74699998 4.6902861e-40
-0.0064028394 -0.026322871 0.74699998 3.7719732e-40
-0.0049666683 -0.026252419 0.74500006 4.7047055e-40
-0.0035476123 -0.026252404 0.74500006 5.6051798e-40
-0.0021228341 -0.026181936 0.74300003 4.6904683e-40
-0.00070667989 -0.026146665 0.74199998 4.6044986e-40
0.00070668221 -0.02614668 0.74200004 4.6691825e-40
0.0021199856 -0.026146695 0.74200004 5.5160152e-40
0.003523838 -0.026076227 0.74000001 6.5458014e-40
0.0049333568 -0.026076227 0.74000001 8.2714024e-40
0.0063428725 -0.026076213 0.74000001 4.7164483e-40
0.0077419323 -0.026040971 0.73900002 9.2468883e-41
0.0091247726 -0.025970474 0.73700005 6.5532423e-40
0.010557158 -0.026040986 0.73899996 1.194499e-39
0.011932407 -0.025970504 0.73700005 9.3154819e-40
0.013372422 -0.026040971 0.73900002 6.4344823e-40
0.014740015 -0.025970489 0.73700005 4.6978251e-40
0.016209548 -0.026076227 0.74000007 1.9500189e-40
0.017619064 -0.026076227 0.74000007 7.4996793e-40
0.019079983 -0.02614668 0.74199998 1.3024088e-39
0.020493347 -0.026146695 0.74200004 1.2109237e-39
0.021906672 -0.02614668 0.74199998 1.2105663e-39
0.023319997 -0.026146695 0.74199998 1.3045542e-39
0.024733361 -0.02614668 0.74200004 1.3971156e-39
0.026146663 -0.02614668 0.74200004 1.7655422e-39
0.027559988 -0.02614668 0.74200004 2.1335904e-39
0.028973313 -0.026146695 0.74199998 2.3168901e-39
0.030427657 -0.026181921 0.74300003 2.5905875e-39
0.031928595 -0.026252419 0.74500006 2.4969415e-39
0.033437174 -0.026322886 0.74700004 2.4025711e-39
0.034860037 -0.026322886 0.74700004 3.5070843e-39
0.036331456 -0.026358128 0.74800003 4.6108633e-39
0.037756205 -0.026358113 0.74800003 5.0707176e-39
0.039390489 -0.026499078 0.75200009 5.5291916e-39
0.040822856 -0.026499063 0.75200003 5.8047121e-39
0.04225526 -0.026499078 0.75200003 6.0794829e-39
0.043687645 -0.026499063 0.75200009 5.8961511e-39
-0.019491417 -0.025266677 0.75800002 1.0210842e-39
-0.018000012 -0.025200024 0.75600004 1.1132812e-39
-0.016559992 -0.025199994 0.75600004 9.2961299e-40
-0.015099999 -0.02516669 0.75500005 7.4522173e-40
-0.013625682 -0.025100037 0.75300002 4.6935371e-40
-0.012175253 -0.025066689 0.75200003 1.9278083e-40
-0.010714246 -0.025000021 0.75000006 2.8570374e-40
-0.0092485547 -0.024900004 0.74699998 3.7682177e-40
-0.0078257127 -0.024900004 0.74700004 3.7754063e-40
-0.0063856919 -0.024833351 0.74500006 3.7862244e-40
-0.0049666357 -0.024833374 0.74500006 5.6337383e-40
-0.0035476161 -0.024833351 0.745 7.4741056e-40
-0.0021228229 -0.024766691 0.74300003 7.4957136e-40
-0.00070668175 -0.02473335 0.74199998 7.4527779e-40
0.00070668221 -0.02473335 0.74200004 8.4035308e-40
0.0021142981 -0.024666697 0.74000001 9.2968866e-40
0.0035238157 -0.024666697 0.74000001 1.3006292e-39
0.0049333344 -0.024666704 0.74000001 1.5721896e-39
0.0063428883 -0.024666712 0.74000007 8.3822171e-40
0.0077419183 -0.024633348 0.73900002 9.8509881e-41
0.0091247996 -0.024566688 0.73700005 9.5277085e-41
0.010557182 -0.024633355 0.73900002 9.4918353e-41
0.011932408 -0.02456668 0.73700005 4.6548893e-40
0.013372409 -0.024633355 0.73900002 8.3210084e-40
0.01474002 -0.024566695 0.73700005 5.6017046e-40
0.016209546 -0.024666697 0.74000001 2.8682057e-40
0.017619064 -0.024666697 0.74000001 7.5102451e-40
0.019080004 -0.024733335 0.74199998 1.1172833e-39
0.020493306 -0.024733342 0.74199998 1.1161987e-39
0.02190667 -0.024733342 0.74200004 1.0254464e-39
0.023319995 -0.024733342 0.74200004 1.0265282e-39
0.02473332 -0.024733335 0.74199998 9.368521e-40
0.026146684 -0.02473335 0.74200004 1.3967555e-39
0.027560009 -0.024733335 0.74199998 1.8569993e-39
0.028973335 -0.024733342 0.74199998 1.9491851e-39
0.03042765 -0.024766706 0.74300003 1.9477334e-39
0.031928588 -0.024833366 0.74500006 2.1292366e-39
0.033347644 -0.024833366 0.74500006 2.220328e-39
0.034859996 -0.024900012 0.74699998 3.4148817e-39
0.036331464 -0.024933361 0.74800003 4.6105046e-39
0.03775619 -0.024933361 0.74800003 4.9796094e-39
0.039285749 -0.025000036 0.75000006 5.2540453e-39
0.040822864 -0.025066674 0.75200003 5.4380806e-39
0.042311471 -0.025100037 0.75300008 5.6210201e-39
0.043861918 -0.02516669 0.75500005 5.6213648e-39
-0.019491442 -0.023822874 0.75800002 1.1129112e-39
-0.017999999 -0.023760013 0.75600004 1.0210785e-39
-0.016560001 -0.023760021 0.75600004 9.2924445e-40
-0.015119979 -0.023760006 0.75600004 7.4520912e-40
-0.013661902 -0.023728587 0.75500005 5.6009619e-40
-0.012175242 -0.0236343 0.75200003 2.8316739e-40
-0.01071428 -0.023571454 0.75000006 3.7609029e-40
-0.0092609487 -0.023508586 0.74800003 4.6864605e-40
-0.0078256968 -0.023477159 0.74700004 4.6972365e-40
-0.0064028543 -0.023477159 0.74700004 4.7116559e-40
-0.0049666618 -0.023414306 0.74500006 5.6372416e-40
-0.0035476068 -0.023414306 0.74500006 7.4812242e-40
-0.0021199861 -0.023320019 0.74200004 6.5629533e-40
-0.0007066594 -0.023319989 0.74199998 5.6375358e-40
0.0007066431 -0.023320012 0.74199998 5.6340606e-40
0.0021200071 -0.023320012 0.74200004 5.6627592e-40
0.003523851 -0.023257174 0.74000007 6.5524156e-40
0.0049333698 -0.023257174 0.74000001 8.4249006e-40
0.0063428883 -0.023257174 0.74000001 5.6087391e-40
0.0077419044 -0.02322574 0.73900002 1.9459411e-40
0.0091495365 -0.02322574 0.73900002 1.1061177e-39
0.010557169 -0.02322574 0.73900002 1.9304848e-39
0.011964763 -0.02322574 0.73900002 2.3010554e-39
0.013372395 -0.02322574 0.73900002 2.669489e-39
0.014780028 -0.023225754 0.73900002 1.567477e-39
0.016209522 -0.023257188 0.74000001 4.6724616e-40
0.017619079 -0.023257196 0.74000007 5.6051798e-40
0.019028595 -0.023257188 0.74000007 6.559338e-40
0.020493327 -0.023320012 0.74199998 5.619375e-40
0.021906691 -0.023320012 0.74200004 5.6481997e-40
0.023320017 -0.023320012 0.74200004 6.5846034e-40
0.024733318 -0.023320019 0.74200004 7.5281397e-40
0.026146645 -0.023320012 0.74199998 1.2130733e-39
0.027560005 -0.023320019 0.74200004 1.7647981e-39
0.028973334 -0.023320019 0.74200004 1.8566266e-39
0.030427665 -0.023351468 0.74300003 1.9480879e-39
0.03184285 -0.023351453 0.74299997 1.8540832e-39
0.033347618 -0.023414314 0.74500006 1.6689507e-39
0.034860007 -0.023477137 0.74699998 3.1393668e-39
0.036282875 -0.023477152 0.74699998 4.6097885e-39
0.037756201 -0.023508593 0.74800003 4.9774654e-39
0.039285734 -0.023571454 0.75000006 5.4362827e-39
0.040714331 -0.023571461 0.75000006 5.4377149e-39
0.04225526 -0.023634285 0.75200003 5.5291832e-39
0.043861937 -0.023728587 0.75500005 5.2540257e-39
-0.01804764 -0.022379071 0.75799996 9.2924585e-40
-0.016603811 -0.022379071 0.75799996 8.3741456e-40
-0.015119988 -0.02232001 0.75600004 7.4485599e-40
-0.013661918 -0.022290483 0.755 5.5866967e-40
-0.012191399 -0.02223146 0.75300002 3.7500569e-40
-0.010742852 -0.022201918 0.75200003 4.6613072e-40
-0.0092609636 -0.022083834 0.74800003 4.6828312e-40
-0.0078257043 -0.0220543 0.74700004 4.6971665e-40
-0.0064028394 -0.0220543 0.74700004 4.7079985e-40
-0.0049666683 -0.021995246 0.745 5.6335982e-40
-0.0035476114 -0.021995254 0.745 6.5412332e-40
-0.002122822 -0.021936215 0.74300003 4.7153273e-40
-0.00070666126 -0.021906689 0.74200004 2.8464295e-40
0.00070666359 -0.021906681 0.74199998 1.9174247e-40
0.0021199884 -0.021906681 0.74199998 1.0063005e-40
0.0035238306 -0.02184765 0.74000001 9.4895932e-41
0.0049333475 -0.02184765 0.74000001 1.0386424e-40
0.0063428651 -0.021847643 0.74000001 1.842217e-40
0.0077523817 -0.021847643 0.74000001 2.9003515e-40
0.0091495449 -0.021818109 0.73900002 2.020905e-39
0.010571454 -0.02184765 0.74000001 3.7812133e-39
0.011964772 -0.021818124 0.73899996 4.1388765e-39
0.013390488 -0.02184765 0.74000001 4.5162588e-39
0.014780036 -0.021818124 0.73900002 2.5730026e-39
0.016187631 -0.021818109 0.73899996 6.5662604e-40
0.017619079 -0.02184765 0.74000001 3.6817856e-40
0.019028597 -0.021847665 0.74000001 1.0345366e-40
0.020493327 -0.021906681 0.74200004 9.450497e-41
0.02190665 -0.021906681 0.74199998 1.0204816e-40
0.023320014 -0.021906674 0.74200004 2.8895755e-40
0.02473334 -0.021906681 0.74200004 4.7550681e-40
0.026146663 -0.021906681 0.74199998 1.1212322e-39
0.027597154 -0.021936208 0.74300003 1.6729584e-39
0.029012404 -0.021936215 0.74300003 1.8562664e-39
0.030509533 -0.021995261 0.74500006 1.9470103e-39
0.031928595 -0.021995261 0.74500006 1.5785753e-39
0.033437159 -0.0220543 0.74699998 1.1182964e-39
0.034860004 -0.0220543 0.74700004 2.8642232e-39
0.036331434 -0.022083841 0.74800003 4.5172271e-39
0.03775622 -0.022083849 0.74800009 5.067489e-39
0.039180968 -0.022083834 0.74800003 5.5284714e-39
0.040714301 -0.02214288 0.75000006 5.4384421e-39
0.042255245 -0.022201926 0.75200003 5.3455094e-39
0.043687649 -0.022201926 0.75200003 4.8852361e-39
-0.018047607 -0.020935252 0.75800002 1.0214443e-39
-0.0166038 -0.02093526 0.75800002 9.2925426e-40
-0.015120014 -0.020879999 0.75600004 8.3741596e-40
-0.013661896 -0.020852387 0.755 5.6011301e-40
-0.012191396 -0.020797163 0.75300002 3.7536862e-40
-0.01074284 -0.020769544 0.75200003 4.6792298e-40
-0.0092609199 -0.020659074 0.74800003 4.6827891e-40
-0.0078256875 -0.020631455 0.74700004 5.6154514e-40
-0.0064028236 -0.020631455 0.74700004 7.459406e-40
-0.0049666571 -0.020576216 0.74500006 5.5976549e-40
-0.0035476021 -0.020576209 0.74500006 3.739421e-40
-0.0021228313 -0.02052097 0.74300003 1.383055e-39
-0.00070666312 -0.020493343 0.74200004 2.3907441e-39
0.00070666173 -0.020493343 0.74200004 4.4226143e-39
0.0021199866 -0.020493351 0.74199998 6.5287434e-39
0.0035333124 -0.020493351 0.74199998 6.8189692e-39
0.0049466765 -0.020493343 0.74200004 7.100228e-39
0.0063600023 -0.020493336 0.74199998 7.2878576e-39
0.0077523976 -0.020438142 0.74000007 7.5759086e-39
0.0091619147 -0.02043812 0.74000001 8.4863588e-39
0.010571431 -0.02043812 0.74000001 9.4219483e-39
0.011980949 -0.020438112 0.74000001 9.8675094e-39
0.013372389 -0.020410493 0.73900002 1.0336709e-38
0.014800021 -0.020438135 0.74000007 9.0373578e-39
0.016187614 -0.020410486 0.73899996 7.850975e-39
0.017619057 -0.020438135 0.74000001 7.6554098e-39
0.019028572 -0.020438127 0.74000001 7.4685565e-39
0.020493345 -0.020493351 0.74200004 6.0831782e-39
0.021906672 -0.020493336 0.74199998 4.7856515e-39
0.023319999 -0.020493329 0.74199998 2.4930011e-39
0.024766669 -0.02052097 0.74300003 2.9003515e-40
0.02618192 -0.02052097 0.74300003 1.2112684e-39
0.027597168 -0.020520978 0.74300003 2.041015e-39
0.029012414 -0.02052097 0.74300003 2.0395773e-39
0.03050953 -0.020576224 0.745 1.9462915e-39
0.031928565 -0.020576209 0.74500006 1.853363e-39
0.033437151 -0.020631447 0.74700004 1.7593526e-39
0.034906689 -0.020659074 0.74800009 3.0471796e-39
0.036428597 -0.020714313 0.75000006 4.4257434e-39
0.037857175 -0.020714305 0.75000006 4.8852347e-39
0.039390508 -0.020769536 0.75200003 5.3451549e-39
0.040985707 -0.020852402 0.755 5.4373744e-39
0.042480018 -0.020880014 0.75600004 5.4377023e-39
-0.017999981 -0.01944001 0.75600004 1.1129253e-39
-0.01656002 -0.019440003 0.75600004 1.0210982e-39
-0.015120002 -0.01944001 0.75600004 8.366985e-40
-0.013661896 -0.019414306 0.75500005 6.5265896e-40
-0.012191418 -0.019362874 0.75300002 3.7643781e-40
-0.010742854 -0.019337155 0.75200003 4.6971244e-40
-0.0092609348 -0.019234315 0.74800003 4.6863765e-40
-0.007825695 -0.01920858 0.74700004 7.4558187e-40
-0.0064028292 -0.019208595 0.74700004 9.274564e-40
-0.0049666637 -0.019157156 0.745 5.5616415e-40
-0.0035476068 -0.019157156 0.745 9.70203e-41
-0.0021228415 -0.01910574 0.74300003 2.2964409e-39
-0.00070668175 -0.01908002 0.74199998 4.5223853e-39
0.00070668221 -0.019080006 0.74200004 8.7622534e-39
0.0021200089 -0.019080006 0.74199998 1.2895565e-38
0.0035333338 -0.019080006 0.74199998 1.3552043e-38
0.0049466356 -0.019079998 0.74199998 1.4096953e-38
0.0063599995 -0.01908002 0.74200004 1.4474696e-38
0.0077523985 -0.019028611 0.74000001 1.4736929e-38
0.0091619147 -0.019028611 0.74000001 1.4926699e-38
0.01057147 -0.019028604 0.74000007 1.5012803e-38
0.011980987 -0.019028597 0.74000001 1.5572076e-38
0.013372399 -0.019002877 0.73899996 1.6025143e-38
0.014780032 -0.019002877 0.73900002 1.557241e-38
0.016187662 -0.019002885 0.73900002 1.5015986e-38
0.017619094 -0.019028619 0.74000007 1.4933809e-38
0.019028611 -0.019028611 0.74000001 1.4831246e-38
0.020438129 -0.019028611 0.74000001 1.2166976e-38
0.02190667 -0.019080013 0.74200004 9.39786e-39
0.023319995 -0.019080006 0.74199998 4.7909568e-39
0.024733322 -0.01908002 0.74199998 1.0882904e-40
0.026181908 -0.01910574 0.74300003 1.3009445e-39
0.027597157 -0.01910574 0.74300003 2.4061976e-39
0.029012406 -0.01910574 0.74300003 2.2232441e-39
0.030509543 -0.019157164 0.74500006 1.9470061e-39
0.031928599 -0.019157164 0.74500006 2.2207063e-39
0.033437163 -0.019208588 0.74700004 2.4032773e-39
0.034906697 -0.019234315 0.74800003 3.3223259e-39
0.036428604 -0.019285746 0.75000006 4.242078e-39
0.037857164 -0.019285738 0.75000006 4.7022938e-39
0.039442897 -0.019362882 0.75300002 5.1614825e-39
0.040985733 -0.019414298 0.755 5.344806e-39
0.042480014 -0.019440018 0.75600004 5.5291748e-39
-0.01799999 -0.018000014 0.75600004 1.2044062e-39
-0.016560009 -0.018000007 0.75600004 1.0203891e-39
-0.01512001 -0.018000014 0.75600004 8.3598243e-40
-0.013661912 -0.01797621 0.755 6.5157436e-40
-0.012191417 -0.017928585 0.75300002 4.6683277e-40
-0.010742843 -0.017904773 0.75200003 4.6719571e-40
-0.0092856959 -0.017857164 0.75000006 4.6648665e-40
-0.0078256791 -0.017785728 0.74700004 4.6613633e-40
-0.0064028525 -0.017785721 0.74699998 5.6046894e-40
-0.0049666525 -0.017738119 0.74500006 3.2279891e-39
-0.0035475974 -0.017738126 0.74500006 5.885546e-39
-0.0021228294 -0.017690495 0.74300003 7.5547938e-39
-0.00070668175 -0.017666683 0.74199998 9.3240718e-39
0.00070664124 -0.017666683 0.74199998 1.0973173e-38
0.0021200052 -0.01766669 0.74200004 1.2637316e-38
0.0035333319 -0.017666668 0.74199998 1.2899891e-38
0.0049466579 -0.017666675 0.74199998 1.308749e-38
0.00636002 -0.017666683 0.74200004 1.3255716e-38
0.0077523761 -0.017619088 0.74000001 1.3337159e-38
0.0091619305 -0.017619088 0.74000007 1.3522277e-38
0.010571448 -0.017619073 0.74000007 1.3702363e-38
0.011980964 -0.017619073 0.74000001 1.4075448e-38
0.013372385 -0.017595254 0.73900002 1.4445657e-38
0.0148 -0.017619073 0.74000001 1.4079388e-38
0.016209556 -0.017619081 0.74000007 1.3808544e-38
0.017619072 -0.017619088 0.74000001 1.3902889e-38
0.019028589 -0.017619088 0.74000001 1.401125e-38
0.020438107 -0.017619081 0.74000001 1.2902073e-38
0.021906691 -0.017666675 0.74200004 1.1898568e-38
0.023319993 -0.017666675 0.74200004 9.0364707e-39
0.024733316 -0.017666683 0.74199998 6.1753065e-39
0.02618192 -0.017690495 0.74300003 3.6936812e-39
0.027597168 -0.017690495 0.74300003 1.3041661e-39
0.029012417 -0.017690487 0.74300003 1.7640624e-39
0.030591452 -0.017785728 0.74700004 2.2239461e-39
0.032014295 -0.017785721 0.74700004 2.3132593e-39
0.033437163 -0.017785728 0.74700004 2.4025584e-39
0.034906682 -0.017809547 0.74800003 3.4145173e-39
0.036428593 -0.017857157 0.75000006 4.5175901e-39
0.037958104 -0.017904781 0.75200003 4.8859774e-39
0.039442882 -0.017928593 0.75300002 5.3458696e-39
0.04098573 -0.017976217 0.75500005 5.5295378e-39
0.042479984 -0.018000007 0.75600004 5.8043198e-39
-0.018047603 -0.016603827 0.75800002 1.2044034e-39
-0.016560016 -0.016560011 0.75600004 1.020022e-39
-0.015119996 -0.016560018 0.75600004 8.3597963e-40
-0.013679998 -0.016560026 0.75600004 7.42698e-40
-0.012223816 -0.016538113 0.755 5.5867388e-40
-0.010742856 -0.016472414 0.75200003 4.6540906e-40
-0.0092856679 -0.016428597 0.75000006 3.7106243e-40
-0.0078361956 -0.01638478 0.74800003 2.7599834e-40
-0.0064028609 -0.016362868 0.74699998 1.102934e-40
-0.004966659 -0.016319066 0.74500006 5.9103084e-39
-0.0035476245 -0.016319074 0.74500006 1.1605208e-38
-0.0021228406 -0.016275257 0.74300003 1.2805189e-38
-0.00070666126 -0.016253337 0.74199998 1.3997575e-38
0.00070761913 -0.016275264 0.74299997 1.3168505e-38
0.0021199903 -0.016253337 0.74199998 1.2333733e-38
0.0035333291 -0.016253345 0.74200004 1.2230059e-38
0.0049466551 -0.016253337 0.74200004 1.2046369e-38
0.0063599809 -0.016253337 0.74199998 1.2030925e-38
0.0077524143 -0.016209558 0.74000001 1.1944108e-38
0.0091619315 -0.016209558 0.74000001 1.2214589e-38
0.010571448 -0.016209543 0.74000001 1.2402933e-38
0.011980966 -0.016209543 0.74000001 1.2673788e-38
0.013390521 -0.01620955 0.74000007 1.2864267e-38
0.014800038 -0.016209558 0.74000001 1.2673774e-38
0.016209556 -0.016209558 0.74000001 1.2498363e-38
0.017619049 -0.016209558 0.74000001 1.2765987e-38
0.019028565 -0.01620955 0.74000001 1.3061607e-38
0.020493325 -0.016253345 0.74199998 1.3714166e-38
0.02190665 -0.016253337 0.74199998 1.4366678e-38
0.023320014 -0.016253345 0.74200004 1.3280774e-38
0.02473334 -0.016253337 0.74199998 1.2162619e-38
0.026181912 -0.016275257 0.74300003 6.1775416e-39
0.027597157 -0.016275242 0.74300003 2.0644209e-40
0.029090488 -0.016319066 0.74500006 1.3970778e-39
0.030591443 -0.016362868 0.74700004 2.4983764e-39
0.03201431 -0.016362868 0.74700004 2.4976506e-39
0.0334819 -0.016384773 0.74800003 2.4039948e-39
0.035000026 -0.01642859 0.75000006 3.5985485e-39
0.036428601 -0.016428605 0.75000006 4.7016212e-39
0.037958112 -0.016472399 0.75200003 5.1618454e-39
0.039442878 -0.016494311 0.75300002 5.5298951e-39
0.040985715 -0.016538106 0.755 5.8068253e-39
0.042479999 -0.016560003 0.75600004 5.9887124e-39
-0.018000001 -0.015120007 0.75600004 1.112205e-39
-0.016560003 -0.015120007 0.75600004 9.2853539e-40
-0.015120004 -0.015120015 0.75600004 8.3633696e-40
-0.013661889 -0.015100017 0.75500005 6.519429e-40
-0.012223816 -0.015100017 0.755 5.5939695e-40
-0.010742845 -0.015040018 0.75200003 4.6326227e-40
-0.0092857005 -0.015000023 0.75000006 3.685485e-40
-0.0078362096 -0.014960021 0.74800003 3.3259301e-39
-0.006402846 -0.014940009 0.74699998 6.3669789e-39
-0.004980003 -0.014940009 0.74699998 9.0410432e-39
-0.0035475928 -0.014900021 0.74500006 1.1626046e-38
-0.0021228276 -0.014860019 0.74300003 1.2154794e-38
-0.00070757954 -0.014860019 0.74300003 1.2794324e-38
0.0007076303 -0.014860012 0.74299997 1.2415055e-38
0.0021199866 -0.014840007 0.74199998 1.2033739e-38
0.0035333515 -0.014840014 0.74200004 1.2035548e-38
0.0049466756 -0.014840022 0.74200004 1.21227e-38
0.0063600014 -0.014840014 0.74199998 1.2122681e-38
0.0077733272 -0.014840014 0.74199998 1.2214499e-38
0.0091619091 -0.014800034 0.74000001 1.2398152e-38
0.010571464 -0.014800027 0.74000007 1.2581841e-38
0.011980982 -0.014800027 0.74000007 1.2765529e-38
0.013390499 -0.014800027 0.74000001 1.2949189e-38
0.014800016 -0.014800027 0.74000001 1.2765507e-38
0.016209533 -0.014800027 0.74000001 1.2581858e-38
0.017619088 -0.014800042 0.74000007 1.2490044e-38
0.019028606 -0.014800042 0.74000001 1.2490069e-38
0.020493347 -0.014840007 0.74199998 1.2870349e-38
0.02190665 -0.014840014 0.74199998 1.3337866e-38
0.023319975 -0.014840014 0.74199998 1.40999e-38
0.024766672 -0.014860027 0.74299997 1.475166e-38
0.026181921 -0.014860019 0.74300003 1.0328071e-38
0.027671427 -0.014900021 0.74500006 5.9059812e-39
0.029090483 -0.014900029 0.74500006 3.7862342e-39
0.03059146 -0.014940016 0.74700004 1.6711409e-39
0.032014329 -0.014940001 0.74700004 1.6696976e-39
0.033481903 -0.014960013 0.74800003 1.5764005e-39
0.035000026 -0.015000023 0.75000006 3.139371e-39
0.036525715 -0.01504001 0.75200003 4.6094284e-39
0.037958097 -0.015040025 0.75200003 5.069654e-39
0.039547641 -0.015100032 0.75500005 5.4373365e-39
0.040985741 -0.015100025 0.755 5.6217068e-39
0.042423815 -0.015100025 0.755 5.8043282e-39
-0.019491399 -0.013716206 0.75800002 1.0210884e-39
-0.01800001 -0.013680018 0.75600004 9.2960879e-40
-0.01655999 -0.013680018 0.75600004 9.2924866e-40
-0.015119992 -0.013680011 0.75600004 8.3705303e-40
-0.013661906 -0.013661914 0.755 6.530233e-40
-0.012191396 -0.013625734 0.75300002 4.6468458e-40
-0.010742859 -0.013607636 0.75200003 3.6782403e-40
-0.0092856735 -0.013571441 0.75000006 2.9466924e-40
-0.007836164 -0.013535261 0.74800003 6.4760154e-39
-0.0064028534 -0.013517156 0.74699998 1.2624707e-38
-0.0049799881 -0.013517156 0.74699998 1.2168418e-38
-0.0035476189 -0.013480976 0.74500006 1.1597992e-38
-0.0021228378 -0.013444781 0.74300003 1.1577147e-38
-0.00070759072 -0.013444789 0.74300003 1.1488499e-38
0.00070762099 -0.013444781 0.74299997 1.1571686e-38
0.0021200071 -0.013426669 0.74199998 1.1664242e-38
0.0035333114 -0.013426669 0.74199998 1.1939391e-38
0.0049466747 -0.013426676 0.74200004 1.2214529e-38
0.0063599986 -0.013426676 0.74200004 1.2306356e-38
0.0077733244 -0.013426676 0.74199998 1.2398176e-38
0.0091866497 -0.013426676 0.74199998 1.2581833e-38
0.010571463 -0.013390511 0.74000001 1.2674051e-38
0.01198098 -0.013390496 0.74000001 1.2857747e-38
0.013390475 -0.013390504 0.74000001 1.2949197e-38
0.014799991 -0.013390504 0.74000001 1.2857337e-38
0.016209548 -0.013390511 0.74000007 1.2673691e-38
0.017619064 -0.013390511 0.74000007 1.2306374e-38
0.019028582 -0.013390511 0.74000001 1.1847204e-38
0.020493345 -0.013426676 0.74200004 1.2122718e-38
0.02190667 -0.013426676 0.74199998 1.2331606e-38
0.023319995 -0.013426676 0.74199998 1.484535e-38
0.024766663 -0.013444774 0.74300003 1.732739e-38
0.02618191 -0.013444789 0.74300003 1.4477232e-38
0.027671436 -0.013480984 0.74500006 1.1519098e-38
0.029090496 -0.013480984 0.74500006 6.1707313e-39
0.030591451 -0.013517164 0.74700004 8.4174878e-40
0.032014318 -0.013517164 0.74700004 8.4173617e-40
0.033481929 -0.013535261 0.74800009 7.5023838e-40
0.035000023 -0.013571456 0.75000006 2.6812739e-39
0.036525726 -0.013607629 0.75200003 4.5183089e-39
0.037958108 -0.013607644 0.75200003 4.9781702e-39
0.039442897 -0.013625741 0.75300002 5.3458598e-39
0.040985737 -0.013661921 0.75500005 5.5298783e-39
0.042423833 -0.013661921 0.755 5.6210131e-39
-0.019491427 -0.012272403 0.75800002 1.0214485e-39
-0.017999997 -0.012240015 0.75600004 8.3884809e-40
-0.016559999 -0.01224003 0.75600004 8.3812502e-40
-0.015099982 -0.01222384 0.755 8.3741176e-40
-0.013661907 -0.012223825 0.755 7.4235047e-40
-0.012191417 -0.012191467 0.75300002 5.5400335e-40
-0.010742848 -0.012175255 0.75200003 3.2297758e-39
-0.0092857052 -0.012142882 0.75000006 5.9049064e-39
-0.0078361807 -0.012110502 0.74800003 8.8580532e-39
-0.0064114309 -0.012110494 0.74800003 1.180321e-38
-0.0049799955 -0.012094297 0.74700004 1.1411436e-38
-0.0035571305 -0.012094304 0.74700004 1.1112556e-38
-0.0021228276 -0.012029544 0.74300003 1.1297605e-38
-0.00070757768 -0.012029551 0.74300003 1.1479852e-38
0.00070760981 -0.012029544 0.74300003 1.1663533e-38
0.0021200071 -0.012013353 0.74200004 1.1847192e-38
0.00353333 -0.012013346 0.74199998 1.2030851e-38
0.0049466561 -0.012013339 0.74199998 1.2306359e-38
0.006360021 -0.012013346 0.74200004 1.2398194e-38
0.0077733458 -0.012013346 0.74199998 1.2490018e-38
0.0091866469 -0.012013346 0.74199998 1.2581843e-38
0.010571441 -0.011980988 0.74000001 1.2674068e-38
0.011980956 -0.011980973 0.74000001 1.2765934e-38
0.013390513 -0.011980981 0.74000007 1.285737e-38
0.014800031 -0.011980981 0.74000001 1.2765494e-38
0.016209548 -0.011980981 0.74000001 1.2765524e-38
0.017619064 -0.011980988 0.74000001 1.2490046e-38
0.019080002 -0.012013346 0.74199998 1.221453e-38
0.020493304 -0.012013346 0.74199998 1.2403214e-38
0.021906668 -0.012013331 0.74200004 1.2693912e-38
0.023319993 -0.012013339 0.74200004 1.511548e-38
0.024766676 -0.012029544 0.74299997 1.7520779e-38
0.026181921 -0.012029536 0.74300003 1.5400311e-38
0.027597172 -0.012029536 0.74300003 1.3368754e-38
0.029090488 -0.012061931 0.74500006 7.284957e-39
0.030591467 -0.012094311 0.74700004 1.2033482e-39
0.032057147 -0.012110502 0.74800003 1.3884359e-39
0.033481933 -0.012110509 0.74800003 1.5746027e-39
0.035093371 -0.012175262 0.75200003 3.046825e-39
0.036525711 -0.012175262 0.75200003 4.5179488e-39
0.038008608 -0.01219146 0.75300002 4.9781632e-39
0.039547622 -0.012223832 0.75500005 5.438054e-39
0.040985726 -0.012223832 0.755 5.5291664e-39
0.042423837 -0.012223825 0.75500005 5.7121297e-39
-0.018000007 -0.010800019 0.75600004 7.459434e-40
-0.016538097 -0.010785721 0.755 8.3812922e-40
-0.015100021 -0.010785721 0.755 8.3597403e-40
-0.013661884 -0.010785744 0.755 7.4126727e-40
-0.012191378 -0.010757178 0.75300002 6.5374077e-40
-0.010742862 -0.010742873 0.75200003 6.0917709e-39
-0.0092856782 -0.0107143 0.75000006 1.142543e-38
-0.0078571057 -0.010714315 0.75000006 1.1156047e-38
-0.0064114244 -0.010685734 0.74800003 1.0860039e-38
-0.0049866592 -0.010685742 0.74800003 1.074555e-38
-0.003557136 -0.010671444 0.74700004 1.0653339e-38
-0.002128558 -0.010642879 0.74500006 1.11125e-38
-0.00070758886 -0.010614306 0.74300003 1.1480204e-38
0.00070762285 -0.010614298 0.74299997 1.1755714e-38
0.0021228699 -0.010614298 0.74300003 1.193938e-38
0.003538118 -0.010614291 0.74300003 1.2122686e-38
0.0049466542 -0.010600016 0.74199998 1.2306354e-38
0.00635998 -0.010600016 0.74199998 1.2398187e-38
0.0077733439 -0.010600001 0.74200004 1.2490011e-38
0.0091866693 -0.010600008 0.74199998 1.2581834e-38
0.010571457 -0.010571472 0.74000007 1.2674052e-38
0.011980974 -0.010571472 0.74000007 1.2674075e-38
0.013390491 -0.01057145 0.74000007 1.2674054e-38
0.014839984 -0.010600023 0.74199998 1.2765508e-38
0.016253309 -0.010600001 0.74199998 1.2765522e-38
0.017666673 -0.010600008 0.74200004 1.2673702e-38
0.01908 -0.010600016 0.74199998 1.2581893e-38
0.020493327 -0.010600008 0.74199998 1.2765592e-38
0.021906687 -0.010600016 0.74200004 1.2982366e-38
0.023351476 -0.010614306 0.74300003 1.5401398e-38
0.024766663 -0.010614306 0.74300003 1.7702308e-38
0.02618191 -0.010614298 0.74300003 1.6417327e-38
0.027597159 -0.010614306 0.74300003 1.5116876e-38
0.029090496 -0.010642886 0.74500006 8.3970526e-39
0.030591425 -0.010671437 0.74699998 1.5771572e-39
0.032057151 -0.010685734 0.74800003 1.9337022e-39
0.033481922 -0.010685742 0.74800003 2.3074831e-39
0.035000015 -0.010714293 0.75000006 3.4130796e-39
0.036525726 -0.010742873 0.75200003 4.5175761e-39
0.038008612 -0.010757171 0.75300002 4.9781478e-39
0.039547645 -0.010785721 0.75500005 5.4366078e-39
0.040985718 -0.010785729 0.75500005 5.6199201e-39
0.042423818 -0.010785729 0.755 5.7121255e-39
-0.017999992 -0.0093600154 0.75600004 9.2890394e-40
-0.016559994 -0.0093600154 0.75600004 9.2853259e-40
-0.015099998 -0.00934764 0.755 9.2709066e-40
-0.013661923 -0.0093476325 0.755 1.7496557e-39
-0.0121914 -0.0093228891 0.75300008 2.4822097e-39
-0.010742851 -0.0093104988 0.75200003 7.0119462e-39
-0.0093104467 -0.0093104988 0.75200003 1.1528017e-38
-0.007857115 -0.0092857331 0.75000006 1.0953675e-38
-0.0064285411 -0.009285748 0.75000006 1.0377841e-38
-0.0049866508 -0.0092609748 0.74800003 1.0561442e-38
-0.0035619249 -0.0092609823 0.74800003 1.0745137e-38
-0.0021285645 -0.0092238337 0.74500006 1.111286e-38
-0.00070757582 -0.009199068 0.74300003 1.1480198e-38
0.00070761167 -0.009199053 0.74300003 1.1663865e-38
0.0021228588 -0.009199068 0.74300003 1.1939373e-38
0.0035381087 -0.0091990605 0.74300003 1.203121e-38
0.0049466756 -0.0091866851 0.74199998 1.2214516e-38
0.0063600014 -0.0091866776 0.74199998 1.2306345e-38
0.007773303 -0.0091866776 0.74199998 1.2490003e-38
0.0091866665 -0.0091866702 0.74200004 1.248999e-38
0.010599992 -0.0091866702 0.74199998 1.2581841e-38
0.011980974 -0.0091619343 0.74000001 1.2674051e-38
0.013390492 -0.0091619268 0.74000001 1.2765884e-38
0.014840006 -0.0091866851 0.74199998 1.2765522e-38
0.016253332 -0.0091866776 0.74199998 1.2765522e-38
0.017666658 -0.0091866776 0.74199998 1.2490014e-38
0.019080019 -0.0091866776 0.74199998 1.2306408e-38
0.020493323 -0.0091866702 0.74200004 1.3243122e-38
0.02190665 -0.0091866702 0.74199998 1.4191328e-38
0.023351466 -0.009199068 0.74300003 1.5676554e-38
0.024766674 -0.009199068 0.74299997 1.7153814e-38
0.026181925 -0.0091990605 0.74300003 1.6047842e-38
0.02759717 -0.009199053 0.74300003 1.5029362e-38
0.029090494 -0.0092238262 0.74500006 9.4980276e-39
0.030591438 -0.009248592 0.74699998 4.0499081e-39
0.032057136 -0.0092609674 0.74800003 2.6701728e-39
0.033481926 -0.0092609823 0.74800003 1.3898372e-39
0.035000041 -0.009285748 0.75000006 2.954607e-39
0.036525711 -0.0093104988 0.75200003 4.610115e-39
0.038008586 -0.0093228817 0.75300002 4.9770548e-39
0.039547633 -0.0093476325 0.755 5.3433262e-39
0.040985744 -0.00934764 0.75500005 5.4362421e-39
0.042423818 -0.00934764 0.75500005 5.528093e-39
-0.017999979 -0.0079200119 0.75600004 1.1125707e-39
-0.016559981 -0.0079200193 0.75600004 1.1122064e-39
-0.01512002 -0.0079200193 0.75600004 1.0160633e-39
-0.013680002 -0.0079200044 0.75600004 2.6640786e-39
-0.012223827 -0.0079095364 0.755 4.3375947e-39
-0.010757131 -0.0078886002 0.75300002 7.9450372e-39
-0.0093104579 -0.0078781173 0.75200003 1.1509345e-38
-0.0078571104 -0.0078571811 0.75000006 1.0660169e-38
-0.0064285533 -0.0078571588 0.75000006 9.8289541e-39
-0.0049999799 -0.0078571662 0.75000006 1.0377784e-38
-0.0035618793 -0.0078362152 0.74800003 1.0837333e-38
-0.0021285533 -0.0078047961 0.74500006 1.111285e-38
-0.00070758699 -0.0077838227 0.74300003 1.138836e-38
0.00070762285 -0.0077838153 0.74299997 1.1663509e-38
0.0021228718 -0.0077838153 0.74300003 1.1847539e-38
0.0035381189 -0.0077838227 0.74300003 1.2031568e-38
0.0049466738 -0.0077733397 0.74200004 1.2123041e-38
0.0063599995 -0.0077733397 0.74199998 1.2306706e-38
0.0077733253 -0.0077733397 0.74199998 1.2398176e-38
0.0091866869 -0.0077733472 0.74200004 1.2490006e-38
0.010600013 -0.0077733472 0.74199998 1.2490369e-38
0.012013339 -0.0077733323 0.74199998 1.2674044e-38
0.01342664 -0.0077733397 0.74199998 1.2857709e-38
0.014840004 -0.0077733472 0.74200004 1.276551e-38
0.01625333 -0.0077733472 0.74200004 1.2673682e-38
0.017666655 -0.0077733472 0.74199998 1.2398184e-38
0.019080019 -0.0077733546 0.74200004 1.2037023e-38
0.020493343 -0.0077733546 0.74200004 1.3708442e-38
0.021906668 -0.0077733397 0.74199998 1.53906e-38
0.023351477 -0.0077838302 0.74300003 1.6051804e-38
0.024766663 -0.0077838227 0.74300003 1.6601015e-38
0.026181914 -0.0077838227 0.74300003 1.5773769e-38
0.027671447 -0.0078047886 0.74500006 1.4843176e-38
0.029168589 -0.0078257248 0.74699998 1.0698698e-38
0.030591428 -0.0078257248 0.74700004 6.4480314e-39
0.032057185 -0.0078362152 0.74800003 3.4902365e-39
0.033571452 -0.0078571662 0.75000006 4.7004875e-40
0.035000045 -0.0078571662 0.75000006 2.5887041e-39
0.036525723 -0.0078781098 0.75200003 4.6090472e-39
0.03800863 -0.0078886002 0.75300008 4.97635e-39
0.039442897 -0.0078886002 0.75300008 5.2522166e-39
0.040877186 -0.0078886077 0.75300002 5.252934e-39
0.042311452 -0.0078885928 0.75300002 5.2529439e-39
0.043745741 -0.0078885853 0.75300002 5.0689253e-39
-0.016560007 -0.0064800009 0.75600004 9.2602567e-40
-0.015120008 -0.0064800084 0.75600004 6.462186e-40
-0.01368001 -0.0064800084 0.75600004 3.6900673e-39
-0.012239989 -0.0064800084 0.75600004 6.7386117e-39
-0.010757129 -0.0064543039 0.75300002 8.7557991e-39
-0.0093104485 -0.0064457357 0.75200003 1.0761011e-38
-0.0078781052 -0.0064457208 0.75200003 1.0383881e-38
-0.0064285477 -0.0064286068 0.75000006 1.0103359e-38
-0.0049999892 -0.0064285919 0.75000006 1.0470349e-38
-0.0035618728 -0.0064114481 0.74800003 1.0929528e-38
-0.0021285599 -0.0063857362 0.74500006 1.1204676e-38
-0.00070760003 -0.0063685924 0.74300003 1.1388355e-38
0.00070761167 -0.0063685775 0.74300003 1.1572035e-38
0.0021228606 -0.0063685849 0.74300003 1.1755346e-38
0.0035381096 -0.0063685924 0.74300003 1.1939374e-38
0.0049533597 -0.0063685998 0.74300003 1.2122683e-38
0.0063686077 -0.0063685924 0.74300003 1.230635e-38
0.0077838567 -0.0063685849 0.74300003 1.2490021e-38
0.0091990437 -0.0063685849 0.74300003 1.249002e-38
0.01060001 -0.0063600168 0.74200004 1.2582207e-38
0.012013336 -0.0063600168 0.74200004 1.2857707e-38
0.013426661 -0.0063600093 0.74199998 1.3225042e-38
0.014839987 -0.0063600019 0.74199998 1.2857332e-38
0.01625335 -0.0063600093 0.74200004 1.2398172e-38
0.017666675 -0.0063600019 0.74199998 1.2490024e-38
0.019079978 -0.0063600093 0.74199998 1.2581963e-38
0.020520972 -0.0063685924 0.74300003 1.427313e-38
0.021936219 -0.0063685998 0.74300003 1.6048903e-38
0.02335147 -0.0063685998 0.74300003 1.6232262e-38
0.024833329 -0.0063857287 0.74500006 1.6505958e-38
0.026252383 -0.0063857362 0.74500006 1.5401044e-38
0.02774574 -0.0064028725 0.74699998 1.4289647e-38
0.029168583 -0.0064028725 0.74700004 1.0694027e-38
0.030632377 -0.0064114481 0.74800003 7.0944644e-39
0.032142878 -0.0064285994 0.75000006 3.9590998e-39
0.033571474 -0.0064285994 0.75000006 8.3954594e-40
0.035093367 -0.0064457357 0.75200003 2.6791089e-39
0.036574338 -0.0064543188 0.75300008 4.5165027e-39
0.038008604 -0.0064543188 0.75300008 4.8848858e-39
0.039547652 -0.0064714476 0.75500005 5.2529425e-39
0.040985726 -0.0064714476 0.755 5.2529383e-39
0.042423822 -0.0064714402 0.755 5.3447794e-39
-0.018095268 -0.0050666854 0.76000005 1.1118435e-39
-0.016603818 -0.0050533488 0.75799996 7.4090854e-40
-0.015120016 -0.0050400198 0.75600004 2.8568412e-40
-0.013661917 -0.0050333515 0.755 4.7117316e-39
-0.012223805 -0.0050333515 0.75500005 9.1227052e-39
-0.010757112 -0.0050200224 0.75300008 9.5775779e-39
-0.0093104597 -0.0050133541 0.75200003 1.0021264e-38
-0.007878094 -0.0050133467 0.75200003 1.0194106e-38
-0.0064457119 -0.0050133616 0.75200003 1.0286667e-38
-0.0049999622 -0.005000025 0.75000006 1.0654018e-38
-0.0035618895 -0.0049866959 0.74800003 1.1021365e-38
-0.0021285487 -0.0049666986 0.74500006 1.1204683e-38
-0.00070758513 -0.0049533471 0.74300003 1.1388727e-38
0.00070952647 -0.0049666837 0.745 1.1572413e-38
0.0021285613 -0.0049666986 0.74500006 1.1663882e-38
0.0035381003 -0.0049533546 0.74300003 1.1939381e-38
0.0049533485 -0.004953362 0.74300003 1.2123046e-38
0.0063685975 -0.0049533471 0.74300003 1.239819e-38
0.0077838455 -0.0049533471 0.74300003 1.258186e-38
0.0091990549 -0.0049533471 0.74299997 1.2581858e-38
0.010614305 -0.0049533471 0.74300003 1.2582211e-38
0.012013334 -0.0049466789 0.74200004 1.3133219e-38
0.01342666 -0.0049466789 0.74200004 1.3592392e-38
0.014839985 -0.0049466863 0.74199998 1.2857345e-38
0.016253311 -0.0049466789 0.74199998 1.2122667e-38
0.017666675 -0.0049466714 0.74200004 1.258185e-38
0.019105734 -0.0049533546 0.74300003 1.306842e-38
0.020520983 -0.0049533471 0.74300003 1.4845349e-38
