# .PCD v0.7 - Point Cloud Data file format
VERSION 0.7
FIELDS x y z rgb
SIZE 4 4 4 4
TYPE F F F F
COUNT 1 1 1 1
WIDTH 964
HEIGHT 1
VIEWPOINT 0 0 0 1 0 0 0
POINTS 964
DATA ascii
0.021906653 -0.012013324 0.74199998 2.7721131e-39
0.023351435 -0.012029506 0.74299997 4.1560999e-39
0.024833323 -0.012061886 0.74499995 5.6308194e-39
0.026322844 -0.012094259 0.74699998 5.9963369e-39
0.027745709 -0.012094267 0.74699992 6.3611439e-39
0.029207585 -0.012110449 0.74799997 5.6235663e-39
0.030714285 -0.012142852 0.75 4.9785514e-39
0.032271434 -0.012191415 0.75299996 5.4377135e-39
-0.02220189 -0.010742851 0.75199997 4.3297054e-39
-0.02071427 -0.010714263 0.75 3.7829916e-39
-0.019234322 -0.01068569 0.74799991 3.7772477e-39
-0.017785726 -0.010671407 0.74699998 3.7851496e-39
-0.01631907 -0.010642834 0.74499995 4.0595897e-39
-0.014860001 -0.010614276 0.74299997 4.3404828e-39
-0.013444741 -0.010614276 0.74299997 5.538656e-39
-0.012013317 -0.010600001 0.74199998 6.7368377e-39
-0.010571447 -0.010571428 0.73999995 7.1077824e-39
-0.009149529 -0.010557145 0.73899996 7.4747628e-39
-0.0077419109 -0.010557137 0.7389999 7.7513441e-39
-0.0063342876 -0.010557137 0.73899996 8.02901e-39
-0.0049266699 -0.01055713 0.73899996 8.2130467e-39
-0.0035190466 -0.01055713 0.73899996 8.3981611e-39
-0.0021114289 -0.010557137 0.73899996 8.9516936e-39
-0.00070194772 -0.010528542 0.73699993 9.4072543e-39
0.00070188136 -0.010528542 0.73699999 5.262432e-39
0.0021057106 -0.010528557 0.73699999 1.1190601e-39
0.0035094875 -0.010528557 0.73699999 1.3924016e-39
0.0049066762 -0.010514282 0.736 1.6682654e-39
0.0063171159 -0.01052855 0.73699999 1.2094453e-39
0.0077209449 -0.01052855 0.73699999 6.5556666e-40
0.0091247205 -0.010528542 0.73699999 5.6122424e-40
0.01052855 -0.010528564 0.73699999 4.6903141e-40
0.01193235 -0.010528557 0.73699999 6.5378e-40
0.013336179 -0.010528557 0.73699999 8.3816426e-40
0.014739954 -0.010528542 0.73699999 1.021115e-39
0.016143786 -0.010528542 0.73699999 1.1154714e-39
0.017595235 -0.01055713 0.73899996 1.3935002e-39
0.019028565 -0.010571405 0.73999995 1.577174e-39
0.020493343 -0.010599993 0.74199998 2.3111447e-39
0.02190665 -0.010599986 0.74199998 2.9579323e-39
0.023351436 -0.010614261 0.74299997 4.435544e-39
0.024833305 -0.010642841 0.74499995 5.8148463e-39
0.026322836 -0.0106714 0.74699998 6.2729238e-39
0.027745735 -0.010671414 0.74699998 6.6359161e-39
0.029207578 -0.01068569 0.74799997 5.8983189e-39
0.030714288 -0.010714263 0.75 5.1621986e-39
0.032228574 -0.010742851 0.75199997 5.6213761e-39
0.033660948 -0.010742843 0.75199997 5.9876404e-39
-0.022201903 -0.0093104765 0.75199997 4.5194804e-39
-0.020714266 -0.0092856959 0.75 3.9627067e-39
-0.019234326 -0.0092609301 0.74799991 3.3205533e-39
-0.017785735 -0.0092485473 0.74699992 2.6770013e-39
-0.016319087 -0.009223789 0.74499995 3.2298206e-39
-0.01490001 -0.009223789 0.745 3.7772575e-39
-0.013444738 -0.0091990307 0.74299997 4.8907741e-39
-0.012013321 -0.0091866553 0.74199998 6.0900417e-39
-0.010571458 -0.0091618896 0.73999995 6.6450246e-39
-0.0091495486 -0.0091495067 0.73899996 7.2896597e-39
-0.0077418988 -0.0091495216 0.73899996 7.6605806e-39
-0.0063343062 -0.0091495141 0.73899996 8.0297233e-39
-0.0049266568 -0.0091495141 0.73899996 8.2133999e-39
-0.0035190652 -0.0091495067 0.73899996 8.4892707e-39
-0.0021114158 -0.0091495067 0.73899996 9.1342758e-39
-0.00070191605 -0.0091247484 0.73699999 9.7774521e-39
0.00070185715 -0.0091247335 0.73699993 5.4464436e-39
0.0021056863 -0.0091247335 0.73699999 1.1140309e-39
0.0035094856 -0.0091247335 0.73699993 1.3913282e-39
0.0049067023 -0.009112373 0.736 1.667548e-39
0.0063085794 -0.009112373 0.736 1.1150959e-39
0.007710488 -0.009112373 0.736 6.5448626e-40
0.0091123907 -0.0091123655 0.736 4.6902441e-40
0.010528551 -0.0091247335 0.73699999 3.7575398e-40
0.011932351 -0.009124741 0.73699993 5.619361e-40
0.013336155 -0.0091247484 0.73699999 8.3887331e-40
0.014739984 -0.0091247484 0.73699999 8.3850898e-40
0.016143786 -0.009124741 0.73699999 9.3179482e-40
0.017595218 -0.0091495067 0.7389999 1.209109e-39
0.019028554 -0.0091618896 0.73999995 1.4860546e-39
0.020493312 -0.0091866553 0.74199998 2.0370718e-39
0.021906672 -0.0091866553 0.74199998 2.6802678e-39
0.023351436 -0.0091990307 0.74299997 4.0646049e-39
0.024833288 -0.0092237964 0.74499995 5.3581772e-39
0.026322858 -0.0092485473 0.74699998 5.8141078e-39
0.027782839 -0.0092609227 0.74799997 6.2656875e-39
0.0292076 -0.0092609301 0.74799997 5.5295041e-39
0.030796187 -0.009310469 0.75199997 4.7926818e-39
0.032271445 -0.0093228444 0.75299996 5.1611126e-39
0.033705715 -0.009322837 0.75299996 5.5277371e-39
-0.02363429 -0.0078780875 0.75199997 5.3524585e-39
-0.022201916 -0.0078780875 0.75199997 4.7996476e-39
-0.020659065 -0.0078361705 0.74799997 4.152123e-39
-0.019234328 -0.007836163 0.74799997 2.8653373e-39
-0.017785715 -0.0078257024 0.74699998 1.5782152e-39
-0.016319079 -0.0078047439 0.74499995 2.4051032e-39
-0.014859998 -0.0077838004 0.74299997 3.1412333e-39
-0.013444738 -0.0077838004 0.74299997 4.2493689e-39
-0.011980959 -0.0077523813 0.73999995 5.3557165e-39
-0.010571444 -0.0077523664 0.73999995 6.2762407e-39
-0.0091495346 -0.0077418908 0.73899996 7.1063446e-39
-0.0077419165 -0.0077418983 0.7389999 7.571259e-39
-0.0063342932 -0.0077418983 0.73899996 8.0293673e-39
-0.0049266755 -0.0077418908 0.7389999 8.3048808e-39
-0.0035190512 -0.0077418908 0.73899996 8.4892735e-39
-0.0021057432 -0.0077209398 0.73699999 9.3179482e-39
-0.00070194399 -0.0077209249 0.73699999 1.0142287e-38
0.00070188881 -0.0077209398 0.73699999 5.6315593e-39
0.0021056882 -0.0077209324 0.73699993 1.1194077e-39
0.0035094912 -0.0077209324 0.73699999 1.3913128e-39
0.0049067005 -0.0077104792 0.73600006 1.6657473e-39
0.0063171233 -0.0077209324 0.73699999 1.1129449e-39
0.0077209226 -0.0077209324 0.73699993 5.6157176e-40
0.0091247251 -0.0077209398 0.73699999 4.6866007e-40
0.010528524 -0.0077209324 0.73699993 2.8570934e-40
0.011932356 -0.0077209324 0.73699999 5.6265356e-40
0.013336156 -0.0077209175 0.73699993 7.4596442e-40
0.014739986 -0.0077209324 0.73699999 7.4524556e-40
0.016187636 -0.0077418983 0.73899996 6.5628833e-40
0.017619027 -0.0077523664 0.73999995 1.0254324e-39
0.019028541 -0.0077523515 0.73999995 1.3027353e-39
0.020493338 -0.0077733397 0.74199998 1.8548259e-39
0.021906674 -0.0077733323 0.74199998 2.4054717e-39
0.023351436 -0.0077837855 0.74299997 3.6929553e-39
0.024833325 -0.0078047439 0.745 4.892897e-39
0.026322847 -0.0078256801 0.74699998 5.3595897e-39
0.027745714 -0.0078256875 0.74699992 5.8090323e-39
0.029207598 -0.007836163 0.74799997 5.1611126e-39
0.030714266 -0.0078571215 0.75 4.4267887e-39
0.032228574 -0.0078780875 0.75200003 4.7937748e-39
0.033660948 -0.00787808 0.75199997 5.0696358e-39
0.035093322 -0.0078780726 0.75199997 5.1618258e-39
-0.023634305 -0.0064457059 0.75199997 5.3520941e-39
-0.022142837 -0.0064285621 0.75 4.7996434e-39
-0.020659069 -0.0064114109 0.74799997 4.2457578e-39
-0.019234305 -0.0064114109 0.74799991 3.32417e-39
-0.017785724 -0.0064028352 0.74699992 2.3136278e-39
-0.016319064 -0.0063856989 0.745 2.7735298e-39
-0.014859996 -0.0063685551 0.74299997 3.1430354e-39
-0.013444736 -0.0063685551 0.74299997 4.2486585e-39
-0.012013325 -0.006359987 0.74199998 5.2656747e-39
-0.010571457 -0.0063428357 0.73999995 6.09292e-39
-0.009161911 -0.0063428357 0.73999995 6.9205185e-39
-0.0077524208 -0.0063428432 0.73999995 7.3836448e-39
-0.0063428772 -0.0063428581 0.73999995 7.7524301e-39
-0.0049266624 -0.006334275 0.73899996 8.0283023e-39
-0.0035190689 -0.0063342676 0.7389999 8.3038116e-39
-0.0021057413 -0.0063171163 0.73699999 8.9506076e-39
-0.00070191233 -0.0063171163 0.73699999 9.5966608e-39
0.00070186087 -0.0063171163 0.73699999 5.2642257e-39
0.0021056919 -0.0063171238 0.73699999 1.0243408e-39
0.0035094931 -0.0063171312 0.73699999 1.2072677e-39
0.0049133222 -0.0063171312 0.73699999 1.3891576e-39
0.0063599781 -0.0063599944 0.74199998 1.0214681e-39
0.0077209263 -0.0063171163 0.73699999 5.6157036e-40
0.0091247261 -0.0063171163 0.73699999 4.6901319e-40
0.010528556 -0.0063171312 0.73699999 3.7790077e-40
0.011932355 -0.0063171238 0.73699993 5.6229483e-40
0.013336159 -0.0063171238 0.73699999 7.4560849e-40
0.01473996 -0.0063171163 0.73699993 7.4668609e-40
0.016187618 -0.0063342676 0.7389999 7.4884129e-40
0.017619038 -0.0063428432 0.73999995 1.1179797e-39
0.019080026 -0.006359987 0.74199998 1.4871154e-39
0.020493334 -0.0063599795 0.74199998 1.8540986e-39
0.02193621 -0.0063685626 0.74299997 2.2203602e-39
0.023414256 -0.0063856989 0.74499995 3.1401445e-39
0.024833309 -0.0063856989 0.745 4.0591987e-39
0.026322836 -0.0064028278 0.74699998 4.7063338e-39
0.027782861 -0.0064114109 0.74799997 5.4399079e-39
0.029207598 -0.0064114034 0.74799997 5.1629315e-39
0.030714303 -0.0064285621 0.75 4.7955811e-39
0.032228563 -0.0064457059 0.75199997 4.9785248e-39
-0.025066668 -0.0050133243 0.75199997 5.4446499e-39
-0.02363429 -0.0050133243 0.75200003 5.3531661e-39
-0.022142833 -0.0049999878 0.75 4.8925467e-39
-0.020659072 -0.0049866438 0.74799997 4.3386667e-39
-0.019234309 -0.0049866363 0.74799997 3.6886464e-39
-0.017785732 -0.0049799755 0.74699992 3.0475957e-39
-0.016319055 -0.0049666464 0.745 3.1401543e-39
-0.014859994 -0.0049533248 0.74299997 3.1419578e-39
-0.013444765 -0.0049533099 0.74299991 4.1528755e-39
-0.01201333 -0.0049466565 0.74199998 5.1706064e-39
-0.010600022 -0.0049466491 0.74199998 6.0003614e-39
-0.0091619221 -0.0049333125 0.73999995 6.7364831e-39
-0.0077524078 -0.0049333125 0.73999989 7.1070565e-39
-0.0063428883 -0.00493332 0.73999995 7.4765593e-39
-0.0049333745 -0.0049333051 0.73999995 7.8442698e-39
-0.0035238289 -0.0049333274 0.73999995 8.1212182e-39
-0.0021057674 -0.0049133003 0.73699993 8.5832726e-39
-0.00070193654 -0.0049133152 0.73699999 8.9477153e-39
0.00070380175 -0.0049266443 0.7389999 4.8961621e-39
0.0021114233 -0.0049266666 0.73899996 8.4426271e-40
0.0035190429 -0.0049266592 0.7389999 1.024331e-39
0.0049132979 -0.0049133077 0.73699999 1.1154518e-39
0.0063428381 -0.00493332 0.73999995 8.3887191e-40
0.0077209263 -0.0049133152 0.73699999 5.6193189e-40
0.0091494992 -0.0049266592 0.7389999 5.6013823e-40
0.010557148 -0.0049266517 0.73899996 4.6938454e-40
0.01196474 -0.0049266517 0.7389999 5.6230184e-40
0.013372389 -0.0049266517 0.73899996 6.5449607e-40
0.014779981 -0.0049266443 0.7389999 7.4633156e-40
0.016187631 -0.0049266517 0.73899996 8.4103832e-40
0.017619027 -0.0049333051 0.73999995 1.2105341e-39
0.01908 -0.0049466565 0.74199998 1.5782362e-39
0.02049333 -0.0049466491 0.74199998 1.7619072e-39
0.02193621 -0.0049533248 0.74300003 1.9448565e-39
0.023414237 -0.0049666464 0.74499995 2.5880595e-39
0.02483332 -0.0049666539 0.745 3.139769e-39
0.026358062 -0.0049866438 0.74799997 4.1495797e-39
0.027782856 -0.0049866438 0.74799997 5.0704163e-39
0.029285723 -0.0049999729 0.75 5.1625797e-39
0.030796202 -0.0050133169 0.75199997 5.1625629e-39
0.032228574 -0.0050133094 0.75199997 5.254383e-39
-0.024999997 -0.003571406 0.75 5.8134268e-39
-0.023634277 -0.0035809427 0.75199997 6.2736693e-39
-0.022142855 -0.0035714209 0.75 5.629732e-39
-0.020659048 -0.0035618842 0.74799997 4.9865346e-39
-0.019285718 -0.003571406 0.75 4.7063744e-39
-0.017809549 -0.0035618767 0.74799991 4.517684e-39
-0.016319072 -0.0035476089 0.745 4.3376017e-39
-0.014900024 -0.0035476014 0.74499995 4.1525056e-39
-0.013444762 -0.0035380721 0.74299997 4.8922202e-39
-0.012029503 -0.0035380796 0.74299997 5.6308558e-39
-0.010599996 -0.0035333261 0.74199998 6.2751448e-39
-0.0091619352 -0.0035237893 0.73999995 6.9179961e-39
-0.0077838083 -0.0035380796 0.74299997 7.291438e-39
-0.0063600182 -0.0035333335 0.74199998 7.661661e-39
-0.0049466542 -0.0035333335 0.74199998 8.0290128e-39
-0.003533347 -0.0035333261 0.74199998 8.3967261e-39
-0.0021143262 -0.0035237819 0.73999989 8.3981723e-39
-0.0007047808 -0.0035238042 0.73999995 8.4903315e-39
0.00070473494 -0.0035237893 0.73999989 4.5252271e-39
0.0021114084 -0.0035190433 0.7389999 6.559352e-40
0.0035190559 -0.0035190359 0.73899996 9.3287101e-40
0.0049266494 -0.0035190359 0.7389999 1.2090894e-39
0.0063600005 -0.0035333186 0.74199998 9.3142347e-40
0.0077209021 -0.0035094917 0.73699993 7.4560569e-40
0.0091495123 -0.003519021 0.73899996 6.526982e-40
0.010557131 -0.0035190284 0.7389999 6.5306254e-40
0.011964755 -0.0035190433 0.73899996 7.4597843e-40
0.013372374 -0.0035190359 0.7389999 8.3888873e-40
0.014799981 -0.0035237968 0.73999995 8.3924606e-40
0.0162095 -0.0035238042 0.73999995 9.3323535e-40
0.01766666 -0.0035333335 0.74199998 1.393489e-39
0.019079994 -0.0035333261 0.74199998 1.8533854e-39
0.020520955 -0.0035380796 0.74299997 1.853028e-39
0.021936182 -0.0035380796 0.74299997 1.9441433e-39
0.023477135 -0.0035571158 0.74699998 2.862494e-39
0.02489998 -0.0035571083 0.74699992 3.8740956e-39
0.026358085 -0.0035618767 0.74799997 4.7034611e-39
0.027782852 -0.0035618916 0.74799997 5.4377611e-39
0.029285701 -0.0035714135 0.75 5.4380932e-39
0.030796187 -0.0035809353 0.75199997 5.4377107e-39
0.0323571 -0.0035952255 0.755 5.3454926e-39
-0.024999993 -0.0021428391 0.75 6.2729728e-39
-0.023634292 -0.0021485686 0.75199997 7.0994783e-39
-0.022142852 -0.0021428317 0.75 6.3654978e-39
-0.020714296 -0.0021428391 0.75 5.5389811e-39
-0.019285709 -0.0021428391 0.75 5.8155666e-39
-0.017809551 -0.0021371245 0.74799991 5.9956573e-39
-0.016319063 -0.0021285638 0.74499995 5.6319082e-39
-0.014900042 -0.0021285564 0.74499995 5.1698665e-39
-0.013444762 -0.0021228343 0.74299997 5.6326369e-39
-0.012029502 -0.0021228418 0.74299997 5.9999859e-39
-0.010600001 -0.0021199882 0.74199998 6.5517247e-39
-0.0091990381 -0.0021228492 0.74299997 7.0134175e-39
-0.0077838083 -0.0021228343 0.74299997 7.4786977e-39
-0.0063685481 -0.0021228567 0.74299997 7.8453292e-39
-0.004946657 -0.0021199957 0.74199998 8.3048724e-39
-0.0035333498 -0.0021199957 0.74199998 8.6729403e-39
-0.0021143076 -0.0021142811 0.73999995 8.3059668e-39
-0.00070479198 -0.0021142662 0.73999995 7.9321368e-39
0.00070668512 -0.0021199882 0.74199998 4.1503504e-39
0.0021142676 -0.0021142662 0.73999995 3.8293844e-40
0.0035237833 -0.0021142662 0.73999989 8.4175438e-40
0.0049266624 -0.0021114126 0.73899996 1.3005647e-39
0.0063599995 -0.0021199882 0.74199998 1.1154504e-39
0.0077209338 -0.0021056905 0.73699999 8.3779712e-40
0.0091866413 -0.0021199808 0.74199998 8.3564892e-40
0.010557143 -0.0021114275 0.73899996 7.4452949e-40
0.011964736 -0.0021114126 0.7389999 8.3708245e-40
0.013426675 -0.0021199882 0.74199998 9.2999695e-40
0.014799969 -0.0021142662 0.73999995 9.3000115e-40
0.016209515 -0.0021142662 0.73999995 9.3251508e-40
0.017666655 -0.0021199808 0.74199998 1.4849658e-39
0.019105753 -0.0021228567 0.74299997 2.036699e-39
0.020520957 -0.0021228492 0.74299997 1.9441475e-39
0.021995211 -0.0021285564 0.74499995 1.8515889e-39
0.023477132 -0.0021342635 0.74699992 3.2266046e-39
0.024933318 -0.0021371171 0.74799997 4.612004e-39
0.026358081 -0.0021371096 0.74799997 5.2609257e-39
0.027782818 -0.0021371096 0.74799991 5.8079688e-39
0.029363798 -0.0021485686 0.75199997 5.7143144e-39
0.030919012 -0.0021571368 0.755 5.6210243e-39
0.0323571 -0.0021571293 0.755 5.4366163e-39
-0.02357143 -0.00071426481 0.75 5.8123534e-39
-0.022142848 -0.00071425736 0.75 5.075859e-39
-0.02071429 -0.00071426481 0.75 4.436595e-39
-0.019285705 -0.00071427226 0.75 3.9731085e-39
-0.017857149 -0.00071426481 0.75 3.6093651e-39
-0.016362859 -0.00071140379 0.74699998 3.7905348e-39
-0.014900002 -0.00070950389 0.745 3.9767183e-39
-0.013480979 -0.00070951134 0.745 4.5273739e-39
-0.0120295 -0.00070760399 0.74299997 4.9912261e-39
-0.010614295 -0.00070761144 0.74299997 5.5393791e-39
-0.0091990363 -0.00070761144 0.74299997 6.0943451e-39
-0.0077838055 -0.00070760399 0.74299997 6.832622e-39
-0.0063685463 -0.00070760399 0.74299997 7.568385e-39
-0.0049533169 -0.00070759654 0.74299997 7.9364472e-39
-0.0035333247 -0.00070666522 0.74199998 8.3063073e-39
-0.0021200175 -0.00070665032 0.74199998 8.1201308e-39
-0.00070480502 -0.00070475042 0.73999995 8.0261191e-39
0.00070474052 -0.00070475042 0.73999995 4.3390422e-39
0.0021142564 -0.00070474297 0.73999995 6.5916239e-40
0.0035238001 -0.00070475042 0.73999995 1.0257841e-39
0.0049333158 -0.00070474297 0.73999995 1.3927576e-39
0.0063599977 -0.00070666522 0.74199998 1.1150889e-39
0.0077418848 -0.00070378929 0.7389999 9.2962981e-40
0.0091618933 -0.00070475787 0.73999995 8.3600485e-40
0.010557125 -0.00070378929 0.7389999 7.4380362e-40
0.011964748 -0.00070380419 0.73899996 7.4559028e-40
0.013390442 -0.00070474297 0.73999995 7.4631615e-40
0.014799957 -0.00070474297 0.73999989 7.4704202e-40
0.016253343 -0.00070665777 0.74199998 8.4031805e-40
0.017666681 -0.00070665777 0.74199998 1.3012948e-39
0.019105723 -0.00070759654 0.74299991 1.8533868e-39
0.020576172 -0.00070950389 0.745 1.6697186e-39
0.022054279 -0.00071140379 0.74699992 1.4853231e-39
0.023508549 -0.00071235746 0.74799997 3.6000423e-39
0.024933316 -0.00071236491 0.74799997 5.7183305e-39
0.026358077 -0.00071235746 0.74799997 5.6253922e-39
0.027782815 -0.00071235746 0.74799997 5.5324581e-39
0.029363787 -0.00071617961 0.75199997 5.2533404e-39
0.030837145 -0.00071711838 0.75299996 4.9774598e-39
0.032399986 -0.00071997941 0.75599998 4.7930545e-39
-0.023634288 0.00071618706 0.75199997 4.5216286e-39
-0.022201914 0.00071620196 0.75199997 3.8730278e-39
-0.020714287 0.00071431696 0.75 3.2312527e-39
-0.019337134 0.00071620196 0.75199997 2.2138848e-39
-0.017857146 0.00071430206 0.75 1.1186818e-39
-0.016362868 0.00071144849 0.74699992 1.943416e-39
-0.014939998 0.00071144849 0.74699998 2.7746018e-39
-0.013480971 0.00070954859 0.74499995 3.4163755e-39
-0.012029498 0.00070763379 0.74299997 3.97098e-39
-0.010614295 0.00070762634 0.74299997 4.6113229e-39
-0.0091866711 0.00070667267 0.74199998 5.169526e-39
-0.0077838046 0.00070763379 0.74299997 6.2801783e-39
-0.0063685752 0.00070764124 0.74299997 7.2914464e-39
-0.0049466616 0.00070668012 0.74199998 7.5658795e-39
-0.0035333275 0.00070668757 0.74199998 7.843181e-39
-0.0021143057 0.00070478022 0.73999995 8.0261359e-39
-0.00070479012 0.00070478767 0.73999989 8.114726e-39
0.00070475542 0.00070478767 0.73999995 4.5202105e-39
0.0021142433 0.00070477277 0.73999995 9.3431435e-40
0.0035237889 0.00070476532 0.73999995 1.2090964e-39
0.0049333028 0.00070478022 0.73999995 1.3913226e-39
0.0063428483 0.00070478022 0.73999995 1.2065656e-39
0.0077418978 0.0007038191 0.73899996 9.2855221e-40
0.0091618821 0.00070478022 0.73999995 8.3420979e-40
0.0106 0.00070668012 0.74199998 6.5268979e-40
0.011964731 0.0007038191 0.7389999 5.6300389e-40
0.013390456 0.00070478022 0.73999995 4.7153413e-40
0.014840004 0.00070668012 0.74199998 6.5521213e-40
0.016253313 0.00070667267 0.74199998 7.488511e-40
0.017666677 0.00070667267 0.74199998 1.2101922e-39
0.019105723 0.00070764869 0.74299991 1.5782488e-39
0.020576155 0.00070954114 0.745 1.3952925e-39
0.0220543 0.00071144849 0.74699998 1.1194133e-39
0.023508545 0.00071241707 0.74799997 3.9691695e-39
0.024933338 0.00071241707 0.74799997 6.818553e-39
0.026358079 0.00071240216 0.74799997 6.0809711e-39
0.027857134 0.00071430951 0.75 5.2519111e-39
0.02928572 0.00071430206 0.75 4.789477e-39
0.030837134 0.00071715564 0.75299996 4.2384514e-39
-0.02520003 0.0021600202 0.75599998 4.981169e-39
-0.023728615 0.0021571591 0.75499994 4.3361598e-39
-0.022201927 0.0021485835 0.75199997 3.7819084e-39
-0.020769525 0.0021485835 0.75199997 3.2283815e-39
-0.019337149 0.002148591 0.75199997 2.3085888e-39
-0.01785714 0.0021428764 0.75 1.4838686e-39
-0.016362846 0.0021343008 0.74699998 2.4033053e-39
-0.014940008 0.0021343082 0.74699998 3.323098e-39
-0.013480986 0.0021285862 0.74499995 3.1401473e-39
-0.012061909 0.0021285862 0.745 2.9564749e-39
-0.010614292 0.002122879 0.74299997 4.0588582e-39
-0.009186645 0.0021200106 0.74199998 5.0701515e-39
-0.0077838027 0.0021228641 0.74299997 6.1854758e-39
-0.0063600023 0.0021200106 0.74199992 7.2925254e-39
-0.0049466654 0.0021200106 0.74199998 7.5669571e-39
-0.0035333592 0.002120018 0.74199998 7.93322e-39
-0.0021143169 0.002114296 0.73999995 8.1193994e-39
-0.00070480129 0.0021143034 0.73999989 8.3963324e-39
0.00070474239 0.0021143034 0.73999995 4.707836e-39
0.0021142582 0.0021143034 0.73999989 9.3073123e-40
0.0035237758 0.0021143034 0.73999995 1.2073013e-39
0.0049332916 0.0021143034 0.73999989 1.3898863e-39
0.0063428362 0.0021142885 0.73999995 1.1136525e-39
0.0077419109 0.0021114349 0.73899996 8.3599785e-40
0.009149502 0.0021114424 0.73899996 7.4344909e-40
0.010599995 0.0021200106 0.74199998 5.6157456e-40
0.012013329 0.002120018 0.74199998 5.630123e-40
0.013390445 0.0021143034 0.73999995 5.640941e-40
0.014839999 0.0021200106 0.74199998 6.559352e-40
0.016253337 0.0021200031 0.74199998 7.4850357e-40
0.017666671 0.002120018 0.74199998 1.118012e-39
0.019105727 0.002122879 0.74299991 1.4867819e-39
0.020576164 0.0021285936 0.74499995 1.302385e-39
0.02205429 0.0021343082 0.74699998 1.1168993e-39
0.023508543 0.0021371692 0.74799997 3.9709533e-39
0.024933305 0.0021371767 0.74799991 6.8217718e-39
0.026358072 0.0021371692 0.74799997 7.2758976e-39
0.027857164 0.0021428764 0.75 7.8182659e-39
0.029285723 0.0021428838 0.75 7.6395822e-39
0.030796183 0.0021485835 0.75199997 7.448012e-39
-0.026710469 0.0036095381 0.75799996 5.6268804e-39
-0.025200022 0.0036000162 0.75599998 4.8875427e-39
-0.023728585 0.0035952479 0.755 4.1517657e-39
-0.022290496 0.0035952553 0.755 3.6897015e-39
-0.020797143 0.003585726 0.75300002 3.1354558e-39
-0.019362845 0.003585726 0.75299996 2.4918856e-39
-0.017904758 0.0035809577 0.75199997 1.8511993e-39
-0.016384801 0.0035619438 0.74799991 2.8621185e-39
-0.014940015 0.0035571679 0.74699992 3.7819126e-39
-0.013517146 0.0035571679 0.74699998 2.8639206e-39
-0.012061925 0.0035476312 0.745 1.9459201e-39
-0.010614291 0.0035381019 0.74299997 3.5056858e-39
-0.0091990316 0.0035381019 0.74300003 4.9826166e-39
-0.0077838008 0.0035381094 0.74299997 6.1901379e-39
-0.0063600042 0.003533341 0.74199998 7.2928855e-39
-0.004946671 0.0035333484 0.74199998 7.6598716e-39
-0.0035333331 0.003533341 0.74199998 7.935378e-39
-0.0021143281 0.003523834 0.73999995 8.304871e-39
-0.00070478453 0.0035238266 0.73999995 8.6686075e-39
0.00070473121 0.003523834 0.73999995 4.8003791e-39
0.002114275 0.0035238117 0.73999995 9.3503181e-40
0.0035237907 0.0035238266 0.73999995 1.2076628e-39
0.0049333102 0.0035238191 0.73999995 1.3895304e-39
0.0063428241 0.0035238266 0.73999995 1.1132966e-39
0.0077418904 0.0035190582 0.73899996 7.4415955e-40
0.009161884 0.0035238191 0.73999995 6.5052899e-40
0.010599992 0.003533341 0.74199998 4.69016e-40
0.01201333 0.0035333335 0.74199998 5.6265076e-40
0.013426664 0.0035333484 0.74199998 5.640913e-40
0.014840002 0.003533341 0.74199998 6.559338e-40
0.016253335 0.0035333335 0.74199998 6.5666247e-40
0.017666673 0.0035333335 0.74199998 1.0258093e-39
0.019105731 0.0035381243 0.74299997 1.3938646e-39
0.020576147 0.0035476312 0.74499995 1.302385e-39
0.022054283 0.0035571679 0.74699992 1.1208496e-39
0.023508539 0.0035619214 0.74799997 3.9763441e-39
0.024933303 0.0035619289 0.74799991 6.8228648e-39
0.026428556 0.0035714507 0.75 8.5662832e-39
0.027857168 0.0035714507 0.75 1.0316511e-38
0.029363794 0.0035809651 0.75199997 1.0501947e-38
0.030837145 0.003585726 0.75299996 1.0594144e-38
-0.026710484 0.0050533488 0.75799996 6.0910801e-39
-0.025266679 0.0050533488 0.75799996 5.9953097e-39
-0.023760006 0.0050400198 0.75599998 5.8051577e-39
-0.022290496 0.0050333515 0.755 5.2541195e-39
-0.020852407 0.0050333589 0.755 4.7845346e-39
-0.019362854 0.0050200149 0.75299996 4.7931386e-39
-0.017904773 0.0050133392 0.75199997 4.7913603e-39
-0.016384803 0.0049866959 0.74799997 4.8878734e-39
-0.014960012 0.0049866959 0.74799997 5.0676039e-39
-0.013517153 0.0049800202 0.74699998 4.9804375e-39
-0.012061941 0.0049666762 0.745 4.8860867e-39
-0.010614289 0.0049533546 0.74299997 5.3488459e-39
-0.0091990586 0.004953362 0.74299997 5.8984562e-39
-0.007783799 0.0049533397 0.74299997 6.7379209e-39
-0.006360007 0.0049466714 0.74199998 7.5694682e-39
-0.004946644 0.0049466714 0.74199998 7.7524273e-39
-0.0035333377 0.0049466789 0.74199998 8.0272177e-39
-0.0021143151 0.0049333498 0.73999989 8.3045193e-39
-0.00070476963 0.0049333498 0.73999995 8.6732696e-39
0.00070471817 0.0049333498 0.73999995 4.7092499e-39
0.0021114214 0.0049266741 0.73899996 7.5063915e-40
0.0035190391 0.004926689 0.7389999 1.0232772e-39
0.0049333232 0.0049333423 0.73999995 1.295904e-39
0.0063342801 0.0049266964 0.7389999 1.0203877e-39
0.0077419034 0.0049266741 0.73899996 7.4379801e-40
0.0091618719 0.0049333572 0.73999995 5.6012002e-40
0.010600017 0.0049466714 0.74199998 3.771749e-40
0.012013325 0.0049466789 0.74199998 4.7152853e-40
0.013426689 0.0049466714 0.74199998 4.733306e-40
0.014839998 0.0049466789 0.74199998 4.722614e-40
0.016253332 0.0049466863 0.74199998 4.7226981e-40
0.0176905 0.0049533471 0.74299997 9.3324796e-40
0.019105731 0.0049533546 0.74299997 1.4853371e-39
0.020576188 0.0049666762 0.745 1.2101894e-39
0.022054302 0.0049800128 0.74699998 9.3395562e-40
0.023508562 0.0049866959 0.74799997 3.5103606e-39
0.024933299 0.0049867034 0.74799997 6.1814694e-39
0.02642856 0.005000025 0.75 9.5901308e-39
0.027857145 0.0050000176 0.75 1.3002014e-38
0.029363813 0.0050133392 0.75199997 1.3550853e-38
0.030837163 0.0050200075 0.75299996 1.4015783e-38
0.032357126 0.0050333515 0.755 1.4010773e-38
-0.026780959 0.0065142959 0.75999999 6.5509806e-39
-0.025333337 0.0065142959 0.75999999 7.0130406e-39
-0.02376 0.0064800158 0.75599998 7.4693328e-39
-0.022290496 0.0064714476 0.755 6.9211743e-39
-0.020797133 0.006454289 0.75300002 6.3644202e-39
-0.019337134 0.0064457282 0.75199997 7.0126496e-39
-0.017857123 0.0064285994 0.75 7.6512017e-39
-0.016428567 0.0064286068 0.75 7.0141014e-39
-0.014960014 0.0064114481 0.74799997 6.3666006e-39
-0.013535253 0.0064114556 0.74799997 7.1038055e-39
-0.012094294 0.00640288 0.74699998 7.7452134e-39
-0.010642909 0.0063857511 0.74499995 7.2892603e-39
-0.0092238318 0.0063857287 0.745 6.7371894e-39
-0.0078048087 0.0063857287 0.74499995 7.2939617e-39
-0.0063685677 0.0063685924 0.74299997 7.7531504e-39
-0.0049533085 0.0063685849 0.74299997 7.9368326e-39
-0.0035381042 0.0063685849 0.74299997 8.0286639e-39
-0.0021200036 0.0063600019 0.74199998 8.3967177e-39
-0.00070666953 0.0063600168 0.74199998 8.6682473e-39
0.00070473494 0.0063428655 0.73999989 4.6131054e-39
0.0021142545 0.0063428655 0.73999995 4.733348e-40
0.0035237684 0.006342873 0.73999995 8.3888592e-40
0.0049333139 0.0063428655 0.73999995 1.1129491e-39
0.0063342932 0.0063343048 0.73899996 9.2783615e-40
0.0077418867 0.0063342974 0.7389999 7.4451968e-40
0.0091618625 0.0063428655 0.73999995 5.6012562e-40
0.010571407 0.006342873 0.73999995 2.86417e-40
0.012013321 0.0063600093 0.74199998 3.8112796e-40
0.013426659 0.0063600019 0.74199998 3.8005737e-40
0.014839993 0.0063600168 0.74199998 2.8751141e-40
0.016253332 0.0063600093 0.74199998 1.9711645e-40
0.0176905 0.0063685849 0.74299997 9.3359969e-40
0.019105731 0.0063685924 0.74299997 1.5771684e-39
0.020520965 0.0063685924 0.74299997 1.210188e-39
0.022054294 0.0064028874 0.74699998 7.4884689e-40
0.023477135 0.0064028874 0.74699992 3.1333314e-39
0.024933295 0.0064114556 0.74799997 5.4478785e-39
0.026358088 0.0064114556 0.74799997 1.0610402e-38
0.027857153 0.0064285845 0.75 1.5667791e-38
0.029285708 0.0064285919 0.75 1.6591866e-38
0.030796172 0.0064457133 0.75199997 1.7416604e-38
0.032228574 0.0064457208 0.75199997 1.7417694e-38
0.033660948 0.0064457208 0.75199997 1.7324424e-38
0.035093326 0.0064457282 0.75199997 1.7603159e-38
-0.026710456 0.0079409629 0.75799996 5.998181e-39
-0.025266653 0.0079409704 0.75799996 6.1843743e-39
-0.023760026 0.0079200193 0.75599992 6.4638213e-39
-0.022290496 0.0079095438 0.755 6.0936038e-39
-0.020797145 0.0078886002 0.75299996 5.7287758e-39
-0.019362843 0.0078885779 0.75299996 5.9996215e-39
-0.017904745 0.0078781098 0.75199997 6.1847303e-39
-0.016428564 0.0078571662 0.75 6.0017795e-39
-0.015000009 0.0078571662 0.75 5.8217113e-39
-0.013535255 0.0078362226 0.74799997 6.2794693e-39
-0.012110518 0.0078362077 0.74799997 6.7429459e-39
-0.01067146 0.0078257471 0.74699992 6.5553233e-39
-0.0092238495 0.0078047812 0.745 6.3748879e-39
-0.0078047994 0.0078047737 0.74499995 7.1095788e-39
-0.0063857478 0.0078047737 0.745 7.7531616e-39
-0.0049533066 0.0077838153 0.74299997 8.0286849e-39
-0.0035381024 0.0077838227 0.74299997 8.2127034e-39
-0.0021200092 0.0077733397 0.74199998 8.5811104e-39
-0.00070667139 0.0077733397 0.74199998 8.8572993e-39
0.00070475356 0.0077523887 0.73999995 4.8003581e-39
0.0021142676 0.0077524036 0.73999995 6.4946821e-40
0.0035333331 0.0077733546 0.74199998 1.0204003e-39
0.004946671 0.0077733323 0.74199998 1.2966201e-39
0.0063428464 0.0077523887 0.73999995 1.0207492e-39
0.0077523622 0.0077523962 0.73999995 8.3779291e-40
0.0091866767 0.0077733397 0.74199998 5.6048996e-40
0.010599982 0.0077733472 0.74199998 3.7753783e-40
0.012013346 0.0077733472 0.74199998 4.7080966e-40
0.013426654 0.0077733397 0.74199998 6.5412752e-40
0.014840018 0.0077733397 0.74199998 5.6265496e-40
0.016275246 0.0077838302 0.74299997 4.722586e-40
0.017690504 0.0077838153 0.74299997 1.0250694e-39
0.019105734 0.0077838302 0.74299997 1.577523e-39
0.020631418 0.0078257322 0.74699998 1.5771698e-39
0.022054283 0.0078257397 0.74699992 1.4831707e-39
0.023508551 0.0078362152 0.74799997 2.4040256e-39
0.024933314 0.0078362226 0.74799997 3.3360376e-39
0.026428577 0.0078571513 0.75 9.1371232e-39
0.027857158 0.0078571588 0.75 1.5028207e-38
0.029285714 0.0078571662 0.75 1.5762872e-38
0.030796187 0.0078780949 0.75199997 1.6589406e-38
0.032228559 0.0078780949 0.75199997 1.6588703e-38
0.033660933 0.0078781098 0.75199997 1.6589076e-38
-0.026710471 0.0093847662 0.75799996 5.3538878e-39
-0.025266666 0.0093847737 0.75799996 5.4457331e-39
-0.023760021 0.0093600154 0.75599998 5.4464478e-39
-0.022320036 0.0093600154 0.75599998 5.2599041e-39
-0.020852404 0.0093476176 0.755 5.0762289e-39
-0.019362852 0.0093228668 0.75300002 4.8886077e-39
-0.017904758 0.0093104914 0.75199997 4.707459e-39
-0.016428584 0.0092857331 0.75 4.9865626e-39
-0.014999975 0.0092857406 0.75 5.2642257e-39
-0.013535258 0.0092609823 0.74799997 5.5411713e-39
-0.012110521 0.0092609748 0.74799997 5.7244892e-39
-0.010671439 0.009248592 0.74699998 5.9060134e-39
-0.0092238383 0.0092238262 0.74499995 6.0010817e-39
-0.0078047863 0.0092238262 0.745 6.9248232e-39
-0.0063857385 0.0092238337 0.745 7.7524315e-39
-0.0049667149 0.0092238188 0.74499995 8.1201448e-39
-0.0035381024 0.009199068 0.74299997 8.396366e-39
-0.0021199821 0.0091866851 0.74199998 8.7658562e-39
-0.00070667511 0.0091866702 0.74199998 9.0388123e-39
0.00070474052 0.0091619045 0.73999995 4.9901205e-39
0.0021199971 0.0091866776 0.74199998 8.4102851e-40
0.0035333293 0.0091866851 0.74199998 1.2040727e-39
0.0049466672 0.0091866776 0.74199998 1.4806484e-39
0.0063428353 0.0091619194 0.73999995 1.2047776e-39
0.0077523473 0.0091619343 0.73999995 8.3635378e-40
0.009186646 0.0091866851 0.74199998 6.5052619e-40
0.010600008 0.0091866776 0.74199998 4.6901039e-40
0.012013315 0.0091866776 0.74199998 6.5376179e-40
0.013426679 0.0091866776 0.74199998 8.3743838e-40
0.014860014 0.009199053 0.74299997 7.4524976e-40
0.016275246 0.0091990605 0.74299997 6.5592679e-40
0.017738061 0.0092238262 0.745 1.1172595e-39
0.01915714 0.0092238262 0.745 1.5775174e-39
0.020631408 0.009248592 0.74699992 1.9452223e-39
0.022054281 0.009248592 0.74699998 2.2181994e-39
0.023508551 0.0092609748 0.74799997 1.6628648e-39
0.024933314 0.0092609823 0.74799997 1.1240754e-39
0.02642858 0.0092857406 0.75 7.7574243e-39
0.02793142 0.0093104839 0.75199997 1.4288855e-38
0.029363824 0.0093104765 0.75199997 1.5025683e-38
0.030796198 0.0093104839 0.75199997 1.5760016e-38
0.032228544 0.0093104839 0.75199997 1.5758948e-38
-0.026710456 0.010828577 0.75799996 5.9034574e-39
-0.025266653 0.010828584 0.75799996 5.7205109e-39
-0.023760015 0.010800019 0.75599998 5.6268818e-39
-0.02232003 0.010800019 0.75599998 5.2584622e-39
-0.020852406 0.010785721 0.755 4.9789998e-39
-0.019362833 0.010757156 0.75300002 4.7020472e-39
-0.017904773 0.010742873 0.75199997 4.4233303e-39
-0.016428579 0.010714315 0.75 4.154658e-39
-0.014999994 0.0107143 0.75 3.9727736e-39
-0.013535262 0.010685734 0.74799997 4.3415421e-39
-0.012110499 0.010685742 0.74799991 4.7989442e-39
-0.010671449 0.010671459 0.74699998 5.0744675e-39
-0.0092485808 0.010671459 0.74699992 5.3489006e-39
-0.0078257108 0.010671437 0.74699998 6.4624074e-39
-0.0063857543 0.010642879 0.745 7.5683892e-39
-0.0049666767 0.010642871 0.745 7.8442628e-39
-0.0035380987 0.010614291 0.74299997 8.2112503e-39
-0.002120011 0.010600016 0.74199998 8.4885546e-39
-0.00070667884 0.010600023 0.74199998 8.7658127e-39
0.00070665905 0.010600008 0.74199998 4.8024951e-39
0.0021199933 0.010600016 0.74199998 7.4452529e-40
0.0035333312 0.010600001 0.74199998 1.1133134e-39
0.0049466635 0.010600016 0.74199998 1.5735601e-39
0.0063600014 0.010600008 0.74199998 1.2047762e-39
0.0077733356 0.010600001 0.74199998 8.3599224e-40
0.009186673 0.010600001 0.74199998 6.5195411e-40
0.010600007 0.010600008 0.74199998 5.6155915e-40
0.012029527 0.010614291 0.74299997 6.5375898e-40
0.013444757 0.010614306 0.74299997 7.4596022e-40
0.014860015 0.010614306 0.74299997 7.4668329e-40
0.016275248 0.010614306 0.74299997 7.4776089e-40
0.017738072 0.010642879 0.74499995 1.117614e-39
0.019208558 0.010671459 0.74699992 1.5785879e-39
0.020631427 0.010671444 0.74699998 1.9452153e-39
0.02208378 0.010685749 0.74799997 2.2203392e-39
0.023508575 0.010685734 0.74799997 1.5713671e-39
0.025000028 0.0107143 0.75 9.2316842e-40
0.026428584 0.010714307 0.75 7.6601925e-39
0.027931439 0.010742866 0.75199997 1.4476111e-38
0.029363813 0.010742866 0.75199997 1.5117526e-38
0.030796187 0.010742866 0.75199997 1.5757863e-38
-0.025266668 0.012272388 0.75799996 6.0889263e-39
-0.023760041 0.012240022 0.75599992 5.7197934e-39
-0.022319999 0.012240015 0.75599998 5.259544e-39
-0.020852406 0.012223817 0.755 4.7971295e-39
-0.019362843 0.012191437 0.75300002 4.4258344e-39
-0.017857157 0.012142867 0.75 4.0602959e-39
-0.016428575 0.012142882 0.75 3.3277742e-39
-0.01499999 0.012142874 0.75 2.5945153e-39
-0.013535266 0.012110502 0.74799997 3.2369966e-39
-0.012110502 0.012110509 0.74799997 3.7873048e-39
-0.010671458 0.012094319 0.74699992 4.2439837e-39
-0.0092485612 0.012094319 0.74699998 4.6170781e-39
-0.0078257192 0.012094304 0.74699992 6.0075375e-39
-0.0063857459 0.012061924 0.74499995 7.3850769e-39
-0.0049666916 0.012061916 0.745 7.6602331e-39
-0.0035380987 0.012029544 0.74299997 7.935385e-39
-0.0021200157 0.012013346 0.74199998 8.2116132e-39
-0.00070665276 0.012013346 0.74199998 8.4849281e-39
0.00070665532 0.012013353 0.74199998 4.6177535e-39
0.0021200194 0.012013339 0.74199998 6.5807498e-40
0.0035333275 0.012013346 0.74199998 1.1151099e-39
0.0049466896 0.012013346 0.74199998 1.5732028e-39
0.0063685752 0.012029544 0.74299997 1.2051335e-39
0.0077733309 0.012013353 0.74199998 7.4451548e-40
0.0091990633 0.012029536 0.74299997 6.5195831e-40
0.010614294 0.012029544 0.74299997 5.6120322e-40
0.012029528 0.012029536 0.74299997 6.5411912e-40
0.013444758 0.012029544 0.74299997 6.5484079e-40
0.014860016 0.012029529 0.74299997 7.4739795e-40
0.016319031 0.012061931 0.745 7.4847695e-40
0.017738055 0.012061916 0.74499995 1.209811e-39
0.019208578 0.012094304 0.74699998 1.5775131e-39
0.020631421 0.012094297 0.74699998 1.9452167e-39
0.022083776 0.012110509 0.74799997 2.2192686e-39
0.02357142 0.012142874 0.75 1.4795428e-39
0.025000006 0.012142874 0.75 6.6238538e-40
0.02649905 0.012175247 0.75199997 7.6677469e-39
0.027931424 0.012175255 0.75199997 1.4564369e-38
0.029363798 0.012175247 0.75199997 1.5210439e-38
0.030837141 0.01219146 0.75299996 1.5758584e-38
0.0323571 0.012223832 0.755 1.5850062e-38
-0.025266653 0.013716199 0.75799996 5.7197878e-39
-0.02376001 0.013680018 0.75599998 5.5357651e-39
-0.022320023 0.013680026 0.75599992 5.2595482e-39
-0.020852407 0.013661914 0.755 4.8911258e-39
-0.019362854 0.013625734 0.75299996 4.7060143e-39
-0.017904771 0.013607629 0.75199997 4.5230635e-39
-0.016428567 0.013571441 0.75 4.0646049e-39
-0.014999987 0.013571456 0.75 3.6979692e-39
-0.013535242 0.013535261 0.74799997 3.880194e-39
-0.012110506 0.013535261 0.74799997 4.1549915e-39
-0.010671436 0.013517164 0.74699998 3.6940287e-39
-0.0092485705 0.013517179 0.74699992 3.2355911e-39
-0.0078047854 0.013480969 0.745 5.5440566e-39
-0.0063857618 0.013480961 0.74499995 7.7524203e-39
-0.0049666842 0.013480961 0.745 7.8431852e-39
-0.0035380959 0.013444766 0.74299997 7.9335914e-39
-0.0021199905 0.013426669 0.74199998 8.2112545e-39
-0.00070668256 0.013426676 0.74199998 8.5792775e-39
0.00070667954 0.013426676 0.74199998 4.7085184e-39
0.0021199877 0.013426684 0.74199998 7.4668609e-40
0.0035381126 0.013444774 0.74299997 1.1143952e-39
0.0049533476 0.013444766 0.74300003 1.572844e-39
0.0063685761 0.013444774 0.74299997 1.2047734e-39
0.0077838064 0.013444781 0.74299997 8.3599364e-40
0.0091990661 0.013444774 0.74299997 7.4379661e-40
0.010614295 0.013444774 0.74299997 7.4451688e-40
0.012029529 0.013444766 0.74299997 7.4595461e-40
0.013444759 0.013444774 0.74299997 6.5483938e-40
0.014860019 0.013444774 0.74299997 7.4739375e-40
0.016275248 0.013444781 0.74299997 9.3178921e-40
0.017738095 0.013480969 0.745 1.2087362e-39
0.019208571 0.013517179 0.74699998 1.4849616e-39
0.020631412 0.013517164 0.74699992 1.9452167e-39
0.022083772 0.013535261 0.74799997 2.4047389e-39
0.023571424 0.013571449 0.75 2.218184e-39
0.025000013 0.013571449 0.75 2.1292576e-39
0.026499035 0.013607629 0.75199997 7.6638204e-39
0.027968595 0.013625726 0.75299996 1.3280118e-38
0.029363813 0.013607629 0.75200003 1.3185753e-38
0.030837137 0.013625734 0.75299996 1.3185397e-38
0.032271437 0.013625734 0.75300002 1.3183607e-38
-0.025266672 0.015160009 0.7579999 5.4439212e-39
-0.023760004 0.015120022 0.75599998 5.3524515e-39
-0.022320017 0.015120022 0.75599998 5.16807e-39
-0.020852407 0.015100017 0.755 4.9840347e-39
-0.019362863 0.01506003 0.75299996 4.983313e-39
-0.017904786 0.01504001 0.75199997 4.9836731e-39
-0.016428564 0.015000008 0.75 4.8929167e-39
-0.014960039 0.014960036 0.74799997 4.7088785e-39
-0.013535245 0.014960036 0.74799997 4.6148822e-39
-0.012094288 0.014940016 0.74699998 4.5234125e-39
-0.010671445 0.014940023 0.74699998 3.2337765e-39
-0.009248578 0.014940031 0.74699992 1.8612901e-39
-0.0078048003 0.014900014 0.745 4.9973512e-39
-0.0063857227 0.014900014 0.745 8.119405e-39
-0.0049667009 0.014900021 0.745 8.0261387e-39
-0.0035476512 0.014900021 0.74499995 7.8428363e-39
-0.0021228655 0.014860019 0.74299997 8.3045361e-39
-0.00070668815 0.014840014 0.74199998 8.6682473e-39
0.00070667581 0.014840014 0.74199998 4.7981987e-39
0.002122886 0.014860012 0.74299997 8.4031245e-40
0.0035381163 0.014860019 0.74299997 1.2062293e-39
0.0049533206 0.014860027 0.74299997 1.4810099e-39
0.0063685789 0.014860019 0.74299997 1.205495e-39
0.0077838092 0.014860019 0.74299997 8.3635378e-40
0.0091990689 0.014860012 0.74299997 9.2603268e-40
0.010614299 0.014860012 0.74299997 9.2818787e-40
0.012061873 0.014900021 0.745 8.3779011e-40
0.013444762 0.014860019 0.74299997 6.5483238e-40
0.014860022 0.014860012 0.74299997 8.3849917e-40
0.016319027 0.014900006 0.74499995 1.023975e-39
0.017785719 0.014940031 0.74699998 1.2083761e-39
0.01920856 0.014940038 0.74699992 1.3934848e-39
0.020659033 0.014960021 0.74799997 1.9452195e-39
0.022083795 0.014960036 0.74799997 2.4947891e-39
0.023571433 0.015000015 0.75 3.0429238e-39
0.025000015 0.015000015 0.75 3.516843e-39
0.026499046 0.015040018 0.75199997 7.7610411e-39
0.027968587 0.015060008 0.75300002 1.1896137e-38
0.02940286 0.015060015 0.75299996 1.1250407e-38
0.030837156 0.015060022 0.75299996 1.0516442e-38
0.032271452 0.015060008 0.75300002 1.0513575e-38
0.033795215 0.015100017 0.755 1.051573e-38
-0.025266683 0.01660382 0.7579999 5.6290257e-39
-0.023760028 0.016560026 0.75599992 5.8134212e-39
-0.022320012 0.016560018 0.75599998 5.5368455e-39
-0.020880027 0.016560026 0.75599998 5.2613334e-39
-0.019414317 0.016538113 0.755 5.3524459e-39
-0.017904742 0.016472392 0.75199997 5.3520899e-39
-0.016428558 0.016428582 0.75 5.3535263e-39
-0.015000004 0.016428582 0.75 5.3542381e-39
-0.013535249 0.016384788 0.74799997 5.6293803e-39
-0.012094296 0.016362883 0.74699998 5.9978055e-39
-0.010671454 0.016362883 0.74699992 5.07551e-39
-0.0092485575 0.016362883 0.74699998 4.059245e-39
-0.0078047919 0.016319066 0.74499995 5.9099693e-39
-0.0063857394 0.016319066 0.745 7.8438999e-39
-0.0049666907 0.016319074 0.74499995 7.842109e-39
-0.0035476382 0.016319066 0.745 7.8417657e-39
-0.0021228618 0.016275257 0.74299997 8.2123517e-39
-0.00070760271 0.016275249 0.74299997 8.5828732e-39
0.00070762762 0.016275257 0.74299997 4.6163186e-39
0.002122886 0.016275264 0.74299997 7.423771e-40
0.0035381163 0.016275257 0.74299997 1.1125973e-39
0.0049533206 0.016275249 0.74299997 1.4802925e-39
0.0063685817 0.016275249 0.74299997 1.2047804e-39
0.0077838101 0.016275257 0.74299997 9.2890814e-40
0.0091990698 0.016275249 0.74299997 8.3598944e-40
0.010642836 0.016319059 0.745 7.4523435e-40
0.012061884 0.016319074 0.74499995 7.4631335e-40
0.013480936 0.016319059 0.745 8.388565e-40
0.014899984 0.016319074 0.745 9.3139825e-40
0.016319009 0.016319059 0.74499995 1.0250442e-39
0.017785711 0.016362883 0.74699992 1.3016437e-39
0.019208582 0.016362883 0.74699998 1.5785921e-39
0.020659031 0.01638478 0.74799997 2.22037e-39
0.022142852 0.016428597 0.75 2.8610633e-39
0.023571437 0.016428582 0.75 3.4188894e-39
0.025066661 0.016472399 0.75199997 4.072888e-39
0.026499065 0.016472392 0.75199997 7.7570978e-39
0.027968602 0.016494296 0.75300002 1.152737e-38
0.029402874 0.016494289 0.75299996 1.0881646e-38
0.030837145 0.016494296 0.75299996 1.0330993e-38
0.032357126 0.016538106 0.755 1.0236288e-38
0.033795219 0.016538121 0.755 1.0145527e-38
-0.02526667 0.018047638 0.75799996 5.904891e-39
-0.023760023 0.018000022 0.75599998 6.2722386e-39
-0.022320038 0.018000022 0.75599992 5.9049022e-39
-0.020852407 0.01797621 0.755 5.5375588e-39
-0.019362852 0.017928585 0.75299996 5.6290355e-39
-0.017904757 0.017904773 0.75199997 5.7216011e-39
-0.016428581 0.017857149 0.75 5.8148842e-39
-0.014960019 0.017809547 0.74799997 5.9070672e-39
-0.013535253 0.017809547 0.74799997 6.734653e-39
-0.012094305 0.017785743 0.74699992 7.4689769e-39
-0.010671435 0.017785735 0.74699998 6.9186814e-39
-0.0092485929 0.017785735 0.74699998 6.2740588e-39
-0.0078048096 0.017738126 0.74499995 6.923024e-39
-0.0063857301 0.017738111 0.745 7.4740398e-39
-0.0049800132 0.017785743 0.74699992 7.6569975e-39
-0.0035476307 0.017738111 0.745 7.7495617e-39
-0.0021228627 0.017690495 0.74299997 8.1205022e-39
-0.00070760085 0.017690487 0.74299997 8.4824169e-39
0.00070762949 0.017690487 0.74299997 4.5248334e-39
0.0021228599 0.017690495 0.74299991 5.6408289e-40
0.0035381182 0.017690487 0.74299997 1.0214793e-39
0.0049533225 0.017690495 0.74299997 1.3884556e-39
0.0063685826 0.017690495 0.74299997 1.2047776e-39
0.0077838111 0.01769051 0.74299997 9.2855221e-40
0.0091990707 0.017690487 0.74299997 7.4380222e-40
0.010614301 0.017690487 0.74299997 5.6157036e-40
0.012061867 0.017738111 0.74499995 7.4632315e-40
0.013480945 0.017738111 0.745 9.3106194e-40
0.014899968 0.017738111 0.745 9.3177099e-40
0.016362863 0.017785735 0.74699992 9.328584e-40
0.017785702 0.017785743 0.74699992 1.3023654e-39
0.019234261 0.017809547 0.74799997 1.669713e-39
0.020659054 0.017809547 0.74799997 2.4040424e-39
0.022142855 0.017857172 0.75 3.1401543e-39
0.023571441 0.017857149 0.75 3.8816472e-39
0.025066676 0.017904773 0.75200003 4.5320599e-39
0.026534298 0.017928593 0.75299996 7.8500081e-39
0.027968569 0.0179286 0.75299996 1.1064246e-38
0.029402871 0.017928593 0.75300002 1.0601479e-38
0.030919006 0.017976217 0.75499994 1.014266e-38
0.032357126 0.01797621 0.755 9.9550429e-39
0.033839967 0.018000029 0.75599998 9.7735215e-39
-0.025200004 0.019440025 0.75599998 5.5371888e-39
-0.023822879 0.019491434 0.7579999 5.8130583e-39
-0.022320032 0.019440018 0.75599998 5.6297502e-39
-0.020852407 0.019414306 0.755 5.4460848e-39
-0.019414319 0.019414313 0.75499994 5.446089e-39
-0.01790477 0.019337155 0.75199997 5.4468303e-39
-0.016428575 0.019285738 0.75 5.5394057e-39
-0.01500002 0.019285738 0.75 5.5411839e-39
-0.013535284 0.019234322 0.74799997 5.9081504e-39
-0.012094284 0.019208595 0.74699998 6.3676796e-39
-0.010671442 0.019208595 0.74699998 5.4457303e-39
-0.0092486022 0.019208603 0.74699992 4.5313354e-39
-0.0078361975 0.019234315 0.74799997 4.2529731e-39
-0.0063857469 0.019157164 0.745 4.0739684e-39
-0.0049799928 0.019208588 0.74699998 4.1607844e-39
-0.0035476456 0.019157149 0.745 4.2558569e-39
-0.002122859 0.019105732 0.74299997 4.3444709e-39
-0.00070760085 0.019105725 0.74299997 4.5280984e-39
0.00070762949 0.019105732 0.74299997 2.4972694e-39
0.0021199766 0.019080006 0.74199998 5.5977389e-40
0.0035333387 0.019080013 0.74199998 9.2892636e-40
0.0049533225 0.019105718 0.74299997 1.2966187e-39
0.0063685826 0.019105725 0.74299997 1.1129393e-39
0.0077838139 0.019105732 0.74299997 9.2855361e-40
0.0091990717 0.019105725 0.74299997 6.5269119e-40
0.010614302 0.01910574 0.74299997 4.70102e-40
0.012029536 0.019105732 0.74300003 6.5449607e-40
0.013444766 0.019105725 0.74299997 9.3143188e-40
0.014899977 0.019157156 0.74499995 8.3958938e-40
0.016319031 0.019157156 0.745 8.3923905e-40
0.017785721 0.019208595 0.74699998 1.2087404e-39
0.019234257 0.0192343 0.74799997 1.6693571e-39
0.020714277 0.019285738 0.75 1.8526721e-39
0.022142865 0.019285731 0.75 2.1274499e-39
0.023571445 0.019285731 0.75 3.7880096e-39
0.025066661 0.019337162 0.75199997 5.5383001e-39
0.026534287 0.019362867 0.75299996 8.3970723e-39
0.027968558 0.019362874 0.75299996 1.1339035e-38
0.029402886 0.019362874 0.75300002 1.0970616e-38
0.030919006 0.019414313 0.75499994 1.0693674e-38
0.03239999 0.019440018 0.75599998 1.0417808e-38
0.033840001 0.019440018 0.75599998 1.0141941e-38
-0.025266672 0.020935252 0.75799996 5.1691308e-39
-0.023822868 0.020935245 0.7579999 5.2616866e-39
-0.022320027 0.020880014 0.75599998 5.3542437e-39
-0.020880016 0.020880021 0.75599998 5.3542479e-39
-0.019414289 0.020852402 0.755 5.2620579e-39
-0.017904785 0.020769529 0.75199997 5.1705952e-39
-0.016472381 0.020769522 0.75199997 5.1709693e-39
-0.014999987 0.020714305 0.75 5.1720343e-39
-0.01357143 0.020714298 0.75 5.1731007e-39
-0.012110495 0.020659074 0.74799997 5.1698707e-39
-0.010685734 0.020659074 0.74799997 3.9652459e-39
-0.0092857061 0.020714305 0.75 2.7728193e-39
-0.0078362012 0.020659074 0.74799997 1.6668473e-39
-0.0063857376 0.020576209 0.74499995 5.6877163e-40
-0.0049800011 0.020631447 0.74699998 6.5666528e-40
-0.0035476373 0.020576201 0.745 6.602554e-40
-0.002122859 0.02052097 0.74299997 5.6483539e-40
-0.00070763065 0.020520978 0.74299997 4.7477113e-40
0.00070763135 0.020520963 0.74299997 5.5976969e-40
0.0021228618 0.020520963 0.74299997 5.6121163e-40
0.0035381219 0.020520963 0.74299997 8.3744259e-40
0.0049533243 0.02052097 0.74299997 1.1133036e-39
0.0063685845 0.02052097 0.74299997 1.0211066e-39
0.0077838148 0.020520978 0.74299997 9.2855501e-40
0.0091990726 0.020520955 0.74299997 6.5197373e-40
0.010614303 0.020520963 0.74299997 2.8571074e-40
0.012029507 0.02052097 0.74299997 5.619375e-40
0.013444767 0.02052097 0.74299997 8.3887752e-40
0.014899962 0.020576224 0.74499995 7.4739935e-40
0.01631904 0.020576209 0.745 6.5556806e-40
0.017785715 0.020631455 0.74699992 1.1151099e-39
0.019234279 0.020659067 0.74799997 1.5764454e-39
0.020659015 0.020659074 0.74799991 1.3009431e-39
0.022142868 0.020714298 0.75 1.0265016e-39
0.023571426 0.020714305 0.75 3.7883698e-39
0.025066646 0.020769529 0.75199997 6.5535142e-39
0.026534306 0.020797156 0.75299996 9.0449458e-39
0.027968576 0.020797156 0.75299996 1.1523785e-38
0.029402878 0.020797156 0.75300002 1.1339397e-38
0.03091904 0.020852402 0.755 1.1155003e-38
0.032357126 0.020852409 0.755 1.0788733e-38
0.033795215 0.020852387 0.755 1.0420312e-38
-0.025266659 0.022379048 0.75799996 5.0772953e-39
-0.023822853 0.022379056 0.7579999 5.1698511e-39
-0.02237905 0.022379063 0.7579999 5.1702126e-39
-0.02088001 0.022320025 0.75599998 5.2620523e-39
-0.019414289 0.022290491 0.755 5.1702196e-39
-0.017928582 0.022231437 0.75299996 5.0783911e-39
-0.016472394 0.022201911 0.75199997 5.0787555e-39
