# .PCD v0.7 - Point Cloud Data file format
VERSION 0.7
FIELDS x y z rgb
SIZE 4 4 4 4
TYPE F F F F
COUNT 1 1 1 1
WIDTH 974
HEIGHT 1
VIEWPOINT 0 0 0 1 0 0 0
POINTS 974
DATA ascii
0.003561896 -0.044879988 0.74800003 2.2866677e-38
0.0049866596 -0.044880003 0.74800003 2.2481361e-38
0.0063857124 -0.044699997 0.745 1.9359635e-38
0.007783806 -0.044579998 0.74299997 1.6224679e-38
0.0091990409 -0.044579983 0.74299997 1.6604584e-38
0.010614276 -0.044579998 0.74299997 1.6868615e-38
0.012029512 -0.044579983 0.74299991 1.6326575e-38
0.013444759 -0.044579998 0.74299997 1.576192e-38
0.014839988 -0.044520006 0.74199998 1.5217715e-38
0.016275229 -0.044579998 0.74299997 1.456482e-38
0.017785704 -0.044819981 0.74699998 1.4660959e-38
0.019208573 -0.044820011 0.74699998 1.474738e-38
0.020659044 -0.044880003 0.74799997 1.2910997e-38
0.022083806 -0.044880003 0.74800003 1.1060264e-38
0.023508569 -0.044880003 0.74800003 8.6678452e-39
0.024999985 -0.045000002 0.75 6.2722021e-39
0.026499033 -0.045120001 0.75199991 5.7147053e-39
0.027968572 -0.045179993 0.75299996 5.1622364e-39
0.029402863 -0.045180008 0.75299996 5.5302762e-39
0.030714272 -0.045000002 0.75 5.8050498e-39
-0.016603829 -0.044036195 0.75799996 3.3191113e-39
-0.015120011 -0.043919995 0.75599998 3.5881719e-39
-0.01366191 -0.043861896 0.755 3.3176974e-39
-0.01224002 -0.043919981 0.75599998 3.0357492e-39
-0.010800006 -0.043919995 0.75599998 4.8843113e-39
-0.0093476176 -0.043861896 0.75500005 6.7121412e-39
-0.0079095252 -0.043861896 0.755 8.7602328e-39
-0.0064714374 -0.043861911 0.755 1.0792816e-38
-0.0050000213 -0.043571427 0.74999994 1.1068686e-38
-0.0035714433 -0.043571427 0.75 1.1441406e-38
-0.0021371413 -0.043455243 0.74800003 1.1436738e-38
-0.00071144215 -0.043397143 0.74699998 1.1530367e-38
0.00071237428 -0.043455228 0.74799997 1.162292e-38
0.0021371301 -0.043455228 0.74799997 1.1726239e-38
0.0035619005 -0.043455243 0.74799997 1.1528581e-38
0.0049866568 -0.043455243 0.74799997 1.1336991e-38
0.0064028534 -0.043397143 0.74699998 9.773607e-39
0.0078257052 -0.043397129 0.74699998 8.2127595e-39
0.0092485677 -0.043397129 0.74699998 8.3027985e-39
0.010614272 -0.04316476 0.74299997 8.4846744e-39
0.012029514 -0.043164745 0.74299991 8.2080903e-39
0.013444761 -0.04316476 0.74299997 7.9279077e-39
0.014859997 -0.04316476 0.74299997 7.6548983e-39
0.016275231 -0.04316476 0.74299997 7.3815527e-39
0.017690467 -0.043164775 0.74299997 7.5698942e-39
0.019157134 -0.043280959 0.745 7.7589153e-39
0.020631429 -0.043397143 0.74699998 6.7390069e-39
0.022054279 -0.043397143 0.74699998 5.7183711e-39
0.023508566 -0.043455243 0.74799997 4.6148668e-39
0.024999982 -0.043571427 0.75 3.5088822e-39
0.026499029 -0.043687612 0.75199997 3.9669709e-39
0.027931416 -0.043687597 0.75199997 4.5176055e-39
0.029363791 -0.043687597 0.75199997 5.069675e-39
0.030837145 -0.043745711 0.75299996 5.7121438e-39
-0.015120017 -0.042479977 0.75599998 9.736502e-41
-0.013661901 -0.042423829 0.755 9.3428773e-41
-0.012223823 -0.0424238 0.755 9.4865103e-41
-0.010785721 -0.0424238 0.755 9.2356779e-41
-0.0093104839 -0.042255238 0.75199997 9.4911346e-41
-0.0078781042 -0.042255238 0.75199997 9.244366e-41
-0.0064457245 -0.042255223 0.75199997 1.0428743e-40
-0.0050000134 -0.042142853 0.75 9.245487e-41
-0.003561907 -0.042030483 0.74800003 1.0574198e-40
-0.0021371515 -0.042030483 0.74800003 9.2484297e-41
-0.00071143376 -0.041974261 0.74699998 1.0505955e-40
0.00071142107 -0.041974276 0.74699998 9.2523534e-41
0.002137145 -0.042030483 0.74800003 1.1692434e-40
0.0035619007 -0.042030483 0.74800003 9.2537547e-41
0.0049799946 -0.041974276 0.74699998 1.1656141e-40
0.0063857096 -0.041861907 0.745 9.2515126e-41
0.0078047495 -0.041861907 0.745 1.1619146e-40
0.0092238076 -0.041861907 0.745 9.2515126e-41
0.010642847 -0.041861907 0.745 1.1401945e-40
0.01202951 -0.041749507 0.74299991 9.247589e-41
0.013444756 -0.041749522 0.74299997 1.0717271e-40
0.014859993 -0.041749522 0.74299997 9.2453469e-41
0.016275227 -0.041749522 0.74299997 1.0967262e-40
0.017690463 -0.041749507 0.74299997 3.8553785e-40
0.019157138 -0.041861907 0.745 6.6712737e-40
0.020631423 -0.041974276 0.74699998 5.6702561e-40
0.022054274 -0.041974276 0.74699998 3.8547759e-40
0.023508575 -0.042030483 0.74800003 5.6445703e-40
0.024999982 -0.042142853 0.75 7.5062234e-40
0.026428554 -0.042142853 0.75 2.3107342e-39
0.027931415 -0.042255238 0.75199997 3.7822293e-39
0.029363794 -0.042255223 0.75199997 4.7019953e-39
0.030796174 -0.042255223 0.75199997 5.5292042e-39
0.03227143 -0.042311415 0.75299996 6.0812668e-39
-0.016603826 -0.041148558 0.75799996 2.8355835e-40
-0.015120021 -0.041039988 0.75599998 3.7719592e-40
-0.013661902 -0.040985703 0.755 4.6652729e-40
-0.012240006 -0.041039988 0.75599998 4.6436509e-40
-0.010800016 -0.041039973 0.75599998 5.5690824e-40
-0.0093476195 -0.040985718 0.755 6.4587248e-40
-0.0079095326 -0.040985718 0.755 9.2352856e-40
-0.0064542894 -0.040877163 0.75299996 1.1943785e-39
-0.0050133546 -0.040822834 0.75199997 9.249761e-40
-0.0035714484 -0.040714294 0.75 7.3524028e-40
-0.0021371469 -0.040605709 0.74799997 2.3987147e-39
-0.00071143027 -0.040551409 0.74699998 4.1332251e-39
0.00071141502 -0.040551424 0.74699998 6.5489684e-39
0.002134284 -0.040551439 0.74699998 8.8513242e-39
0.0035571437 -0.040551424 0.74699998 9.7804523e-39
0.0049799881 -0.040551424 0.74699998 1.061702e-38
0.0064028506 -0.040551424 0.74699998 1.0704197e-38
0.0078047523 -0.040442869 0.745 1.0709223e-38
0.0092238002 -0.040442839 0.745 1.0243591e-38
0.01064285 -0.040442854 0.745 9.8772876e-39
0.012029514 -0.040334269 0.74299991 6.6500931e-39
0.01344476 -0.040334284 0.74299997 3.4275901e-39
0.014859996 -0.040334284 0.74299997 2.2269029e-39
0.016275231 -0.040334284 0.74299997 1.0280122e-39
0.017690467 -0.040334269 0.74299997 1.1223504e-39
0.01915713 -0.040442854 0.745 1.3038704e-39
0.020631433 -0.040551424 0.74699998 9.37606e-40
0.022054277 -0.040551439 0.74699998 5.691724e-40
0.023508569 -0.040605694 0.74800003 8.4358728e-40
0.024999985 -0.040714279 0.75 1.0265212e-39
0.026428554 -0.040714279 0.75 2.0363333e-39
0.027931422 -0.040822864 0.75199997 3.1386886e-39
0.0293638 -0.040822849 0.75199997 4.0588078e-39
0.030796178 -0.040822834 0.75199997 4.9785654e-39
0.032228559 -0.040822849 0.75199997 5.6220991e-39
0.033660937 -0.040822849 0.75199997 6.2649532e-39
-0.016560014 -0.039599985 0.75599998 5.6158858e-40
-0.015120012 -0.039599985 0.75599998 6.5486741e-40
-0.013680012 -0.0396 0.75599998 7.4778891e-40
-0.012240009 -0.039599985 0.75599998 8.3926848e-40
-0.010785714 -0.039547637 0.755 1.0243772e-39
-0.0093476251 -0.039547622 0.75500005 1.1155078e-39
-0.0078885779 -0.039442867 0.75299996 1.7612374e-39
-0.0064542983 -0.039442852 0.75299996 2.3129874e-39
-0.0050133495 -0.03939046 0.75199997 1.8617231e-39
-0.0035714509 -0.039285704 0.75 1.3125192e-39
-0.0021371464 -0.039180964 0.74800003 4.8169929e-39
-0.00071143679 -0.039128572 0.74699998 8.2221005e-39
0.00071141875 -0.039128572 0.74699998 1.2935147e-38
0.0021285634 -0.039023817 0.745 1.7614816e-38
0.0035476116 -0.039023817 0.745 1.9376916e-38
0.004966659 -0.039023817 0.745 2.1112824e-38
0.0063857092 -0.039023802 0.745 2.121363e-38
0.0078047565 -0.039023817 0.745 2.1296857e-38
0.0092238039 -0.039023817 0.745 2.047895e-38
0.010642843 -0.039023787 0.745 1.954515e-38
0.012029521 -0.038919032 0.74299997 1.3202384e-38
0.013444755 -0.038919061 0.74299997 6.7548794e-39
0.01486 -0.038919047 0.74299997 4.3589e-39
0.016275227 -0.038919047 0.74299997 1.8678594e-39
0.017738085 -0.039023802 0.745 1.9561048e-39
0.019157134 -0.039023802 0.745 1.9528579e-39
0.020631425 -0.039128557 0.74699998 1.401468e-39
0.022054279 -0.039128542 0.74699998 7.5572867e-40
0.023508569 -0.039180949 0.74799997 1.0297806e-39
0.024933325 -0.039180949 0.74799997 1.3031151e-39
0.026428556 -0.039285704 0.74999994 1.8523148e-39
0.027857125 -0.03928569 0.74999994 2.4043759e-39
0.029363804 -0.039390489 0.75199997 3.415616e-39
0.030796187 -0.03939046 0.75199997 4.3357324e-39
0.032228567 -0.03939046 0.75199997 5.0721778e-39
0.033660945 -0.039390475 0.75199997 5.8050526e-39
-0.01656002 -0.038159996 0.75599998 4.7191669e-40
-0.015100012 -0.038109526 0.755 6.5739255e-40
-0.013661909 -0.038109526 0.755 8.4215095e-40
-0.012223817 -0.038109511 0.755 9.3651299e-40
-0.010785715 -0.038109511 0.755 1.1201994e-39
-0.0093228528 -0.038008586 0.75300002 1.3971674e-39
-0.0078885732 -0.038008556 0.75299996 1.8585225e-39
-0.0064457343 -0.037958086 0.75199997 2.4145914e-39
-0.0050000213 -0.03785716 0.75 1.8679168e-39
-0.0035714386 -0.037857145 0.75 1.4177077e-39
-0.002142871 -0.037857145 0.75 5.1951599e-39
-0.00071143307 -0.037705705 0.74699998 9.0737747e-39
0.0007114262 -0.037705705 0.74699998 1.4410278e-38
0.0021342812 -0.037705705 0.74699998 1.9836106e-38
0.0035571405 -0.037705705 0.74699998 2.0754461e-38
0.0049799928 -0.03770569 0.74699998 2.1672816e-38
0.0064028548 -0.037705705 0.74699998 2.1305115e-38
0.0078047598 -0.037604764 0.745 2.0846296e-38
0.0092238076 -0.037604764 0.745 2.0754461e-38
0.01061427 -0.037503809 0.74299991 2.0662625e-38
0.012029525 -0.037503809 0.74299997 1.5231416e-38
0.013444759 -0.037503809 0.74299997 9.7955415e-39
0.014859995 -0.037503809 0.74299997 5.558909e-39
0.016275231 -0.037503809 0.74299997 1.4141175e-39
0.017690465 -0.037503794 0.74299991 1.7746464e-39
0.019157138 -0.037604764 0.745 2.2319924e-39
0.020576177 -0.037604764 0.745 1.5858761e-39
0.022054283 -0.037705705 0.74699998 9.4120874e-40
0.023477135 -0.037705719 0.74699998 1.1219846e-39
0.02493332 -0.03775619 0.74799997 1.2116481e-39
0.026358083 -0.03775619 0.74799997 1.578253e-39
0.027782854 -0.03775619 0.74799997 2.0370466e-39
0.029285695 -0.03785713 0.74999994 2.7727815e-39
0.030714273 -0.03785713 0.74999994 3.6010624e-39
0.03222857 -0.037958071 0.75199997 4.4279084e-39
0.033705715 -0.038008571 0.75299996 5.2533152e-39
0.03528 -0.038159996 0.75599998 5.4373085e-39
0.036719993 -0.038159996 0.75599998 5.7124661e-39
0.038159993 -0.038159981 0.75599998 5.7139094e-39
-0.016560009 -0.036719978 0.75599992 4.7300129e-40
-0.01512001 -0.036720008 0.75599998 6.5775689e-40
-0.013661911 -0.03667143 0.755 8.4251248e-40
-0.012223808 -0.03667143 0.755 1.0287156e-39
-0.010757143 -0.036574289 0.75300002 1.3060382e-39
-0.0093104886 -0.036525711 0.75199997 1.5840838e-39
-0.0078781089 -0.036525697 0.75199997 2.045083e-39
-0.0064457292 -0.036525711 0.75199997 2.5078702e-39
-0.0050000087 -0.036428571 0.75 1.960467e-39
-0.0035714414 -0.036428571 0.75 1.4187825e-39
-0.0021428738 -0.036428571 0.75 5.6550549e-39
-0.00071143958 -0.036282837 0.74699998 9.8088174e-39
0.00071142992 -0.036282852 0.74699998 1.5979015e-38
0.0021285601 -0.036185697 0.745 2.2040156e-38
0.0035476075 -0.036185697 0.74499995 2.2131273e-38
0.0049666576 -0.036185712 0.745 2.2223108e-38
0.006385705 -0.036185727 0.745 2.1304395e-38
0.0077838022 -0.036088571 0.74299997 2.0386398e-38
0.0091990381 -0.036088571 0.74299991 2.11218e-38
0.010614274 -0.036088556 0.74299991 2.176465e-38
0.012029519 -0.036088556 0.74299997 1.7356547e-38
0.013444753 -0.036088586 0.74299997 1.2836157e-38
0.014859997 -0.036088586 0.74299997 6.8499883e-39
0.016275225 -0.036088556 0.74299997 8.6382063e-40
0.017690469 -0.036088556 0.74299991 1.680297e-39
0.019157141 -0.036185712 0.745 2.5075017e-39
0.020576188 -0.036185727 0.745 1.8603148e-39
0.021995228 -0.036185712 0.745 1.1241679e-39
0.023477137 -0.036282852 0.74699998 1.1216301e-39
0.024899997 -0.036282852 0.74699998 1.1208944e-39
0.0263581 -0.03633143 0.74800003 1.3960254e-39
0.027782856 -0.03633143 0.74800003 1.5789565e-39
0.029285694 -0.036428571 0.74999994 2.2210665e-39
0.030714272 -0.036428571 0.74999994 2.8649617e-39
0.03227143 -0.036574274 0.75299996 3.7847222e-39
0.033705711 -0.036574289 0.75299996 4.7030435e-39
0.035233334 -0.03667143 0.755 5.1629034e-39
0.036719989 -0.036719993 0.75599998 5.5298895e-39
-0.016603814 -0.03537333 0.75799996 6.5703802e-40
-0.015120015 -0.035280004 0.75599998 7.5031405e-40
-0.013680011 -0.035280004 0.75599998 8.4359008e-40
-0.012223809 -0.035233349 0.755 1.0294429e-39
-0.010757151 -0.035139993 0.75299996 1.215653e-39
-0.0093104932 -0.035093307 0.75199991 1.4036583e-39
-0.0078781042 -0.035093322 0.75199997 1.9554181e-39
-0.0064285938 -0.034999996 0.75 2.5089534e-39
-0.0050000115 -0.035000011 0.75 1.6863912e-39
-0.0035619079 -0.03490667 0.74800003 9.5745119e-40
-0.0021371522 -0.03490667 0.74800003 5.9345074e-39
-0.00071143586 -0.03486 0.74699998 1.0823313e-38
0.00071142294 -0.03486 0.74699998 1.671047e-38
0.0021285559 -0.034766674 0.745 2.2683003e-38
0.0035476116 -0.034766659 0.745 2.2682642e-38
0.0049533271 -0.034673333 0.74299997 2.2774118e-38
0.0063857092 -0.034766674 0.745 2.148842e-38
0.0077837976 -0.034673318 0.74299997 2.0293484e-38
0.0091990409 -0.034673318 0.74299991 2.1029244e-38
0.010614276 -0.034673333 0.74299991 2.1764648e-38
0.012029523 -0.034673348 0.74299997 1.8271315e-38
0.013444757 -0.034673333 0.74299997 1.4862638e-38
0.014859993 -0.034673318 0.74299997 7.6783014e-39
0.016275229 -0.034673333 0.74299997 5.8257442e-40
0.017690463 -0.034673318 0.74299991 1.6838815e-39
0.019157127 -0.034766674 0.745 2.7876745e-39
0.020576183 -0.034766674 0.745 2.0461466e-39
0.021995232 -0.034766659 0.745 1.3082046e-39
0.023477139 -0.03486 0.74699998 1.3067388e-39
0.024900002 -0.034860015 0.74699998 1.3056472e-39
0.026358088 -0.034906656 0.74799997 1.3049144e-39
0.027782857 -0.034906656 0.74800003 1.3045374e-39
0.029285695 -0.034999996 0.74999994 1.8540972e-39
0.03071427 -0.034999982 0.74999994 2.4958443e-39
0.032271422 -0.035139993 0.75299996 3.4152488e-39
0.033705711 -0.035140008 0.75299996 4.3350065e-39
0.035233341 -0.035233349 0.75500005 4.886346e-39
0.036719985 -0.035279989 0.75599998 5.3465954e-39
0.03816 -0.035279989 0.75599998 5.5302608e-39
-0.016603809 -0.033929542 0.75799996 7.4886791e-40
-0.015120019 -0.033839986 0.75599998 8.4250268e-40
-0.013680017 -0.033839971 0.75599992 9.3613884e-40
-0.012223825 -0.033795252 0.755 9.3796333e-40
-0.010757149 -0.033705696 0.75299996 1.1238189e-39
-0.0093104886 -0.033660948 0.75199991 1.2185523e-39
-0.0078781089 -0.033660933 0.75199991 1.8642973e-39
-0.0064285817 -0.033571437 0.75 2.4178354e-39
-0.0050000139 -0.033571422 0.75 1.5020056e-39
-0.0035619179 -0.033481911 0.74800003 5.0186103e-40
-0.0021371478 -0.033481911 0.74800003 6.2107314e-39
-0.00070953782 -0.033347607 0.745 1.1834938e-38
0.00070950954 -0.033347607 0.74499995 1.7540218e-38
0.0021285671 -0.033347622 0.745 2.3234018e-38
0.0035476075 -0.033347636 0.745 2.3234016e-38
0.0049533308 -0.03325808 0.74299997 2.3234016e-38
0.0063857124 -0.033347622 0.745 2.1764648e-38
0.0077838008 -0.033258095 0.74299997 2.0202727e-38
0.0091990372 -0.033258095 0.74299991 2.0937053e-38
0.010614272 -0.03325808 0.74299991 2.1672455e-38
0.012029519 -0.03325808 0.74299997 1.9285093e-38
0.013444753 -0.033258095 0.74299997 1.6793336e-38
0.014859997 -0.03325811 0.74299997 8.6020402e-39
0.016275233 -0.03325808 0.74299997 3.1603765e-40
0.017738089 -0.033347636 0.745 1.6842416e-39
0.019157138 -0.033347622 0.745 3.0603111e-39
0.020576177 -0.033347607 0.745 2.3195007e-39
0.021995235 -0.033347622 0.745 1.4925903e-39
0.023414282 -0.033347607 0.745 1.4911245e-39
0.024833322 -0.033347622 0.745 1.3985589e-39
0.026358087 -0.033481896 0.74799997 1.2134418e-39
0.02778285 -0.033481896 0.74799997 9.3755836e-40
0.029285697 -0.033571407 0.74999994 1.4871182e-39
0.030714262 -0.033571422 0.74999994 2.0366696e-39
0.032228563 -0.033660948 0.75199997 3.0457586e-39
0.033705719 -0.033705726 0.75300002 3.9655023e-39
0.035233337 -0.033795252 0.755 4.6083045e-39
0.036719985 -0.033839971 0.75599992 5.1614727e-39
0.038260955 -0.033929527 0.75799996 5.4380582e-39
-0.018095259 -0.032571435 0.75999999 6.570198e-40
-0.016603822 -0.032485709 0.75799996 7.4922104e-40
-0.015120009 -0.032399997 0.75599998 7.5066298e-40
-0.013680021 -0.032399967 0.75599992 8.4358027e-40
-0.012223816 -0.032357141 0.755 9.376032e-40
-0.010785714 -0.032357156 0.75500005 1.0309087e-39
-0.0093104979 -0.032228559 0.75199997 1.2174747e-39
-0.0078781182 -0.032228574 0.75199997 1.5869943e-39
-0.0064285845 -0.032142848 0.75 1.9593754e-39
-0.0050000167 -0.032142848 0.75 1.1350237e-39
-0.0035619135 -0.032057151 0.74799997 4.0787454e-40
-0.0021371576 -0.032057166 0.74799997 5.3860056e-39
-0.00070952758 -0.031928569 0.745 1.0285214e-38
0.00070950534 -0.031928569 0.745 1.506066e-38
0.0021285526 -0.031928554 0.745 1.9927941e-38
0.0035476102 -0.031928584 0.745 2.0662625e-38
0.0049533267 -0.031842858 0.74299997 2.1489145e-38
0.0063685616 -0.031842843 0.74299997 2.0754461e-38
0.007783798 -0.031842843 0.74299997 1.9927941e-38
0.00919904 -0.031842843 0.74299991 1.9835747e-38
0.010614286 -0.031842858 0.74299997 1.974427e-38
0.012029522 -0.031842858 0.74299997 1.6712623e-38
0.013444757 -0.031842858 0.74299997 1.3586987e-38
0.014859993 -0.031842843 0.74299997 6.9468503e-39
0.016275229 -0.031842828 0.74299997 3.1281045e-40
0.017738095 -0.031928569 0.745 1.5934837e-39
0.019105718 -0.031842858 0.74299997 2.8787925e-39
0.020520953 -0.031842843 0.74299997 2.3234453e-39
0.021995228 -0.031928569 0.745 1.8620832e-39
0.023414286 -0.031928584 0.745 2.0442857e-39
0.024833325 -0.031928569 0.745 2.2268721e-39
0.026358094 -0.032057136 0.74800003 1.9499222e-39
0.027782856 -0.032057151 0.74800003 1.672964e-39
0.029285695 -0.032142848 0.74999994 1.8548231e-39
0.03071426 -0.032142833 0.74999994 2.1285093e-39
0.032228567 -0.032228559 0.75199997 3.0461202e-39
0.033705715 -0.032271445 0.75299996 4.0558917e-39
0.03523333 -0.032357141 0.755 4.7008323e-39
0.036671426 -0.032357141 0.755 5.3447681e-39
0.038159985 -0.032399982 0.75599998 5.6210019e-39
0.039704759 -0.032485723 0.75799996 5.8053932e-39
-0.018047631 -0.03104189 0.75799996 6.559324e-40
-0.016603829 -0.03104189 0.7579999 6.570156e-40
-0.015120015 -0.030959979 0.75599992 6.5702121e-40
-0.013680016 -0.030959994 0.75599998 8.4141527e-40
-0.012223817 -0.030919045 0.755 9.3470531e-40
-0.010757142 -0.030837148 0.75299996 1.0279954e-39
-0.0093104932 -0.03079617 0.75199997 1.1212896e-39
-0.0078571541 -0.030714273 0.75 1.3067795e-39
-0.0064285868 -0.030714288 0.75 1.4014974e-39
-0.0049866689 -0.030632392 0.74800003 8.5408301e-40
-0.00355716 -0.030591428 0.74699998 3.081133e-40
-0.0021371432 -0.030632392 0.74800003 4.5487115e-39
-0.00070953177 -0.030509531 0.745 8.6999685e-39
0.00070951605 -0.030509546 0.745 1.2672937e-38
0.0021285638 -0.030509517 0.745 1.6521059e-38
0.0035476042 -0.030509502 0.74499995 1.8183067e-38
0.004953329 -0.030427605 0.74299997 1.9737813e-38
0.0063685644 -0.03042762 0.74299997 1.974427e-38
0.0077838004 -0.03042762 0.74299997 1.9649565e-38
0.0091990363 -0.030427605 0.74299991 1.873408e-38
0.010614282 -0.030427605 0.74299997 1.7807833e-38
0.012029518 -0.03042762 0.74299997 1.4142305e-38
0.013444752 -0.03042762 0.74299997 1.0347629e-38
0.014859997 -0.03042762 0.74299997 5.3766701e-39
0.016275225 -0.030427605 0.74299997 3.0848465e-40
0.017690467 -0.03042759 0.74299991 1.4976686e-39
0.019105714 -0.03042762 0.74299997 2.6011098e-39
0.020520948 -0.03042762 0.74299997 2.4174206e-39
0.021936184 -0.03042762 0.74299997 2.2315734e-39
0.023414271 -0.030509531 0.745 2.5974566e-39
0.024833329 -0.030509517 0.745 2.9622763e-39
0.026252376 -0.030509517 0.745 2.6864013e-39
0.027782854 -0.030632377 0.74800003 2.3161726e-39
0.029285692 -0.030714273 0.74999994 2.2221679e-39
0.03079618 -0.03079617 0.75199997 2.1288694e-39
0.03227143 -0.030837134 0.75299996 3.1375983e-39
0.033795245 -0.030919045 0.755 4.0576923e-39
0.035233341 -0.030919045 0.75500005 4.7941167e-39
0.036719993 -0.030959979 0.75599998 5.5291594e-39
0.038159985 -0.030959994 0.75599998 5.7124731e-39
0.039704759 -0.031041905 0.75799996 5.8972245e-39
-0.018047627 -0.029598087 0.75799996 4.711754e-40
-0.016603826 -0.029598087 0.7579999 5.630165e-40
-0.015120009 -0.02951999 0.75599998 5.630207e-40
-0.013680021 -0.02951999 0.75599998 6.559366e-40
-0.012223817 -0.029480964 0.755 6.5629954e-40
-0.010742879 -0.029363796 0.75199991 7.488567e-40
-0.0093104886 -0.029363796 0.75199997 9.3291165e-40
-0.0078571569 -0.029285714 0.75 9.343704e-40
-0.0064285891 -0.029285714 0.75 9.3437881e-40
-0.0049866796 -0.029207617 0.74800003 5.6847876e-40
-0.0035619088 -0.029207632 0.74800003 2.8870952e-40
-0.0021371532 -0.029207617 0.74800003 2.3220454e-39
-0.00070953084 -0.029090464 0.745 4.4457553e-39
0.00070951233 -0.029090479 0.745 6.3829229e-39
0.0021285596 -0.029090479 0.745 8.3200779e-39
0.0035380903 -0.029012382 0.74299997 9.1448037e-39
0.0049533253 -0.029012382 0.74299997 9.9838788e-39
0.0063685603 -0.029012367 0.74299997 9.8859449e-39
0.0077838041 -0.029012352 0.74299997 9.9067513e-39
0.0091990391 -0.029012382 0.74299991 9.4253325e-39
0.010614285 -0.029012397 0.74299997 8.9679486e-39
0.012013327 -0.028973326 0.74199998 7.1143783e-39
0.013426652 -0.028973326 0.74199998 5.2532662e-39
0.014839986 -0.028973311 0.74199998 2.8705557e-39
0.016253328 -0.028973341 0.74200004 5.6639223e-40
0.017690472 -0.029012382 0.74299997 1.21603e-39
0.019105706 -0.029012382 0.74299997 1.8649685e-39
0.020520944 -0.029012367 0.74299997 1.863165e-39
0.021936178 -0.029012382 0.74299997 1.8660209e-39
0.023414282 -0.029090479 0.745 2.2290427e-39
0.024833322 -0.029090479 0.74499995 2.5938609e-39
0.026322855 -0.029168546 0.74699998 2.3172656e-39
0.027782848 -0.029207602 0.74799997 2.1321443e-39
0.029285697 -0.029285714 0.75 1.855186e-39
0.030714275 -0.029285714 0.75 1.5782166e-39
0.03227143 -0.029402852 0.75299996 2.7716913e-39
0.033705723 -0.029402867 0.75300002 3.96694e-39
0.03523333 -0.029480949 0.755 4.7948468e-39
0.036671434 -0.029480964 0.755 5.5305985e-39
0.038159981 -0.02951999 0.75599992 5.7139024e-39
0.039704762 -0.029598087 0.75799996 5.8979363e-39
0.041257132 -0.029676199 0.75999999 5.9901347e-39
-0.018047625 -0.028154284 0.75799996 2.8605546e-40
-0.016603824 -0.028154284 0.7579999 3.7681756e-40
-0.015160013 -0.028154284 0.75799996 4.6973206e-40
-0.013680011 -0.028079987 0.75599998 4.7152853e-40
-0.012223809 -0.028042853 0.755 3.7898117e-40
-0.01075715 -0.027968571 0.75299996 5.6229903e-40
-0.0093104932 -0.027931407 0.75199991 6.5486321e-40
-0.0078571597 -0.02785714 0.75 5.6339765e-40
-0.0064285919 -0.02785714 0.75 4.7228943e-40
-0.0049866745 -0.027782857 0.74799997 3.8082388e-40
-0.0035619193 -0.027782857 0.74799997 1.9394812e-40
-0.0021371488 -0.027782857 0.74799997 1.8787489e-40
-0.00070953503 -0.027671427 0.745 1.0358118e-40
0.00070951279 -0.027671412 0.74499995 9.2829017e-41
0.0021228502 -0.027597144 0.74299997 1.0609931e-40
0.0035380926 -0.027597129 0.74299997 9.246608e-41
0.0049533276 -0.027597129 0.74299997 1.0860624e-40
0.006368563 -0.027597129 0.74299997 9.2461877e-41
0.0077733253 -0.027559996 0.74199998 1.1254949e-40
0.0091866599 -0.027559996 0.74200004 9.2457673e-41
0.010599986 -0.027559996 0.74199998 1.0752443e-40
0.012013327 -0.027559996 0.74199998 9.3894004e-41
0.013426662 -0.027559996 0.74200004 1.0178331e-40
0.014839986 -0.027560011 0.74199998 4.6948263e-40
0.01625333 -0.027559996 0.74199998 8.4111679e-40
0.017690476 -0.027597129 0.74299997 1.0272877e-39
0.01910571 -0.027597144 0.74299997 1.1209127e-39
0.020520946 -0.027597144 0.74299997 1.3035046e-39
0.021936182 -0.027597144 0.74299997 1.3985673e-39
0.023351416 -0.027597129 0.74299997 1.7662666e-39
0.024833325 -0.027671427 0.745 2.1328828e-39
0.026252374 -0.027671441 0.74499995 2.04032e-39
0.02774572 -0.027745709 0.74699998 1.9481089e-39
0.02916857 -0.027745694 0.74699998 1.4878385e-39
0.030796181 -0.027931422 0.75199997 9.3536392e-40
0.032228559 -0.027931422 0.75199997 2.4032703e-39
0.033705711 -0.027968585 0.75299996 3.8751031e-39
0.035233334 -0.028042853 0.755 4.7037301e-39
0.036671426 -0.028042868 0.755 5.5302426e-39
0.03816 -0.028079987 0.75599998 5.7139066e-39
0.039704766 -0.028154284 0.75799996 5.8979461e-39
0.041257132 -0.028228581 0.75999999 6.0823444e-39
-0.018095251 -0.026780948 0.75999999 6.5194991e-40
-0.016647629 -0.026780963 0.75999999 5.6047174e-40
-0.01516001 -0.026710466 0.75799996 4.6792018e-40
-0.013680015 -0.026639998 0.75599992 4.6828032e-40
-0.012223811 -0.026604757 0.755 4.6792859e-40
-0.010757148 -0.026534289 0.75299996 4.6901179e-40
-0.0093104877 -0.026499033 0.75199997 5.6084449e-40
-0.0078571625 -0.026428565 0.75 4.7008239e-40
-0.0064285947 -0.02642858 0.75 4.6937893e-40
-0.0049866745 -0.026358113 0.74800003 3.7827351e-40
-0.0035619042 -0.026358098 0.74800003 3.7684699e-40
-0.0021343001 -0.026322842 0.74699998 4.6725597e-40
-0.00070762815 -0.026181892 0.74299997 5.5514961e-40
0.00070760731 -0.026181906 0.74299991 6.4878297e-40
0.002122853 -0.026181906 0.74299997 7.3559201e-40
0.0035380884 -0.026181906 0.74299997 7.4025133e-40
0.0049533239 -0.026181906 0.74299997 8.2706177e-40
0.0063685598 -0.026181892 0.74299997 5.5585586e-40
0.0077733183 -0.02614668 0.74199998 2.7604038e-40
0.0091866609 -0.02614668 0.74199998 4.6401196e-40
0.010599984 -0.026146665 0.74199998 6.4337957e-40
0.012013325 -0.02614665 0.74199998 7.4167224e-40
0.013426661 -0.026146665 0.74200004 8.3530701e-40
0.014799993 -0.026076198 0.74000001 7.4814064e-40
0.016253321 -0.026146665 0.74199998 6.5881767e-40
0.017666662 -0.02614668 0.74200004 6.5702541e-40
0.019105714 -0.026181906 0.74299997 6.5487582e-40
0.02052095 -0.026181892 0.74299997 6.5523595e-40
0.021936186 -0.026181892 0.74299997 7.5031265e-40
0.02341428 -0.026252374 0.745 9.3471372e-40
0.024833329 -0.026252389 0.745 1.121249e-39
0.026322853 -0.026322857 0.74699998 1.1208846e-39
0.027745711 -0.026322842 0.74699998 1.1215839e-39
0.029207619 -0.026358098 0.74800003 1.0265016e-39
0.03079617 -0.026499018 0.75199991 8.4316549e-40
0.032228559 -0.026499048 0.75199997 2.2195965e-39
0.033705715 -0.026534289 0.75299996 3.5999554e-39
0.035233341 -0.026604772 0.75500005 4.4267887e-39
0.036671426 -0.026604757 0.755 5.2536613e-39
0.038159993 -0.026639983 0.75599998 5.5298797e-39
0.039704762 -0.02671048 0.75799996 5.8979559e-39
0.041257147 -0.026780978 0.75999999 5.8976126e-39
-0.018095255 -0.025333345 0.75999999 9.2781793e-40
-0.016603818 -0.025266662 0.75799996 6.5302751e-40
-0.015160007 -0.025266662 0.75799996 3.7572595e-40
-0.01368002 -0.02519998 0.75599992 4.6612652e-40
-0.012223811 -0.025166661 0.755 4.6756565e-40
-0.010785724 -0.025166661 0.755 4.6864605e-40
-0.0093228659 -0.025099993 0.75299996 3.7717069e-40
-0.0078781182 -0.025066644 0.75199997 3.7788956e-40
-0.006428597 -0.025000006 0.75 3.7754063e-40
-0.0049866699 -0.024933338 0.74799997 4.70102e-40
-0.0035619144 -0.024933338 0.74800003 4.7118801e-40
-0.0021342961 -0.024899989 0.74699998 7.4957417e-40
-0.00070762535 -0.024766669 0.74299991 9.314571e-40
0.00070761057 -0.024766669 0.74299991 1.1201574e-39
0.0021228557 -0.024766669 0.74299997 1.2995236e-39
0.0035333154 -0.02473332 0.74199998 1.4896517e-39
0.00494665 -0.024733342 0.74199998 1.5750258e-39
0.0063685635 -0.024766676 0.74299997 1.0272373e-39
0.0077733169 -0.024733327 0.74199998 3.8007979e-40
0.009186659 -0.02473332 0.74199998 7.5279996e-40
0.010599995 -0.024733327 0.74200004 1.115477e-39
0.012013319 -0.024733327 0.74199998 1.3942107e-39
0.013390463 -0.024666674 0.73999995 1.5760866e-39
0.014799992 -0.024666689 0.73999995 1.0283008e-39
0.016253321 -0.024733335 0.74199998 3.8006718e-40
0.017666662 -0.024733327 0.74199998 2.8643381e-40
0.01910571 -0.024766669 0.74299997 9.9537033e-41
0.020520946 -0.024766676 0.74299997 9.6311243e-41
0.021936182 -0.024766669 0.74299997 1.0350551e-40
0.023351423 -0.024766654 0.74299991 1.0065527e-40
0.024833333 -0.024833344 0.745 1.1140603e-40
0.026252372 -0.024833336 0.745 2.0000313e-40
0.027745716 -0.024900004 0.74699998 2.939784e-40
0.029207606 -0.024933323 0.74799997 5.6158017e-40
0.030796174 -0.025066674 0.75199991 7.4630494e-40
0.032271434 -0.025099993 0.75299996 2.0323396e-39
0.033795238 -0.025166661 0.755 3.3219322e-39
0.035233341 -0.025166661 0.755 4.14912e-39
0.03667143 -0.025166675 0.755 4.9777933e-39
0.038159989 -0.025199965 0.75599998 5.4380484e-39
0.039809521 -0.02533333 0.75999999 5.8050442e-39
-0.016603829 -0.023822874 0.75799996 6.5159398e-40
-0.015120014 -0.023759976 0.75599992 4.6684398e-40
-0.013680014 -0.023759998 0.75599998 4.6684118e-40
-0.012223817 -0.023728572 0.755 4.6684398e-40
-0.010785715 -0.023728587 0.755 4.6792158e-40
-0.0093228649 -0.023665711 0.75299996 3.7680916e-40
-0.0078781135 -0.023634285 0.75199997 5.6084449e-40
-0.0064285854 -0.023571424 0.74999994 6.5232686e-40
-0.0050000171 -0.023571409 0.74999994 5.6193049e-40
-0.0035619098 -0.023508556 0.74799997 5.6373537e-40
-0.0021342882 -0.023477122 0.74699998 7.4813503e-40
-0.00070763606 -0.023351416 0.74299991 9.3289063e-40
0.00070760964 -0.023351438 0.74299997 1.0258093e-39
0.0021228595 -0.023351409 0.74299997 1.2098447e-39
0.003538087 -0.023351431 0.74299997 1.3027606e-39
0.0049533234 -0.023351423 0.74299997 1.4860672e-39
0.0063685584 -0.023351416 0.74299997 1.0265254e-39
0.0077733267 -0.023319997 0.74200004 6.5846454e-40
0.0091866516 -0.023319989 0.74199998 9.3504443e-40
0.010599993 -0.023319997 0.74199998 1.3034598e-39
0.012013318 -0.023319997 0.74199998 1.1179909e-39
0.01342666 -0.023319989 0.74199998 9.3467028e-40
0.014839995 -0.023319997 0.74200004 5.619375e-40
0.016253319 -0.023319975 0.74199998 2.8068289e-40
0.017666653 -0.023319997 0.74199998 2.7666887e-39
0.019079996 -0.023319989 0.74200004 5.237999e-39
0.020493321 -0.023320004 0.74199998 5.9881113e-39
0.021936186 -0.023351431 0.74299997 6.8135826e-39
0.02335142 -0.023351423 0.74299991 7.2839074e-39
0.024833318 -0.023414291 0.745 7.7473742e-39
0.026252376 -0.023414277 0.745 7.5633277e-39
0.027745709 -0.023477137 0.74699998 7.3742687e-39
0.029207624 -0.023508564 0.74800003 5.9913483e-39
0.03071427 -0.023571432 0.75 4.6909251e-39
0.032228559 -0.023634262 0.75199997 4.1434798e-39
0.033705715 -0.023665719 0.75299996 3.5977932e-39
0.035140004 -0.023665711 0.75299996 4.4256915e-39
0.036719993 -0.023759983 0.75599998 5.1625377e-39
0.038260948 -0.023822844 0.75799996 5.5295293e-39
0.039704747 -0.023822859 0.7579999 5.8965224e-39
-0.01800001 -0.022319995 0.75599998 8.3526637e-40
-0.016603827 -0.022379048 0.75799996 7.4342807e-40
-0.015120008 -0.022319995 0.75599998 5.5975428e-40
-0.013680018 -0.02232001 0.75599998 5.5939274e-40
-0.012223817 -0.022290483 0.755 4.6719991e-40
-0.010757139 -0.02223143 0.75299996 4.6684398e-40
-0.0093104988 -0.022201888 0.75199991 3.7644902e-40
-0.0078781191 -0.022201888 0.75199991 6.5303591e-40
-0.0064285873 -0.022142835 0.74999994 9.2890674e-40
-0.0050000199 -0.022142857 0.74999994 7.4560008e-40
-0.0035714521 -0.02214285 0.74999994 5.630151e-40
-0.0021371394 -0.022083819 0.74800003 7.4633577e-40
-0.00070763327 -0.021936186 0.74299991 9.3180743e-40
0.00070761243 -0.021936208 0.74299997 1.0243674e-39
0.0021228478 -0.021936178 0.74299997 1.0254464e-39
0.0035380907 -0.021936171 0.74299997 1.2091202e-39
0.0049533267 -0.021936178 0.74299997 1.3009487e-39
0.0063685621 -0.021936193 0.74299991 1.1172721e-39
0.0077733258 -0.021906666 0.74200004 8.417684e-40
0.0091866506 -0.021906659 0.74199998 1.1172777e-39
0.010599991 -0.021906666 0.74199998 1.3917066e-39
0.012013326 -0.021906674 0.74200004 8.3997473e-40
0.01342665 -0.021906659 0.74199998 2.8681216e-40
0.014839993 -0.021906666 0.74199998 1.8780482e-40
0.016253317 -0.021906659 0.74199998 1.1069277e-40
0.01766666 -0.021906681 0.74199998 5.2610308e-39
0.019079994 -0.021906674 0.74199998 1.0320581e-38
0.020520944 -0.021936193 0.74299997 1.1988317e-38
0.021995233 -0.021995246 0.745 1.3543795e-38
0.02341428 -0.021995232 0.745 1.4474361e-38
0.024899997 -0.022054277 0.74699998 1.538302e-38
0.026322849 -0.02205427 0.74699998 1.4931009e-38
0.027782857 -0.022083804 0.74800003 1.4460349e-38
0.029207615 -0.022083811 0.74800003 1.152161e-38
0.030714272 -0.022142857 0.75 8.5645344e-39
0.032228567 -0.022201888 0.75199997 6.2524578e-39
0.033705726 -0.02223143 0.75299996 3.8707983e-39
0.035279997 -0.02231998 0.75599998 4.6093933e-39
0.036719993 -0.02231998 0.75599998 5.3455094e-39
0.038260952 -0.022379048 0.75799996 5.6210131e-39
0.039704751 -0.022379041 0.7579999 5.8968825e-39
-0.018000016 -0.020879991 0.75599998 8.3526357e-40
-0.016603824 -0.02093523 0.75799996 6.5158977e-40
-0.015120013 -0.020879976 0.75599998 4.6863344e-40
-0.01368001 -0.020879991 0.75599998 4.6755444e-40
-0.012223809 -0.020852394 0.75500005 3.7500428e-40
-0.010757148 -0.020797148 0.75299996 3.7608328e-40
-0.0093228575 -0.020797141 0.75299996 4.6864045e-40
-0.0078781135 -0.020769514 0.75199991 6.5339184e-40
-0.00642859 -0.020714283 0.74999994 8.3778731e-40
-0.0050000222 -0.020714276 0.74999994 6.5448065e-40
-0.0035714549 -0.020714298 0.74999994 5.6336963e-40
-0.0021371492 -0.020659052 0.74800003 7.4704763e-40
-0.00070763001 -0.02052094 0.74299991 1.0229185e-39
0.00070761523 -0.020520955 0.74299997 9.3288222e-40
0.0021228511 -0.020520948 0.74299997 8.4140686e-40
0.0035380865 -0.020520955 0.74299997 1.0247191e-39
0.0049533229 -0.02052094 0.74299997 1.2080258e-39
0.0063685579 -0.020520933 0.74299997 9.3287101e-40
0.0077838004 -0.02052094 0.74299991 5.6589617e-40
0.0091866609 -0.020493343 0.74200004 6.5379261e-40
0.01061428 -0.020520963 0.74299997 7.4455191e-40
0.012013327 -0.020493329 0.74199998 3.0447441e-39
0.013426649 -0.020493329 0.74199998 5.4299713e-39
0.014839992 -0.020493321 0.74199998 6.4570362e-39
0.016253326 -0.020493343 0.74200004 7.5698662e-39
0.017666651 -0.020493321 0.74199998 9.9615757e-39
0.01910571 -0.020520948 0.74299997 1.2458328e-38
0.020520948 -0.020520933 0.74299997 1.2810219e-38
0.021995228 -0.020576186 0.745 1.3092543e-38
0.023477139 -0.020631425 0.74699998 1.3538089e-38
0.024899989 -0.020631433 0.74699998 1.4002287e-38
0.02635809 -0.020659052 0.74799997 1.3628487e-38
0.027782846 -0.020659037 0.74799997 1.3360874e-38
0.029207608 -0.020659044 0.74799997 1.1976527e-38
0.030714273 -0.020714276 0.75 1.059964e-38
0.032228559 -0.020769507 0.75199997 7.7354478e-39
0.033705715 -0.020797141 0.75299996 4.8799224e-39
0.035279989 -0.020879984 0.75599998 5.1586421e-39
0.036817126 -0.02093523 0.7579999 5.5291986e-39
0.038361892 -0.020990491 0.75999999 5.6206614e-39
-0.018047633 -0.019491412 0.7579999 8.3633416e-40
-0.016603822 -0.019491434 0.75799996 6.5122684e-40
-0.015120018 -0.019439995 0.75599998 3.7571895e-40
-0.013680014 -0.019439973 0.75599992 3.7536021e-40
-0.01222381 -0.019414291 0.755 2.8352472e-40
-0.010757146 -0.019362852 0.75299996 3.7679514e-40
-0.0093104877 -0.01933714 0.75199997 4.6935371e-40
-0.0078781089 -0.019337118 0.75199997 5.6191228e-40
-0.0064285928 -0.019285709 0.74999994 6.5411351e-40
-0.005000025 -0.019285709 0.74999994 5.6300249e-40
-0.0035714572 -0.019285701 0.74999994 4.7153413e-40
-0.002137145 -0.019234292 0.74799997 8.3888452e-40
-0.00070952479 -0.019157141 0.745 1.1165476e-39
0.00070761848 -0.019105725 0.74299997 8.4248166e-40
0.0021228539 -0.019105703 0.74299997 5.662591e-40
0.0035380893 -0.01910571 0.74299997 8.406894e-40
0.0049533253 -0.019105695 0.74299997 1.1165532e-39
0.0063685603 -0.019105718 0.74299991 7.488511e-40
0.0077837957 -0.01910571 0.74299991 2.8464576e-40
0.0091990419 -0.01910571 0.74299997 1.8742507e-40
0.010614278 -0.019105725 0.74299997 1.0745717e-40
0.012029519 -0.01910571 0.74299997 5.3485671e-39
0.013444756 -0.01910571 0.74299997 1.0508578e-38
0.01485999 -0.019105703 0.74299991 1.2731649e-38
0.016275236 -0.019105703 0.74299997 1.4923848e-38
0.017690472 -0.019105718 0.74299997 1.4740879e-38
0.019105706 -0.019105703 0.74299997 1.454176e-38
0.020520944 -0.019105718 0.74299997 1.360975e-38
0.021995232 -0.019157141 0.745 1.2599557e-38
0.023477139 -0.019208565 0.74699998 1.2583053e-38
0.024900002 -0.019208565 0.74699998 1.2594173e-38
0.02635809 -0.019234285 0.74800003 1.2402967e-38
0.027782859 -0.0192343 0.74800003 1.2141464e-38
0.029207617 -0.019234292 0.74800003 1.2331604e-38
0.030714272 -0.019285709 0.75 1.2518477e-38
0.032228556 -0.019337125 0.75199991 9.2095045e-39
0.033705715 -0.019362859 0.75299996 5.8043772e-39
0.035279997 -0.01943998 0.75599998 5.7071215e-39
0.03681713 -0.019491412 0.7579999 5.6192223e-39
0.038361896 -0.019542858 0.75999999 5.5284531e-39
-0.018047631 -0.018047608 0.7579999 9.2959898e-40
-0.016560011 -0.017999984 0.75599998 6.5229743e-40
-0.015120022 -0.017999984 0.75599998 4.6719291e-40
-0.013661914 -0.017976187 0.755 3.7500008e-40
-0.012223812 -0.017976187 0.755 2.8244432e-40
-0.010757145 -0.017928571 0.75300002 3.7642941e-40
-0.0093104821 -0.017904758 0.75199997 4.6970684e-40
-0.0078781033 -0.017904758 0.75199997 5.6190807e-40
-0.0064457236 -0.017904751 0.75199997 7.4558747e-40
-0.0050000278 -0.017857127 0.74999994 6.5483518e-40
-0.0035714451 -0.017857127 0.74999994 6.5556245e-40
-0.0021371448 -0.017809533 0.74800003 8.4067819e-40
-0.00070953876 -0.017738089 0.74499995 1.1183427e-39
0.00070951885 -0.017738096 0.745 9.3467588e-40
0.0021228576 -0.017690487 0.74299997 8.4248306e-40
0.0035380861 -0.017690465 0.74299997 8.4176559e-40
0.0049533215 -0.017690465 0.74299997 9.3360529e-40
0.006368564 -0.017690472 0.74299991 5.594502e-40
0.0077838097 -0.01769048 0.74299997 1.8670901e-40
0.0091990456 -0.01769048 0.74299997 3.6011058e-39
0.010614282 -0.01769048 0.74299997 7.0973707e-39
0.012029516 -0.017690465 0.74299997 9.8700724e-39
0.013444752 -0.01769048 0.74299991 1.2738851e-38
0.014859988 -0.017690472 0.74299991 1.3273e-38
0.016275233 -0.017690472 0.74299997 1.3816409e-38
0.017690469 -0.01769048 0.74299997 1.3705848e-38
0.019105712 -0.017690465 0.74299997 1.3500273e-38
0.020576188 -0.017738104 0.745 1.304538e-38
0.022054274 -0.017785713 0.74699998 1.2581892e-38
0.023477143 -0.017785706 0.74699998 1.2765916e-38
0.024933327 -0.017809518 0.74799997 1.2949227e-38
0.026358096 -0.017809518 0.74800003 1.2583677e-38
0.027782852 -0.017809533 0.74800003 1.2215284e-38
0.029285703 -0.017857134 0.75 1.2228222e-38
0.030714277 -0.017857134 0.75 1.2331557e-38
0.032228556 -0.017904744 0.75199997 9.5779465e-39
0.033705719 -0.017928571 0.75300002 6.8185151e-39
0.035279986 -0.017999984 0.75599992 6.447164e-39
0.036817133 -0.018047616 0.75799996 5.9876222e-39
0.038412388 -0.018119037 0.76099998 5.8039442e-39
0.039966661 -0.018166676 0.76300001 5.529172e-39
0.04141999 -0.018166661 0.76299995 5.8039779e-39
-0.018047627 -0.016603798 0.75799996 9.2924165e-40
-0.016560014 -0.016559988 0.75599998 7.4521192e-40
-0.015120013 -0.016559981 0.75599992 5.5974727e-40
-0.013661905 -0.016538098 0.755 4.6683698e-40
-0.012223803 -0.016538113 0.75500005 2.8352192e-40
-0.010757154 -0.016494289 0.75299996 3.7679094e-40
-0.0093228631 -0.016494282 0.75299996 4.6970824e-40
-0.0078781135 -0.016472377 0.75199997 6.5374497e-40
-0.0064457338 -0.016472369 0.75199997 7.4630354e-40
-0.0050000153 -0.016428567 0.74999994 7.4702801e-40
-0.0035714479 -0.016428567 0.74999994 7.4847134e-40
-0.0021428799 -0.01642856 0.74999994 9.3322834e-40
-0.00070952805 -0.016319044 0.745 1.0257855e-39
0.00070950534 -0.016319051 0.74499995 1.1183441e-39
0.0021285629 -0.016319051 0.745 1.1183455e-39
0.0035476093 -0.016319044 0.745 9.3431855e-40
0.0049666567 -0.016319051 0.745 6.5235208e-40
0.0063857078 -0.016319044 0.745 3.6787448e-40
0.0078047551 -0.016319059 0.745 1.1211929e-40
0.009223802 -0.016319044 0.745 7.1163906e-39
0.010642841 -0.016319051 0.74499995 1.4006581e-38
0.012029519 -0.016275227 0.74299997 1.4479408e-38
0.013444755 -0.016275242 0.74299991 1.4824824e-38
0.014859991 -0.01627522 0.74299991 1.3804904e-38
0.016275236 -0.016275227 0.74299997 1.2691363e-38
0.017738085 -0.016319051 0.745 1.2581911e-38
0.019157132 -0.016319051 0.745 1.2490051e-38
0.020576179 -0.016319036 0.745 1.2581861e-38
0.022054285 -0.016362853 0.74699998 1.2581872e-38
0.023477137 -0.016362853 0.74699998 1.2949225e-38
0.024933321 -0.016384758 0.74799997 1.331693e-38
0.026358085 -0.016384766 0.74799997 1.276664e-38
0.027782857 -0.016384758 0.74799997 1.2216726e-38
0.029285697 -0.01642856 0.75 1.2218543e-38
0.030714272 -0.016428567 0.75 1.2144311e-38
0.032271426 -0.016494274 0.75299996 1.0043241e-38
0.033795238 -0.016538098 0.755 7.8337321e-39
0.035373326 -0.016603805 0.75799996 7.0914404e-39
0.03691427 -0.016647607 0.75999999 6.3549614e-39
0.038412388 -0.016669527 0.76100004 5.986902e-39
0.039966658 -0.016713329 0.76299995 5.6199271e-39
0.041419994 -0.016713336 0.76299995 5.9869188e-39
-0.016603813 -0.015159994 0.75799996 7.4485459e-40
-0.015120007 -0.015119992 0.75599998 5.601074e-40
-0.013661906 -0.01510001 0.755 4.6719571e-40
-0.012191428 -0.015059993 0.75299996 3.7500008e-40
-0.010757137 -0.01506 0.75299996 3.7715107e-40
-0.0093228612 -0.015060008 0.75300002 4.7042851e-40
-0.0078781182 -0.015039995 0.75199991 5.6226961e-40
-0.0064457385 -0.01503998 0.75199991 5.6335001e-40
-0.005013349 -0.015040003 0.75199997 5.6407168e-40
-0.0035714502 -0.014999986 0.74999994 5.6587515e-40
-0.0021428829 -0.014999993 0.74999994 6.5807778e-40
-0.00071143772 -0.014939986 0.74699998 8.4175298e-40
0.00070951512 -0.014899999 0.745 9.3431015e-40
0.0021285727 -0.014900006 0.745 1.0265086e-39
0.003547613 -0.014900006 0.745 7.4490784e-40
0.0049666604 -0.014899991 0.745 4.6472943e-40
0.0063857012 -0.014899991 0.745 3.7880166e-39
0.0078047588 -0.014900006 0.745 7.195676e-39
0.0092238057 -0.014899991 0.745 1.0792029e-38
0.010614282 -0.014859997 0.74299997 1.4383634e-38
0.012061894 -0.014899991 0.74499995 1.3990438e-38
0.013480945 -0.014900014 0.745 1.3684358e-38
0.014899991 -0.014899999 0.745 1.3048601e-38
0.01631904 -0.014899984 0.745 1.2490052e-38
0.017738096 -0.014900014 0.745 1.2490048e-38
0.019157138 -0.014899999 0.745 1.2581854e-38
0.020576185 -0.014899999 0.745 1.2489988e-38
0.022054277 -0.014939986 0.74699998 1.239818e-38
0.023508567 -0.014960006 0.74800003 1.2673715e-38
0.024933331 -0.014959998 0.74800003 1.3041068e-38
0.026358094 -0.014960006 0.74800003 1.2674813e-38
0.027782857 -0.014960006 0.74800003 1.2217811e-38
0.029285695 -0.014999993 0.75 1.2224649e-38
0.03071427 -0.014999993 0.75 1.2239029e-38
0.032228567 -0.015039988 0.75199997 1.031984e-38
0.033795245 -0.01510001 0.75500005 8.483402e-39
0.035279989 -0.015119985 0.75599998 7.0943033e-39
0.036914282 -0.015199997 0.75999999 5.7113941e-39
0.038412381 -0.015219986 0.76099998 5.7113983e-39
0.039861906 -0.015219994 0.76099998 5.7113997e-39
0.041419994 -0.015260004 0.76300001 5.8035939e-39
0.04287333 -0.015260004 0.76300001 5.9858342e-39
-0.01660382 -0.013716184 0.7579999 7.4485459e-40
-0.015120011 -0.013679996 0.75599998 4.6791318e-40
-0.013680022 -0.013679981 0.75599998 4.6719711e-40
-0.012223819 -0.013661914 0.755 3.7679514e-40
-0.010757135 -0.013625711 0.75300002 4.7006557e-40
-0.0093228556 -0.013625719 0.75299996 4.7006977e-40
-0.0078781135 -0.013607606 0.75199997 4.7007538e-40
-0.0064457338 -0.013607606 0.75199997 3.7896295e-40
-0.0050133546 -0.013607599 0.75199991 3.7968602e-40
-0.0035714426 -0.013571434 0.75 2.8929386e-40
-0.002142875 -0.013571426 0.75 4.7440819e-40
-0.00071143353 -0.013517141 0.74699998 6.5772326e-40
0.00071142573 -0.013517126 0.74699998 8.4175718e-40
0.0021285592 -0.013480954 0.745 9.2856482e-40
0.0035476163 -0.013480954 0.745 5.5368525e-40
0.0049666571 -0.013480954 0.745 2.0609737e-40
0.0063857045 -0.013480946 0.745 7.2157524e-39
0.0078047519 -0.013480946 0.745 1.4191315e-38
0.009223802 -0.013480961 0.745 1.4472215e-38
0.010642849 -0.013480954 0.745 1.4631442e-38
0.012061899 -0.013480939 0.745 1.3597884e-38
0.013480939 -0.013480946 0.74499995 1.2583355e-38
0.014899996 -0.013480946 0.745 1.2398215e-38
0.016319044 -0.013480961 0.745 1.221454e-38
0.017738083 -0.013480939 0.745 1.2398205e-38
0.019157141 -0.013480946 0.745 1.2581857e-38
0.020576188 -0.013480954 0.745 1.2398166e-38
0.022054283 -0.013517141 0.74699998 1.2122678e-38
0.023508564 -0.013535231 0.74799997 1.2490039e-38
0.024933327 -0.013535246 0.74799997 1.2765919e-38
0.02635809 -0.013535239 0.74800003 1.2490426e-38
0.027782852 -0.013535246 0.74800003 1.2217809e-38
0.029285701 -0.013571419 0.75 1.2314328e-38
0.03079618 -0.013607599 0.75199991 1.2333025e-38
0.032271437 -0.013625711 0.75299996 1.0696532e-38
0.033705715 -0.013625704 0.75299996 9.0329913e-39
0.035233337 -0.013661914 0.75500005 7.090716e-39
0.036817133 -0.013716184 0.75799996 5.0685442e-39
0.038361888 -0.013752371 0.75999999 5.4358904e-39
0.039861914 -0.013770476 0.76100004 5.7121143e-39
0.041419998 -0.013806671 0.76300001 5.7135507e-39
0.042873334 -0.013806671 0.76300001 5.7121171e-39
-0.016647639 -0.012304761 0.75999999 7.4413713e-40
-0.015160006 -0.01227238 0.75799996 5.5867388e-40
-0.013680012 -0.012239985 0.75599992 3.7643781e-40
-0.012240013 -0.012239993 0.75599998 2.8639738e-40
-0.010757145 -0.01219143 0.75299996 3.7787414e-40
-0.0093228538 -0.01219143 0.75299996 4.6971244e-40
-0.007878108 -0.012175225 0.75199997 3.7787975e-40
-0.0064457282 -0.01217524 0.75199997 3.7788676e-40
-0.0050133495 -0.012175217 0.75199997 3.7896996e-40
-0.0035714449 -0.012142852 0.75 4.7153133e-40
-0.0021428773 -0.012142867 0.75 5.6445143e-40
-0.00071144005 -0.012094267 0.74699998 6.5664846e-40
0.00070952257 -0.012061901 0.745 6.5378e-40
0.0021285554 -0.012061909 0.745 6.4874514e-40
0.0035476093 -0.012061901 0.745 3.2312457e-39
0.0049666604 -0.012061909 0.745 5.8141751e-39
0.0063857078 -0.012061909 0.745 9.8747233e-39
0.0077838073 -0.012029521 0.74299997 1.4014819e-38
0.0092237946 -0.012061901 0.745 1.3804207e-38
0.010642852 -0.012061901 0.745 1.359212e-38
0.012061893 -0.012061909 0.745 1.3226136e-38
0.013480941 -0.012061894 0.745 1.2857374e-38
0.014899988 -0.012061909 0.74499995 1.2673717e-38
0.016319046 -0.012061901 0.745 1.24904e-38
0.017738085 -0.012061901 0.745 1.2490034e-38
0.019157132 -0.012061901 0.745 1.2581861e-38
0.020576183 -0.012061909 0.745 1.2490016e-38
0.022054281 -0.012094274 0.74699998 1.239819e-38
0.023508562 -0.012110472 0.74799997 1.2674064e-38
0.024933327 -0.012110472 0.74799997 1.2949947e-38
0.026358088 -0.012110464 0.74799997 1.2582622e-38
0.027782852 -0.012110479 0.74799997 1.2216014e-38
0.029285695 -0.012142852 0.75 1.2322214e-38
0.030796176 -0.012175232 0.75199997 1.252101e-38
0.03227143 -0.012191422 0.75299996 1.0690456e-38
0.033705719 -0.01219143 0.75299996 8.9422432e-39
0.035233326 -0.012223817 0.755 6.9074023e-39
0.036914278 -0.012304768 0.75999999 4.8823621e-39
0.038412388 -0.012320951 0.76099998 5.2518593e-39
0.039861914 -0.012320943 0.76099998 5.6206362e-39
0.041419994 -0.012353338 0.76300001 5.6209949e-39
0.042873327 -0.012353338 0.76299995 5.6209949e-39
-0.016647628 -0.010857135 0.75999999 7.4413853e-40
-0.015160004 -0.01082857 0.75799996 5.5974867e-40
-0.013680018 -0.010799989 0.75599992 3.7679514e-40
-0.012240019 -0.010799989 0.75599998 1.9348148e-40
-0.010785709 -0.010785714 0.755 3.7679234e-40
-0.0093228631 -0.010757141 0.75299996 4.6935091e-40
-0.0078781033 -0.010742851 0.75199997 3.7787975e-40
-0.0064457236 -0.010742843 0.75199997 2.8605546e-40
-0.0050133443 -0.010742858 0.75199997 4.700978e-40
-0.0035809646 -0.010742843 0.75199997 6.5448906e-40
-0.0021428654 -0.010714278 0.75 6.5521073e-40
-0.00071143679 -0.010671422 0.74699998 6.5449186e-40
0.00071142247 -0.010671422 0.74699998 4.6830974e-40
0.0021285652 -0.010642856 0.745 2.8787014e-40
0.003547613 -0.010642856 0.745 5.908851e-39
0.004966653 -0.010642856 0.745 1.1431926e-38
0.0063857115 -0.010642871 0.745 1.2636939e-38
0.0078047514 -0.010642856 0.745 1.371271e-38
0.0092237983 -0.010642849 0.745 1.3137238e-38
0.010642845 -0.010642856 0.74499995 1.2582967e-38
0.012061898 -0.010642856 0.745 1.2857369e-38
0.013480945 -0.010642864 0.745 1.3041406e-38
0.014939997 -0.010671422 0.74699998 1.2857383e-38
0.01631905 -0.010642856 0.745 1.2673706e-38
0.017785713 -0.010671422 0.74699998 1.2673701e-38
0.019208573 -0.010671414 0.74699998 1.2581862e-38
0.020631423 -0.010671407 0.74699998 1.258186e-38
0.022054287 -0.010671429 0.74699998 1.2581865e-38
0.023508569 -0.01068572 0.74800003 1.2857737e-38
0.024933331 -0.01068572 0.74800003 1.3133614e-38
0.026428552 -0.01071427 0.75 1.267373e-38
0.027782861 -0.01068572 0.74800003 1.2128842e-38
0.029285697 -0.010714278 0.74999994 1.2420877e-38
0.030796185 -0.010742858 0.75199997 1.2616431e-38
0.032271426 -0.010757148 0.75299996 1.0693672e-38
0.033705719 -0.010757141 0.75300002 8.753187e-39
0.03523333 -0.010785706 0.755 6.7147686e-39
0.036719996 -0.010799982 0.75599998 4.6068584e-39
0.038412392 -0.010871433 0.76100004 5.0685484e-39
