# .PCD v0.7 - Point Cloud Data file format
VERSION 0.7
FIELDS x y z rgb
SIZE 4 4 4 4
TYPE F F F F
COUNT 1 1 1 1
WIDTH 941
HEIGHT 1
VIEWPOINT 0 0 0 1 0 0 0
POINTS 941
DATA ascii
0.00069903146 -0.01887431 0.73400003 1.0243674e-39
0.0020971347 -0.018874317 0.73400003 1.1169162e-39
0.0034952362 -0.018874317 0.73400003 1.1172707e-39
0.0048933397 -0.018874303 0.73400003 1.1169105e-39
0.0062913871 -0.018874303 0.73400003 1.2083859e-39
0.0076894904 -0.018874303 0.73400003 1.209102e-39
0.0090875933 -0.018874303 0.73400003 1.3020123e-39
0.010457166 -0.018822879 0.73200005 1.3927646e-39
0.011883797 -0.018874295 0.73400003 8.3815865e-40
0.0132819 -0.018874295 0.73400003 1.9856399e-40
0.014680004 -0.018874303 0.73400003 4.2551353e-39
0.016034303 -0.018822879 0.73200011 8.212695e-39
0.017476154 -0.018874295 0.73399997 8.3088591e-39
0.018874256 -0.018874303 0.73400003 8.3081388e-39
0.020327626 -0.018925734 0.73600006 8.7651625e-39
0.021729546 -0.018925741 0.73600006 9.1339366e-39
0.023162821 -0.018951446 0.73700005 8.8584274e-39
0.024633327 -0.019002855 0.73900002 8.5807699e-39
0.026076188 -0.019028589 0.74000001 7.9311069e-39
0.027485723 -0.019028574 0.74000001 7.286787e-39
0.028895253 -0.019028589 0.74000007 6.2675918e-39
0.03038667 -0.019080013 0.74200004 5.1633546e-39
0.031842887 -0.01910574 0.74300009 4.9760375e-39
0.033258103 -0.019105732 0.74300003 4.7937972e-39
0.034766693 -0.019157156 0.74500006 5.1618525e-39
0.03628289 -0.019208603 0.7470001 5.4384309e-39
-0.023665689 -0.017928585 0.75300002 6.3640418e-39
-0.022201907 -0.017904781 0.75200003 3.8748103e-39
-0.020769546 -0.017904773 0.75200003 1.4770372e-39
-0.019337125 -0.017904781 0.75200009 1.1104057e-39
-0.017809531 -0.017809547 0.74800003 8.3705022e-40
-0.016319035 -0.017738111 0.74500006 6.5266036e-40
-0.014859993 -0.017690487 0.74300003 4.6971104e-40
-0.013444746 -0.017690495 0.74300003 5.6155074e-40
-0.012013327 -0.017666683 0.7420001 6.5374777e-40
-0.010571402 -0.017619073 0.74000007 5.6263254e-40
-0.0091619007 -0.017619051 0.74000001 4.7223758e-40
-0.0077419099 -0.017595246 0.73900002 6.5627291e-40
-0.0063342988 -0.017595254 0.73900002 9.3321713e-40
-0.0049266624 -0.017595246 0.73900008 9.3321994e-40
-0.0035190561 -0.017595254 0.73900002 9.3358848e-40
-0.0021028768 -0.017523833 0.73600006 9.3252069e-40
-0.00070095685 -0.017523825 0.73600006 9.3144729e-40
0.00069902028 -0.017476209 0.73400003 1.0240031e-39
0.0020971235 -0.017476209 0.73400003 1.0240003e-39
0.0034952231 -0.017476216 0.73400003 1.0247149e-39
0.0048800106 -0.017428592 0.73200005 1.0243632e-39
0.00629143 -0.017476201 0.73400003 1.116563e-39
0.0076895035 -0.017476201 0.73399997 1.2087502e-39
0.0090875784 -0.017476201 0.73400003 1.209818e-39
0.010485683 -0.017476201 0.73400003 1.3023654e-39
0.011883785 -0.017476209 0.73400003 7.4739935e-40
0.013281888 -0.017476209 0.73400003 2.8573036e-40
0.01467999 -0.017476209 0.73400003 4.2518941e-39
0.016078094 -0.017476209 0.73400003 8.1165463e-39
0.017476197 -0.017476216 0.73400003 8.9513432e-39
0.018874245 -0.017476194 0.73400003 9.8714905e-39
0.020327622 -0.017523825 0.73600006 9.7789361e-39
0.021729518 -0.017523825 0.73600006 9.6867377e-39
0.023162821 -0.017547645 0.73700005 9.1342856e-39
0.024633339 -0.017595261 0.73900008 8.6740333e-39
0.026076205 -0.017619058 0.74000001 8.2116272e-39
0.027485734 -0.017619058 0.74000007 7.8410314e-39
0.028895268 -0.017619066 0.74000007 6.8243572e-39
0.03042764 -0.017690487 0.74300009 5.9009141e-39
0.031842858 -0.017690495 0.74300003 5.6221117e-39
0.033258129 -0.017690487 0.74300003 5.3462381e-39
0.034859996 -0.01778575 0.7470001 5.5299007e-39
0.036331434 -0.01780954 0.74800003 5.7146465e-39
0.037756182 -0.017809525 0.74799997 5.4387785e-39
-0.0236657 -0.016494304 0.75300002 9.2077234e-39
-0.022231411 -0.016494304 0.75300008 5.4442786e-39
-0.020797128 -0.016494311 0.75300002 1.5774767e-39
-0.01933717 -0.016472392 0.75200003 1.383736e-39
-0.017809538 -0.01638478 0.74799997 1.2015097e-39
-0.016319057 -0.016319066 0.74500006 9.2816545e-40
-0.014859993 -0.016275257 0.74300003 5.6154514e-40
-0.013444776 -0.016275249 0.74300003 6.541037e-40
-0.012013334 -0.01625336 0.7420001 7.4630073e-40
-0.010571417 -0.016209535 0.74000001 6.5482537e-40
-0.009161884 -0.016209543 0.74000001 4.7187605e-40
-0.007752351 -0.016209535 0.74000001 9.3213393e-40
-0.0063342885 -0.016187631 0.73900002 1.391317e-39
-0.0049266783 -0.016187638 0.73900008 1.2083691e-39
-0.0035190422 -0.016187631 0.73900008 9.3322974e-40
-0.0021028507 -0.016121916 0.73600012 9.3287802e-40
-0.00070093077 -0.016121916 0.73600012 9.3252209e-40
0.00069903332 -0.016078107 0.73400003 9.3216476e-40
0.0020971086 -0.016078115 0.73400003 9.3252069e-40
0.0034857311 -0.016034305 0.73200005 9.3251929e-40
0.0048800181 -0.016034305 0.73200005 9.3216196e-40
0.0062743011 -0.016034305 0.73200005 1.0240003e-39
0.007668586 -0.016034305 0.73200011 1.1176252e-39
0.0090875933 -0.016078107 0.73399997 1.1183385e-39
0.010514278 -0.016121924 0.73600006 1.1176126e-39
0.0119162 -0.016121916 0.73600006 7.4631755e-40
0.013318121 -0.016121924 0.73600012 3.8437897e-40
0.014679979 -0.016078107 0.73400003 4.2576366e-39
0.016078083 -0.016078115 0.73400003 8.0290198e-39
0.017523805 -0.016121916 0.73600006 9.6924928e-39
0.018925725 -0.016121909 0.73600006 1.1340507e-38
0.020327644 -0.016121924 0.73600006 1.0792359e-38
0.02172954 -0.016121924 0.73600012 1.0145917e-38
0.023162849 -0.016143821 0.73700005 9.5016247e-39
0.024566665 -0.016143829 0.73700005 8.7651443e-39
0.026076222 -0.016209535 0.74000001 8.583983e-39
0.027485752 -0.016209543 0.74000007 8.3034305e-39
0.028895255 -0.016209535 0.74000001 7.4707887e-39
0.030427642 -0.016275242 0.74300003 6.5462681e-39
0.031842887 -0.016275264 0.74300009 6.1734778e-39
0.033347644 -0.016319059 0.74500006 5.8054128e-39
0.034860015 -0.016362891 0.7470001 5.8965252e-39
0.03633143 -0.016384788 0.74800003 5.989074e-39
0.037756182 -0.01638478 0.74800003 5.8053988e-39
-0.023665683 -0.015060015 0.75300002 8.929717e-39
-0.022231424 -0.015060008 0.75300002 7.6522891e-39
-0.020797139 -0.015060008 0.75300002 6.362244e-39
-0.019285681 -0.015000008 0.75000006 3.504178e-39
-0.017809514 -0.014960013 0.74800003 6.4689542e-40
-0.016319044 -0.014900014 0.74500006 5.5830954e-40
-0.014859995 -0.014860012 0.74300003 4.7006837e-40
-0.013444746 -0.014860019 0.74300003 5.6190947e-40
-0.012013336 -0.014840022 0.7420001 7.4665806e-40
-0.010571427 -0.01480002 0.74000001 6.5482397e-40
-0.0091618942 -0.01480002 0.74000007 6.551855e-40
-0.0077418876 -0.014780015 0.73900008 8.3957676e-40
-0.0063343062 -0.014780007 0.73900002 1.1143742e-39
-0.0049266699 -0.014780007 0.73900002 1.0243408e-39
-0.0035190338 -0.014780022 0.73900002 9.3358848e-40
-0.0021028563 -0.014720008 0.73600006 1.0247121e-39
-0.00070093636 -0.014720015 0.73600006 1.116549e-39
0.00069902214 -0.014680013 0.73399997 1.0250736e-39
0.0020971235 -0.014680021 0.73400003 9.3323675e-40
0.0034952268 -0.014680021 0.73400003 8.4103972e-40
0.0048800218 -0.014640011 0.73200005 8.3996212e-40
0.0062914076 -0.014680021 0.73400003 9.3287101e-40
0.0076895091 -0.014680013 0.73400003 1.0268589e-39
0.0090876119 -0.014680021 0.73400003 1.1190517e-39
0.010485715 -0.014680021 0.73400003 1.2108788e-39
0.011916194 -0.014720008 0.73600006 7.4846434e-40
0.013318089 -0.014720023 0.73600006 3.7971405e-40
0.014679966 -0.014680028 0.73400003 3.793797e-39
0.016078072 -0.014680021 0.73400003 7.202506e-39
0.017523799 -0.014720008 0.73600006 6.8326865e-39
0.018925721 -0.01472 0.73600006 6.4649801e-39
0.020327616 -0.014720015 0.73600006 6.833034e-39
0.021729538 -0.01472 0.73600006 7.2043108e-39
0.023162825 -0.014740013 0.73700005 7.5680543e-39
0.024566645 -0.01474002 0.73700005 7.9328795e-39
0.026076233 -0.01480002 0.74000001 7.5691193e-39
0.027485738 -0.014800012 0.74000001 7.2968203e-39
0.028973334 -0.014840007 0.74200004 6.5517107e-39
0.030427642 -0.014860012 0.74300009 5.9055664e-39
0.031842858 -0.014860019 0.74300003 5.7153695e-39
0.033347651 -0.014900014 0.74500006 5.6210201e-39
0.034860004 -0.014940031 0.7470001 5.7128528e-39
0.036331423 -0.014960013 0.74800003 5.8046827e-39
0.037756205 -0.014960021 0.74800003 5.7128402e-39
-0.023759991 -0.013680018 0.75600004 8.6545552e-39
-0.022290507 -0.013661921 0.75500005 9.8725078e-39
-0.020797122 -0.013625726 0.75300002 1.1055207e-38
-0.019285675 -0.013571434 0.75000012 5.6235971e-39
-0.017809518 -0.013535254 0.74800003 1.0378997e-40
-0.016319036 -0.013480969 0.74500006 1.8845923e-40
-0.014859991 -0.013444781 0.74300003 2.8424639e-40
-0.013426666 -0.013426676 0.74200004 4.6900058e-40
-0.012013339 -0.013426699 0.7420001 6.5374497e-40
-0.010571413 -0.013390496 0.74000001 7.459364e-40
-0.0091495411 -0.013372391 0.73900002 8.3885369e-40
-0.0077419044 -0.013372406 0.73900008 8.3957676e-40
-0.006334268 -0.013372399 0.73900008 7.4810841e-40
-0.0049266876 -0.013372391 0.73900002 8.4031104e-40
-0.0035190515 -0.013372391 0.73900002 9.3251228e-40
-0.0021028321 -0.013318099 0.73600012 1.1158301e-39
-0.0007009643 -0.013318114 0.73600006 1.2087432e-39
0.00070095743 -0.013318114 0.73600006 1.0261498e-39
0.0021028772 -0.013318107 0.73600006 8.4212152e-40
0.0035047729 -0.013318107 0.73600012 8.4212433e-40
0.0049066949 -0.013318107 0.73600012 7.4920142e-40
0.0063085607 -0.013318107 0.73600006 8.4066838e-40
0.0077104806 -0.013318099 0.73600006 8.4246624e-40
0.0091123777 -0.013318121 0.73600012 1.1194119e-39
0.010514298 -0.013318114 0.73600012 1.3016423e-39
0.011916219 -0.013318121 0.73600012 8.4030824e-40
0.013318084 -0.013318107 0.73600006 2.9147148e-40
0.014720007 -0.013318107 0.73600006 3.3349824e-39
0.016121903 -0.013318099 0.73600006 6.2748099e-39
0.017523823 -0.013318121 0.73600006 3.9706871e-39
0.018925745 -0.013318114 0.73600012 1.5876333e-39
0.020327611 -0.013318107 0.73600006 2.8704646e-39
0.021729531 -0.013318107 0.73600006 4.1644082e-39
0.023162851 -0.013336204 0.73700005 5.6337719e-39
0.024633342 -0.013372391 0.73900002 7.0130896e-39
0.026076192 -0.013390489 0.74000001 6.646098e-39
0.027559979 -0.013426691 0.74200004 6.2751364e-39
0.028973332 -0.013426684 0.74200004 5.7172767e-39
0.030427642 -0.013444766 0.74300003 5.1651399e-39
0.031842887 -0.013444781 0.74300009 5.2526216e-39
0.033347633 -0.013480961 0.74500006 5.3455206e-39
0.034906663 -0.013535246 0.74800003 5.4377009e-39
0.036331449 -0.013535254 0.74800003 5.5288161e-39
0.037756197 -0.013535254 0.74800003 5.5284545e-39
-0.023759989 -0.012240008 0.75600004 8.7406384e-39
-0.022320015 -0.01224 0.75600004 1.0049028e-38
-0.020852404 -0.012223817 0.75500005 1.1341502e-38
-0.019285701 -0.012142867 0.75000006 7.8387977e-39
-0.017809525 -0.012110487 0.74800003 4.4258134e-39
-0.016319025 -0.012061909 0.74500006 2.3049832e-39
-0.014859963 -0.012029544 0.74300009 2.8460792e-40
-0.013444746 -0.012029529 0.74300003 3.7752522e-40
-0.012013347 -0.012013346 0.74200004 5.6154934e-40
-0.010571399 -0.011980966 0.74000007 7.4593079e-40
-0.0091495328 -0.011964783 0.73900002 9.3068639e-40
-0.0077418969 -0.011964776 0.73900002 8.399355e-40
-0.0063342857 -0.011964776 0.73900008 7.4882587e-40
-0.0049266792 -0.011964761 0.73900002 8.4102851e-40
-0.0035190431 -0.011964776 0.73900002 9.3251228e-40
-0.0021057471 -0.011932403 0.73700005 1.0250708e-39
-0.00070093822 -0.011916205 0.73600012 1.025431e-39
0.00070095184 -0.01191619 0.73600006 9.3431295e-40
0.0021028474 -0.011916205 0.73600006 7.5029023e-40
0.003504771 -0.011916213 0.73600006 7.5029584e-40
0.0049066651 -0.011916205 0.73600012 6.5808339e-40
0.0063085868 -0.011916213 0.73600012 7.4954054e-40
0.0077105067 -0.011916205 0.73600012 8.4210331e-40
0.0091123739 -0.011916198 0.73600006 9.3466467e-40
0.010514295 -0.01191619 0.73600006 1.1179755e-39
0.011916189 -0.011916213 0.73600006 7.4704482e-40
0.01331811 -0.011916205 0.73600012 2.8466117e-40
0.014720033 -0.011916213 0.73600012 3.6983812e-39
0.0161219 -0.011916198 0.73600006 7.1016741e-39
0.01752382 -0.011916198 0.73600006 6.3659111e-39
0.018925717 -0.011916198 0.73600012 5.6258616e-39
0.020327637 -0.011916213 0.73600012 6.0915117e-39
0.021759035 -0.01193238 0.73700005 6.6428862e-39
0.023162829 -0.011932403 0.73700005 7.2900409e-39
0.024633324 -0.011964776 0.73900002 7.9310845e-39
0.026146658 -0.012013353 0.7420001 6.7343419e-39
0.027559975 -0.012013353 0.74200004 5.5318303e-39
0.028973328 -0.012013346 0.74200004 5.2555657e-39
0.030427642 -0.012029551 0.74300009 4.9785962e-39
0.031928606 -0.012061924 0.74500006 5.3462675e-39
0.033347618 -0.012061924 0.74500006 5.713227e-39
0.034906685 -0.012110487 0.74800003 5.6210089e-39
0.036331411 -0.012110494 0.74800003 5.6202914e-39
0.037756193 -0.012110487 0.74800003 5.4369792e-39
-0.023822863 -0.010828592 0.75800002 8.7478243e-39
-0.022319984 -0.010800011 0.75600004 1.0241666e-38
-0.020769535 -0.010742873 0.75200003 1.1618465e-38
-0.019285697 -0.010714293 0.75000006 1.0147646e-38
-0.017809501 -0.010685742 0.74800003 8.6603048e-39
-0.016319048 -0.010642879 0.74500006 4.413234e-39
-0.014859993 -0.010614306 0.74300003 1.9132909e-40
-0.013444744 -0.010614306 0.74300009 3.7824409e-40
-0.012013351 -0.010600008 0.74200004 4.6971805e-40
-0.010571415 -0.010571435 0.74000001 7.4557906e-40
-0.0091618812 -0.010571443 0.74000001 9.3069059e-40
-0.0077419118 -0.010557167 0.73900002 8.399369e-40
-0.0063342755 -0.01055716 0.73900002 6.5770644e-40
-0.004926695 -0.01055716 0.73900002 8.4174177e-40
-0.0035190589 -0.010557152 0.73900002 9.3358427e-40
-0.0021057453 -0.010528594 0.73700005 9.3395001e-40
-0.00070094381 -0.010514297 0.73600006 8.4211592e-40
0.00070094998 -0.010514304 0.73600012 7.5100069e-40
0.0021028717 -0.010514297 0.73600012 6.5880926e-40
0.0035047636 -0.010514289 0.73600006 6.591708e-40
0.0049066595 -0.010514304 0.73600006 5.6624789e-40
0.0063085812 -0.010514304 0.73600006 6.5699598e-40
0.0077104769 -0.010514297 0.73600012 7.4991048e-40
0.0091123981 -0.010514304 0.73600012 8.4246624e-40
0.01051429 -0.010514289 0.73600006 9.3286541e-40
0.011916185 -0.010514289 0.73600006 6.52694e-40
0.013318107 -0.010514289 0.73600006 2.9039388e-40
0.014720002 -0.010514304 0.73600012 4.0725293e-39
0.016121924 -0.010514304 0.73600012 7.839951e-39
0.017523846 -0.010514304 0.73600012 8.7658534e-39
0.01892571 -0.010514289 0.73600006 9.5898659e-39
0.020355219 -0.010528594 0.73700005 9.4108626e-39
0.021759035 -0.010528587 0.73700005 9.1321346e-39
0.023162855 -0.010528594 0.73700005 8.9527768e-39
0.024633331 -0.010557145 0.73900002 8.7626318e-39
0.026076222 -0.010571435 0.74000001 6.7368531e-39
0.027559971 -0.010600008 0.74200004 4.7081779e-39
0.029012399 -0.010614298 0.74300009 4.702036e-39
0.030509552 -0.010642871 0.74500006 4.7034443e-39
0.031928562 -0.010642871 0.74500006 5.3480612e-39
0.033347625 -0.010642864 0.74500006 5.9890936e-39
0.034906656 -0.010685727 0.74800003 5.8043226e-39
0.036331434 -0.010685734 0.74800003 5.6202872e-39
0.037756186 -0.01068572 0.74800003 5.4362519e-39
-0.023822853 -0.0093847737 0.75799996 9.028723e-39
-0.022319982 -0.0093600154 0.75600004 1.0512149e-38
-0.020797152 -0.0093228593 0.75300002 1.1896147e-38
-0.019285692 -0.0092857331 0.75000012 1.1158959e-38
-0.017809533 -0.0092609674 0.74800003 1.0419182e-38
-0.016319035 -0.0092238188 0.74500006 5.8079659e-39
-0.014899972 -0.0092238188 0.74500006 1.1989986e-39
-0.013444746 -0.0091990605 0.74300003 7.4235888e-40
-0.012029499 -0.009199053 0.74300009 2.8533379e-40
-0.010600002 -0.0091866776 0.74200004 6.5446804e-40
-0.0091618933 -0.0091619268 0.74000007 9.3105353e-40
-0.0077419034 -0.009149529 0.73900002 8.4065436e-40
-0.0063342932 -0.0091495365 0.73900008 7.5061673e-40
-0.0049266568 -0.0091495439 0.73900008 8.4245503e-40
-0.0035190505 -0.0091495365 0.73900002 9.3465627e-40
-0.0021057453 -0.0091247782 0.73700005 9.3394581e-40
-0.00070094754 -0.0091123804 0.73600006 1.0247093e-39
0.00070094626 -0.0091124028 0.73600006 8.4211732e-40
0.0021028698 -0.0091124028 0.73600006 7.5028182e-40
0.0035047636 -0.0091124028 0.73600012 6.5844493e-40
0.0049066856 -0.0091123953 0.73600012 5.6588916e-40
0.0063085756 -0.0091123879 0.73600006 7.4847975e-40
0.0077104731 -0.0091123879 0.73600006 8.4102991e-40
0.0091123944 -0.0091124028 0.73600006 9.339374e-40
0.010514288 -0.0091124028 0.73600012 1.026489e-39
0.011916209 -0.0091124028 0.73600012 6.5412332e-40
0.013318077 -0.0091123879 0.73600006 2.8392969e-40
0.014719998 -0.0091123953 0.73600006 3.9742268e-39
0.016121918 -0.0091123879 0.73600006 7.7463275e-39
0.017523816 -0.0091123879 0.73600012 8.3978149e-39
0.018925736 -0.0091124102 0.73600012 9.0460374e-39
0.020327602 -0.0091123953 0.73600006 8.8598483e-39
0.021759039 -0.0091247782 0.73700005 8.7673093e-39
0.023162857 -0.0091247857 0.73700005 8.5832922e-39
0.024566645 -0.0091247633 0.73699999 8.4903595e-39
0.026146675 -0.0091866925 0.7420001 7.0120008e-39
0.027559994 -0.0091866851 0.74200004 5.6276062e-39
0.02897332 -0.0091866776 0.7420001 4.7045401e-39
0.030509559 -0.0092238337 0.74500006 3.8765633e-39
0.031928573 -0.0092238188 0.74500006 4.7952546e-39
0.033347607 -0.0092238262 0.74500006 5.7135871e-39
0.034906678 -0.0092609674 0.74800003 5.620653e-39
0.03633143 -0.0092609674 0.74800003 5.5277301e-39
0.037756208 -0.0092609599 0.74800003 5.435882e-39
0.039180961 -0.0092609748 0.74800003 5.3440563e-39
-0.025333332 -0.0079619139 0.76000005 7.2680251e-39
-0.023822838 -0.0079409704 0.75800002 9.3081937e-39
-0.022290485 -0.0079095438 0.75500005 1.0790533e-38
-0.020797135 -0.0078885928 0.75300002 1.2170221e-38
-0.019337147 -0.0078781173 0.75200003 1.2172378e-38
-0.017857118 -0.0078571662 0.75000006 1.2075471e-38
-0.016362848 -0.0078257397 0.7470001 7.1080542e-39
-0.014899991 -0.0078047737 0.74500006 2.128124e-39
-0.013480925 -0.0078047737 0.74500006 1.1071659e-39
-0.012029527 -0.0077838302 0.74300003 1.0200892e-40
-0.010600006 -0.0077733397 0.74200004 5.6370734e-40
-0.0091866842 -0.0077733472 0.74200004 9.3177099e-40
-0.0077523752 -0.0077523887 0.74000001 8.4137463e-40
-0.0063342848 -0.0077419207 0.73900002 7.502608e-40
-0.0049266745 -0.0077419281 0.73900008 8.421019e-40
-0.0035190682 -0.0077419207 0.73900002 9.3394301e-40
-0.0021057155 -0.0077209622 0.73700005 1.0254254e-39
-0.00070195523 -0.0077209771 0.73700005 1.1179811e-39
0.00070186454 -0.0077209771 0.73700005 1.0265072e-39
0.0021056805 -0.0077209771 0.73700005 8.4247605e-40
0.0035095003 -0.0077209696 0.73700005 7.4956296e-40
0.0049066818 -0.0077104941 0.73600006 5.6516889e-40
0.0063171047 -0.0077209622 0.73700005 7.4668329e-40
0.0077104992 -0.0077104941 0.73600012 9.328626e-40
0.0091123888 -0.0077104867 0.73600006 1.0261316e-39
0.010514284 -0.0077104792 0.73600006 1.1168867e-39
0.011916206 -0.0077104792 0.73600006 6.5340025e-40
0.013281886 -0.0076895282 0.73400003 1.9782971e-40
0.014720023 -0.0077104941 0.73600012 3.8856185e-39
0.016121889 -0.0077104867 0.73600006 7.5651648e-39
0.017523812 -0.0077104867 0.73600006 8.0322624e-39
0.018925732 -0.0077104867 0.73600006 8.3999575e-39
0.02032763 -0.0077104867 0.73600012 8.398517e-39
0.021759041 -0.0077209622 0.73700005 8.3066885e-39
0.023162859 -0.0077209622 0.73700005 8.21486e-39
0.024633355 -0.0077419132 0.73900008 8.1197819e-39
0.026040934 -0.0077419132 0.73900002 7.2849976e-39
0.027559992 -0.0077733472 0.74200004 6.4552005e-39
0.029012399 -0.0077838302 0.74300009 4.7956553e-39
0.030427616 -0.0077838227 0.74300003 3.0507571e-39
0.03192858 -0.0078047886 0.74500006 4.2431612e-39
0.033437155 -0.0078257471 0.7470001 5.4369988e-39
0.034859981 -0.0078257471 0.74700004 5.4362575e-39
0.036331426 -0.0078362077 0.74800003 5.3440535e-39
0.037756179 -0.0078362077 0.74800003 5.4355204e-39
0.039285745 -0.0078571513 0.75000006 5.4362449e-39
0.040714316 -0.0078571439 0.75000006 5.2529397e-39
0.042142887 -0.0078571588 0.75000012 5.0685484e-39
-0.025333337 -0.0065143034 0.76000011 7.6436445e-39
-0.023822857 -0.0064971671 0.75799996 9.8696267e-39
-0.022290485 -0.0064714402 0.75500005 1.0698705e-38
-0.020797146 -0.0064542964 0.75300002 1.1617777e-38
-0.019337134 -0.0064457357 0.75200003 1.1712841e-38
-0.017857112 -0.0064285845 0.75000012 1.1714607e-38
-0.016362853 -0.0064028949 0.7470001 8.1182853e-39
-0.014899981 -0.0063857287 0.74500006 4.5169329e-39
-0.013480945 -0.0063857213 0.745 2.3063845e-39
-0.012029499 -0.0063685924 0.74300003 1.959842e-40
-0.01060001 -0.0063600168 0.7420001 4.7222917e-40
-0.0091866897 -0.0063600093 0.74200004 7.4845873e-40
-0.0077523612 -0.006342873 0.74000001 7.4954054e-40
-0.0063343025 -0.0063342899 0.73900002 7.4990627e-40
-0.0049266662 -0.0063342974 0.73900002 8.4210751e-40
-0.0035190301 -0.0063343048 0.73900008 1.0257827e-39
-0.0021057155 -0.0063171685 0.73700005 1.026503e-39
-0.00070195523 -0.0063171536 0.73700005 1.0279407e-39
0.00070186454 -0.0063171536 0.73700005 1.1194203e-39
0.0021056805 -0.006317161 0.73700005 1.1190601e-39
0.0035094984 -0.006317161 0.73700005 1.0261456e-39
0.0049132886 -0.0063171685 0.73699999 8.4139145e-40
0.0063171047 -0.006317161 0.73700005 9.3250247e-40
0.0077209244 -0.006317161 0.73700005 1.0250554e-39
0.009112387 -0.0063085854 0.73600012 1.117607e-39
0.01051428 -0.006308578 0.73600006 1.1183189e-39
0.011916176 -0.0063085854 0.73600006 7.4630634e-40
0.013318097 -0.006308578 0.73600006 3.7647425e-40
0.014739982 -0.006317161 0.73700005 3.97494e-39
0.016143801 -0.0063171685 0.73700005 7.5655193e-39
0.017547587 -0.0063171536 0.73699999 7.9379102e-39
0.018951405 -0.0063171536 0.73700005 8.3063242e-39
0.020355226 -0.0063171536 0.73700005 8.397438e-39
0.021759043 -0.0063171685 0.73700005 8.4885574e-39
0.023225699 -0.0063343048 0.73900002 8.6729459e-39
0.02466668 -0.0063428581 0.74000001 8.764417e-39
0.026146637 -0.0063600019 0.74200004 7.9335858e-39
0.027559988 -0.0063600242 0.74200004 7.0105169e-39
0.029012395 -0.0063685775 0.74300003 5.6279117e-39
0.030509526 -0.0063857436 0.74500006 4.2471269e-39
0.031928562 -0.0063857213 0.74500006 4.9792745e-39
0.033347625 -0.0063857213 0.74500006 5.7124983e-39
0.03490667 -0.0064114481 0.74800003 5.3444136e-39
0.036428582 -0.0064285845 0.75000012 5.0681827e-39
0.037857153 -0.0064285845 0.75000006 5.1607272e-39
0.039285753 -0.006428577 0.75000012 5.3447625e-39
0.040605702 -0.0064114481 0.74800003 5.2529312e-39
-0.02526666 -0.0050533488 0.75800002 8.109303e-39
-0.023822842 -0.0050533488 0.75800002 1.0325947e-38
-0.022319999 -0.0050400198 0.75600004 1.0699784e-38
-0.020797128 -0.0050200075 0.75300002 1.1068206e-38
-0.019337149 -0.0050133467 0.75200003 1.1254393e-38
-0.017904762 -0.0050133467 0.75200003 1.1342607e-38
-0.016384767 -0.004986681 0.74800003 9.1331421e-39
-0.014940009 -0.0049800202 0.7470001 6.8196474e-39
-0.013480961 -0.0049666837 0.74500006 3.5888753e-39
-0.012029527 -0.0049533471 0.74300003 2.8567992e-40
-0.010614279 -0.0049533546 0.74300003 3.8039928e-40
-0.0091866935 -0.0049466714 0.74200004 4.7331378e-40
-0.0077523435 -0.0049333423 0.74000007 5.6587094e-40
-0.0063342904 -0.0049266815 0.73900002 6.5771345e-40
-0.0049266801 -0.0049266815 0.73900002 9.3394441e-40
-0.0035190459 -0.004926689 0.73900008 1.1176196e-39
-0.0021057136 -0.0049133524 0.73700005 1.0265072e-39
-0.0007019515 -0.004913345 0.73700005 9.3539475e-40
0.0007018664 -0.004913345 0.73700005 1.211983e-39
0.0021056843 -0.004913345 0.73700005 1.3945722e-39
0.0035095003 -0.0049133599 0.73700005 1.3023724e-39
0.0049132905 -0.0049133524 0.73700005 1.1172609e-39
0.0063171065 -0.0049133524 0.73700005 1.1168951e-39
0.0077209263 -0.0049133524 0.73700005 1.1168937e-39
0.0091247419 -0.0049133524 0.73700005 1.1176098e-39
0.010514307 -0.0049066767 0.73600006 1.116535e-39
0.011916202 -0.0049066916 0.73600012 8.3744259e-40
0.013318093 -0.0049066842 0.73600006 4.7369493e-40
0.014739983 -0.0049133524 0.73700005 4.0714306e-39
0.016143801 -0.0049133524 0.73700005 7.565155e-39
0.017547589 -0.004913345 0.73699999 7.9389836e-39
0.018951407 -0.004913345 0.73700005 8.2141285e-39
0.020355226 -0.0049133599 0.73700005 8.4881973e-39
0.021818073 -0.0049266741 0.73900002 8.672234e-39
0.023257161 -0.0049333349 0.74000001 9.0399417e-39
0.024733337 -0.0049466789 0.7420001 9.4076285e-39
0.02614666 -0.0049466789 0.74200004 8.4903371e-39
0.027597152 -0.0049533397 0.74300003 7.5654829e-39
0.029012399 -0.0049533397 0.74300009 6.5495107e-39
0.030509533 -0.0049666837 0.74500006 5.4413428e-39
0.032014281 -0.0049800277 0.74700004 5.7146549e-39
0.033437163 -0.0049800277 0.7470001 5.9883579e-39
0.034906663 -0.0049866736 0.74800003 5.3447808e-39
0.036428612 -0.0050000101 0.75000012 4.7019337e-39
0.037857156 -0.0050000176 0.75000006 4.9781576e-39
0.039285753 -0.0050000176 0.75000012 5.161823e-39
-0.025266679 -0.0036095381 0.75800002 8.3862668e-39
-0.023759997 -0.0036000013 0.75600004 1.0053682e-38
-0.022290492 -0.0035952553 0.75500005 1.069835e-38
-0.020852411 -0.0035952479 0.75500005 1.1251165e-38
-0.019362824 -0.003585726 0.75300002 1.106822e-38
-0.017904773 -0.0035809577 0.75200003 1.0879849e-38
-0.016384745 -0.0035619214 0.74800003 8.9437328e-39
-0.014939991 -0.0035571679 0.74700004 7.0094294e-39
-0.013480951 -0.0035476387 0.74500006 3.9666415e-39
-0.012029497 -0.0035381168 0.74300003 9.2603127e-40
-0.01061428 -0.0035381019 0.74300003 6.5411631e-40
-0.0091866953 -0.0035333484 0.74200004 3.8219995e-40
-0.0077733449 -0.0035333484 0.7420001 4.7367812e-40
-0.006342852 -0.0035238266 0.74000001 5.6516189e-40
-0.0049266717 -0.0035190657 0.73900002 7.4919722e-40
-0.0035190356 -0.0035190582 0.73900002 9.3323395e-40
-0.0021057434 -0.0035095364 0.73699999 1.0257925e-39
-0.0007019515 -0.0035095364 0.73700005 1.1179952e-39
0.0007018664 -0.0035095364 0.73700005 1.302392e-39
0.0021056843 -0.0035095513 0.73700005 1.4856959e-39
0.0035095022 -0.0035095513 0.73700005 1.3931345e-39
0.0049132905 -0.0035095289 0.73700005 1.2083817e-39
0.0063171084 -0.0035095438 0.73700005 1.2087348e-39
0.0077209244 -0.0035095364 0.73700005 1.1165378e-39
0.0091247438 -0.0035095364 0.73700005 1.1172525e-39
0.010528531 -0.0035095438 0.73699999 1.1172623e-39
0.01193235 -0.0035095364 0.73700005 8.3781813e-40
0.013336167 -0.0035095438 0.73700005 4.6688462e-40
0.014739985 -0.0035095364 0.73700005 3.973847e-39
0.016143803 -0.0035095364 0.73700005 7.5626383e-39
0.017547591 -0.0035095438 0.73699999 7.8449915e-39
0.01895141 -0.0035095438 0.73700005 8.2141271e-39
0.020410476 -0.0035190582 0.73900002 8.3967205e-39
0.021818111 -0.0035190582 0.73900008 8.6715222e-39
0.023257149 -0.0035238117 0.74000001 8.7640877e-39
0.024733333 -0.0035333559 0.7420001 8.8562623e-39
0.026146656 -0.003533341 0.74200004 7.9368102e-39
0.027597154 -0.0035381094 0.74300009 7.1095396e-39
0.029012395 -0.0035380945 0.74300003 5.5361056e-39
0.030591445 -0.0035571679 0.7470001 3.9683848e-39
0.032014269 -0.0035571679 0.74700004 4.794844e-39
0.033437155 -0.0035571605 0.7470001 5.6202914e-39
0.034906685 -0.0035619289 0.74800003 5.2533124e-39
0.036428615 -0.0035714433 0.75000012 4.9781745e-39
0.03785716 -0.0035714433 0.75000012 5.1614951e-39
0.039285731 -0.0035714284 0.75000006 5.3458682e-39
-0.025199994 -0.0021600053 0.75600004 8.6671641e-39
-0.023759967 -0.0021600202 0.75600004 9.7763843e-39
-0.022319991 -0.0021600127 0.7560001 1.0605435e-38
-0.020852389 -0.0021571591 0.75500005 1.1434832e-38
-0.019362835 -0.0021514446 0.75300002 1.0979608e-38
-0.01790476 -0.0021485835 0.75200003 1.041815e-38
-0.016428558 -0.0021428764 0.75000006 8.8447086e-39
-0.014940001 -0.0021343231 0.7470001 7.1920172e-39
-0.013480942 -0.0021285862 0.74500006 4.4337125e-39
-0.012061906 -0.0021285713 0.74500006 1.5774949e-39
-0.010614277 -0.0021228641 0.74300003 9.2784035e-40
-0.0091990307 -0.0021228716 0.74300009 1.9602344e-40
-0.0077733486 -0.0021200106 0.7420001 2.9000853e-40
-0.0063428371 -0.0021143034 0.74000007 3.8113356e-40
-0.0049266894 -0.0021114424 0.73900002 5.640941e-40
-0.0035190533 -0.0021114424 0.73900002 7.4920422e-40
-0.0021057397 -0.0021057203 0.73699999 1.0247149e-39
-0.00070192356 -0.0021057278 0.73700005 1.2094691e-39
0.00070187013 -0.0021057352 0.73700005 1.3935058e-39
0.0021056861 -0.0021057352 0.73700005 1.5768111e-39
0.0035190445 -0.0021114498 0.73900008 1.4842511e-39
0.0049266513 -0.0021114349 0.73900002 1.3002158e-39
0.0063342876 -0.0021114498 0.73900002 1.2090922e-39
0.0077418988 -0.0021114498 0.73900008 1.1165364e-39
0.0091495058 -0.0021114349 0.73900002 1.1172511e-39
0.010528532 -0.0021057278 0.73700005 1.1158217e-39
0.011932351 -0.0021057278 0.73700005 8.3744959e-40
0.013336168 -0.0021057278 0.73700005 4.7370054e-40
0.014739986 -0.0021057278 0.73700005 3.9785218e-39
0.016143775 -0.0021057352 0.73699999 7.4718832e-39
0.017547593 -0.0021057352 0.73700005 7.8475026e-39
0.019002849 -0.0021114349 0.73900002 8.1219301e-39
0.020410484 -0.0021114498 0.73900002 8.3960003e-39
0.021847632 -0.0021142885 0.74000001 8.6711578e-39
0.02331998 -0.002120018 0.74200004 8.4878554e-39
0.024733331 -0.002120018 0.7420001 8.3038046e-39
0.026146652 -0.002120018 0.74200004 7.4751132e-39
0.027597152 -0.0021228567 0.74300003 6.5495527e-39
0.029012399 -0.0021228641 0.74300009 4.5173028e-39
0.030509526 -0.0021285936 0.74500006 2.4057576e-39
0.032014288 -0.0021343157 0.74700004 3.7839627e-39
0.0334819 -0.0021371469 0.74800003 5.1611294e-39
0.034906656 -0.0021371543 0.74800003 5.1614811e-39
0.036428589 -0.0021428615 0.75000006 5.160765e-39
0.037857164 -0.0021428689 0.75000012 5.3437186e-39
0.039285734 -0.0021428764 0.75000012 5.436975e-39
-0.025199989 -0.00072001666 0.7560001 8.8537134e-39
-0.023759989 -0.00072000921 0.75600004 9.8710925e-39
-0.022319989 -0.00072000921 0.75600004 1.0514312e-38
-0.020852385 -0.00071905553 0.75500005 1.1250438e-38
-0.019362817 -0.00071715564 0.75300002 1.0607955e-38
-0.017904775 -0.00071621686 0.75200003 9.9582449e-39
-0.016428553 -0.00071428716 0.75000012 7.9252621e-39
-0.014960005 -0.00071239471 0.74800003 6.0010186e-39
-0.013517153 -0.00071145594 0.74700004 4.5284193e-39
-0.012061897 -0.00070954114 0.74500006 3.1448038e-39
-0.01064286 -0.00070952624 0.74500006 1.8497938e-39
-0.0091990326 -0.00070762634 0.74300003 5.6157737e-40
-0.007783785 -0.00070762634 0.74300009 5.6372135e-40
-0.0063600293 -0.00070668012 0.74200004 5.6444723e-40
-0.0049333205 -0.00070476532 0.74000001 6.5700719e-40
-0.003519045 -0.0007038191 0.73900002 8.4139845e-40
-0.0021057397 -0.00070192665 0.73699999 1.0254296e-39
-0.00070192356 -0.0007019192 0.73700005 1.2091062e-39
0.00070187013 -0.00070192665 0.73700005 1.3009473e-39
0.002105688 -0.0007019192 0.73700005 1.3924198e-39
0.0035190557 -0.00070382655 0.73900008 1.2998613e-39
0.0049266606 -0.00070381165 0.73900002 1.2065852e-39
0.0063342708 -0.00070382655 0.73900002 1.1151015e-39
0.0077209282 -0.00070192665 0.73700005 1.0225471e-39
0.0091247456 -0.00070192665 0.73700005 1.024338e-39
0.010528535 -0.0007019192 0.73700005 1.0243394e-39
0.011932352 -0.0007019192 0.73700005 7.4632175e-40
0.01333617 -0.00070191175 0.73700005 4.6867828e-40
0.014739987 -0.0007019341 0.73700005 3.6976441e-39
0.016143776 -0.00070191175 0.73699999 6.9172885e-39
0.017547594 -0.0007019192 0.73700005 7.3811491e-39
0.019002831 -0.0007038191 0.73900002 7.7538693e-39
0.020438112 -0.00070476532 0.74000001 8.1197735e-39
0.021847647 -0.00070476532 0.74000001 8.3938521e-39
0.023320002 -0.00070667267 0.74200004 8.2112643e-39
0.024733325 -0.00070669502 0.7420001 8.0282897e-39
0.026146648 -0.00070668012 0.74200004 7.0116211e-39
0.027597154 -0.00070762634 0.74300009 5.9938692e-39
0.029012397 -0.00070761889 0.74300003 4.5180161e-39
0.030509533 -0.00070954114 0.74500006 2.955707e-39
0.032057144 -0.00071239471 0.74800003 3.7825544e-39
0.033481922 -0.00071240216 0.74800003 4.5179376e-39
0.035000026 -0.00071429461 0.75000012 4.5161257e-39
0.036525708 -0.00071621686 0.75200009 4.6086717e-39
0.037958093 -0.00071619451 0.75200003 4.70014e-39
0.039180961 -0.00071238726 0.74800003 4.8852333e-39
-0.025199989 0.00071998686 0.75600004 9.1346051e-39
-0.023759987 0.00071998686 0.75600004 9.9614903e-39
-0.022290494 0.00071903318 0.75500005 1.0513947e-38
-0.020852387 0.00071903318 0.75500011 1.0975637e-38
-0.019362856 0.00071713328 0.75300002 1.0242749e-38
-0.017904762 0.00071616471 0.75200009 9.4000488e-39
-0.016428523 0.00071427226 0.75000012 7.080806e-39
-0.014959982 0.00071236491 0.74800003 4.7081583e-39
-0.013517136 0.00071140379 0.74700004 4.7182126e-39
-0.012061887 0.00070951134 0.74500006 4.6156137e-39
-0.01064285 0.00070951134 0.74500006 2.7641943e-39
-0.0091990298 0.00070760399 0.74300009 9.2819208e-40
-0.0077733281 0.00070665032 0.7420001 8.388579e-40
-0.006342839 0.00070475787 0.74000001 6.5663164e-40
-0.0049333056 0.00070475787 0.74000001 8.4210751e-40
-0.0035190608 0.00070379674 0.73900002 9.3394721e-40
-0.0021057378 0.0007018894 0.73699999 1.0257883e-39
-0.00070191984 0.0007018894 0.73700005 1.1172693e-39
0.00070187199 0.00070188195 0.73700005 1.2087516e-39
0.0021056898 0.0007018894 0.73700005 1.2087474e-39
0.0035094761 0.00070188195 0.73700005 1.2083845e-39
0.0049266755 0.00070379674 0.73900008 1.1154644e-39
0.006334282 0.00070379674 0.73900002 1.0225443e-39
0.00772093 0.00070188195 0.73700005 8.3959078e-40
0.0091247475 0.00070188195 0.73700005 9.3250247e-40
0.010528536 0.00070189685 0.73700005 9.3214374e-40
0.011932353 0.00070188195 0.73700005 6.5484359e-40
0.01333617 0.0007018894 0.73700005 3.8186644e-40
0.014739987 0.00070188195 0.73700005 3.4257291e-39
0.016143778 0.00070189685 0.73699999 6.3648406e-39
0.017595233 0.00070379674 0.73900008 6.9144354e-39
0.01900287 0.00070379674 0.73900008 7.3822211e-39
0.020438103 0.00070475787 0.74000001 7.7509966e-39
0.021847637 0.00070475042 0.74000007 8.1187043e-39
0.023319999 0.00070665032 0.74200004 7.9353991e-39
0.02473335 0.00070665032 0.7420001 7.6570003e-39
0.026146645 0.00070665777 0.74200004 6.5484947e-39
0.027597154 0.00070761144 0.74300003 5.440701e-39
0.029012399 0.00070759654 0.74300003 4.5137099e-39
0.030509545 0.00070950389 0.74500006 3.5049179e-39
0.032014299 0.00071140379 0.74700004 3.6881937e-39
0.033481892 0.00071236491 0.74800003 3.8704088e-39
0.035000026 0.00071427226 0.75000006 3.9604282e-39
0.036428601 0.00071427971 0.75000012 3.9618603e-39
0.037857171 0.00071428716 0.75000006 4.1466061e-39
0.039285742 0.00071427971 0.75000006 4.3306288e-39
-0.025200013 0.0021599904 0.75600004 9.0381088e-39
-0.023760011 0.0021599978 0.75600004 9.867501e-39
-0.022319982 0.0021599829 0.7560001 1.0606132e-38
-0.020852391 0.0021571293 0.75500005 1.1436238e-38
-0.019362835 0.0021514073 0.75300008 9.7785325e-39
-0.017904751 0.0021485612 0.75200003 8.1147022e-39
-0.016428549 0.0021428615 0.75000006 6.5366089e-39
-0.014999975 0.0021428391 0.75000012 4.888972e-39
-0.013535233 0.0021371245 0.74800003 5.3578549e-39
-0.012061907 0.0021285638 0.74500006 5.7230276e-39
-0.010642841 0.0021285564 0.74500006 3.13619e-39
-0.0091990326 0.0021228492 0.74300003 6.5052198e-40
-0.0077733318 0.0021199808 0.7420001 6.5481556e-40
-0.0063428511 0.0021142736 0.74000001 6.5698197e-40
-0.0049333177 0.0021142811 0.74000007 7.4954894e-40
-0.0035238143 0.0021142662 0.74000001 9.3394441e-40
-0.0021057378 0.0021057054 0.73700005 1.1172637e-39
-0.00070191984 0.0021057054 0.73700005 1.3012976e-39
0.00070187199 0.0021057054 0.73700005 1.2087488e-39
0.0021056898 0.0021056905 0.73700005 1.2083873e-39
0.0035094779 0.002105698 0.73700005 1.1165476e-39
0.0049132961 0.002105698 0.73700005 1.0247023e-39
0.006317114 0.002105698 0.73700005 9.317808e-40
0.00772093 0.002105698 0.73700005 7.4847134e-40
0.0091247195 0.0021057054 0.73700005 9.3250247e-40
0.010528536 0.002105698 0.73700005 1.025054e-39
0.011932355 0.0021056905 0.73700005 6.5448205e-40
0.013336171 0.002105698 0.73700005 3.7612813e-40
0.01473999 0.0021056905 0.73700005 3.6962176e-39
0.016143778 0.0021057054 0.73700005 7.007689e-39
0.017595245 0.0021114126 0.73900002 7.4719014e-39
0.019002851 0.0021114126 0.73900008 7.9353836e-39
0.020438118 0.0021142736 0.74000007 8.1190546e-39
0.021847649 0.0021142662 0.74000007 8.3945681e-39
0.023319995 0.0021199882 0.7420001 8.2101867e-39
0.024733318 0.0021199808 0.74200004 8.0243409e-39
0.026181905 0.0021228567 0.74300003 7.1931341e-39
0.027597154 0.0021228492 0.74300009 6.3597721e-39
0.029012371 0.0021228418 0.74300003 5.529996e-39
0.030509526 0.0021285638 0.74500006 4.6980535e-39
0.032014284 0.0021342635 0.7470001 6.1702492e-39
0.033481915 0.0021371245 0.74800003 7.6316998e-39
0.035000034 0.002142854 0.75000006 7.2697136e-39
0.036428578 0.0021428391 0.75000006 6.9891877e-39
0.037958093 0.0021485463 0.75200003 6.6261533e-39
0.039390456 0.0021485612 0.75200003 6.3449071e-39
-0.02519998 0.0035999939 0.7560001 8.9462649e-39
-0.023759982 0.003599979 0.75600004 9.6849048e-39
-0.022319982 0.0035999864 0.75600004 1.0790888e-38
-0.020852393 0.0035952255 0.75500005 1.189327e-38
-0.019362848 0.0035857037 0.75300002 9.4122724e-39
-0.017904764 0.0035809278 0.75200009 6.8160881e-39
-0.016428543 0.0035714135 0.75000006 5.9698019e-39
-0.014999974 0.0035714209 0.75000006 5.0730031e-39
-0.013535242 0.0035618842 0.74800003 6.0089696e-39
-0.01209427 0.0035571083 0.7470001 6.8239802e-39
-0.010642831 0.0035476014 0.74500006 3.5910543e-39
-0.0091990279 0.003538087 0.74300009 2.8497366e-40
-0.0077838101 0.0035380721 0.74300003 4.7222917e-40
-0.0063600135 0.0035333261 0.74200004 6.5662744e-40
-0.0049333335 0.0035237968 0.74000001 7.4847134e-40
-0.0035238003 0.0035237968 0.74000001 8.4067258e-40
-0.0021114338 0.0035190433 0.73900002 1.2083817e-39
-0.00070191798 0.0035094991 0.73700005 1.4846127e-39
0.00070189993 0.0035095066 0.73700005 1.3005913e-39
0.0021056917 0.0035094991 0.73700005 1.1169133e-39
0.0035094798 0.0035095066 0.73700005 1.0247121e-39
0.0049266662 0.0035190359 0.73900008 9.3179201e-40
0.0063171159 0.003509514 0.73700005 8.3887191e-40
0.0077209319 0.0035094917 0.73700005 6.5627852e-40
0.0091247214 0.0035095066 0.73700005 9.3250527e-40
0.010528537 0.0035095066 0.73700005 1.1158203e-39
0.011932356 0.0035094991 0.73700005 7.4561129e-40
0.013336172 0.0035095066 0.73700005 2.8859742e-40
0.014739961 0.0035095215 0.73699999 3.9753016e-39
0.016143778 0.0035095066 0.73700005 7.6537647e-39
0.017595226 0.0035190359 0.73900002 8.1212154e-39
0.019002864 0.0035190284 0.73900002 8.4874798e-39
0.020438133 0.0035237893 0.74000007 8.5789552e-39
0.021906666 0.0035333261 0.74200004 8.5796713e-39
0.023319991 0.0035333112 0.7420001 8.4864008e-39
0.024766663 0.0035380796 0.74300003 8.3027144e-39
0.026181934 0.003538087 0.74300003 7.8392167e-39
0.027597154 0.0035380945 0.74300003 7.2853227e-39
0.029012401 0.0035380796 0.74300003 6.6395931e-39
0.030591452 0.0035571083 0.7470001 5.9041259e-39
0.032014277 0.0035571158 0.7470001 8.6634297e-39
0.033481907 0.0035618991 0.74800003 1.1327732e-38
0.035000037 0.0035714135 0.75000012 1.0680935e-38
0.036428604 0.0035714284 0.75000006 1.0039509e-38
0.037857179 0.0035714209 0.75000012 9.2079546e-39
-0.025266688 0.0050533265 0.75800002 8.8551371e-39
-0.023760006 0.0050399899 0.75600004 9.50231e-39
-0.022320006 0.0050399974 0.75600004 1.0422837e-38
-0.020880006 0.0050399899 0.75600004 1.1341546e-38
-0.019362831 0.0050199926 0.75300002 7.3750366e-39
-0.017928546 0.0050199851 0.75300002 3.4924309e-39
-0.01642854 0.0049999878 0.75000012 4.2320909e-39
-0.014959998 0.0049866512 0.74800003 4.9858339e-39
-0.013535217 0.0049866438 0.74800003 6.0965157e-39
-0.012094279 0.0049799755 0.7470001 7.2896177e-39
-0.010642851 0.0049666613 0.74500006 3.7800965e-39
-0.0091990326 0.0049533322 0.74300003 2.8282127e-40
-0.0077837841 0.0049533173 0.74300009 4.7044392e-40
-0.0063600191 0.0049466491 0.74200004 6.5627151e-40
-0.0049466691 0.0049466416 0.7420001 6.5627571e-40
-0.0035237863 0.00493332 0.74000001 7.4704342e-40
-0.0021114505 0.0049266592 0.73900002 9.3287381e-40
-0.00070381415 0.0049266592 0.73900002 1.209109e-39
0.00070189993 0.0049133152 0.73700005 1.1176434e-39
0.0021114324 0.0049266443 0.73900008 1.0250807e-39
0.0035190389 0.0049266592 0.73900002 9.3251789e-40
0.0049266755 0.0049266517 0.73900002 9.3071722e-40
0.0063342876 0.0049266517 0.73900008 8.3923205e-40
0.0077209338 0.0049133003 0.73700005 8.3959358e-40
0.0091247233 0.0049133226 0.73700005 1.0243422e-39
0.010528541 0.0049133226 0.73700005 1.2087376e-39
0.011932357 0.0049133226 0.73700005 7.4526237e-40
0.013336175 0.0049133226 0.73700005 3.7397573e-40
0.014739962 0.0049133152 0.73699999 3.880585e-39
0.016187629 0.0049266368 0.73900008 7.3786169e-39
0.017595235 0.0049266517 0.73900002 8.4878484e-39
0.019028613 0.0049333274 0.74000007 9.681707e-39
0.020493342 0.0049466416 0.7420001 9.3168734e-39
0.021906661 0.0049466491 0.74200004 9.0420759e-39
0.02335144 0.0049533248 0.74300003 9.3186488e-39
0.024766687 0.0049533173 0.74300003 9.5959419e-39
0.026181905 0.0049533248 0.74300003 8.395975e-39
0.02767144 0.0049666613 0.74500006 7.1999654e-39
0.029090481 0.0049666539 0.74500006 6.6424994e-39
0.030591445 0.0049799681 0.7470001 6.00315e-39
0.032057125 0.0049866587 0.74800003 1.0147137e-38
0.033481907 0.0049866587 0.74800003 1.4385939e-38
0.035000045 0.0049999952 0.75000012 1.41022e-38
0.036428608 0.0049999952 0.75000006 1.3923164e-38
0.037857153 0.0049999878 0.75000006 1.3365307e-38
-0.025333343 0.006514281 0.76000005 8.7647365e-39
-0.023822857 0.0064971372 0.75800002 9.2268021e-39
-0.022320004 0.0064799935 0.75600004 9.964014e-39
-0.020852396 0.0064714178 0.75500005 1.0688618e-38
-0.019362843 0.0064542815 0.75300002 5.4374584e-39
-0.017904768 0.0064456984 0.75200003 9.7712542e-41
-0.016428564 0.0064285621 0.75000006 2.4803978e-39
-0.01496 0.0064114034 0.74800003 4.890051e-39
-0.01353525 0.0064114109 0.74800003 6.2852076e-39
-0.012094258 0.0064028203 0.7470001 7.651936e-39
-0.010642841 0.0063856989 0.74500006 3.9569502e-39
-0.009223775 0.0063857064 0.74500006 1.9205916e-40
-0.007804763 0.0063857064 0.74500006 4.7044252e-40
-0.0063599977 0.006359987 0.74200004 6.5591278e-40
-0.004946671 0.0063599795 0.7420001 6.5699458e-40
-0.0035237705 0.0063428432 0.74000007 5.6516749e-40
-0.0021114114 0.0063342676 0.73900008 7.4992309e-40
-0.00070383091 0.0063342676 0.73900002 9.3395842e-40
0.00070190179 0.0063171312 0.73700005 9.3504162e-40
0.0021114417 0.006334275 0.73900008 9.3359829e-40
0.0035190221 0.006334275 0.73900002 9.3287241e-40
0.0049266587 0.0063342676 0.73900002 8.3995371e-40
0.006334295 0.0063342601 0.73900002 9.3070741e-40
0.0077209058 0.0063171312 0.73700005 9.3214374e-40
0.0091247214 0.0063171312 0.73700005 1.1168909e-39
0.010528541 0.0063171312 0.73700005 1.2991312e-39
0.011932357 0.0063171163 0.73700005 8.3601326e-40
0.013336176 0.0063171163 0.73700005 3.8043151e-40
0.014739963 0.0063171312 0.73700005 3.7019433e-39
0.01618761 0.006334275 0.73900008 7.0145106e-39
0.017595218 0.0063342825 0.73900002 8.9534928e-39
0.019028572 0.0063428432 0.74000001 1.0789477e-38
0.020438105 0.0063428432 0.74000001 1.0148414e-38
0.021906659 0.006359987 0.74200004 9.5048449e-39
0.02332001 0.0063599944 0.7420001 1.0149484e-38
0.024766663 0.0063685626 0.74300003 1.0788014e-38
0.026181934 0.0063685626 0.74300003 8.9484201e-39
0.027671451 0.0063856989 0.74500006 7.1038055e-39
0.029090486 0.0063857064 0.74500006 6.6356471e-39
0.03059143 0.0064028352 0.74700004 6.0960883e-39
0.032057147 0.0064114183 0.74800003 1.172027e-38
0.0334819 0.0064114109 0.74800003 1.732654e-38
0.035000015 0.0064285547 0.75000006 1.751057e-38
0.036525715 0.0064457133 0.75200003 1.7693515e-38
0.037958104 0.0064456984 0.75200009 1.7605259e-38
0.039442889 0.0064542592 0.75300008 1.7416931e-38
0.040877171 0.0064542741 0.75300002 1.741909e-38
-0.025266666 0.0079409555 0.75799996 8.6718248e-39
-0.023759972 0.0079199895 0.75600004 9.3193523e-39
-0.02232 0.0079199821 0.7560001 7.6613065e-39
-0.020852394 0.007909514 0.75500005 6.0010284e-39
-0.019362824 0.007888563 0.75300002 3.2283198e-39
-0.017904781 0.0078780949 0.75200003 5.5147541e-40
-0.016428558 0.0078571364 0.75000006 2.6701644e-39
-0.014960007 0.0078361854 0.74800003 4.8907657e-39
-0.013535227 0.0078361779 0.74800003 5.6362592e-39
-0.012094299 0.007825695 0.74700004 6.2797831e-39
-0.010671414 0.0078256801 0.7470001 3.4120342e-39
-0.0092238225 0.0078047514 0.74500006 5.5724735e-40
-0.0078047556 0.0078047365 0.74500006 5.6155775e-40
-0.0063685649 0.0077838004 0.74300003 5.6443461e-40
-0.0049533178 0.0077838004 0.74300003 5.6515908e-40
-0.0035333547 0.0077733248 0.74200004 6.5736312e-40
-0.002114278 0.0077523738 0.74000001 8.4175999e-40
-0.0007038216 0.0077418983 0.73900002 1.1172679e-39
0.00070381473 0.0077418983 0.73900002 1.0257925e-39
0.0021114249 0.0077418834 0.73900008 1.025068e-39
0.0035190613 0.0077418908 0.73900008 8.4139004e-40
0.004926668 0.0077418983 0.73900002 7.4919161e-40
0.0063342783 0.0077418908 0.73900002 8.4030544e-40
0.0077209077 0.0077209473 0.73700005 8.4138164e-40
0.0091247251 0.0077209473 0.73700005 1.1168867e-39
0.010557131 0.0077418908 0.73900002 1.3005605e-39
0.011964767 0.0077418908 0.73900008 8.3743838e-40
0.013336178 0.0077209249 0.73700005 3.7540786e-40
0.014739966 0.0077209473 0.73700005 3.6054513e-39
0.016187621 0.0077418834 0.73900002 6.829413e-39
0.017619053 0.0077523664 0.74000001 8.1230357e-39
0.019080011 0.0077733174 0.74200004 9.3226229e-39
0.020493304 0.0077733323 0.74200004 8.8594853e-39
0.021936223 0.0077838078 0.74300003 8.4031819e-39
0.02335144 0.0077837929 0.74300003 8.9509691e-39
0.024766689 0.0077837929 0.74300003 9.590568e-39
0.026252395 0.0078047439 0.74500006 8.3927394e-39
0.027671432 0.0078047514 0.74500006 7.1927501e-39
0.029168593 0.0078256875 0.7470001 6.4526557e-39
0.030632392 0.0078361779 0.74800003 5.8109227e-39
0.032142878 0.0078571439 0.75000006 1.1254367e-38
0.033660948 0.00787808 0.75200009 1.6689503e-38
0.035139993 0.0078885555 0.75300002 1.6684102e-38
0.036574308 0.0078885555 0.75300008 1.6683756e-38
0.038008593 0.0078885481 0.75300002 1.6775245e-38
0.039442874 0.0078885555 0.75300002 1.6867818e-38
-0.025333328 0.0094095021 0.76000011 8.5799725e-39
-0.023822859 0.0093847513 0.75800002 9.3121426e-39
-0.022379043 0.0093847513 0.75800002 5.2692255e-39
-0.020879997 0.0093599856 0.75600004 1.2119354e-39
-0.019414293 0.0093476176 0.75500005 1.1071589e-39
-0.01790477 0.0093104616 0.75200003 9.209824e-40
-0.016428553 0.0092856959 0.75000012 2.9420878e-39
-0.014959984 0.009260945 0.74800003 4.8904097e-39
-0.013535232 0.0092609301 0.74800003 4.905164e-39
-0.012094281 0.0092485473 0.74700004 4.8947187e-39
-0.010671423 0.0092485547 0.7470001 2.9464024e-39
-0.0092485668 0.0092485473 0.74700004 9.263858e-40
-0.0078047733 0.0092237964 0.74500006 7.4559028e-40
-0.006368563 0.0091990381 0.74300003 4.7224319e-40
-0.0049533439 0.0091990456 0.74300003 5.6587935e-40
-0.0035380709 0.0091990232 0.74300003 6.5736312e-40
-0.002114265 0.0091618896 0.74000007 9.3431295e-40
-0.00070476223 0.009161897 0.74000001 1.2091034e-39
0.0007037961 0.0091495141 0.73900002 1.1172693e-39
0.0021143027 0.0091618896 0.74000007 1.025068e-39
0.0035190426 0.0091495067 0.73900008 8.4175018e-40
0.0049266494 0.0091495216 0.73900002 6.5699318e-40
0.0063342857 0.0091495067 0.73900002 7.4846154e-40
0.0077209077 0.009124741 0.73699999 7.4846434e-40
0.009149502 0.0091495141 0.73900002 1.0250484e-39
0.010528543 0.009124741 0.73700005 1.2998445e-39
0.01196475 0.0091494992 0.73900008 8.3816285e-40
0.013372386 0.0091494992 0.73900008 2.8967362e-40
0.014779992 0.0091495067 0.73900002 3.515408e-39
0.016209537 0.0091619045 0.74000001 6.6435742e-39
0.01761907 0.009161897 0.74000001 7.2943344e-39
0.019080004 0.0091866478 0.7420001 7.8449803e-39
0.02052098 0.0091990307 0.74300009 7.5640844e-39
0.021936199 0.0091990456 0.74300003 7.2014157e-39
0.023351444 0.0091990307 0.74300003 7.7520798e-39
0.02483334 0.0092237964 0.74500006 8.3023613e-39
0.026252376 0.0092238039 0.74500006 7.7470295e-39
0.027745703 0.0092485473 0.74700004 7.1913264e-39
0.02920761 0.0092609376 0.74800003 6.3543771e-39
0.030714314 0.0092857108 0.75000012 5.5415161e-39
0.032142881 0.0092857033 0.75000006 1.0796255e-38
0.033705752 0.009322837 0.75300002 1.6038046e-38
0.035233311 0.0093476027 0.75500005 1.5852574e-38
0.036671415 0.0093475953 0.75500005 1.5669984e-38
0.038109493 0.0093476102 0.75500005 1.5944061e-38
0.039547596 0.0093476027 0.75500005 1.6222087e-38
-0.025333306 0.010857135 0.76000011 5.7219332e-39
-0.023822876 0.010828562 0.75800002 5.2634536e-39
-0.022379057 0.010828562 0.75799996 3.1386605e-39
-0.020879963 0.010799982 0.7560001 1.0106711e-39
-0.019414293 0.010785691 0.75500005 7.3696949e-40
-0.017928559 0.010757133 0.75300002 5.5293696e-40
