# .PCD v0.7 - Point Cloud Data file format
VERSION 0.7
FIELDS x y z rgb
SIZE 4 4 4 4
TYPE F F F F
COUNT 1 1 1 1
WIDTH 950
HEIGHT 1
VIEWPOINT 0 0 0 1 0 0 0
POINTS 950
DATA ascii
0.027857149 -0.036428533 0.75000006 5.8979559e-39
-0.028265733 -0.035513304 0.76100004 5.6087812e-40
-0.026710477 -0.035373323 0.75800002 6.5344229e-40
-0.025266666 -0.035373323 0.75800002 7.4672393e-40
-0.023760002 -0.035279982 0.75600004 8.4143909e-40
-0.022290502 -0.035233311 0.75500005 9.3364313e-40
-0.020797156 -0.035139985 0.75300002 1.1191316e-39
-0.019337159 -0.03509333 0.75200003 1.2135006e-39
-0.017904783 -0.03509333 0.75200003 1.4011317e-39
-0.016428567 -0.034999989 0.75000006 1.6773697e-39
-0.01496004 -0.034906633 0.74800003 2.0479697e-39
-0.013517163 -0.034859978 0.74700004 1.4083778e-39
-0.012094309 -0.034859978 0.74700004 7.6947681e-40
-0.010671455 -0.034859978 0.74699998 5.1933663e-39
-0.0092238178 -0.034766637 0.74500006 9.6255051e-39
-0.0078047733 -0.034766652 0.745 1.6250216e-38
-0.0063686105 -0.034673326 0.74300003 2.2958511e-38
-0.0049533546 -0.034673326 0.74300003 2.3142181e-38
-0.0035381189 -0.034673311 0.74300003 2.3325852e-38
-0.0021200071 -0.03462664 0.74200004 2.3234016e-38
-0.00070670462 -0.034626655 0.74200004 2.3049629e-38
0.00070759997 -0.034673326 0.74300003 2.1672816e-38
0.0021199638 -0.03462664 0.74199998 2.0387119e-38
0.0035333156 -0.034626655 0.74200004 1.4953399e-38
0.0049466318 -0.03462664 0.74199998 9.598596e-39
0.0063685556 -0.034673326 0.74300003 5.5495791e-39
0.0077733197 -0.03462667 0.74200004 1.5945459e-39
0.0091866376 -0.03462664 0.74200004 1.8639442e-39
0.010614255 -0.034673311 0.74300003 2.2301777e-39
0.012029511 -0.034673326 0.74300003 1.67662e-39
0.013480935 -0.034766652 0.74500006 1.2149244e-39
0.014899979 -0.034766652 0.74500006 1.2127636e-39
0.016362851 -0.034859978 0.74700004 1.1187617e-39
0.017809495 -0.034906663 0.74800003 1.3027774e-39
0.019234251 -0.034906648 0.74800003 1.4857113e-39
0.020714268 -0.034999974 0.75 1.8530336e-39
0.022142848 -0.034999974 0.75 2.220349e-39
0.023571417 -0.034999974 0.75 3.1401109e-39
0.025066661 -0.03509333 0.75200003 4.0602161e-39
0.026499052 -0.035093315 0.75200003 4.8874081e-39
0.027931428 -0.035093315 0.75200003 5.6217152e-39
-0.028154286 -0.033929504 0.75800002 6.5415135e-40
-0.026710482 -0.033929519 0.75800002 6.5451989e-40
-0.025200006 -0.033839978 0.75600004 7.4600786e-40
-0.023760032 -0.033839963 0.75600004 7.4924766e-40
-0.022290502 -0.03379523 0.75500005 9.343662e-40
-0.020797165 -0.033705704 0.75300002 1.0283751e-39
-0.019337147 -0.033660926 0.75199997 1.3067711e-39
-0.017857153 -0.0335714 0.75 1.4929728e-39
-0.016384805 -0.033481903 0.74800003 1.8610505e-39
-0.014960018 -0.033481888 0.74800003 2.139808e-39
-0.013517178 -0.03343711 0.74699998 1.1332287e-39
-0.012094303 -0.03343711 0.74700004 1.2949679e-40
-0.010671449 -0.03343711 0.74700004 4.7302427e-39
-0.0092238393 -0.033347614 0.74500006 9.3492812e-39
-0.0078047956 -0.033347599 0.745 1.6346357e-38
-0.0063686115 -0.033258088 0.74300003 2.3234019e-38
-0.0049533565 -0.033258088 0.74300003 2.3325853e-38
-0.0035381203 -0.033258088 0.74300003 2.3417689e-38
-0.0021200471 -0.033213295 0.74199998 2.3417689e-38
-0.00070669531 -0.03321331 0.74200004 2.341769e-38
0.00070663606 -0.033213295 0.74199998 2.1764651e-38
0.0021199731 -0.03321331 0.74200004 2.0017983e-38
0.00353331 -0.03321331 0.74200004 1.4960932e-38
0.0049466402 -0.03321331 0.74199998 9.7919542e-39
0.0063599781 -0.03321331 0.74200004 5.7339718e-39
0.0077732955 -0.03321331 0.74199998 1.5938313e-39
0.0091866469 -0.03321331 0.74200004 2.0454656e-39
0.010614254 -0.033258088 0.74300003 2.4134886e-39
0.012029509 -0.033258103 0.74300003 1.9528411e-39
0.013444731 -0.033258103 0.74300003 1.4922231e-39
0.014899972 -0.033347584 0.745 1.3989457e-39
0.016362838 -0.033437125 0.74699998 1.3056626e-39
0.017809503 -0.033481888 0.74800003 1.3967667e-39
0.019234262 -0.033481874 0.74800003 1.396031e-39
0.02065902 -0.033481888 0.74800003 1.5789663e-39
0.022142839 -0.033571415 0.75 1.6704164e-39
0.023571419 -0.033571415 0.75 2.7716983e-39
0.024999987 -0.0335714 0.75 3.7840005e-39
0.026499048 -0.033660926 0.75200003 4.6115541e-39
0.027931424 -0.033660941 0.75200003 5.3465786e-39
0.029480927 -0.033795215 0.75500005 5.4391134e-39
-0.028154289 -0.032485701 0.75800002 4.7155935e-40
-0.026710486 -0.032485716 0.75800002 5.6412212e-40
-0.025199991 -0.032400005 0.75600004 5.64848e-40
-0.023760015 -0.032399975 0.75600004 6.5849257e-40
-0.022290502 -0.032357134 0.75500011 7.5141828e-40
-0.020797165 -0.032271408 0.75300002 8.4506565e-40
-0.01928572 -0.03214284 0.75 1.0312646e-39
-0.017857151 -0.03214284 0.75 1.2189055e-39
-0.016384801 -0.032057114 0.74799997 1.4947945e-39
-0.014940024 -0.032014273 0.74700004 1.7724702e-39
-0.013517172 -0.032014273 0.74700004 1.1317909e-39
-0.012094318 -0.032014273 0.74700004 5.8831554e-40
-0.010642878 -0.031928562 0.74500006 4.9218058e-39
-0.0092238327 -0.031928562 0.745 9.357532e-39
-0.0078047686 -0.031928577 0.74500006 1.4966672e-38
-0.0063685854 -0.03184285 0.74300003 2.057079e-38
-0.0049533779 -0.03184285 0.74299997 2.1489145e-38
-0.0035381212 -0.03184285 0.74300003 2.2499335e-38
-0.0021200378 -0.03179998 0.74200004 2.2591171e-38
-0.000706686 -0.03179998 0.74200004 2.2683006e-38
0.00070757762 -0.03184285 0.74299997 2.0846296e-38
0.0021228332 -0.031842835 0.74300003 1.9009586e-38
0.0035332998 -0.031799965 0.74199998 1.3945002e-38
0.0049466365 -0.031799965 0.74200004 8.9654375e-39
0.0063599679 -0.031799965 0.74199998 5.2765908e-39
0.0077733058 -0.031799965 0.74200004 1.5923991e-39
0.0091866422 -0.03179998 0.74200004 2.0476194e-39
0.010599975 -0.031799965 0.74199998 2.4145648e-39
0.012013311 -0.03179998 0.74200004 2.1375855e-39
0.013444743 -0.031842835 0.74300003 1.7688044e-39
0.014859964 -0.031842835 0.74299997 1.8595581e-39
0.016319029 -0.031928547 0.74500006 1.8584693e-39
0.017785696 -0.032014258 0.74700004 1.7659037e-39
0.019234272 -0.032057129 0.74800003 1.6729752e-39
0.020659029 -0.032057129 0.74800003 1.7637163e-39
0.022142841 -0.032142825 0.75 1.9470033e-39
0.02357142 -0.032142825 0.75 2.7724214e-39
0.024999989 -0.032142825 0.75 3.5999792e-39
0.026499042 -0.032228552 0.75199997 4.4271769e-39
0.02793142 -0.032228552 0.75199997 5.2543956e-39
0.029480942 -0.032357119 0.75500005 5.3465716e-39
-0.029676225 -0.03112378 0.76000005 3.7934691e-40
-0.028154295 -0.031041883 0.75800002 3.7971685e-40
-0.026639994 -0.030959986 0.75600004 3.8080006e-40
-0.025200021 -0.030959986 0.75600004 4.7443622e-40
-0.023728592 -0.030919023 0.75500011 4.7480897e-40
-0.022231447 -0.030837111 0.75299996 5.6773327e-40
-0.02076954 -0.030796163 0.75200003 6.6030305e-40
-0.019285716 -0.030714266 0.75 8.4650198e-40
-0.017857149 -0.030714266 0.75 9.4086262e-40
-0.016384806 -0.030632339 0.74800003 1.1267014e-39
-0.014940011 -0.030591391 0.74700004 1.310755e-39
-0.013517158 -0.030591391 0.74699998 1.1242393e-39
-0.012094284 -0.030591406 0.74700004 9.5349112e-40
-0.010642871 -0.030509509 0.745 5.103316e-39
-0.0092238272 -0.030509509 0.745 9.2509843e-39
-0.00780479 -0.030509494 0.74500006 1.3591292e-38
-0.0063685863 -0.030427597 0.74300003 1.7809626e-38
-0.0049533783 -0.030427597 0.74299997 1.974427e-38
-0.0035381222 -0.030427597 0.74300003 2.1576675e-38
-0.0021200285 -0.030386634 0.74200004 2.1764651e-38
-0.00070669717 -0.030386634 0.74199998 2.1946887e-38
0.00070662581 -0.030386649 0.74200004 1.9927941e-38
0.0021199777 -0.030386634 0.74200004 1.7893927e-38
0.0035333082 -0.030386649 0.74199998 1.3027363e-38
0.0049466458 -0.030386649 0.74200004 8.0377429e-39
0.0063599623 -0.030386634 0.74199998 4.8138035e-39
0.0077733151 -0.030386649 0.74200004 1.5912949e-39
0.0091866311 -0.030386634 0.74199998 2.0457935e-39
0.010599969 -0.030386649 0.74200004 2.4131158e-39
0.01201332 -0.030386649 0.74200004 2.2301441e-39
0.013444742 -0.030427597 0.74300003 2.0446682e-39
0.014859964 -0.030427612 0.74299997 2.2279707e-39
0.016319035 -0.030509509 0.74500006 2.4105557e-39
0.017785704 -0.030591421 0.74700004 2.1353995e-39
0.019234261 -0.030632354 0.74800003 1.8570063e-39
0.020659018 -0.030632354 0.74799997 2.039943e-39
0.022083798 -0.030632354 0.74800003 2.1295981e-39
0.023571409 -0.030714251 0.75000006 2.770985e-39
0.024999991 -0.030714266 0.75 3.3233825e-39
0.026428558 -0.030714281 0.75 4.2420471e-39
0.027931437 -0.030796178 0.75200003 5.162193e-39
0.029402846 -0.030837126 0.75300002 5.3462199e-39
-0.029598109 -0.02959808 0.75800002 8.3708666e-40
-0.028080001 -0.029519983 0.75600004 6.537814e-40
-0.026640005 -0.029519998 0.75600004 5.6374517e-40
-0.025166683 -0.029480942 0.75500005 4.7263135e-40
-0.023665735 -0.02940283 0.75300002 4.7336142e-40
-0.022201907 -0.029363789 0.75200003 5.6556686e-40
-0.020769531 -0.029363789 0.75200003 6.5777791e-40
-0.01928574 -0.029285692 0.75000006 7.5213994e-40
-0.017857146 -0.029285692 0.75 8.4649217e-40
-0.016384782 -0.029207595 0.74800003 8.4721384e-40
-0.014940007 -0.029168554 0.74700004 9.4338636e-40
-0.013517153 -0.029168554 0.74700004 7.56519e-40
-0.012094299 -0.029168539 0.74700004 6.7187217e-40
-0.010642894 -0.029090457 0.745 2.6958544e-39
-0.0092238281 -0.029090472 0.74500006 4.7277232e-39
-0.0078047845 -0.029090472 0.74500006 6.8467639e-39
-0.0063685868 -0.02901236 0.74300003 8.9744058e-39
-0.0049533793 -0.029012345 0.74300003 9.8848687e-39
-0.0035381231 -0.029012375 0.74300003 1.0911202e-38
-0.0021200192 -0.028973319 0.74200004 1.0991558e-38
-0.00070668786 -0.028973304 0.74199998 1.1106353e-38
0.00070663512 -0.028973304 0.74200004 1.0067463e-38
0.0021199665 -0.028973304 0.74199998 9.0490208e-39
0.0035237984 -0.028895222 0.74000001 6.5594151e-39
0.0049466551 -0.028973319 0.74200004 4.0590292e-39
0.0063599716 -0.028973319 0.74200004 2.6854218e-39
0.0077523761 -0.028895222 0.74000001 1.3103794e-39
0.0091619063 -0.028895222 0.74000001 1.491877e-39
0.010599978 -0.028973289 0.74200004 1.7673835e-39
0.012013296 -0.028973304 0.74199998 1.7673835e-39
0.013426647 -0.028973304 0.74200004 1.67625e-39
0.014839964 -0.028973304 0.74199998 1.9506649e-39
0.016319027 -0.029090457 0.745 2.2258071e-39
0.017785702 -0.029168539 0.74700004 1.9492174e-39
0.019208558 -0.029168539 0.74699998 1.6715431e-39
0.020659015 -0.029207595 0.74800003 1.6704501e-39
0.02208377 -0.029207595 0.74800003 1.6682682e-39
0.023571413 -0.029285707 0.75000006 2.495117e-39
0.024999995 -0.029285707 0.75 3.3226524e-39
0.026428562 -0.029285707 0.75 4.426053e-39
0.027931433 -0.029363789 0.75200003 5.6220795e-39
0.029402846 -0.02940283 0.75300002 5.5298965e-39
-0.029598113 -0.028154261 0.75800002 1.2029755e-39
-0.028080013 -0.028079994 0.75600004 9.2675855e-40
-0.026604794 -0.028042831 0.75500005 6.5376879e-40
-0.025166703 -0.028042816 0.75500005 5.6229763e-40
-0.023665737 -0.027968548 0.75300002 3.7935392e-40
-0.022201905 -0.0279314 0.75200003 5.6339345e-40
-0.020714305 -0.027857117 0.75000006 6.5523595e-40
-0.019285738 -0.027857117 0.75000006 6.5703662e-40
-0.017809566 -0.02778282 0.74800003 6.5703942e-40
-0.016362876 -0.027745686 0.74700004 5.6413053e-40
-0.014960028 -0.027782835 0.74800003 4.7303072e-40
-0.013517166 -0.027745686 0.74699998 3.7798625e-40
-0.012094293 -0.027745686 0.74700004 2.8831296e-40
-0.010642867 -0.027671404 0.74500006 1.8895389e-40
-0.0092238225 -0.027671404 0.74500006 1.0501331e-40
-0.0077838437 -0.027597122 0.74300003 9.3179341e-41
-0.0063685887 -0.027597122 0.74300003 1.0896637e-40
-0.0049533532 -0.027597122 0.74299997 9.2467482e-41
-0.0035381245 -0.027597137 0.74300003 1.1112437e-40
-0.0021200303 -0.027559973 0.74199998 9.2471686e-41
-0.00070474978 -0.027485706 0.74000007 1.1435156e-40
0.00070664444 -0.027559988 0.74200004 9.4977207e-41
0.0021199759 -0.027559958 0.74200004 1.0789017e-40
0.0035238143 -0.027485691 0.74000007 1.0250919e-40
0.0049333223 -0.027485691 0.74000001 1.0249938e-40
0.0063428502 -0.027485691 0.74000001 5.5808113e-40
0.0077523789 -0.027485706 0.74000007 9.3366275e-40
0.0091618858 -0.027485676 0.74000001 1.0272821e-39
0.010599988 -0.027559973 0.74200004 1.1198337e-39
0.012013305 -0.027559988 0.74200004 1.2123852e-39
0.013426642 -0.027559988 0.74200004 1.3049354e-39
0.014839973 -0.027559973 0.74199998 1.6722746e-39
0.016275218 -0.027597137 0.74300003 1.9477768e-39
0.017785709 -0.027745701 0.74700004 1.7633842e-39
0.019208563 -0.027745686 0.74700004 1.4871448e-39
0.020659024 -0.02778285 0.74800003 1.301306e-39
0.022083782 -0.027782835 0.74800003 1.1172497e-39
0.023508539 -0.02778285 0.74800003 2.2178141e-39
0.024999997 -0.027857117 0.75000006 3.3223007e-39
0.026428564 -0.027857117 0.75 4.7015778e-39
0.027857134 -0.027857102 0.75 5.988711e-39
0.029363804 -0.027931429 0.75200003 5.8054002e-39
-0.029598115 -0.026710458 0.75800002 1.1104057e-39
-0.028079996 -0.026639991 0.75600004 8.3597963e-40
-0.026604794 -0.026604734 0.75500005 5.6155635e-40
-0.025166705 -0.026604734 0.75500005 4.6972646e-40
-0.023665715 -0.026534267 0.75300002 4.6865867e-40
-0.022201896 -0.026499011 0.75200003 4.6938314e-40
-0.020714303 -0.026428543 0.75000006 4.6758807e-40
-0.019285735 -0.026428558 0.75000006 4.6938033e-40
-0.017809544 -0.02635809 0.74800003 5.6014104e-40
-0.016362891 -0.026322819 0.74699998 4.69023e-40
-0.014940015 -0.026322819 0.74700004 3.7396452e-40
-0.013517162 -0.026322834 0.74700004 4.6759788e-40
-0.012094308 -0.026322819 0.74700004 6.4876335e-40
-0.01064286 -0.026252352 0.74500006 4.6617416e-40
-0.0092238439 -0.026252352 0.74500006 3.6859895e-40
-0.0077838455 -0.026181899 0.74300003 6.4805009e-40
-0.0063857348 -0.026252367 0.74500006 1.0107342e-39
-0.0049533537 -0.026181884 0.74300003 7.3953807e-40
-0.0035381264 -0.026181884 0.74300003 3.678955e-40
-0.002120021 -0.026146628 0.74199998 2.7893406e-40
-0.00070669811 -0.026146643 0.74200004 1.842231e-40
0.00070663326 -0.026146643 0.74199998 5.5514681e-40
0.0021199703 -0.026146643 0.74200004 9.1890147e-40
0.0035238096 -0.026076175 0.74000001 7.4240512e-40
0.0049466393 -0.026146628 0.74200004 5.57302e-40
0.0063428651 -0.02607619 0.74000007 7.4492186e-40
0.0077523743 -0.026076175 0.74000001 9.3074524e-40
0.0091619035 -0.026076175 0.74000001 9.3218017e-40
0.010599961 -0.026146643 0.74199998 9.3074244e-40
0.012013313 -0.026146628 0.74200004 9.3325076e-40
0.013426629 -0.026146643 0.74199998 1.0254562e-39
0.014839967 -0.026146658 0.74200004 1.3027662e-39
0.016275216 -0.026181914 0.74300003 1.6704655e-39
0.017738076 -0.026252367 0.74500006 1.7630156e-39
0.019208547 -0.026322819 0.74699998 1.9463125e-39
0.020659013 -0.026358075 0.74800003 1.7615499e-39
0.022083791 -0.02635809 0.74800003 1.5771376e-39
0.023508551 -0.02635809 0.74800003 2.4029158e-39
0.024999985 -0.026428543 0.75000006 3.321949e-39
0.026428565 -0.026428543 0.75000006 4.4257293e-39
0.027931426 -0.026499026 0.75199997 5.530258e-39
0.0293638 -0.026499026 0.75200003 5.6224424e-39
-0.028080028 -0.025199987 0.75600004 7.4449586e-40
-0.026604794 -0.025166638 0.75500005 3.7787555e-40
-0.025166677 -0.025166638 0.75500005 4.6971665e-40
-0.023665745 -0.025099985 0.75300002 4.6936072e-40
-0.022201912 -0.025066666 0.75200003 3.7716789e-40
-0.0207143 -0.024999984 0.75000006 1.9278223e-40
-0.019285733 -0.024999991 0.75000006 3.7645603e-40
-0.017809547 -0.024933316 0.74800003 4.6865306e-40
-0.016362883 -0.024899974 0.74700004 3.7789656e-40
-0.014940029 -0.024899982 0.74700004 1.9207738e-40
-0.013517176 -0.024899967 0.74699998 5.619347e-40
-0.012061927 -0.024833314 0.74500006 9.2784876e-40
-0.010642882 -0.024833322 0.74500006 7.5064196e-40
-0.0092238374 -0.024833314 0.745 5.6159278e-40
-0.0077838474 -0.024766646 0.74300003 1.3034556e-39
-0.006368591 -0.024766661 0.74300003 1.9391322e-39
-0.0049533555 -0.024766661 0.74300003 1.3031025e-39
-0.0035381273 -0.024766654 0.74300003 6.5164582e-40
-0.0021200397 -0.02473332 0.74200004 4.7156216e-40
-0.00070668879 -0.02473332 0.74200004 2.8286471e-40
0.00070664258 -0.024733305 0.74200004 1.0229255e-39
0.0021199787 -0.024733327 0.74200004 1.7543822e-39
0.003533297 -0.024733312 0.74199998 1.3902702e-39
0.0049466467 -0.024733312 0.74200004 1.0225723e-39
0.0063599632 -0.02473332 0.74199998 1.0254436e-39
0.0077733011 -0.024733305 0.74200004 9.325305e-40
0.0091618989 -0.02466663 0.74000001 8.4033487e-40
0.010571427 -0.024666652 0.74000001 7.4814064e-40
0.012013308 -0.024733312 0.74200004 7.4849937e-40
0.013426638 -0.024733305 0.74199998 6.5810581e-40
0.014839976 -0.02473329 0.74200004 1.0261737e-39
0.016275214 -0.024766646 0.74300003 1.3949506e-39
0.017738068 -0.024833307 0.745 1.8548469e-39
0.019208554 -0.024899967 0.74700004 2.3132943e-39
0.020659022 -0.024933316 0.74800003 2.1296121e-39
0.02208378 -0.024933308 0.74800003 1.9444824e-39
0.023508539 -0.024933293 0.74800003 2.6787838e-39
0.024933318 -0.024933308 0.74800003 3.3219406e-39
0.026428554 -0.024999969 0.75000006 4.2409625e-39
0.027931422 -0.025066651 0.75199997 5.0703505e-39
0.029363796 -0.025066651 0.75199997 5.3469331e-39
0.030919027 -0.025166653 0.75500005 5.6220865e-39
-0.028080009 -0.023759983 0.75600004 8.3739915e-40
-0.026604768 -0.023728557 0.75500005 6.5337363e-40
-0.025066685 -0.023634262 0.75199997 5.6154233e-40
-0.023634307 -0.023634255 0.75200003 4.704215e-40
-0.022201903 -0.023634262 0.75200003 4.6862363e-40
-0.020714298 -0.023571409 0.75000006 3.7571895e-40
-0.019234329 -0.023508549 0.74800003 5.5867808e-40
-0.017809574 -0.023508556 0.74800003 7.4343087e-40
-0.016384814 -0.023508556 0.74800003 6.5554564e-40
-0.014940022 -0.023477122 0.74700004 5.565397e-40
-0.01351717 -0.023477107 0.74700004 5.5726137e-40
-0.012061921 -0.023414269 0.74500006 5.5619358e-40
-0.010642877 -0.023414254 0.745 4.6651748e-40
-0.0092238123 -0.023414269 0.74500006 3.7433166e-40
-0.0077838483 -0.023351401 0.74300003 7.4275825e-40
-0.0063686124 -0.023351401 0.74299997 1.2001421e-39
-0.0049533574 -0.023351409 0.74300003 1.4767248e-39
-0.0035381212 -0.023351394 0.74299997 1.7493586e-39
-0.0021200322 -0.023319975 0.74200004 2.0255797e-39
-0.0007067009 -0.02331996 0.74199998 2.2074543e-39
0.00070663699 -0.023319982 0.74200004 2.3064616e-39
0.0021199675 -0.023319967 0.74199998 2.4908529e-39
0.0035333054 -0.023319967 0.74200004 1.7572479e-39
0.0049466421 -0.023319975 0.74200004 1.1165532e-39
0.0063599725 -0.023319975 0.74199998 9.3360109e-40
0.0077523724 -0.023257121 0.74000001 7.4992729e-40
0.0091618998 -0.023257129 0.74000001 6.5737153e-40
0.010571429 -0.023257121 0.74000007 6.5665687e-40
0.012013297 -0.02331996 0.74199998 6.5737573e-40
0.013426634 -0.023319975 0.74200004 6.580988e-40
0.014839985 -0.023319982 0.74200004 9.3504443e-40
0.016275227 -0.023351409 0.74300003 1.3038255e-39
0.017738093 -0.023414269 0.74500006 1.6704543e-39
0.019208552 -0.023477115 0.74699998 2.1285471e-39
0.020631429 -0.02347713 0.74700004 1.7611954e-39
0.022083791 -0.023508549 0.74800003 1.3927533e-39
0.023508547 -0.023508556 0.74800003 2.4025612e-39
0.024999991 -0.023571409 0.75000006 3.4137662e-39
0.02642856 -0.023571409 0.75000006 4.2420177e-39
0.027931437 -0.023634262 0.75200003 4.9792212e-39
0.029363813 -0.023634277 0.75200003 5.2540187e-39
0.030919041 -0.023728549 0.75500005 5.6210117e-39
-0.026604788 -0.022290438 0.75500005 8.3704742e-40
-0.025166698 -0.022290453 0.75500005 6.530205e-40
-0.023634277 -0.022201903 0.75200003 4.6827191e-40
-0.022201922 -0.022201881 0.75199997 5.5867107e-40
-0.020714294 -0.022142842 0.75000006 5.5687601e-40
-0.019234307 -0.022083804 0.74800003 7.3911067e-40
-0.017809547 -0.022083797 0.74800003 9.3536252e-40
-0.016362865 -0.02205427 0.74700004 9.4435605e-40
-0.014940009 -0.022054255 0.74699998 9.360926e-40
-0.013517156 -0.022054248 0.74699998 5.5366984e-40
-0.012061915 -0.021995224 0.74500006 1.0275582e-40
-0.010642898 -0.021995224 0.745 9.2365187e-41
-0.0092238337 -0.021995224 0.74500006 1.0564389e-40
-0.0077838497 -0.021936171 0.74300003 2.7604739e-40
-0.0063686143 -0.021936156 0.74299997 4.7335161e-40
-0.0049533579 -0.021936171 0.74300003 1.653584e-39
-0.0035381222 -0.021936163 0.74299997 2.8617934e-39
-0.002120022 -0.021906637 0.74200004 3.4902926e-39
-0.00070669065 -0.021906629 0.74199998 4.1507119e-39
0.0007066463 -0.021906629 0.74200004 3.6883002e-39
0.0021199638 -0.021906629 0.74199998 3.1408718e-39
0.0035333156 -0.021906637 0.74200004 2.1231451e-39
0.0049466318 -0.021906622 0.74199998 1.1151113e-39
0.0063599697 -0.021906629 0.74200004 8.4175999e-40
0.0077733207 -0.021906644 0.74200004 5.6624789e-40
0.0091866385 -0.021906629 0.74200004 5.6588356e-40
0.010599976 -0.021906644 0.74200004 4.7369493e-40
0.012013307 -0.021906644 0.74199998 5.6553603e-40
0.013426645 -0.021906637 0.74200004 6.58096e-40
0.014839962 -0.021906637 0.74199998 9.3540316e-40
0.016275205 -0.021936171 0.74299997 1.1190784e-39
0.017738085 -0.021995224 0.74500006 1.4860658e-39
0.01920856 -0.022054248 0.74700004 1.8537567e-39
0.020659007 -0.022083782 0.74800003 1.3938534e-39
0.022142859 -0.022142835 0.75000006 8.4138164e-40
0.023571428 -0.022142835 0.75000006 2.2167393e-39
0.024999993 -0.02214285 0.75000006 3.5052542e-39
0.026499042 -0.022201881 0.75200003 4.24168e-39
0.027968552 -0.0222314 0.75300002 4.8856019e-39
0.029402845 -0.0222314 0.75300002 5.2525823e-39
0.030919021 -0.022290453 0.75500005 5.5280958e-39
-0.028080003 -0.020879991 0.75600004 8.3669009e-40
-0.026604788 -0.02085235 0.75500005 8.3705022e-40
-0.025166672 -0.020852357 0.75500005 6.519443e-40
-0.023665724 -0.020797126 0.75300002 4.6648105e-40
-0.022201918 -0.020769507 0.75200003 3.7321062e-40
-0.020714292 -0.020714261 0.75000006 3.7033236e-40
-0.019234331 -0.020659007 0.74800003 2.5847777e-39
-0.017785734 -0.020631395 0.74700004 4.8046601e-39
-0.016362879 -0.020631395 0.74699998 5.6369655e-39
-0.014940004 -0.020631388 0.74700004 6.5570833e-39
-0.013480982 -0.020576179 0.74500006 6.4580423e-39
-0.012061937 -0.020576179 0.745 6.4634401e-39
-0.010642872 -0.020576179 0.74500006 7.3839643e-39
-0.0092238272 -0.020576179 0.74500006 8.3120078e-39
-0.0077838213 -0.020520933 0.74300003 8.3981064e-39
-0.0063686138 -0.020520926 0.74299997 8.4985571e-39
-0.0049533588 -0.020520933 0.74300003 9.0431171e-39
-0.0035381231 -0.020520933 0.74299997 9.604176e-39
-0.0021200331 -0.020493299 0.74199998 9.8714316e-39
-0.00070477399 -0.020438068 0.74000001 1.0247015e-38
0.00070663512 -0.020493306 0.74199998 8.3977393e-39
0.0021199731 -0.020493306 0.74200004 6.6481943e-39
0.00353331 -0.020493314 0.74200004 3.5986017e-39
0.0049466412 -0.020493321 0.74199998 6.53773e-40
0.006359979 -0.020493314 0.74200004 7.4920142e-40
0.0077732964 -0.020493306 0.74199998 8.4246344e-40
0.0091866478 -0.020493321 0.74200004 7.502594e-40
0.010599965 -0.020493306 0.74199998 6.5807498e-40
0.012013301 -0.020493321 0.74200004 6.5736593e-40
0.013426654 -0.020493329 0.74200004 6.5737573e-40
0.014859985 -0.02052094 0.74300003 9.3396683e-40
0.016275205 -0.020520926 0.74299997 1.2098363e-39
0.017738078 -0.020576172 0.74500006 1.7619296e-39
0.019208558 -0.02063141 0.74699998 2.3140104e-39
0.020659016 -0.020659029 0.74800003 1.8530294e-39
0.022142861 -0.020714268 0.75000006 1.3009193e-39
0.02357143 -0.020714253 0.75000006 2.3107286e-39
0.024999995 -0.020714261 0.75000006 3.3223119e-39
0.026534269 -0.020797104 0.75300002 4.1495054e-39
0.027968548 -0.020797119 0.75300002 4.9774458e-39
0.029480929 -0.02085235 0.75500005 5.2525795e-39
0.030960003 -0.020879991 0.75600004 5.5277329e-39
0.032485705 -0.020935223 0.75800002 5.4362617e-39
-0.029598085 -0.019491419 0.75800002 7.4413292e-40
-0.028154302 -0.019491419 0.75800002 7.4557206e-40
-0.026640011 -0.01943998 0.75600004 7.4413713e-40
-0.025200017 -0.019439988 0.75600004 5.5939134e-40
-0.023665734 -0.019362837 0.75300002 3.7428262e-40
-0.022201909 -0.019337133 0.75200003 2.8065066e-40
-0.020714289 -0.019285701 0.75000006 9.8771924e-41
-0.019234307 -0.019234255 0.74800003 4.3332493e-39
-0.017785728 -0.019208536 0.74700004 8.5735224e-39
-0.016362874 -0.019208536 0.74700004 1.0332804e-38
-0.014940019 -0.01920855 0.74699998 1.2073704e-38
-0.013480975 -0.019157119 0.74500006 1.2441737e-38
-0.012061931 -0.019157112 0.745 1.281341e-38
-0.010642866 -0.019157119 0.74500006 1.4667725e-38
-0.0092238216 -0.019157119 0.745 1.6497626e-38
-0.0077838232 -0.01910571 0.74300003 1.6506242e-38
-0.0063686157 -0.019105688 0.74300003 1.6406875e-38
-0.0049533597 -0.019105703 0.74300003 1.6324368e-38
-0.0035381236 -0.019105703 0.74299997 1.6225357e-38
-0.0021200238 -0.019079968 0.74199998 1.6327956e-38
-0.00070474512 -0.019028559 0.74000007 1.6312873e-38
0.00070663047 -0.019079968 0.74199998 1.3191167e-38
0.0021199824 -0.019079976 0.74200004 1.0040745e-38
0.0035332988 -0.019079968 0.74199998 5.1522648e-39
0.0049466365 -0.019079976 0.74200004 1.9638778e-40
0.0063599884 -0.019079991 0.74200004 6.5844773e-40
0.0077733039 -0.019079968 0.74200004 1.1176182e-39
0.0091866422 -0.019079983 0.74200004 1.0264932e-39
0.010599975 -0.019079968 0.74199998 8.4139285e-40
0.012029506 -0.019105695 0.74300003 7.4812803e-40
0.013444728 -0.019105695 0.74299997 6.570184e-40
0.014859983 -0.01910571 0.74300003 1.025445e-39
0.01631904 -0.019157119 0.74500006 1.3020333e-39
0.01773807 -0.019157119 0.74500006 2.0381578e-39
0.019208565 -0.01920855 0.74700004 2.7724704e-39
0.020659024 -0.01923427 0.74800003 2.3114881e-39
0.022083784 -0.019234277 0.74800003 1.7604527e-39
0.023571432 -0.019285686 0.75000006 2.4940366e-39
0.025 -0.019285694 0.75000006 3.1379094e-39
0.026534274 -0.01936283 0.75300002 4.0562139e-39
0.028042838 -0.019414261 0.75500005 4.9767185e-39
0.029480943 -0.019414268 0.75500005 5.2529411e-39
0.030960007 -0.019439988 0.75600004 5.5284503e-39
0.032485697 -0.019491397 0.75800002 5.4366191e-39
-0.029598091 -0.018047601 0.75800002 9.2780532e-40
-0.028154306 -0.018047601 0.75800002 8.3597122e-40
-0.026640024 -0.017999977 0.75600004 7.427022e-40
-0.025199998 -0.017999984 0.75600004 5.5939134e-40
-0.023728602 -0.017976165 0.75500011 3.7463714e-40
-0.022231452 -0.017928556 0.75300002 2.8135971e-40
-0.020769522 -0.017904744 0.75200003 1.8630403e-40
-0.01928572 -0.017857119 0.75000006 2.4032773e-39
-0.017809555 -0.017809503 0.74800003 4.6296379e-39
-0.016362889 -0.017785676 0.74699998 5.3647479e-39
-0.014940013 -0.017785691 0.74700004 6.1984195e-39
-0.01348097 -0.017738067 0.745 6.2801867e-39
-0.012061904 -0.017738089 0.74500006 6.4764498e-39
-0.010642888 -0.017738074 0.74500006 7.3934048e-39
-0.0091990801 -0.017690457 0.74300003 8.412935e-39
-0.0077838241 -0.01769045 0.74300003 8.3114249e-39
-0.0063686175 -0.01769045 0.74300003 8.3193142e-39
-0.0049533611 -0.017690465 0.74300003 8.2177901e-39
-0.0035381254 -0.01769045 0.74300003 8.2267598e-39
-0.0021200145 -0.017666645 0.74200004 8.6809165e-39
-0.00070476189 -0.017619029 0.74000001 9.046441e-39
0.00070663978 -0.017666638 0.74200004 7.1031637e-39
0.0021199777 -0.017666645 0.74200004 5.0694508e-39
0.0035333082 -0.017666638 0.74199998 2.8603164e-39
0.0049466458 -0.017666645 0.74200004 6.5700019e-40
0.0063599623 -0.017666623 0.74199998 8.4140546e-40
0.0077733132 -0.017666638 0.74200004 1.0243548e-39
0.0091866311 -0.017666638 0.74199998 1.0250666e-39
0.010614262 -0.017690457 0.74299997 1.0247107e-39
0.012029504 -0.017690457 0.74300003 8.4032366e-40
0.013444739 -0.017690457 0.74299997 7.4813784e-40
0.014859982 -0.017690465 0.74300003 1.025445e-39
0.016319033 -0.017738067 0.74500006 1.3023934e-39
0.017738063 -0.017738067 0.745 1.7626541e-39
0.019157127 -0.017738089 0.74500006 2.3136531e-39
0.020631425 -0.017785691 0.74700004 2.0374151e-39
0.022083772 -0.017809488 0.74799997 1.8530028e-39
0.023571435 -0.017857134 0.75000006 2.4947499e-39
0.025066676 -0.017904736 0.75200003 3.2297323e-39
0.026604747 -0.017976172 0.75500005 4.149462e-39
0.027968554 -0.017928548 0.75300002 5.0696218e-39
0.029519999 -0.017999984 0.75600004 5.1618258e-39
0.03095999 -0.017999977 0.75600004 5.3454982e-39
0.032485697 -0.018047601 0.75800002 5.345857e-39
-0.026710477 -0.016603805 0.75800002 7.4449866e-40
-0.025200009 -0.016559988 0.75600004 5.6047454e-40
-0.02376001 -0.016559973 0.75600004 3.7643781e-40
-0.022290505 -0.016538069 0.75500005 2.8352051e-40
-0.02076954 -0.016472355 0.75200003 1.8953823e-40
-0.019285716 -0.01642856 0.75000006 3.717813e-40
-0.017857149 -0.016428545 0.75000006 5.6839749e-40
-0.016384773 -0.016384736 0.74800003 3.8906211e-40
-0.014940028 -0.016362824 0.74700004 2.0143385e-40
-0.013517174 -0.016362831 0.74699998 1.8743208e-40
-0.012061926 -0.016319029 0.74500006 1.099669e-40
-0.010642882 -0.016319029 0.745 1.9931229e-40
-0.009223816 -0.016319036 0.74500006 2.0327095e-40
-0.007783826 -0.01627522 0.74300003 1.9001047e-40
-0.0063857273 -0.016319022 0.745 1.0715449e-40
-0.004953362 -0.01627522 0.74300003 1.8429457e-40
-0.0035381264 -0.01627522 0.74300003 2.1371763e-40
-0.0021200331 -0.016253315 0.74200004 1.0298423e-39
-0.00070476002 -0.016209513 0.74000007 1.7730868e-39
0.00070664909 -0.0162533 0.74200004 9.2140839e-40
0.0021142901 -0.016209505 0.74000001 1.0168522e-40
0.003523818 -0.016209513 0.74000007 6.5447365e-40
0.0049466542 -0.016253315 0.74200004 1.116535e-39
0.0063599707 -0.016253307 0.74200004 1.025431e-39
0.0077733085 -0.016253307 0.74200004 8.4104112e-40
0.0091866395 -0.016253307 0.74199998 1.0239932e-39
0.010614261 -0.01627522 0.74300003 1.1161861e-39
0.012029503 -0.016275227 0.74300003 1.023273e-39
0.013444738 -0.016275227 0.74300003 8.4068799e-40
0.01485998 -0.016275227 0.74300003 1.0258037e-39
0.016275214 -0.01627522 0.74300003 1.211281e-39
0.017738089 -0.016319029 0.74500006 1.4885938e-39
0.019157119 -0.016319029 0.74500006 1.7630058e-39
0.020631408 -0.016362824 0.74700004 1.8544644e-39
0.022083784 -0.016384736 0.74800003 1.8526469e-39
0.023571422 -0.01642856 0.75000006 2.5855148e-39
0.02506667 -0.016472362 0.75200003 3.2301051e-39
0.02653428 -0.016494267 0.75300002 4.1502018e-39
0.028042831 -0.016538069 0.75500005 5.0696316e-39
0.029520005 -0.016559988 0.75600004 5.1621846e-39
0.030959995 -0.016559981 0.75600004 5.1621874e-39
0.032400001 -0.016559981 0.75600004 5.162909e-39
-0.028265739 -0.015219972 0.76100004 9.2888011e-40
-0.026780961 -0.015199997 0.76000011 8.3884809e-40
-0.025266677 -0.015159987 0.75800002 6.5411071e-40
-0.023760021 -0.015119977 0.75600004 4.7115158e-40
-0.022290505 -0.015099987 0.75500005 3.7679795e-40
-0.020797171 -0.015059963 0.75300002 2.8317439e-40
-0.019285712 -0.014999986 0.75000006 3.739379e-40
-0.017857146 -0.014999978 0.75000006 5.5616835e-40
-0.016384799 -0.014959969 0.74800003 3.7500288e-40
-0.014940022 -0.014939971 0.74700004 1.8415864e-40
-0.013517168 -0.014939971 0.74700004 2.5815673e-39
-0.01206192 -0.014899977 0.74500006 5.0564692e-39
-0.010642875 -0.014899969 0.745 4.0577652e-39
-0.0092238383 -0.014899977 0.74500006 3.0310856e-39
-0.0078047938 -0.014899977 0.74500006 2.6651912e-39
-0.0063857292 -0.014899984 0.74500006 2.2964409e-39
-0.0049666842 -0.014899984 0.74500006 5.4457793e-39
-0.0035476389 -0.014899984 0.745 8.4953789e-39
-0.0021200443 -0.01483997 0.74199998 8.9527768e-39
-0.00070476561 -0.014799982 0.74000001 9.318611e-39
0.00070664351 -0.01483997 0.74200004 6.7302824e-39
0.002119974 -0.014839977 0.74199998 4.1384632e-39
0.0035333119 -0.014839984 0.74200004 2.4000683e-39
0.0049466281 -0.01483997 0.74199998 6.5915118e-40
0.00635998 -0.014839984 0.74200004 7.4956156e-40
0.0077732974 -0.014839962 0.74199998 8.4068099e-40
0.0091866357 -0.014839977 0.74200004 8.4104112e-40
0.010614259 -0.014859974 0.74300003 7.4956015e-40
0.012029502 -0.014859989 0.74300003 8.4103131e-40
0.013444737 -0.014859974 0.74300003 9.3323815e-40
0.014859979 -0.014859989 0.74300003 1.1183567e-39
0.016275216 -0.014859989 0.74300003 1.3038396e-39
0.017738082 -0.014899984 0.74500006 1.4875274e-39
0.019208554 -0.014939971 0.74699998 1.7619366e-39
0.020659033 -0.014959984 0.74800003 1.8537497e-39
0.022083793 -0.014959984 0.74800003 1.9444866e-39
0.023571428 -0.014999978 0.75000006 2.5865952e-39
0.025066651 -0.015039973 0.75200003 3.2308365e-39
0.026534265 -0.015059963 0.75300002 4.425372e-39
0.028042831 -0.01509998 0.75500005 5.6202971e-39
0.029519988 -0.015119977 0.75600004 5.5288077e-39
0.030959995 -0.015119985 0.75600004 5.3458612e-39
0.032400005 -0.015119985 0.75600004 5.25439e-39
-0.02834003 -0.013806656 0.76300001 8.3669149e-40
-0.026780959 -0.013752371 0.76000005 8.3741316e-40
-0.025266681 -0.013716191 0.75800002 7.4558187e-40
-0.02382287 -0.013716176 0.75800002 5.6190947e-40
-0.022320028 -0.013679989 0.75600004 4.6935511e-40
-0.020852409 -0.013661891 0.75500005 2.8425059e-40
-0.019362871 -0.013625696 0.75300002 4.6864185e-40
-0.017904747 -0.013607606 0.75200003 5.5831795e-40
-0.016384803 -0.013535216 0.74800003 3.7069389e-40
-0.014940009 -0.013517112 0.74699998 1.0093833e-40
-0.013517183 -0.013517104 0.74699998 5.0823091e-39
-0.012061941 -0.013480932 0.745 1.0045757e-38
-0.010642877 -0.013480939 0.74500006 8.0361664e-39
-0.0092238318 -0.013480924 0.74500006 5.8941598e-39
-0.0078047882 -0.013480932 0.745 5.235153e-39
-0.0063857231 -0.013480924 0.74500006 4.5281474e-39
-0.0049666781 -0.013480924 0.745 1.071562e-38
-0.0035476412 -0.013480946 0.74500006 1.6776396e-38
-0.002120035 -0.013426639 0.74199998 1.6875396e-38
-0.00070668414 -0.013426647 0.74200004 1.6864595e-38
0.00070663326 -0.013426647 0.74199998 1.2542187e-38
0.0021199703 -0.013426639 0.74200004 8.1103862e-39
0.0035333221 -0.013426654 0.74200004 4.1474497e-39
0.0049466384 -0.013426639 0.74200004 1.0598301e-40
0.0063599753 -0.013426654 0.74200004 4.7262154e-40
0.0077733076 -0.013426647 0.74199998 8.4104252e-40
0.009186646 -0.013426639 0.74200004 6.5773447e-40
0.010614258 -0.013444744 0.74300003 3.8222377e-40
0.012029495 -0.013444744 0.74299997 6.5736733e-40
0.013444735 -0.013444744 0.74300003 9.3359969e-40
0.014859972 -0.013444744 0.74299997 1.1183567e-39
0.016319044 -0.013480946 0.74500006 1.3034738e-39
0.017738074 -0.013480932 0.74500006 1.4875148e-39
0.019208562 -0.013517119 0.74700004 1.6708102e-39
0.020659022 -0.013535224 0.74800003 1.854463e-39
0.022142861 -0.013571411 0.75000006 1.9448425e-39
0.023634292 -0.013607606 0.75200003 2.585519e-39
0.025099989 -0.013625696 0.75300002 3.2301163e-39
0.026604738 -0.013661891 0.75500005 4.7001582e-39
0.028042842 -0.013661884 0.75500005 6.1709457e-39
0.029480949 -0.013661891 0.75500005 5.8954238e-39
0.030959999 -0.013679996 0.75600004 5.5288063e-39
0.032400008 -0.013679996 0.75600004 5.4376967e-39
-0.028340008 -0.012353323 0.76300001 1.0203667e-39
-0.026816215 -0.012320936 0.76100004 1.111842e-39
-0.025333341 -0.012304753 0.76000005 9.2852839e-40
-0.023822874 -0.012272365 0.75800002 7.4522033e-40
-0.022379043 -0.012272365 0.75800002 5.6011721e-40
-0.020852409 -0.012223788 0.75500005 3.7501129e-40
-0.019362871 -0.0121914 0.75300002 4.6828172e-40
-0.017904764 -0.012175225 0.75200003 5.6190247e-40
-0.016384779 -0.012110457 0.74800003 2.7957166e-40
-0.014940003 -0.012094267 0.74700004 9.233576e-41
-0.01351715 -0.012094259 0.74700004 6.3737626e-39
-0.012061915 -0.012061894 0.74500006 1.2640148e-38
-0.010642871 -0.012061879 0.74500006 7.9361375e-39
-0.0092238253 -0.012061886 0.745 3.140918e-39
-0.0078047621 -0.012061894 0.74500006 5.7165733e-39
-0.0063857445 -0.012061879 0.74500006 8.222406e-39
-0.0049667004 -0.012061886 0.745 1.0898635e-38
-0.0035476347 -0.012061894 0.74500006 1.3570442e-38
-0.0021200266 -0.012013309 0.74200004 1.3741165e-38
-0.00070667482 -0.012013316 0.74200004 1.4028504e-38
0.00070664258 -0.012013309 0.74199998 1.2549443e-38
0.0021199796 -0.012013301 0.74200004 1.1061717e-38
0.003533297 -0.012013301 0.74199998 5.5317924e-39
0.0049466477 -0.012013301 0.74200004 1.0311174e-40
0.0063599641 -0.012013294 0.74199998 5.6445703e-40
0.007773302 -0.012013309 0.74200004 1.0254338e-39
0.0091866534 -0.012013301 0.74200004 8.417684e-40
0.010614256 -0.012029521 0.74300003 6.5773587e-40
0.012029493 -0.012029499 0.74299997 7.4956716e-40
0.013444736 -0.012029506 0.74300003 8.4212713e-40
0.014859971 -0.012029514 0.74299997 1.0268799e-39
0.016319036 -0.012061879 0.74500006 1.3038269e-39
0.017785693 -0.012094252 0.74700004 1.4875021e-39
0.019234261 -0.012110457 0.74800003 1.762996e-39
0.020659018 -0.012110464 0.74800003 1.9462943e-39
0.022142865 -0.01214283 0.75000006 2.1288708e-39
0.023634288 -0.01217521 0.75200003 2.7706235e-39
0.025099991 -0.012191407 0.75300002 3.4145033e-39
0.02653427 -0.012191407 0.75300002 4.5172019e-39
0.028042842 -0.012223788 0.75500011 5.6206446e-39
0.029519992 -0.012239985 0.75600004 5.528072e-39
0.030960003 -0.012239978 0.75600004 5.4362463e-39
0.03239999 -0.012239978 0.75600004 5.5288091e-39
-0.029793369 -0.010899976 0.76300001 1.0192849e-39
-0.028414283 -0.010928564 0.76500005 1.2033272e-39
-0.026886681 -0.010899998 0.76300001 1.2947984e-39
-0.025366677 -0.010871418 0.76100004 1.1114819e-39
-0.023885746 -0.010857128 0.76000005 8.356167e-40
-0.022379046 -0.010828555 0.75800002 6.5051077e-40
-0.020879999 -0.010799982 0.75600004 3.7500709e-40
-0.019362871 -0.010757104 0.75299996 4.6792298e-40
-0.017904783 -0.010742843 0.75200003 4.6719431e-40
-0.016428571 -0.010714263 0.75000006 2.7669619e-40
-0.014940018 -0.010671392 0.74699998 1.070592e-40
-0.013517165 -0.010671392 0.74699998 7.6799438e-39
-0.01206191 -0.010642841 0.74500006 1.5204747e-38
-0.010642893 -0.010642849 0.74500006 7.8353393e-39
-0.0092238486 -0.010642834 0.745 3.8767483e-40
-0.0078047835 -0.010642841 0.74500006 6.1754411e-39
-0.0063857385 -0.010642849 0.745 1.1897265e-38
-0.0049666739 -0.010642841 0.74500006 1.1086213e-38
-0.0035476286 -0.010642841 0.74500006 1.0239927e-38
-0.0021200173 -0.010599971 0.74200004 1.0673239e-38
-0.00070671394 -0.010599963 0.74199998 1.1073254e-38
0.00070663699 -0.010599971 0.74200004 1.2565609e-38
0.0021199889 -0.010599971 0.74200004 1.3913289e-38
0.0035333063 -0.010599971 0.74200004 6.997929e-39
0.004946643 -0.010599986 0.74200004 1.0346908e-40
0.0063599735 -0.010599963 0.74199998 6.5629393e-40
0.0077733113 -0.010599971 0.74200004 1.1169077e-39
0.0091990158 -0.010614268 0.74299997 1.0257911e-39
0.010614271 -0.010614261 0.74300003 8.4104112e-40
0.012029492 -0.010614268 0.74299997 7.4848676e-40
0.013444735 -0.010614276 0.74300003 6.5773587e-40
0.014899983 -0.010642841 0.74500006 9.3468569e-40
0.016319029 -0.010642841 0.74500006 1.2112782e-39
0.017785713 -0.010671407 0.74700004 1.5797048e-39
0.019234248 -0.010685697 0.74800003 1.8548371e-39
0.020659028 -0.01068569 0.74800003 2.0381326e-39
0.022142846 -0.010714263 0.75 2.220349e-39
0.023571415 -0.010714255 0.75 2.8621017e-39
0.025066663 -0.010742843 0.75200003 3.5059871e-39
0.02653427 -0.010757111 0.75300002 4.2413479e-39
0.028042834 -0.010785699 0.75500005 4.9770856e-39
0.029519996 -0.010799989 0.75600004 5.1600182e-39
0.030960007 -0.010799982 0.75600004 5.2525795e-39
0.032399993 -0.010799982 0.75600004 5.6202886e-39
-0.029871425 -0.0094714165 0.76500005 9.2601726e-40
-0.028414281 -0.009471409 0.76500005 1.0189458e-39
-0.026957139 -0.009471409 0.76500005 1.2018909e-39
-0.025433354 -0.0094466582 0.76300001 9.2709206e-40
-0.023917167 -0.0094218999 0.7610001 6.508653e-40
-0.022379048 -0.0093847439 0.75800002 5.590256e-40
-0.02088001 -0.0093599856 0.75600004 4.6612091e-40
-0.01936288 -0.009322837 0.75300002 3.7644482e-40
-0.017928598 -0.009322837 0.75300002 3.785846e-40
-0.016472396 -0.0093104616 0.75200003 2.7991918e-40
-0.015 -0.0092856959 0.75000006 9.3442785e-41
-0.013517158 -0.0092485398 0.74700004 7.3886881e-39
-0.012094305 -0.0092485398 0.74699998 1.4663082e-38
-0.010642887 -0.009223789 0.745 8.7608746e-39
-0.0092238216 -0.009223789 0.74500006 2.7660973e-39
-0.007804777 -0.009223789 0.74500006 8.119461e-39
-0.0063857329 -0.0092237964 0.745 1.3380269e-38
-0.0049666953 -0.009223789 0.74500006 9.3269487e-39
-0.0035476515 -0.0092237964 0.74500006 5.2624713e-39
-0.002122896 -0.0091990307 0.74299997 8.2890574e-39
-0.00070764153 -0.0091990307 0.74300003 1.1342291e-38
0.00070758042 -0.0091990307 0.74299997 1.2549845e-38
0.0021228369 -0.0091990307 0.74300003 1.3824333e-38
0.0035333147 -0.0091866404 0.74200004 6.9089605e-39
0.0049466318 -0.0091866404 0.74199998 9.5576963e-41
0.0063685351 -0.0091990232 0.74300003 4.7011321e-40
0.0077837915 -0.0091990307 0.74300003 9.3323395e-40
0.0091990139 -0.0091990307 0.74299997 8.4103692e-40
0.010614269 -0.0091990307 0.74300003 7.4848256e-40
0.012029491 -0.0091990307 0.74299997 7.4812242e-40
0.013444747 -0.0091990381 0.74300003 7.4849236e-40
0.014899991 -0.0092237964 0.74500006 9.336095e-40
0.01631902 -0.0092237964 0.745 1.2102062e-39
0.017785698 -0.0092485398 0.74700004 1.5789957e-39
0.019234257 -0.0092609376 0.74800003 1.9466782e-39
0.020659016 -0.0092609301 0.74800003 2.0374179e-39
0.02214285 -0.0092856959 0.75 2.2199931e-39
0.023571417 -0.0092856884 0.75 2.8628205e-39
0.025099996 -0.009322837 0.75300002 3.5981869e-39
0.026534256 -0.0093228295 0.75299996 4.1502411e-39
0.028042849 -0.0093475878 0.75500005 4.7937818e-39
0.029519999 -0.009359993 0.75600004 4.9770688e-39
0.030959986 -0.0093599781 0.75600004 5.2525823e-39
0.032399997 -0.0093599856 0.75600004 5.4366191e-39
-0.029871425 -0.0080142692 0.76500005 8.3489082e-40
-0.028414281 -0.0080142692 0.76500005 9.2817666e-40
-0.026886687 -0.0079933107 0.76300001 1.0192891e-39
-0.02543338 -0.0079933107 0.76300001 7.437784e-40
-0.023822865 -0.007940948 0.75800002 4.6790757e-40
-0.022320017 -0.0079199895 0.75600004 4.6790197e-40
-0.020852404 -0.007909514 0.75500005 4.6755164e-40
-0.01936288 -0.0078885406 0.75300002 3.7680075e-40
-0.017928598 -0.0078885481 0.75300002 2.8387785e-40
-0.016472386 -0.0078780726 0.75199997 1.8665155e-40
-0.015000016 -0.0078571066 0.75 1.0492783e-40
-0.013571429 -0.0078571215 0.75000006 7.1174962e-39
-0.012094297 -0.0078256801 0.74700004 1.4103821e-38
-0.010671444 -0.0078256875 0.74700004 9.6874776e-39
-0.0092238151 -0.0078047365 0.74500006 5.1821657e-39
-0.0078047994 -0.0078047365 0.74500006 1.0064522e-38
-0.0064028632 -0.0078256875 0.74700004 1.484498e-38
-0.00498001 -0.0078256801 0.74700004 7.5792058e-39
-0.0035571551 -0.0078256875 0.74700004 2.9512607e-40
-0.0021228979 -0.0077837855 0.74300003 5.9706147e-39
-0.00070764153 -0.0077837929 0.74300003 1.1616027e-38
0.00070759346 -0.0077838004 0.74299997 1.2650293e-38
0.002122835 -0.0077837929 0.74300003 1.3634923e-38
0.0035380709 -0.0077837929 0.74300003 6.9017845e-39
0.0049533122 -0.0077837929 0.74300003 1.0023488e-40
0.0063685481 -0.0077837929 0.74300003 3.7826931e-40
0.0077837906 -0.0077838078 0.74300003 6.5592959e-40
0.009199013 -0.0077837855 0.74300003 6.5700579e-40
0.010614268 -0.0077838004 0.74300003 6.5663865e-40
0.01202949 -0.0077837929 0.74300003 7.4703221e-40
0.013444745 -0.0077837855 0.74300003 8.3960059e-40
0.014899982 -0.0078047439 0.745 1.0243632e-39
0.016362831 -0.0078256801 0.74699998 1.1183595e-39
0.017785702 -0.0078256875 0.74700004 1.579339e-39
0.019234268 -0.0078361779 0.74800003 2.0377864e-39
0.020659026 -0.0078361705 0.74800003 2.1285331e-39
0.022142839 -0.0078571141 0.75 2.1281534e-39
0.023634296 -0.00787808 0.75200003 2.8621003e-39
0.025099982 -0.0078885481 0.75300002 3.5985457e-39
0.026604746 -0.0079095066 0.75500005 4.1509613e-39
0.028042829 -0.0079094917 0.75500005 4.6101164e-39
0.029520003 -0.007919997 0.75600004 4.8856019e-39
0.031041909 -0.0079409406 0.75800002 5.1611196e-39
0.032485705 -0.0079409406 0.75800002 5.3444416e-39
-0.02681623 -0.0065228418 0.76100004 9.2708925e-40
-0.025366705 -0.0065228343 0.76100004 8.3525236e-40
-0.023822868 -0.0064971298 0.75800002 6.5229182e-40
-0.022320021 -0.0064799786 0.75600004 5.5973186e-40
-0.020852424 -0.0064714029 0.75500005 4.6790617e-40
-0.019362859 -0.0064542666 0.75300002 4.6863204e-40
-0.01790476 -0.0064457059 0.75200003 4.693425e-40
-0.016428582 -0.0064285472 0.75 2.8135971e-40
-0.015000014 -0.0064285547 0.75 9.3455397e-41
-0.013535264 -0.0064114034 0.74799997 5.6337888e-39
-0.012094312 -0.0064028203 0.74700004 1.1079351e-38
-0.010671459 -0.0064028278 0.74699998 1.0522961e-38
-0.0092238383 -0.0063856915 0.74500006 9.873315e-39
-0.0078047733 -0.0063857064 0.74500006 1.1998463e-38
-0.0064028776 -0.0064028278 0.74700004 1.4028873e-38
-0.0049800244 -0.0064028352 0.74699998 7.1013742e-39
-0.0035571491 -0.0064028278 0.74700004 1.8430158e-40
-0.0021228998 -0.0063685477 0.74300003 6.4574594e-39
-0.0007076434 -0.0063685626 0.74300003 1.2735655e-38
0.00070759159 -0.0063685402 0.74300003 1.1536431e-38
0.0021228341 -0.0063685551 0.74300003 1.0235217e-38
0.00353807 -0.0063685551 0.74300003 5.1608547e-39
0.0049533122 -0.0063685477 0.74300003 1.8812011e-40
0.0063685463 -0.0063685551 0.74300003 2.8570794e-40
0.0077837887 -0.0063685477 0.74300003 4.7189426e-40
0.0091990242 -0.0063685477 0.74300003 5.6516889e-40
0.010642832 -0.006385684 0.745 6.5734911e-40
0.012061899 -0.0063856989 0.74500006 7.4809299e-40
0.013480929 -0.0063856915 0.74500006 7.4703642e-40
0.014959983 -0.0064114183 0.74800003 1.0247149e-39
0.016384739 -0.0064114034 0.74800003 1.2101838e-39
0.017809497 -0.0064114034 0.74800003 1.5782474e-39
0.019285705 -0.0064285472 0.75000006 2.0367004e-39
0.020714274 -0.0064285398 0.75000006 2.1288877e-39
0.022201903 -0.0064457059 0.75200003 2.3118216e-39
0.023634292 -0.0064456984 0.75200003 2.9550092e-39
0.025099982 -0.0064542592 0.75300002 3.6903812e-39
0.026604738 -0.0064713955 0.75500005 4.1502453e-39
0.028079996 -0.0064799935 0.75600004 4.6094059e-39
0.029598085 -0.0064971298 0.75800002 4.8852529e-39
0.031041902 -0.0064971223 0.75800002 5.2529677e-39
-0.026816215 -0.0050733164 0.7610001 8.3525796e-40
-0.02536669 -0.0050733164 0.76100004 8.3382023e-40
-0.023885719 -0.0050666481 0.76000005 8.3489503e-40
-0.022379059 -0.0050533265 0.75800002 6.508639e-40
-0.02093523 -0.005053319 0.75800002 3.7536021e-40
-0.019414308 -0.0050333142 0.75500005 4.6791738e-40
-0.017928578 -0.0050199702 0.75300002 5.6046894e-40
-0.016472373 -0.0050133169 0.75200003 3.7607908e-40
-0.015000011 -0.0049999803 0.75 1.0096215e-40
-0.01353527 -0.0049866438 0.74800003 4.0606813e-39
-0.012110511 -0.0049866289 0.74800003 8.0315351e-39
-0.010671454 -0.0049799681 0.74700004 1.1360258e-38
-0.0092486003 -0.0049799681 0.74700004 1.4566967e-38
-0.0078047668 -0.0049666464 0.74500006 1.3935597e-38
-0.006402872 -0.0049799681 0.74700004 1.3172208e-38
-0.0049800184 -0.0049799755 0.74700004 6.6127807e-39
-0.003557164 -0.0049799681 0.74700004 1.0536643e-40
-0.0021228727 -0.0049533173 0.74300003 7.0310473e-39
-0.00070764433 -0.0049533173 0.74300003 1.3828329e-38
0.00070949987 -0.0049666539 0.74500006 1.034111e-38
0.002128545 -0.0049666464 0.745 6.8233062e-39
0.0035380682 -0.0049533099 0.74300003 3.5020873e-39
0.0049533104 -0.0049533248 0.74300003 1.9422697e-40
0.0063685453 -0.0049533173 0.74300003 2.8786594e-40
0.00780475 -0.0049666539 0.74500006 2.8930648e-40
0.0092237936 -0.004966639 0.74500006 4.7406067e-40
0.010642825 -0.0049666464 0.745 6.5736172e-40
0.01206189 -0.0049666539 0.74500006 6.5699178e-40
0.013480934 -0.004966639 0.745 6.5700299e-40
0.014959957 -0.0049866512 0.74799997 1.0250751e-39
0.016384736 -0.0049866512 0.74800003 1.3020221e-39
0.017809493 -0.0049866512 0.74800003 1.6700857e-39
0.019285709 -0.0049999803 0.75000006 1.9455852e-39
0.020714276 -0.0049999803 0.75000006 2.2218008e-39
0.022201899 -0.0050133094 0.75200003 2.4043773e-39
0.023665693 -0.0050199702 0.75300002 3.1390431e-39
0.025166633 -0.0050333068 0.75500005 3.7825782e-39
0.026639991 -0.0050399825 0.75600004 4.1506068e-39
0.028154284 -0.005053319 0.75800002 4.5179222e-39
0.02967619 -0.0050666556 0.76000005 4.8848788e-39
0.031123795 -0.0050666481 0.76000005 5.2522348e-39
-0.026816223 -0.0036237836 0.76100004 9.2781653e-40
-0.025333364 -0.003619045 0.76000005 9.2673473e-40
-0.023822876 -0.0036095008 0.75800002 8.345447e-40
-0.022379063 -0.0036095008 0.75800002 6.5015905e-40
-0.020935232 -0.0036095083 0.75800002 3.7357496e-40
-0.019414328 -0.0035952181 0.75500005 4.6684258e-40
-0.017928578 -0.0035856813 0.75300002 5.6047735e-40
-0.016472392 -0.0035809353 0.75200003 3.7609309e-40
-0.015000009 -0.0035713986 0.75 1.8990257e-40
-0.013571441 -0.003571406 0.75 2.1256128e-39
-0.012110515 -0.0035618767 0.74800003 4.0642882e-39
-0.010685757 -0.0035618767 0.74800003 5.8200101e-39
-0.0092485938 -0.0035571158 0.74700004 7.4866627e-39
-0.0078257406 -0.0035571158 0.74700004 8.8552072e-39
-0.0064028865 -0.0035571009 0.74700004 1.0213731e-38
-0.0049800333 -0.0035571158 0.74699998 7.0834362e-39
-0.0035476338 -0.0035476014 0.74500006 3.8584123e-39
-0.0021228746 -0.003538087 0.74300003 5.4454234e-39
