# .PCD v0.7 - Point Cloud Data file format
VERSION 0.7
FIELDS x y z rgb
SIZE 4 4 4 4
TYPE F F F F
COUNT 1 1 1 1
WIDTH 957
HEIGHT 1
VIEWPOINT 0 0 0 1 0 0 0
POINTS 957
DATA ascii
0.003547638 -0.0035476238 0.74500006 9.3215775e-40
0.0049666855 -0.0035476387 0.74500006 1.2069482e-39
0.0063857334 -0.0035476238 0.74500006 1.0232786e-39
0.0078257145 -0.003557153 0.74700004 8.3996633e-40
0.0092485566 -0.0035571679 0.74700004 7.4884829e-40
0.010671423 -0.0035571605 0.74700004 5.651773e-40
0.012110485 -0.0035619289 0.74800003 5.6374097e-40
0.013535247 -0.0035619363 0.74800003 4.7155095e-40
0.014960011 -0.0035619363 0.74800009 8.406908e-40
0.016428592 -0.0035714358 0.75000006 1.117998e-39
0.017857149 -0.0035714433 0.75000006 1.486063e-39
0.019285731 -0.0035714358 0.75000006 1.8534008e-39
0.020769535 -0.00358098 0.75200009 1.6704431e-39
0.022231428 -0.0035857335 0.75300002 1.4863839e-39
0.023665722 -0.0035857484 0.75300002 4.6155773e-39
0.025166674 -0.0035952628 0.75500005 7.8341048e-39
0.026604732 -0.0035952628 0.75500005 6.8145677e-39
0.028080003 -0.0036000162 0.75600004 5.8007689e-39
0.029598121 -0.0036095455 0.75800002 5.4351995e-39
0.031164747 -0.0036238208 0.76100004 5.0689267e-39
0.032614291 -0.0036238208 0.7610001 5.0696358e-39
-0.02536667 -0.0021742955 0.76100004 1.2944312e-39
-0.02388571 -0.0021714568 0.76000005 1.569579e-39
-0.022438118 -0.0021714419 0.76000005 1.1096826e-39
-0.020935204 -0.0021657422 0.75800002 6.5049816e-40
-0.019440008 -0.0021600127 0.75600004 4.6681876e-40
-0.017999995 -0.0021600053 0.75600004 1.870299e-40
-0.01649427 -0.0021514446 0.75300002 1.8418106e-40
-0.015059974 -0.0021514595 0.75300002 1.1068997e-40
-0.013607618 -0.002148591 0.75200003 4.0553606e-39
-0.012175218 -0.0021485984 0.75200003 8.0229101e-39
-0.010714254 -0.0021428615 0.75000006 8.8576496e-39
-0.0093104737 -0.002148591 0.75200003 9.682737e-39
-0.0078571485 -0.0021428615 0.75000006 7.8402901e-39
-0.0064285663 -0.0021428615 0.75000006 5.9095839e-39
-0.004986641 -0.0021371767 0.74800009 3.0368478e-39
-0.0035619072 -0.0021371692 0.74800003 9.9542638e-41
-0.0021342782 -0.0021343157 0.74700004 4.6580422e-40
-0.00071141106 -0.0021343082 0.74700004 7.4561129e-40
0.00071142911 -0.0021343082 0.7470001 5.6337243e-40
0.0021342954 -0.0021343231 0.7470001 3.804217e-40
0.0035571635 -0.0021343008 0.7470001 8.4067819e-40
0.0049799997 -0.0021343082 0.74700004 1.2994997e-39
0.0064028651 -0.0021343082 0.74700004 1.0229213e-39
0.0078257071 -0.0021343008 0.74700004 7.4813083e-40
0.0092609813 -0.0021371692 0.74800003 6.5665266e-40
0.010685744 -0.0021371692 0.74800009 4.7262294e-40
0.012110507 -0.0021371767 0.74800009 5.6302491e-40
0.013535242 -0.0021371618 0.74800003 6.5558067e-40
0.015000016 -0.0021428689 0.75000006 8.406908e-40
0.016428599 -0.0021428615 0.75000006 1.0250849e-39
0.017857151 -0.0021428615 0.75 1.3927898e-39
0.019285733 -0.0021428615 0.75000006 1.7619226e-39
0.020769518 -0.002148591 0.75200003 1.4871294e-39
0.022231471 -0.0021514595 0.75300008 1.2130298e-39
0.023728581 -0.0021571815 0.75500005 4.6198821e-39
0.025166642 -0.0021571591 0.75500005 7.9223558e-39
0.026639994 -0.0021600127 0.75600004 6.9028201e-39
0.028080007 -0.0021600202 0.75600004 5.8929659e-39
0.029598104 -0.0021657273 0.75800002 5.6195894e-39
0.031164745 -0.002174288 0.76100004 5.3444346e-39
0.032614283 -0.0021742955 0.76100004 5.2525935e-39
-0.025366671 -0.00072477758 0.76100004 1.1104015e-39
-0.023885747 -0.00072383881 0.76000005 1.2937138e-39
-0.022438098 -0.0007238239 0.76000005 8.3381743e-40
-0.020990506 -0.00072383136 0.76000005 4.6538804e-40
-0.019491391 -0.00072192401 0.75800008 5.5470119e-40
-0.017999994 -0.00072001666 0.75600004 6.433137e-40
-0.016494282 -0.00071717054 0.75300002 3.6925448e-39
-0.015059986 -0.00071716309 0.75300002 6.6435294e-39
-0.013607606 -0.00071620941 0.75200009 8.9487957e-39
-0.012175206 -0.00071622431 0.75200009 1.1168649e-38
-0.01071428 -0.00071428716 0.75000006 1.1438073e-38
-0.0093104606 -0.00071620941 0.75200003 1.1723253e-38
-0.0078780865 -0.00071621686 0.75200009 1.1439124e-38
-0.0064285621 -0.00071429461 0.75000006 1.1162095e-38
-0.0050000111 -0.00071429461 0.75000006 8.0180757e-39
-0.0035714291 -0.00071429461 0.75000006 4.8724171e-39
-0.0021342614 -0.00071144849 0.74700004 2.6723771e-39
-0.00071142131 -0.00071145594 0.7470001 4.7261593e-40
0.00071144587 -0.00071145594 0.7470001 4.7152572e-40
0.0021342833 -0.00071144849 0.74700004 5.6444442e-40
0.0035571505 -0.00071144104 0.74700004 8.4103411e-40
0.0049799895 -0.00071144849 0.74700004 1.2087404e-39
0.0064028576 -0.00071145594 0.74700004 9.3216196e-40
0.0078257238 -0.00071144849 0.74700004 7.477721e-40
0.0092485901 -0.00071145594 0.7470001 6.5629253e-40
0.010685738 -0.00071240216 0.74800003 5.6481717e-40
0.0121105 -0.00071240962 0.74800003 6.5557787e-40
0.013535264 -0.00071241707 0.74800009 6.5522334e-40
0.014999989 -0.00071429461 0.75000006 8.3997333e-40
0.016428573 -0.00071428716 0.75000006 1.1162015e-39
0.017857155 -0.00071428716 0.75000006 1.5771754e-39
0.019285735 -0.00071430206 0.75000006 2.1310555e-39
0.020769529 -0.00071621686 0.75200003 1.6700815e-39
0.02223146 -0.00071716309 0.75300002 1.2080062e-39
0.023728551 -0.00071907789 0.75500005 4.5241005e-39
0.025166666 -0.00071907043 0.75500005 7.9248683e-39
0.026639996 -0.00072000921 0.75600004 6.8131412e-39
0.028080007 -0.00072000921 0.75600004 5.7082215e-39
0.029520018 -0.00072002411 0.75600004 5.1582595e-39
0.031164739 -0.00072477013 0.76100004 4.7019477e-39
-0.028414257 0.00072855502 0.7650001 1.0178486e-39
-0.026886635 0.00072664768 0.76300001 8.3489923e-40
-0.025433326 0.00072665513 0.76300001 9.263788e-40
-0.023917131 0.00072475523 0.76100004 9.2673613e-40
-0.022438107 0.0007237941 0.76000005 6.5050937e-40
-0.020990485 0.00072378665 0.76000005 2.8100658e-40
-0.019491408 0.0007218793 0.75800002 7.351534e-40
-0.017999994 0.00071999431 0.75600004 1.1175972e-39
-0.016538111 0.00071901828 0.75500005 7.2074736e-39
-0.015059997 0.00071711838 0.75300002 1.3181823e-38
-0.013625701 0.00071712583 0.75300002 1.3743616e-38
-0.012175251 0.00071616471 0.75200003 1.4278826e-38
-0.01074285 0.00071617216 0.75200003 1.4002943e-38
-0.0093104495 0.00071616471 0.75200003 1.3728898e-38
-0.0078781052 0.00071617216 0.75200003 1.5030046e-38
-0.0064285621 0.00071427226 0.75000006 1.6312119e-38
-0.0049999813 0.00071427971 0.75000006 1.30017e-38
-0.0035713993 0.00071427226 0.75000006 9.5815422e-39
-0.002137129 0.00071234256 0.74800009 4.8789163e-39
-0.00071143341 0.00071140379 0.74700004 1.0132089e-40
0.00071143376 0.00071140379 0.74700004 4.6938454e-40
0.0021342749 0.00071139634 0.74700004 7.4740496e-40
0.0035571402 0.00071140379 0.74700004 9.3323115e-40
0.0049800063 0.00071141124 0.7470001 1.024352e-39
0.0064028744 0.00071139634 0.7470001 8.4032506e-40
0.0078257406 0.00071140379 0.7470001 6.5629393e-40
0.0092485817 0.00071140379 0.7470001 6.5629253e-40
0.01068573 0.00071236491 0.74800003 6.5629253e-40
0.012110493 0.00071235001 0.74800003 6.5521633e-40
0.013535255 0.00071235746 0.74800003 6.5557787e-40
0.015000021 0.00071427971 0.75000006 9.3144729e-40
0.016428603 0.00071427226 0.75000006 1.1162029e-39
0.017857159 0.00071427971 0.75000012 1.7608548e-39
0.019337142 0.00071616471 0.75200003 2.4051312e-39
0.020769542 0.00071617216 0.75200009 1.761917e-39
0.022231447 0.00071712583 0.75300002 1.1204769e-39
0.023728577 0.00071901828 0.75500005 4.527692e-39
0.025166638 0.00071902573 0.75500005 7.9205565e-39
0.026640002 0.00071997941 0.7560001 6.7166253e-39
0.028079985 0.00071997941 0.75600004 5.430543e-39
0.029598126 0.00072188675 0.75800002 4.7873078e-39
0.031246688 0.00072664768 0.76300001 4.0551321e-39
-0.028488552 0.0021914095 0.76700002 1.0192835e-39
-0.026957115 0.0021856949 0.7650001 8.3597823e-40
-0.025433322 0.0021799877 0.76300001 1.0196562e-39
-0.02397996 0.0021799803 0.76300001 1.1114889e-39
-0.022467619 0.0021742806 0.76100004 6.5087231e-40
-0.021018101 0.0021742657 0.76100004 2.8244852e-40
-0.019491425 0.0021656901 0.75800002 1.7514521e-39
-0.018000018 0.0021599904 0.75600004 3.2312878e-39
-0.016538087 0.0021571144 0.75500005 8.1284083e-39
-0.015100027 0.0021571219 0.75500005 1.3010384e-38
-0.013625714 0.0021514148 0.75300002 1.2157304e-38
-0.012175239 0.0021485388 0.75200003 1.1312436e-38
-0.010714277 0.0021428615 0.75 1.1866265e-38
-0.0092857201 0.002142854 0.75000006 1.2414473e-38
-0.0078571383 0.002142854 0.75000006 1.4099504e-38
-0.0064285574 0.0021428466 0.75000006 1.576906e-38
-0.0049999757 0.0021428466 0.75000006 1.4110655e-38
-0.0035714235 0.0021428466 0.75000006 1.2451088e-38
-0.0021342838 0.002134271 0.74700004 6.2700553e-39
-0.00071141665 0.0021342561 0.74700004 9.4140632e-41
0.00071142445 0.0021342635 0.74700004 5.5836139e-40
0.0021342917 0.0021342635 0.7470001 9.3072422e-40
0.003557157 0.0021342561 0.7470001 9.3179762e-40
0.0049800249 0.0021342635 0.7470001 9.3144029e-40
0.0064028651 0.0021342486 0.7470001 8.3924606e-40
0.0078257006 0.0021342635 0.74700004 7.4776929e-40
0.0092609636 0.0021371171 0.74800003 7.4848536e-40
0.010685727 0.0021371022 0.74800009 6.5736593e-40
0.012110515 0.0021371171 0.74800009 6.5628833e-40
0.013535279 0.0021371022 0.74800009 5.640983e-40
0.014999996 0.002142854 0.75000006 8.3960899e-40
0.016428577 0.0021428466 0.75000006 1.1151295e-39
0.017857159 0.002142854 0.75000006 1.5771908e-39
0.01928574 0.002142854 0.75000006 2.1296275e-39
0.020769553 0.0021485463 0.75200009 1.4860504e-39
0.022231463 0.0021513999 0.75300008 9.3250247e-40
0.023728548 0.002157107 0.75500005 4.2464486e-39
0.025166662 0.0021571144 0.75500005 7.5535676e-39
0.026640002 0.0021599829 0.75600004 7.7285926e-39
0.028079983 0.0021599904 0.75600004 7.9082881e-39
0.029598108 0.002165705 0.75800002 7.730326e-39
0.031164762 0.0021742806 0.7610001 7.5441439e-39
-0.02848856 0.0036523715 0.76700002 1.0199981e-39
-0.02695713 0.0036428347 0.76500005 8.3597403e-40
-0.025499973 0.0036428273 0.7650001 1.112205e-39
-0.023979982 0.0036333129 0.76300001 1.2947928e-39
-0.022526648 0.0036333278 0.76300001 7.4305673e-40
-0.021018105 0.0036238059 0.76100004 1.8917389e-40
-0.019491412 0.0036094934 0.75800008 2.756263e-39
-0.018047612 0.0036095008 0.75800002 5.3560626e-39
-0.016538117 0.0035952106 0.75500005 9.0639866e-39
-0.015100003 0.0035952106 0.75500005 1.2715095e-38
-0.013625696 0.0035856813 0.75300008 1.0561913e-38
-0.01219143 0.0035857037 0.75300002 8.3671643e-39
-0.010742857 0.0035809427 0.75200003 9.7349886e-39
-0.0093104811 0.0035809278 0.75200003 1.1046615e-38
-0.0078780819 0.0035809353 0.75200003 1.3184763e-38
-0.0064285565 0.0035714284 0.75000006 1.5215194e-38
-0.0050000018 0.0035714209 0.75000006 1.5220221e-38
-0.0035714197 0.0035714135 0.75000006 1.5206898e-38
-0.0021342922 0.0035571232 0.7470001 7.6562464e-39
-0.00071142503 0.0035571232 0.7470001 1.0528376e-40
0.00071144215 0.0035571158 0.7470001 6.4732422e-40
0.0021343075 0.0035571158 0.7470001 1.1118813e-39
0.0035571738 0.0035571158 0.7470001 9.3107875e-40
0.0049799858 0.0035571232 0.74700004 7.4740496e-40
0.006402852 0.0035571232 0.74700004 8.3780272e-40
0.0078257192 0.0035571158 0.74700004 8.3959778e-40
0.0092609562 0.0035618842 0.74800003 7.4884129e-40
0.01068572 0.0035618767 0.74800003 6.5664566e-40
0.012110484 0.0035618693 0.74800009 5.640913e-40
0.013535271 0.0035618767 0.74800003 4.722544e-40
0.014999999 0.0035714209 0.75000006 8.3959498e-40
0.016428581 0.0035714209 0.75000006 1.1169119e-39
0.017857162 0.003571406 0.75000006 1.4864231e-39
0.019285714 0.0035714284 0.75000006 1.7626415e-39
0.020769536 0.0035809427 0.75200003 1.2112642e-39
0.02223145 0.0035856962 0.75300002 6.5987705e-40
0.023728574 0.0035952181 0.75500005 3.9716792e-39
0.025199993 0.0035999864 0.75600004 7.1837089e-39
0.026640004 0.0035999864 0.75600004 8.7362425e-39
0.028154291 0.0036095083 0.75800002 1.0310373e-38
0.029598121 0.0036094934 0.75800008 1.0680956e-38
0.031246671 0.0036333203 0.76300001 1.0961119e-38
-0.028525693 0.0051199794 0.76800001 8.3596422e-40
-0.026957113 0.0050999671 0.7650001 7.4341686e-40
-0.025499986 0.0050999746 0.7650001 8.356167e-40
-0.024042832 0.0050999597 0.7650001 9.2708505e-40
-0.022526639 0.0050866529 0.76300001 5.5865846e-40
-0.021018108 0.0050733238 0.76100004 1.8845222e-40
-0.019491402 0.0050533041 0.75800002 2.76559e-39
-0.018047573 0.0050533041 0.75800008 5.3625212e-39
-0.016538091 0.0050333068 0.75500005 9.0499989e-39
-0.015100033 0.0050333142 0.75500005 1.2805802e-38
-0.013625708 0.0050199851 0.75300002 1.1311915e-38
-0.012175244 0.0050133169 0.75200003 9.8493696e-39
-0.010742844 0.0050133169 0.75200003 1.095463e-38
-0.00931047 0.005013302 0.75200003 1.2157598e-38
-0.0078780698 0.0050133169 0.75200009 1.2356833e-38
-0.0064285519 0.0049999952 0.75000006 1.2553416e-38
-0.0049999701 0.0049999878 0.75000006 1.3840185e-38
-0.0035714188 0.0049999952 0.75 1.5122983e-38
-0.0021371206 0.0049866438 0.74800009 7.8428363e-39
-0.00071140827 0.004979983 0.7470001 5.6412493e-40
0.00071145798 0.0049799681 0.7470001 5.5835438e-40
0.0021342684 0.0049799904 0.74700004 6.5234227e-40
0.0035571365 0.0049799904 0.74700004 7.4704622e-40
0.0049800025 0.0049799755 0.74700004 8.4066978e-40
0.0064028678 0.004979983 0.74700004 8.3886911e-40
0.007825736 0.0049799681 0.74700004 7.4775668e-40
0.0092485761 0.0049799755 0.7470001 6.5628412e-40
0.010714286 0.0050000027 0.75000006 6.5556666e-40
0.012142868 0.0049999952 0.75000006 4.7189426e-40
0.01353524 0.0049866438 0.74800003 3.8005176e-40
0.01500003 0.0049999803 0.75000006 7.481042e-40
0.016428584 0.0050000027 0.75000006 1.1179769e-39
0.017857166 0.0049999952 0.75000006 1.3952953e-39
0.019285722 0.0049999878 0.75000006 1.6715193e-39
0.020769523 0.0050133169 0.75200009 1.2105481e-39
0.022231439 0.0050199777 0.75300002 7.4849517e-40
0.023728542 0.0050333217 0.75500005 3.8777109e-39
0.025199994 0.0050399974 0.75600004 7.0961726e-39
0.026640005 0.0050399825 0.75600004 1.0134909e-38
0.02815433 0.0050533116 0.75800008 1.3273515e-38
0.029598104 0.0050533116 0.75800002 1.3824583e-38
0.031246705 0.0050866455 0.76300001 1.4383118e-38
0.03270001 0.0050866455 0.76300001 1.4286606e-38
-0.028525693 0.0065828413 0.76800001 7.4341406e-40
-0.026957098 0.006557107 0.7650001 5.6010881e-40
-0.025499972 0.0065571144 0.7650001 5.6011581e-40
-0.023979969 0.0065399781 0.76300001 5.6047034e-40
-0.0224676 0.0065228418 0.76100004 3.7571755e-40
-0.020990489 0.0065142661 0.76000005 9.6266402e-41
-0.019491419 0.0064971298 0.75800002 2.6637156e-39
-0.017999984 0.0064799711 0.75600004 5.2671012e-39
-0.016538123 0.0064714104 0.75500005 9.1504439e-39
-0.015100007 0.0064714104 0.75500005 1.289372e-38
-0.01362572 0.0064542666 0.75300002 1.2030872e-38
-0.012175232 0.0064456984 0.75200003 1.1231644e-38
-0.010742858 0.0064456984 0.75200009 1.2260517e-38
-0.0093104579 0.0064456835 0.75200009 1.326863e-38
-0.0078780884 0.0064456984 0.75200003 1.1622842e-38
-0.0064285779 0.0064285621 0.75000006 9.8786903e-39
-0.0049999962 0.0064285696 0.75000006 1.246408e-38
-0.0035714142 0.0064285621 0.75000006 1.5026468e-38
-0.0021371271 0.006411396 0.74800003 8.0279198e-39
-0.00071236381 0.0064114109 0.74800003 1.0236443e-39
0.00071239861 0.0064114034 0.74800003 5.5260205e-40
0.002134287 0.0064028352 0.74700004 9.9530026e-41
0.0035619254 0.0064114034 0.74800009 5.6337944e-40
0.0049800193 0.0064028352 0.74700004 9.3179341e-40
0.0064028604 0.0064028352 0.7470001 8.3780132e-40
0.0078257266 0.0064028352 0.7470001 6.5556806e-40
0.009260973 0.0064114034 0.74800003 6.5700719e-40
0.010685736 0.0064114034 0.74800009 5.6373537e-40
0.012142871 0.0064285621 0.75000012 4.711824e-40
0.013535262 0.006411396 0.74800009 2.8786734e-40
0.014959995 0.0064114109 0.74800003 7.4704342e-40
0.016428586 0.0064285696 0.75000006 1.1176294e-39
0.017857168 0.0064285696 0.75000006 1.304543e-39
0.019337159 0.0064456984 0.75200003 1.4874909e-39
0.020769535 0.0064456984 0.75200009 1.1190657e-39
0.022290451 0.0064714029 0.75500005 7.5136082e-40
0.023728566 0.0064714029 0.75500005 3.8777081e-39
0.025166653 0.0064714029 0.75500005 7.0086938e-39
0.026640005 0.0064799935 0.75600004 1.1617657e-38
0.028080016 0.006479986 0.75600004 1.6126231e-38
0.029598115 0.0064971223 0.75800002 1.6960308e-38
0.031041916 0.0064971149 0.75800002 1.7783954e-38
0.032700017 0.006539993 0.76300001 1.7601717e-38
-0.028488541 0.0080352202 0.76700002 8.3596842e-40
-0.026957138 0.0080142617 0.7650001 7.448602e-40
-0.025499986 0.0080142617 0.76500005 6.5303311e-40
-0.023979992 0.0079933107 0.76300001 5.6227241e-40
-0.022467604 0.0079723671 0.76100004 3.7573016e-40
-0.02099047 0.0079618767 0.76000005 2.7958707e-40
-0.019491406 0.0079409331 0.75800008 1.6635739e-39
-0.017999982 0.0079199821 0.75600004 3.1570386e-39
-0.016538097 0.0079095066 0.75500005 7.8529074e-39
-0.015100039 0.0079094991 0.75500005 1.2628286e-38
-0.013661923 0.0079095066 0.75500005 1.1605473e-38
-0.012191406 0.0078885481 0.75300008 1.0509954e-38
-0.010742846 0.0078780726 0.75200009 1.0593947e-38
-0.0093104756 0.00787808 0.75200003 1.0696557e-38
-0.0078781014 0.00787808 0.75200003 1.0135869e-38
-0.0064457012 0.0078780651 0.75200003 9.5787732e-39
-0.005013301 0.00787808 0.75200009 1.2085968e-38
-0.0035714095 0.0078571215 0.75000006 1.4572656e-38
-0.0021371047 0.0078361705 0.74800009 7.9299634e-39
-0.00071237126 0.0078361779 0.74800003 1.3780537e-39
0.00071239116 0.007836163 0.74800003 2.3024861e-39
0.0021371555 0.0078361705 0.74800003 3.3137682e-39
0.003561917 0.0078361556 0.74800003 2.0341851e-39
0.0049866801 0.0078361705 0.74800009 8.4175718e-40
0.0064114425 0.007836163 0.74800009 8.3924466e-40
0.007836232 0.0078361556 0.74800009 8.3888733e-40
0.0092609646 0.0078361779 0.74800003 7.4741196e-40
0.010714291 0.0078571364 0.75000006 6.5450027e-40
0.012142872 0.0078571364 0.75000006 4.7154534e-40
0.013535255 0.0078361705 0.74800009 3.7971405e-40
0.015000036 0.0078571364 0.75000006 6.5558207e-40
0.016428562 0.007857129 0.75000006 9.3289343e-40
0.017857144 0.0078571439 0.75000006 1.2105621e-39
0.019337172 0.0078780726 0.75200003 1.5789677e-39
0.020852363 0.0079095066 0.75500005 1.3023724e-39
0.022319978 0.0079199895 0.75600004 9.3323395e-40
0.023759989 0.0079199895 0.75600004 3.3248987e-39
0.025200002 0.0079199821 0.7560001 5.7183851e-39
0.026710495 0.0079409257 0.75800008 1.0697256e-38
0.028228575 0.0079618841 0.76000005 1.5765781e-38
0.029598124 0.0079409331 0.75800002 1.6131322e-38
0.031246688 0.0079933107 0.76300001 1.6588354e-38
0.032700021 0.0079933181 0.76300001 1.6589078e-38
-0.028488575 0.0094961748 0.76700002 1.0203569e-39
-0.026957123 0.0094714016 0.7650001 8.3669429e-40
-0.025499972 0.0094713941 0.7650001 6.5267158e-40
-0.024042847 0.009471409 0.7650001 4.6935791e-40
-0.02252665 0.0094466507 0.76300007 4.6827891e-40
-0.02099048 0.0094095096 0.76000005 3.7356795e-40
-0.019491399 0.0093847439 0.75800002 6.4619898e-40
-0.018000009 0.0093599781 0.75600004 9.4113307e-40
-0.016538126 0.0093476027 0.75500005 6.6597424e-39
-0.015100013 0.0093475878 0.75500005 1.2354237e-38
-0.013661898 0.0093475878 0.75500005 1.1068875e-38
-0.012191418 0.0093228295 0.75300008 9.7699075e-39
-0.010757121 0.0093228221 0.75300008 8.9085952e-39
-0.0093104634 0.0093104541 0.75200003 8.0142978e-39
-0.0078780893 0.0093104541 0.75200009 8.6449732e-39
-0.0064456891 0.0093104467 0.75200009 9.3183279e-39
-0.0050133448 0.0093104541 0.75200003 1.1728306e-38
-0.0035809444 0.0093104467 0.75200003 1.4013404e-38
-0.0021371122 0.0092609227 0.74800003 7.8331351e-39
-0.0007123489 0.0092609227 0.74800009 1.6769185e-39
0.00071241445 0.0092609301 0.74800009 4.1489337e-39
0.0021371481 0.0092609301 0.74800003 6.5434585e-39
0.0035619095 0.0092609301 0.74800003 3.6007625e-39
0.0049866727 0.0092609227 0.74800003 6.5629113e-40
0.0064114369 0.0092609227 0.74800009 8.3817266e-40
0.0078361984 0.0092609301 0.74800009 9.3036549e-40
0.0092609888 0.0092609152 0.74800009 8.3852999e-40
0.010714295 0.0092856959 0.75000006 6.5521633e-40
0.012142877 0.0092857033 0.75000006 5.6373817e-40
0.013571427 0.0092857108 0.75000006 4.7190407e-40
0.015000009 0.0092857108 0.75000006 5.6302491e-40
0.016428592 0.0092857108 0.75000006 6.5702121e-40
0.017904786 0.0093104616 0.75200009 1.2091188e-39
0.019362871 0.0093228295 0.75300002 1.6700843e-39
0.020852389 0.0093475953 0.75500005 1.3945722e-39
0.022290448 0.0093475878 0.75500005 1.1176238e-39
0.023759991 0.009359993 0.75600004 2.770297e-39
0.025200002 0.0093599856 0.75600004 4.3426394e-39
0.026710505 0.0093847364 0.75800002 9.8700065e-39
0.028228568 0.0094095096 0.76000005 1.5391973e-38
0.02967619 0.0094094947 0.76000005 1.5394484e-38
0.031246694 0.0094466358 0.76300001 1.5301214e-38
0.032700028 0.0094466582 0.76300001 1.5575644e-38
-0.028488552 0.010957122 0.76700002 1.1125511e-39
-0.026957138 0.010928549 0.7650001 1.0207226e-39
-0.025499986 0.010928549 0.76500005 8.3633977e-40
-0.02404283 0.010928534 0.7650001 6.5266597e-40
-0.022526646 0.010899983 0.76300001 5.5975147e-40
-0.021018093 0.010871418 0.76100004 5.5866687e-40
-0.019542865 0.01085712 0.76000005 6.4834016e-40
-0.018000007 0.010799997 0.75600004 7.3986737e-40
-0.016559996 0.010799974 0.75600004 3.8856423e-39
-0.015100016 0.010785699 0.75500005 7.0292354e-39
-0.013661928 0.010785691 0.75500005 8.957083e-39
-0.012191429 0.010757126 0.75300002 1.0888096e-38
-0.010757132 0.010757118 0.75300008 1.0690032e-38
-0.0093104513 0.010742828 0.75200003 1.0511419e-38
-0.0078780772 0.010742828 0.75200009 1.1341559e-38
-0.0064457068 0.010742836 0.75200003 1.2280017e-38
-0.0050133327 0.010742836 0.75200003 1.3289504e-38
-0.0035809323 0.010742843 0.75200009 1.4205338e-38
-0.0021428529 0.01071427 0.75000006 1.134623e-38
-0.00071427115 0.010714278 0.75000006 8.408214e-39
0.000712407 0.010685682 0.74800003 9.0456829e-39
0.0021371695 0.01068569 0.74800009 9.599881e-39
0.0035619338 0.010685682 0.74800009 5.0762205e-39
0.004986695 0.010685675 0.74800009 4.6687762e-40
0.0064285798 0.010714278 0.75000006 7.4526377e-40
0.0078361928 0.01068569 0.74800003 1.0214863e-39
0.0092609813 0.010685697 0.74800003 8.3888873e-40
0.010714294 0.010714285 0.75000006 6.5629113e-40
0.012142876 0.010714285 0.75000006 5.6445283e-40
0.013571432 0.010714278 0.75000006 4.7261874e-40
0.015000014 0.010714263 0.75000006 5.6373677e-40
0.016472397 0.010742828 0.75200009 7.488497e-40
0.017904796 0.010742843 0.75200009 1.2098278e-39
0.019362858 0.010757118 0.75300002 1.6708004e-39
0.020852359 0.010785691 0.75500005 1.6697242e-39
0.022290474 0.010785691 0.75500005 1.667562e-39
0.023759993 0.010799989 0.75600004 2.2178477e-39
0.025200004 0.010799982 0.75600004 2.8682422e-39
0.026710488 0.010828555 0.75800002 9.1342337e-39
0.028228562 0.010857105 0.76000005 1.5486313e-38
0.029598093 0.010828555 0.75800002 1.5485599e-38
0.031246699 0.010899983 0.76300001 1.5391247e-38
-0.028525693 0.012434274 0.76800001 1.2043852e-39
-0.026957123 0.012385674 0.7650001 1.1122036e-39
-0.02549997 0.012385689 0.7650001 9.2782634e-40
-0.024042843 0.012385689 0.76500005 7.4414694e-40
-0.022526668 0.012353323 0.76300001 7.427036e-40
-0.021018097 0.012320943 0.76100004 6.5013943e-40
-0.019542845 0.012304746 0.76000005 6.4797723e-40
-0.018000005 0.012239993 0.75600004 5.5832635e-40
-0.016559994 0.012239985 0.75600004 1.1133176e-39
-0.015100018 0.01222378 0.75500005 1.5897479e-39
-0.013680001 0.012239993 0.75600004 6.8412652e-39
-0.012191387 0.012191407 0.75300008 1.198583e-38
-0.01075712 0.012191415 0.75300002 1.2452165e-38
-0.0093228491 0.0121914 0.75300008 1.2908497e-38
-0.0078885527 0.012191407 0.75300008 1.4113145e-38
-0.0064457208 0.01217521 0.75200003 1.5213031e-38
-0.0050133206 0.01217521 0.75200009 1.4852878e-38
-0.00358095 0.012175225 0.75200003 1.438508e-38
-0.0021428482 0.012142844 0.75000006 1.4754922e-38
-0.0007142665 0.012142837 0.75000006 1.511724e-38
0.00071240048 0.012110464 0.74800003 1.3933422e-38
0.0021371639 0.012110442 0.74800003 1.2621836e-38
0.0035714481 0.012142844 0.75000006 6.4540907e-39
0.0050000297 0.012142852 0.75000006 2.8929386e-40
0.0064285854 0.012142844 0.75000006 7.4633857e-40
0.0078362152 0.012110457 0.74800009 1.1140379e-39
0.0092857191 0.012142852 0.75000006 9.3108296e-40
0.010714301 0.012142852 0.75000006 6.5628973e-40
0.012142882 0.012142837 0.75000006 5.6516889e-40
0.013571434 0.012142859 0.75 3.8006297e-40
0.015040007 0.012175217 0.75200009 5.6158297e-40
0.016472409 0.01217521 0.75200009 7.4813223e-40
0.01792858 0.0121914 0.75300002 1.2098306e-39
0.019414268 0.012223795 0.75500005 1.5782474e-39
0.020852383 0.01222378 0.75500005 1.8537539e-39
0.022290468 0.012223803 0.75500005 2.1249444e-39
0.023759993 0.012239993 0.75600004 1.7493404e-39
0.025200004 0.012239993 0.75600004 1.3084751e-39
0.026710501 0.01227235 0.75800008 8.4953369e-39
0.028228553 0.012304738 0.76000005 1.5574932e-38
0.029676201 0.012304738 0.76000005 1.5578173e-38
0.031246675 0.012353323 0.76300001 1.548382e-38
0.032785751 0.012385681 0.7650001 1.5669995e-38
-0.028525691 0.013897128 0.76800001 1.1121896e-39
-0.027027613 0.013879031 0.76700002 1.0200136e-39
-0.025499953 0.013842821 0.7650001 9.2855361e-40
-0.024042828 0.013842829 0.7650001 8.367041e-40
-0.022585701 0.013842836 0.7650001 7.4377699e-40
-0.021073328 0.013806649 0.76300001 7.4233085e-40
-0.019568585 0.013770469 0.76100004 5.5828852e-40
-0.018000003 0.013679996 0.75600004 3.7499167e-40
-0.016559992 0.013679981 0.75600004 5.5831795e-40
-0.015099992 0.013661884 0.75500005 8.3422941e-40
-0.013679999 0.013679989 0.75600004 5.0773626e-39
-0.012191398 0.013625681 0.75300002 9.313286e-39
-0.010757103 0.013625689 0.75300008 9.3201118e-39
-0.0093228361 0.013625689 0.75300002 9.4148311e-39
-0.0078885397 0.013625696 0.75300002 8.4882393e-39
-0.0064457087 0.013607591 0.75200009 7.6671135e-39
-0.0050133085 0.013607599 0.75200009 7.4787916e-39
-0.0035809639 0.013607606 0.75200003 7.298338e-39
-0.0021428482 0.013571426 0.75 7.4787677e-39
-0.00071429258 0.013571426 0.75000006 7.6678155e-39
0.0007142892 0.013571411 0.75000006 7.0134834e-39
0.002142871 0.013571419 0.75000006 6.3576449e-39
0.0035714509 0.013571411 0.75000006 3.4138111e-39
0.0050000027 0.013571426 0.75000006 5.6048435e-40
0.0064285845 0.013571419 0.75000006 7.4597843e-40
0.0078571662 0.013571419 0.75000006 9.3108296e-40
0.0092857219 0.013571419 0.75000006 7.4776929e-40
0.010714274 0.013571426 0.75000006 6.5664706e-40
0.012142856 0.013571426 0.75000006 5.6408989e-40
0.013571437 0.013571419 0.75000006 3.7970284e-40
0.015040018 0.013607599 0.75200009 5.6337383e-40
0.016494328 0.013625689 0.75300008 7.4813223e-40
0.017928569 0.013625681 0.75300002 1.1176378e-39
0.019414293 0.013661884 0.75500005 1.4860546e-39
0.020852355 0.013661884 0.75500005 1.7611996e-39
0.022290468 0.013661884 0.75500005 2.0345424e-39
0.023760024 0.013679981 0.75600004 1.5732e-39
0.025200006 0.013679989 0.75600004 1.1205007e-39
0.02671051 0.013716161 0.75800002 7.3872181e-39
0.028228572 0.013752349 0.76000005 1.3648553e-38
0.029676167 0.013752371 0.76000005 1.3277283e-38
0.031328607 0.013842836 0.7650001 1.3000335e-38
0.032785736 0.013842829 0.7650001 1.2999609e-38
-0.028525691 0.015359975 0.76800001 1.1118322e-39
-0.026957121 0.015299976 0.7650001 9.2853119e-40
-0.025499968 0.015299968 0.7650001 9.2926127e-40
-0.024042843 0.015299983 0.76500005 8.3633977e-40
-0.022585688 0.015299968 0.7650001 8.3668869e-40
-0.021073293 0.015259974 0.76300007 7.4341126e-40
-0.019568589 0.015219994 0.76100004 4.6789916e-40
-0.018047607 0.015159979 0.75800002 9.6964249e-41
-0.016560016 0.015119992 0.75600004 9.4447516e-41
-0.01511998 0.015119977 0.75600004 1.0311315e-40
-0.013661907 0.015099972 0.75500005 3.3202828e-39
-0.012223822 0.015099987 0.75500005 6.5571337e-39
-0.010785732 0.01509998 0.75500005 6.1915938e-39
-0.0093228174 0.015059978 0.75300008 5.818861e-39
-0.0078885509 0.01505997 0.75300002 2.9407425e-39
-0.0064456966 0.015039966 0.75200009 1.0677334e-40
-0.0050133262 0.015039988 0.75200003 9.7104378e-41
-0.0035809518 0.015039973 0.75200003 1.0928867e-40
-0.0021428445 0.014999993 0.75000006 1.0138254e-40
-0.00071426277 0.014999993 0.75000006 1.0675932e-40
0.000714319 0.014999986 0.75000006 9.5275684e-41
0.002142871 0.015000001 0.75000006 1.0205236e-40
0.0035714267 0.015000001 0.75000006 4.6648525e-40
0.0050000073 0.014999986 0.75000006 7.4488122e-40
0.0064285891 0.014999986 0.75000006 7.4633577e-40
0.0078571411 0.014999993 0.75000006 6.5557927e-40
0.0092857229 0.014999993 0.75000006 6.5630094e-40
0.010714305 0.014999986 0.75000006 6.5629393e-40
0.012142886 0.014999993 0.75000006 5.6337523e-40
0.013571442 0.014999993 0.75000012 3.7969443e-40
0.01504 0.015039995 0.75200003 5.6335561e-40
0.016494315 0.01505997 0.75300002 6.5701e-40
0.01792861 0.015059978 0.75300008 1.0265296e-39
0.019414263 0.01509998 0.75500005 1.3942219e-39
0.02085238 0.015099972 0.75500005 1.6700787e-39
0.022290464 0.015099987 0.75500005 1.9430573e-39
0.02376 0.01511997 0.75600004 1.4806358e-39
0.025199981 0.015119992 0.75600004 9.3826041e-40
0.026710493 0.015159987 0.75800002 6.2844789e-39
0.028228564 0.015199974 0.76000005 1.1618845e-38
0.029715242 0.015219994 0.76100004 1.1066054e-38
0.03132857 0.015299976 0.7650001 1.051539e-38
0.032785751 0.015299976 0.7650001 1.0328122e-38
-0.026957134 0.016757123 0.7650001 1.0200038e-39
-0.025499953 0.016757116 0.7650001 1.0196506e-39
-0.024042828 0.016757108 0.7650001 9.2637599e-40
-0.022585701 0.016757116 0.7650001 8.3525236e-40
-0.021128545 0.016757108 0.7650001 8.3417616e-40
-0.019619981 0.016713329 0.76300001 4.6396292e-40
-0.018047597 0.016603805 0.75800002 1.8448515e-40
-0.016603794 0.016603783 0.75800008 3.0449907e-39
-0.015120004 0.016559988 0.75600004 5.9902525e-39
-0.013680023 0.016559996 0.75600004 7.6595016e-39
-0.012240012 0.016559988 0.75600004 9.3315604e-39
-0.010785738 0.016538076 0.75500005 9.6027677e-39
-0.0093476223 0.016538076 0.75500005 9.9632615e-39
-0.0078885322 0.016494267 0.75300008 6.7181345e-39
-0.0064542666 0.016494259 0.75300002 3.5885754e-39
-0.0050199702 0.016494267 0.75300002 4.9804782e-39
-0.0035856727 0.016494259 0.75300008 6.3475934e-39
-0.0021428389 0.016428567 0.75000012 3.2255298e-39
-0.00071619527 0.016472369 0.75200003 1.8455101e-40
0.00071620493 0.016472355 0.75200003 3.7252259e-40
0.0021428766 0.01642856 0.75000006 4.6758387e-40
0.0035809495 0.016472362 0.75200003 6.5304572e-40
0.0050000101 0.016428567 0.75 9.3035428e-40
0.006428591 0.016428567 0.75000006 8.3888592e-40
0.0078571467 0.01642856 0.75000006 8.3925306e-40
0.0092857284 0.01642856 0.75000006 8.4033767e-40
0.01071431 0.01642856 0.75000006 8.4068659e-40
0.01214286 0.016428567 0.75000006 7.4740636e-40
0.013607614 0.016472362 0.75200003 6.5519251e-40
0.015060035 0.016494259 0.75300008 6.5588896e-40
0.016494302 0.016494274 0.75300002 6.5736312e-40
0.017928598 0.016494259 0.75300002 1.1180148e-39
0.019414289 0.016538076 0.75500005 1.4860602e-39
0.020852374 0.016538069 0.75500005 1.7619114e-39
0.022290463 0.016538076 0.75500005 2.1281562e-39
0.02376 0.016559988 0.75600004 1.4816994e-39
0.025266675 0.01660379 0.75800002 8.3673493e-40
0.026780935 0.016647607 0.76000005 6.0943535e-39
0.028228557 0.0166476 0.76000005 1.1251503e-38
0.029715266 0.016669512 0.76100004 1.0789467e-38
0.031328585 0.016757116 0.7650001 1.0238084e-38
0.032785736 0.016757123 0.7650001 1.0052248e-38
0.034242895 0.016757101 0.7650001 9.9622175e-39
-0.026957121 0.018214263 0.7650001 1.1114777e-39
-0.025566654 0.018261887 0.76700002 1.1107659e-39
-0.024105709 0.018261902 0.76700002 1.0189262e-39
-0.022644734 0.018261887 0.76700002 9.2672912e-40
-0.021128559 0.018214256 0.7650001 8.3309296e-40
-0.019619973 0.018166654 0.76300007 5.5291594e-40
-0.018095255 0.018095218 0.76000005 1.9276682e-40
-0.016603785 0.018047601 0.75800002 6.002099e-39
-0.015159981 0.018047601 0.75800008 1.1797813e-38
-0.013716182 0.018047601 0.75800002 1.1903314e-38
-0.01224001 0.017999992 0.75600004 1.199157e-38
-0.010799999 0.017999992 0.75600004 1.3016118e-38
-0.0093476241 0.017976165 0.75500005 1.4000456e-38
-0.0079095373 0.017976165 0.75500005 1.0472299e-38
-0.006471449 0.017976165 0.75500005 7.009131e-39
-0.0050199823 0.017928556 0.75300002 9.7965182e-39
-0.0035856848 0.017928548 0.75300002 1.2527868e-38
-0.0021485572 0.017904751 0.75200003 6.4516188e-39
-0.00071618316 0.017904751 0.75200009 2.8392269e-40
0.00071621704 0.017904736 0.75200009 5.5906204e-40
0.0021428496 0.017857134 0.75000006 8.3636219e-40
0.0035714314 0.017857134 0.75000006 9.3070881e-40
0.0050000129 0.017857149 0.75000006 1.0229086e-39
0.0064285947 0.017857134 0.75000006 1.0225569e-39
0.0078571755 0.017857134 0.75000006 1.02328e-39
0.0092857275 0.017857142 0.75000006 1.0250793e-39
0.010714283 0.017857134 0.75000006 9.3180322e-40
0.012142865 0.017857142 0.75000006 9.3036269e-40
0.013607626 0.017904744 0.75200003 8.3887612e-40
0.015060023 0.017928548 0.75300002 7.4702941e-40
0.016538085 0.017976165 0.75500005 6.5665266e-40
0.0179762 0.017976157 0.75500005 1.1183637e-39
0.019414259 0.017976172 0.75500005 1.5782502e-39
0.020852374 0.017976157 0.75500005 1.9463027e-39
0.022319989 0.017999992 0.75600004 2.2196386e-39
0.023760004 0.017999984 0.75600004 1.4809903e-39
0.025266685 0.018047616 0.75800002 7.5100349e-40
0.026780955 0.018095218 0.76000005 5.821361e-39
0.028265717 0.018119037 0.76100004 1.0879135e-38
0.029715264 0.01811903 0.76100004 1.0418888e-38
0.031246701 0.018166654 0.76300001 9.959705e-39
0.032700006 0.018166646 0.76300001 9.864278e-39
0.034242876 0.018214263 0.7650001 9.6827636e-39
-0.025599955 0.019748554 0.76800001 1.1118378e-39
-0.024105711 0.019722842 0.76700002 9.2816545e-40
-0.022644768 0.019722857 0.76700002 1.0192821e-39
-0.021128545 0.019671403 0.7650001 1.1100274e-39
-0.01961997 0.019619986 0.76300001 1.1968266e-39
-0.018095236 0.019542843 0.76000005 1.2869329e-39
-0.016603803 0.019491412 0.75800002 6.652558e-39
-0.015159973 0.019491412 0.75800002 1.2091657e-38
-0.013679991 0.01943998 0.75600004 9.0374082e-39
-0.012240008 0.019440003 0.75600004 6.0925837e-39
-0.010799997 0.01943998 0.75600004 9.9697719e-39
-0.0093476269 0.019414268 0.75500005 1.3917967e-38
-0.0079095382 0.019414261 0.75500005 9.2117409e-39
-0.0064714523 0.019414268 0.75500005 4.5464764e-39
-0.0050199647 0.019362822 0.75300008 9.3330934e-39
-0.0035856979 0.019362845 0.75300002 1.4199953e-38
-0.0021485712 0.019337125 0.75200009 7.9285285e-39
-0.00071428326 0.019285716 0.75000006 1.653926e-39
0.00071429944 0.019285701 0.75000006 1.1075611e-39
0.0021428813 0.019285716 0.75000006 5.6193189e-40
0.003571437 0.019285701 0.75000006 9.3071161e-40
0.0050000185 0.019285701 0.75000012 1.299134e-39
0.0064285705 0.019285724 0.75000006 1.1147497e-39
0.0078571513 0.019285709 0.75000006 1.0225583e-39
0.0092857331 0.019285716 0.75000006 8.3960759e-40
0.010714315 0.019285701 0.75000006 7.466959e-40
0.012142867 0.019285716 0.75000006 8.3888873e-40
0.013607636 0.019337125 0.75200003 8.3888873e-40
0.01506001 0.019362845 0.75300002 7.466931e-40
0.016538078 0.019414276 0.75500005 7.4705884e-40
0.017976169 0.019414268 0.75500005 1.1176364e-39
0.019414283 0.019414254 0.75500005 1.5782474e-39
0.020852368 0.019414261 0.75500005 1.8537511e-39
0.022320023 0.01943998 0.75600004 2.1288835e-39
0.023822866 0.019491404 0.75800002 1.4806386e-39
0.025333328 0.019542836 0.76000005 8.3459375e-40
0.02678092 0.019542843 0.76000005 5.9088945e-39
0.028265715 0.019568563 0.76100004 1.0973837e-38
0.029715259 0.019568563 0.76100004 1.060506e-38
0.031246677 0.019619986 0.76300001 1.0327763e-38
0.03270001 0.019619994 0.76300001 1.0143019e-38
0.03415335 0.019619979 0.76300001 9.9582701e-39
-0.025666645 0.021266654 0.77000004 1.1125511e-39
-0.024137115 0.021211416 0.76800001 8.3668589e-40
-0.022644745 0.021183804 0.76700002 1.1114763e-39
-0.021128559 0.021128535 0.7650001 1.2911886e-39
-0.019671433 0.02112855 0.7650001 1.8371681e-39
-0.018095272 0.020990454 0.76000005 2.410494e-39
-0.016603788 0.020935208 0.75800008 7.4127301e-39
-0.01515999 0.020935215 0.75800002 1.2257735e-38
-0.01371616 0.020935223 0.75800002 6.1538681e-39
-0.012240008 0.020879991 0.75600004 1.1679122e-40
-0.010785717 0.020852372 0.75500005 6.9445774e-39
-0.0093476279 0.020852357 0.75500005 1.3728202e-38
-0.0079095429 0.020852365 0.75500005 7.9102738e-39
-0.0064714281 0.020852357 0.75500005 2.0554302e-39
-0.0050199768 0.020797126 0.75300002 8.9728952e-39
-0.0035856802 0.020797111 0.75300008 1.5760435e-38
-0.0021428594 0.020714268 0.75000006 9.409041e-39
-0.00071427767 0.020714276 0.75000006 2.9529072e-39
0.00071430317 0.020714268 0.75000006 1.5627925e-39
0.0021428543 0.020714283 0.75 1.9279765e-40
0.003571436 0.020714276 0.75000006 9.3143188e-40
0.0050000176 0.020714276 0.75000006 1.5742832e-39
0.0064285994 0.020714276 0.75000006 1.2987809e-39
0.0078571551 0.020714268 0.75000006 9.3144169e-40
0.0092857061 0.020714283 0.75000006 7.4705603e-40
0.010714288 0.020714276 0.75000006 5.6374237e-40
0.01214287 0.020714283 0.75000006 7.477707e-40
0.013607649 0.020769499 0.75200009 8.3888873e-40
0.015039994 0.020769522 0.75200003 8.3709647e-40
0.016494298 0.020797126 0.75300002 7.477763e-40
0.017976195 0.020852365 0.75500005 1.2098292e-39
0.01941428 0.020852357 0.75500005 1.5782488e-39
0.020852368 0.020852357 0.75500005 1.8537581e-39
0.022320023 0.020879984 0.75600004 2.0352557e-39
0.023822879 0.020935223 0.75800008 1.4784834e-39
0.025266679 0.020935223 0.75800002 8.417684e-40
0.026780942 0.020990461 0.76000005 5.9139209e-39
0.02822856 0.020990454 0.76000005 1.0972408e-38
0.029715231 0.021018088 0.76100004 1.0882728e-38
0.031246683 0.021073326 0.76300001 1.0696902e-38
0.032700021 0.021073319 0.76300001 1.0421033e-38
0.03415335 0.021073312 0.76300001 1.0144808e-38
-0.025666632 0.022733316 0.7700001 1.0210701e-39
-0.024137141 0.022674277 0.76800001 9.2923745e-40
-0.022644747 0.022644751 0.76700002 1.0189219e-39
-0.021128543 0.022585683 0.7650001 1.1982797e-39
-0.019619958 0.022526644 0.76300007 1.5684818e-39
-0.01804758 0.022379018 0.75800008 1.9520452e-39
-0.016603781 0.022379033 0.75800002 6.9374265e-39
-0.015159977 0.022379026 0.75800008 1.1985442e-38
-0.013716177 0.022379033 0.75800002 6.0756154e-39
-0.012272348 0.022379026 0.75800008 1.0169783e-40
-0.010799996 0.022319995 0.75600004 6.8419743e-39
-0.0093599847 0.02231998 0.75600004 1.3557808e-38
-0.0079200035 0.022319995 0.75600004 7.2767664e-39
-0.0064714286 0.022290438 0.75500011 1.118054e-39
-0.005033344 0.022290461 0.75500005 8.1316369e-39
-0.0035952532 0.022290446 0.75500005 1.5215159e-38
-0.0021485768 0.022201888 0.75200003 9.2246763e-39
-0.00071427767 0.022142857 0.75 3.3177493e-39
0.00071427802 0.022142857 0.75000006 1.7514844e-39
0.0021428589 0.022142842 0.75000006 1.9423258e-40
0.0035714407 0.022142842 0.75000006 7.4704482e-40
0.005013342 0.022201896 0.75200003 1.3902562e-39
0.0064285742 0.02214285 0.75000006 1.1151113e-39
0.007857156 0.022142857 0.75000006 8.4032506e-40
0.0093104867 0.022201881 0.75200003 8.3996913e-40
0.010714319 0.02214285 0.75000006 7.477721e-40
0.012175262 0.022201873 0.75200009 7.4812803e-40
0.013607631 0.022201888 0.75200003 7.4848956e-40
0.015060017 0.022231407 0.75300002 7.4741477e-40
0.016538106 0.022290446 0.75500005 7.4849377e-40
0.017976165 0.022290453 0.75500005 1.3016619e-39
0.01941428 0.022290446 0.75500005 1.7629988e-39
0.020879986 0.022319995 0.75600004 1.9463167e-39
0.022319997 0.02231998 0.75600004 2.2207218e-39
0.023822889 0.022379041 0.75800002 1.5724671e-39
0.025333313 0.022438079 0.76000005 9.2607051e-40
0.026780931 0.022438072 0.76000005 5.817066e-39
0.028265737 0.022467606 0.76100004 1.0792689e-38
0.029715225 0.022467606 0.76100004 1.0698705e-38
0.031246688 0.022526652 0.76300007 1.0513232e-38
0.032700021 0.022526659 0.76300001 1.0329194e-38
0.034377161 0.022674277 0.76800001 1.0145521e-38
0.03593336 0.022733308 0.7700001 1.0053684e-38
-0.027203808 0.024262846 0.77200001 1.1125371e-39
-0.025666652 0.024199978 0.77000004 1.0210687e-39
-0.024137111 0.024137132 0.76800001 9.2888011e-40
-0.022644749 0.024105698 0.76700008 1.0196436e-39
-0.021128556 0.02404283 0.7650001 1.0156892e-39
-0.019619981 0.023979984 0.76300001 1.1946882e-39
-0.018047595 0.023822844 0.75800002 1.4035461e-39
-0.016603798 0.023822844 0.75800002 6.583359e-39
-0.015159969 0.023822837 0.75800002 1.1702765e-38
-0.013716194 0.023822837 0.75800002 5.8779636e-39
-0.012272364 0.023822837 0.75800002 1.1498074e-40
-0.01080002 0.023760006 0.75600004 6.7630616e-39
-0.0093600089 0.023759983 0.75600004 1.3267228e-38
-0.0079200277 0.023759983 0.75600004 6.7045658e-39
-0.0064714327 0.023728549 0.75500005 1.1682345e-40
-0.0050199712 0.023665681 0.75300008 7.4044919e-39
-0.0035857044 0.023665689 0.75300002 1.4568726e-38
-0.0021485647 0.02363427 0.75200003 9.1403756e-39
-0.00071616453 0.023634277 0.75200003 3.5975606e-39
0.00071430876 0.023571417 0.75000006 1.9312065e-39
0.0021428915 0.023571432 0.75000006 1.9315358e-40
0.0035714426 0.023571424 0.75 6.5520793e-40
0.0050133551 0.02363427 0.75200009 1.1151057e-39
0.0064285798 0.023571417 0.75000006 9.3143748e-40
0.0078571616 0.023571417 0.75000006 7.4848956e-40
0.0093104988 0.023634255 0.75200003 8.406894e-40
0.010714293 0.023571424 0.75000006 9.3180322e-40
0.012175242 0.02363427 0.75200003 7.4776789e-40
0.01362574 0.023665681 0.75300008 5.6373817e-40
0.015060006 0.023665696 0.75300002 6.548562e-40
0.016538074 0.023728542 0.75500005 7.4884829e-40
0.017976189 0.023728549 0.75500005 1.3938534e-39
0.019414274 0.023728549 0.75500005 1.9463055e-39
0.020879988 0.023759983 0.75600004 2.1314156e-39
0.02232 0.023759998 0.75600004 2.3114726e-39
0.023822872 0.023822844 0.75800002 1.6646515e-39
0.025333332 0.02388569 0.76000011 9.3502481e-40
0.026816187 0.023917146 0.76100004 5.8188442e-39
0.028265733 0.023917124 0.76100004 1.0603627e-38
0.029793359 0.023979977 0.76300001 1.0513596e-38
0.0313286 0.02404283 0.7650001 1.0329202e-38
0.032871418 0.024105705 0.76700002 1.0236286e-38
0.034377161 0.024137124 0.76800007 1.0145163e-38
-0.027239041 0.025766648 0.77300012 1.1128944e-39
-0.025733313 0.025733329 0.77200001 1.0214261e-39
-0.024199981 0.025666639 0.7700001 9.2924025e-40
-0.022644756 0.025566667 0.76700002 7.4414133e-40
-0.021128541 0.025499977 0.7650001 6.497877e-40
-0.019619975 0.025433317 0.76300001 7.4161479e-40
-0.018095238 0.025333315 0.76000005 7.5173217e-40
-0.016603785 0.02526664 0.75800008 6.100864e-39
-0.015159986 0.025266655 0.75800002 1.1435156e-38
-0.013716155 0.02526664 0.75800002 8.0192472e-39
-0.012272381 0.025266662 0.75800002 4.706764e-39
-0.010800018 0.025199994 0.75600004 8.8616545e-39
-0.009360007 0.02519998 0.75600004 1.3094312e-38
-0.007919996 0.025199987 0.7560001 9.4908179e-39
-0.0064714337 0.025166638 0.75500011 5.9950043e-39
-0.0050333487 0.025166646 0.75500005 1.0063779e-38
-0.0035952327 0.025166638 0.75500005 1.4208202e-38
-0.0021485526 0.025066644 0.75200003 8.0261542e-39
-0.0007161785 0.025066637 0.75200009 1.8372592e-39
0.00071619189 0.025066644 0.75200003 1.0160773e-39
0.0021428645 0.025000006 0.75000006 2.8821627e-40
0.0035809663 0.025066644 0.75200009 6.5628132e-40
0.0050133355 0.025066659 0.75200003 1.1158203e-39
0.0064457105 0.025066651 0.75200003 1.0239862e-39
0.0078781107 0.025066651 0.75200003 9.3216055e-40
0.0093104858 0.025066644 0.75200009 8.4033347e-40
0.010742855 0.025066651 0.75200003 8.4032646e-40
0.012175255 0.025066644 0.75200003 7.4740776e-40
0.013625725 0.025099985 0.75300008 7.4668889e-40
0.015099984 0.025166646 0.75500005 7.4704482e-40
0.0165381 0.025166631 0.75500005 7.4884409e-40
0.017976185 0.025166653 0.75500005 1.2098208e-39
0.019440008 0.02519998 0.75600004 1.7626289e-39
0.020879989 0.025199994 0.75600004 1.9459425e-39
0.022379054 0.025266655 0.75800002 2.1274331e-39
0.023885705 0.025333323 0.76000011 1.482763e-39
0.025333324 0.025333315 0.76000005 7.4883008e-40
0.026816184 0.025366664 0.76100004 5.6330054e-39
0.028265728 0.025366664 0.76100004 1.0513218e-38
0.029793365 0.025433317 0.76300001 1.0696904e-38
0.031328589 0.02549997 0.7650001 1.0971333e-38
0.03287144 0.025566667 0.76700002 1.0236289e-38
0.034377161 0.025599994 0.76800001 9.5026715e-39
-0.03338569 0.027450457 0.7790001 2.8056377e-40
-0.031819988 0.02737999 0.77700001 5.5359277e-40
-0.030418085 0.027450472 0.77900004 8.3413692e-40
-0.028859988 0.02737999 0.77700001 1.0210505e-39
-0.027379977 0.027379975 0.77700001 1.1132532e-39
-0.02573332 0.027203783 0.77200001 1.0217848e-39
-0.024199972 0.027133316 0.7700001 8.3740615e-40
-0.02264476 0.027027607 0.76700002 5.6083328e-40
-0.021128556 0.026957124 0.7650001 2.8352332e-40
-0.01961997 0.026886642 0.76300007 1.8701589e-40
-0.018095275 0.026780941 0.76000005 1.0564249e-40
-0.016647626 0.026780926 0.76000005 5.633409e-39
-0.015159972 0.026710458 0.75800008 1.1155013e-38
-0.013716171 0.026710458 0.75800002 1.0240955e-38
-0.012272342 0.026710458 0.75800008 9.2261225e-39
-0.010799988 0.026639976 0.75600004 1.1065365e-38
-0.009360007 0.026639998 0.75600004 1.2909947e-38
-0.007919996 0.026639983 0.75600004 1.2353535e-38
-0.0064714374 0.026604749 0.75500005 1.1806127e-38
-0.0050199945 0.026534267 0.75300002 1.2831403e-38
-0.0035856979 0.026534267 0.75300002 1.3733583e-38
-0.0021485405 0.026499026 0.75200009 6.9179933e-39
-0.0007161962 0.02649904 0.75200003 1.0205236e-40
0.000716204 0.026499033 0.75200003 1.9135291e-40
0.0021485791 0.02649904 0.75200009 2.874932e-40
0.0035809486 0.026499033 0.75200003 7.4990067e-40
0.0050133476 0.026499033 0.75200003 1.1165308e-39
0.0064457236 0.026499026 0.75200003 1.1158189e-39
0.0078781229 0.026499026 0.75200009 1.0239904e-39
0.0093228817 0.026534274 0.75300002 9.3216196e-40
0.010742867 0.026499033 0.75200003 7.4812803e-40
0.012191448 0.026534267 0.75300008 8.3888172e-40
0.013625714 0.026534267 0.75300002 8.3887612e-40
0.015099979 0.026604749 0.75500005 7.4631615e-40
0.016538071 0.026604749 0.75500005 6.5664426e-40
0.017976185 0.026604734 0.75500005 1.1172665e-39
0.01944001 0.026639998 0.75600004 1.5778831e-39
0.020935263 0.026710466 0.75800002 1.7615597e-39
0.022379063 0.026710466 0.75800002 1.9437705e-39
0.023885695 0.026780926 0.76000005 1.298027e-39
0.025366666 0.026816189 0.76100004 5.6731008e-40
0.02681621 0.026816174 0.76100004 5.4507568e-39
0.028340034 0.026886657 0.76300001 1.0327416e-38
0.029793341 0.026886642 0.76300001 1.0973542e-38
0.031410463 0.027027622 0.76700002 1.1530238e-38
0.03287144 0.0270276 0.76700008 1.0142605e-38
0.034332383 0.0270276 0.76700002 8.7654526e-39
-0.0348695 0.02893427 0.7790001 8.1037665e-39
-0.033385698 0.028934263 0.7790001 1.8441368e-40
-0.031819977 0.028859988 0.77700001 6.4612471e-40
-0.030339986 0.02885998 0.77700001 1.0177981e-39
-0.028859975 0.028859988 0.77700001 1.0199757e-39
-0.027203809 0.028674275 0.77200001 1.0214191e-39
-0.025733331 0.028674282 0.77200001 9.2959057e-40
-0.024199991 0.02859997 0.7700001 8.3704882e-40
-0.022644738 0.028488569 0.76700002 6.5303031e-40
-0.021128541 0.028414257 0.7650001 5.622612e-40
-0.019619964 0.028339982 0.76300001 3.7319801e-40
-0.018095255 0.028228559 0.76000005 1.8634467e-40
-0.016647605 0.028228551 0.76000005 3.051944e-39
-0.01515999 0.028154261 0.75800002 5.9222082e-39
-0.013716189 0.028154276 0.75800002 7.4852515e-39
-0.01227236 0.028154261 0.75800002 9.054696e-39
-0.010799986 0.028079987 0.75600004 1.0708441e-38
-0.0093600051 0.028079994 0.75600004 1.2371156e-38
-0.0079199942 0.028079994 0.75600004 1.1812957e-38
-0.0064714383 0.028042823 0.75500005 1.1360959e-38
-0.0050333524 0.028042845 0.75500005 9.1418428e-39
-0.0035952374 0.028042845 0.75500005 7.0177363e-39
-0.0021485842 0.027931415 0.75200003 3.8766235e-39
-0.00071618409 0.027931415 0.75200003 6.4479768e-40
0.00071621611 0.027931407 0.75200003 5.5905363e-40
0.0021485595 0.027931429 0.75200003 4.7151872e-40
0.0035809607 0.027931415 0.75200003 9.3212692e-40
0.0050200094 0.027968548 0.75300002 1.3920303e-39
0.0064543048 0.027968556 0.75300002 1.2076502e-39
0.0078886021 0.027968548 0.75300002 1.0232674e-39
0.0093228994 0.027968548 0.75300008 8.3996072e-40
0.010757165 0.027968541 0.75300002 7.4883989e-40
0.012191462 0.027968548 0.75300002 7.4776089e-40
0.013625732 0.027968541 0.75300008 8.3958657e-40
0.01509998 0.028042838 0.75500005 6.5554564e-40
0.016538097 0.028042831 0.75500005 5.6444302e-40
0.01797618 0.028042838 0.75500005 1.0254296e-39
0.019439984 0.028079994 0.75600004 1.5775272e-39
0.020935245 0.028154276 0.75800002 1.8530407e-39
0.022379076 0.028154261 0.75800002 2.037048e-39
