# .PCD v0.7 - Point Cloud Data file format
VERSION 0.7
FIELDS x y z rgb
SIZE 4 4 4 4
TYPE F F F F
COUNT 1 1 1 1
WIDTH 975
HEIGHT 1
VIEWPOINT 0 0 0 1 0 0 0
POINTS 975
DATA ascii
0.0021571459 0.035233341 0.75500011 2.5044973e-39
0.0035952216 0.035233334 0.75500005 5.7352792e-39
0.0050200238 0.035139993 0.75300008 8.8533729e-39
0.0064542913 0.03514 0.75300002 7.9364444e-39
0.0078885788 0.035139985 0.75300008 7.0001094e-39
0.0093476083 0.035233341 0.75500005 3.582065e-39
0.010757147 0.03514 0.75300002 1.070536e-40
0.012191434 0.035139985 0.75300008 4.8958033e-39
0.013625716 0.03514 0.75300002 9.5858778e-39
0.015060003 0.035139993 0.75300002 1.0056543e-38
0.016538091 0.035233334 0.75500011 1.0495965e-38
0.017928569 0.035139993 0.75300002 5.8786937e-39
0.019362872 0.03514 0.75300002 1.3077604e-39
0.020797158 0.035139993 0.75300008 5.7334771e-39
0.022290479 0.035233341 0.75500011 1.0142293e-38
0.023760011 0.035279989 0.7560001 1.0060139e-38
0.025200006 0.035280004 0.7560001 9.9614959e-39
0.026640002 0.035280004 0.75600004 1.0240598e-38
0.028228583 0.035466664 0.76000005 1.0419959e-38
0.029715238 0.035513319 0.76100004 9.1281577e-39
0.031164771 0.035513334 0.76100004 7.8392139e-39
0.032614283 0.035513319 0.76100004 8.204744e-39
0.034063801 0.035513327 0.76100004 8.5767762e-39
0.035606645 0.035606675 0.76300001 9.5030499e-39
0.03706 0.03560666 0.76300001 1.0421758e-38
0.038513325 0.03560666 0.76300001 1.0697259e-38
0.040071458 0.035700001 0.7650001 1.0973844e-38
0.041637167 0.035793327 0.76700008 1.0974923e-38
-0.024357142 0.037642855 0.77500004 9.5505497e-41
-0.022880955 0.037642851 0.77500004 6.497793e-40
-0.021349501 0.037545703 0.77300012 1.2944284e-39
-0.019877123 0.037545711 0.77300012 1.1107645e-39
-0.018380949 0.037497148 0.77200001 1.0182115e-39
-0.016866667 0.0374 0.77000004 8.3489923e-40
-0.015399981 0.037399977 0.7700001 7.4198614e-40
-0.013897145 0.037302844 0.76800001 5.5903121e-40
-0.012385701 0.037157141 0.7650001 4.6683698e-40
-0.010900007 0.037060007 0.76300001 4.6719571e-40
-0.0094466796 0.037059993 0.76300001 5.5903541e-40
-0.0079723792 0.036962844 0.76100004 5.6011441e-40
-0.0065142657 0.036914282 0.76000005 6.5303311e-40
-0.0050666532 0.036914296 0.76000005 7.4559168e-40
-0.0036190401 0.036914282 0.76000005 8.3743838e-40
-0.0021599878 0.03672 0.7560001 8.34221e-40
-0.00071999273 0.036719993 0.75600004 8.3168886e-40
0.00071903941 0.03667143 0.75500011 4.0670754e-39
0.00215713 0.03667143 0.75500005 7.2975434e-39
0.0035952262 0.03667143 0.75500011 7.0214021e-39
0.0050333156 0.03667143 0.75500005 6.7559275e-39
0.0064714248 0.03667143 0.75500011 7.8486124e-39
0.0079095 0.036671445 0.75500005 9.040236e-39
0.0093476111 0.036671437 0.75500011 7.0994082e-39
0.010757155 0.036574274 0.75300008 5.2641991e-39
0.012223798 0.03667143 0.75500011 7.8492893e-39
0.013625724 0.036574282 0.75300008 1.0526879e-38
0.015060011 0.036574267 0.75300008 1.0611551e-38
0.016494293 0.036574282 0.75300002 1.07019e-38
0.01792858 0.036574274 0.75300008 8.4841644e-39
0.01936288 0.036574282 0.75300008 6.2844677e-39
0.020797146 0.036574274 0.75300002 7.1124725e-39
0.022231434 0.036574282 0.75300008 7.9414975e-39
0.02372857 0.036671422 0.75500011 8.3985156e-39
0.025200015 0.036719993 0.7560001 8.9552809e-39
0.026640009 0.036720008 0.75600004 9.2286462e-39
0.028080011 0.036719993 0.7560001 9.5041359e-39
0.029676208 0.036914274 0.76000005 8.7629765e-39
0.031164777 0.036962844 0.76100004 8.1129324e-39
0.032614291 0.036962852 0.76100004 8.3887766e-39
0.034063809 0.036962844 0.76100004 8.7583004e-39
0.035513341 0.036962859 0.76100004 9.5930987e-39
0.036962856 0.036962844 0.76100004 1.0515033e-38
0.038513325 0.037059993 0.76300001 1.0698335e-38
0.039966665 0.037059985 0.76300001 1.0883089e-38
0.041419987 0.03706 0.76300001 1.0146617e-38
0.042873327 0.037060007 0.76300001 9.5037589e-39
-0.028860027 0.039220013 0.77700001 1.2348791e-38
-0.027380003 0.039220002 0.77700001 6.5376389e-39
-0.025900004 0.039220005 0.77700001 3.3068486e-39
-0.024357125 0.039119028 0.7750001 9.6225764e-41
-0.022880938 0.039119031 0.7750001 7.4269239e-40
-0.021349512 0.039018095 0.77300012 1.2944284e-39
-0.019877134 0.039018087 0.77300012 1.2025985e-39
-0.018333314 0.038866669 0.7700001 1.018929e-39
-0.016866649 0.038866661 0.77000004 8.356181e-40
-0.015399982 0.038866665 0.77000004 6.5158417e-40
-0.013897134 0.038765691 0.76800007 5.5938714e-40
-0.012385679 0.038614284 0.7650001 3.7499728e-40
-0.010900022 0.03851334 0.76300001 4.6647264e-40
-0.0094466675 0.038513348 0.76300001 5.5939554e-40
-0.0079723746 0.038412381 0.76100004 6.5124365e-40
-0.0065228571 0.03841237 0.76100004 7.4559028e-40
-0.0050666379 0.038361907 0.76000005 8.3814464e-40
-0.0036190252 0.038361903 0.76000005 8.3599505e-40
-0.0021657313 0.038260955 0.75800002 8.299008e-40
-0.00071998622 0.038160011 0.75600004 8.4462564e-40
0.00072002847 0.03816 0.7560001 6.4799712e-39
0.0021600088 0.038159985 0.75600004 1.2074068e-38
0.003595243 0.038109507 0.75500011 8.2966412e-39
0.0050333184 0.038109526 0.75500005 4.5385591e-39
0.0064714286 0.03810953 0.75500011 7.7528015e-39
0.0079095196 0.038109522 0.75500005 1.0969884e-38
0.0093476148 0.038109519 0.75500011 1.0695425e-38
0.010785704 0.038109522 0.75500005 1.0422105e-38
0.012191446 0.038008567 0.75300008 1.0893875e-38
0.013625713 0.038008571 0.75300002 1.1349821e-38
0.015060015 0.038008563 0.75300002 1.1068213e-38
0.016494302 0.038008556 0.75300008 1.0794473e-38
0.017976187 0.038109522 0.75500011 1.0979192e-38
0.019362872 0.038008567 0.75300002 1.1156787e-38
0.020852374 0.038109522 0.75500011 8.3977995e-39
0.022290464 0.038109522 0.75500005 5.6362733e-39
0.023728574 0.038109519 0.75500011 6.8208049e-39
0.025200022 0.038159996 0.7560001 7.9368298e-39
0.026640004 0.038160004 0.75600004 8.2141383e-39
0.028154293 0.038260952 0.75800002 8.4910686e-39
0.029676205 0.038361903 0.76000005 8.398147e-39
0.03116476 0.038412381 0.76100004 8.3005522e-39
0.032614272 0.038412381 0.76100004 8.571377e-39
0.03415332 0.038513325 0.76300001 8.8519239e-39
0.035513345 0.038412366 0.7610001 9.7796241e-39
0.03706 0.038513325 0.76300001 1.0606135e-38
0.038513325 0.038513333 0.76300007 1.0697246e-38
0.040071446 0.038614281 0.7650001 1.0695443e-38
0.041419987 0.038513336 0.76300001 9.4075822e-39
-0.028860003 0.040700011 0.77700001 1.2531741e-38
-0.027380005 0.040699992 0.77700001 6.7177225e-39
-0.025900006 0.040700004 0.77700001 3.4948272e-39
-0.024357127 0.040595237 0.77500004 2.8097436e-40
-0.022821903 0.040490467 0.77300012 7.4269379e-40
-0.021321902 0.040438108 0.77200007 1.2033104e-39
-0.019851428 0.040438093 0.77200001 1.111119e-39
-0.018333323 0.040333327 0.7700001 1.110763e-39
-0.016866656 0.040333338 0.7700001 9.2781232e-40
-0.015360001 0.040228546 0.76800007 8.3597262e-40
-0.013897143 0.040228561 0.76800001 6.5121983e-40
-0.01241808 0.04017619 0.76700002 4.6682857e-40
-0.010928551 0.040071432 0.7650001 6.5049676e-40
-0.0094466815 0.039966669 0.76300001 8.356223e-40
-0.007972369 0.039861895 0.7610001 1.0211066e-39
-0.0065228525 0.039861888 0.7610001 1.2994787e-39
-0.005073335 0.039861895 0.7610001 1.1140099e-39
-0.0036190304 0.039809525 0.76000005 1.0214527e-39
-0.0021656959 0.03970477 0.75800008 7.4199454e-40
-0.0007200067 0.039599996 0.75600004 4.7156636e-40
0.00072000705 0.039599985 0.7560001 6.378869e-39
0.0021600162 0.0396 0.7560001 1.2263123e-38
0.0035952243 0.039547622 0.75500005 7.8388426e-39
0.0050333203 0.039547611 0.75500011 3.4307514e-39
0.0064714109 0.039547626 0.75500005 7.1099236e-39
0.0079095215 0.039547615 0.75500005 1.0880228e-38
0.0093475981 0.039547633 0.75500005 1.0514347e-38
0.010757155 0.039442841 0.75300008 1.0150598e-38
0.012191436 0.039442845 0.75300002 1.1166175e-38
0.013625723 0.039442845 0.75300008 1.2175274e-38
0.015060023 0.039442852 0.75300008 1.1345868e-38
0.016538093 0.039547618 0.75500005 1.0520421e-38
0.01797617 0.039547626 0.75500005 1.0513958e-38
0.019414281 0.039547626 0.75500011 1.0517184e-38
0.020880025 0.039599992 0.7560001 9.7789081e-39
0.022320019 0.039600007 0.7560001 9.0280798e-39
0.02376 0.0396 0.75600004 8.9434175e-39
0.025200011 0.039599989 0.7560001 8.859121e-39
0.026710479 0.039704759 0.75800008 8.581109e-39
0.02815428 0.039704762 0.75800002 8.3066745e-39
0.029676186 0.039809525 0.76000005 7.201057e-39
0.031164762 0.039861891 0.76100004 6.0997331e-39
0.032614276 0.039861899 0.76100004 7.1952851e-39
0.034063809 0.039861895 0.76100004 8.3895122e-39
0.035513323 0.039861899 0.76100004 9.0391836e-39
0.03706 0.039966658 0.76300007 9.779243e-39
0.038614325 0.040071424 0.7650001 1.0051515e-38
-0.022821886 0.041962862 0.77300006 7.4305112e-40
-0.021321904 0.041908577 0.77200001 1.110756e-39
-0.019851429 0.04190857 0.77200001 1.1107602e-39
-0.018333325 0.041799996 0.77000004 1.1114791e-39
-0.016866637 0.041799992 0.7700001 1.0203639e-39
-0.015359989 0.041691411 0.76800007 9.2745079e-40
-0.013897132 0.041691415 0.76800007 7.4234347e-40
-0.012385694 0.041528575 0.7650001 4.6611811e-40
-0.010928558 0.041528564 0.7650001 8.3309996e-40
-0.0094466684 0.041419998 0.76300001 1.1111288e-39
-0.0079933424 0.041419983 0.76300001 1.481712e-39
-0.0065228678 0.041311424 0.76100004 1.7572171e-39
-0.0050733224 0.041311421 0.76100004 1.4802756e-39
-0.0036238048 0.041311413 0.76100004 1.1107743e-39
-0.0021657094 0.041148566 0.75800008 6.4513399e-40
-0.00071999925 0.041039996 0.7560001 1.1140323e-40
0.0007200145 0.04104 0.7560001 6.2999576e-39
0.0021600097 0.04104 0.7560001 1.2351748e-38
0.0035952281 0.040985707 0.75500005 7.2735069e-39
0.0050333249 0.040985711 0.75500011 2.2387088e-39
0.0064714146 0.040985726 0.75500005 6.5600106e-39
0.0079095252 0.040985711 0.75500011 1.0790902e-38
0.0093476018 0.040985718 0.75500005 1.0330291e-38
0.010785712 0.040985707 0.75500011 9.7800165e-39
0.012223803 0.040985726 0.75500005 1.1353079e-38
0.013661898 0.040985715 0.75500011 1.2910321e-38
0.015099987 0.040985715 0.75500005 1.1527752e-38
0.016538097 0.040985703 0.75500011 1.0145554e-38
0.017976174 0.040985722 0.75500005 1.0039367e-38
0.019414285 0.040985726 0.75500011 9.8729142e-39
0.020879997 0.041040003 0.75600004 1.1172242e-38
0.022320012 0.04104 0.7560001 1.2443222e-38
0.023760006 0.041039992 0.75600004 1.1065683e-38
0.025200021 0.041039996 0.7560001 9.6813217e-39
0.026640002 0.041039996 0.7560001 8.9441125e-39
0.028154282 0.041148573 0.75800002 8.1154463e-39
0.029715251 0.041311417 0.7610001 5.9992894e-39
0.031164767 0.041311413 0.7610001 3.789111e-39
0.032699991 0.041419994 0.76300001 5.9034518e-39
0.034153331 0.041419998 0.76300001 7.9306641e-39
0.035606671 0.04141999 0.76300001 8.3916506e-39
0.037059978 0.041420009 0.76300001 8.8565706e-39
0.038614314 0.041528571 0.7650001 9.4969108e-39
-0.018333333 0.043266669 0.77000004 1.1114791e-39
-0.016866649 0.043266647 0.7700001 9.2744939e-40
-0.01536 0.043154277 0.76800007 8.3489923e-40
-0.013897121 0.043154266 0.76800007 6.5015344e-40
-0.012418086 0.043098092 0.76700008 5.5724175e-40
-0.010928538 0.042985722 0.7650001 7.4127147e-40
-0.0094466563 0.042873338 0.76300001 9.2602427e-40
-0.0079933293 0.042873334 0.76300001 1.1125693e-39
-0.0065400242 0.042873338 0.76300001 1.2980368e-39
-0.0050733173 0.042760938 0.7610001 1.2051265e-39
-0.0036238001 0.042760946 0.7610001 1.204402e-39
-0.002165722 0.042592376 0.75800002 8.323895e-40
-0.00071999367 0.042479996 0.7560001 4.6690985e-40
0.00072000053 0.042480003 0.75600004 6.4735939e-39
0.0021600153 0.042479992 0.7560001 1.2457592e-38
0.0036000104 0.042479999 0.75600004 9.4119374e-39
0.0050400118 0.042480003 0.7560001 6.2916928e-39
0.0064714164 0.042423822 0.75500011 7.3022504e-39
0.0079095066 0.042423815 0.75500005 8.321028e-39
0.0093476037 0.042423803 0.75500011 6.6464413e-39
0.010785694 0.042423815 0.75500005 4.9894927e-39
0.012223804 0.042423815 0.75500005 7.7578672e-39
0.013661894 0.042423815 0.75500005 1.0431486e-38
0.015099989 0.0424238 0.75500005 9.3226299e-39
0.01653808 0.042423818 0.75500005 8.3110059e-39
0.018000009 0.042479999 0.75600004 8.6718907e-39
0.01944001 0.042479999 0.7560001 9.0478437e-39
0.020880004 0.042479992 0.75600004 9.0507135e-39
0.022320019 0.042479996 0.7560001 8.9552781e-39
0.023760015 0.042480007 0.75600004 7.1049223e-39
0.025200015 0.042479996 0.7560001 5.2642341e-39
0.02671048 0.042592384 0.75800002 4.9858255e-39
0.028154286 0.042592384 0.75800002 4.7110519e-39
0.029793324 0.042873338 0.76300001 3.3231303e-39
0.031246664 0.042873323 0.76300001 1.9290569e-39
0.032700006 0.042873327 0.76300001 5.900184e-39
0.034153331 0.042873334 0.76300007 9.8649198e-39
0.035606649 0.042873334 0.76300001 1.1248216e-38
0.037157163 0.042985719 0.7650001 1.2625042e-38
0.038765721 0.043154273 0.76800007 1.2903428e-38
-0.018333314 0.044733342 0.7700001 1.1107673e-39
-0.016866649 0.044733334 0.77000004 9.2673333e-40
-0.015359988 0.044617131 0.76800007 6.508667e-40
-0.013879038 0.044559032 0.76700008 6.4942897e-40
-0.012385689 0.044442844 0.7650001 6.4907444e-40
-0.010928545 0.044442855 0.76500005 6.4871851e-40
-0.0094466703 0.044326667 0.76300001 6.5051358e-40
-0.0079933377 0.04432667 0.76300001 7.437854e-40
-0.0065400111 0.044326674 0.76300001 7.45942e-40
-0.0050733322 0.044210471 0.76100004 1.0214527e-39
-0.0036238155 0.044210475 0.76100004 1.2033258e-39
-0.0021657075 0.044036202 0.75800002 1.0124774e-39
-0.00072190474 0.044036202 0.75800002 8.4645153e-40
0.00072000705 0.043919999 0.75600004 6.7620162e-39
0.0021600088 0.043920003 0.7560001 1.254476e-38
0.003600003 0.043919995 0.75600004 1.1441278e-38
0.0050400184 0.043919999 0.7560001 1.0327424e-38
0.0064800116 0.043919992 0.7560001 8.0362099e-39
0.0079200063 0.043920003 0.75600004 5.7212802e-39
0.0093600079 0.043919992 0.7560001 2.9453794e-39
0.010800002 0.043920003 0.75600004 2.028898e-40
0.012223806 0.043861911 0.75500011 4.0732748e-39
0.013680012 0.043919995 0.75600004 7.9339501e-39
0.015099994 0.043861892 0.75500011 7.2042856e-39
0.016538084 0.043861907 0.75500005 6.367014e-39
0.018000001 0.043919988 0.75600004 7.2886087e-39
0.019440016 0.043919995 0.7560001 8.2159292e-39
0.02088001 0.043920003 0.75600004 6.8441351e-39
0.022320012 0.043919988 0.7560001 5.4468485e-39
0.02376001 0.043920003 0.7560001 3.1347943e-39
0.025200002 0.043919995 0.75600004 7.5136783e-40
0.026710464 0.044036191 0.75800002 1.0239975e-39
0.028154289 0.044036191 0.75800008 1.3020123e-39
0.02971524 0.044210464 0.7610001 7.4418197e-40
0.031246664 0.044326659 0.76300001 1.0346908e-40
0.032614287 0.04421046 0.7610001 5.9037979e-39
0.03415332 0.044326663 0.76300001 1.1710619e-38
0.035606652 0.044326667 0.76300001 1.4019082e-38
0.037254304 0.044559039 0.76700008 1.6309232e-38
0.038765717 0.044617128 0.76800007 1.631067e-38
-0.018333325 0.0462 0.7700001 1.0192961e-39
-0.016866658 0.046199996 0.77000004 8.3525796e-40
-0.015399992 0.046200003 0.77000004 6.508639e-40
-0.013897121 0.046079986 0.76800007 5.579452e-40
-0.012418063 0.046019986 0.76700008 5.5687601e-40
-0.010928553 0.04590001 0.76500005 5.5795921e-40
-0.0094714165 0.045900006 0.7650001 5.5867528e-40
-0.0079933517 0.045779999 0.76300001 5.6082487e-40
-0.0065399981 0.045780007 0.76300001 5.63343e-40
-0.005086672 0.045779999 0.76300001 7.4737833e-40
-0.0036238104 0.045659993 0.76100004 1.0232436e-39
-0.0021657201 0.045479998 0.75800002 1.2022496e-39
-0.00072191592 0.045480013 0.75800002 1.3884976e-39
0.00072000053 0.045359991 0.75600004 4.7229812e-39
0.0021600153 0.045359991 0.7560001 8.1305537e-39
0.0036000104 0.045359991 0.75600004 6.647886e-39
0.0050400249 0.045359991 0.7560001 5.2545806e-39
0.0064800051 0.045359999 0.7560001 4.1507708e-39
0.0079200016 0.045359999 0.75600004 2.9400139e-39
0.0093600163 0.045359984 0.7560001 1.5671085e-39
0.010800011 0.045359991 0.75600004 2.8320943e-40
0.01222381 0.045300007 0.75500011 2.2210861e-39
0.013680005 0.045359991 0.7560001 4.1489225e-39
0.015099998 0.045299988 0.75500011 3.6901121e-39
0.016560014 0.045359991 0.7560001 3.2151714e-39
0.01800001 0.045359999 0.75600004 4.1554301e-39
0.01944001 0.045359984 0.7560001 5.0913573e-39
0.020880004 0.045359999 0.75600004 4.2515592e-39
0.022320019 0.045359984 0.7560001 3.4963938e-39
0.023760011 0.045359991 0.7560001 2.3982803e-39
0.025200007 0.045360006 0.75600004 1.3888241e-39
0.026710467 0.045480002 0.75800002 1.6672159e-39
0.028228579 0.045600012 0.76000005 2.0348984e-39
0.029715225 0.045659993 0.76100004 1.3888031e-39
0.031164756 0.04566 0.76100004 7.4524415e-40
0.032699984 0.045780007 0.76300001 6.3751976e-39
0.034153324 0.045780014 0.76300001 1.209556e-38
0.035700031 0.04590001 0.7650001 1.4203486e-38
0.037302863 0.046079986 0.76800007 1.631211e-38
0.038765706 0.046079997 0.76800007 1.6219552e-38
0.040333353 0.046200007 0.7700001 1.612807e-38
-0.018380938 0.047790483 0.77200007 8.3597683e-40
-0.016866639 0.047666669 0.7700001 7.437812e-40
-0.015400002 0.047666673 0.77000004 6.5122544e-40
-0.013933315 0.047666658 0.7700001 5.5831234e-40
-0.012418091 0.047480952 0.76700008 3.7464415e-40
-0.010928539 0.047357149 0.7650001 4.6684258e-40
-0.0094714239 0.047357142 0.7650001 4.6791878e-40
-0.0080142608 0.047357146 0.7650001 4.6971104e-40
-0.006540013 0.047233339 0.76300001 3.7931608e-40
-0.0050866585 0.047233328 0.76300001 5.6478634e-40
-0.0036238048 0.047109511 0.7610001 7.4631054e-40
-0.0021657331 0.046923827 0.75800002 1.3852186e-39
-0.0007219094 0.046923809 0.75800008 1.9452363e-39
0.00072000799 0.046799988 0.75600004 2.7936749e-39
0.0021600227 0.046799988 0.7560001 3.6137175e-39
0.0036000039 0.046800002 0.7560001 1.9484635e-39
0.0050399979 0.046799995 0.75600004 1.9642001e-40
0.0064800116 0.046799995 0.7560001 1.8817617e-40
0.0079200063 0.046799991 0.75600004 1.8994461e-40
0.0093600228 0.046799995 0.7560001 2.8354854e-40
0.010800002 0.046799988 0.75600004 2.8534921e-40
0.012240019 0.046799988 0.7560001 2.8715128e-40
0.013680012 0.046799988 0.7560001 2.8786874e-40
0.015120006 0.046799999 0.75600004 1.9172986e-40
0.01656002 0.046799999 0.7560001 1.0170344e-40
0.018000001 0.046799995 0.75600004 1.0261723e-39
0.019440016 0.04679998 0.7560001 1.856635e-39
0.02088001 0.046799991 0.7560001 1.7579808e-39
0.022320006 0.046800002 0.75600004 1.5724951e-39
0.023822861 0.046923827 0.75800002 1.7572227e-39
0.025266664 0.046923816 0.75800002 1.9423426e-39
0.026780946 0.047047619 0.76000005 2.3122097e-39
0.028228594 0.047047615 0.76000005 2.6781042e-39
0.029715246 0.047109514 0.76100004 2.0312956e-39
0.031164763 0.047109514 0.76100004 1.3106106e-39
0.032699995 0.047233328 0.76300001 6.9402067e-39
0.034242876 0.047357142 0.7650001 1.2457525e-38
0.035793357 0.047480941 0.76700008 1.4387521e-38
0.037302855 0.04754284 0.76800007 1.6221353e-38
0.038866669 0.047666661 0.77000004 1.6127714e-38
0.040438101 0.047790483 0.77200001 1.6036591e-38
-0.01838094 0.049260959 0.77200007 9.2924165e-40
-0.016910465 0.049260963 0.77200007 7.4449726e-40
-0.015399982 0.049133334 0.77000004 6.519471e-40
-0.013897146 0.049005691 0.76800007 4.6720132e-40
-0.012418091 0.048941903 0.76700002 3.7500849e-40
-0.010928546 0.048814282 0.7650001 3.7572595e-40
-0.0094714034 0.048814297 0.76500005 4.6863905e-40
-0.0080142673 0.048814282 0.7650001 4.6935651e-40
-0.00654 0.048686661 0.76300001 5.6191508e-40
-0.0050866739 0.048686665 0.76300001 6.5447224e-40
-0.0036333471 0.048686665 0.76300007 8.3779571e-40
-0.0021714161 0.048495241 0.76000005 1.1118785e-39
-0.0007218945 0.048367623 0.75800002 1.3870332e-39
0.00072190881 0.048367616 0.75800002 1.9480977e-39
0.0021599957 0.048239991 0.75600004 2.5005344e-39
0.0036000104 0.048239995 0.7560001 1.4849518e-39
0.0050400053 0.048239987 0.75600004 5.5727258e-40
0.00648002 0.048239991 0.7560001 6.5126327e-40
0.0079200147 0.048240002 0.75600004 6.5340025e-40
0.0093600163 0.048239987 0.7560001 6.5374357e-40
0.010800011 0.048239987 0.7560001 7.4702661e-40
0.012240005 0.048239995 0.75600004 7.4775528e-40
0.01368002 0.048239999 0.7560001 7.4810701e-40
0.01512 0.048239991 0.75600004 6.5554564e-40
0.016560016 0.048239995 0.7560001 6.5699178e-40
0.01800001 0.048239991 0.75600004 1.1158203e-39
0.019440025 0.048239991 0.7560001 1.5717692e-39
0.020880019 0.048239987 0.7560001 1.5739202e-39
0.022379046 0.048367627 0.75800002 1.4827952e-39
0.02382285 0.048367634 0.75800002 1.5746237e-39
0.025266672 0.048367616 0.75800008 1.7597422e-39
0.026780965 0.048495233 0.76000005 2.1285317e-39
0.028228575 0.048495241 0.76000005 2.588777e-39
0.029715253 0.048559032 0.7610001 1.7622491e-39
0.031246657 0.048686672 0.76300001 1.0354671e-39
0.032785755 0.048814293 0.7650001 6.7511589e-39
0.03433241 0.048941903 0.76700008 1.2457889e-38
0.035840001 0.049005713 0.76800001 1.4570121e-38
0.037302867 0.049005695 0.76800007 1.6588696e-38
0.038967624 0.049260966 0.77200001 1.6497205e-38
0.040490489 0.049324758 0.77300012 1.6405368e-38
-0.018380942 0.050731428 0.77200007 9.2852979e-40
-0.016910465 0.050731435 0.77200001 8.3634117e-40
-0.015439991 0.050731432 0.77200001 6.5159117e-40
-0.013933325 0.0506 0.77000004 4.6684118e-40
-0.012434278 0.05046856 0.76800007 2.8352892e-40
-0.010957146 0.050402857 0.76700002 3.7572315e-40
-0.00947141 0.050271433 0.76500005 4.6827751e-40
-0.0080142748 0.050271433 0.7650001 5.6047314e-40
-0.0065400149 0.050139993 0.76300001 6.5374917e-40
-0.0050866613 0.050139997 0.76300001 7.4559028e-40
-0.0036238155 0.050008558 0.7610001 8.3779291e-40
-0.0021714217 0.049942866 0.76000005 8.3744399e-40
-0.00072380929 0.049942862 0.76000005 8.3709086e-40
0.00072189578 0.049811427 0.75800002 1.1108107e-39
0.0021657196 0.049811427 0.75800008 1.3002158e-39
0.0036000179 0.049679987 0.7560001 1.1176154e-39
0.0050400118 0.049679998 0.75600004 9.3071582e-40
0.0064800116 0.049679983 0.7560001 1.0225527e-39
0.0079200082 0.049679998 0.7560001 1.114377e-39
0.0093600228 0.049679983 0.7560001 1.1140071e-39
0.010800017 0.049679995 0.7560001 1.1154518e-39
0.012239998 0.049679987 0.75600004 1.1168965e-39
0.013680012 0.049679991 0.7560001 1.1165308e-39
0.015120006 0.049679991 0.75600004 1.1172413e-39
0.01656002 0.049679987 0.7560001 1.1165364e-39
0.018000016 0.049680002 0.7560001 1.2087432e-39
0.019491438 0.049811419 0.75800008 1.2994983e-39
0.020935241 0.049811427 0.75800002 1.3916884e-39
0.022379046 0.049811438 0.75800002 1.3913254e-39
0.023822848 0.04981143 0.75800002 1.4817232e-39
0.025333347 0.04994287 0.76000005 1.4842441e-39
0.026816187 0.050008561 0.76100004 1.9455838e-39
0.028228574 0.049942866 0.76000005 2.4047501e-39
0.029715234 0.050008573 0.76100004 1.5764271e-39
0.031246668 0.050140008 0.76300001 6.7135088e-40
0.032871455 0.050402854 0.76700008 6.5707123e-39
0.034332395 0.05040285 0.76700002 1.2456457e-38
0.035840005 0.050468553 0.76800007 1.4754878e-38
0.037302859 0.05046856 0.76800001 1.6957848e-38
0.038866684 0.050599996 0.7700001 1.6866726e-38
0.040490497 0.05079715 0.77300006 1.677309e-38
-0.021515239 0.052675229 0.7790001 1.1103973e-39
-0.019928565 0.052404754 0.77500004 1.1111232e-39
-0.018404758 0.05226953 0.77300012 1.1114903e-39
-0.016932379 0.052269518 0.77300012 9.2746761e-40
-0.015439993 0.052201904 0.77200001 6.5159398e-40
-0.013933307 0.052066661 0.77000004 5.5903261e-40
-0.012434287 0.051931418 0.76800007 4.6755584e-40
-0.010971411 0.051931415 0.76800007 5.5939134e-40
-0.0094713969 0.051728569 0.7650001 7.4306373e-40
-0.0080142813 0.051728584 0.7650001 7.448588e-40
-0.0065571186 0.051728573 0.7650001 7.470182e-40
-0.0050866958 0.051593341 0.76300001 7.4666647e-40
-0.0036238029 0.051458087 0.76100004 7.4631475e-40
-0.0021714063 0.051390484 0.76000005 6.5484359e-40
-0.00072379346 0.05139048 0.76000005 6.5592679e-40
0.00072189671 0.051255241 0.75800002 8.3852719e-40
0.0021657206 0.051255241 0.75800008 1.0229156e-39
0.0036095239 0.051255248 0.75800002 9.3251508e-40
0.0050533279 0.051255241 0.75800002 7.4920142e-40
0.0064971535 0.051255241 0.75800008 8.4067538e-40
0.0079200147 0.051119994 0.7560001 1.0246995e-39
0.0093600107 0.051120002 0.75600004 1.023975e-39
0.010800011 0.051119991 0.7560001 1.0243408e-39
0.012240007 0.051119987 0.75600004 1.0247065e-39
0.01368002 0.051119987 0.7560001 1.1165364e-39
0.015120015 0.051119998 0.75600004 1.1165308e-39
0.016560029 0.051119983 0.7560001 1.1161875e-39
0.01800001 0.051119994 0.7560001 1.116919e-39
0.019440005 0.051119991 0.75600004 1.2091062e-39
0.020935243 0.051255241 0.75800002 1.1169035e-39
0.022379046 0.051255248 0.75800002 1.1169035e-39
0.023885733 0.05139048 0.76000005 1.2080202e-39
0.025333343 0.051390469 0.76000005 1.3931331e-39
0.026816204 0.051458079 0.7610001 1.9459467e-39
0.02826572 0.051458083 0.7610001 2.4980233e-39
0.029715253 0.051458094 0.7610001 1.8548035e-39
0.031246668 0.051593337 0.76300001 1.3091757e-39
0.032699995 0.05159333 0.76300001 6.9348201e-39
0.034332402 0.051863793 0.76700008 1.2551882e-38
0.035839994 0.051931418 0.76800001 1.4203874e-38
0.037400004 0.052066673 0.77000004 1.5947317e-38
0.038866688 0.052066669 0.7700001 1.5671814e-38
0.040438097 0.052201919 0.77200001 1.548562e-38
0.041962862 0.052269533 0.77300006 1.4842402e-38
0.043435264 0.052269526 0.77300012 1.4297848e-38
-0.021515235 0.054159041 0.7790001 1.1096784e-39
-0.019928567 0.053880949 0.77500004 1.2018811e-39
-0.01845238 0.053880956 0.77500004 1.2944382e-39
-0.016932363 0.053741913 0.77300006 1.0189374e-39
-0.015439993 0.053672392 0.77200001 6.5087091e-40
-0.013933316 0.053533334 0.7700001 6.5050517e-40
-0.012434277 0.053394273 0.76800007 5.5902981e-40
-0.010957124 0.053324766 0.76700002 7.4306233e-40
-0.0094961794 0.053324752 0.76700008 9.2709346e-40
-0.0080142608 0.053185716 0.76500005 9.2852979e-40
-0.0065571261 0.053185709 0.7650001 8.3813623e-40
-0.0050866837 0.053046677 0.76300001 7.4738394e-40
-0.0036333569 0.053046662 0.76300001 5.6300109e-40
-0.0021742799 0.052907608 0.76100004 4.7081386e-40
-0.00072379812 0.052838102 0.76000005 3.8006017e-40
0.0007238143 0.052838098 0.75999999 5.6445423e-40
0.0021714473 0.052838095 0.76000005 7.4776509e-40
0.0036095257 0.052699059 0.75800002 6.5700439e-40
0.0050533288 0.052699052 0.75800002 5.6552763e-40
0.0064971517 0.052699052 0.75800008 7.4991608e-40
0.0079409564 0.052699048 0.75800002 8.4102571e-40
0.0093600024 0.052560002 0.75600004 9.3321293e-40
0.010800017 0.052559983 0.7560001 9.3249967e-40
0.012240011 0.052559998 0.75600004 1.0246981e-39
0.013680027 0.052559994 0.7560001 1.0246911e-39
0.015120006 0.052559994 0.7560001 1.1158021e-39
0.016560001 0.05255999 0.75600004 1.1161763e-39
0.018000016 0.05255999 0.7560001 1.1172679e-39
0.019491425 0.052699052 0.75800002 1.0250694e-39
0.020990489 0.052838091 0.76000005 9.3358848e-40
0.022438103 0.052838098 0.76000005 7.4884129e-40
0.023917142 0.052907623 0.76100004 1.0236289e-39
0.025366658 0.052907612 0.76100004 1.3012934e-39
0.026816191 0.05290762 0.76100004 1.9466572e-39
0.028265707 0.052907612 0.76100004 2.4965828e-39
0.029793324 0.05304667 0.76300001 2.21927e-39
0.031246664 0.053046662 0.76300001 1.9577513e-39
0.032871429 0.053324755 0.76700002 7.3075249e-39
0.034332402 0.053324759 0.76700008 1.2639387e-38
0.035840005 0.053394265 0.76800007 1.3745383e-38
0.037400022 0.053533331 0.77000004 1.4839521e-38
0.038866695 0.053533327 0.7700001 1.447864e-38
0.040438093 0.053672396 0.77200001 1.409802e-38
0.041908588 0.053672377 0.77200007 1.2629005e-38
0.043379065 0.053672381 0.77200007 1.1148494e-38
-0.021542868 0.055714298 0.78000003 1.0182003e-39
-0.019980017 0.055500008 0.77700001 1.1104015e-39
-0.018452363 0.055357132 0.7750001 1.2022398e-39
-0.016932353 0.055214275 0.77300012 9.2637599e-40
-0.015439995 0.055142865 0.77200001 6.5014644e-40
-0.013933297 0.054999992 0.7700001 5.5866407e-40
-0.01246666 0.055 0.7700001 4.6719151e-40
-0.010971409 0.054857127 0.76800007 5.5903121e-40
-0.0094961785 0.054785721 0.76700002 6.5086951e-40
-0.0080352062 0.054785706 0.76700008 7.4450007e-40
-0.0065571335 0.054642856 0.7650001 8.3706003e-40
-0.0050999704 0.05464286 0.7650001 7.4630634e-40
-0.0036333438 0.054499999 0.76300001 7.4631335e-40
-0.0021742948 0.054357138 0.76100004 6.5484359e-40
-0.00072475738 0.054357134 0.7610001 5.630137e-40
0.0007238292 0.054285716 0.76000005 7.4704763e-40
0.0021714417 0.05428572 0.76000005 8.3852159e-40
0.0036095127 0.05414287 0.75800002 8.3995231e-40
0.0050533363 0.05414287 0.75800008 7.4883708e-40
0.0064971396 0.054142863 0.75800002 7.4847975e-40
0.0079409443 0.054142859 0.75800002 8.3958938e-40
0.0093600107 0.053999994 0.75600004 8.3957957e-40
0.010800025 0.053999994 0.7560001 9.3105773e-40
0.012240007 0.05399999 0.7560001 9.3249406e-40
0.01368 0.054000005 0.75600004 1.0250386e-39
0.015120015 0.053999986 0.7560001 1.023954e-39
0.016560009 0.054000001 0.75600004 1.0236121e-39
0.018047623 0.054142874 0.75800002 1.2080174e-39
0.019491429 0.054142863 0.75800002 1.4835239e-39
0.020990482 0.05428572 0.76000005 1.208016e-39
0.02246763 0.054357134 0.7610001 9.3107455e-40
0.023917146 0.054357138 0.7610001 1.1158203e-39
0.025366666 0.05435713 0.7610001 1.3927646e-39
0.026816193 0.054357138 0.76100004 1.8533798e-39
0.028265724 0.05435713 0.76100004 2.312546e-39
0.02979332 0.054500002 0.76300001 2.4054465e-39
0.031328589 0.054642864 0.76500005 2.5044483e-39
0.032871451 0.054785699 0.76700008 6.2912177e-39
0.034332391 0.054785714 0.76700002 1.0156218e-38
0.035839994 0.054857131 0.76800001 8.8583391e-39
0.037400011 0.055000003 0.7700001 7.5640382e-39
0.038967621 0.055142865 0.77200001 7.3764253e-39
0.040490497 0.055214278 0.77300012 7.2784928e-39
0.041962877 0.055214286 0.77300012 6.723175e-39
0.043547619 0.055357147 0.77500004 6.2460161e-39
0.045140002 0.055500008 0.77700001 4.9688838e-39
-0.021542873 0.057200015 0.78000003 8.3453069e-40
-0.020031419 0.057126656 0.7790001 1.019645e-39
-0.018452365 0.056833327 0.77500004 1.1104043e-39
-0.016932365 0.05668667 0.77300012 9.2601586e-40
-0.015439996 0.056613341 0.77200001 6.5014644e-40
-0.013933327 0.056466673 0.77000004 5.5830814e-40
-0.01246664 0.056466661 0.7700001 3.7464135e-40
-0.010971419 0.056319993 0.76800001 3.7464555e-40
-0.0094961571 0.056246664 0.76700008 3.7644062e-40
-0.0080352332 0.056246668 0.76700002 5.6190807e-40
-0.006557141 0.056100011 0.76500005 7.4558607e-40
-0.0050999774 0.056099996 0.7650001 8.3742857e-40
-0.0036333303 0.055953339 0.76300001 9.2999134e-40
-0.0021742901 0.05580667 0.76100004 8.3888312e-40
-0.00072477321 0.055806667 0.76100004 7.4668889e-40
0.00072382455 0.055733342 0.76000005 8.3888452e-40
0.0021714435 0.055733327 0.76000011 9.3072002e-40
0.0036190699 0.055733334 0.76000005 9.3107735e-40
0.0050533372 0.055586666 0.75800008 9.3108296e-40
0.0064971396 0.055586673 0.75800002 8.385356e-40
0.0079409443 0.055586673 0.75800002 7.4704622e-40
0.0093600024 0.055440005 0.7560001 8.3779431e-40
0.010800017 0.05543999 0.7560001 8.3958517e-40
0.012240011 0.055440001 0.7560001 9.328528e-40
0.013680006 0.055439997 0.75600004 1.0246855e-39
0.015120021 0.055439997 0.7560001 9.3177099e-40
0.016560001 0.055440009 0.75600004 8.4030964e-40
0.018047625 0.05558667 0.75800002 1.3916968e-39
0.019491429 0.055586681 0.75800002 1.9430657e-39
0.0209905 0.055733334 0.76000005 1.4835267e-39
0.022467615 0.055806663 0.76100004 1.0236289e-39
0.023917131 0.055806667 0.76100004 1.299134e-39
0.025366662 0.055806659 0.76100004 1.4842455e-39
0.02681618 0.055806667 0.76100004 1.7615527e-39
0.028265711 0.055806659 0.76100004 2.0363263e-39
0.029793337 0.055953339 0.76300001 2.5848127e-39
0.0313286 0.0561 0.7650001 3.0601332e-39
0.032871436 0.056246664 0.76700002 5.380057e-39
0.034332395 0.056246653 0.76700008 7.5722442e-39
0.035840005 0.056319989 0.76800007 3.9669582e-39
0.037400015 0.056466661 0.7700001 2.8924061e-40
0.038967617 0.056613352 0.77200001 3.6781002e-40
0.040490482 0.05668667 0.77300012 3.7605946e-40
0.041962862 0.056686673 0.77300012 9.2204878e-40
0.043547638 0.056833331 0.77500004 1.3837122e-39
0.045139991 0.056980006 0.77700001 1.2907767e-39
-0.020031413 0.058610469 0.7790001 9.2709486e-40
-0.018452376 0.058309522 0.7750001 1.1104057e-39
-0.016932376 0.058159042 0.77300012 8.3417896e-40
-0.015439996 0.058083817 0.77200001 6.5014784e-40
-0.013933335 0.057933338 0.77000004 4.6611531e-40
-0.012466649 0.057933334 0.7700001 3.7428402e-40
-0.010971407 0.057782855 0.76800007 3.7500569e-40
-0.009496185 0.057707615 0.76700008 3.7680215e-40
-0.0080352332 0.057707623 0.76700002 5.6155074e-40
-0.0065570991 0.057557147 0.7650001 7.4558887e-40
-0.0050999844 0.057557151 0.7650001 7.4523855e-40
-0.0036333457 0.057406668 0.76300001 7.4560989e-40
-0.002174285 0.057256188 0.7610001 7.4597984e-40
-0.00072473969 0.057256177 0.7610001 8.3781253e-40
0.00072477822 0.057256173 0.7610001 9.3072142e-40
0.002171438 0.057180949 0.76000005 1.0225597e-39
0.0036190643 0.05718096 0.76000005 1.1143966e-39
0.0050666765 0.057180952 0.76000005 1.2973586e-39
0.0064971424 0.057030484 0.75800002 9.3038371e-40
0.0079409452 0.057030484 0.75800002 5.6338644e-40
0.0093847699 0.05703048 0.75800008 7.4704202e-40
0.010800005 0.056879997 0.75600004 9.3214234e-40
0.01224002 0.056879994 0.7560001 1.1161651e-39
0.01368 0.056880008 0.75600004 1.3001976e-39
0.015120015 0.05687999 0.7560001 1.0239764e-39
0.016560009 0.056880005 0.75600004 6.5664846e-40
0.01804761 0.057030484 0.75800002 1.1165574e-39
0.019542867 0.057180956 0.76000005 1.5764482e-39
0.021018101 0.057256188 0.76100004 1.3002186e-39
0.022467621 0.057256181 0.76100004 1.1154672e-39
0.023917152 0.057256185 0.76100004 1.2076572e-39
0.02536667 0.057256177 0.76100004 1.2998613e-39
0.0268162 0.057256185 0.76100004 1.7601248e-39
0.028339997 0.057406668 0.76300001 2.2207176e-39
0.029793337 0.057406671 0.76300007 2.6798754e-39
0.031328596 0.05755714 0.7650001 3.1480324e-39
0.032871444 0.057707608 0.76700008 4.3587655e-39
0.034332395 0.057707619 0.76700002 5.5504059e-39
0.035840016 0.057782844 0.76800007 2.8623553e-39
0.037400022 0.057933331 0.7700001 1.8622136e-40
0.038967617 0.058083829 0.77200001 1.865899e-40
0.040490489 0.058159046 0.77300006 2.8308471e-40
0.041962869 0.058159053 0.77300006 4.656753e-40
0.043659989 0.058460016 0.77700001 7.4871097e-40
0.045139987 0.058460016 0.77700001 6.5041408e-40
0.046500009 0.058309533 0.77500004 6.5187284e-40
-0.020031409 0.060094271 0.7790001 8.3489503e-40
-0.018500023 0.059940003 0.77700001 1.0182073e-39
-0.016910473 0.059554301 0.77200001 8.3381883e-40
-0.015439998 0.059554294 0.77200001 6.497849e-40
-0.013933316 0.059399992 0.77000004 4.6539364e-40
-0.01246665 0.0594 0.77000004 2.8244572e-40
-0.010971446 0.059245702 0.76800001 3.7464555e-40
-0.0095085679 0.059245706 0.76800007 3.7680075e-40
-0.0080352109 0.059168562 0.76700008 5.6226821e-40
-0.0065571065 0.059014283 0.7650001 6.5339324e-40
-0.0050999913 0.059014283 0.76500005 5.6084729e-40
-0.0036428275 0.059014283 0.7650001 4.700964e-40
-0.0021743004 0.058705717 0.76100004 7.456127e-40
-0.00072475552 0.05870571 0.76100004 9.3035989e-40
0.00072380685 0.05862857 0.76000005 1.0232716e-39
0.0021714333 0.058628581 0.76000005 1.0232758e-39
0.0036190662 0.058628578 0.76000011 1.2980676e-39
0.0050666924 0.058628567 0.76000005 1.5735783e-39
0.0065143048 0.058628559 0.76000005 1.0225709e-39
0.0079409527 0.05847428 0.75800008 3.7935251e-40
0.0093847718 0.058474291 0.75800002 6.5520652e-40
0.010799997 0.058320004 0.75600004 9.3142627e-40
0.012240013 0.058319993 0.7560001 1.2987641e-39
0.013680006 0.058320001 0.75600004 1.5749908e-39
0.015120021 0.05831999 0.7560001 1.0232618e-39
0.016603811 0.058474299 0.75800002 4.733348e-40
0.018047612 0.058474306 0.75800002 8.4176279e-40
0.019542882 0.058628574 0.76000005 1.1172637e-39
0.020990493 0.058628567 0.76000005 1.1172595e-39
0.022467624 0.058705702 0.7610001 1.1165378e-39
0.023917155 0.058705702 0.7610001 1.1161749e-39
0.025366675 0.058705695 0.7610001 1.1158147e-39
0.026886668 0.058859996 0.76300001 1.7586618e-39
0.028340008 0.058859985 0.76300001 2.3071538e-39
0.029793313 0.058860004 0.76300001 2.7659628e-39
0.0313286 0.059014287 0.7650001 3.2412916e-39
0.032871444 0.059168573 0.76700008 3.3557371e-39
0.034332402 0.059168562 0.76700008 3.4252611e-39
0.03583999 0.059245698 0.76800007 1.7452486e-39
0.037400022 0.059399992 0.7700001 9.3650178e-41
0.038967635 0.059554294 0.77200007 9.2220853e-41
0.040490497 0.05963143 0.77300012 9.5446642e-41
0.041962877 0.05963143 0.77300012 9.257398e-41
0.043659989 0.05994001 0.77700001 9.6881572e-41
0.045139998 0.059939999 0.77700001 9.4373248e-41
0.046500012 0.059785709 0.7750001 9.726833e-41
-0.018452363 0.0612619 0.7750001 8.3381603e-40
-0.016932352 0.061103798 0.77300012 8.3417616e-40
-0.015439979 0.06102477 0.77200007 8.3381182e-40
-0.013933326 0.060866665 0.7700001 6.5013523e-40
-0.01246666 0.060866658 0.77000004 4.6683137e-40
-0.010971433 0.060708564 0.76800007 4.6755584e-40
-0.0095085772 0.060708556 0.76800001 4.6935371e-40
-0.0080352388 0.060629521 0.76700002 5.6155074e-40
-0.0065742671 0.060629521 0.76700008 7.4486861e-40
-0.0050999778 0.060471423 0.7650001 7.4523294e-40
-0.0036428345 0.060471438 0.7650001 8.3815024e-40
-0.0021742668 0.060155235 0.76100004 8.3851458e-40
-0.000724749 0.060155228 0.76100004 9.3107175e-40
0.00072382175 0.060076192 0.76000005 9.3179201e-40
0.0021714482 0.060076196 0.76000005 9.3215635e-40
0.0036190606 0.060076188 0.76000005 1.1154728e-39
0.0050666728 0.060076196 0.76000005 1.3899045e-39
0.0065142992 0.060076207 0.76000005 1.0218451e-39
0.0079409536 0.059918091 0.75800002 7.4525536e-40
0.0093847578 0.059918106 0.75800002 8.3887612e-40
0.010800003 0.059760001 0.75600004 1.0236219e-39
0.012240017 0.059759986 0.7560001 1.1158147e-39
0.013680013 0.059759997 0.75600004 1.3005633e-39
0.015120028 0.059760001 0.7560001 1.0243408e-39
0.016603807 0.059918113 0.75800002 7.4883989e-40
0.018047633 0.059918091 0.75800008 1.0247093e-39
0.019542864 0.060076199 0.76000005 1.3920471e-39
0.020990489 0.060076196 0.76000005 1.1165364e-39
0.022467623 0.060155228 0.76100004 8.4102571e-40
0.02391714 0.060155232 0.76100004 9.317808e-40
0.025366671 0.060155243 0.76100004 1.0228862e-39
0.026886668 0.060313337 0.76300007 1.1118378e-39
0.028339988 0.060313344 0.76300001 1.1975749e-39
0.029871445 0.060471438 0.7650001 2.1213108e-39
0.031328596 0.060471423 0.7650001 3.0518697e-39
0.032914296 0.06070856 0.76800007 6.7392871e-39
0.034377139 0.060708556 0.76800007 1.0487613e-38
0.035840005 0.060708556 0.76800007 9.5734931e-39
0.037400011 0.060866665 0.77000004 8.6368442e-39
0.039018121 0.06110381 0.77300012 8.004399e-39
0.040490497 0.061103817 0.77300012 7.444059e-39
0.042071454 0.061261896 0.7750001 7.4526672e-39
0.04366 0.061420012 0.77700001 7.5337505e-39
0.04525619 0.061578088 0.7790001 8.0973275e-39
-0.018499998 0.062899999 0.77700001 6.5049676e-40
-0.016976178 0.062738091 0.77500004 8.345391e-40
-0.015459981 0.062576197 0.77300012 9.2565012e-40
-0.013969505 0.062495239 0.77200001 7.4197352e-40
-0.012499031 0.062495247 0.77200001 5.59027e-40
-0.011000003 0.062333342 0.77000004 5.5975007e-40
-0.009508566 0.062171414 0.76800007 4.6899498e-40
-0.0080457097 0.062171426 0.76800001 6.5338764e-40
-0.0065742661 0.062090468 0.76700002 7.4522874e-40
-0.0051133214 0.062090471 0.76700008 9.2926407e-40
-0.0036333555 0.061766665 0.76300001 1.1140155e-39
-0.0021742827 0.061604764 0.76100004 1.0232604e-39
-0.00072476576 0.061604757 0.76100004 9.3143048e-40
0.00072381616 0.061523817 0.76000005 9.3215215e-40
0.0021714296 0.06152381 0.76000005 8.4068239e-40
0.003619056 0.061523817 0.76000005 1.0247191e-39
0.0050666681 0.06152381 0.75999999 1.1154728e-39
0.0065143011 0.061523806 0.76000005 1.1136749e-39
0.0079619288 0.061523814 0.76000005 1.0218338e-39
0.0093847578 0.061361916 0.75800002 1.0225443e-39
0.010800011 0.061199997 0.75600004 1.0236219e-39
0.012240025 0.061199997 0.7560001 1.0243422e-39
0.013716189 0.061361916 0.75800002 9.3250527e-40
0.015159993 0.061361909 0.75800002 9.3250527e-40
0.016603818 0.061361913 0.75800008 9.3214794e-40
0.018095246 0.061523821 0.76000005 1.2991326e-39
0.019568579 0.061604746 0.7610001 1.5749936e-39
0.021018097 0.061604753 0.7610001 1.0232604e-39
0.022467628 0.061604742 0.7610001 4.7260472e-40
0.023980001 0.061766673 0.76300001 6.5519812e-40
0.025433341 0.061766662 0.76300001 8.3597543e-40
0.026886644 0.061766677 0.76300001 4.6753342e-40
0.028339984 0.061766669 0.76300001 9.5555944e-41
0.02987144 0.06192857 0.76500005 1.4698864e-39
0.031410493 0.062090468 0.76700002 2.7879099e-39
0.032914288 0.062171429 0.76800007 1.0153443e-38
0.03437715 0.062171414 0.76800007 1.7505992e-38
0.035839994 0.062171422 0.76800007 1.7332336e-38
0.03730287 0.062171411 0.76800007 1.7134674e-38
0.039018106 0.06257619 0.77300012 1.5936867e-38
0.040490486 0.06257619 0.77300012 1.4741209e-38
0.041962866 0.062576197 0.77300012 1.4831965e-38
0.04394095 0.06330476 0.78200006 1.4924884e-38
0.045430485 0.063304752 0.78200012 1.6211664e-38
-0.018500002 0.06437999 0.77700007 6.5013242e-40
-0.016976189 0.064214274 0.7750001 9.253012e-40
-0.015459993 0.064048573 0.77300012 1.2000846e-39
-0.013969507 0.063965715 0.77200001 9.2564732e-40
-0.012499033 0.063965723 0.77200001 6.5050517e-40
-0.010999984 0.0638 0.77000004 6.5158557e-40
-0.0095085539 0.063634276 0.76800007 6.5194991e-40
-0.0080456985 0.063634276 0.76800007 7.4414834e-40
-0.0065742726 0.063551426 0.76700008 8.3634817e-40
-0.0051133209 0.063551426 0.76700002 1.0214583e-39
-0.0036333425 0.063220002 0.76300001 1.2054922e-39
-0.0021742771 0.063054278 0.76100004 1.2062125e-39
-0.00072476018 0.063054286 0.76100004 1.2976963e-39
0.00072475773 0.063054278 0.76100004 1.2073013e-39
0.0021742887 0.063054286 0.76100004 1.2083859e-39
0.0036190569 0.062971435 0.76000005 1.1165588e-39
0.0050666831 0.062971443 0.76000005 1.116549e-39
0.0065142955 0.062971435 0.76000005 1.1151043e-39
0.0079619084 0.062971443 0.76000005 1.2062181e-39
0.0094095347 0.062971428 0.76000005 1.20693e-39
0.010828584 0.062805727 0.75800008 1.207653e-39
0.012272386 0.06280572 0.75800002 1.115463e-39
0.013752407 0.062971428 0.76000005 1.0239834e-39
0.015159993 0.06280572 0.75800002 1.2072929e-39
0.016647631 0.062971428 0.76000005 1.2984095e-39
0.01809526 0.062971443 0.76000005 1.8504973e-39
0.019568566 0.063054293 0.76100004 2.3100307e-39
0.021018095 0.063054293 0.76100004 2.2189085e-39
0.022467615 0.063054286 0.76100004 2.2178351e-39
0.023979999 0.063219994 0.76300001 1.851212e-39
0.025433321 0.063220009 0.76300001 1.4741506e-39
0.026886661 0.063220009 0.76300001 3.7696442e-39
0.028339986 0.063219994 0.76300001 6.0630751e-39
0.029871466 0.06338571 0.7650001 9.1241934e-39
0.0314105 0.063551426 0.76700008 1.2180666e-38
0.0329143 0.063634269 0.76800007 1.6328045e-38
0.034377143 0.063634284 0.76800007 2.0478946e-38
0.035933353 0.0638 0.7700001 2.038102e-38
0.037400022 0.063800007 0.7700001 2.0295283e-38
0.038866673 0.063800007 0.77000004 1.9733148e-38
0.044053353 0.064960003 0.78400004 1.9193253e-38
0.045546692 0.064960003 0.78400004 1.9825344e-38
-0.015459976 0.065520957 0.77300006 1.3833745e-39
-0.013987596 0.065520972 0.77300006 1.0178247e-39
-0.012499033 0.065436199 0.77200001 6.5084849e-40
-0.010999993 0.065266654 0.7700001 7.4412592e-40
-0.009533328 0.065266669 0.77000004 8.3560969e-40
-0.0080456873 0.065097123 0.76800007 9.2709346e-40
-0.0065742726 0.06501238 0.76700002 9.2996612e-40
-0.0051133004 0.06501238 0.76700008 1.1143574e-39
-0.0036333289 0.064673334 0.76300001 1.2987514e-39
-0.0021742724 0.064503804 0.7610001 1.4817106e-39
-0.00072475552 0.064503789 0.7610001 1.5742747e-39
0.00072381151 0.064419061 0.76000005 1.5742846e-39
0.002171438 0.064419053 0.76000005 1.4828134e-39
0.0036190513 0.064419046 0.76000005 1.2998655e-39
0.0050666635 0.064419053 0.76000005 1.1161819e-39
0.0065143104 0.064419053 0.76000005 1.2080048e-39
0.0079619233 0.064419046 0.76000005 1.2991172e-39
0.0094095357 0.064419039 0.76000005 1.2994703e-39
0.01082857 0.06424953 0.75800002 1.2987542e-39
0.012304776 0.064419046 0.76000005 1.2051265e-39
0.013752389 0.064419061 0.76000005 1.1150833e-39
0.015200014 0.064419053 0.76000005 1.3898695e-39
0.016647628 0.064419046 0.76000005 1.6671696e-39
0.018095242 0.064419046 0.76000005 2.4025711e-39
0.01956857 0.064503804 0.7610001 3.0475705e-39
0.021018101 0.064503804 0.76100004 3.5078228e-39
0.022467619 0.064503789 0.76100004 3.8773102e-39
0.023979977 0.064673349 0.76300001 3.0568822e-39
0.025433317 0.064673334 0.76300001 2.1252849e-39
0.026886657 0.064673327 0.76300001 7.0740293e-39
0.028340001 0.064673334 0.76300001 1.1979381e-38
0.02987146 0.064842865 0.7650001 1.6783212e-38
0.031328585 0.06484288 0.76500005 2.1567303e-38
0.032871444 0.06501238 0.76700008 2.2499327e-38
0.034332383 0.065012373 0.76700002 2.3417686e-38
0.035933338 0.065266669 0.77000004 2.341769e-38
0.037400026 0.065266669 0.7700001 2.341769e-38
-0.015459987 0.066993333 0.77300006 8.305454e-40
-0.013987607 0.066993341 0.77300006 7.4050636e-40
-0.012499034 0.066906691 0.77200001 6.4975687e-40
-0.010999974 0.06673333 0.7700001 7.4231964e-40
-0.0095333084 0.066733345 0.7700001 9.2743397e-40
-0.008066671 0.06673333 0.77000004 1.1125483e-39
-0.0065828688 0.066559985 0.76800001 1.3005255e-39
-0.0051133269 0.066473335 0.76700008 1.5756732e-39
-0.0036333443 0.066126674 0.76300001 1.8529818e-39
-0.0021742873 0.065953329 0.76100004 2.4022095e-39
-0.00072477042 0.065953329 0.76100004 2.9535966e-39
0.00072476146 0.065953344 0.76100004 2.3082511e-39
0.0021714398 0.065866672 0.76000005 1.5735699e-39
0.0036190662 0.065866679 0.76000005 1.8494379e-39
0.0050666793 0.065866679 0.76000005 2.1252877e-39
0.0065142917 0.065866664 0.76000005 1.8494071e-39
0.0079619177 0.065866672 0.76000005 1.6664466e-39
0.0094095329 0.065866679 0.76000005 1.6664395e-39
0.010857145 0.065866686 0.76000005 1.6660794e-39
0.012304771 0.065866679 0.76000005 1.8493903e-39
0.013752383 0.065866672 0.76000005 1.9426593e-39
0.015200016 0.065866664 0.76000011 2.3107173e-39
0.016647642 0.065866679 0.76000005 2.7716899e-39
0.018095257 0.065866664 0.76000005 3.5996457e-39
0.019568568 0.065953337 0.76100004 4.4293951e-39
0.021018108 0.065953329 0.7610001 4.3368422e-39
0.022467637 0.065953322 0.7610001 4.2475024e-39
0.02397999 0.066126674 0.76300001 3.1418723e-39
0.025433332 0.066126674 0.76300001 2.0392256e-39
0.026886657 0.066126674 0.76300001 8.8581065e-39
0.028339997 0.066126674 0.76300001 1.5793515e-38
0.029871466 0.066300012 0.7650001 1.9095323e-38
0.0313286 0.066300005 0.7650001 2.2499335e-38
0.032871433 0.066473328 0.76700008 2.2958513e-38
0.034332402 0.066473313 0.76700008 2.341769e-38
0.035793342 0.066473328 0.76700002 2.341769e-38
-0.014096195 0.068997145 0.7790001 4.6317118e-40
-0.012515219 0.06846571 0.77300012 6.4756524e-40
-0.011028561 0.068377152 0.77200001 8.3160057e-40
-0.0095580928 0.068377152 0.77200007 9.2488221e-40
-0.0080876183 0.068377152 0.77200007 1.2951053e-39
-0.0065999869 0.068200015 0.77000004 1.6635248e-39
-0.0051333006 0.0682 0.7700001 2.0340982e-39
-0.0036333313 0.06758 0.76300001 2.3085355e-39
-0.0021800047 0.067579992 0.76300001 3.3208868e-39
-0.00072665076 0.06758 0.76300001 4.3274829e-39
0.00072476611 0.067402862 0.7610001 3.0399867e-39
0.002174298 0.067402855 0.76100004 1.6624599e-39
0.003623815 0.06740284 0.76100004 2.398583e-39
0.0050733318 0.067402847 0.7610001 3.1321949e-39
0.0065228618 0.067402855 0.76100004 2.5815435e-39
0.0079723811 0.067402847 0.76100004 1.9394097e-39
0.0094219102 0.067402855 0.76100004 2.0333948e-39
0.01085716 0.06731429 0.76000005 2.0326745e-39
0.012320959 0.067402847 0.76100004 2.4000137e-39
0.0137524 0.06731429 0.76000005 2.7687906e-39
0.015200012 0.067314282 0.76000005 3.322672e-39
0.016647624 0.067314282 0.76000005 3.7822097e-39
0.018119043 0.067402847 0.76100004 4.79527e-39
0.019568574 0.067402855 0.76100004 5.713269e-39
0.021073325 0.067580007 0.76300001 5.1626176e-39
0.022467623 0.067402855 0.76100004 4.5165237e-39
0.023917139 0.06740284 0.76100004 3.2232779e-39
0.025433332 0.067580007 0.76300001 1.8590774e-39
0.026886657 0.06758 0.76300001 1.0708706e-38
0.028414311 0.067757145 0.7650001 1.9451459e-38
0.029793337 0.067580007 0.76300007 2.1489145e-38
0.031246657 0.067580007 0.76300001 2.3413385e-38
0.032699995 0.067580014 0.76300001 2.341769e-38
0.034153324 0.06758 0.76300001 2.341769e-38
-0.01409619 0.070480943 0.77900004 3.6986432e-40
-0.012547616 0.070119038 0.77500004 5.5353812e-40
-0.011071429 0.070119046 0.77500004 5.5389825e-40
-0.0095580947 0.069847606 0.77200007 5.5355353e-40
-0.0080876201 0.069847614 0.77200007 7.390308e-40
-0.0066171451 0.069847621 0.77200001 1.013824e-39
