# .PCD v0.7 - Point Cloud Data file format
VERSION 0.7
FIELDS x y z rgb
SIZE 4 4 4 4
TYPE F F F F
COUNT 1 1 1 1
WIDTH 943
HEIGHT 1
VIEWPOINT 0 0 0 1 0 0 0
POINTS 943
DATA ascii
-0.010571446 -0.016209535 0.74000001 2.213896e-39
-0.0091619277 -0.016209535 0.74000001 1.1143882e-39
-0.0077523878 -0.016209528 0.74000001 1.0232772e-39
-0.0063428851 -0.016209528 0.74000001 8.4068239e-40
-0.0049266499 -0.016187631 0.73899996 7.4920703e-40
-0.0035190324 -0.016187638 0.73900002 6.5557647e-40
-0.0021114128 -0.016187645 0.73900002 5.6158858e-40
-0.0007019082 -0.016143829 0.73700005 3.7719311e-40
0.00070193951 -0.016143821 0.73699999 6.5305133e-40
0.0021057499 -0.016143806 0.73699999 9.3142908e-40
0.0035095585 -0.016143814 0.73699999 1.0261372e-39
0.0049133673 -0.016143814 0.73699999 1.0250652e-39
0.0063171778 -0.016143821 0.73699999 1.0247107e-39
0.0077209864 -0.016143821 0.73700005 9.3287381e-40
0.009124795 -0.016143814 0.73700005 8.4103692e-40
0.010528606 -0.016143814 0.73700005 7.4883568e-40
0.011932415 -0.016143821 0.73700005 5.6336402e-40
0.0133362 -0.016143806 0.73699999 2.8787014e-40
0.014740011 -0.016143814 0.73699999 2.8931769e-40
0.016143819 -0.016143821 0.73699999 2.9399662e-40
0.017595261 -0.016187631 0.73900002 4.7122725e-40
0.019002857 -0.016187631 0.73899996 6.6316029e-40
0.020410474 -0.016187638 0.73900002 1.5661024e-39
0.021847606 -0.01620952 0.74000001 2.5034603e-39
0.023351397 -0.016275249 0.74300009 6.1079952e-39
0.024900014 -0.016362868 0.74700004 9.6722833e-39
0.026322881 -0.016362853 0.74700004 7.1811684e-39
0.02778288 -0.016384766 0.74799997 4.701603e-39
0.029207654 -0.016384773 0.74799997 5.3448032e-39
0.030714294 -0.016428597 0.75000006 5.9883761e-39
0.032142852 -0.016428582 0.75000006 5.8047121e-39
0.033571433 -0.01642859 0.75000012 5.6206684e-39
-0.025099967 -0.01506 0.75299996 5.8141373e-39
-0.023665713 -0.015060008 0.75300002 6.274035e-39
-0.022201888 -0.015040003 0.75200003 5.9049008e-39
-0.020714259 -0.015000015 0.75000006 5.5382819e-39
-0.019234253 -0.014960006 0.74799997 6.2747651e-39
-0.017738052 -0.014899999 0.74500006 7.1023706e-39
-0.01627524 -0.014860012 0.74300003 7.4725922e-39
-0.014860005 -0.014860019 0.74300003 7.9321354e-39
-0.013426645 -0.014839992 0.74199998 6.6457266e-39
-0.011980967 -0.014800005 0.74000001 5.4500477e-39
-0.010571425 -0.014800005 0.74000001 3.1408634e-39
-0.0091619221 -0.01480002 0.74000001 8.3924185e-40
-0.0077524055 -0.014799997 0.74000001 9.3180042e-40
-0.0063428637 -0.014799997 0.74000001 1.1161903e-39
-0.0049266759 -0.014780007 0.73900002 9.3252069e-40
-0.0035190585 -0.014780022 0.73900002 8.3925026e-40
-0.0021114016 -0.014780015 0.73899996 6.5414294e-40
-0.00070191192 -0.014740013 0.73700005 4.6867268e-40
0.00070095231 -0.014720015 0.73600006 7.4560849e-40
0.0021057443 -0.014739998 0.73699999 9.3179061e-40
0.0035095529 -0.014740005 0.73699999 1.0247023e-39
0.0049133636 -0.014740005 0.73699999 1.1161791e-39
0.0063171722 -0.014740013 0.73699999 1.0243436e-39
0.0077209817 -0.014739998 0.73699999 9.3286961e-40
0.0091247922 -0.014740005 0.73700005 8.4067819e-40
0.010528601 -0.014740013 0.73700005 7.4848115e-40
0.011932409 -0.01474002 0.73700005 6.5592399e-40
0.01333622 -0.014740005 0.73700005 6.5591278e-40
0.014740028 -0.014740013 0.73700005 3.7609029e-40
0.016143836 -0.014740013 0.73700005 1.8418667e-40
0.017595235 -0.014780015 0.73900002 3.0511943e-39
0.019028569 -0.014800005 0.74000001 5.9095867e-39
0.020438071 -0.014799997 0.74000007 5.8156114e-39
0.021906689 -0.014839999 0.74199998 5.825684e-39
0.023351407 -0.014860012 0.74300003 7.2975897e-39
0.024900023 -0.014940016 0.74700004 8.8558307e-39
0.026322849 -0.014940023 0.74700004 7.0025252e-39
0.027782857 -0.014960013 0.74800003 5.1593553e-39
0.02920763 -0.014959998 0.74800003 5.4359338e-39
0.03071429 -0.015000015 0.75000006 5.8043562e-39
0.032142848 -0.015000008 0.75000006 5.6206894e-39
-0.029598091 -0.013716199 0.75800002 4.7088631e-39
-0.028154261 -0.013716206 0.75800002 5.0798036e-39
-0.025166659 -0.013661914 0.75500005 6.4602129e-39
-0.023665691 -0.013625711 0.75299996 7.3767798e-39
-0.022201912 -0.013607629 0.75200003 6.7321447e-39
-0.020714263 -0.013571449 0.75000006 5.9978209e-39
-0.019234274 -0.013535246 0.74800003 6.3665992e-39
-0.01778573 -0.013517164 0.74700004 6.7353859e-39
-0.016319044 -0.013480961 0.74500006 7.1949305e-39
-0.014859994 -0.013444766 0.74300003 7.6569835e-39
-0.013426682 -0.013426669 0.74200004 7.6598603e-39
-0.011980983 -0.013390489 0.74000001 7.5619054e-39
-0.010571443 -0.013390467 0.74000001 4.0602987e-39
-0.0091619007 -0.013390467 0.74000001 5.651731e-40
-0.0077523999 -0.013390481 0.74000001 9.3180322e-40
-0.0063428814 -0.013390481 0.74000001 1.3002214e-39
-0.0049266629 -0.013372377 0.73899996 1.1165518e-39
-0.0035190473 -0.013372384 0.73900002 9.3144449e-40
-0.0021114277 -0.013372399 0.73900002 7.4633577e-40
-0.00070189702 -0.013336211 0.73700005 5.6122003e-40
0.00070195069 -0.013336189 0.73699999 7.4560008e-40
0.0021057592 -0.013336197 0.73699999 9.3106894e-40
0.0035095473 -0.013336197 0.73699999 1.0247023e-39
0.0049133562 -0.013336197 0.73699999 1.1161805e-39
0.0063171647 -0.013336197 0.73699999 1.0229114e-39
0.0077209761 -0.013336197 0.73699999 9.3215495e-40
0.0091247847 -0.013336204 0.73699999 8.4068239e-40
0.010528593 -0.013336204 0.73699999 6.5700299e-40
0.011932404 -0.013336197 0.73700005 8.3994951e-40
0.013336212 -0.013336189 0.73700005 9.3034447e-40
0.014780012 -0.013372399 0.73899996 5.5833196e-40
0.016187631 -0.013372391 0.73899996 1.0456769e-40
0.01761901 -0.013390474 0.74000001 5.6391249e-39
0.019028552 -0.013390474 0.74000001 1.1061014e-38
0.020493362 -0.013426669 0.74200004 1.0144459e-38
0.021906674 -0.013426684 0.74200004 9.1335597e-39
0.023351418 -0.013444759 0.74300003 8.5839901e-39
0.02490003 -0.013517149 0.74700004 7.9317277e-39
0.026358124 -0.013535246 0.74799997 6.7223524e-39
0.027782876 -0.013535239 0.74799997 5.5270518e-39
0.029207647 -0.013535246 0.74799997 5.5274078e-39
0.030714286 -0.013571449 0.75000006 5.5281238e-39
-0.029676184 -0.01230479 0.76000005 3.8780403e-39
-0.028154271 -0.012272395 0.75800002 4.0635147e-39
-0.026639964 -0.01224 0.75600004 4.1571467e-39
-0.025199981 -0.012240008 0.75600004 5.1687749e-39
-0.023665708 -0.012191422 0.75300002 6.0910857e-39
-0.022201899 -0.012175247 0.75200003 5.9978251e-39
-0.020769533 -0.012175232 0.75200003 5.9056294e-39
-0.019285709 -0.012142874 0.75000006 6.367674e-39
-0.017809507 -0.012110479 0.74799997 6.9201303e-39
-0.016319031 -0.012061916 0.74500006 7.1960039e-39
-0.014860025 -0.012029536 0.74300003 7.4729509e-39
-0.013426658 -0.012013339 0.74200004 7.5669444e-39
-0.012013333 -0.012013339 0.74200004 7.659482e-39
-0.010571459 -0.011980951 0.74000001 4.0613791e-39
-0.0091619203 -0.011980958 0.74000001 5.6194871e-40
-0.0077523785 -0.011980958 0.74000001 8.4032786e-40
-0.0063342862 -0.011964776 0.73900002 1.2094649e-39
-0.0049266685 -0.011964768 0.73900002 1.0250765e-39
-0.0035190734 -0.011964768 0.73900002 9.3216196e-40
-0.0021114184 -0.011964768 0.73899996 8.3816986e-40
-0.00070190261 -0.011932388 0.73700005 7.4381063e-40
0.0007019451 -0.01193238 0.73699999 9.2890254e-40
0.0021057536 -0.011932388 0.73699999 1.0225401e-39
0.0035095641 -0.011932388 0.73699999 1.2991312e-39
0.0049133748 -0.011932395 0.73699999 1.5757181e-39
0.0063171852 -0.01193238 0.73699999 1.2998557e-39
0.0077209929 -0.011932388 0.73700005 1.0243534e-39
0.0091247791 -0.011932388 0.73699999 8.4104392e-40
0.01052859 -0.011932388 0.73699999 7.4955595e-40
0.011932398 -0.01193238 0.73699999 7.4846854e-40
0.013372391 -0.011964768 0.73900002 8.4066137e-40
0.014780009 -0.011964768 0.73900002 4.6757827e-40
0.016209517 -0.011980951 0.74000001 9.813153e-41
0.017619032 -0.011980951 0.74000001 5.8217533e-39
0.019080013 -0.012013331 0.74200004 1.1530264e-38
0.020493362 -0.012013331 0.74199998 1.0329588e-38
0.02193618 -0.012029529 0.74300003 9.2246819e-39
0.023414293 -0.012061901 0.74500006 8.3956415e-39
0.024900001 -0.012094297 0.74700004 7.5650947e-39
0.026358102 -0.012110494 0.74800003 6.4500717e-39
0.027782876 -0.012110479 0.74800003 5.3423019e-39
0.029207626 -0.012110487 0.74800003 5.4355681e-39
0.030714322 -0.012142867 0.75000006 5.6203097e-39
0.032142881 -0.012142867 0.75 5.6203027e-39
-0.031123772 -0.01085715 0.76000005 3.5996527e-39
-0.02959807 -0.010828577 0.75800002 3.0490055e-39
-0.028154278 -0.010828584 0.75800002 2.9553847e-39
-0.026710447 -0.010828592 0.75800002 2.8664247e-39
-0.02519997 -0.010800004 0.75600004 3.8748285e-39
-0.023728555 -0.010785714 0.75500005 4.800005e-39
-0.022231432 -0.010757148 0.75300002 5.3538948e-39
-0.020769518 -0.010742851 0.75200003 5.8148673e-39
-0.019285711 -0.010714307 0.75000006 6.4616647e-39
-0.017809507 -0.010685727 0.74800003 7.0123259e-39
-0.016319003 -0.010642849 0.74500006 7.1963627e-39
-0.014860013 -0.010614298 0.74300003 7.2892814e-39
-0.01344478 -0.010614291 0.74300003 7.4751132e-39
-0.01201331 -0.010600001 0.74200004 7.6526661e-39
-0.010599983 -0.010599993 0.74200004 4.0549191e-39
-0.0091619361 -0.010571443 0.74000001 4.7262154e-40
-0.007741889 -0.010557152 0.73899996 8.4212012e-40
-0.0063342731 -0.010557152 0.73899996 1.1172679e-39
-0.0049266554 -0.01055716 0.73900002 1.0254324e-39
-0.0035190361 -0.010557152 0.73900002 8.3996633e-40
-0.0021114184 -0.010557152 0.73900002 9.2964803e-40
-0.0007019082 -0.010528579 0.73700005 9.2820189e-40
0.00070193765 -0.010528572 0.73699999 1.0203849e-39
0.0021057499 -0.010528579 0.73699999 1.1133022e-39
0.0035095585 -0.010528579 0.73699999 1.5735615e-39
0.0049133673 -0.010528572 0.73699999 1.9423384e-39
0.0063171778 -0.010528572 0.73699999 1.4838798e-39
0.0077209854 -0.010528579 0.73699999 1.0243478e-39
0.009124794 -0.010528579 0.73700005 9.3287522e-40
0.010557131 -0.010557152 0.73900002 7.4919722e-40
0.011964749 -0.01055716 0.73900002 7.4739655e-40
0.013372404 -0.010557145 0.73899996 7.4631755e-40
0.014799995 -0.01057142 0.74000001 4.6470841e-40
0.016209498 -0.010571428 0.74000001 1.1068716e-40
0.01761904 -0.010571435 0.74000001 6.0194149e-39
0.019080037 -0.010599993 0.74200004 1.1895455e-38
0.020520916 -0.010614291 0.74300003 1.0602228e-38
0.021936189 -0.010614291 0.74300003 9.2228883e-39
0.023414282 -0.010642864 0.74500006 8.208379e-39
0.02490001 -0.010671437 0.74700004 7.1927235e-39
0.026322873 -0.010671437 0.74699998 6.1698947e-39
0.027782893 -0.01068572 0.74800003 5.1593399e-39
0.029207643 -0.010685727 0.74799997 5.4362771e-39
0.030714316 -0.0107143 0.75000006 5.6202999e-39
0.0321429 -0.010714307 0.75000006 5.8046813e-39
-0.031123826 -0.0094095394 0.76000005 3.6918455e-39
-0.029676188 -0.009409532 0.76000005 3.2315974e-39
-0.028154271 -0.0093847662 0.75799996 2.6805901e-39
-0.026710456 -0.0093847737 0.75800002 2.2224986e-39
-0.025266627 -0.0093847662 0.75800002 3.3259679e-39
-0.023728553 -0.0093476176 0.75500005 4.5234209e-39
-0.022231409 -0.0093228593 0.75299996 5.0773065e-39
-0.02076954 -0.0093104839 0.75200003 5.6301188e-39
-0.019285716 -0.0092857331 0.75000006 6.1840072e-39
-0.017809492 -0.0092609599 0.74800003 6.8282962e-39
-0.016362855 -0.0092485845 0.74700004 7.0116141e-39
-0.014899993 -0.0092238188 0.74500006 7.1960137e-39
-0.01344477 -0.009199053 0.74300003 7.5669529e-39
-0.012013309 -0.0091866702 0.74200004 8.0235954e-39
-0.010599982 -0.0091866553 0.74199998 4.151414e-39
-0.0091619156 -0.0091619045 0.74000001 3.7970704e-40
-0.0077419151 -0.0091495365 0.73900002 7.4920563e-40
-0.0063342974 -0.0091495365 0.73900002 1.0250708e-39
-0.0049266797 -0.0091495439 0.73900002 9.3287662e-40
-0.0035190249 -0.009149529 0.73899996 8.3960619e-40
-0.0021114054 -0.009149529 0.73900002 7.4525957e-40
-0.00070191378 -0.0091247708 0.73700005 7.4274003e-40
0.00070193579 -0.0091247708 0.73699999 8.3635938e-40
0.0021057443 -0.0091247708 0.73699999 9.2819908e-40
0.0035095529 -0.0091247633 0.73699999 1.2062195e-39
0.0049133636 -0.0091247633 0.73699999 1.4831581e-39
0.0063171722 -0.0091247633 0.73699999 1.2076488e-39
0.0077419309 -0.0091495439 0.73899996 9.3178921e-40
0.0091495486 -0.009149529 0.73900002 8.4067538e-40
0.010557144 -0.009149529 0.73899996 7.4991468e-40
0.011964762 -0.0091495365 0.73900002 7.4883568e-40
0.013372377 -0.0091495439 0.73900002 8.4030684e-40
0.014779995 -0.009149529 0.73900002 4.6937193e-40
0.01620952 -0.0091619045 0.74000001 1.0566491e-40
0.01766669 -0.0091866627 0.74200004 6.3763536e-39
0.019080039 -0.0091866627 0.74200004 1.2541893e-38
0.020520927 -0.009199053 0.74300003 1.1617444e-38
0.02193616 -0.009199068 0.74300003 1.0692972e-38
0.023414332 -0.0092238113 0.74500006 8.4856736e-39
0.024900014 -0.0092485771 0.74700004 6.276874e-39
0.026358098 -0.0092609599 0.74800003 5.7142962e-39
0.027745729 -0.0092485845 0.74700004 5.2504509e-39
0.029207621 -0.0092609599 0.74800003 5.3440745e-39
0.030632395 -0.0092609599 0.74800003 5.4362603e-39
0.032142892 -0.0092857331 0.75000006 5.5288049e-39
-0.031123817 -0.0079619214 0.76000005 3.6925602e-39
-0.029676177 -0.0079619214 0.76000005 3.3241448e-39
-0.02815428 -0.0079409555 0.75800002 2.4043577e-39
-0.02671049 -0.0079409704 0.75800002 1.4874489e-39
-0.025266659 -0.0079409555 0.75799996 2.8660701e-39
-0.023728549 -0.0079095215 0.75500005 4.1542838e-39
-0.022231422 -0.007888563 0.75300002 4.8021602e-39
-0.020769503 -0.0078781024 0.75200003 5.4468079e-39
-0.01928572 -0.0078571662 0.75000006 5.9999803e-39
-0.01780951 -0.0078362003 0.74800003 6.5510003e-39
-0.01636285 -0.0078257173 0.74700004 6.8254362e-39
-0.01489998 -0.0078047812 0.74500006 7.1052572e-39
-0.013480923 -0.0078047737 0.74500006 7.756009e-39
-0.012029528 -0.0077838153 0.74300003 8.2973096e-39
-0.010614293 -0.0077838227 0.74300003 4.3311375e-39
-0.0091866711 -0.0077733323 0.74200004 2.8930507e-40
-0.0077523915 -0.0077523813 0.74000001 6.5773026e-40
-0.0063428879 -0.0077523887 0.74000001 9.3323955e-40
-0.0049333479 -0.0077523813 0.74000001 8.4104813e-40
-0.0035190529 -0.0077419281 0.73900002 7.4705743e-40
-0.0021057038 -0.0077209622 0.73700005 6.5270661e-40
-0.00070189516 -0.0077209696 0.73700005 4.6866707e-40
0.00070195255 -0.0077209547 0.73699999 5.6156896e-40
0.0021114571 -0.0077419132 0.73900002 6.5413033e-40
0.0035190524 -0.0077419132 0.73899996 8.3960479e-40
0.004913358 -0.0077209547 0.73699999 1.0236219e-39
0.0063342862 -0.0077419207 0.73900002 9.3105773e-40
0.0077419048 -0.0077419281 0.73900002 8.3994811e-40
0.0091495207 -0.0077419132 0.73900002 8.3995792e-40
0.010557138 -0.0077419207 0.73900002 7.4883989e-40
0.011964795 -0.0077419207 0.73899996 8.4067538e-40
0.013372389 -0.0077419207 0.73899996 8.3887471e-40
0.014799962 -0.0077523887 0.74000001 4.6722234e-40
0.016209502 -0.0077523962 0.74000001 1.1032703e-40
0.01766669 -0.0077733248 0.74200004 6.6550859e-39
0.019080002 -0.0077733323 0.74200004 1.3182937e-38
0.020520959 -0.0077838153 0.74300003 1.263228e-38
0.021936171 -0.0077838153 0.74300003 1.2076941e-38
0.023414321 -0.0078047663 0.74500006 8.7640275e-39
0.02483334 -0.0078047737 0.74500006 5.3538472e-39
0.026322871 -0.0078257173 0.74700004 5.343734e-39
0.027745739 -0.0078257173 0.74700004 5.2515327e-39
0.029207638 -0.0078362003 0.74799997 5.2533208e-39
0.03063241 -0.0078361928 0.74800003 5.1614811e-39
0.032057159 -0.0078362003 0.74799997 5.3451479e-39
-0.029676206 -0.0065143108 0.76000011 4.4265239e-39
-0.028154287 -0.0064971521 0.75800002 3.6000044e-39
-0.02671046 -0.0064971521 0.75799996 2.7724228e-39
-0.025266666 -0.0064971596 0.75800002 3.4160027e-39
-0.023728546 -0.0064714402 0.75500005 4.1496189e-39
-0.022231437 -0.006454289 0.75300002 4.7078135e-39
-0.02076949 -0.0064457059 0.75200003 5.3553339e-39
-0.019285699 -0.0064285919 0.75000006 5.8152359e-39
-0.017809495 -0.0064114407 0.74800003 6.2747791e-39
-0.01636284 -0.0064028576 0.74700004 6.5506513e-39
-0.014899954 -0.0063857213 0.74500006 6.9187206e-39
-0.013480935 -0.0063857213 0.74500006 7.3832889e-39
-0.012029517 -0.0063685775 0.74300003 7.9357073e-39
-0.010614283 -0.0063685849 0.74300003 4.1528447e-39
-0.0091866478 -0.0063600019 0.74200004 3.7970564e-40
-0.0077733211 -0.0063600019 0.74200004 7.4884829e-40
-0.0063428693 -0.0063428506 0.74000001 1.116556e-39
-0.0049333666 -0.0063428581 0.74000001 8.406964e-40
-0.003523825 -0.0063428655 0.74000001 5.6303051e-40
-0.0021114203 -0.0063342899 0.73899996 4.6939435e-40
-0.00070380251 -0.0063342899 0.73900002 3.7611271e-40
0.00070381333 -0.0063342974 0.73900002 5.6084869e-40
0.002111431 -0.0063342974 0.73900002 7.4561129e-40
0.0035190487 -0.0063342899 0.73900002 8.3997333e-40
0.0049266666 -0.0063343048 0.73900002 9.3250527e-40
0.0063600074 -0.0063600019 0.74200004 8.4064736e-40
0.0077733332 -0.0063600019 0.74200004 7.4882587e-40
0.0091866823 -0.0063600019 0.74200004 7.4847975e-40
0.010557151 -0.0063342974 0.73900002 7.4812382e-40
0.011980925 -0.0063428581 0.74000001 7.4848396e-40
0.013390464 -0.0063428655 0.74000001 7.4776089e-40
0.014840017 -0.0063600019 0.74200004 4.6973626e-40
0.016253365 -0.0063600019 0.74200004 1.0135872e-40
0.017666692 -0.006359987 0.74199998 4.899804e-39
0.019105695 -0.0063685775 0.74300003 9.6989164e-39
0.020520931 -0.0063685849 0.74300009 9.694243e-39
0.021995269 -0.0063857138 0.745 9.6974492e-39
0.023477165 -0.0064028651 0.74700004 6.3708998e-39
0.024899991 -0.0064028725 0.74700004 3.1433311e-39
0.026322881 -0.0064028651 0.74700004 3.9662085e-39
0.027782863 -0.0064114332 0.74800003 4.8834803e-39
0.029207615 -0.0064114332 0.74800003 5.0689366e-39
0.030632388 -0.0064114407 0.74800003 5.1622084e-39
-0.026639983 -0.0050400048 0.75600004 4.0609924e-39
-0.025199961 -0.0050399974 0.75600004 4.059926e-39
-0.023728544 -0.005033344 0.75500005 4.062084e-39
-0.022231415 -0.00502 0.75299996 4.6159724e-39
-0.020769514 -0.0050133467 0.75200003 5.170221e-39
-0.019285705 -0.005000025 0.75000006 5.6308418e-39
-0.017809479 -0.0049866736 0.74799997 5.9996257e-39
-0.016362872 -0.0049800202 0.74700004 6.3673335e-39
-0.014899964 -0.0049666762 0.74500006 6.6442791e-39
-0.013480945 -0.0049666613 0.74500006 7.1056132e-39
-0.012029545 -0.0049533397 0.74300003 7.5611865e-39
-0.010614312 -0.0049533471 0.74300009 3.9648787e-39
-0.0091866469 -0.004946664 0.74200004 3.8114337e-40
-0.0077733202 -0.004946664 0.74199998 8.4139985e-40
-0.0063599721 -0.0049466714 0.74199998 1.208746e-39
-0.0049466603 -0.004946664 0.74200004 8.4140826e-40
-0.0035238417 -0.0049333498 0.74000001 3.8007278e-40
-0.0021114501 -0.004926689 0.73900002 3.7791478e-40
-0.00070379133 -0.0049266666 0.73899996 2.8499608e-40
0.00070382451 -0.0049266741 0.73899996 5.6013823e-40
0.0021142827 -0.0049333423 0.74000001 7.4632736e-40
0.0035190599 -0.0049266815 0.73900002 8.4139985e-40
0.0049266778 -0.0049266741 0.73900002 8.4067118e-40
0.0063600093 -0.004946664 0.74200004 7.4954194e-40
0.0077733351 -0.004946664 0.74200004 6.5699738e-40
0.0091866842 -0.0049466714 0.74200004 6.5700579e-40
0.010600032 -0.0049466714 0.74199998 6.5665126e-40
0.012013344 -0.004946664 0.74200004 6.5665547e-40
0.013390449 -0.0049333498 0.74000001 6.559324e-40
0.014840018 -0.0049466714 0.74200004 3.7826931e-40
0.016253367 -0.0049466714 0.74200004 1.056579e-40
0.017690457 -0.0049533471 0.74300009 3.144148e-39
0.019105706 -0.0049533397 0.74300003 6.1876239e-39
0.020576201 -0.0049666688 0.74500006 6.7479556e-39
0.021995259 -0.0049666688 0.74500006 7.2925043e-39
0.023477172 -0.0049800053 0.74700004 4.0621134e-39
0.024933357 -0.004986681 0.74799997 8.445794e-40
0.026358131 -0.0049866736 0.74800003 2.6772802e-39
0.027782882 -0.0049866736 0.74800003 4.5161369e-39
0.029285744 -0.0050000101 0.75000006 4.8849068e-39
-0.026639972 -0.0036000088 0.75600004 4.1557005e-39
-0.025199989 -0.0036000088 0.75600004 4.2479004e-39
-0.02372854 -0.0035952479 0.75500005 4.3415337e-39
-0.022231432 -0.0035857186 0.75300002 4.7103134e-39
-0.020769501 -0.0035809502 0.75200003 5.0790974e-39
-0.019285707 -0.0035714582 0.75000006 5.6315523e-39
-0.017809499 -0.0035619065 0.74800003 6.1840086e-39
-0.016362865 -0.0035571605 0.74700004 6.3684041e-39
-0.014899974 -0.0035476312 0.74500006 6.5524324e-39
-0.013480955 -0.0035476163 0.74500006 6.5538645e-39
-0.012029536 -0.0035381019 0.74300003 6.5549393e-39
-0.010614301 -0.0035381094 0.74300003 3.7844461e-39
-0.009199068 -0.0035381168 0.74300009 1.0218437e-39
-0.007783819 -0.003538087 0.74300003 1.0239918e-39
-0.006368584 -0.0035381019 0.74300003 1.1169063e-39
-0.0049466603 -0.0035333335 0.74200004 7.4920843e-40
-0.0035333114 -0.0035333335 0.74200004 3.8114477e-40
-0.0021114128 -0.0035190657 0.73900002 3.7898677e-40
-0.00070379506 -0.0035190582 0.73900002 3.7719171e-40
0.00070476328 -0.0035238191 0.74000001 5.6122003e-40
0.0021142641 -0.0035238117 0.74000001 8.3780412e-40
0.0035238059 -0.0035238117 0.74000001 8.3923905e-40
0.0049333237 -0.0035238117 0.74000001 8.3923905e-40
0.0063600093 -0.0035333261 0.74200004 9.3143188e-40
0.0077733574 -0.0035333335 0.74200004 1.0239876e-39
0.0091866832 -0.003533341 0.74199998 8.3996072e-40
0.010599993 -0.0035333484 0.74200004 6.5665547e-40
0.012013343 -0.0035333335 0.74200004 6.5666107e-40
0.013426692 -0.003533341 0.74200004 6.5665827e-40
0.01486 -0.0035381019 0.74300003 4.7154954e-40
0.016275235 -0.0035381019 0.74300003 2.8788976e-40
0.017690469 -0.0035381094 0.74300003 2.2185974e-39
0.019157151 -0.0035476163 0.74500006 4.2411223e-39
0.020576231 -0.0035476163 0.74500006 7.4743691e-39
0.021995272 -0.0035476312 0.74500006 1.0682524e-38
0.023477139 -0.003557153 0.74700004 7.8345588e-39
0.024933334 -0.003561914 0.74800003 5.0661494e-39
0.026358111 -0.003561914 0.74800003 4.6987345e-39
0.027857158 -0.0035714433 0.75000006 4.333182e-39
0.0293638 -0.0035809651 0.75200003 4.7937888e-39
0.030796189 -0.0035809726 0.75200009 5.3462143e-39
-0.025199974 -0.0021599978 0.75600004 4.433721e-39
-0.023728538 -0.0021571442 0.75500005 4.5259194e-39
-0.022290478 -0.0021571591 0.75500011 4.8039412e-39
-0.020769525 -0.0021485761 0.75200009 4.9879807e-39
-0.01933712 -0.0021485761 0.75200003 5.7237493e-39
-0.017809484 -0.0021371469 0.74799997 6.3680383e-39
-0.016362855 -0.0021342859 0.74700004 6.3701949e-39
-0.014940006 -0.0021343008 0.74700004 6.3694747e-39
-0.013480904 -0.0021285713 0.74500006 5.9110118e-39
-0.012061885 -0.0021285713 0.74500006 5.4468107e-39
-0.010614291 -0.0021228716 0.74300003 3.504632e-39
-0.0092237862 -0.0021285638 0.745 1.5746461e-39
-0.007804743 -0.0021285713 0.74500006 1.2998501e-39
-0.0063685756 -0.0021228641 0.74300003 9.3251789e-40
-0.0049533416 -0.0021228567 0.74300003 6.5666107e-40
-0.0035381077 -0.0021228641 0.74300009 3.8042871e-40
-0.0021142981 -0.0021142885 0.74000001 4.7082227e-40
-0.0007047953 -0.002114296 0.74000001 4.70102e-40
0.00070667622 -0.0021199957 0.74200004 6.5377019e-40
0.0021200252 -0.0021199957 0.74200004 8.3744259e-40
0.0035333724 -0.0021200031 0.74200004 8.3816285e-40
0.0049333312 -0.002114296 0.74000001 8.3852159e-40
0.0063600102 -0.0021199957 0.74200004 1.1129519e-39
0.0077733593 -0.0021200031 0.74200004 1.3898947e-39
0.0091990419 -0.0021228716 0.74300003 1.0225555e-39
0.010614254 -0.0021228716 0.74300003 6.5629253e-40
0.012029526 -0.0021228567 0.74300003 6.5665266e-40
0.013444759 -0.0021228641 0.74300003 6.5592539e-40
0.014859993 -0.0021228716 0.74300003 5.6300389e-40
0.016275205 -0.002122879 0.74300003 4.6831675e-40
0.017690476 -0.0021228567 0.74300003 1.3845375e-39
0.019157138 -0.0021285787 0.74500006 2.2329509e-39
0.020576218 -0.0021285713 0.74500006 8.1341116e-39
0.021995261 -0.0021285862 0.74500006 1.4005123e-38
0.023477148 -0.0021342933 0.74700004 1.1618472e-38
0.024933353 -0.0021371543 0.74799997 9.210938e-39
0.026358126 -0.0021371618 0.74800003 6.7187441e-39
0.027857177 -0.0021428764 0.75000006 4.149504e-39
0.029363815 -0.0021485612 0.75200003 4.7945063e-39
0.030796204 -0.0021485761 0.75200003 5.4373407e-39
-0.025199963 -0.00072000176 0.75600004 3.6032512e-39
-0.023728557 -0.00071904808 0.75500005 3.6976035e-39
-0.022231422 -0.00071713328 0.75300002 3.5146555e-39
-0.020797109 -0.00071714073 0.75300002 3.3345831e-39
-0.019337144 -0.00071620196 0.75200003 4.6217262e-39
-0.017857118 -0.00071427971 0.75000006 6.0006963e-39
-0.016384756 -0.00071238726 0.74799997 6.092892e-39
-0.014939998 -0.00071144849 0.74700004 6.1847233e-39
-0.013480916 -0.00070953369 0.74500006 6.0932423e-39
-0.012061897 -0.00070953369 0.74500006 6.0921661e-39
-0.010642854 -0.00070954114 0.74500006 3.508934e-39
-0.0091990475 -0.00070763379 0.74300003 9.3143328e-40
-0.0078047551 -0.00070952624 0.74500006 9.3142487e-40
-0.0063856738 -0.00070952624 0.74500006 9.3179902e-40
-0.0049533322 -0.00070761889 0.74300003 6.5630794e-40
-0.0035333096 -0.00070665777 0.74200004 3.8079025e-40
-0.0021142925 -0.00070477277 0.74000001 3.7862664e-40
-0.00070477295 -0.00070475042 0.74000001 3.782637e-40
0.00070472975 -0.00070477277 0.74000001 6.5340726e-40
0.0021200252 -0.00070666522 0.74200004 8.3672372e-40
0.0035238115 -0.00070477277 0.74000001 9.2999835e-40
0.0049466612 -0.00070667267 0.74200004 1.0225513e-39
0.0063600121 -0.00070665777 0.74200004 1.0221926e-39
0.0077733602 -0.00070666522 0.74200004 1.1140309e-39
0.0091866702 -0.00070667267 0.74200004 9.3143748e-40
0.010599996 -0.00070667267 0.74200004 6.5664706e-40
0.012013345 -0.00070665777 0.74200004 7.4847975e-40
0.013444769 -0.00070762634 0.74300003 7.4774547e-40
0.014860004 -0.00070763379 0.74300003 5.6011161e-40
0.016275214 -0.00070762634 0.74300003 2.8032555e-40
0.017690448 -0.00070763379 0.74300003 3.6029303e-39
0.01915719 -0.00070953369 0.74500006 6.9266197e-39
0.02063144 -0.00071144104 0.74700004 1.0057668e-38
0.022054268 -0.00071144849 0.74700004 1.3279067e-38
0.023477156 -0.00071144104 0.74700004 1.1247189e-38
0.024933333 -0.00071239471 0.74800003 9.1237618e-39
0.02642859 -0.00071429461 0.75000006 6.3553341e-39
0.027857171 -0.00071430206 0.75000006 3.5981253e-39
0.029363789 -0.00071620196 0.75200003 4.2416996e-39
0.030960055 -0.00072000921 0.75600004 4.8863362e-39
0.032400038 -0.00072000176 0.75600004 4.7927014e-39
-0.023759969 0.00071998686 0.75600004 2.865703e-39
-0.022290472 0.00071904063 0.75500005 2.2225028e-39
-0.020797126 0.00071714073 0.75300002 1.5846822e-39
-0.019337131 0.00071619451 0.75200003 3.6115245e-39
-0.017857123 0.00071428716 0.75000006 5.5407944e-39
-0.016384715 0.00071237981 0.74799997 5.8163079e-39
-0.014939992 0.00071141869 0.74700004 6.0003334e-39
-0.013480925 0.00070951134 0.74500006 6.36839e-39
-0.012061906 0.00070951134 0.74500006 6.6406679e-39
-0.010642825 0.00070952624 0.74500006 3.5067816e-39
-0.0092237834 0.00070951134 0.74500006 2.8930507e-40
-0.0078047644 0.00070951134 0.74500006 6.5413173e-40
-0.0063685933 0.00070761144 0.74300003 9.3143889e-40
-0.0049533602 0.00070760399 0.74300003 6.559408e-40
-0.0035380891 0.00070762634 0.74300003 3.7934551e-40
-0.0021143092 0.00070475787 0.74000001 3.7646304e-40
-0.00070476922 0.00070475787 0.74000001 2.8498767e-40
0.00070473348 0.00070475042 0.74000007 5.6049556e-40
0.002114251 0.00070476532 0.74000001 8.3708526e-40
0.0035237928 0.00070476532 0.74000001 1.0218395e-39
0.0049466835 0.00070666522 0.74200004 1.1147497e-39
0.0063600112 0.00070668012 0.74200004 1.0225541e-39
0.0077733602 0.00070666522 0.74200004 8.3924185e-40
0.0091866702 0.00070665777 0.74200004 7.4812522e-40
0.010600018 0.00070665032 0.74200004 6.5628833e-40
0.012013344 0.00070667267 0.74200004 7.4848115e-40
0.013444741 0.00070761889 0.74300003 8.3850898e-40
0.014859975 0.00070761144 0.74300009 4.6613072e-40
0.016275225 0.00070761144 0.74300003 1.0384322e-40
0.017690459 0.00070759654 0.74300003 5.8195575e-39
0.019157179 0.00070951134 0.74500006 1.1521619e-38
0.020631447 0.00071142614 0.74700004 1.2074075e-38
0.0220543 0.00071141124 0.74700004 1.2531092e-38
0.023508595 0.00071237236 0.74800003 1.0782982e-38
0.024933346 0.00071237236 0.74799997 9.0301271e-39
0.026428586 0.00071427226 0.75000006 5.9808147e-39
0.027931435 0.00071618706 0.75200003 2.9506049e-39
0.029402891 0.00071714073 0.75299996 3.6878028e-39
0.030960066 0.00071998686 0.75600004 4.3295708e-39
0.032400049 0.00071999431 0.75600004 4.2370137e-39
-0.023759957 0.0021599904 0.75600004 3.0472216e-39
-0.02229047 0.0021571368 0.75500005 2.9543183e-39
-0.020797102 0.0021514222 0.75299996 2.8631989e-39
-0.019337153 0.0021485612 0.75200003 4.2507744e-39
-0.017857127 0.002142854 0.75000006 5.6322641e-39
-0.016384738 0.0021371394 0.74800003 5.9996173e-39
-0.014939983 0.0021342784 0.74700004 6.3669579e-39
-0.013517135 0.002134271 0.74700004 6.644614e-39
-0.012061856 0.0021285638 0.74500006 7.0130322e-39
-0.010642837 0.0021285713 0.74500006 3.69404e-39
-0.0092237936 0.0021285564 0.74500006 3.8042731e-40
-0.0078047365 0.0021285638 0.745 5.640955e-40
-0.0063685607 0.0021228418 0.74300003 8.4103832e-40
-0.004953349 0.0021228567 0.74300003 7.4812663e-40
-0.0035381152 0.0021228567 0.74300003 5.6264796e-40
-0.002114326 0.0021142736 0.74000001 4.6900479e-40
-0.00070478412 0.0021142736 0.74000001 4.6721813e-40
0.00070475583 0.0021142885 0.74000001 5.6049416e-40
0.0021142566 0.0021142736 0.74000007 7.4525256e-40
0.0035237761 0.0021142811 0.74000001 8.385328e-40
0.0049466863 0.0021199957 0.74200004 1.0239946e-39
0.0063600363 0.0021200031 0.74200004 7.4705043e-40
0.007773323 0.0021199957 0.74200004 5.6337803e-40
0.0091866711 0.0021199957 0.74200004 5.6373537e-40
0.01061427 0.0021228567 0.74300003 5.6337663e-40
0.012029542 0.0021228567 0.74300003 5.6445283e-40
0.013444752 0.0021228567 0.74300003 5.6515908e-40
0.014859986 0.0021228418 0.74300003 3.7430223e-40
0.01627522 0.0021228492 0.74300009 9.3811327e-41
0.017690469 0.0021228492 0.74300003 6.1872778e-39
0.019157169 0.0021285638 0.74500006 1.235782e-38
0.020631418 0.002134271 0.74700004 1.2161578e-38
0.022054305 0.0021342784 0.74700004 1.2059701e-38
0.023508614 0.0021371394 0.74799997 1.0504597e-38
0.025000025 0.0021428466 0.75000006 8.9465382e-39
0.026499044 0.0021485612 0.75200003 7.5495487e-39
0.027931448 0.0021485761 0.75200003 6.0661874e-39
0.029480977 0.0021571368 0.75500005 6.8094782e-39
0.031041918 0.0021657124 0.75800002 7.4451492e-39
0.032485709 0.002165705 0.75800002 7.4530385e-39
-0.025266649 0.0036095157 0.75800002 2.4040116e-39
-0.023759983 0.0035999939 0.75600004 3.2287346e-39
-0.022319961 0.0035999939 0.75600004 3.6843233e-39
-0.020852368 0.003595233 0.75500005 4.0581281e-39
-0.01933714 0.0035809502 0.75200003 4.8957739e-39
-0.017857131 0.0035714135 0.75000006 5.7237409e-39
-0.016384721 0.0035619065 0.74799997 6.2751252e-39
-0.014940015 0.0035571307 0.74700004 6.735023e-39
-0.013517126 0.0035571307 0.74700004 7.0130434e-39
-0.012061865 0.0035476238 0.74500006 7.2845954e-39
-0.010642846 0.0035476238 0.74500006 3.8751956e-39
-0.0092238048 0.0035476089 0.74500006 3.8113777e-40
-0.0078047477 0.0035476163 0.74500006 5.6408709e-40
-0.0063685896 0.003538087 0.74300003 7.4884129e-40
-0.0049533397 0.003538087 0.74300003 7.4956716e-40
-0.0035381077 0.0035380796 0.74300003 7.4668469e-40
-0.0021199959 0.0035333261 0.74200004 6.5340305e-40
-0.00070664863 0.0035333261 0.74200004 5.6013403e-40
0.00070474093 0.0035238042 0.74000001 5.6121163e-40
0.002114279 0.0035237968 0.74000001 5.619347e-40
0.0035237817 0.0035237893 0.74000007 7.4597143e-40
0.0049466863 0.0035333335 0.74200004 8.3852299e-40
0.0063600373 0.003533341 0.74200004 5.6229903e-40
0.0077733239 0.0035333335 0.74200004 2.8750721e-40
0.009186673 0.0035333335 0.74200004 3.8005737e-40
0.010614277 0.0035380945 0.74300003 4.7261173e-40
0.012029512 0.0035380796 0.74300003 3.8113777e-40
0.013444722 0.0035380796 0.74300003 2.8713867e-40
0.014859995 0.0035380945 0.74300003 1.8775998e-40
0.016319057 0.0035476089 0.74500006 1.0816903e-40
0.017738115 0.0035476089 0.74500006 6.6615403e-39
0.019208597 0.0035571307 0.74700004 1.3086059e-38
0.020631423 0.0035571381 0.74700004 1.2337724e-38
0.022083841 0.0035618916 0.74800003 1.1603396e-38
0.02350859 0.0035618991 0.74800003 1.0229448e-38
0.025000021 0.0035714209 0.75000006 8.8475379e-39
0.026499059 0.0035809427 0.75200003 9.0207327e-39
0.02796861 0.0035857186 0.75300002 9.2101463e-39
0.029480979 0.0035952404 0.75500005 9.9462694e-39
0.031041911 0.0036095157 0.75800002 1.0591995e-38
0.032485738 0.0036095157 0.75799996 1.0683839e-38
-0.025333317 0.0050666705 0.76000005 4.520537e-39
-0.023822829 0.005053319 0.75800002 5.3398692e-39
-0.02231995 0.0050399974 0.75599998 5.0679374e-39
-0.020852366 0.0050333291 0.75500005 4.7888576e-39
-0.019362843 0.0050199851 0.75300002 5.4442743e-39
-0.017904758 0.0050133318 0.75200003 6.1832771e-39
-0.016384743 0.0049866587 0.74800003 6.4587976e-39
-0.014940008 0.0049799904 0.74700004 6.7343111e-39
-0.01351712 0.0049799904 0.74700004 6.644635e-39
-0.012061877 0.0049666613 0.74500006 6.5535016e-39
-0.010642856 0.0049666613 0.74500006 3.6918777e-39
-0.0092237769 0.0049666613 0.74500006 8.3672092e-40
-0.0078047365 0.0049666688 0.74500006 7.4738954e-40
-0.0063685793 0.0049533173 0.74300003 5.6481016e-40
-0.0049533453 0.0049533099 0.74300003 7.4813784e-40
-0.0035380966 0.0049533322 0.74300003 9.2964662e-40
-0.0021199735 0.004946664 0.74200004 7.4417076e-40
-0.00070664863 0.004946664 0.74199998 4.6686781e-40
0.00070472044 0.0049333274 0.74000001 5.6049276e-40
0.0021200122 0.004946664 0.74200004 6.5376599e-40
0.003533337 0.004946664 0.74200004 8.3779712e-40
0.0049466863 0.0049466714 0.74200004 1.0214709e-39
0.0063599981 0.004946664 0.74200004 7.4596582e-40
0.0077733463 0.004946664 0.74200004 4.711726e-40
0.009186672 0.004946664 0.74200004 5.6407868e-40
0.010600021 0.0049466565 0.74200004 7.4954894e-40
0.012029522 0.0049533173 0.74300003 6.5700019e-40
0.013444755 0.0049533248 0.74300003 6.5699038e-40
0.014859967 0.0049533248 0.74300003 3.7609169e-40
0.016319087 0.0049666613 0.74500006 1.0136012e-40
0.017738106 0.0049666539 0.74500006 6.5596771e-39
0.019234333 0.0049866587 0.74799997 1.2997824e-38
0.020659084 0.0049866512 0.74799997 1.1976846e-38
0.022083858 0.0049866661 0.74799997 1.1052027e-38
0.02357146 0.0049999878 0.75000006 9.9503513e-39
0.025000017 0.0049999878 0.75000006 8.7542772e-39
0.02653428 0.0050200075 0.75300002 1.0875043e-38
0.028042885 0.0050333366 0.75500005 1.3000901e-38
0.02952002 0.0050399974 0.75600004 1.3366816e-38
0.031123787 0.0050666481 0.76000005 1.3833187e-38
0.032571428 0.0050666556 0.76000005 1.4011136e-38
0.034019023 0.0050666481 0.76000005 1.4108695e-38
-0.026710458 0.0064971372 0.75800002 5.7219262e-39
-0.025333345 0.0065142661 0.76000011 6.5524002e-39
-0.023822838 0.0064971298 0.75800002 7.3739016e-39
-0.022319976 0.006479986 0.75600004 6.4587808e-39
-0.020852361 0.0064714253 0.75500005 5.4446443e-39
-0.019362856 0.006454289 0.75300002 6.0003222e-39
-0.017904781 0.0064457133 0.75200003 6.5506247e-39
-0.016428556 0.0064285621 0.75000006 6.6424686e-39
-0.014959976 0.0064114258 0.74799997 6.643549e-39
-0.01351715 0.0064028502 0.74700004 6.2772888e-39
-0.012061886 0.0063857064 0.74500006 5.8137982e-39
-0.010642845 0.0063856989 0.74500006 3.5943137e-39
-0.0092237862 0.0063856989 0.74500006 1.2973417e-39
-0.0078047458 0.0063857064 0.74500006 8.3994951e-40
-0.00636857 0.00636857 0.74300003 3.8078044e-40
-0.004953336 0.0063685626 0.74300003 7.477721e-40
-0.0035381245 0.0063685626 0.74300003 1.1125945e-39
-0.0021199717 0.0063600019 0.74200004 7.4273443e-40
-0.00070664677 0.0063600019 0.74199998 3.7538964e-40
0.00070666504 0.0063599944 0.74200004 5.6049416e-40
0.002120014 0.0063599944 0.74200004 6.5376319e-40
0.0035333612 0.006359987 0.74200004 9.3034447e-40
0.0049466882 0.0063599944 0.74199998 1.1136623e-39
0.0063599991 0.0063600019 0.74200004 9.2927948e-40
0.0077733481 0.0063600019 0.74200004 6.5484639e-40
0.0091866739 0.0063600019 0.74200004 8.3887331e-40
0.010614259 0.0063685626 0.74300003 9.3178781e-40
0.012029494 0.0063685551 0.74300009 1.0243436e-39
0.013444765 0.0063685626 0.74300003 1.02218e-39
0.014859978 0.0063685626 0.74300003 5.5761169e-40
0.01627521 0.00636857 0.74300003 1.0924943e-40
0.017738119 0.0063856989 0.74500006 6.4775218e-39
0.019208573 0.0064028427 0.74700004 1.2813438e-38
0.020659063 0.0064114258 0.74800003 1.1703146e-38
0.022083838 0.0064114258 0.74800003 1.050246e-38
0.023508586 0.0064114183 0.74800003 9.5812283e-39
0.025000013 0.0064285547 0.75000006 8.669657e-39
0.026534304 0.0064542964 0.75299996 1.2724379e-38
0.028042886 0.0064714178 0.75500005 1.6678678e-38
0.029520031 0.0064799935 0.75600004 1.6869873e-38
0.030960014 0.006479986 0.75600004 1.7050689e-38
0.032571435 0.0065142736 0.76000005 1.723545e-38
-0.026780935 0.0079619065 0.76000005 4.6216939e-39
-0.025366651 0.0079723597 0.76100004 4.6195513e-39
-0.023885699 0.0079618841 0.76000005 4.7164315e-39
-0.022379015 0.0079409406 0.75800002 4.7114317e-39
-0.020879982 0.007919997 0.75600004 4.7146491e-39
-0.019362833 0.0078885853 0.75300002 5.5400797e-39
-0.017904768 0.00787808 0.75200003 6.3666006e-39
-0.01642856 0.007857129 0.75000006 6.7350202e-39
-0.014959997 0.0078361779 0.74800003 7.1038013e-39
-0.01351714 0.0078257024 0.74700004 6.8293738e-39
-0.012094254 0.0078257024 0.74700004 6.554226e-39
-0.010642817 0.0078047514 0.74500006 3.69154e-39
-0.0092237992 0.0078047588 0.74500006 8.3673773e-40
-0.0078047561 0.0078047514 0.74500006 6.5484919e-40
-0.0063856989 0.0078047663 0.74500006 5.640913e-40
-0.0049666557 0.0078047514 0.74500006 6.5449326e-40
-0.0035475756 0.0078047663 0.74500006 8.3600766e-40
-0.0021199717 0.0077733248 0.74200004 6.5089613e-40
-0.0007066598 0.0077733174 0.74200004 5.576257e-40
0.00070666691 0.0077733323 0.74200004 5.6013543e-40
0.002120014 0.0077733323 0.74200004 6.5411912e-40
0.0035333631 0.0077733323 0.74200004 8.388621e-40
0.0049466528 0.0077733174 0.74200004 1.1147357e-39
0.0063600009 0.0077733397 0.74200004 8.3852019e-40
0.00777335 0.0077733397 0.74200004 6.5520793e-40
0.0091990577 0.0077838078 0.74300003 7.4704202e-40
0.010614268 0.0077838004 0.74300003 9.3107315e-40
0.012029503 0.0077837929 0.74300003 8.4031525e-40
0.013444736 0.0077838004 0.74300009 7.4810981e-40
0.014860008 0.0077838078 0.74300003 3.7573436e-40
0.016362866 0.007825695 0.74700004 9.6692397e-41
0.017785732 0.0078257173 0.74699998 6.0039894e-39
0.019234328 0.0078361854 0.74799997 1.1901902e-38
0.020659078 0.0078361928 0.74799997 1.179858e-38
0.022142868 0.0078571364 0.75000006 1.160127e-38
0.023571452 0.007857129 0.75000006 1.0503899e-38
0.025066674 0.0078780949 0.75200003 9.4958584e-39
0.026534289 0.0078885779 0.75300002 1.2723012e-38
0.02808 0.007919997 0.75600004 1.6038392e-38
0.029598134 0.0079409406 0.75800002 1.6131278e-38
0.031164784 0.0079723671 0.76100004 1.6223483e-38
-0.026710462 0.0093847662 0.75799996 3.4184942e-39
-0.025333326 0.0094095096 0.76000005 2.7709962e-39
-0.023822855 0.0093847439 0.75800002 2.0413457e-39
-0.022379024 0.0093847439 0.75800002 2.9550484e-39
-0.020879969 0.009359993 0.75600004 3.8798605e-39
-0.019414257 0.0093476102 0.75500005 5.0791016e-39
-0.017904755 0.0093104765 0.75200003 6.1832869e-39
-0.016428564 0.0092857033 0.75000006 6.918694e-39
-0.014959959 0.009260945 0.74800003 7.5633459e-39
-0.013535208 0.0092609599 0.74799997 7.3818371e-39
-0.012094283 0.0092485622 0.74700004 7.1927725e-39
-0.010671419 0.0092485622 0.74700004 3.7801399e-39
-0.0092485696 0.0092485547 0.74700004 2.8715268e-40
-0.0078257024 0.0092485696 0.74700004 4.7081526e-40
-0.0063856859 0.0092237964 0.74500006 6.5448906e-40
-0.0049666669 0.009223789 0.74500006 5.619403e-40
-0.0035475886 0.0092238113 0.74500006 4.6866147e-40
-0.0021228718 0.0091990456 0.74300003 5.5905363e-40
-0.00070763769 0.0091990381 0.74300003 6.5053319e-40
0.00070666504 0.0091866702 0.74200004 6.5232966e-40
0.002120014 0.0091866702 0.74200004 5.6192349e-40
0.0035333631 0.0091866627 0.74199998 8.3921943e-40
0.0049533136 0.0091990307 0.74300003 1.1147287e-39
0.0063685849 0.0091990456 0.74300003 8.3886771e-40
0.0077837966 0.0091990456 0.74300003 5.6300669e-40
0.0091990298 0.0091990381 0.74300003 7.4668189e-40
0.010614265 0.0091990307 0.74300009 8.3959778e-40
0.012029514 0.0091990456 0.74300003 6.5700719e-40
0.013444746 0.0091990381 0.74300003 3.8005597e-40
0.014859981 0.0091990307 0.74300009 2.8390587e-40
0.016362876 0.0092485622 0.74700004 1.0493904e-40
0.017785724 0.0092485622 0.74700004 5.5397756e-39
0.019234307 0.0092609525 0.74800003 1.0972435e-38
0.020659056 0.0092609525 0.74799997 1.1895827e-38
0.022142867 0.0092857033 0.75000006 1.2717661e-38
0.023571448 0.0092856959 0.75000006 1.1520188e-38
0.025100019 0.0093228668 0.75300002 1.023556e-38
0.026604794 0.0093476176 0.75500005 1.2816274e-38
0.028080011 0.009359993 0.75600004 1.5391596e-38
0.029598124 0.0093847513 0.75800002 1.5392654e-38
0.031164765 0.0094218999 0.76100004 1.539302e-38
-0.026710469 0.01082857 0.75800002 3.8755081e-39
-0.025333317 0.010857128 0.76000005 3.4167062e-39
-0.023822825 0.010828562 0.75800002 2.8649771e-39
-0.022379033 0.010828555 0.75800002 3.3220022e-39
-0.020879958 0.010799997 0.75600004 3.8719502e-39
-0.019414255 0.010785706 0.75500005 4.8936299e-39
-0.017904777 0.010742851 0.75200003 6.0006893e-39
-0.016428567 0.01071427 0.75000006 6.459878e-39
-0.015000008 0.01071427 0.75000006 7.011984e-39
-0.013535229 0.010685712 0.74800003 7.0134344e-39
-0.01211048 0.010685705 0.74800003 7.1063222e-39
-0.010671412 0.010671422 0.74699998 3.6918834e-39
-0.0092485612 0.010671414 0.74700004 2.8499468e-40
-0.0078256959 0.010671414 0.74699998 4.7045233e-40
-0.006385698 0.010642841 0.74500006 7.4560569e-40
-0.004966639 0.010642841 0.745 5.6158017e-40
-0.0035475979 0.010642849 0.74500006 4.679398e-40
-0.0021228774 0.010614276 0.74300009 5.5904522e-40
-0.00070762838 0.010614283 0.74300003 5.576173e-40
0.00070760754 0.010614276 0.74300003 5.597753e-40
0.0021228397 0.010614268 0.74300003 5.6048716e-40
0.0035380886 0.010614276 0.74300003 8.3814043e-40
0.0049533248 0.010614283 0.74300003 1.0228862e-39
0.006368557 0.010614276 0.74300003 8.388551e-40
0.007783806 0.010614283 0.74300003 5.6264095e-40
0.0091990409 0.010614291 0.74300003 6.5556245e-40
0.010614273 0.010614283 0.74300003 7.4848115e-40
0.012061927 0.010642856 0.74500006 5.651745e-40
0.013480984 0.010642856 0.74500006 3.814951e-40
0.014900026 0.010642849 0.74500006 2.8606387e-40
0.016362879 0.010671429 0.74699998 2.8430104e-40
0.017785732 0.010671414 0.74700004 3.421088e-39
0.019234322 0.010685712 0.74799997 6.4703513e-39
0.020659072 0.010685712 0.74799997 7.5745675e-39
0.022142859 0.01071427 0.75000006 8.782023e-39
0.023571441 0.01071427 0.75000006 7.7499106e-39
0.025100006 0.010757141 0.75300002 6.7418613e-39
0.026604798 0.010785714 0.75500005 1.1159638e-38
0.028080022 0.010799997 0.75600004 1.5573472e-38
0.029598095 0.010828562 0.75800002 1.5575254e-38
0.031164784 0.010871425 0.76100004 1.5483066e-38
-0.026710477 0.012272358 0.75800002 4.3382799e-39
-0.025333308 0.012304746 0.76000005 4.0631434e-39
-0.023822855 0.012272373 0.75800002 3.6925686e-39
-0.022379041 0.012272358 0.75800002 3.7800937e-39
-0.020879984 0.012239985 0.75600004 3.7844125e-39
-0.019414254 0.01222381 0.75500005 4.8057377e-39
-0.017904764 0.012175247 0.75200003 5.8162995e-39
-0.016428571 0.012142837 0.75000006 6.0918186e-39
-0.014999975 0.012142852 0.75 6.3684139e-39
-0.013535213 0.012110472 0.74799997 6.7364873e-39
-0.01211044 0.012110464 0.74800003 7.0080239e-39
-0.010685689 0.012110464 0.74799997 3.687573e-39
-0.0092485528 0.012094282 0.74700004 2.8786454e-40
-0.0078257266 0.012094274 0.74700004 5.6408569e-40
-0.006402839 0.012094289 0.74700004 7.4668609e-40
-0.0049666502 0.012061901 0.74500006 6.537814e-40
-0.0035571235 0.012094274 0.74700004 4.69023e-40
-0.0021228681 0.012029514 0.74300003 4.6757686e-40
-0.00070765818 0.012029514 0.74300003 4.6722093e-40
0.00070761499 0.012029514 0.74300003 5.597781e-40
0.002122849 0.012029521 0.74300003 5.6120882e-40
0.0035380812 0.012029514 0.74300009 7.4631054e-40
0.0049533322 0.012029521 0.74300003 9.30699e-40
0.0063685654 0.012029514 0.74300003 7.4702941e-40
0.0077838004 0.012029521 0.74300003 5.6336402e-40
0.0091990102 0.012029521 0.74300003 5.6372976e-40
0.010642875 0.012061894 0.74500006 5.6445003e-40
0.012061915 0.012061894 0.74500006 4.733362e-40
0.013480973 0.012061901 0.74500006 2.8894354e-40
0.014900016 0.012061894 0.74500006 3.7862384e-40
0.01636285 0.012094274 0.74700004 4.7012022e-40
0.017785737 0.012094274 0.74700004 1.2066175e-39
0.019234302 0.012110464 0.74800003 1.9510012e-39
0.020659074 0.012110457 0.74800003 3.3339273e-39
0.022142857 0.012142844 0.75000006 4.7135785e-39
0.023571439 0.012142837 0.75000006 3.9559034e-39
0.025100028 0.01219143 0.75299996 3.2431231e-39
0.0266048 0.012223795 0.75500005 9.5073308e-39
0.028154293 0.012272373 0.75800002 1.5758586e-38
0.029598083 0.012272373 0.75800002 1.566817e-38
0.031164803 0.012320951 0.76100004 1.557598e-38
-0.026710484 0.013716176 0.75800002 4.5241117e-39
-0.025333323 0.013752379 0.76000005 4.2475332e-39
-0.023822865 0.013716184 0.75800002 4.0617e-39
-0.022379035 0.013716184 0.75799996 3.4156118e-39
-0.020879971 0.013680004 0.75600004 2.8635408e-39
-0.01941425 0.013661906 0.75500005 4.3429701e-39
-0.017904751 0.013607621 0.75200003 5.8162981e-39
-0.016472358 0.013607621 0.75200003 6.0925346e-39
-0.014999978 0.013571419 0.75000006 6.4591704e-39
-0.013535234 0.013535231 0.74800003 6.9201513e-39
-0.012110461 0.013535224 0.74800003 7.2874709e-39
-0.01068571 0.013535231 0.74800003 3.7837076e-39
-0.0092609376 0.013535231 0.74800003 2.8786314e-40
-0.007825695 0.013517126 0.74700004 5.6373116e-40
-0.0064028688 0.013517134 0.74700004 7.4705043e-40
-0.0049799811 0.013517134 0.74700004 6.5414574e-40
-0.0035571533 0.013517134 0.74700004 5.6158297e-40
-0.0021228569 0.013444752 0.74300003 6.5197373e-40
-0.00070762465 0.013444744 0.74300003 6.505388e-40
0.00070758705 0.013444759 0.74300003 7.4345049e-40
0.0021228602 0.013444759 0.74300003 8.3707825e-40
0.0035380924 0.013444752 0.74300003 9.2962841e-40
0.0049533043 0.013444759 0.74300003 1.0221842e-39
0.0063685765 0.013444766 0.74300003 8.3851458e-40
0.0077838087 0.013444752 0.74300003 6.5520512e-40
0.0091990214 0.013444752 0.74300003 7.4740215e-40
0.010642865 0.013480954 0.74500006 7.4740356e-40
0.012061944 0.013480954 0.74500006 6.5664426e-40
0.013480963 0.013480946 0.74500006 5.6552763e-40
0.014900005 0.013480932 0.74500006 4.7154114e-40
0.016362857 0.013517141 0.74700004 3.7828052e-40
0.017785747 0.013517134 0.74700004 1.8472981e-39
0.019234318 0.013535231 0.74799997 3.313785e-39
0.020659091 0.013535239 0.74799997 5.8148561e-39
0.022083841 0.013535239 0.74799997 8.2925928e-39
0.023508614 0.013535231 0.74799997 6.8160222e-39
0.025066677 0.013607614 0.75200003 5.4406982e-39
0.026604801 0.013661899 0.75500005 9.595593e-39
0.028154284 0.013716184 0.75800002 1.3744671e-38
0.029676205 0.013752364 0.76000005 1.3463404e-38
0.031164782 0.013770469 0.76100004 1.3187184e-38
0.032614283 0.013770469 0.76100004 1.3276513e-38
-0.025333351 0.015199982 0.76000005 4.5244817e-39
-0.023822835 0.015159994 0.75799996 4.3386513e-39
-0.022379044 0.015159987 0.75800002 3.1411955e-39
-0.020879984 0.01512 0.75600004 1.9502151e-39
-0.019439977 0.015119992 0.75600004 3.8859464e-39
-0.017928543 0.01506 0.75299996 5.7251772e-39
-0.016472384 0.015039988 0.75200003 6.1865183e-39
-0.014999982 0.014999993 0.75000006 6.553147e-39
-0.013571401 0.014999986 0.75000006 7.1052404e-39
-0.012110446 0.014959998 0.74800003 7.5590271e-39
-0.010685694 0.014959998 0.74799997 3.9641599e-39
-0.0092609217 0.014959991 0.74800003 2.8822748e-40
-0.0078256885 0.014939994 0.74700004 5.6337523e-40
-0.0064028613 0.014939986 0.74700004 7.4669029e-40
-0.0049799718 0.014939994 0.74700004 7.4633436e-40
-0.0035571458 0.014939994 0.74700004 6.5341707e-40
-0.002128551 0.014899991 0.74500006 7.4381203e-40
-0.00070761348 0.014859997 0.74300003 8.3457133e-40
0.00070759637 0.014859997 0.74300003 1.0178836e-39
0.0021228304 0.014859989 0.74300003 1.1118701e-39
0.0035381035 0.014860004 0.74300003 1.1129463e-39
0.0049666911 0.014899991 0.74500006 1.0218282e-39
0.0063685477 0.014859982 0.74300003 9.2963401e-40
0.0077837827 0.014859974 0.74300003 7.4668329e-40
0.0092238337 0.014899991 0.74500006 8.3888172e-40
0.010642891 0.014900006 0.745 9.3179482e-40
0.012061932 0.014899999 0.74500006 8.4067819e-40
0.013480974 0.014899991 0.74500006 7.4812102e-40
0.01494 0.014939979 0.74700004 5.6337103e-40
0.016362866 0.014940001 0.74700004 2.8427301e-40
0.017809546 0.014959991 0.74800003 2.489757e-39
0.019234296 0.014959998 0.74800003 4.6192248e-39
0.02065907 0.014959991 0.74800003 8.2270303e-39
