# .PCD v0.7 - Point Cloud Data file format
VERSION 0.7
FIELDS x y z rgb
SIZE 4 4 4 4
TYPE F F F F
COUNT 1 1 1 1
WIDTH 969
HEIGHT 1
VIEWPOINT 0 0 0 1 0 0 0
POINTS 969
DATA ascii
-0.0092857052 0.023571439 0.75000006 6.000716e-39
-0.0078571402 0.023571439 0.75000006 6.1840366e-39
-0.0064114276 0.023508564 0.74800009 6.2769525e-39
-0.0049800058 0.023477137 0.7470001 6.6446574e-39
-0.0035476242 0.023414284 0.74500012 7.013433e-39
-0.0021228469 0.023351431 0.74300003 7.1059845e-39
-0.00070761336 0.023351431 0.74300009 7.1981759e-39
0.00070763048 0.023351431 0.74300003 7.1988906e-39
0.0021228637 0.023351416 0.74300009 7.1059803e-39
0.003538107 0.023351438 0.74300009 7.106339e-39
0.004953336 0.023351431 0.74300003 7.0141462e-39
0.0063685691 0.023351423 0.74300009 7.1063432e-39
0.007773336 0.023319989 0.7420001 7.1981745e-39
0.0091990456 0.023351423 0.74300009 7.2914408e-39
0.010642845 0.023414269 0.74500012 7.379319e-39
0.012061901 0.023414284 0.74500012 4.1539447e-39
0.013480956 0.023414291 0.74500012 8.4354524e-40
0.014939999 0.02347713 0.7470001 6.5842391e-40
0.016362866 0.023477122 0.7470001 3.8292723e-40
0.017785719 0.023477137 0.7470001 1.0272218e-39
0.019208577 0.023477122 0.7470001 1.5782376e-39
0.02065905 0.023508571 0.74800009 1.7615527e-39
0.022142859 0.023571432 0.75000006 1.9455782e-39
0.023571426 0.023571424 0.75000006 1.2101726e-39
0.025066683 0.023634285 0.75200003 3.8256709e-40
0.026499061 0.0236343 0.75200009 3.5964395e-39
0.027968576 0.023665711 0.75300002 6.7371768e-39
0.029402865 0.023665726 0.75300002 9.1360568e-39
0.03096001 0.023760006 0.75600004 1.1432303e-38
0.032399993 0.023759998 0.75600004 1.078838e-38
0.033840008 0.023759998 0.75600004 1.0144456e-38
0.035280008 0.023759991 0.75600004 1.0144815e-38
-0.024137149 0.025600001 0.76800007 1.2065558e-39
-0.022526667 0.025433332 0.76300007 9.2924585e-40
-0.021018101 0.025366656 0.76100004 7.4414133e-40
-0.019491425 0.02526667 0.75800002 5.5939414e-40
-0.017904757 0.025066681 0.75200003 3.7537283e-40
-0.016472371 0.025066681 0.75200003 5.5725716e-40
-0.014999996 0.024999999 0.75000006 8.3277346e-40
-0.013571431 0.024999999 0.75000012 3.5128717e-39
-0.012142848 0.025000013 0.75000006 6.1832869e-39
-0.010714281 0.025000006 0.75000006 6.0925374e-39
-0.0092857163 0.024999999 0.75000006 6.0925472e-39
-0.0078571336 0.024999999 0.75000006 6.5517331e-39
-0.0064028627 0.024899989 0.7470001 7.0109134e-39
-0.004980003 0.024899989 0.7470001 6.9205157e-39
-0.0035476205 0.024833314 0.74500012 6.9212331e-39
-0.0021228595 0.024766676 0.74300009 6.829755e-39
-0.00070761709 0.024766669 0.74300009 6.7379195e-39
0.00070763374 0.024766669 0.74300003 6.3694999e-39
0.0021228669 0.024766676 0.74300009 6.0947193e-39
0.0035380961 0.024766676 0.74300003 6.4624284e-39
0.0049533295 0.024766669 0.74300009 6.8304822e-39
0.0063685728 0.024766669 0.74300009 6.9219534e-39
0.007783806 0.024766669 0.74300009 7.1049083e-39
0.0091990493 0.024766669 0.74300009 7.0145077e-39
0.010614293 0.024766669 0.74300003 7.015207e-39
0.012029527 0.024766669 0.74300009 4.7085394e-39
0.013480952 0.024833329 0.74500012 2.4011684e-39
0.014940012 0.024899997 0.7470001 1.5757209e-39
0.016362853 0.024899989 0.7470001 6.5844493e-40
0.017785721 0.024899982 0.7470001 1.1179825e-39
0.019234287 0.024933323 0.74800009 1.6700759e-39
0.020659054 0.024933316 0.74800009 1.9466614e-39
0.022142867 0.025000006 0.75000006 2.2221651e-39
0.023571432 0.025000006 0.75000006 1.3027297e-39
0.025066679 0.025066681 0.75200003 3.8292863e-40
0.026534291 0.0251 0.75300002 3.2337639e-39
0.028042862 0.025166668 0.75500005 6.0982758e-39
0.029480962 0.025166661 0.75500005 8.8591126e-39
0.030919047 0.025166661 0.75500005 1.1614169e-38
0.032400001 0.025200002 0.75600004 1.0511057e-38
0.033840001 0.025200002 0.7560001 9.4086822e-39
0.035280015 0.025200002 0.75600004 9.7771088e-39
-0.02413715 0.027062848 0.76800007 1.2980298e-39
-0.022526667 0.026886664 0.76300007 1.0218002e-39
-0.021018101 0.026816182 0.7610001 7.448574e-40
-0.019414287 0.026604772 0.75500005 5.6046614e-40
-0.017928561 0.026534289 0.75300002 2.8388765e-40
-0.016472371 0.026499055 0.75200003 8.3203498e-40
-0.015039993 0.026499048 0.75200003 1.2969718e-39
-0.01357143 0.026428573 0.75000006 3.4267857e-39
-0.012142847 0.026428573 0.75000006 5.5404455e-39
-0.010714282 0.026428565 0.75000006 5.8173953e-39
-0.0092857089 0.026428573 0.75000006 6.0925486e-39
-0.007836191 0.02635809 0.74800009 6.9197926e-39
-0.00641143 0.026358098 0.74800009 7.7470323e-39
-0.0049800007 0.026322834 0.7470001 7.2889338e-39
-0.0035571414 0.026322849 0.7470001 6.7375621e-39
-0.0021228567 0.026181914 0.74300009 6.4613396e-39
-0.00070761336 0.026181914 0.74300009 6.1847499e-39
0.00070761325 0.026181906 0.74300009 5.6305027e-39
0.0021228567 0.026181899 0.74300009 4.9905325e-39
0.0035380998 0.026181921 0.74300003 5.8174205e-39
0.0049533332 0.026181906 0.74300009 6.5538953e-39
0.0063685765 0.026181906 0.74300003 6.8290403e-39
0.0077838097 0.026181914 0.74300009 7.01307e-39
0.009199053 0.026181906 0.74300009 6.829399e-39
0.010642861 0.026252382 0.74500012 6.5538785e-39
0.012061906 0.026252374 0.74500012 5.2642215e-39
0.013480946 0.026252374 0.74500012 3.9709814e-39
0.014939997 0.026322849 0.7470001 2.4929954e-39
0.016362866 0.026322842 0.7470001 9.3286541e-40
0.017785707 0.026322834 0.7470001 1.2998459e-39
0.01923429 0.02635809 0.74800009 1.6704262e-39
0.020659054 0.02635809 0.74800009 2.0402892e-39
0.022142874 0.02642858 0.75000006 2.4072668e-39
0.023634288 0.026499063 0.75200003 1.395996e-39
0.025100013 0.026534297 0.75300002 3.8112936e-40
0.026534293 0.026534282 0.75300008 2.9496394e-39
0.028042855 0.026604757 0.75500011 5.450789e-39
0.029480955 0.026604742 0.75500011 8.6794479e-39
0.030959999 0.026639998 0.75600004 1.1806101e-38
0.032399997 0.026639983 0.7560001 1.023336e-38
0.033840008 0.026639998 0.75600004 8.6725451e-39
0.035279997 0.026639998 0.7560001 9.4097696e-39
-0.024137145 0.028525718 0.76800007 1.2061915e-39
-0.022526663 0.028340012 0.76300001 1.0218016e-39
-0.020935232 0.028154284 0.75800002 9.2888572e-40
-0.019440003 0.028079994 0.7560001 7.4520912e-40
-0.017928561 0.027968578 0.75300002 5.6189686e-40
-0.01649428 0.027968578 0.75300002 7.4126307e-40
-0.015039995 0.027931444 0.75200003 9.2245376e-40
-0.013607617 0.027931437 0.75200009 3.3292203e-39
-0.012142859 0.027857155 0.75000006 5.7244822e-39
-0.010714276 0.027857155 0.75000006 5.816682e-39
-0.0092857098 0.027857147 0.75000006 5.9999985e-39
-0.0078361928 0.02778285 0.74800014 6.5528093e-39
-0.0064114216 0.02778285 0.74800009 7.1963781e-39
-0.004979996 0.027745709 0.7470001 7.0134259e-39
-0.0035571465 0.027745701 0.7470001 6.8290403e-39
-0.0021285741 0.027671427 0.74500012 6.8290417e-39
-0.00070760964 0.027597152 0.74300003 6.8272368e-39
0.00070761651 0.027597144 0.74300009 6.2762126e-39
0.0021228599 0.027597144 0.74300003 5.817045e-39
0.0035380935 0.027597129 0.74300009 6.186189e-39
0.0049533369 0.027597144 0.74300009 6.6464427e-39
0.00636857 0.027597129 0.74300009 7.1974557e-39
0.0078047607 0.027671419 0.74500012 7.7477512e-39
0.0092238011 0.027671427 0.74500012 7.381484e-39
0.010642856 0.027671419 0.74500012 7.0144909e-39
0.012061901 0.027671412 0.74500012 6.186168e-39
0.013480958 0.027671434 0.74500012 5.4500365e-39
0.014939999 0.027745686 0.7470001 2.957191e-39
0.016362851 0.027745709 0.7470001 5.6551501e-40
0.017785719 0.027745709 0.7470001 7.4953633e-40
0.01923429 0.027782857 0.74800009 1.0279281e-39
0.020659044 0.02778285 0.74800009 1.5796739e-39
0.022142855 0.027857132 0.75000012 2.1331924e-39
0.0236343 0.027931444 0.75200003 1.2105271e-39
0.025100017 0.027968585 0.75300002 2.8605827e-40
0.026604772 0.028042845 0.75500005 4.0548855e-39
0.028042858 0.02804286 0.75500005 7.8410482e-39
0.029519996 0.028079994 0.75600004 1.0525544e-38
0.031041918 0.028154291 0.75800002 1.3299874e-38
0.032485723 0.028154291 0.75800002 1.1809234e-38
0.033840001 0.028080001 0.75600004 1.0414174e-38
0.035373345 0.028154299 0.75800002 1.023414e-38
-0.022438094 0.029676199 0.76000005 1.114356e-39
-0.02093523 0.029598109 0.75800002 1.1132714e-39
-0.019439997 0.029520005 0.75600004 1.0210687e-39
-0.017928565 0.029402867 0.75300002 8.3560689e-40
-0.016494276 0.029402867 0.75300002 6.4834997e-40
-0.015039997 0.029363826 0.75200003 4.7116979e-40
-0.013607609 0.029363826 0.75200003 3.2424099e-39
-0.012142852 0.029285714 0.75000006 5.9070784e-39
-0.010714287 0.029285707 0.75000006 5.9081602e-39
-0.0092857108 0.029285721 0.75000006 5.8174037e-39
-0.0078361928 0.029207624 0.74800009 6.278379e-39
-0.0064114314 0.029207617 0.74800009 6.6464427e-39
-0.0049800011 0.029168561 0.7470001 6.7386411e-39
-0.0035571419 0.029168554 0.7470001 6.8301179e-39
-0.0021285717 0.029090479 0.74500012 7.1059845e-39
-0.00070761662 0.029012382 0.74300009 7.3811323e-39
0.00070762023 0.029012382 0.74300009 7.0130742e-39
0.0021228637 0.029012382 0.74300003 6.6464469e-39
0.003538097 0.029012389 0.74300009 6.6475189e-39
0.0049666548 0.029090464 0.74500012 6.6464469e-39
0.0063857106 0.029090472 0.74500012 7.5662396e-39
0.0078047658 0.029090472 0.74500006 8.3927591e-39
0.0092238113 0.029090479 0.74500012 7.9346564e-39
0.010671435 0.029168561 0.7470001 7.4736782e-39
0.012094278 0.029168554 0.7470001 7.1988808e-39
0.013517145 0.029168561 0.7470001 6.8236243e-39
0.014939997 0.029168561 0.7470001 3.5042523e-39
0.016362853 0.029168554 0.7470001 1.0346487e-40
0.017785722 0.029168546 0.7470001 1.9637376e-40
0.019234281 0.029207617 0.74800009 2.9037427e-40
0.020659046 0.029207624 0.74800009 1.0257869e-39
0.022142863 0.029285714 0.75000006 1.7651302e-39
0.023665715 0.029402852 0.75300002 9.3466047e-40
0.025100002 0.029402867 0.75300002 9.9521618e-41
0.026604764 0.029480956 0.75500011 5.1432909e-39
0.028042849 0.029480949 0.75500011 1.0231647e-38
0.029520001 0.029519998 0.75600004 1.2464851e-38
0.031041918 0.029598102 0.75800002 1.4674943e-38
0.032485712 0.029598102 0.75800008 1.3473849e-38
0.033839997 0.029519998 0.75600004 1.2169498e-38
0.035373345 0.029598102 0.75800002 1.1058864e-38
-0.022438096 0.031123817 0.76000011 1.1139986e-39
-0.020935232 0.031041898 0.75800002 1.0210757e-39
-0.019439997 0.030959994 0.75600004 8.3667468e-40
-0.017976196 0.030919038 0.75500011 6.5193169e-40
-0.016494283 0.030837134 0.75300002 7.4305392e-40
-0.015039997 0.030796193 0.75200003 9.2891234e-40
-0.01360761 0.0307962 0.75200003 2.9615252e-39
-0.012175227 0.030796207 0.75200003 5.0798443e-39
-0.010742856 0.0307962 0.75200009 5.2642355e-39
-0.0092857126 0.030714281 0.75000012 5.4507806e-39
-0.0078571383 0.030714303 0.75000006 6.0021551e-39
-0.0064114244 0.030632384 0.74800009 6.6475203e-39
-0.0049866633 0.030632377 0.74800009 6.7379265e-39
-0.0035619023 0.030632369 0.74800009 6.8301207e-39
-0.0021285764 0.030509509 0.74500012 6.7382838e-39
-0.00070952118 0.030509517 0.74500012 6.7415264e-39
0.00070952432 0.030509517 0.74500012 6.1872974e-39
0.0021285648 0.030509524 0.74500012 5.6387802e-39
0.00354762 0.030509517 0.74500012 5.3582346e-39
0.0049666651 0.030509524 0.74500012 5.0830939e-39
0.0063857059 0.030509524 0.74500012 5.6333964e-39
0.0078047616 0.030509524 0.74500006 6.1897904e-39
0.0092238067 0.030509509 0.74500012 5.9110539e-39
0.010671437 0.030591413 0.7470001 5.6341068e-39
0.012094289 0.030591428 0.7470001 5.629079e-39
0.013517146 0.030591413 0.7470001 5.7223186e-39
0.014959997 0.030632384 0.74800009 4.3343521e-39
0.016384766 0.030632377 0.74800009 3.0357422e-39
0.017809529 0.030632384 0.74800009 4.2400083e-39
0.019234283 0.030632377 0.74800009 5.431367e-39
0.02065905 0.030632369 0.74800009 6.1800499e-39
0.022142868 0.030714296 0.75000006 7.0069253e-39
0.023665715 0.030837148 0.75300008 3.601117e-39
0.025100006 0.030837141 0.75300002 1.8634047e-40
0.02660477 0.030919045 0.75500005 4.2389363e-39
0.028080011 0.030960009 0.75600004 8.4053441e-39
0.029519998 0.030959994 0.7560001 1.1083371e-38
0.031041916 0.031041905 0.75800002 1.3859592e-38
0.032485712 0.031041898 0.75800008 1.2735673e-38
0.033840004 0.030960001 0.75600004 1.1618533e-38
0.035279989 0.030959994 0.7560001 1.0787659e-38
-0.022379044 0.032485723 0.75800008 1.1129225e-39
-0.020935234 0.032485709 0.75800002 8.3669009e-40
-0.019440001 0.03239999 0.7560001 6.5229322e-40
-0.017976185 0.032357156 0.75500005 3.7643081e-40
-0.016494272 0.032271445 0.75300002 8.3417616e-40
-0.015039993 0.032228574 0.75200009 1.2984011e-39
-0.013607604 0.032228589 0.75200003 2.7785577e-39
-0.012175228 0.032228582 0.75200003 4.2493675e-39
-0.010742851 0.032228574 0.75200009 4.6185102e-39
-0.0092857145 0.032142863 0.75000006 4.986934e-39
-0.0078361873 0.032057136 0.74800009 5.8152527e-39
-0.0064285663 0.032142863 0.75000006 6.5520933e-39
-0.0049866731 0.032057136 0.74800014 6.7357685e-39
-0.0035619019 0.032057144 0.74800009 6.8279613e-39
-0.0021342854 0.032014266 0.7470001 6.4588228e-39
-0.0007114248 0.032014288 0.7470001 6.0007216e-39
0.0007095192 0.031928569 0.74500012 5.2635265e-39
0.002128575 0.031928569 0.74500012 4.527046e-39
0.0035476158 0.031928577 0.74500012 4.0639211e-39
0.0049666604 0.031928554 0.74500012 3.5143486e-39
0.0063857161 0.031928562 0.74500012 3.6944379e-39
0.0078047565 0.031928569 0.74500012 3.8874374e-39
0.009223802 0.031928562 0.74500012 3.884929e-39
0.010642857 0.031928569 0.74500012 3.7930963e-39
0.012094291 0.032014273 0.7470001 4.1446583e-39
0.013517143 0.032014273 0.7470001 4.5291984e-39
0.014960011 0.032057151 0.74800009 5.2584804e-39
0.016384766 0.032057144 0.74800009 5.9063539e-39
0.01780952 0.032057144 0.74800009 8.2043979e-39
0.019234287 0.032057136 0.74800009 1.0509279e-38
0.02065905 0.032057136 0.74800009 1.1348379e-38
0.022142861 0.032142863 0.75000006 1.2166625e-38
0.023634294 0.032228582 0.75200003 6.2762168e-39
0.025100006 0.03227143 0.75300008 2.8715268e-40
0.026604762 0.032357149 0.75500011 3.4041533e-39
0.028079992 0.032399982 0.7560001 6.4638479e-39
0.029520003 0.032399982 0.75600004 9.695018e-39
0.030960005 0.03239999 0.7560001 1.2914276e-38
0.032485712 0.032485716 0.75800008 1.1989815e-38
0.033840001 0.032399982 0.7560001 1.0974218e-38
0.035279997 0.032400012 0.75600004 1.060434e-38
-0.022379044 0.033929527 0.75800008 1.2043992e-39
-0.020935228 0.033929527 0.75800002 9.2781092e-40
-0.019491432 0.033929519 0.75800008 7.4377559e-40
-0.018000001 0.033839993 0.7560001 6.530191e-40
-0.0165381 0.033795238 0.75500011 7.4306233e-40
-0.01505999 0.033705726 0.75300002 8.3599084e-40
-0.013607608 0.033660963 0.75200003 2.957191e-39
-0.01217523 0.033660956 0.75200003 5.1630478e-39
-0.010742852 0.033660963 0.75200009 5.2599153e-39
-0.0092857145 0.03357143 0.75000006 5.3488894e-39
-0.007857142 0.033571422 0.75000006 6.2729924e-39
-0.0064285668 0.033571437 0.75000006 7.1935026e-39
-0.0049999938 0.03357143 0.75000006 7.4736754e-39
-0.0035714288 0.033571422 0.75000006 7.837786e-39
-0.002134291 0.033437125 0.7470001 6.1847429e-39
-0.00071142387 0.033437118 0.7470001 4.5291788e-39
0.00070952525 0.033347614 0.74500006 3.4174531e-39
0.0021285703 0.033347607 0.74500012 2.3154397e-39
0.0035476256 0.033347622 0.74500012 4.9819089e-39
0.0049666562 0.033347614 0.74500012 7.6440663e-39
0.0063857115 0.033347614 0.74500012 8.5767748e-39
0.0078047668 0.033347622 0.74500012 9.5869708e-39
0.0092237974 0.033347614 0.74500012 9.5005219e-39
0.010642853 0.033347622 0.74500012 9.3150699e-39
0.012094278 0.033437133 0.7470001 9.6852929e-39
0.013517145 0.033437125 0.7470001 1.0061951e-38
0.014960002 0.033481896 0.74800009 1.0334935e-38
0.016384756 0.033481888 0.74800009 1.0615828e-38
0.017809534 0.033481911 0.74800009 1.1623872e-38
0.019285727 0.03357143 0.75000006 1.264415e-38
0.020714292 0.033571422 0.75000006 1.3101935e-38
0.022142867 0.033571422 0.75000006 1.3473181e-38
0.02366573 0.033705719 0.75300002 7.014519e-39
0.025100019 0.033705719 0.75300002 5.5692926e-40
0.026604766 0.033795238 0.75500005 3.411314e-39
0.028079998 0.033839986 0.75600004 6.3716186e-39
0.029520011 0.033839993 0.75600004 9.227172e-39
0.03096001 0.033839993 0.75600004 1.2071916e-38
0.032400005 0.033840008 0.75600004 1.1340098e-38
0.033839993 0.033839993 0.75600004 1.0694735e-38
0.035280004 0.033840001 0.75600004 1.0512496e-38
-0.020935232 0.035373338 0.75800002 9.2817106e-40
-0.019491427 0.035373323 0.75800008 9.2565433e-40
-0.018000001 0.035279997 0.75600004 8.3524535e-40
-0.016538097 0.035233349 0.75500005 5.5722073e-40
-0.015059993 0.03514 0.75300002 2.8568972e-40
-0.013607608 0.035093345 0.75200003 3.2345009e-39
-0.01217523 0.035093352 0.75200003 6.0875026e-39
-0.010742843 0.035093352 0.75200003 5.9084979e-39
-0.0093104672 0.035093352 0.75200003 5.7248395e-39
-0.0078780893 0.035093345 0.75200003 6.7339664e-39
-0.0064285696 0.035000004 0.75000012 7.7517042e-39
-0.0049999943 0.035000019 0.75000006 8.3106233e-39
-0.0035714218 0.035000011 0.75000006 8.7644072e-39
-0.0021342868 0.03486 0.7470001 5.9128321e-39
-0.00071143644 0.034859985 0.7470001 3.0533551e-39
0.00070952059 0.034766667 0.74500012 1.5620835e-39
0.0021285652 0.034766659 0.74500012 1.0386284e-40
0.0035476212 0.034766674 0.74500012 5.903875e-39
0.0049666767 0.034766674 0.74500006 1.1706756e-38
0.0063857068 0.034766659 0.74500012 1.3564656e-38
0.0078047621 0.034766659 0.74500012 1.530271e-38
0.0092238076 0.034766652 0.74500012 1.51237e-38
0.010642848 0.034766667 0.74500012 1.4845334e-38
0.012094289 0.034859985 0.7470001 1.5219503e-38
0.013517132 0.034859993 0.7470001 1.5582883e-38
0.014960002 0.03490667 0.74800009 1.5403503e-38
0.016384771 0.034906663 0.74800009 1.5214092e-38
0.017809523 0.03490667 0.74800009 1.5031499e-38
0.01928572 0.035000011 0.75000006 1.4756015e-38
0.020769527 0.035093337 0.75200009 1.4758548e-38
0.022201916 0.035093345 0.75200003 1.4750973e-38
0.023665717 0.035140015 0.75300002 7.8431796e-39
0.025166659 0.035233326 0.75500011 8.3924606e-40
0.026534295 0.035140008 0.75300002 3.4966951e-39
0.028080007 0.035280004 0.75600004 6.1832883e-39
0.029520007 0.035279997 0.7560001 8.6786772e-39
0.030960005 0.035280012 0.75600004 1.1156078e-38
0.032400005 0.035279997 0.7560001 1.0788014e-38
0.033929531 0.035373345 0.75800002 1.0420671e-38
0.03537333 0.03537333 0.75800008 1.0512505e-38
-0.022585727 0.037157148 0.7650001 2.3103768e-39
-0.021073328 0.037060015 0.76300001 2.3089349e-39
-0.019568576 0.036962844 0.76100004 1.9397908e-39
-0.017999994 0.036720008 0.75600004 1.5717146e-39
-0.01649428 0.036574297 0.75300002 9.2418436e-40
-0.015059993 0.036574297 0.75300002 3.717813e-40
-0.013625704 0.036574289 0.75300002 3.9709884e-39
-0.012191417 0.036574304 0.75300002 7.5640466e-39
-0.010742845 0.036525726 0.75200003 7.842776e-39
-0.0093228463 0.036574297 0.75300002 8.2137222e-39
-0.0078780912 0.036525719 0.75200009 8.488528e-39
-0.0064457036 0.036525734 0.75200003 8.8609189e-39
-0.0050133257 0.036525726 0.75200003 9.0456913e-39
-0.0035714218 0.036428586 0.75000006 9.2307762e-39
-0.0021342849 0.036282852 0.7470001 5.9131979e-39
-0.0007114248 0.036282852 0.7470001 2.688883e-39
0.0007114177 0.03628283 0.7470001 1.387015e-39
0.002128561 0.036185712 0.74500012 1.8494477e-40
0.0035476163 0.036185712 0.74500012 5.9082022e-39
0.0049666716 0.036185704 0.74500006 1.16329e-38
0.0063857171 0.036185719 0.74500012 1.3105543e-38
0.0078047579 0.036185712 0.74500012 1.4578844e-38
0.0092238132 0.036185719 0.74500006 1.4207185e-38
0.010642858 0.036185704 0.74500012 1.3936711e-38
0.0120619 0.036185704 0.74500012 1.3931338e-38
0.013517144 0.036282852 0.7470001 1.4024592e-38
0.014959993 0.03633143 0.74800009 1.365185e-38
0.016384762 0.036331423 0.74800009 1.3284504e-38
0.017809525 0.03633143 0.74800009 1.3189793e-38
0.019234294 0.036331415 0.74800009 1.3099754e-38
0.020714292 0.036428571 0.75000006 1.3652921e-38
0.022201912 0.036525719 0.75200003 1.4296088e-38
0.02363429 0.036525726 0.75200009 7.3800435e-39
0.025100006 0.036574304 0.75300002 5.5153846e-40
0.026534295 0.036574297 0.75300002 3.3180492e-39
0.028042862 0.03667143 0.75500005 6.0936094e-39
0.029480964 0.03667143 0.75500005 8.5829012e-39
0.030959999 0.036719985 0.7560001 1.1156802e-38
0.03248572 0.036817141 0.75800008 1.0789454e-38
0.034019042 0.036914289 0.76000011 1.0513231e-38
0.035513334 0.036962859 0.76100004 1.0605783e-38
0.036962859 0.036962844 0.76100004 1.0697988e-38
-0.022526663 0.038513333 0.76300007 3.3288265e-39
-0.020990478 0.038361903 0.76000005 3.5993052e-39
-0.01954286 0.038361914 0.76000011 2.9532239e-39
-0.017999999 0.038160007 0.7560001 2.3071286e-39
-0.016538091 0.038109533 0.75500005 1.3790711e-39
-0.015059991 0.038008574 0.75300002 3.7896716e-40
-0.013625711 0.038008582 0.75300002 4.7135743e-39
-0.012191422 0.038008574 0.75300002 9.0355795e-39
-0.010742847 0.037958108 0.75200003 9.8689135e-39
-0.0093228444 0.038008582 0.75300002 1.0602891e-38
-0.0078885639 0.038008582 0.75300002 1.0237353e-38
-0.0064457054 0.037958108 0.75200003 9.8703848e-39
-0.0050133276 0.037958108 0.75200003 9.7803584e-39
-0.0035809507 0.037958112 0.75200009 9.5894848e-39
-0.0021371376 0.037756197 0.74800009 5.9117321e-39
-0.00071238453 0.03775619 0.74800009 2.2253881e-39
0.00071142934 0.037705712 0.7470001 1.2040657e-39
0.002134297 0.037705705 0.7470001 1.9534521e-40
0.0035571395 0.037705697 0.7470001 5.8195869e-39
0.0049666674 0.03760476 0.74500012 1.1440238e-38
0.006385712 0.037604753 0.74500012 1.2645251e-38
0.0078047677 0.037604749 0.74500012 1.3835873e-38
0.0092238085 0.037604764 0.74500006 1.3373097e-38
0.010642854 0.037604757 0.74500012 1.2914283e-38
0.012094278 0.037705705 0.7470001 1.2636628e-38
0.013517146 0.037705701 0.7470001 1.2361117e-38
0.014960009 0.037756197 0.74800009 1.1803284e-38
0.016384762 0.037756197 0.74800009 1.1254419e-38
0.017809531 0.037756186 0.74800009 1.1343022e-38
0.019285722 0.037857149 0.75000012 1.144168e-38
0.020714298 0.037857153 0.75000006 1.264093e-38
0.02223143 0.038008574 0.75300008 1.3736822e-38
0.023728581 0.03810953 0.75500005 7.0127057e-39
0.025166672 0.038109522 0.75500011 2.8751702e-40
0.026604757 0.038109522 0.75500011 3.1304377e-39
0.028042857 0.038109515 0.75500011 5.9992656e-39
0.029520005 0.038160007 0.75600004 8.5857711e-39
0.031041913 0.038260948 0.75800008 1.106604e-38
0.03248572 0.038260963 0.75800002 1.0883079e-38
0.034019046 0.038361903 0.76000011 1.0606494e-38
0.03551333 0.038412377 0.7610001 1.0790522e-38
-0.022585725 0.040071432 0.7650001 4.5237726e-39
-0.021073334 0.039966661 0.76300007 4.8871657e-39
-0.019568564 0.039861903 0.76100004 4.3372261e-39
-0.018000001 0.039600004 0.75600004 3.8748033e-39
-0.0165381 0.03954763 0.75500011 2.5829896e-39
-0.015059996 0.039442848 0.75300008 1.3877339e-39
-0.013625707 0.039442863 0.75300008 3.3292343e-39
-0.012191427 0.039442863 0.75300002 5.3636086e-39
-0.010742847 0.039390489 0.75200003 5.5447699e-39
-0.009322851 0.039442878 0.75300002 5.826379e-39
-0.007888563 0.039442871 0.75300002 5.6373312e-39
-0.0064457068 0.039390486 0.75200003 5.4601216e-39
-0.005013329 0.039390493 0.75200003 5.2674865e-39
-0.0035809418 0.039390493 0.75200003 4.985848e-39
-0.0021371478 0.039180942 0.74800009 3.5114227e-39
-0.00071237615 0.039180946 0.74800009 2.0356046e-39
0.00071238441 0.039180953 0.74800009 1.386306e-39
0.0021342845 0.039128572 0.7470001 8.2707158e-40
0.0035571512 0.039128572 0.7470001 6.0911389e-39
0.0049799937 0.039128557 0.7470001 1.1439138e-38
0.0064028613 0.039128557 0.7470001 1.2360739e-38
0.0078257136 0.039128568 0.7470001 1.3368767e-38
0.0092238039 0.03902382 0.74500012 1.2908145e-38
0.010671424 0.039128561 0.7470001 1.2353903e-38
0.012094291 0.039128568 0.7470001 1.2264936e-38
0.013535244 0.039180949 0.74800009 1.2173469e-38
0.014959998 0.039180942 0.74800009 1.1711789e-38
0.016384766 0.039180957 0.74800009 1.1342291e-38
0.017857147 0.039285719 0.75000006 1.1251168e-38
0.019285714 0.039285712 0.75000006 1.1162215e-38
0.020769533 0.039390493 0.75200003 1.2454741e-38
0.022231443 0.039442874 0.75300002 1.3742919e-38
0.023665732 0.039442874 0.75300002 7.8399468e-39
0.025166674 0.039547618 0.75500005 1.8429849e-39
0.026604759 0.039547618 0.75500005 3.870867e-39
0.02808 0.039599996 0.75600004 6.0028557e-39
0.029598096 0.039704774 0.75800002 7.9386164e-39
0.031041911 0.039704762 0.75800008 9.9643699e-39
0.032485716 0.03970477 0.75800002 9.7774605e-39
0.034063801 0.039861891 0.7610001 9.5959391e-39
0.035513323 0.039861895 0.7610001 9.7763773e-39
-0.022585724 0.041528575 0.7650001 5.6333347e-39
-0.021128578 0.041528571 0.7650001 6.1818338e-39
-0.019568572 0.041311432 0.7610001 5.8173589e-39
-0.017999992 0.041040007 0.75600004 5.3513528e-39
-0.016538089 0.040985718 0.75500005 3.8744389e-39
-0.015059992 0.040877156 0.75300002 2.4022193e-39
-0.013607616 0.040822864 0.75200003 2.0352529e-39
-0.012191425 0.040877149 0.75300008 1.5814592e-39
-0.010742849 0.040822875 0.75200003 1.3034444e-39
-0.0093228491 0.040877149 0.75300002 1.030812e-39
-0.0078780856 0.040822875 0.75200003 1.0250765e-39
-0.0064457082 0.040822878 0.75200003 1.0308204e-39
-0.0050133304 0.040822871 0.75200009 7.510133e-40
-0.0035809427 0.040822871 0.75200003 3.8401884e-40
-0.002142855 0.040714283 0.75000012 1.1129533e-39
-0.00071237894 0.040605709 0.74800009 1.8483547e-39
0.00071237463 0.040605713 0.74800009 1.6621726e-39
0.0021342859 0.040551417 0.7470001 1.396024e-39
0.0035619063 0.040605716 0.74800009 6.3705985e-39
0.0049800053 0.040551435 0.7470001 1.1343358e-38
0.0064028483 0.040551417 0.7470001 1.2173118e-38
0.0078257155 0.040551417 0.7470001 1.2907076e-38
0.0092485677 0.04055142 0.7470001 1.2353186e-38
0.010671425 0.040551402 0.7470001 1.1802526e-38
0.012110481 0.040605716 0.74800009 1.1895791e-38
0.013535235 0.040605709 0.74800009 1.1896159e-38
0.014960013 0.040605713 0.74800009 1.1711423e-38
0.016428581 0.040714283 0.75000006 1.1434471e-38
0.017857155 0.040714301 0.75000006 1.1157518e-38
0.019337146 0.040822871 0.75200009 1.0887059e-38
0.020769531 0.040822871 0.75200003 1.2363986e-38
0.022201909 0.040822864 0.75200003 1.3737185e-38
0.023665719 0.040877145 0.75300002 8.5778678e-39
0.025166666 0.040985715 0.75500011 3.4163839e-39
0.026604751 0.040985715 0.75500011 4.6909181e-39
0.028042853 0.040985707 0.75500011 5.9052693e-39
0.029598096 0.041148573 0.75800002 7.3850811e-39
0.031041909 0.041148569 0.75800008 8.8551553e-39
0.032571431 0.041257158 0.76000011 8.6664509e-39
0.034063805 0.041311421 0.76100004 8.4856399e-39
0.035513341 0.041311417 0.76100004 8.8483072e-39
-0.022585722 0.042985715 0.7650001 6.0921549e-39
-0.021128578 0.042985708 0.7650001 7.1034201e-39
-0.019620007 0.042873327 0.76300007 6.6456748e-39
-0.018047621 0.042592376 0.75800008 6.2779671e-39
-0.016538095 0.0424238 0.75500011 3.9709505e-39
-0.015100002 0.0424238 0.75500005 1.7600771e-39
-0.013625702 0.042311441 0.75300002 1.5749656e-39
-0.012191422 0.042311434 0.75300002 1.3880688e-39
-0.010742852 0.042255253 0.75200003 1.114e-39
-0.0093228547 0.042311415 0.75300008 9.274634e-40
-0.0078780875 0.04225526 0.75200003 1.022173e-39
-0.0064457101 0.042255249 0.75200003 1.1118603e-39
-0.0050133322 0.042255249 0.75200009 9.3142207e-40
-0.0035809451 0.042255249 0.75200003 8.3924185e-40
-0.002142855 0.042142857 0.75000006 1.0218507e-39
-0.00071427185 0.042142875 0.75000006 1.2962739e-39
0.00071238953 0.042030487 0.74800009 2.498738e-39
0.0021371432 0.042030476 0.74800009 3.7037538e-39
0.0035618965 0.042030476 0.74800009 7.6620408e-39
0.004986675 0.04203048 0.74800009 1.1625322e-38
0.0064114281 0.042030472 0.74800009 1.2081994e-38
0.0078257173 0.041974269 0.7470001 1.2631566e-38
0.0092609506 0.042030472 0.74800009 1.2169872e-38
0.010685714 0.042030476 0.74800003 1.1617414e-38
0.012110481 0.042030491 0.74800009 1.1802509e-38
0.013535235 0.042030483 0.74800009 1.2078746e-38
0.015000007 0.042142875 0.75000006 1.1896162e-38
0.016428573 0.042142864 0.75000006 1.1710681e-38
0.017857138 0.042142857 0.75000012 1.152735e-38
0.019337142 0.042255241 0.75200009 1.1435911e-38
0.020769529 0.042255241 0.75200003 1.2638061e-38
0.022231432 0.042311441 0.75300002 1.3927678e-38
0.023665719 0.042311434 0.75300002 8.9488041e-39
0.02516667 0.042423811 0.75500005 4.063177e-39
0.02660477 0.042423811 0.75500005 5.2530405e-39
0.028042857 0.042423807 0.75500005 6.4602171e-39
0.029598109 0.042592395 0.75800002 9.2239322e-39
0.031164756 0.042760961 0.76100004 1.2067233e-38
0.032699995 0.042873345 0.76300007 1.2070447e-38
0.034153327 0.042873334 0.76300007 1.2158679e-38
-0.021128576 0.044442851 0.7650001 7.9306641e-39
-0.019619996 0.044326656 0.76300007 7.5676311e-39
-0.017999997 0.043919995 0.75600004 7.1952556e-39
-0.016538091 0.043861914 0.75500005 4.1553446e-39
-0.015099998 0.043861918 0.75500005 1.0271924e-39
-0.013625707 0.04374573 0.75300002 1.1165112e-39
-0.012191419 0.043745726 0.75300002 1.1140029e-39
-0.010757131 0.043745719 0.75300002 1.0210954e-39
-0.0093228426 0.043745734 0.75300002 8.3814604e-40
-0.0078780884 0.043687638 0.75200003 1.0243324e-39
-0.0064457115 0.043687627 0.75200003 1.1150945e-39
-0.0050133336 0.043687619 0.75200009 1.2076516e-39
-0.0035809465 0.043687619 0.75200003 1.299141e-39
-0.0021428554 0.043571435 0.75000006 1.0229297e-39
-0.00071429001 0.043571424 0.75000006 6.5773307e-40
0.00071237929 0.043455232 0.74800009 3.3331523e-39
0.0021371436 0.043455236 0.74800009 6.0021593e-39
0.0035619119 0.043455243 0.74800009 8.9477489e-39
0.0049866652 0.043455243 0.74800009 1.1804695e-38
0.0064114332 0.043455232 0.74800009 1.2081639e-38
0.0078361975 0.043455251 0.74800009 1.235678e-38
0.0092609506 0.043455243 0.74800009 1.1893292e-38
0.010685719 0.043455236 0.74800009 1.143591e-38
0.012142858 0.043571442 0.75000006 1.1801818e-38
0.013571423 0.043571431 0.75000006 1.2173106e-38
0.015000015 0.043571435 0.75000006 1.2084142e-38
0.016428581 0.043571427 0.75000006 1.1989784e-38
0.017857146 0.043571416 0.75000006 1.1988338e-38
0.019337151 0.04368763 0.75200003 1.1898687e-38
0.020769529 0.043687634 0.75200003 1.300828e-38
0.022231434 0.043745726 0.75300008 1.4106688e-38
0.023665722 0.043745726 0.75300002 9.4094151e-39
0.025166664 0.0438619 0.75500011 4.6152592e-39
0.026604764 0.0438619 0.75500011 5.7972278e-39
0.028080011 0.043919995 0.75600004 6.9219015e-39
0.029715246 0.044210471 0.76100004 1.116719e-38
0.031246671 0.044326667 0.76300001 1.5295115e-38
0.032700006 0.044326674 0.76300007 1.5572408e-38
0.034242857 0.044442851 0.7650001 1.5754275e-38
-0.021128574 0.045899995 0.7650001 7.1952696e-39
-0.019542862 0.04559999 0.76000011 6.9222855e-39
-0.018047616 0.045479998 0.75800008 6.6478398e-39
-0.016559998 0.045359995 0.75600004 4.1575026e-39
-0.015099997 0.045299999 0.75500005 1.7597296e-39
-0.013625706 0.045180004 0.75300002 1.3913058e-39
-0.012191426 0.045180015 0.75300002 1.0225331e-39
-0.010757136 0.045180012 0.75300002 8.3850617e-40
-0.0093228482 0.045180008 0.75300002 7.4739235e-40
-0.0078780893 0.045120012 0.75200003 8.4066697e-40
-0.0064457129 0.045120023 0.75200003 1.0250582e-39
-0.0050133285 0.045120016 0.75200009 1.1168965e-39
-0.00358094 0.045120016 0.75200003 1.2087432e-39
-0.0021428489 0.045000013 0.75000006 8.3890134e-40
-0.00071428349 0.045000002 0.75000006 4.6832516e-40
0.00071428198 0.044999998 0.75000012 3.330644e-39
0.0021371488 0.044879995 0.74800009 6.1865548e-39
0.0035619019 0.044880003 0.74800009 8.8584344e-39
0.0049866657 0.044880014 0.74800009 1.1625336e-38
0.0064114337 0.044880003 0.74800009 1.2452572e-38
0.0078361873 0.044879995 0.74800009 1.3279801e-38
0.0092857238 0.045000006 0.75000006 1.2633717e-38
0.010714289 0.044999998 0.75000012 1.1991959e-38
0.012142865 0.045000009 0.75000006 1.2358596e-38
0.01357143 0.044999998 0.75000006 1.2728081e-38
0.014999995 0.044999991 0.75000006 1.2359293e-38
0.016428586 0.045000009 0.75000006 1.1991947e-38
0.017857151 0.045000002 0.75000006 1.18054e-38
0.019337149 0.045120023 0.75200003 1.1713235e-38
0.020769527 0.045120016 0.75200003 1.3006494e-38
0.022231447 0.045180012 0.75300002 1.4387578e-38
0.023665722 0.045179997 0.75300008 9.3154258e-39
0.025166666 0.045300007 0.75500005 4.2418131e-39
0.026604766 0.045300007 0.75500005 5.6221552e-39
0.028080007 0.045359995 0.7560001 7.0176803e-39
0.029715238 0.04566 0.7610001 1.1439471e-38
0.03116476 0.045659993 0.7610001 1.5944431e-38
0.032614291 0.04566 0.76100004 1.612774e-38
0.034153331 0.045779999 0.76300001 1.6313918e-38
-0.024137147 0.047542844 0.76800007 5.7223102e-39
-0.022644768 0.047480952 0.76700008 6.091799e-39
-0.021128573 0.047357138 0.7650001 6.3687474e-39
-0.019620003 0.047233328 0.76300007 6.1865169e-39
-0.018047618 0.046923816 0.75800008 6.001397e-39
-0.016559998 0.046800002 0.75600004 4.2507702e-39
-0.015099995 0.046738107 0.75500005 2.4965589e-39
-0.013625713 0.046614289 0.75300008 1.6657263e-39
-0.012191424 0.046614293 0.75300008 8.3921383e-40
-0.010757136 0.046614289 0.75300002 7.4702661e-40
-0.0093228482 0.046614282 0.75300002 5.6443601e-40
-0.0078780837 0.046552394 0.75200003 7.4883008e-40
-0.0064457073 0.046552382 0.75200003 9.3322134e-40
-0.0050133201 0.046552401 0.75200003 1.0254198e-39
-0.0035809423 0.046552394 0.75200003 1.0247121e-39
-0.0021428494 0.04642858 0.75000006 6.5487021e-40
-0.00071427651 0.046428587 0.75000006 2.9110714e-40
0.0007142885 0.046428576 0.75000006 3.3345845e-39
0.0021371492 0.046304766 0.74800009 6.2787476e-39
0.0035619026 0.046304774 0.74800009 8.8577211e-39
0.0049866708 0.046304766 0.74800009 1.1347674e-38
0.0064114239 0.046304762 0.74800009 1.2730938e-38
0.0078571513 0.04642858 0.75000006 1.4105958e-38
0.0092857163 0.046428576 0.75000006 1.3369838e-38
0.010714281 0.046428584 0.75000006 1.2542611e-38
0.012142872 0.046428587 0.75000006 1.2912115e-38
0.013571437 0.04642858 0.75000006 1.3277655e-38
0.015000002 0.046428572 0.75000006 1.2633006e-38
0.016428567 0.046428565 0.75000012 1.1989435e-38
0.017857144 0.046428587 0.75000006 1.1712132e-38
0.019337147 0.046552401 0.75200003 1.1439158e-38
0.02076954 0.046552394 0.75200003 1.3100469e-38
0.022231447 0.0466143 0.75300002 1.4657338e-38
0.023665721 0.046614297 0.75300002 9.2221526e-39
0.025166659 0.046738092 0.75500011 3.7855013e-39
0.026640002 0.046800002 0.7560001 5.4320214e-39
0.02808 0.046800002 0.75600004 7.0162426e-39
0.029715242 0.047109518 0.76100004 1.1812554e-38
0.031164763 0.047109514 0.76100004 1.6496872e-38
0.032614283 0.047109514 0.76100004 1.6680176e-38
0.034153335 0.047233336 0.76300007 1.6771652e-38
-0.024137141 0.049005721 0.76800007 6.1821953e-39
-0.022674287 0.049005721 0.76800001 6.0914416e-39
-0.021183815 0.04894191 0.76700008 5.909207e-39
-0.019619992 0.048686661 0.76300007 5.7258961e-39
-0.018047612 0.048367616 0.75800002 5.5425726e-39
-0.016560001 0.048239999 0.7560001 3.9731071e-39
-0.015119996 0.048240002 0.75600004 2.4936835e-39
-0.013680002 0.048239991 0.7560001 1.482763e-39
-0.012223806 0.048176199 0.75500005 5.6406047e-40
-0.010757139 0.048048574 0.75300008 6.5590577e-40
-0.0093228528 0.048048574 0.75300008 8.4065857e-40
-0.0078780856 0.047984768 0.75200003 8.410215e-40
-0.0064457087 0.047984775 0.75200009 9.3321994e-40
-0.0050133215 0.047984775 0.75200003 1.0254184e-39
-0.0035809437 0.047984771 0.75200003 1.0254296e-39
-0.0021428601 0.047857147 0.75000012 6.5594501e-40
-0.00071428443 0.047857154 0.75000006 3.8042871e-40
0.00071429549 0.047857143 0.75000006 3.6075742e-39
0.002142861 0.047857139 0.75000006 6.8283256e-39
0.0035714367 0.047857158 0.75000006 9.1361016e-39
0.0050000018 0.04785715 0.75000006 1.1533854e-38
0.0064114244 0.047729533 0.74800009 1.2544029e-38
0.0078571476 0.04785715 0.75000012 1.3644983e-38
0.0092857229 0.047857158 0.75000006 1.2816674e-38
0.010714289 0.047857147 0.75000006 1.1988009e-38
0.012142854 0.047857139 0.75000006 1.2448986e-38
0.013571444 0.047857147 0.75000006 1.2816322e-38
0.015000009 0.04785715 0.75000006 1.2448257e-38
0.016428575 0.047857147 0.75000006 1.1988361e-38
0.017857151 0.04785715 0.75000006 1.1711058e-38
0.019337147 0.047984775 0.75200003 1.1526683e-38
0.020769523 0.047984768 0.75200003 1.2913915e-38
0.022231434 0.048048574 0.75300002 1.438828e-38
0.023665722 0.048048586 0.75300002 8.5785838e-39
0.025166664 0.048176203 0.75500005 2.8585326e-39
0.026640011 0.048239987 0.75600004 5.0668248e-39
0.028154295 0.04836762 0.75800002 7.2917462e-39
0.029715234 0.048559047 0.7610001 1.1900084e-38
0.031164756 0.048559044 0.7610001 1.6407542e-38
0.032614276 0.048559036 0.7610001 1.6313178e-38
0.034153342 0.048686668 0.76300007 1.6218839e-38
-0.024137143 0.050468571 0.76800007 6.6485573e-39
-0.02267429 0.050468571 0.76800007 6.0907312e-39
-0.02121143 0.050468571 0.76800007 5.4475198e-39
-0.019671433 0.050271429 0.7650001 5.2656368e-39
-0.018095244 0.049942847 0.76000011 4.988687e-39
-0.016603809 0.049811427 0.75800008 3.6976007e-39
-0.015159993 0.049811427 0.75800008 2.4043619e-39
-0.013679996 0.049680002 0.75600004 1.2998164e-39
-0.012240002 0.049679991 0.7560001 1.9707862e-40
-0.01075713 0.04948286 0.75300002 6.5590437e-40
-0.0093104653 0.049417153 0.75200003 1.0246841e-39
-0.0078780875 0.049417157 0.75200003 1.0254058e-39
-0.0064457101 0.049417153 0.75200009 9.339332e-40
-0.0050133225 0.049417153 0.75200003 1.0254142e-39
-0.0035809446 0.049417164 0.75200003 1.0250666e-39
-0.0021428526 0.049285728 0.75000006 7.4706024e-40
-0.00071428815 0.049285721 0.75000012 3.8436916e-40
0.00071428757 0.049285725 0.75000006 3.8873799e-39
0.0021428675 0.049285717 0.75000006 7.2907261e-39
0.003571433 0.049285714 0.75000006 9.5073855e-39
0.0050000087 0.049285732 0.75000006 1.1622458e-38
0.0064114295 0.049154289 0.74800009 1.24504e-38
0.0078571402 0.049285714 0.75000006 1.318401e-38
0.0092857294 0.049285725 0.75000006 1.2354982e-38
0.010714294 0.049285717 0.75000006 1.1436271e-38
0.01214286 0.049285721 0.75000006 1.1896169e-38
0.013571425 0.049285714 0.75000012 1.2355704e-38
0.015000001 0.049285725 0.75000006 1.2171673e-38
0.016428581 0.049285728 0.75000006 1.1986921e-38
0.017904771 0.049417149 0.75200009 1.1801094e-38
0.019337161 0.049417149 0.75200003 1.1529554e-38
0.020797146 0.049482867 0.75300008 1.2824241e-38
0.022231435 0.04948286 0.75300002 1.4106324e-38
0.023728572 0.049614288 0.75500011 8.0282925e-39
0.025166672 0.049614288 0.75500011 1.854086e-39
0.026640002 0.049679998 0.75600004 4.6844231e-39
0.02822856 0.049942855 0.76000011 7.5643899e-39
0.029715242 0.050008573 0.7610001 1.1995874e-38
0.031164763 0.050008565 0.7610001 1.6314634e-38
0.032699995 0.050139993 0.76300007 1.594548e-38
0.034153335 0.050140005 0.76300001 1.5577428e-38
-0.027203811 0.052201912 0.77200007 8.1315262e-39
-0.025733335 0.052201904 0.77200007 7.300744e-39
-0.024199998 0.052066669 0.77000004 6.4688435e-39
-0.022674294 0.051931426 0.76800007 5.4468135e-39
-0.021211432 0.051931422 0.76800007 4.432307e-39
-0.019671431 0.051728558 0.7650001 4.1578655e-39
-0.018095244 0.051390473 0.76000005 3.8873757e-39
-0.016603811 0.05125523 0.75800008 2.9586105e-39
-0.015159994 0.051255234 0.75800002 1.9426761e-39
-0.013716179 0.051255248 0.75800002 1.2991046e-39
-0.012239996 0.051119983 0.75600004 6.5661763e-40
-0.010799991 0.051120002 0.75600004 8.4029003e-40
-0.0093228463 0.050917145 0.75300002 1.1168755e-39
-0.0078780893 0.050849535 0.75200003 1.0257589e-39
-0.0064457119 0.050849527 0.75200009 1.0264806e-39
-0.0050133248 0.050849542 0.75200003 1.026126e-39
-0.0035809469 0.050849538 0.75200003 1.0264974e-39
-0.002142854 0.050714295 0.75000006 8.4068659e-40
-0.00071428117 0.050714288 0.75000006 7.4668469e-40
0.00071429455 0.050714292 0.75000006 2.4090366e-39
0.0021428601 0.050714284 0.75000006 4.0728908e-39
0.0035714253 0.050714277 0.75000006 7.7549721e-39
0.005000005 0.050714288 0.75000012 1.1344796e-38
0.0064114295 0.050579049 0.74800009 1.2265651e-38
0.0078361984 0.050579041 0.74800009 1.3183291e-38
0.0092857117 0.050714292 0.75000006 1.2538651e-38
0.010714287 0.050714295 0.75000006 1.1894007e-38
0.012142867 0.050714292 0.75000006 1.22635e-38
0.013571432 0.05071428 0.75000006 1.2629769e-38
0.015000008 0.050714288 0.75000006 1.2632282e-38
0.016428573 0.050714292 0.75000006 1.2629766e-38
0.017904766 0.050849538 0.75200003 1.2539001e-38
0.019337144 0.050849527 0.75200003 1.2445758e-38
0.020797158 0.050917152 0.75300002 1.3557857e-38
0.022290474 0.051052388 0.75500005 1.4664158e-38
0.023728574 0.051052384 0.75500005 8.7651331e-39
0.025166674 0.051052384 0.75500005 2.8653583e-39
0.026639996 0.051119994 0.7560001 5.2508671e-39
0.028228575 0.051390477 0.76000005 7.5704953e-39
0.029715246 0.051458094 0.76100004 1.1994446e-38
0.031164767 0.051458091 0.76100004 1.6408986e-38
0.032700002 0.05159333 0.76300007 1.6038754e-38
0.034153335 0.051593322 0.76300007 1.5670344e-38
0.035606667 0.051593333 0.76300007 1.5670711e-38
0.037059996 0.051593341 0.76300001 1.5672144e-38
-0.027203809 0.053672388 0.77200007 7.2113608e-39
-0.025666667 0.053533342 0.77000004 6.7511449e-39
-0.024137141 0.053394284 0.76800007 6.1897287e-39
-0.022644769 0.053324763 0.76700008 4.7956946e-39
-0.021183819 0.053324755 0.76700008 3.3252476e-39
-0.019671429 0.053185716 0.7650001 3.0454335e-39
-0.01809524 0.052838102 0.76000011 2.7717151e-39
-0.016603803 0.052699048 0.75800008 2.1227626e-39
-0.015159996 0.052699052 0.75800002 1.4817008e-39
-0.013716191 0.052699056 0.75800008 1.2976654e-39
-0.012239997 0.052559994 0.75600004 1.0235981e-39
-0.010800003 0.052559983 0.75600004 1.1154378e-39
-0.0093599977 0.052559998 0.75600004 1.1165168e-39
-0.0078885639 0.052351434 0.75300002 1.1179545e-39
-0.0064542755 0.052351449 0.75300002 1.0264834e-39
-0.005019987 0.052351445 0.75300002 1.026489e-39
-0.0035856985 0.052351445 0.75300002 9.3430174e-40
-0.0021428475 0.052142862 0.75000006 1.0257855e-39
-0.00071428163 0.052142866 0.75000006 1.1151029e-39
0.00071429083 0.052142862 0.75000006 1.0203905e-39
0.0021428671 0.05214287 0.75000006 8.4644593e-40
0.0035714319 0.052142859 0.75000006 6.0021901e-39
0.0049999976 0.052142851 0.75000006 1.1067495e-38
0.0064285877 0.05214287 0.75000006 1.2083786e-38
0.0078571532 0.052142866 0.75000006 1.3092905e-38
0.0092857182 0.052142859 0.75000006 1.2721978e-38
0.010714283 0.052142866 0.75000012 1.2266036e-38
0.012142859 0.052142866 0.75000006 1.2542266e-38
0.013571439 0.052142862 0.75000006 1.2819929e-38
0.015000004 0.052142855 0.75000006 1.3098308e-38
0.016472392 0.052281924 0.75200009 1.3279824e-38
0.017904779 0.052281927 0.75200003 1.3279102e-38
0.019362872 0.052351441 0.75300002 1.3283066e-38
0.020852393 0.052490488 0.75500005 1.4297581e-38
0.022290478 0.052490484 0.75500005 1.521052e-38
0.023760008 0.052559994 0.75600004 9.5945308e-39
0.025266672 0.052699044 0.75800008 3.8748411e-39
0.02671048 0.052699059 0.75800008 5.6989351e-39
0.028228581 0.052838091 0.76000005 7.5676269e-39
0.029715238 0.052907605 0.7610001 1.2001973e-38
0.03116476 0.05290762 0.7610001 1.6403241e-38
0.032700013 0.053046677 0.76300001 1.6129867e-38
0.034063801 0.052907608 0.7610001 1.5757153e-38
0.035606664 0.053046666 0.76300007 1.5396276e-38
0.037157141 0.053185709 0.7650001 1.492956e-38
-0.027203811 0.055142872 0.77200007 7.1198672e-39
-0.025666671 0.055000007 0.77000004 6.9340774e-39
-0.024137145 0.054857135 0.76800007 6.7435905e-39
-0.022644771 0.05478571 0.76700008 5.4435443e-39
-0.021183809 0.054785721 0.76700008 4.1492448e-39
-0.019671436 0.054642849 0.7650001 3.7826258e-39
-0.018095242 0.054285713 0.76000011 3.4091798e-39
-0.016603807 0.054142851 0.75800008 2.4004187e-39
-0.015159998 0.05414287 0.75800002 1.481698e-39
-0.013716193 0.054142863 0.75800008 1.2983773e-39
-0.012240001 0.05399999 0.7560001 1.0243127e-39
-0.010799997 0.054000009 0.75600004 1.1157965e-39
-0.0093600024 0.053999998 0.7560001 1.2079949e-39
-0.0079095205 0.05392858 0.75500005 1.1175972e-39
-0.0064800046 0.05399999 0.7560001 1.1183217e-39
-0.0050199926 0.053785734 0.75300002 1.026133e-39
-0.0035857041 0.05378573 0.75300002 1.025417e-39
-0.002142848 0.053571444 0.75000006 1.2090894e-39
-0.0007142821 0.053571433 0.75000006 1.3916842e-39
0.00071428291 0.053571425 0.75000006 9.2748442e-40
0.0021428629 0.053571418 0.75000012 4.6331552e-40
0.0035714388 0.053571444 0.75000006 6.3680818e-39
0.0050000041 0.053571433 0.75000006 1.2267453e-38
0.0064114351 0.053428579 0.74800009 1.3558548e-38
0.0078571448 0.053571444 0.75000006 1.4933575e-38
0.0092857247 0.053571437 0.75000006 1.475206e-38
0.010714291 0.053571433 0.75000006 1.4569121e-38
0.012142856 0.053571425 0.75000012 1.457057e-38
0.013571432 0.053571425 0.75000006 1.4570933e-38
0.014999997 0.053571437 0.75000006 1.4481254e-38
0.01647239 0.053714298 0.75200009 1.4387982e-38
0.017928585 0.053785715 0.75300002 1.3928444e-38
0.019362874 0.053785715 0.75300002 1.3477169e-38
0.020852385 0.053928569 0.75500005 1.3194855e-38
0.022290474 0.053928569 0.75500005 1.300971e-38
0.023760013 0.054000005 0.75600004 7.6527193e-39
0.025266668 0.054142866 0.75800008 2.391491e-39
0.02678095 0.054285701 0.76000011 4.7938631e-39
0.02822857 0.054285716 0.76000011 7.2035149e-39
0.029715231 0.054357134 0.7610001 8.3120443e-39
0.031164762 0.054357141 0.76100004 9.5005065e-39
0.032699998 0.054499999 0.76300007 8.7586283e-39
0.034063805 0.054357145 0.76100004 8.0257464e-39
0.035513338 0.054357141 0.7610001 7.7459435e-39
0.036962844 0.054357134 0.7610001 7.5608306e-39
-0.027203808 0.056613341 0.77200001 7.0280247e-39
-0.025666665 0.056466661 0.77000004 7.1213231e-39
-0.024137149 0.056319989 0.76800007 7.2034869e-39
-0.02264476 0.056246676 0.76700008 6.0860508e-39
-0.021183819 0.056246672 0.76700008 4.8900342e-39
-0.019671435 0.056100003 0.7650001 4.4340825e-39
-0.018095244 0.055733327 0.76000011 3.9695212e-39
-0.016603809 0.055586673 0.75800008 2.7709948e-39
-0.015159993 0.055586673 0.75800002 1.482421e-39
-0.013716186 0.055586662 0.75800008 1.298027e-39
-0.01224 0.055439997 0.75600004 1.0232422e-39
-0.010799998 0.05543999 0.7560001 1.2072761e-39
-0.0093476195 0.055366665 0.75500011 1.2998332e-39
-0.007909527 0.055366661 0.75500011 1.2090782e-39
-0.0064714341 0.055366665 0.75500011 1.1176056e-39
-0.0050333338 0.055366661 0.75500011 1.1172511e-39
-0.0035857027 0.055220019 0.75300002 1.0261372e-39
-0.0021485644 0.055146687 0.75200003 1.3020067e-39
-0.00071427511 0.055000018 0.75000006 1.5746405e-39
0.00071619818 0.055146672 0.75200009 8.3457273e-40
0.0021428554 0.055000003 0.75000006 1.0387826e-40
0.0035714307 0.055000007 0.75000006 6.8305145e-39
0.0050000106 0.055000011 0.75000006 1.3464578e-38
0.0064114248 0.054853339 0.74800009 1.513235e-38
0.007836204 0.054853342 0.74800009 1.6688169e-38
0.0092857173 0.055000007 0.75000006 1.678287e-38
0.010714297 0.054999996 0.75000006 1.6778929e-38
0.012142863 0.055000007 0.75000006 1.6508093e-38
0.013571438 0.055000007 0.75000006 1.622899e-38
0.01504001 0.055146683 0.75200003 1.5867378e-38
0.016472388 0.055146676 0.75200009 1.5395999e-38
0.017928572 0.055220008 0.75300008 1.4569834e-38
0.019362861 0.055220004 0.75300002 1.3646823e-38
0.020852389 0.055366669 0.75500005 1.2178538e-38
0.022290476 0.05536668 0.75500005 1.0692616e-38
0.023728564 0.055366661 0.75500011 5.7983797e-39
0.025200007 0.055440005 0.75600004 9.2963541e-40
0.02678095 0.055733327 0.76000005 3.8809003e-39
0.028228559 0.055733334 0.76000011 6.7407038e-39
0.029715249 0.05580667 0.76100004 4.7249766e-39
0.031164756 0.055806667 0.76100004 2.5926782e-39
0.032700006 0.055953331 0.76300007 1.4702115e-39
0.034153342 0.055953339 0.76300007 2.8567151e-40
0.03560666 0.055953331 0.76300007 1.8414463e-40
0.037060004 0.055953342 0.76300001 1.0054737e-40
-0.027203809 0.058083825 0.77200001 6.9361822e-39
-0.025733331 0.058083821 0.77200001 7.0283974e-39
-0.024137143 0.057782851 0.76800007 7.2095867e-39
-0.022644766 0.05770763 0.76700008 5.9084937e-39
-0.021183817 0.057707611 0.76700008 4.7067289e-39
-0.019671433 0.057557147 0.76500005 4.3422442e-39
-0.018166667 0.057406675 0.76300007 3.9777749e-39
-0.016603809 0.057030477 0.75800008 2.7735116e-39
-0.015159993 0.05703048 0.75800002 1.5731873e-39
-0.013716187 0.057030484 0.75800008 1.2973165e-39
-0.012239994 0.056880005 0.75600004 1.0218128e-39
-0.0108 0.056879997 0.75600004 1.1150847e-39
-0.0093599958 0.056880001 0.75600004 1.2994773e-39
-0.0079095243 0.056804761 0.75500005 1.2087222e-39
-0.0064714239 0.056804754 0.75500005 1.1168895e-39
-0.005033331 0.056804769 0.75500005 1.1176098e-39
-0.0035952381 0.056804765 0.75500005 1.1183343e-39
-0.0021485579 0.056579065 0.75200003 1.3016521e-39
-0.00071618106 0.056579053 0.75200003 1.5767943e-39
0.00071619631 0.056579046 0.75200009 8.3600626e-40
0.002142862 0.056428585 0.75000006 9.3128895e-41
