# .PCD v0.7 - Point Cloud Data file format
VERSION 0.7
FIELDS x y z rgb
SIZE 4 4 4 4
TYPE F F F F
COUNT 1 1 1 1
WIDTH 975
HEIGHT 1
VIEWPOINT 0 0 0 1 0 0 0
POINTS 975
DATA ascii
0.0021228604 0.0063685849 0.74300003 2.0611419e-40
0.0035380907 0.00636857 0.74300003 8.3343431e-39
0.0049533313 0.0063685775 0.74300003 1.6401473e-38
0.0063685719 0.0063685775 0.74300003 1.434338e-38
0.0077838027 0.0063685775 0.74300003 1.2233334e-38
0.0091990586 0.00636857 0.74300003 1.3070994e-38
0.010614299 0.0063685775 0.74300003 1.3809288e-38
0.012061908 0.0063857138 0.74500006 1.2631231e-38
0.01348096 0.0063857213 0.74500006 1.1345544e-38
0.014940015 0.0064028352 0.74700004 1.1532455e-38
0.016362865 0.0064028576 0.74700004 1.170208e-38
0.017785728 0.0064028427 0.74700004 5.8923521e-39
0.019208578 0.0064028502 0.74700004 1.0385023e-40
0.020659052 0.0064114258 0.74800003 1.0672429e-40
0.022083826 0.0064114332 0.74800003 1.0024189e-40
0.02357143 0.0064285696 0.75000006 3.9551551e-39
0.025066659 0.0064456984 0.75200009 7.7451588e-39
0.026534287 0.0064542815 0.75300002 1.2640418e-38
0.028042864 0.0064714253 0.75500005 1.7508419e-38
0.02948097 0.0064714476 0.75500005 1.723399e-38
0.030960009 0.0064799935 0.75600004 1.6956706e-38
0.032400016 0.0064799935 0.75600004 1.7326576e-38
-0.02526666 0.0079409406 0.75800002 2.3071496e-39
-0.023759991 0.0079200119 0.75600004 1.1997357e-39
-0.022290472 0.0079095215 0.75500005 7.3983234e-40
-0.020852378 0.0079095438 0.75500005 3.7177289e-40
-0.019362861 0.0078885704 0.75300002 3.7177289e-40
-0.01790477 0.0078780949 0.75200003 2.8138073e-40
-0.016428569 0.0078571364 0.75000006 3.7430083e-40
-0.014999996 0.0078571513 0.75 5.5905363e-40
-0.013571427 0.007857129 0.75000006 5.6049276e-40
-0.012110467 0.0078361928 0.74800003 6.5268839e-40
-0.010685709 0.0078361928 0.74800003 6.5340726e-40
-0.0092485659 0.0078257024 0.74700004 7.4488963e-40
-0.0078047444 0.0078047737 0.745 9.2964242e-40
-0.0063857092 0.0078047663 0.74500006 1.205872e-39
-0.0049666571 0.0078047588 0.74500006 9.3144729e-40
-0.0035476112 0.0078047737 0.74500006 6.559352e-40
-0.0021228506 0.0077838153 0.74300003 6.5521213e-40
-0.00070761784 0.0077838153 0.74300003 6.5375898e-40
0.00070761249 0.0077838153 0.74300003 3.7357076e-40
0.002122853 0.0077838153 0.74300003 1.9426901e-40
0.0035380938 0.0077838153 0.74300003 8.0373001e-39
0.0049533346 0.0077838153 0.74299997 1.5861219e-38
0.0063685798 0.0077838153 0.74300003 1.4094067e-38
0.0077838204 0.0077838153 0.74300003 1.2334139e-38
0.0091990614 0.0077838153 0.74300003 1.1872463e-38
0.010642865 0.0078047663 0.74500006 1.1430878e-38
0.012061917 0.0078047663 0.74500006 1.1424076e-38
0.01348097 0.0078047737 0.74500006 1.1516999e-38
0.014940002 0.0078257099 0.74700004 1.1803277e-38
0.016384779 0.0078361928 0.74800003 1.2074068e-38
0.017785715 0.0078257099 0.74700004 8.5677644e-39
0.019234305 0.0078362003 0.74800003 5.0539917e-39
0.020714294 0.0078571439 0.75000006 2.5801842e-39
0.022142867 0.0078571364 0.75 9.7366421e-41
0.023634275 0.00787808 0.75200009 3.7793636e-39
0.025066661 0.0078781024 0.75200009 7.3800098e-39
0.026534289 0.0078885555 0.75300002 1.2081246e-38
0.028042858 0.0079095364 0.75500005 1.6774166e-38
0.029480966 0.0079095364 0.75500005 1.6497565e-38
-0.025333334 0.0094095245 0.76000005 2.3971887e-39
-0.023822853 0.0093847588 0.75800002 1.200449e-39
-0.022319991 0.009359993 0.75600004 8.3166503e-40
-0.020852376 0.0093476251 0.75500005 3.7213022e-40
-0.019362858 0.0093228519 0.75300002 3.7105683e-40
-0.017904762 0.0093104914 0.75200003 2.8066327e-40
-0.016428573 0.0092857108 0.75000006 3.7322464e-40
-0.014999998 0.0092857033 0.75000006 4.668594e-40
-0.013571425 0.0092857182 0.75 6.5161079e-40
-0.01211047 0.0092609525 0.74800003 7.4416656e-40
-0.01068571 0.009260945 0.74800003 7.4452949e-40
-0.0092609432 0.009260945 0.74800003 6.53773e-40
-0.0078257071 0.0092485622 0.74700004 1.0218366e-39
-0.0063857064 0.0092238113 0.74500006 1.2984221e-39
-0.0049799932 0.0092485622 0.74700004 1.0232786e-39
-0.0035571363 0.0092485622 0.74700004 6.5557086e-40
-0.0021228585 0.0091990456 0.74300003 7.4596582e-40
-0.00070762483 0.0091990456 0.74300003 8.3527898e-40
0.00070763065 0.009199053 0.74300003 4.6111127e-40
0.0021228711 0.0091990605 0.74300003 1.078159e-40
0.0035381017 0.0091990456 0.74300003 7.6678001e-39
0.004953342 0.009199053 0.74300003 1.5211943e-38
0.0063685826 0.009199053 0.74300003 1.383764e-38
0.0077838129 0.009199053 0.74300003 1.2434244e-38
0.0092238225 0.0092238188 0.74500006 1.0745298e-38
0.010642876 0.0092238113 0.74500006 9.0259204e-39
0.012061913 0.0092238188 0.745 1.0301241e-38
0.013480966 0.0092238188 0.745 1.161744e-38
0.014940004 0.0092485547 0.74700004 1.2089901e-38
0.016384769 0.009260945 0.74800003 1.2450769e-38
0.017809536 0.009260945 0.74800009 1.1251153e-38
0.019234296 0.009260945 0.74800003 1.003933e-38
0.020714287 0.0092857108 0.75 5.062251e-39
0.022142865 0.0092857182 0.75000006 1.0059641e-40
0.023634277 0.0093104765 0.75200009 3.5931885e-39
0.025066659 0.0093104765 0.75200003 7.0105154e-39
0.026534293 0.0093228444 0.75300002 1.1529868e-38
0.028042879 0.0093476325 0.75500005 1.6035175e-38
0.029480962 0.0093476251 0.75500005 1.576073e-38
0.030960016 0.009359993 0.75600004 1.5393393e-38
-0.02543333 0.010900013 0.76299995 2.3975432e-39
-0.023822863 0.01082857 0.75800008 1.2000874e-39
-0.022319989 0.010799997 0.75599998 7.4018547e-40
-0.02085238 0.010785706 0.75500005 3.7248895e-40
-0.019362856 0.010757141 0.75300002 2.799388e-40
-0.017904773 0.010742851 0.75200009 1.8847044e-40
-0.016472388 0.010742851 0.75200009 4.6541886e-40
-0.015000002 0.010714278 0.75000006 7.4236589e-40
-0.013571427 0.010714278 0.75000006 7.4344629e-40
-0.012142856 0.010714293 0.75 7.4416936e-40
-0.010685703 0.010685727 0.74800003 7.4489103e-40
-0.009260945 0.010685712 0.74800003 6.5413453e-40
-0.0078361761 0.01068572 0.74800003 8.3888312e-40
-0.0064114193 0.010685712 0.74800003 1.1154672e-39
-0.0049866578 0.010685705 0.74800003 8.3996072e-40
-0.003557134 0.010671422 0.74700004 5.6373116e-40
-0.0021285638 0.010642864 0.74500006 6.5484219e-40
-0.00070951122 0.010642856 0.74500006 7.4559868e-40
0.00070954172 0.010642871 0.74500006 4.6650067e-40
0.0021285792 0.010642864 0.745 9.7055333e-41
0.0035476324 0.010642871 0.745 5.1763965e-39
0.0049666846 0.010642864 0.745 1.0347921e-38
0.0063685761 0.010614283 0.74300003 1.1906291e-38
0.0077838167 0.010614283 0.74300003 1.3553867e-38
0.0092238178 0.010642856 0.74500006 1.2715068e-38
0.01064287 0.010642864 0.745 1.1983294e-38
0.012061923 0.010642864 0.745 1.2539727e-38
0.013480965 0.010642856 0.74500006 1.3112275e-38
0.014940007 0.010671422 0.74700004 1.2644499e-38
0.016384775 0.010685705 0.74800003 1.2183547e-38
0.017809536 0.010685712 0.74800003 1.0705948e-38
0.019234287 0.010685705 0.74800003 9.2383124e-39
0.020714285 0.010714285 0.75000006 4.7049493e-39
0.022142857 0.010714285 0.75 9.8086689e-41
0.023634275 0.010742858 0.75200003 3.6875421e-39
0.025066676 0.010742858 0.75200003 7.1923928e-39
0.026499035 0.010742851 0.75200009 1.171138e-38
0.028042873 0.010785714 0.75500005 1.6219202e-38
0.029480956 0.010785721 0.75500005 1.5759656e-38
-0.026957147 0.012385704 0.76500005 3.7818916e-39
-0.025500001 0.012385719 0.76500005 2.4879452e-39
-0.023885714 0.012304768 0.76000005 1.1082519e-39
-0.022319991 0.012239993 0.75600004 7.3982673e-40
-0.020852378 0.012223817 0.75500005 3.7212462e-40
-0.019337151 0.012175232 0.75200009 2.7957166e-40
-0.017904766 0.012175232 0.75200003 9.6986669e-41
-0.016428575 0.012142859 0.75000006 5.5725016e-40
-0.014999992 0.012142859 0.75000006 9.2639141e-40
-0.013571422 0.012142859 0.75 8.3599785e-40
-0.012142858 0.012142844 0.75000006 7.4416515e-40
-0.010685704 0.012110479 0.74800003 7.4488682e-40
-0.009260946 0.012110472 0.74800003 6.5449046e-40
-0.007857142 0.012142852 0.75000006 7.4812382e-40
-0.0064114211 0.012110472 0.74800003 8.4031945e-40
-0.0049866596 0.012110472 0.74800003 6.5701e-40
-0.0035619019 0.012110472 0.74800003 3.8113777e-40
-0.0021285606 0.012061909 0.74500006 5.6444442e-40
-0.00070951541 0.012061909 0.74500006 6.5484499e-40
0.00070953707 0.012061909 0.745 3.7862244e-40
0.0021285894 0.012061909 0.745 1.034901e-40
0.0035476314 0.012061901 0.74500006 2.7760619e-39
0.0049666697 0.012061909 0.74500006 5.3654513e-39
0.0063685789 0.012029529 0.74300003 9.9766565e-39
0.0077838092 0.012029521 0.74300003 1.456624e-38
0.0091990503 0.012029521 0.74300003 1.4761352e-38
0.010642881 0.012061916 0.745 1.4842445e-38
0.012061908 0.012061901 0.74500006 1.4761392e-38
0.013517144 0.012094282 0.7470001 1.4569107e-38
0.014960016 0.012110479 0.74800003 1.3283406e-38
0.016384766 0.012110464 0.74800003 1.189512e-38
0.017809542 0.012110472 0.74800003 1.0150971e-38
0.01928572 0.012142859 0.75000006 8.3895389e-39
0.020769522 0.012175225 0.75200009 4.2367979e-39
0.022201905 0.01217524 0.75200003 1.0131388e-40
0.02363429 0.01217524 0.75200003 3.7747183e-39
0.025100004 0.012191415 0.75300002 7.3785735e-39
0.026534276 0.012191407 0.75300002 1.1904012e-38
0.02808002 0.012240008 0.75599998 1.6311392e-38
0.029520016 0.012239993 0.75599998 1.5851131e-38
0.031164758 0.012320951 0.76100004 1.5391956e-38
-0.026957139 0.013842851 0.76500005 3.6039575e-39
-0.025499996 0.013842866 0.76500005 2.3986222e-39
-0.023979992 0.013806686 0.76299995 1.1064597e-39
-0.022319999 0.013679996 0.75600004 8.3166083e-40
-0.020852372 0.013661921 0.755 5.5543267e-40
-0.019362865 0.013625696 0.75300002 3.7175748e-40
-0.017904764 0.013607629 0.75200003 2.8065066e-40
-0.016428573 0.013571434 0.75 4.6612652e-40
-0.015000003 0.013571419 0.75000006 7.4307635e-40
-0.013571429 0.013571434 0.75000006 7.4344208e-40
-0.01214285 0.013571434 0.75 7.4344489e-40
-0.010685707 0.013535231 0.74800003 6.5304572e-40
-0.0092857154 0.013571426 0.75000006 6.5377019e-40
-0.0078361798 0.013535231 0.74800003 7.4776509e-40
-0.0064285723 0.013571426 0.75000006 7.4884409e-40
-0.0049866615 0.013535239 0.74800003 6.570114e-40
-0.0035619037 0.013535239 0.74800009 5.6552903e-40
-0.0021285578 0.013480961 0.74500006 6.5664145e-40
-0.00070950564 0.013480946 0.745 8.3888172e-40
0.00070954685 0.013480969 0.745 6.5413873e-40
0.0021285745 0.013480946 0.74500006 5.5977389e-40
0.0035476268 0.013480954 0.74500006 1.6660864e-39
0.0049666795 0.013480946 0.74500006 2.7692698e-39
0.0063685719 0.013444766 0.74300003 5.080664e-39
0.0077838125 0.013444759 0.74300003 7.3916224e-39
0.0092238234 0.013480961 0.745 9.2333588e-39
0.010642866 0.013480954 0.74500006 1.1159036e-38
0.012061918 0.013480954 0.74500006 9.2233157e-39
0.013517146 0.013517134 0.7470001 7.3844337e-39
0.014960007 0.013535231 0.74800003 6.6432716e-39
0.016428582 0.013571434 0.75000006 5.9928869e-39
0.017857155 0.013571426 0.75000006 5.3496769e-39
0.019285716 0.013571411 0.75000006 4.6059756e-39
0.020769522 0.013607629 0.75200003 2.4922752e-39
0.022201907 0.013607621 0.75200003 3.7646164e-40
0.023634288 0.013607614 0.75200003 3.6897029e-39
0.025100008 0.013625711 0.75300002 7.1027069e-39
0.02653428 0.013625704 0.75300002 1.060934e-38
0.028154291 0.013716191 0.75800002 1.4015859e-38
0.029598098 0.013716199 0.75800002 1.355273e-38
0.031164765 0.013770491 0.76099998 1.3094993e-38
-0.026957145 0.015299983 0.76500005 3.417425e-39
-0.025500007 0.015299998 0.7650001 2.304277e-39
-0.023979997 0.015260004 0.76299995 1.1086121e-39
-0.022379048 0.015160002 0.75800008 9.2457252e-40
-0.020879988 0.015120007 0.75599998 7.39468e-40
-0.01941428 0.015100002 0.75500005 5.5436208e-40
-0.017904766 0.01504001 0.75200003 3.7321062e-40
-0.01647239 0.015039995 0.75200009 4.6756425e-40
-0.014999995 0.015000008 0.75000006 4.6756986e-40
-0.013571433 0.014999993 0.75000006 5.5976969e-40
-0.012142852 0.015000001 0.75000006 6.5232826e-40
-0.01071428 0.015000001 0.75000006 6.5341006e-40
-0.0092857173 0.014999986 0.75000006 6.5484779e-40
-0.0078571374 0.015000001 0.75000006 6.5628552e-40
-0.0064285649 0.015000001 0.75 6.5700579e-40
-0.0049866633 0.014959991 0.74800003 7.4884409e-40
-0.0035618953 0.014959991 0.74800003 7.4920002e-40
-0.0021342775 0.014939986 0.74700004 8.4067398e-40
-0.00071142789 0.014939994 0.74700004 9.3143608e-40
0.0007114365 0.014939986 0.74700004 9.3143748e-40
0.0021343008 0.014939994 0.74700004 9.2819348e-40
0.003557151 0.014939986 0.74700004 5.5904242e-40
0.0049666748 0.014900006 0.745 9.8841988e-41
0.0063857273 0.014900006 0.745 9.2438054e-41
0.0078047696 0.014900006 0.74500006 1.2474219e-40
0.0092238225 0.014900006 0.74500006 3.8046388e-39
0.010642876 0.014900006 0.74500006 7.3826162e-39
0.012061913 0.014899991 0.74500006 3.771955e-39
0.013517148 0.014939979 0.7470001 1.1000753e-40
0.014960012 0.014959984 0.74800003 9.6368697e-41
0.016428575 0.014999993 0.75 1.0533561e-40
0.017857153 0.014999993 0.75000006 4.6514281e-40
0.019285725 0.015000001 0.75000006 8.3926988e-40
0.020769522 0.01504001 0.75200003 7.4991608e-40
0.022201905 0.015040003 0.75200003 5.6408429e-40
0.023665711 0.01506 0.75300002 3.6879177e-39
0.025099996 0.015059985 0.75300002 6.8275759e-39
0.026604777 0.01510001 0.75500005 9.3233081e-39
0.028080005 0.015120007 0.75600004 1.17121e-38
0.029520012 0.015119992 0.75600004 1.124861e-38
0.031164763 0.015220009 0.76099998 1.0699753e-38
-0.028414283 0.016757131 0.76500005 3.4203089e-39
-0.026957139 0.016757146 0.76500005 2.500512e-39
-0.0255 0.016757146 0.76500005 1.7568527e-39
-0.023980001 0.016713329 0.76300001 1.0174954e-39
-0.022526667 0.016713329 0.76300001 8.3273703e-40
-0.020935239 0.016603798 0.75800002 5.5615995e-40
-0.019439988 0.016559996 0.75600004 4.6397132e-40
-0.017928571 0.016494282 0.75300002 2.8138073e-40
-0.01647239 0.016472384 0.75200009 3.7465536e-40
-0.015040006 0.016472384 0.75200003 4.6685379e-40
-0.013571424 0.016428575 0.75000006 6.5196252e-40
-0.012142853 0.016428582 0.75 7.4452389e-40
-0.010714281 0.016428575 0.75000006 7.4560849e-40
-0.0092857098 0.016428567 0.75000006 7.4704342e-40
-0.0078571467 0.01642856 0.75000006 8.3995371e-40
-0.0064285742 0.016428575 0.75000006 1.0247037e-39
-0.0049866652 0.016384758 0.74800003 8.4103411e-40
-0.0035714316 0.016428567 0.75000006 7.4920002e-40
-0.0021342831 0.016362846 0.74700004 7.4812382e-40
-0.00071142602 0.016362838 0.74700004 7.4704763e-40
0.00071143836 0.016362853 0.74700004 6.5413593e-40
0.0021342887 0.016362846 0.74700004 5.597767e-40
0.0035571528 0.016362846 0.74700004 2.025902e-39
0.0049800025 0.016362853 0.74700004 3.4945791e-39
0.0063685826 0.016275242 0.74300003 5.4457499e-39
0.0078047798 0.016319051 0.74500006 7.3940592e-39
0.0092238178 0.016319044 0.74500006 9.23403e-39
0.01064287 0.016319059 0.745 1.116146e-38
0.012061923 0.016319051 0.745 7.8363301e-39
0.01351715 0.016362838 0.7470001 4.6156375e-39
0.014960003 0.016384751 0.74800003 5.0762555e-39
0.016428571 0.016428575 0.75000006 5.6211701e-39
0.017857146 0.016428567 0.75 3.1373055e-39
0.019337136 0.016472384 0.75200003 6.580946e-40
0.020797148 0.016494282 0.75300002 6.5772466e-40
0.022231434 0.016494274 0.75300002 5.6444863e-40
0.023665704 0.016494282 0.75300008 3.6925896e-39
0.025166675 0.016538106 0.75500005 6.8290263e-39
0.02664002 0.016560003 0.75599998 9.1346387e-39
0.028154301 0.016603805 0.75800002 1.1434462e-38
0.029598106 0.016603805 0.75800002 1.0973121e-38
0.031164775 0.016669542 0.76100004 1.0513947e-38
0.03261428 0.016669534 0.76100004 1.0328483e-38
-0.029871432 0.018214278 0.7650001 2.4961862e-39
-0.028414277 0.018214285 0.76500005 2.0384605e-39
-0.026957139 0.0182143 0.76500005 1.4849308e-39
-0.025499996 0.018214285 0.76500005 1.2047565e-39
-0.02404285 0.018214278 0.76500005 9.2672492e-40
-0.02252667 0.018166669 0.76300001 6.4941216e-40
-0.021018097 0.01811906 0.76100004 3.7319941e-40
-0.019491425 0.018047623 0.75800002 2.799402e-40
-0.017928578 0.017928563 0.75300008 1.8954383e-40
-0.016472384 0.017904766 0.75200003 3.7501409e-40
-0.015039998 0.017904766 0.75200003 4.6756986e-40
-0.01360763 0.017904751 0.75200009 6.5232125e-40
-0.012142854 0.017857149 0.75000006 8.3707545e-40
-0.010714282 0.017857142 0.75 8.3672372e-40
-0.0092857117 0.017857142 0.75000006 7.4668189e-40
-0.0078571392 0.017857142 0.75000006 1.023266e-39
-0.0064285668 0.017857142 0.75 1.2994913e-39
-0.0050000041 0.017857149 0.75000006 1.0247037e-39
-0.0035714237 0.017857142 0.75000006 7.4847835e-40
-0.0021342807 0.017785698 0.74700004 6.5556526e-40
-0.00070951495 0.017738111 0.74500006 5.6265216e-40
0.00071144116 0.017785706 0.74700004 3.7790357e-40
0.0021285899 0.017738104 0.745 9.7373428e-41
0.0035476319 0.017738096 0.74500006 3.4902645e-39
0.0049533453 0.01769048 0.74300003 6.8250872e-39
0.0063685756 0.017690472 0.74300003 1.0802041e-38
0.0077838162 0.017690472 0.74300003 1.4659862e-38
0.0092238281 0.017738104 0.745 1.4759245e-38
0.010671434 0.017785706 0.74700004 1.4838853e-38
0.012094298 0.017785713 0.74700004 1.1979726e-38
0.013517153 0.017785691 0.7470001 9.0406424e-39
0.015000009 0.017857149 0.75000006 1.006376e-38
0.016472381 0.017904751 0.75200003 1.1054549e-38
0.017904766 0.017904773 0.75200003 5.8041124e-39
0.019337151 0.017904766 0.75200003 4.7513967e-40
0.020797152 0.017928563 0.75300002 5.6697096e-40
0.022201909 0.017904758 0.75200009 5.6588776e-40
0.023665708 0.017928556 0.75300002 3.6886464e-39
0.025166672 0.017976195 0.75500005 6.8268739e-39
0.026640005 0.017999999 0.75600004 9.0438752e-39
0.028154289 0.018047616 0.75800008 1.1156442e-38
0.029598106 0.018047623 0.75800002 1.0787296e-38
0.031164771 0.01811906 0.76100004 1.032776e-38
0.032614276 0.018119045 0.76100004 1.0233412e-38
-0.029871427 0.019671425 0.76500005 1.941223e-39
-0.028340004 0.019620009 0.76300001 1.5749656e-39
-0.026886664 0.019620009 0.76300001 1.2980214e-39
-0.02543333 0.019620009 0.76299995 1.1125539e-39
-0.023979997 0.019620001 0.76299995 9.2635638e-40
-0.022526665 0.019620009 0.76299995 6.5011561e-40
-0.021018099 0.01956857 0.76100004 3.7390987e-40
-0.019491427 0.019491427 0.75800008 3.7249176e-40
-0.017928582 0.019362845 0.75300002 2.8066187e-40
-0.016494283 0.019362859 0.75300002 4.6648946e-40
-0.015040007 0.019337133 0.75200009 6.5124085e-40
-0.013607624 0.019337147 0.75200009 6.5303731e-40
-0.012142855 0.019285716 0.75 7.4667348e-40
-0.010714283 0.019285716 0.75000006 6.5448486e-40
-0.0092857098 0.019285716 0.75 6.5484499e-40
-0.0078571411 0.019285709 0.75000006 8.3923485e-40
-0.0064285691 0.019285716 0.75000006 1.1154602e-39
-0.0049999962 0.019285709 0.75 8.4031385e-40
-0.003571426 0.019285709 0.75000006 5.6444582e-40
-0.0021342789 0.019208565 0.74700004 7.4703642e-40
-0.00070950517 0.019157141 0.745 8.3707545e-40
0.00071142812 0.019208565 0.74700004 4.6542587e-40
0.0021285745 0.019157134 0.74500006 9.3790308e-41
0.0035476272 0.019157149 0.74500006 5.538642e-39
0.0049533383 0.01910571 0.74300003 1.0983191e-38
0.0063685789 0.019105718 0.74300003 1.0063468e-38
0.0078047849 0.019157149 0.745 9.1533572e-39
0.0092238234 0.019157156 0.745 1.1539279e-38
0.010671436 0.019208573 0.74700004 1.4016664e-38
0.0120943 0.019208565 0.74700004 1.1064276e-38
0.013535249 0.01923427 0.74800003 8.1262755e-39
0.015000007 0.019285701 0.75000006 9.8783414e-39
0.016472381 0.019337147 0.75200003 1.1708178e-38
0.017904766 0.019337147 0.75200003 6.0853488e-39
0.01933714 0.01933714 0.75200009 3.8114898e-40
0.020797141 0.019362852 0.75300002 3.8294684e-40
0.022231426 0.019362837 0.75300002 3.825797e-40
0.023728585 0.019414291 0.755 3.6925952e-39
0.025166666 0.019414291 0.75500005 7.0116197e-39
0.026710486 0.019491427 0.75800002 9.1331954e-39
0.02822857 0.019542865 0.76000005 1.1247916e-38
0.029676188 0.019542858 0.76000005 1.0879848e-38
0.031123806 0.019542843 0.76000005 1.0511427e-38
0.032571424 0.019542851 0.76000011 1.0419229e-38
-0.028340001 0.021073326 0.76300001 1.2061845e-39
-0.026886668 0.021073349 0.76300001 1.1139902e-39
-0.025433334 0.021073334 0.76300001 1.0214373e-39
-0.023980001 0.021073334 0.76300001 8.3596282e-40
-0.022467624 0.021018103 0.76100004 6.5120582e-40
-0.020990474 0.020990483 0.76000005 3.7427561e-40
-0.019491427 0.020935237 0.75800002 3.7177569e-40
-0.017928578 0.020797133 0.75300002 3.7321343e-40
-0.016494282 0.020797133 0.75300002 6.5087651e-40
-0.015040007 0.020769529 0.75200009 8.3563071e-40
-0.013607622 0.020769522 0.75200003 7.4487842e-40
-0.012175237 0.020769536 0.75200003 5.6193189e-40
-0.010714282 0.020714283 0.75 5.6265777e-40
-0.0092857135 0.02071429 0.75000006 4.711782e-40
-0.0078571402 0.02071429 0.75000006 6.5520512e-40
-0.0064285677 0.020714283 0.75 8.3995371e-40
-0.004999999 0.020714276 0.75000006 6.5628272e-40
-0.003571426 0.020714283 0.75 3.8077483e-40
-0.002134284 0.020631418 0.74700004 7.4739795e-40
-0.00070950983 0.020576201 0.745 1.1111428e-39
0.00071142998 0.020631418 0.74700004 6.45141e-40
0.0021285848 0.020576194 0.74500006 1.0815642e-40
0.0035476373 0.020576186 0.74500006 7.5866887e-39
0.0049666753 0.020576194 0.745 1.5022885e-38
0.0063857278 0.020576186 0.745 9.3147686e-39
0.00780477 0.020576194 0.74500006 3.6227419e-39
0.0092238234 0.020576186 0.74500006 8.4114426e-39
0.010671438 0.020631433 0.74700004 1.3090744e-38
0.012094303 0.020631425 0.74700004 1.013371e-38
0.01353524 0.020659037 0.74800009 7.1132012e-39
0.015 0.020714283 0.75000006 9.7979742e-39
0.016428586 0.020714283 0.75 1.2349227e-38
0.017857149 0.020714283 0.75000006 6.355833e-39
0.01933714 0.020769507 0.75200003 2.9217914e-40
0.020797145 0.020797141 0.75300002 2.928966e-40
0.02223143 0.020797133 0.75300002 1.9854437e-40
0.023728579 0.020852394 0.75500005 3.6868541e-39
0.025200019 0.020880006 0.75599998 7.1030964e-39
0.026710488 0.020935245 0.75800002 9.229337e-39
0.028154293 0.020935252 0.75800002 1.1340833e-38
0.029676197 0.020990469 0.76000005 1.1064965e-38
0.031123815 0.020990483 0.76000005 1.0696899e-38
0.032485727 0.020935237 0.75800002 1.0605415e-38
-0.028414287 0.022585697 0.7650001 1.297657e-39
-0.026957149 0.022585712 0.7650001 1.1136301e-39
-0.025433328 0.022526681 0.76299995 1.0210799e-39
-0.02404286 0.022585697 0.7650001 9.2852278e-40
-0.022467628 0.022467621 0.76100004 6.5157716e-40
-0.02099048 0.022438109 0.76000005 3.7500008e-40
-0.019491425 0.022379056 0.75800002 3.7356936e-40
-0.017976182 0.022290483 0.755 3.7357216e-40
-0.016494295 0.022231415 0.75300008 5.5903961e-40
-0.01504 0.022201903 0.75200003 7.4415535e-40
-0.013607622 0.022201911 0.75200003 7.4452389e-40
-0.012175249 0.022201903 0.75200009 7.4489243e-40
-0.010742864 0.022201903 0.75200009 5.6230744e-40
-0.0093104793 0.022201903 0.75200003 4.7154114e-40
-0.007878094 0.022201911 0.75200003 6.5592259e-40
-0.00642857 0.022142865 0.75000006 9.3250527e-40
-0.0049999896 0.022142872 0.75 7.4847555e-40
-0.0035714279 0.02214285 0.75000006 6.5699878e-40
-0.0021371362 0.022083804 0.74800003 9.3107034e-40
-0.00071237457 0.022083804 0.74800003 1.2051279e-39
0.00071239017 0.022083811 0.74800003 6.4800105e-40
0.0021371511 0.022083811 0.74800003 9.705253e-41
0.0035619165 0.022083811 0.74800003 7.6706742e-39
0.0049800109 0.022054277 0.74700004 1.5217326e-38
0.0064028613 0.02205427 0.74700004 8.4799717e-39
0.0078257257 0.022054285 0.74700004 1.845185e-39
0.0092609543 0.022083811 0.74800003 7.4804815e-39
0.01068573 0.022083811 0.74800003 1.3097169e-38
0.012110481 0.022083804 0.74800003 9.8628515e-39
0.013535256 0.022083811 0.74800003 6.7314973e-39
0.014999997 0.022142865 0.75000006 9.2318818e-39
0.016428569 0.022142857 0.75000006 1.1708167e-38
0.017857157 0.02214285 0.75 6.0871424e-39
0.019362852 0.022231415 0.75300002 4.7512846e-40
0.020797137 0.022231407 0.75300008 4.7512286e-40
0.022231432 0.02223143 0.75300002 4.72253e-40
0.023728576 0.022290483 0.75500005 3.7837104e-39
0.025200019 0.022320002 0.75600004 7.106325e-39
0.026710477 0.022379048 0.75800002 9.1346317e-39
0.028154284 0.022379033 0.75800008 1.1158244e-38
0.029598089 0.022379056 0.75800008 1.0789827e-38
0.031041911 0.022379041 0.75800008 1.0422117e-38
0.032400016 0.02232001 0.75600004 1.0329553e-38
0.033840012 0.022320002 0.75600004 1.0328841e-38
-0.028414281 0.024042845 0.76500005 1.2972983e-39
-0.026957143 0.02404286 0.76500005 1.1129112e-39
-0.0255 0.024042852 0.76500005 1.0210771e-39
-0.024042852 0.024042845 0.76500005 9.2816405e-40
-0.022526665 0.023980007 0.76299995 6.519401e-40
-0.021018101 0.023917146 0.76100004 2.8316599e-40
-0.019491434 0.023822859 0.75800002 2.8173386e-40
-0.01797618 0.023728594 0.75500005 2.8245413e-40
-0.016538089 0.023728579 0.75500005 4.6684539e-40
-0.015059995 0.023665704 0.75300002 5.6012422e-40
-0.013607626 0.023634285 0.75200009 7.4416235e-40
-0.012175241 0.023634285 0.75200009 8.3708245e-40
-0.010742855 0.023634277 0.75200003 6.5341847e-40
-0.0093104718 0.023634285 0.75200003 4.711782e-40
-0.0078571429 0.023571432 0.75000006 7.4775528e-40
-0.0064285728 0.023571417 0.75000006 9.3178641e-40
-0.0049999999 0.023571424 0.75000006 9.3214654e-40
-0.0035714195 0.023571432 0.75 9.3215074e-40
-0.002137138 0.023508571 0.74800003 1.1151071e-39
-0.00071236992 0.023508571 0.74800003 1.2951739e-39
0.00071238086 0.023508579 0.74800003 7.3589329e-40
0.0021371567 0.023508579 0.74800003 1.1391435e-40
0.0035619072 0.023508556 0.74800003 7.7815239e-39
0.0049866829 0.023508564 0.74800003 1.5296253e-38
0.0064114332 0.023508564 0.74800003 7.726642e-39
0.0078361947 0.023508571 0.74800003 1.1179699e-40
0.0092609599 0.023508556 0.74800003 6.568232e-39
0.010714282 0.023571432 0.75000006 1.2997084e-38
0.012110486 0.023508564 0.74800003 9.6723604e-39
0.013571433 0.023571432 0.75000006 6.3752844e-39
0.015000005 0.023571424 0.75000006 8.7816951e-39
0.016428567 0.023571432 0.75000006 1.106246e-38
0.017928571 0.023665704 0.75300002 5.9009617e-39
0.019362856 0.023665689 0.75300002 6.5987985e-40
0.020797141 0.023665704 0.75300002 7.5171535e-40
0.022290489 0.023728579 0.75500005 7.4883849e-40
0.023728585 0.023728579 0.75500005 3.869086e-39
0.025200017 0.023759991 0.75600004 7.0112539e-39
0.02671048 0.023822851 0.75800002 9.0445814e-39
0.028228572 0.023885719 0.76000011 1.0973124e-38
0.029676199 0.023885712 0.76000005 1.0513586e-38
0.031123817 0.023885719 0.76000005 1.0054042e-38
-0.026957139 0.025500007 0.76500005 1.2036691e-39
-0.0255 0.0255 0.76500005 1.1121924e-39
-0.024042856 0.025499992 0.76500005 1.0196422e-39
-0.022526667 0.025433332 0.76300001 7.4306093e-40
-0.021018105 0.025366679 0.76100004 4.6647965e-40
-0.019491425 0.02526667 0.75800002 3.7392809e-40
-0.017976185 0.025166675 0.75500005 2.8245413e-40
-0.016538095 0.025166668 0.75500005 4.6756285e-40
-0.015059998 0.0251 0.75300002 7.4487001e-40
-0.013625714 0.0251 0.75300002 7.4523575e-40
-0.012175242 0.025066666 0.75200003 7.4631755e-40
-0.010742857 0.025066674 0.75200003 6.5448766e-40
-0.009285707 0.025000006 0.75 5.6336682e-40
-0.0078780977 0.025066674 0.75200009 7.4739375e-40
-0.0064285719 0.024999991 0.75000006 9.3142627e-40
-0.0049999915 0.024999999 0.75 8.4031104e-40
-0.0035714293 0.024999999 0.75000006 7.4848256e-40
-0.0021371404 0.024933338 0.74800009 8.3960759e-40
-0.00071237877 0.024933323 0.74800003 1.0218254e-39
0.00071238645 0.024933323 0.74800003 5.5832355e-40
0.0021371474 0.024933331 0.74800003 1.0638378e-40
0.0035619128 0.024933316 0.74800003 7.3011826e-39
0.0049866736 0.024933338 0.74800003 1.4479424e-38
0.0064114388 0.024933323 0.74800009 1.0045497e-38
0.0078362003 0.024933338 0.74800003 5.7048024e-39
0.0092857173 0.025000006 0.75 9.4083221e-39
0.01071428 0.024999991 0.75000006 1.3190801e-38
0.012110488 0.024933338 0.74800003 1.1618121e-38
0.01357144 0.024999991 0.75 1.0050148e-38
0.015000002 0.024999984 0.75000006 9.8747737e-39
0.016494278 0.0251 0.75300002 9.5941791e-39
0.017928572 0.0251 0.75300002 5.0737248e-39
0.019362859 0.025099985 0.75300002 5.6195151e-40
0.020852402 0.025166683 0.755 5.6554164e-40
0.022290485 0.025166683 0.75500005 6.5700579e-40
0.023760017 0.025200009 0.75599998 3.7840636e-39
0.025266664 0.025266647 0.75800008 6.9230002e-39
0.026780946 0.02533333 0.76000005 8.8583895e-39
0.028265715 0.025366671 0.76100004 1.08802e-38
0.029715242 0.025366671 0.76100004 1.0697239e-38
0.031164769 0.025366664 0.76100004 1.0604322e-38
-0.026957149 0.026957139 0.76500005 1.2969424e-39
-0.025500003 0.026957132 0.7650001 1.2040321e-39
-0.024042858 0.026957132 0.7650001 1.1114777e-39
-0.022526672 0.026886664 0.76300001 9.2565292e-40
-0.021018099 0.026816189 0.76100004 6.497863e-40
-0.019491434 0.026710466 0.75800008 4.6503911e-40
-0.017999995 0.026639998 0.75600004 2.8245132e-40
-0.016559994 0.026639998 0.75600004 5.5940115e-40
-0.015099989 0.026604772 0.75500005 8.3634957e-40
-0.01362571 0.026534289 0.75300002 7.4523855e-40
-0.012175241 0.026499055 0.75200003 5.6264656e-40
-0.010742866 0.02649904 0.75200009 6.5448486e-40
-0.0092857098 0.026428573 0.75000006 6.5555264e-40
-0.0078571374 0.026428565 0.75 7.4737973e-40
-0.0064285747 0.026428573 0.75000006 8.399411e-40
-0.0050000018 0.026428565 0.75000006 7.4883288e-40
-0.0035714214 0.026428565 0.75 5.6480736e-40
-0.0021371315 0.02635809 0.74800003 6.5664706e-40
-0.00071237364 0.02635809 0.74800003 6.5304712e-40
0.00071238738 0.026358098 0.74800003 3.6927718e-40
0.0021371529 0.026358098 0.74800003 1.0709283e-40
0.0035619137 0.026358098 0.74800003 6.8376793e-39
0.0049866792 0.026358105 0.74800003 1.3552823e-38
0.0064114397 0.02635809 0.74800003 1.2455135e-38
0.0078571523 0.02642858 0.75 1.1246897e-38
0.0092857145 0.026428558 0.75000006 1.2352843e-38
0.010714288 0.026428573 0.75000006 1.3374159e-38
0.01214286 0.026428573 0.75 1.3558553e-38
0.013571438 0.026428573 0.75000006 1.3737202e-38
0.015040002 0.02649904 0.75200003 1.0981421e-38
0.016494282 0.026534274 0.75300002 8.109722e-39
0.017928578 0.026534274 0.75300002 4.2371594e-39
0.019362861 0.026534282 0.75300002 3.8114758e-40
0.020852398 0.026604779 0.75500005 4.754984e-40
0.02232001 0.026639998 0.75600004 4.7369213e-40
0.023760017 0.026639991 0.75600004 3.6868471e-39
0.025266666 0.026710473 0.75800002 6.827213e-39
0.026816193 0.026816204 0.76099998 8.7686952e-39
0.028265711 0.026816189 0.76100004 1.0697273e-38
0.029793341 0.026886657 0.76300001 1.0882054e-38
0.031246666 0.026886664 0.76300001 1.1070691e-38
0.032614298 0.026816204 0.76100004 1.0325908e-38
-0.025499998 0.028414279 0.76500005 1.2051111e-39
-0.02404286 0.028414279 0.76500005 1.4802546e-39
-0.022526665 0.028340012 0.76299995 1.1111148e-39
-0.021018103 0.028265715 0.76100004 7.4233506e-40
-0.019491427 0.028154291 0.75800002 4.6538944e-40
-0.017999986 0.028079994 0.75599998 2.8137373e-40
-0.016559986 0.028080009 0.75599998 4.6720972e-40
-0.015099994 0.028042853 0.75500005 5.6048716e-40
-0.013625714 0.027968571 0.75300002 5.6228642e-40
-0.012175243 0.027931422 0.75200009 6.5555825e-40
-0.010742867 0.027931422 0.75200009 6.5555825e-40
-0.009285708 0.02785714 0.75 6.562617e-40
-0.0078571392 0.027857147 0.75000006 7.4808319e-40
-0.0064285668 0.02785714 0.75000006 9.3248706e-40
-0.0050000041 0.02785714 0.75000006 7.4883008e-40
-0.0035714312 0.02785714 0.75000006 6.5627992e-40
-0.0021371334 0.027782857 0.74800003 5.6480456e-40
-0.00071238249 0.027782857 0.74800003 5.6479755e-40
0.00071239297 0.027782857 0.74800003 4.6649786e-40
0.0021371436 0.027782843 0.74800003 3.7003528e-40
0.0035619193 0.02778285 0.74800003 3.9774848e-39
0.0049866694 0.02778285 0.74800003 7.5824456e-39
0.0064114453 0.027782857 0.74800003 9.6968733e-39
0.0078571504 0.027857147 0.75000006 1.1903774e-38
0.0092857229 0.027857147 0.75 1.2549471e-38
0.010714286 0.027857132 0.75000006 1.3200938e-38
0.012142858 0.027857147 0.75000006 1.2000267e-38
0.013607617 0.027931429 0.75200003 1.0807439e-38
0.015040003 0.027931429 0.75200003 7.4719e-39
0.016494283 0.027968571 0.75300002 4.1360221e-39
0.017928571 0.027968556 0.75300008 2.6741609e-39
0.019362867 0.027968563 0.75300002 1.2083831e-39
0.020852393 0.02804286 0.75500005 8.4140266e-40
0.022290476 0.02804286 0.75500005 5.6480876e-40
0.023760017 0.028079994 0.75600004 3.4163615e-39
0.025266673 0.028154291 0.75800008 6.2772706e-39
0.026780948 0.028228574 0.76000005 8.9480502e-39
0.028340016 0.028340004 0.76299995 1.1614938e-38
0.029793341 0.028340012 0.76299995 1.2179655e-38
0.031246681 0.028340004 0.76299995 1.2654513e-38
0.032700006 0.028339997 0.76299995 1.1625564e-38
-0.024042854 0.029871419 0.76500005 1.7557597e-39
-0.022526668 0.029793337 0.76300001 1.2958634e-39
-0.02099048 0.029676184 0.76000005 7.4269519e-40
-0.019491423 0.029598095 0.75800002 5.568704e-40
-0.017999988 0.029519998 0.75600004 2.8245132e-40
-0.016559994 0.029520005 0.75600004 2.8353873e-40
-0.015099999 0.029480956 0.75500005 2.8605546e-40
-0.013625711 0.02940286 0.75300002 4.7152572e-40
-0.012191425 0.029402845 0.75300002 6.5591979e-40
-0.010742859 0.029363818 0.75200003 6.5592399e-40
-0.0092857108 0.029285714 0.75000006 6.5627291e-40
-0.0078571374 0.029285707 0.75 8.3993269e-40
-0.0064285765 0.029285714 0.75000006 9.328542e-40
-0.0049999966 0.029285714 0.75000006 8.4174457e-40
-0.0035714237 0.029285729 0.75 6.5735892e-40
-0.0021371357 0.029207617 0.74800003 5.6552482e-40
-0.00071236666 0.029207617 0.74800003 4.7261033e-40
0.00071238365 0.029207617 0.74800003 5.6157176e-40
0.0021371595 0.029207617 0.74800003 6.5306254e-40
0.00356191 0.029207617 0.74800003 1.1194301e-39
0.0049999971 0.029285707 0.75000006 1.5022494e-39
0.00642857 0.029285714 0.75000006 7.0289327e-39
0.0078571429 0.029285721 0.75 1.2540848e-38
0.009285721 0.029285707 0.75000006 1.2832131e-38
0.010714293 0.029285721 0.75000006 1.3005748e-38
0.012175233 0.029363811 0.75200003 1.0434344e-38
0.013607618 0.029363804 0.75200003 7.7477582e-39
0.015060003 0.029402852 0.75300002 3.9627347e-39
0.016494289 0.029402845 0.75300002 1.0061883e-40
0.017976198 0.029480956 0.75500005 1.0225597e-39
0.019414291 0.029480964 0.755 1.9434258e-39
0.020852389 0.029480956 0.75500005 1.3009361e-39
0.022320017 0.029520005 0.75599998 5.6516609e-40
0.023760011 0.029520005 0.75599998 3.1358341e-39
0.025266673 0.029598095 0.75800002 5.7237563e-39
0.0268162 0.029715255 0.76100004 9.1313835e-39
0.028340003 0.029793337 0.76300001 1.2542271e-38
0.029793344 0.02979333 0.76300001 1.3382843e-38
0.03124667 0.029793344 0.76300001 1.4214323e-38
0.03270001 0.029793344 0.76299995 1.3015021e-38
-0.022526672 0.03124667 0.76300001 1.6621306e-39
-0.020990485 0.03112381 0.76000005 8.3453349e-40
-0.019491432 0.031041913 0.75800008 5.579494e-40
-0.018047618 0.031041898 0.75800008 2.8317019e-40
-0.016559994 0.030959994 0.75600004 2.8497366e-40
-0.015119993 0.030960001 0.75600004 3.7896716e-40
-0.013661895 0.03091906 0.75500005 4.7152432e-40
-0.012191429 0.030837134 0.75300002 6.5664005e-40
-0.010742859 0.0307962 0.75200003 6.5628973e-40
-0.0093104849 0.030796178 0.75200009 6.5628272e-40
-0.0078780996 0.030796193 0.75200009 8.4030544e-40
-0.0064457152 0.030796193 0.75200003 1.1165336e-39
-0.0050000059 0.030714281 0.75000006 9.3322414e-40
-0.0035714256 0.030714288 0.75000006 7.4955595e-40
-0.0021371376 0.030632377 0.74800003 5.6552763e-40
-0.00071429031 0.030714273 0.75000006 4.733334e-40
0.00071428262 0.030714281 0.75000006 6.5449326e-40
0.0021371506 0.030632384 0.74800003 8.3672232e-40
0.0035619161 0.030632377 0.74800003 8.3958377e-40
0.0050000055 0.030714288 0.75000006 8.3855242e-40
0.0064285677 0.030714273 0.75000006 4.6149733e-39
0.0078571411 0.030714288 0.75000006 8.387769e-39
0.0092857284 0.030714288 0.75 1.0238116e-38
0.010714292 0.030714296 0.75000006 1.2065473e-38
0.012175233 0.030796178 0.75200003 1.0871583e-38
0.013607607 0.030796193 0.75200009 9.5514143e-39
0.015060007 0.030837141 0.75300002 4.8753037e-39
0.016494291 0.030837134 0.75300002 1.8884599e-40
0.017976193 0.030919045 0.75500005 1.1143966e-39
0.019414302 0.030919053 0.75500005 2.1292478e-39
0.020852383 0.030919053 0.75500005 1.3009319e-39
0.022320015 0.030959994 0.75600004 5.6444723e-40
0.02376001 0.030960009 0.75600004 3.4163629e-39
0.025266677 0.031041905 0.75800002 6.1868911e-39
0.026816199 0.031164765 0.76100004 9.0442311e-39
0.028340019 0.031246677 0.76299995 1.1998803e-38
0.029793333 0.031246655 0.76300001 1.2554171e-38
0.031328578 0.031328566 0.76500005 1.312095e-38
0.032785717 0.031328559 0.76500005 1.2183204e-38
-0.020935237 0.032485723 0.75800002 9.2528999e-40
-0.01949143 0.032485709 0.75800002 6.4834717e-40
-0.017999986 0.03239999 0.75599998 2.8281006e-40
-0.016603805 0.032485709 0.75800002 3.7716649e-40
-0.015119989 0.03239999 0.75599998 3.7824689e-40
-0.01367999 0.032400012 0.75599998 5.6192209e-40
-0.012223799 0.032357156 0.755 6.5519812e-40
-0.010742863 0.032228567 0.75200009 6.5592259e-40
-0.0093104774 0.032228559 0.75200009 5.6444302e-40
-0.0078780996 0.032228574 0.75200003 9.3214234e-40
-0.0064457152 0.032228582 0.75200003 1.2998501e-39
-0.0049999976 0.032142855 0.75000006 1.1172609e-39
-0.0035714181 0.032142863 0.75 8.4139425e-40
-0.0021428554 0.032142855 0.75000006 6.5736312e-40
-0.00071428239 0.03214287 0.75 3.8078044e-40
0.00071427983 0.032142848 0.75000006 6.5449466e-40
0.0021428526 0.032142848 0.75000006 9.2891375e-40
0.0035619067 0.032057129 0.74800003 5.6335281e-40
0.0050000031 0.032142855 0.75000006 9.9916784e-41
0.0064285756 0.032142863 0.75000006 2.1128106e-39
0.0078571485 0.032142855 0.75 4.1651425e-39
0.0092857117 0.032142848 0.75000006 7.6667533e-39
0.010714299 0.032142855 0.75000006 1.116043e-38
0.012175238 0.032228567 0.75200009 1.1343367e-38
0.013607622 0.032228567 0.75200009 1.1418644e-38
0.015059999 0.032271408 0.75300008 5.7983264e-39
0.016538106 0.032357149 0.75500005 1.9889049e-40
0.017976198 0.032357156 0.755 1.2080216e-39
0.019414296 0.032357156 0.75500005 2.2196484e-39
0.020852394 0.032357141 0.75500005 1.3924128e-39
0.022320015 0.03239999 0.75600004 5.6373116e-40
0.02376001 0.03239999 0.75600004 3.5942913e-39
0.025266666 0.032485709 0.75800008 6.6428358e-39
0.026816195 0.032614291 0.76100004 9.042792e-39
0.028340006 0.032700017 0.76299995 1.1344442e-38
0.029793348 0.03270001 0.76299995 1.1621405e-38
0.031328574 0.032785706 0.76500005 1.1901564e-38
0.032785714 0.032785714 0.76500005 1.1343365e-38
0.034242865 0.032785706 0.7650001 1.0790903e-38
-0.022585718 0.034242846 0.7650001 3.3209036e-39
-0.021073336 0.034153342 0.76300001 5.5722774e-40
-0.019491432 0.033929519 0.75800008 3.7319661e-40
-0.017999995 0.033839993 0.75600004 2.8208979e-40
-0.016559994 0.033840008 0.75600004 3.7644762e-40
-0.015119991 0.033839993 0.75600004 5.6155775e-40
-0.01367999 0.033840008 0.75600004 8.377845e-40
-0.012223796 0.03379526 0.75500005 1.205488e-39
-0.010757144 0.033705711 0.75300002 8.3886631e-40
-0.0093228584 0.033705704 0.75300002 4.7188726e-40
-0.0078885797 0.033705696 0.75300008 8.3994951e-40
-0.0064457264 0.033660956 0.75200009 1.1154658e-39
-0.0050133411 0.033660941 0.75200009 9.3216196e-40
-0.0035809563 0.033660948 0.75200003 7.4884409e-40
-0.0021428475 0.033571422 0.75 6.5664426e-40
-0.00071428425 0.033571422 0.75000006 5.640941e-40
0.00071428821 0.033571437 0.75000006 5.619431e-40
0.0021371469 0.033481903 0.74800003 5.5905783e-40
0.0035714237 0.033571422 0.75000006 2.2113625e-39
0.0050000106 0.03357143 0.75 3.8648078e-39
0.0064285733 0.033571422 0.75000006 6.7325609e-39
0.0078571467 0.033571437 0.75000006 9.6046146e-39
0.0092857191 0.033571437 0.75 1.0247862e-38
0.010714282 0.033571415 0.75000006 1.0902542e-38
0.012175238 0.033660948 0.75200009 1.1536415e-38
0.013625718 0.033705696 0.75300002 1.2276759e-38
0.015060003 0.033705696 0.75300008 9.3178543e-39
0.016538102 0.033795238 0.75500005 6.3658593e-39
0.017976195 0.033795252 0.75500005 3.8773452e-39
0.019414293 0.033795245 0.75500005 1.3942051e-39
0.0208524 0.03379526 0.75500005 1.0243576e-39
0.02232001 0.033840008 0.75599998 7.4417356e-40
0.023822863 0.033929519 0.75800002 3.6911463e-39
0.025333337 0.034019038 0.76000005 6.6446266e-39
0.026816191 0.034063824 0.76100004 8.8566057e-39
0.028340012 0.034153342 0.76300001 1.1153922e-38
0.029793337 0.034153342 0.76300001 1.1248262e-38
0.031328581 0.034242861 0.76500005 1.1245031e-38
0.032785717 0.034242854 0.76500005 1.0789078e-38
0.034242872 0.034242854 0.76500005 1.0421387e-38
-0.022644753 0.035793342 0.76700002 4.6080313e-39
-0.021073332 0.035606675 0.76300001 9.9126452e-41
-0.019619999 0.035606667 0.76300001 1.8881236e-40
-0.018047618 0.035373323 0.75800008 1.9097316e-40
-0.016603813 0.035373338 0.75800008 4.6864045e-40
-0.015119993 0.035279989 0.75600004 7.4486721e-40
-0.013679991 0.035280012 0.75600004 1.2051251e-39
-0.012223802 0.035233334 0.75500005 1.6650228e-39
-0.01078571 0.035233341 0.75500005 1.0221786e-39
-0.0093228621 0.035139993 0.75300002 3.8005176e-40
-0.0078885769 0.035139978 0.75300002 6.5663865e-40
-0.0064457189 0.03509333 0.75200009 9.3178641e-40
-0.0050133336 0.03509333 0.75200003 8.3923345e-40
-0.0035809493 0.035093337 0.75200003 6.5664005e-40
-0.0021428568 0.034999989 0.75000006 6.5664005e-40
-0.0007142768 0.035000004 0.75 6.5556245e-40
0.00071428588 0.034999996 0.75000006 3.782623e-40
0.0021428587 0.035000011 0.75000006 9.7011893e-41
0.0035714314 0.035000004 0.75 3.8575995e-39
0.0049999938 0.034999989 0.75000006 7.6523298e-39
0.0064285817 0.035000004 0.75000006 1.1347334e-38
0.0078571439 0.034999989 0.75000006 1.502291e-38
0.0092857173 0.035000004 0.75000006 1.2816709e-38
0.01071429 0.035000004 0.75 1.0604765e-38
0.012175238 0.035093345 0.75200003 1.1805799e-38
0.013625721 0.035139985 0.75300002 1.3003579e-38
0.015100015 0.035233334 0.75500005 1.2739165e-38
0.016538108 0.035233349 0.755 1.2438879e-38
0.018000012 0.035280004 0.75600004 6.5412935e-39
0.019440006 0.035279997 0.75600004 5.6768563e-40
0.020880014 0.035280004 0.75600004 7.4956576e-40
0.022320008 0.035280004 0.75600004 8.3995371e-40
0.023822851 0.035373338 0.75800008 3.6889953e-39
0.025333332 0.035466656 0.76000005 6.5520722e-39
0.026816204 0.035513341 0.76100004 8.7690736e-39
0.02834001 0.035606675 0.76299995 1.0972768e-38
0.029871425 0.035699986 0.7650001 1.0789457e-38
0.031328578 0.035699978 0.7650001 1.06047e-38
0.032785725 0.035700008 0.76500005 1.03299e-38
0.03424288 0.035700008 0.76500005 9.9625735e-39
-0.024137141 0.037302852 0.76800001 9.0369934e-39
-0.022644753 0.037254296 0.76699996 4.5165489e-39
-0.021128569 0.037157141 0.76500005 9.3745466e-41
-0.019619992 0.037060022 0.76299995 2.8065206e-40
-0.018095246 0.036914282 0.76000005 4.6755725e-40
-0.016603811 0.036817141 0.75800002 5.6011581e-40
-0.015159996 0.036817133 0.75800002 7.4450707e-40
-0.01367999 0.03672 0.75599998 1.0214513e-39
-0.012239988 0.036720015 0.75599998 1.2062041e-39
-0.010799997 0.03672 0.75600004 9.3106053e-40
-0.0093476139 0.03667143 0.75500005 5.6372275e-40
-0.0079095168 0.036671415 0.75500005 6.5627992e-40
-0.0064714169 0.036671445 0.75500005 8.4065997e-40
-0.0050199991 0.036574274 0.75300002 8.4029283e-40
-0.0035857144 0.036574274 0.75300002 8.4065857e-40
-0.0021485747 0.036525719 0.75200009 9.3214234e-40
-0.00071427866 0.036428563 0.75000006 1.0236149e-39
0.00071429426 0.036428578 0.75000006 5.5797603e-40
0.0021428564 0.036428563 0.75000006 9.3067238e-41
0.0035714291 0.036428578 0.75000006 5.8155736e-39
0.0050000022 0.036428578 0.75 1.1538863e-38
0.0064285644 0.036428556 0.75000006 1.107653e-38
0.0078571523 0.036428578 0.75000006 1.0619113e-38
0.0092857257 0.036428571 0.75 7.9267909e-39
0.010742853 0.036525711 0.75200003 5.3324437e-39
0.012191439 0.036574282 0.75300002 6.4534881e-39
0.01362571 0.036574289 0.75300002 7.6617227e-39
0.015059995 0.036574274 0.75300002 1.0064176e-38
0.016538102 0.036671437 0.75500005 1.2537213e-38
0.0179762 0.03667143 0.75500005 6.5481108e-39
0.019414295 0.036671445 0.75500005 6.5700859e-40
0.020852391 0.03667143 0.75500005 6.5736873e-40
0.022320008 0.036719993 0.75600004 7.4883568e-40
0.023760015 0.03672 0.75600004 3.6922239e-39
0.025266675 0.036817133 0.75800008 6.6460601e-39
0.026780944 0.036914282 0.76000005 8.8594713e-39
0.028340012 0.037060015 0.76299995 1.1066403e-38
0.029793339 0.037060015 0.76299995 1.097386e-38
0.031328566 0.037157126 0.76500005 1.0880573e-38
0.032785721 0.037157148 0.76500005 1.051393e-38
0.03437715 0.037302859 0.76800001 1.0238084e-38
-0.024200009 0.038866665 0.77000004 8.9408531e-39
-0.022644749 0.038715258 0.76699996 4.5115323e-39
-0.021128573 0.038614288 0.7650001 9.7331389e-41
-0.019619996 0.038513344 0.76300001 3.7176308e-40
-0.018095238 0.038361903 0.76000005 6.4979051e-40
-0.016603801 0.038260959 0.75800002 7.4271201e-40
-0.015159994 0.038260959 0.75800002 7.4450847e-40
-0.013716183 0.038260963 0.75800002 7.4558887e-40
-0.01223999 0.038159996 0.75600004 7.4738674e-40
-0.010799987 0.038160004 0.75600004 7.4882727e-40
-0.0093599865 0.038160007 0.75600004 7.4847134e-40
-0.0079199858 0.03816 0.75600004 7.4811542e-40
-0.0064714211 0.038109526 0.75500005 6.5663585e-40
-0.005033331 0.03810953 0.75500005 8.4066277e-40
-0.0035952311 0.038109533 0.75500005 9.3250107e-40
-0.0021485747 0.037958097 0.75200003 1.1154574e-39
-0.00071618974 0.0379581 0.75200003 1.2962473e-39
0.00071429147 0.037857141 0.75000006 7.3697369e-40
0.0021428643 0.037857149 0.75000006 1.0814801e-40
0.0035714372 0.037857145 0.75 7.7721408e-39
0.0049999994 0.037857145 0.75000006 1.5395947e-38
0.0064457129 0.037958086 0.75200009 1.0799894e-38
0.0078780977 0.037958082 0.75200009 6.0897054e-39
0.0093104681 0.037958097 0.75200003 3.1229576e-39
0.010757147 0.038008563 0.75300002 9.7414065e-41
0.012191433 0.038008556 0.75300008 1.1980107e-39
0.013661909 0.038109522 0.75500005 2.2351481e-39
0.015100007 0.038109522 0.75500005 7.5021008e-39
0.016538098 0.038109545 0.75500005 1.2628329e-38
0.017976196 0.03810953 0.75500005 6.6406693e-39
0.019414304 0.03810953 0.75500005 6.5952392e-40
0.020852387 0.038109522 0.75500005 6.58089e-40
0.022320017 0.038160004 0.75599998 5.6445003e-40
0.02376001 0.038159996 0.75599998 3.5932179e-39
0.025266677 0.038260955 0.75800002 6.6439049e-39
0.026780952 0.038361903 0.76000005 8.8637677e-39
0.028265726 0.038412396 0.76100004 1.1067109e-38
0.029871438 0.038614281 0.76500005 1.10664e-38
0.031328574 0.038614292 0.76500005 1.1065676e-38
0.032785729 0.038614288 0.76500005 1.0790164e-38
0.034377158 0.038765714 0.76800001 1.0514665e-38
-0.027203817 0.040438097 0.77200001 9.6838174e-39
-0.025733341 0.040438093 0.77200001 9.3164908e-39
-0.024200007 0.040333331 0.77000004 8.9444405e-39
-0.02264476 0.040176198 0.76700002 4.5144077e-39
-0.021128574 0.040071435 0.76500005 9.5536325e-41
-0.019671429 0.040071428 0.76500005 3.7211341e-40
-0.018095244 0.039809525 0.76000005 7.4090573e-40
-0.016647628 0.039809529 0.76000005 7.4307214e-40
-0.015159997 0.03970477 0.75800008 8.367055e-40
-0.013716191 0.039704759 0.75800008 8.3814324e-40
-0.012272387 0.039704751 0.75800008 8.3922504e-40
-0.01079999 0.039599992 0.75600004 8.4066557e-40
-0.0093599958 0.039600004 0.75600004 9.328612e-40
-0.0079199942 0.039599996 0.75600004 8.4030964e-40
-0.0064799935 0.039599992 0.75600004 8.3923625e-40
-0.0050333259 0.03954763 0.75500005 8.4067398e-40
-0.0035952288 0.039547622 0.75500005 9.3250808e-40
-0.0021514362 0.039442848 0.75300002 1.1158175e-39
-0.00071619998 0.039390463 0.75200009 1.2987556e-39
0.00071428495 0.039285719 0.75 7.4019247e-40
0.002142862 0.039285704 0.75000006 9.5966524e-41
0.0035714349 0.039285704 0.75000006 7.9458065e-39
0.0050000078 0.039285719 0.75 1.5677186e-38
0.0064457133 0.039390467 0.75200009 9.5005107e-39
0.0078780986 0.039390475 0.75200003 3.2147735e-39
0.009310483 0.039390471 0.75200003 1.6560531e-39
0.010757135 0.039442845 0.75300002 1.0274741e-40
0.01219142 0.039442845 0.75300008 1.0185954e-39
0.013661905 0.039547622 0.75500005 1.9463405e-39
0.015100013 0.039547641 0.75500005 6.7501892e-39
0.01653811 0.039547626 0.75500005 1.1527378e-38
0.017976202 0.039547626 0.755 5.9910106e-39
0.019414298 0.039547637 0.75500005 5.5908305e-40
0.020880006 0.039600004 0.75600004 5.6195151e-40
0.022320015 0.0396 0.75600004 5.6373677e-40
0.02376001 0.0396 0.75600004 3.5071264e-39
0.025266666 0.039704766 0.75800008 6.5538603e-39
0.026816193 0.039861914 0.76100004 8.1226167e-39
0.028265722 0.039861906 0.76100004 9.781401e-39
0.029871432 0.040071413 0.76500005 9.6863425e-39
0.03132857 0.040071424 0.7650001 9.5963063e-39
0.032914307 0.040228579 0.76799995 9.4097696e-39
0.034377158 0.040228564 0.76800001 9.2293244e-39
-0.027203813 0.04190857 0.77200001 9.1320869e-39
-0.025733335 0.041908581 0.77200001 9.0413444e-39
-0.024200015 0.041799996 0.77000004 8.9387049e-39
-0.022644762 0.041637156 0.76700002 4.506524e-39
-0.021183802 0.04163716 0.76699996 9.6263599e-41
