# .PCD v0.7 - Point Cloud Data file format
VERSION 0.7
FIELDS x y z rgb
SIZE 4 4 4 4
TYPE F F F F
COUNT 1 1 1 1
WIDTH 960
HEIGHT 1
VIEWPOINT 0 0 0 1 0 0 0
POINTS 960
DATA ascii
0.013336179 -0.010528579 0.73699999 3.8077203e-40
0.014739966 -0.010528564 0.73699999 3.7861823e-40
0.016143786 -0.010528564 0.73699999 2.8858761e-40
0.017547606 -0.010528579 0.73699999 7.5028883e-40
0.019002834 -0.010557137 0.73899996 1.1190756e-39
0.020438079 -0.01057142 0.73999995 1.3967442e-39
0.021906661 -0.010600001 0.74199998 1.5789621e-39
0.023319999 -0.010600001 0.74199998 1.2108858e-39
0.024766667 -0.010614291 0.74300003 8.4423468e-40
0.026252385 -0.010642864 0.74500006 2.5908761e-39
0.027671421 -0.010642871 0.74500006 4.3364414e-39
0.029168563 -0.010671429 0.74699998 4.8877879e-39
0.030632364 -0.010685712 0.74799997 5.3462353e-39
0.032057133 -0.010685705 0.74799997 5.3465814e-39
0.033571411 -0.010714285 0.75 5.3451563e-39
-0.025266688 -0.0093847662 0.7579999 5.7244654e-39
-0.023760023 -0.0093600005 0.75599992 5.9077874e-39
-0.022290487 -0.0093476325 0.75500005 5.9992726e-39
-0.020769531 -0.0093104765 0.75199997 6.1825737e-39
-0.019285729 -0.0092857257 0.75 5.5375602e-39
-0.017809538 -0.0092609599 0.74799997 4.8914705e-39
-0.016362855 -0.0092485771 0.74699998 4.1542628e-39
-0.01490001 -0.0092238188 0.74500006 3.5063977e-39
-0.013444778 -0.0091990605 0.74299997 3.5089144e-39
-0.012029549 -0.009199053 0.74299997 3.5064159e-39
-0.010600007 -0.0091866702 0.74199998 4.1532216e-39
-0.0091619231 -0.009161897 0.73999995 4.7921465e-39
-0.0077523883 -0.0091619194 0.73999995 5.628014e-39
-0.0063343025 -0.0091495141 0.73899996 6.5528261e-39
-0.0049266731 -0.0091495216 0.73899996 7.1077838e-39
-0.003519064 -0.0091495141 0.73899996 7.6602331e-39
-0.0021057392 -0.0091247633 0.73699999 8.3963534e-39
-0.00070193148 -0.0091247633 0.73699999 9.132115e-39
0.00070188922 -0.0091247633 0.73699999 8.7640569e-39
0.0021056894 -0.0091247559 0.73699999 8.3967191e-39
0.0035094961 -0.0091247633 0.73699999 9.2268287e-39
0.004913317 -0.0091247708 0.73699999 9.9629308e-39
0.0063171173 -0.0091247559 0.73699999 6.0021495e-39
0.0077209249 -0.0091247633 0.73699999 2.1288933e-39
0.0091247456 -0.0091247633 0.73699999 1.7597352e-39
0.010528546 -0.0091247633 0.73699999 1.4827952e-39
0.011932366 -0.0091247559 0.73699999 9.3214234e-40
0.013336173 -0.0091247708 0.73699999 3.8148109e-40
0.014739973 -0.0091247559 0.73699999 3.7896155e-40
0.016143793 -0.0091247484 0.73699999 3.7969723e-40
0.017547602 -0.0091247633 0.73699999 7.4956856e-40
0.019002838 -0.0091495067 0.73899996 1.1183497e-39
0.020438069 -0.009161897 0.73999995 1.3952939e-39
0.021847606 -0.0091619119 0.74000001 1.5782362e-39
0.023320002 -0.0091866627 0.74199998 1.5778663e-39
0.024766656 -0.0091990456 0.74299997 1.5789186e-39
0.026252387 -0.0092238113 0.74500006 2.9571447e-39
0.027671427 -0.0092238188 0.74500006 4.3360855e-39
0.02916858 -0.009248592 0.74700004 4.7948776e-39
0.030632349 -0.009260945 0.74799997 5.345878e-39
0.032142833 -0.0092857182 0.75 5.4377009e-39
0.033571426 -0.0092857331 0.75 5.6210131e-39
-0.026780954 -0.007961899 0.75999999 5.4478785e-39
-0.025266692 -0.0079409555 0.75799996 5.7233864e-39
-0.023760008 -0.007919997 0.75599998 5.9067056e-39
-0.022290509 -0.0079095289 0.755 6.3651713e-39
-0.02076955 -0.0078781024 0.75200003 6.7321475e-39
-0.019285748 -0.0078571439 0.75 5.9049036e-39
-0.017809564 -0.0078361928 0.74799997 4.9843878e-39
-0.016362872 -0.0078257248 0.74699998 4.4304952e-39
-0.014939997 -0.0078257173 0.74699998 3.78586e-39
-0.013480971 -0.0078047514 0.74500006 2.8678708e-39
-0.012029526 -0.0077838153 0.74299997 1.9480907e-39
-0.010614298 -0.0077838153 0.74299997 2.8668128e-39
-0.0091990493 -0.0077838227 0.74300003 3.7851846e-39
-0.0077733351 -0.0077733397 0.74200004 4.7986205e-39
-0.0063600126 -0.0077733323 0.74199998 5.7248661e-39
-0.0049333624 -0.0077523813 0.73999995 6.648242e-39
-0.0035238483 -0.0077523813 0.73999995 7.4761992e-39
-0.0021057457 -0.0077209547 0.73699999 8.5800216e-39
-0.00070192403 -0.0077209547 0.73699999 9.6820461e-39
0.00070189667 -0.0077209547 0.73699999 9.2217911e-39
0.0021056829 -0.0077209473 0.73699999 8.6725801e-39
0.0035095054 -0.0077209622 0.73699999 9.504489e-39
0.0049133264 -0.0077209547 0.73699999 1.0236285e-38
0.0063171135 -0.0077209398 0.73699999 6.0957786e-39
0.0077209333 -0.0077209547 0.73699999 1.9498844e-39
0.009124754 -0.0077209473 0.73699999 1.6646669e-39
0.010528541 -0.0077209473 0.73699999 1.3909597e-39
0.011932362 -0.0077209473 0.73699999 8.4030964e-40
0.013336183 -0.0077209547 0.73699999 2.875002e-40
0.01473997 -0.0077209398 0.73699999 3.7646304e-40
0.01614379 -0.0077209547 0.73699999 3.7898677e-40
0.017547609 -0.0077209547 0.73699999 7.4921123e-40
0.019002847 -0.0077418908 0.73899996 1.1183483e-39
0.020438083 -0.0077523813 0.74000001 1.39601e-39
0.021906665 -0.0077733323 0.74199998 1.577516e-39
0.023319988 -0.0077733174 0.74199998 1.9434118e-39
0.024766667 -0.0077838153 0.74300003 2.3118076e-39
0.026252378 -0.0078047663 0.74500006 3.3230518e-39
0.027671428 -0.0078047663 0.74500006 4.242092e-39
0.029168565 -0.0078257248 0.74699998 4.7934315e-39
0.030632354 -0.0078361928 0.74799997 5.2529607e-39
0.032057121 -0.0078362003 0.74799997 5.5284602e-39
0.0334819 -0.0078361928 0.74800003 5.8043296e-39
0.034906644 -0.0078361779 0.74799997 5.6210215e-39
-0.02678095 -0.0065142736 0.75999999 6.1825597e-39
-0.025266666 -0.0064971298 0.75799996 5.9985313e-39
-0.023760039 -0.0064800009 0.75599992 5.9063413e-39
-0.022231458 -0.0064542815 0.75299996 6.0892976e-39
-0.020769561 -0.0064457133 0.75199997 6.2722498e-39
-0.019285746 -0.006428577 0.75 5.721234e-39
-0.017809542 -0.0064114258 0.74799997 5.1702154e-39
-0.01636287 -0.0064028651 0.74700004 4.616327e-39
-0.014900004 -0.0063857138 0.74500006 4.1553642e-39
-0.013480967 -0.0063857138 0.74500006 3.418895e-39
-0.01202953 -0.0063685849 0.74300003 2.7753361e-39
-0.010614302 -0.00636857 0.74300003 3.4178314e-39
-0.0091990745 -0.0063685849 0.74299997 3.9692157e-39
-0.0077733505 -0.0063599944 0.74199998 4.8911692e-39
-0.0063428706 -0.0063428581 0.73999995 5.8174149e-39
-0.0049333563 -0.0063428506 0.73999995 6.5553247e-39
-0.0035238222 -0.0063428655 0.73999995 7.3840007e-39
-0.0021057364 -0.0063171387 0.73699999 8.1201224e-39
-0.00070192962 -0.0063171387 0.73699999 8.9469964e-39
0.00070189108 -0.0063171461 0.73699999 8.578574e-39
0.0021056922 -0.0063171312 0.73699999 8.3020054e-39
0.0035094998 -0.0063171461 0.73699999 9.0420829e-39
0.0049133198 -0.0063171536 0.73699999 9.7799787e-39
0.00631712 -0.0063171461 0.73699999 5.9113902e-39
0.0077209407 -0.0063171461 0.73699999 2.0424346e-39
0.0091247484 -0.0063171461 0.73699999 1.7600855e-39
0.010528549 -0.0063171387 0.73699999 1.5753467e-39
0.011932369 -0.0063171387 0.73699999 1.0229072e-39
0.013336177 -0.0063171536 0.73699999 3.7826791e-40
0.014739977 -0.0063171312 0.73699999 4.6902861e-40
0.016143797 -0.0063171461 0.73699999 5.6194731e-40
0.017595218 -0.0063342676 0.73899996 9.3216616e-40
0.019002849 -0.0063342825 0.73899996 1.2101838e-39
0.020438075 -0.0063428581 0.73999995 1.5778845e-39
0.021906672 -0.0063600019 0.74199998 2.0356144e-39
0.023351433 -0.0063685924 0.74300003 2.0345256e-39
0.024833331 -0.0063857138 0.74500006 2.125624e-39
0.026322864 -0.00640288 0.74700004 3.1372284e-39
0.027745705 -0.0064028576 0.74699998 4.239934e-39
0.029168563 -0.0064028651 0.74699998 4.7005072e-39
0.030632354 -0.0064114109 0.74799997 5.1607594e-39
0.032057121 -0.0064114332 0.74799997 5.3447878e-39
-0.025266672 -0.0050533339 0.75799996 6.3658705e-39
-0.023760023 -0.0050400123 0.75599998 5.814503e-39
-0.022231461 -0.0050200075 0.75299996 5.813431e-39
-0.020769553 -0.0050133243 0.75199997 5.7219528e-39
-0.019285746 -0.0050000027 0.75 5.5379231e-39
-0.017809542 -0.0049866661 0.74799997 5.2624152e-39
-0.016362859 -0.0049800202 0.74699998 4.8932782e-39
-0.0149 -0.0049666613 0.745 4.4315868e-39
-0.013480964 -0.0049666613 0.745 4.0599386e-39
-0.012029534 -0.0049533471 0.74300003 3.6018499e-39
-0.010614279 -0.0049533471 0.74300003 3.8762928e-39
-0.0091866674 -0.0049466714 0.74200004 4.1536028e-39
-0.0077733449 -0.004946664 0.74199998 4.9794146e-39
-0.006342893 -0.0049333349 0.73999995 5.8145436e-39
-0.0049333591 -0.0049333349 0.74000001 6.5549659e-39
-0.0035190519 -0.0049266592 0.73899996 7.2918065e-39
-0.0021057429 -0.0049133375 0.73699999 7.7535007e-39
-0.00070192217 -0.0049133301 0.73699999 8.1201238e-39
0.00070187898 -0.0049133301 0.73699999 8.0272121e-39
0.0021056856 -0.0049133301 0.73699999 7.9360969e-39
0.0035095064 -0.0049133375 0.73699999 8.5821782e-39
0.0049133068 -0.0049133226 0.73699999 9.223942e-39
0.0063171145 -0.0049133375 0.73699999 5.635176e-39
0.0077209352 -0.0049133301 0.73699999 2.0428003e-39
0.0091247559 -0.004913345 0.73699999 1.9419685e-39
0.010528543 -0.0049133301 0.73699999 1.7579443e-39
0.011932364 -0.0049133226 0.73699999 1.114384e-39
0.013336164 -0.0049133226 0.73699999 4.6938314e-40
0.01473997 -0.0049133226 0.73699999 6.50543e-40
0.016143791 -0.0049133301 0.73699999 7.456155e-40
0.017595226 -0.0049266666 0.73899996 1.0236415e-39
0.019028552 -0.0049333349 0.73999995 1.3013018e-39
0.020493334 -0.0049466565 0.74199998 1.8526749e-39
0.021906657 -0.0049466565 0.74199998 2.4025977e-39
0.023351425 -0.0049533322 0.74299997 2.217119e-39
0.024833331 -0.0049666688 0.74500006 1.9423104e-39
0.02632286 -0.0049800128 0.74700004 3.0435978e-39
0.027745722 -0.0049800202 0.74700004 4.1477454e-39
0.029207602 -0.0049866661 0.74799997 4.6079682e-39
0.030632367 -0.0049866587 0.74799997 5.0685736e-39
0.032057133 -0.0049866736 0.74800003 5.1614769e-39
-0.025200022 -0.0035999939 0.75599998 5.7230178e-39
-0.023728589 -0.003595233 0.755 5.7237409e-39
-0.022290498 -0.0035952404 0.755 5.8152219e-39
-0.020769542 -0.0035809502 0.75199997 5.9070588e-39
-0.019285737 -0.0035714209 0.75 5.9988943e-39
-0.017809549 -0.0035619065 0.74800003 6.1822093e-39
-0.016362876 -0.003557153 0.74699998 5.6304817e-39
-0.01494 -0.0035571456 0.74699998 5.0762275e-39
-0.01348096 -0.0035476163 0.745 5.2591684e-39
-0.012029512 -0.0035381168 0.74300003 5.4410654e-39
-0.010614283 -0.0035381019 0.74300003 5.2584902e-39
-0.0091990558 -0.0035381019 0.74300003 4.9833508e-39
-0.0077733593 -0.0035333112 0.74199998 5.535447e-39
-0.0063599884 -0.003533341 0.74199998 6.0900487e-39
-0.0049333535 -0.0035238042 0.73999995 6.6464427e-39
-0.0035238194 -0.0035238191 0.74000001 7.290373e-39
-0.0021057355 -0.0035095215 0.73699999 7.8435439e-39
-0.00070192775 -0.0035095364 0.73699999 8.3956359e-39
0.00070187246 -0.003509514 0.73699999 8.1194148e-39
0.0021056922 -0.003509514 0.73699999 7.9350207e-39
0.0035094989 -0.0035095289 0.73699999 8.3967023e-39
0.0049133012 -0.0035095066 0.73699999 8.858035e-39
0.0063171219 -0.0035095215 0.73699999 5.2646139e-39
0.0077209277 -0.0035095289 0.73699999 1.6740318e-39
0.0091247298 -0.0035095215 0.73699999 1.576067e-39
0.01052855 -0.0035095215 0.73699999 1.5735587e-39
0.01196475 -0.0035190359 0.73899996 1.021831e-39
0.013336156 -0.003509514 0.73699999 4.6938033e-40
0.01477999 -0.0035190433 0.73899996 6.5268979e-40
0.016187599 -0.0035190359 0.73899996 8.3816426e-40
0.017619027 -0.0035238191 0.73999995 1.0243562e-39
0.019080004 -0.0035333484 0.74200004 1.302378e-39
0.02049334 -0.0035333335 0.74199998 1.7611996e-39
0.021936191 -0.0035381019 0.74300003 2.2189267e-39
0.023414282 -0.0035476163 0.74500006 1.8515693e-39
0.024899997 -0.0035571381 0.74699998 1.5760432e-39
0.026322855 -0.0035571456 0.74699998 2.9539133e-39
0.027782844 -0.0035619065 0.74799997 4.3321408e-39
0.029207587 -0.0035618916 0.74799997 4.7005352e-39
0.030632352 -0.0035618916 0.74799997 4.9767451e-39
0.032057118 -0.0035618991 0.74799997 5.1607608e-39
-0.026710501 -0.002165705 0.75799996 4.8017888e-39
-0.025200004 -0.0021600127 0.75599998 5.1712888e-39
-0.023760011 -0.0021600053 0.75599998 5.5393538e-39
-0.0222905 -0.0021571517 0.75500005 5.8163009e-39
-0.020797161 -0.0021514446 0.75300002 5.9992544e-39
-0.019337166 -0.0021485761 0.75199997 6.5513436e-39
-0.017857147 -0.0021428615 0.75 7.1030726e-39
-0.016384797 -0.0021371469 0.74799997 6.4623751e-39
-0.014940017 -0.0021342859 0.74699998 5.7244626e-39
-0.013480958 -0.0021285638 0.745 6.5516995e-39
-0.012029536 -0.0021228492 0.74300003 7.2838822e-39
-0.010614309 -0.0021228641 0.74299997 6.5499255e-39
-0.0091990596 -0.0021228641 0.74300003 5.813815e-39
-0.0077838041 -0.002122879 0.74300003 6.0893299e-39
-0.0063600028 -0.0021199882 0.74199998 6.3695041e-39
-0.0049466589 -0.0021200106 0.74199998 6.8337094e-39
-0.0035238138 -0.002114296 0.73999995 7.2003367e-39
-0.0021114463 -0.0021114275 0.73899996 7.9350249e-39
-0.0007019203 -0.0021057278 0.73699999 8.6707879e-39
0.00070187991 -0.0021057054 0.73699999 8.3034487e-39
0.0021056875 -0.0021057203 0.73699999 7.8439069e-39
0.0035190319 -0.00211142 0.73899996 8.1197665e-39
0.0049133087 -0.002105698 0.73699999 8.3927535e-39
0.0063342731 -0.00211142 0.73899996 4.7996813e-39
0.0077209352 -0.0021057129 0.73699999 1.2116201e-39
0.0091247372 -0.0021057054 0.73699999 1.2984151e-39
0.010528543 -0.0021057054 0.73699999 1.2980564e-39
0.011964752 -0.00211142 0.73899996 9.3035568e-40
0.013372363 -0.0021114126 0.7389999 4.6974187e-40
0.014799972 -0.0021142885 0.73999995 6.5233526e-40
0.016209507 -0.002114296 0.74000001 8.3852579e-40
0.017666666 -0.0021200031 0.74199998 1.1169105e-39
0.01908 -0.0021199957 0.74199998 1.3020221e-39
0.020520961 -0.0021228641 0.74300003 1.670806e-39
0.021936188 -0.0021228716 0.74300003 2.0366948e-39
0.023414286 -0.0021285638 0.74500006 1.5771418e-39
0.024900014 -0.0021343008 0.74700004 1.1179419e-39
0.026358064 -0.0021371394 0.74799997 2.8638715e-39
0.027782829 -0.0021371469 0.74799997 4.5176027e-39
0.029207593 -0.0021371394 0.74799997 4.7019673e-39
0.030714273 -0.0021428615 0.75 4.8849026e-39
0.032142825 -0.002142854 0.75 5.2515103e-39
-0.026780961 -0.00072380155 0.75999999 4.9850983e-39
-0.025200037 -0.00072000176 0.75599998 5.2616908e-39
-0.023728581 -0.00071905553 0.75500005 5.6293971e-39
-0.022290492 -0.00071905553 0.755 5.5382847e-39
-0.020797163 -0.00071715564 0.75300002 5.5379259e-39
-0.019337157 -0.00071620196 0.75199997 5.7233892e-39
-0.017857168 -0.00071428716 0.75 5.9106433e-39
-0.016384797 -0.00071238726 0.74799997 5.2638432e-39
-0.014960018 -0.00071237981 0.74799997 4.7157127e-39
-0.01351714 -0.00071144104 0.74700004 5.0794799e-39
-0.012061916 -0.00070952624 0.745 5.5422447e-39
-0.010642881 -0.00070952624 0.745 5.2627908e-39
-0.0091990568 -0.00070761889 0.74299997 4.9894465e-39
-0.0077838092 -0.00070763379 0.74300003 5.2649628e-39
-0.0063599963 -0.00070665777 0.74199998 5.5465761e-39
-0.0049466728 -0.00070666522 0.74199998 6.0954451e-39
-0.0035238371 -0.00070476532 0.73999995 6.6496881e-39
-0.0021114445 -0.00070380419 0.73899996 7.4765677e-39
-0.00070381461 -0.00070380419 0.73899996 8.3045249e-39
0.00070187432 -0.00070189685 0.73699999 7.844274e-39
0.0021114254 -0.00070380419 0.73899996 7.4762104e-39
0.0035190338 -0.00070379674 0.73899996 7.9361011e-39
0.0049266648 -0.00070380419 0.73899996 8.4874532e-39
0.0063342601 -0.00070379674 0.73899996 5.0766059e-39
0.0077209463 -0.00070189685 0.73699999 1.6657711e-39
0.0091247316 -0.0007019043 0.73699999 1.4813757e-39
0.010528552 -0.00070189685 0.73699999 1.2980606e-39
0.011980936 -0.00070477277 0.73999995 8.3780412e-40
0.013390451 -0.00070475787 0.73999995 4.701034e-40
0.014799985 -0.00070477277 0.74000001 4.6938454e-40
0.0162095 -0.00070476532 0.73999995 5.6230324e-40
0.017666651 -0.00070665777 0.74199998 9.3252209e-40
0.019080006 -0.00070666522 0.74199998 1.3013088e-39
0.020520948 -0.00070761144 0.74299997 1.7612136e-39
0.021936176 -0.00070762634 0.74299997 2.2200127e-39
0.023414275 -0.00070953369 0.74500006 1.8519322e-39
0.024899995 -0.00071144104 0.74700004 1.5764033e-39
0.026358074 -0.00071237236 0.74799997 2.8638701e-39
0.027782852 -0.00071238726 0.74800003 4.152053e-39
0.029285699 -0.00071428716 0.75 4.3335449e-39
0.030714273 -0.00071429461 0.75000006 4.5171949e-39
0.032142825 -0.00071428716 0.75 4.6994099e-39
-0.026816195 0.00072476268 0.76099998 5.1687679e-39
-0.025266679 0.0007218942 0.75799996 5.4450072e-39
-0.023760026 0.00072000921 0.75599998 5.6290398e-39
-0.022290515 0.00071904808 0.755 5.3531773e-39
-0.020797165 0.00071713328 0.75299996 5.0776694e-39
-0.019337149 0.00071618706 0.75199997 4.8936383e-39
-0.017904801 0.00071618706 0.75199997 4.7078107e-39
-0.016428581 0.00071428716 0.75 4.1503378e-39
-0.014960044 0.00071238726 0.74799997 3.602559e-39
-0.013517156 0.00071141869 0.74700004 3.6922491e-39
-0.012061913 0.00070952624 0.745 3.7873146e-39
-0.010642877 0.00070952624 0.745 3.969552e-39
-0.0091990614 0.00070761889 0.74300003 4.156816e-39
-0.007783833 0.00070761144 0.74299997 4.4348406e-39
-0.0063599902 0.00070666522 0.74199998 4.7114261e-39
-0.0049466677 0.00070667267 0.74199998 5.352125e-39
-0.0035333449 0.00070667267 0.74199998 6.0003684e-39
-0.0021114575 0.0007038191 0.73899996 6.9255533e-39
-0.00070382765 0.0007038191 0.73899996 7.8446257e-39
0.00070378167 0.0007038191 0.73899996 7.4765663e-39
0.0021114124 0.0007038191 0.73899996 7.0163112e-39
0.0035190217 0.0007038191 0.7389999 7.8439069e-39
0.0049266508 0.00070382655 0.73899996 8.5764104e-39
0.006334261 0.0007038191 0.7389999 5.3531731e-39
0.0077418918 0.0007038191 0.73899996 2.0381298e-39
0.0091495002 0.0007038191 0.7389999 1.6636173e-39
0.010600004 0.00070667267 0.74199998 1.2966285e-39
0.011980927 0.00070475042 0.73999995 8.3672792e-40
0.013390462 0.00070475787 0.74000001 3.782637e-40
0.014799977 0.00070475042 0.73999995 3.7610711e-40
0.01625333 0.00070666522 0.74199998 2.8715128e-40
0.017666655 0.00070667267 0.74199998 8.4104392e-40
0.019105716 0.00070760399 0.74300003 1.3009459e-39
0.020520942 0.00070761144 0.74300003 1.8519659e-39
0.02199523 0.00070952624 0.74500006 2.4029606e-39
0.023477133 0.00071142614 0.74699998 2.2181966e-39
0.024899999 0.00071141124 0.74699998 1.9422992e-39
0.02635807 0.00071239471 0.74799997 2.863133e-39
0.027782837 0.00071238726 0.74799997 3.7818201e-39
0.029285699 0.00071427971 0.75 3.962596e-39
0.030714253 0.00071427971 0.75 4.0544175e-39
0.03214284 0.00071427226 0.75 4.1437278e-39
-0.02678098 0.002171427 0.75999999 5.5379021e-39
-0.025266683 0.0021657124 0.75799996 5.7219528e-39
-0.023728598 0.0021571368 0.755 5.9052651e-39
-0.022290489 0.0021571368 0.75500005 5.6279636e-39
-0.020797165 0.0021514222 0.75299996 5.3517382e-39
-0.019362865 0.0021514073 0.75300002 4.9818823e-39
-0.017904792 0.0021485686 0.75199997 4.5194748e-39
-0.016428599 0.0021428466 0.75 3.5982472e-39
-0.014960024 0.0021371469 0.74799997 2.5859057e-39
-0.013517146 0.002134271 0.74699998 3.2305479e-39
-0.012061911 0.0021285713 0.745 3.8737579e-39
-0.010614294 0.0021228418 0.74300003 3.6004066e-39
-0.0091990661 0.0021228418 0.74300003 3.3256204e-39
-0.0077838101 0.0021228567 0.74300003 3.9713415e-39
-0.0063600061 0.0021200031 0.74199998 4.6134697e-39
-0.0049466621 0.0021200106 0.74200004 4.6141844e-39
-0.0035333394 0.0021199957 0.74199998 4.5223755e-39
-0.0021114352 0.0021114424 0.73899996 6.2791147e-39
-0.00070382579 0.0021114349 0.73899996 8.02901e-39
0.00070380402 0.0021114349 0.73899996 7.7509896e-39
0.0021114142 0.0021114349 0.73899996 7.3811393e-39
0.0035190431 0.0021114349 0.73899996 8.21053e-39
0.0049266526 0.0021114349 0.73899996 9.0388081e-39
0.0063600065 0.0021200031 0.74200004 5.5400559e-39
0.0077418936 0.0021114275 0.73899996 2.0413527e-39
0.0091866534 0.0021199957 0.74199998 1.6657739e-39
0.010599991 0.0021200106 0.74199998 1.2962711e-39
0.012013335 0.0021199957 0.74199998 9.3035568e-40
0.013426658 0.0021200031 0.74199998 6.5591838e-40
0.014839995 0.0021200031 0.74199998 4.7008659e-40
0.016253317 0.0021200106 0.74199998 3.7898257e-40
0.017666675 0.0021200106 0.74199998 7.4848956e-40
0.01910571 0.0021228418 0.74300003 1.2091062e-39
0.020520952 0.0021228567 0.74300003 1.6686452e-39
0.021995232 0.0021285713 0.74500006 2.1270912e-39
0.023414284 0.0021285713 0.74500006 1.6657473e-39
0.024900014 0.002134271 0.74700004 1.2033006e-39
0.026358083 0.0021371469 0.74800003 3.7803922e-39
0.027782826 0.0021371469 0.74799997 6.4453886e-39
0.029285679 0.002142854 0.75 6.9985273e-39
0.030714268 0.0021428466 0.75 7.5427174e-39
-0.02671051 0.0036095306 0.7579999 5.9070363e-39
-0.025266679 0.0036095306 0.7579999 6.0914416e-39
-0.0237286 0.003595233 0.75500005 6.1814849e-39
-0.022290509 0.0035952404 0.755 5.9020337e-39
-0.020797169 0.0035857037 0.75299996 5.6261601e-39
-0.019362867 0.0035857037 0.75300002 4.9793571e-39
-0.017904783 0.0035809502 0.75199997 4.3336346e-39
-0.016428599 0.0035714284 0.75 2.9535854e-39
-0.014960023 0.0035619214 0.74799997 1.5760586e-39
-0.013517142 0.0035571307 0.74700004 2.7702858e-39
-0.012061935 0.0035476238 0.745 3.8737509e-39
-0.01064287 0.0035476163 0.745 3.140506e-39
-0.0091990428 0.003538087 0.74300003 2.4069039e-39
-0.0077838143 0.0035380945 0.74300003 3.5107291e-39
-0.00636 0.0035333335 0.74199998 4.5216426e-39
-0.0049466761 0.0035333335 0.74199998 3.7855293e-39
-0.0035333543 0.0035333335 0.74199998 3.0569592e-39
-0.0021114473 0.0035190433 0.73899996 5.6387732e-39
-0.0007038379 0.0035190657 0.73899996 8.2108845e-39
0.00070379191 0.0035190508 0.73899996 8.0250611e-39
0.0021114012 0.0035190657 0.73899996 7.7499148e-39
0.0035237845 0.0035238117 0.73999995 8.6700648e-39
0.0049466686 0.0035333335 0.74199998 9.4961961e-39
0.0063599916 0.003533341 0.74199998 5.7262478e-39
0.0077523673 0.0035238117 0.74000001 1.9480865e-39
0.009186672 0.0035333335 0.74199998 1.6618279e-39
0.010599997 0.003533341 0.74199998 1.2977061e-39
0.01201332 0.003533341 0.74199998 1.1165392e-39
0.013426677 0.003533341 0.74200004 8.3851738e-40
0.01484 0.0035333335 0.74199998 6.5233246e-40
0.016253322 0.0035333335 0.74199998 3.7898677e-40
0.01766666 0.0035333335 0.74199998 7.488497e-40
0.019105701 0.0035380945 0.74299997 1.1176294e-39
0.020520961 0.0035380796 0.74300003 1.4856917e-39
0.021995235 0.0035476089 0.74500006 1.8515903e-39
0.023414286 0.0035476238 0.74500006 1.1147441e-39
0.02490001 0.0035571232 0.74700004 3.7822307e-40
0.02635807 0.0035618991 0.74799997 4.7012625e-39
0.027857108 0.0035714284 0.75 9.0286445e-39
0.029285697 0.0035714209 0.75 1.004385e-38
0.03079617 0.0035809502 0.75199997 1.1055114e-38
0.032357119 0.0035952404 0.755 1.1057265e-38
-0.026780972 0.0050666779 0.75999999 6.9193792e-39
-0.025266683 0.0050533339 0.75799996 6.8271948e-39
-0.023728592 0.0050333291 0.755 6.7357222e-39
-0.022290504 0.0050333366 0.755 6.8250508e-39
-0.020797169 0.0050199926 0.75299996 6.9140024e-39
-0.019337151 0.0050133318 0.75199997 6.2682687e-39
-0.017904775 0.0050133318 0.75199997 5.5242507e-39
-0.016428597 0.0049999952 0.75 5.070087e-39
-0.01496003 0.0049866736 0.74799997 4.6058985e-39
-0.013517132 0.004979983 0.74700004 4.8871559e-39
-0.012061932 0.0049666762 0.745 5.1594394e-39
-0.010642868 0.0049666688 0.745 4.7964078e-39
-0.009199067 0.0049533322 0.74299997 4.4265631e-39
-0.007783819 0.0049533248 0.74300003 4.9826068e-39
-0.0063685626 0.0049533173 0.74300003 5.6251105e-39
-0.0049466724 0.004946664 0.74199998 5.2613699e-39
-0.0035333487 0.0049466789 0.74199998 4.9844341e-39
-0.0021143008 0.0049333349 0.73999995 6.5549701e-39
-0.00070476643 0.00493332 0.74000001 8.119405e-39
0.00070474745 0.0049333274 0.73999995 7.9343004e-39
0.0021142622 0.0049333349 0.73999995 7.8413902e-39
0.0035237975 0.0049333274 0.74000001 8.4867512e-39
0.0049466742 0.004946664 0.74200004 9.2235637e-39
0.0063599963 0.0049466714 0.74199998 5.4460862e-39
0.0077733211 0.0049466714 0.74199998 1.6689983e-39
0.0091866571 0.0049466714 0.74199998 1.5742972e-39
0.010600002 0.004946664 0.74199998 1.4831721e-39
0.012013325 0.0049466714 0.74199998 1.1147455e-39
0.013426662 0.0049466714 0.74199998 7.4561129e-40
0.014839985 0.0049466714 0.74199998 6.5341707e-40
0.016253328 0.0049466789 0.74199998 6.5449887e-40
0.017666666 0.0049466714 0.74199998 1.0243562e-39
0.019105708 0.0049533173 0.74300003 1.3934946e-39
0.020520939 0.0049533322 0.74299997 1.6690039e-39
0.021995226 0.0049666688 0.74500006 1.9441475e-39
0.023508558 0.0049866661 0.74799997 1.1126016e-39
0.024933308 0.0049866661 0.74800003 2.7921993e-40
0.026428537 0.0050000027 0.75 5.7186318e-39
0.027857123 0.0050000027 0.75 1.1250298e-38
0.029363785 0.0050133467 0.75199997 1.2722547e-38
0.030837128 0.0050199851 0.75299996 1.4199451e-38
0.032399993 0.0050399974 0.75599998 1.4196225e-38
0.033839986 0.0050400048 0.75599998 1.4293441e-38
-0.026640017 0.0064799935 0.75599998 7.836665e-39
-0.025166703 0.0064714253 0.755 7.5626018e-39
-0.023728594 0.0064714178 0.75500005 7.2878226e-39
-0.02223145 0.0064542666 0.75299996 7.748805e-39
-0.020769538 0.0064457208 0.75199997 8.2054601e-39
-0.01933717 0.0064457059 0.75199997 7.4711251e-39
-0.017857155 0.0064285696 0.75 6.7324894e-39
-0.016384808 0.0064114332 0.74799997 7.1963262e-39
-0.014960028 0.0064114407 0.74799997 7.5593704e-39
-0.013517149 0.0064028502 0.74699998 7.0126706e-39
-0.012061928 0.0063857138 0.745 6.365523e-39
-0.010642864 0.0063857213 0.745 6.3666048e-39
-0.0092238272 0.0063857138 0.745 6.366609e-39
-0.0078047905 0.0063857138 0.745 6.5520779e-39
-0.0063685677 0.0063685551 0.74300003 6.6460784e-39
-0.0049533402 0.00636857 0.74300003 6.7415138e-39
-0.0035381115 0.0063685551 0.74300003 6.8312025e-39
-0.0021143092 0.0063428655 0.73999995 7.3854511e-39
-0.00070477481 0.0063428506 0.73999995 7.9360997e-39
0.0007066548 0.0063600093 0.74199998 7.9350179e-39
0.0021199991 0.0063600019 0.74199998 7.8435467e-39
0.0035333221 0.0063600019 0.74199998 8.3956415e-39
0.0049466584 0.0063600093 0.74199998 8.9433993e-39
0.0063600019 0.0063599944 0.74200004 5.1648442e-39
0.0077733397 0.0063600019 0.74199998 1.3041689e-39
0.0091866618 0.0063600019 0.74199998 1.4824603e-39
0.010599987 0.0063600093 0.74199998 1.5735727e-39
0.012013343 0.0063600019 0.74200004 1.1129547e-39
0.013426668 0.0063599944 0.74199998 5.6158157e-40
0.01483999 0.0063600093 0.74199998 7.4417496e-40
0.016253328 0.0063600019 0.74199998 8.3816846e-40
0.01766667 0.0063600019 0.74199998 1.2083873e-39
0.019105705 0.0063685775 0.74300003 1.5768125e-39
0.020520946 0.0063685626 0.74300003 1.761208e-39
0.021995228 0.0063857213 0.74500006 1.9427125e-39
0.02347715 0.0064028427 0.74700004 1.0196815e-39
0.024899988 0.0064028576 0.74699998 1.0310334e-40
0.026358075 0.0064114258 0.74799997 6.8275255e-39
0.027857123 0.0064285621 0.75 1.3456917e-38
0.029363794 0.0064457133 0.75199997 1.5396241e-38
0.030919028 0.0064714178 0.75500005 1.732478e-38
0.032357119 0.0064714253 0.755 1.7418402e-38
0.033840004 0.0064799935 0.75599998 1.7509524e-38
-0.02664002 0.0079200119 0.75599998 6.4569885e-39
-0.025166677 0.0079095215 0.75500005 6.4584277e-39
-0.023728589 0.007909514 0.755 6.4616745e-39
-0.022290498 0.0079095289 0.755 6.7361216e-39
-0.020797152 0.007888563 0.75300002 7.0137735e-39
-0.019285744 0.0078571364 0.75 6.7357488e-39
-0.017857155 0.007857129 0.75 6.3712753e-39
-0.016384786 0.0078361928 0.74799997 6.6453455e-39
-0.014960008 0.0078361854 0.74799997 6.9230086e-39
-0.013517166 0.0078257099 0.74699998 6.553517e-39
-0.012094292 0.0078257024 0.74699998 6.2805272e-39
-0.010642889 0.0078047737 0.745 6.4627689e-39
-0.0092238039 0.0078047514 0.74500006 6.5596281e-39
-0.0078047663 0.0078047588 0.74500006 6.7415054e-39
-0.0063685924 0.0077838004 0.74299997 6.9302098e-39
-0.0049533164 0.0077837929 0.74300003 6.9273498e-39
-0.0035380891 0.0077838078 0.74300003 7.018835e-39
-0.0021199866 0.0077733323 0.74200004 7.6613317e-39
-0.0007066626 0.0077733323 0.74199998 8.3956443e-39
0.00070666039 0.0077733397 0.74199998 8.2112419e-39
0.0021199842 0.0077733323 0.74199998 8.0279394e-39
0.0035333408 0.0077733323 0.74200004 8.763708e-39
0.0049466658 0.0077733323 0.74199998 9.5912756e-39
0.0063599888 0.0077733323 0.74199998 5.4464534e-39
0.0077733267 0.0077733472 0.74199998 1.3081163e-39
0.0091866693 0.0077733323 0.74199998 1.3005815e-39
0.010599992 0.0077733472 0.74199998 1.3891842e-39
0.01201333 0.0077733323 0.74199998 9.2964382e-40
0.013426654 0.0077733472 0.74199998 4.7010481e-40
0.014839998 0.0077733323 0.74199998 4.6902441e-40
0.016253335 0.0077733397 0.74199998 5.6194451e-40
0.017690467 0.0077838078 0.74299997 1.0240003e-39
0.019105716 0.0077838004 0.74300003 1.4846239e-39
0.020576181 0.0078047514 0.74500006 1.7612164e-39
0.021995232 0.0078047588 0.74500006 2.0359844e-39
0.023477145 0.007825695 0.74700004 1.0185968e-39
0.024933318 0.0078361928 0.74800003 9.2362384e-41
0.026428552 0.0078571364 0.75 6.458799e-39
0.027931426 0.0078780949 0.75199997 1.2915287e-38
0.029363787 0.0078781098 0.75199997 1.4752736e-38
0.030837113 0.0078885704 0.75299996 1.6682341e-38
0.032357115 0.0079095215 0.755 1.6680889e-38
0.033795226 0.0079095215 0.75500005 1.668126e-38
-0.026604788 0.0093476176 0.75500005 5.0780142e-39
-0.0251667 0.0093476176 0.755 5.3524529e-39
-0.023728609 0.0093476251 0.755 5.6297656e-39
-0.022231454 0.0093228519 0.75299996 5.7194613e-39
-0.02076955 0.009310469 0.75199997 5.8141625e-39
-0.019285742 0.0092856959 0.75 5.9031253e-39
-0.017857173 0.0092857108 0.75 5.9985467e-39
-0.016384786 0.0092609599 0.74799997 6.0900235e-39
-0.014960034 0.0092609525 0.74799997 6.1822191e-39
-0.013517134 0.0092485547 0.74700004 6.1807842e-39
-0.012061922 0.0092238113 0.745 6.1833009e-39
-0.010642865 0.0092238113 0.74500006 6.4609654e-39
-0.0092238011 0.0092238039 0.74500006 6.7382684e-39
-0.007804763 0.0092238113 0.74500006 6.9233785e-39
-0.0063857269 0.0092238039 0.74500006 7.1081355e-39
-0.0049666613 0.0092238039 0.74500006 7.2024919e-39
-0.0035381133 0.0091990456 0.74299997 7.2007039e-39
-0.0021200005 0.0091866702 0.74199998 8.0283051e-39
-0.00070667657 0.0091866776 0.74199998 8.7622618e-39
0.00070666597 0.0091866776 0.74200004 8.4863868e-39
0.0021199898 0.0091866702 0.74199998 8.1197679e-39
0.0035333277 0.0091866851 0.74199998 9.1317576e-39
0.0049466714 0.0091866627 0.74200004 1.0139776e-38
0.0063599935 0.0091866776 0.74199998 5.7212508e-39
0.0077733314 0.0091866627 0.74199998 1.2148445e-39
0.0091866544 0.0091866776 0.74199998 1.2055076e-39
0.010599998 0.0091866702 0.74200004 1.1133092e-39
0.012013335 0.0091866702 0.74199998 7.4560569e-40
0.013426658 0.0091866776 0.74199998 3.7754063e-40
0.014859994 0.0091990381 0.74300003 2.8318981e-40
0.016275235 0.0091990456 0.74300003 1.9531158e-40
0.017690461 0.0091990381 0.74300003 7.4956576e-40
0.019105705 0.009199053 0.74299997 1.3013046e-39
0.020576185 0.0092238039 0.74500006 1.6704487e-39
0.022054283 0.0092485622 0.74699998 2.0341837e-39
0.023477145 0.0092485622 0.74699998 1.1104267e-39
0.024933303 0.0092609674 0.74799997 1.0204536e-40
0.026428552 0.0092857033 0.75000006 6.1836513e-39
0.02793142 0.009310469 0.75199997 1.2263825e-38
0.029363781 0.0093104839 0.75199997 1.4200282e-38
0.030919036 0.0093476102 0.75500005 1.6035543e-38
0.03239999 0.0093600079 0.75599992 1.5941541e-38
-0.026710492 0.010828584 0.75799996 4.9868891e-39
-0.025166692 0.010785714 0.755 5.3535249e-39
-0.023728583 0.010785699 0.75500005 5.7197991e-39
-0.022231458 0.010757141 0.75299996 5.7208837e-39
-0.02076954 0.010742866 0.75199997 5.8134366e-39
-0.019285761 0.010714285 0.75 5.721241e-39
-0.017809544 0.01068572 0.74799997 5.7212424e-39
-0.016384793 0.01068572 0.74799997 5.7212424e-39
-0.014939997 0.010671422 0.74699998 5.8105654e-39
-0.013517151 0.010671422 0.74700004 5.627609e-39
-0.012061899 0.010642856 0.74500006 5.4439436e-39
-0.010642862 0.010642849 0.74500006 5.262788e-39
-0.0092237974 0.010642856 0.74500006 5.0809177e-39
-0.0078047602 0.010642856 0.74500006 5.3557123e-39
-0.0063857236 0.010642849 0.74500006 5.7237815e-39
-0.0049666581 0.010642856 0.74500006 5.6337495e-39
-0.003538118 0.010614283 0.74300003 5.6348285e-39
-0.002119995 0.010600001 0.74199998 7.1067104e-39
-0.00070667191 0.010600008 0.74199998 8.6689844e-39
0.00070665107 0.010600001 0.74199998 8.3019942e-39
0.0021200094 0.010600008 0.74200004 7.934655e-39
0.0035333333 0.010599993 0.74199998 8.7640471e-39
0.0049533257 0.010614276 0.74299997 9.5937853e-39
0.0063685728 0.010614283 0.74300003 5.3567857e-39
0.007773337 0.010600008 0.74199998 1.2155606e-39
0.0091866599 0.010600008 0.74199998 1.2080076e-39
0.010599997 0.010600008 0.74199998 1.1129421e-39
0.012029512 0.010614283 0.74299997 8.3815024e-40
0.013426663 0.010599993 0.74199998 5.6263675e-40
0.014860003 0.010614276 0.74300003 3.7752382e-40
0.016275244 0.010614283 0.74300003 2.8785753e-40
0.01769047 0.010614268 0.74300003 7.4884409e-40
0.019105697 0.010614276 0.74300003 1.208746e-39
0.020576188 0.010642856 0.74500006 1.5764524e-39
0.021995237 0.010642864 0.74500006 2.033818e-39
0.023477126 0.010671429 0.74699998 1.0178682e-39
0.024933308 0.01068572 0.74799997 9.3074244e-41
0.026428549 0.010714293 0.75 6.3662447e-39
0.027931413 0.010742858 0.75199997 1.2725511e-38
0.029363787 0.010742858 0.75199997 1.4289958e-38
0.030919028 0.010785714 0.755 1.5940835e-38
0.03239999 0.010800004 0.75599998 1.5850065e-38
-0.026640018 0.012239993 0.75599998 4.8928998e-39
-0.025200026 0.01224 0.75599998 5.3546039e-39
-0.023728603 0.01222381 0.755 5.8130681e-39
-0.022231458 0.012191415 0.75299996 5.8137911e-39
-0.020797158 0.012191422 0.75300002 5.7219557e-39
-0.019337164 0.012175232 0.75199997 5.630839e-39
-0.017857173 0.012142844 0.75 5.4464506e-39
-0.016384792 0.012110479 0.74799997 5.446452e-39
-0.014960012 0.012110472 0.74799997 5.3528186e-39
-0.013517168 0.012094274 0.74699998 5.0755156e-39
-0.012061895 0.012061909 0.74500006 4.7088981e-39
-0.010642859 0.012061901 0.74500006 4.0653406e-39
-0.0092238225 0.012061901 0.74500006 3.3313755e-39
-0.007804757 0.012061894 0.74500006 3.8784438e-39
-0.0063857203 0.012061894 0.74500006 4.3415744e-39
-0.0049666553 0.012061894 0.74500006 4.1571929e-39
-0.0035380938 0.012029521 0.74300003 3.9778351e-39
-0.0021200099 0.012013346 0.74199998 6.2787546e-39
-0.00070666632 0.012013331 0.74199998 8.485312e-39
0.00070762337 0.012029521 0.74300003 8.1176071e-39
0.0021199954 0.012013346 0.74199998 7.6591457e-39
0.0035333193 0.012013339 0.74199998 8.3037864e-39
0.0049533201 0.012029521 0.74300003 8.9451944e-39
0.0063685626 0.012029521 0.74299997 5.0794883e-39
0.0077733239 0.012013346 0.74199998 1.2126879e-39
0.0091866665 0.012013324 0.74200004 1.2062083e-39
0.010600004 0.012013339 0.74199998 1.1140155e-39
0.012013327 0.012013331 0.74199998 9.307046e-40
0.013426665 0.012013339 0.74199998 7.4559448e-40
0.014859991 0.012029514 0.74299997 5.6048575e-40
0.01627524 0.012029514 0.74300003 2.87503e-40
0.017690482 0.012029514 0.74300003 7.4884549e-40
0.01915714 0.012061901 0.74500006 1.1169091e-39
0.020576177 0.012061909 0.74500006 1.5757321e-39
0.022054283 0.012094289 0.74700004 1.9412636e-39
0.023508547 0.012110494 0.74799997 1.0182283e-39
0.024933314 0.012110472 0.74799997 1.0348029e-40
0.026428549 0.012142852 0.75 6.6460615e-39
0.027968565 0.012191415 0.75300002 1.3089984e-38
0.029480927 0.012223817 0.755 1.4476139e-38
0.030919017 0.01222381 0.755 1.5850795e-38
0.032399971 0.01224 0.75599992 1.5849711e-38
-0.026640022 0.013680004 0.75599998 5.1684063e-39
-0.02520003 0.013680011 0.75599992 5.4457233e-39
-0.023760015 0.013679989 0.75599998 5.7215913e-39
-0.022231439 0.013625704 0.75300002 5.4457275e-39
-0.020797158 0.013625704 0.75299996 5.1698637e-39
-0.019337155 0.013607606 0.75199997 5.1702238e-39
-0.017857164 0.013571434 0.75 5.2620607e-39
-0.016384771 0.013535246 0.74799997 5.3538962e-39
-0.014960039 0.013535246 0.74799997 5.353892e-39
-0.013517137 0.013517134 0.74700004 5.2613334e-39
-0.012061892 0.013480954 0.74500006 5.1687917e-39
-0.010642855 0.013480946 0.74500006 4.709624e-39
-0.0092238188 0.013480954 0.74500006 4.2493675e-39
-0.0078047533 0.013480946 0.74500006 4.4330357e-39
-0.0063857171 0.013480946 0.74500006 4.5255929e-39
-0.0049666795 0.013480946 0.74500006 3.697284e-39
-0.0035380994 0.013444752 0.74300003 2.8711386e-39
-0.0021200033 0.013426676 0.74199998 5.8192156e-39
-0.00070762931 0.013444752 0.74300003 8.7629709e-39
0.00070667715 0.013426669 0.74200004 8.301997e-39
0.0021200001 0.013426661 0.74199998 7.7495434e-39
0.0035333231 0.013426676 0.74199998 8.3030605e-39
0.0049466612 0.013426669 0.74199998 8.854791e-39
0.0063600037 0.013426669 0.74200004 5.0780562e-39
0.0077733286 0.013426676 0.74199998 1.2980648e-39
0.0091866665 0.013426676 0.74199998 1.2062013e-39
0.010599989 0.013426684 0.74199998 1.1143714e-39
0.012013332 0.013426661 0.74199998 9.2998714e-40
0.01342667 0.013426669 0.74199998 7.4524135e-40
0.014859987 0.013444752 0.74300003 5.6157036e-40
0.016275229 0.013444766 0.74299997 3.7970284e-40
0.017738091 0.013480939 0.74500006 7.4848816e-40
0.019157128 0.013480954 0.74500006 1.1172665e-39
0.020576177 0.013480961 0.74500006 1.5768041e-39
0.022054279 0.013517134 0.74699998 1.9437733e-39
0.023508558 0.013535239 0.74800003 1.0193045e-39
0.024999974 0.013571426 0.75 9.4514779e-41
0.026499022 0.013607621 0.75199997 6.0914654e-39
0.027968558 0.013625696 0.75300002 1.20841e-38
0.029480943 0.013661899 0.75500005 1.2728035e-38
0.030919034 0.013661899 0.75500005 1.3278685e-38
0.03239999 0.013679989 0.75599998 1.3184334e-38
0.033839982 0.013679996 0.75599998 1.3095731e-38
-0.025200011 0.01512 0.75599998 5.5375588e-39
-0.023760019 0.01512 0.75599998 5.6293929e-39
-0.022320023 0.015120007 0.75599998 5.0776624e-39
-0.020880029 0.01512 0.75599998 4.5266537e-39
-0.019337168 0.01504001 0.75199997 4.8014469e-39
-0.017857162 0.015000001 0.75 5.0780282e-39
-0.016428603 0.014999986 0.75 5.2613404e-39
-0.014960018 0.014960006 0.74799997 5.3542493e-39
-0.013517154 0.014939986 0.74700004 5.4464422e-39
-0.012061916 0.014899991 0.74500006 5.5382847e-39
-0.010642852 0.014899991 0.74500006 5.3542633e-39
-0.0092238151 0.014899991 0.74500006 5.1705909e-39
-0.0078047505 0.014899999 0.74500006 4.9861997e-39
-0.0063857138 0.014899999 0.74500006 4.7085506e-39
-0.0049666762 0.014899999 0.74500006 3.234529e-39
-0.0035476128 0.014899999 0.74500006 1.7701903e-39
-0.0021228616 0.014859997 0.74300003 5.4554539e-39
-0.00070762 0.014859989 0.74300003 9.0384788e-39
0.00070760754 0.014859997 0.74300003 8.4860365e-39
0.0021228499 0.014859997 0.74299997 7.8431838e-39
0.0035380775 0.014859997 0.74299997 8.303792e-39
0.0049533397 0.014859989 0.74300003 8.7611618e-39
0.0063685672 0.014859989 0.74300003 5.0791184e-39
0.0077733342 0.014839999 0.74200004 1.3023682e-39
0.0091866702 0.014840007 0.74199998 1.2065726e-39
0.010599994 0.014839999 0.74199998 1.1136609e-39
0.012029527 0.014859982 0.74300003 9.2927248e-40
0.013426675 0.014840014 0.74200004 6.5340445e-40
0.014859997 0.014859989 0.74300003 5.6049136e-40
0.016319044 0.014900006 0.74500006 3.7898397e-40
0.017738082 0.014899991 0.74500006 7.4848956e-40
0.019157132 0.014900006 0.74500006 1.1172721e-39
0.020631438 0.014939979 0.74700004 1.5778901e-39
0.022083791 0.014960006 0.74799997 1.9430615e-39
0.023508558 0.014960006 0.74799997 1.0211024e-39
0.024999989 0.014999993 0.75 1.0348869e-40
0.026428543 0.014999986 0.75 5.633374e-39
0.027968558 0.015059985 0.75299996 1.1067104e-38
0.029480936 0.015100002 0.75500005 1.0888823e-38
0.030919025 0.015100002 0.755 1.0701914e-38
0.032357119 0.01510001 0.755 1.0513212e-38
0.033840001 0.015119992 0.75599998 1.0331335e-38
-0.026710501 0.01660382 0.7579999 5.354594e-39
-0.025266696 0.016603805 0.7579999 5.5379161e-39
-0.02376 0.016559996 0.75599998 5.7215843e-39
-0.022320008 0.016560003 0.75599998 5.4457163e-39
-0.020852393 0.016538091 0.75500005 5.1694993e-39
-0.019362859 0.016494274 0.75300002 5.3535347e-39
-0.017857162 0.01642856 0.75 5.537563e-39
-0.016428595 0.016428582 0.75 5.6301145e-39
-0.014960018 0.016384773 0.74799997 5.8148617e-39
-0.013535268 0.016384773 0.74799997 5.9074147e-39
-0.012094297 0.016362838 0.74699998 6.0921675e-39
-0.010642849 0.016319044 0.74500006 6.0921731e-39
-0.0092238123 0.016319044 0.74500006 6.0006949e-39
-0.0078257034 0.016362838 0.74700004 6.1829296e-39
-0.0064028567 0.016362846 0.74700004 6.3633874e-39
-0.0049666734 0.016319051 0.74500006 5.4436129e-39
-0.003547637 0.016319051 0.74500006 4.4269639e-39
-0.0021285715 0.016319044 0.74500006 6.4616913e-39
-0.0007095348 0.016319051 0.74500006 8.5818138e-39
0.00070761685 0.016275227 0.74300003 8.211616e-39
0.0021228443 0.01627522 0.74300003 7.8428363e-39
0.0035380868 0.016275235 0.74300003 8.2123279e-39
0.0049533146 0.01627522 0.74299997 8.5828704e-39
0.0063685765 0.016275227 0.74300003 4.9872675e-39
0.0077733193 0.016253337 0.74199998 1.3913338e-39
0.0091990475 0.016275227 0.74300003 1.2987795e-39
0.010614274 0.016275235 0.74300003 1.204786e-39
0.012029516 0.016275227 0.74299997 9.2927388e-40
0.013444764 0.016275235 0.74300003 6.5412192e-40
0.014860005 0.01627522 0.74300003 4.6937053e-40
0.016319046 0.016319036 0.745 3.7754764e-40
0.017738083 0.016319044 0.74500006 7.477721e-40
0.019157136 0.016319059 0.74500006 1.1165588e-39
0.020631434 0.016362846 0.74700004 1.5768223e-39
0.022083798 0.016384766 0.74800003 2.0352627e-39
0.023571404 0.01642856 0.75 1.1104295e-39
0.024999969 0.016428575 0.75 1.8492796e-40
0.02649902 0.016472392 0.75199997 5.5397532e-39
0.027968556 0.016494282 0.75299996 1.0978506e-38
0.029480925 0.016538091 0.755 1.0608663e-38
0.030919014 0.016538098 0.755 1.0331349e-38
0.032399986 0.016560003 0.75599998 9.9611217e-39
0.033839993 0.016560011 0.75599998 9.6856138e-39
0.035279989 0.016560003 0.75599998 9.7756529e-39
-0.028154308 0.018047623 0.75799996 4.0667293e-39
-0.026710505 0.018047631 0.75799996 5.2616796e-39
-0.025266672 0.018047623 0.75799996 5.5379161e-39
-0.023822868 0.018047631 0.75799996 5.7219444e-39
-0.022379065 0.018047623 0.75799996 5.8144974e-39
-0.020880016 0.018000007 0.75599992 5.8137855e-39
-0.019440023 0.017999999 0.75599992 5.9056266e-39
-0.017904779 0.017904766 0.75199997 5.9978209e-39
-0.016428594 0.017857134 0.75 6.090734e-39
-0.015000033 0.017857142 0.75 6.1829296e-39
-0.013535266 0.017809525 0.74799997 6.4595137e-39
-0.012110515 0.017809525 0.74799997 6.6439091e-39
-0.010685737 0.017809533 0.74799997 6.7371866e-39
-0.0092609869 0.017809525 0.74799997 6.8290291e-39
-0.0078362087 0.017809533 0.74800003 7.4733209e-39
-0.00641145 0.017809525 0.74799997 8.0232549e-39
-0.0049799997 0.017785706 0.74700004 7.5658696e-39
-0.0035571272 0.017785713 0.74700004 7.10203e-39
-0.0021285678 0.017738096 0.74500006 7.5655137e-39
-0.00070763583 0.017690472 0.74299997 8.0261317e-39
0.00070762617 0.017690465 0.74300003 7.9350193e-39
0.0021228546 0.017690472 0.74300003 7.7502665e-39
0.0035380952 0.017690465 0.74300003 8.0272037e-39
0.0049533239 0.01769048 0.74300003 8.3001739e-39
0.0063685663 0.017690472 0.74299997 4.8961368e-39
0.0077733388 0.017666675 0.74199998 1.4867496e-39
0.0091990419 0.017690457 0.74300003 1.3920499e-39
0.010599987 0.017666683 0.74199998 1.2980564e-39
0.012029511 0.017690472 0.74300003 9.2927388e-40
0.013444752 0.017690465 0.74300003 5.6193049e-40
0.014859981 0.01769048 0.74299997 4.6866007e-40
0.016319035 0.017738089 0.74500006 2.8714988e-40
0.017738087 0.017738096 0.745 7.477707e-40
0.019208558 0.017785721 0.74699998 1.1169119e-39
0.020631418 0.017785706 0.74699998 1.5778887e-39
0.022083787 0.017809533 0.74799997 2.0330977e-39
0.023571419 0.017857142 0.75000006 1.1997385e-39
0.024999972 0.017857142 0.75 2.8751141e-40
0.026499029 0.017904766 0.75199997 5.5461992e-39
0.027968539 0.017928571 0.75299996 1.0788011e-38
0.029480938 0.017976187 0.75500005 1.0418891e-38
0.030959986 0.017999999 0.75599992 9.9600609e-39
0.032399982 0.018000007 0.75599992 9.4972863e-39
0.033839997 0.017999992 0.75599998 8.9480586e-39
0.035373326 0.018047616 0.75799996 9.2210456e-39
-0.028154312 0.019491419 0.75799996 3.9720183e-39
-0.026780991 0.019542873 0.75999993 5.077647e-39
-0.025333349 0.019542865 0.75999993 5.2620495e-39
-0.023822872 0.019491419 0.75799996 5.5382763e-39
-0.022379069 0.019491427 0.75799996 5.5386364e-39
-0.020935237 0.019491419 0.75799996 5.5386406e-39
-0.019440033 0.019439995 0.75599998 5.5382861e-39
-0.017904771 0.01933714 0.75199997 5.538649e-39
-0.016428594 0.019285716 0.75 5.7230403e-39
-0.015000025 0.019285724 0.75 5.9070728e-39
-0.013571465 0.019285701 0.75 6.0918228e-39
-0.012110494 0.019234285 0.74800003 6.3684139e-39
-0.010685736 0.019234292 0.74799997 6.2773028e-39
-0.009260986 0.019234292 0.74799997 6.2783959e-39
-0.0078362077 0.019234292 0.74799997 6.6468309e-39
-0.0064028632 0.019208565 0.74699998 7.0166643e-39
-0.0049799895 0.019208573 0.74699998 6.0010733e-39
-0.003557143 0.019208565 0.74700004 5.0845176e-39
-0.002128565 0.019157149 0.74500006 4.6206808e-39
-0.00070762559 0.019105703 0.74300003 4.2572821e-39
0.00070760289 0.019105718 0.74299997 4.1604215e-39
0.0021228648 0.01910571 0.74300003 4.0728852e-39
0.0035380914 0.019105703 0.74300003 4.2529619e-39
0.0049533341 0.01910571 0.74300003 4.5305983e-39
0.0063685626 0.019105703 0.74300003 2.9596853e-39
0.0077733239 0.019080013 0.74199998 1.3898849e-39
0.0091866674 0.019080006 0.74199998 1.206944e-39
0.010614294 0.019105703 0.74300003 1.1147441e-39
0.012029522 0.019105695 0.74300003 9.3070741e-40
0.013444765 0.01910571 0.74300003 7.4632315e-40
0.014859991 0.01910571 0.74300003 5.619375e-40
0.01631904 0.019157141 0.745 3.8042311e-40
0.017738091 0.019157149 0.745 9.3215635e-40
0.019208575 0.019208558 0.74700004 1.3927716e-39
0.020659029 0.019234285 0.74799997 1.7601149e-39
0.022083787 0.0192343 0.74799997 2.1252793e-39
0.0235714 0.019285709 0.75 1.293711e-39
0.025066664 0.01933714 0.75199997 5.5618797e-40
0.026499027 0.01933714 0.75199997 5.7244766e-39
0.027968541 0.019362852 0.75299996 1.0973828e-38
0.029480934 0.019414283 0.755 1.078874e-38
0.030959992 0.019440003 0.75599998 1.0602911e-38
0.032485705 0.019491442 0.75799996 1.0051534e-38
0.033929523 0.019491434 0.75799996 9.5919833e-39
0.035373326 0.019491442 0.75799996 9.6830859e-39
-0.028154286 0.02093523 0.75799996 3.8830499e-39
-0.026780965 0.020990483 0.75999999 4.893969e-39
-0.025333343 0.020990498 0.75999993 5.0783701e-39
-0.023885733 0.020990483 0.75999999 5.2623998e-39
-0.022438118 0.020990491 0.75999999 5.2623998e-39
-0.020990478 0.020990476 0.75999999 5.1705727e-39
-0.019491436 0.020935245 0.75799996 5.1705811e-39
-0.017928611 0.020797133 0.75299996 5.0791072e-39
-0.016472414 0.020769529 0.75199997 5.3549738e-39
-0.015000024 0.020714276 0.75 5.6315621e-39
-0.013571437 0.020714283 0.75 5.8159576e-39
-0.012142897 0.020714276 0.75 5.9999929e-39
-0.010685744 0.020659052 0.74799997 5.9092392e-39
-0.0092609646 0.020659052 0.74799997 5.7259381e-39
-0.0078362338 0.020659067 0.74799997 5.8192198e-39
-0.0064028804 0.02063141 0.74699998 5.9085329e-39
-0.0049800058 0.020631418 0.74699998 4.4287519e-39
-0.0035571598 0.020631425 0.74699998 2.9597343e-39
-0.0021285901 0.020576179 0.74500006 1.7586898e-39
-0.00070763024 0.020520948 0.74300003 4.7585433e-40
0.00070761127 0.02052094 0.74300003 3.7575958e-40
0.0021228397 0.020520955 0.74300003 2.9145887e-40
0.0035380812 0.020520948 0.74299997 4.7262154e-40
0.0049533285 0.020520948 0.74300003 6.5987145e-40
0.00636857 0.02052094 0.74300003 1.0225415e-39
0.0077837994 0.020520948 0.74300003 1.2984109e-39
0.0091990409 0.020520963 0.74300003 1.1147455e-39
0.010614268 0.020520948 0.74299997 8.3959358e-40
0.01202953 0.020520948 0.74300003 8.3994811e-40
0.013444759 0.02052094 0.74300003 8.3815585e-40
0.01486 0.020520955 0.74300003 6.5269259e-40
0.016319042 0.020576194 0.745 4.7082227e-40
0.01773808 0.020576186 0.745 1.1151127e-39
0.019208571 0.020631418 0.74700004 1.6679221e-39
0.020659029 0.020659052 0.74799997 1.9448663e-39
0.022083795 0.020659052 0.74799997 2.1252863e-39
0.023571411 0.020714283 0.75 1.4766757e-39
0.024999985 0.02071429 0.75000006 8.3995792e-40
0.02649902 0.020769529 0.75199997 6.0057382e-39
0.027968539 0.020797141 0.75299996 1.1064236e-38
0.029480925 0.02085238 0.755 1.1158597e-38
0.030959986 0.020880006 0.75599998 1.1247916e-38
0.032485712 0.020935237 0.75799996 1.0696897e-38
0.033929531 0.020935245 0.75799996 1.0145156e-38
0.035373334 0.02093523 0.75799996 1.0145503e-38
-0.025333369 0.022438109 0.75999999 4.9865248e-39
-0.023917155 0.022467628 0.76099998 5.1705531e-39
-0.022438115 0.022438101 0.75999999 5.170193e-39
-0.020935265 0.022379063 0.7579999 5.1691294e-39
-0.01944002 0.022319995 0.75599998 5.078024e-39
-0.017928613 0.022231422 0.75299996 5.0787428e-39
-0.016494311 0.022231422 0.75300002 5.5389965e-39
