# .PCD v0.7 - Point Cloud Data file format
VERSION 0.7
FIELDS x y z rgb
SIZE 4 4 4 4
TYPE F F F F
COUNT 1 1 1 1
WIDTH 980
HEIGHT 1
VIEWPOINT 0 0 0 1 0 0 0
POINTS 980
DATA ascii
0.035279997 0.0035999939 0.75600004 1.031718e-38
0.036817171 0.0036095232 0.75799996 1.0039526e-38
0.038260985 0.0036095306 0.75799996 9.3887908e-39
-0.026710471 0.0050533339 0.75800002 3.4041533e-39
-0.025066659 0.0050133318 0.75200003 4.7078107e-39
-0.02363427 0.0050133243 0.75200003 5.9995991e-39
-0.022201877 0.0050133392 0.75200003 3.6882778e-39
-0.020769525 0.0050133243 0.75200003 1.4759639e-39
-0.019337136 0.0050133392 0.75200003 1.0182101e-39
-0.017857119 0.0050000101 0.75 5.5831654e-40
-0.016362846 0.0049799904 0.74700004 5.5831654e-40
-0.014899967 0.0049666613 0.745 5.5867808e-40
-0.013480901 0.0049666688 0.745 5.5939835e-40
-0.012029504 0.0049533397 0.74300003 5.5868649e-40
-0.01061427 0.0049533322 0.74299997 6.5160379e-40
-0.0091866404 0.0049466714 0.74199998 7.4416796e-40
-0.0077733062 0.0049466789 0.74200004 8.3708946e-40
-0.0063599721 0.0049466565 0.74200004 1.0211178e-39
-0.0049466603 0.004946664 0.74200004 8.3923765e-40
-0.0035333261 0.004946664 0.74200004 6.5736593e-40
-0.0021113865 0.0049266666 0.73899996 8.4104112e-40
-0.00070378365 0.0049266517 0.73900002 1.0247149e-39
0.00070192298 0.0049133301 0.73699999 6.5414714e-40
0.0021057166 0.0049133301 0.73700005 3.7471842e-40
0.0035095494 0.0049133375 0.73699999 4.8018575e-39
0.004913345 0.0049133301 0.73700005 9.3154202e-39
0.0063171554 0.0049133375 0.73699999 9.593428e-39
0.007720951 0.004913345 0.73699999 9.8700177e-39
0.0091247819 0.0049133301 0.73699999 1.014589e-38
0.010528577 0.004913345 0.73699999 1.0510005e-38
0.011932371 0.0049133375 0.73700005 9.7749634e-39
0.013336204 0.0049133301 0.73699999 9.0356047e-39
0.014780031 0.0049266517 0.73900002 8.2062028e-39
0.016253352 0.0049466714 0.74199998 7.3667746e-39
0.017619055 0.00493332 0.73999995 6.5477927e-39
0.019080022 0.004946664 0.74200004 5.7205698e-39
0.020493334 0.0049466714 0.74200004 6.8297844e-39
0.021906668 0.0049466714 0.74200004 7.8439055e-39
0.023351435 0.0049533397 0.74299997 7.5687409e-39
0.024766693 0.0049533322 0.74299997 7.387937e-39
0.026181951 0.0049533397 0.74299997 6.5542401e-39
0.027671454 0.0049666688 0.745 5.8152261e-39
0.029168587 0.0049800128 0.74700004 9.0362577e-39
0.03063242 0.0049866661 0.74800003 1.2264809e-38
0.032142904 0.0050000101 0.75 1.3276751e-38
0.033571444 0.0049999878 0.75 1.429376e-38
0.035000026 0.0050000101 0.75 1.4010363e-38
0.03672 0.0050400048 0.75600004 1.3643391e-38
0.038160007 0.0050400048 0.75600004 1.3363231e-38
-0.025166651 0.0064714253 0.755 5.2652683e-39
-0.023665674 0.0064542964 0.75299996 7.0969531e-39
-0.022201879 0.0064457059 0.75200003 4.2349832e-39
-0.020769527 0.0064457208 0.75200003 1.2940851e-39
-0.019337136 0.0064457133 0.75200003 1.0192849e-39
-0.017857138 0.0064285696 0.75 6.508667e-40
-0.016362855 0.0064028576 0.74700004 5.5867247e-40
-0.01489999 0.0063857138 0.745 4.6683978e-40
-0.013480925 0.0063857064 0.745 5.5867948e-40
-0.012029507 0.0063685775 0.74299997 5.5868509e-40
-0.010614273 0.00636857 0.74299997 6.4980872e-40
-0.0091990149 0.0063685775 0.74299997 6.5232686e-40
-0.0077837585 0.0063685775 0.74299997 7.4488682e-40
-0.0063599832 0.0063599944 0.74200004 8.3779852e-40
-0.0049533043 0.0063685775 0.74299997 6.5377019e-40
-0.003538046 0.00636857 0.74299997 3.8113917e-40
-0.0021142866 0.0063428357 0.74000001 7.4884549e-40
-0.00070378551 0.0063342825 0.73900002 1.0239961e-39
0.00070190436 0.0063171461 0.73700005 6.5450447e-40
0.0021057371 0.0063171536 0.73699999 1.9642981e-40
0.0035095308 0.0063171387 0.73699999 5.1688449e-39
0.0049133655 0.0063171536 0.73699999 1.0142668e-38
0.0063171592 0.0063171536 0.73700005 1.0426067e-38
0.0077209529 0.0063171312 0.73700005 1.0609025e-38
0.0091247633 0.0063171461 0.73699999 1.1345867e-38
0.010528559 0.0063171387 0.73699999 1.1985121e-38
0.011932392 0.0063171461 0.73699999 1.1344058e-38
0.013372427 0.0063342825 0.73899996 1.0605432e-38
0.014799995 0.0063428432 0.74000001 1.0240604e-38
0.016209522 0.0063428581 0.74000001 9.7738914e-39
0.017619064 0.0063428581 0.73999995 1.0054778e-38
0.019028589 0.0063428581 0.73999995 1.0327057e-38
0.020438116 0.0063428432 0.73999995 1.0611534e-38
0.021906693 0.0063600093 0.74199998 1.0784794e-38
0.023320029 0.0063600019 0.74200004 9.2235819e-39
0.024766691 0.00636857 0.74299997 7.6580653e-39
0.026181947 0.0063685775 0.74299997 6.5520849e-39
0.027597144 0.0063685775 0.74299997 5.3571318e-39
0.029168582 0.0064028651 0.74700004 1.014153e-38
0.030591432 0.0064028651 0.74699998 1.483876e-38
0.032057196 0.0064114332 0.74799997 1.6408919e-38
0.033705752 0.0064543039 0.75299996 1.7969405e-38
0.035233367 0.0064714253 0.755 1.7603497e-38
0.036671478 0.0064714253 0.755 1.7232576e-38
0.038160004 0.0064800084 0.75600004 1.732729e-38
0.039600011 0.0064800009 0.75600004 1.7325119e-38
-0.025099978 0.007888563 0.75299996 4.61595e-39
-0.023665702 0.007888563 0.75299996 5.9081069e-39
-0.022201877 0.0078780875 0.75200003 3.6882722e-39
-0.020769525 0.0078780949 0.75200003 1.4763184e-39
-0.019337134 0.0078780875 0.75200003 1.018566e-39
-0.017857119 0.0078571513 0.75 5.590284e-40
-0.016384732 0.0078361854 0.74800003 5.5866827e-40
-0.014940009 0.0078257173 0.74700004 4.6683838e-40
-0.01348091 0.0078047588 0.745 4.6720132e-40
-0.012061844 0.0078047737 0.745 4.6756565e-40
-0.010614255 0.0077838078 0.74299997 4.6828872e-40
-0.0092237731 0.0078047588 0.745 5.6192068e-40
-0.0077837631 0.0077838153 0.74299997 6.5447645e-40
-0.0063685644 0.0077838153 0.74299997 7.4703361e-40
-0.004953308 0.0077838153 0.74299997 6.5591838e-40
-0.0035380498 0.0077838078 0.74299997 5.6588356e-40
-0.0021142792 0.0077523664 0.74000001 9.3323255e-40
-0.00070378551 0.0077418908 0.73899996 1.2091006e-39
0.00070385641 0.0077419057 0.73899996 7.4633857e-40
0.0021114592 0.0077418983 0.73900002 1.8889784e-40
0.0035095122 0.0077209473 0.73700005 4.8940601e-39
0.0049133468 0.0077209547 0.73699999 9.6913956e-39
0.0063171405 0.0077209398 0.73700005 9.6906851e-39
0.0077209733 0.0077209547 0.73699999 9.6914068e-39
0.0091247689 0.0077209473 0.73700005 9.779299e-39
0.010557167 0.0077418908 0.73900002 9.9654643e-39
0.011964809 0.0077418983 0.73900002 9.6874299e-39
0.01337239 0.0077419057 0.73900002 9.5059309e-39
0.014800005 0.0077523813 0.74000001 9.1350198e-39
0.016253352 0.0077733248 0.74200004 8.7701806e-39
0.017619057 0.0077523664 0.74000001 8.3985254e-39
0.019080035 0.0077733248 0.74199998 8.0340435e-39
0.020493371 0.0077733323 0.74200004 7.568399e-39
0.021936234 0.0077838153 0.74299997 7.1953173e-39
0.023351451 0.0077838153 0.74299997 7.0116463e-39
0.024766685 0.0077838078 0.74299997 6.8254502e-39
0.026181944 0.0077838153 0.74299997 5.9052861e-39
0.027671445 0.0078047514 0.745 4.9808285e-39
0.029168576 0.0078257099 0.74700004 9.5912532e-39
0.0307143 0.0078571364 0.75 1.4202775e-38
0.032228608 0.0078780875 0.75200003 1.5672876e-38
0.033795297 0.0079095215 0.755 1.7142241e-38
0.035280026 0.0079200119 0.75599998 1.6866372e-38
0.036719996 0.0079200044 0.75600004 1.6591229e-38
0.03816 0.0079200044 0.75600004 1.6683071e-38
-0.025166636 0.0093476176 0.755 4.0714152e-39
-0.023665695 0.0093228519 0.75299996 4.7088743e-39
-0.022201877 0.0093104914 0.75200003 3.2258675e-39
-0.020769525 0.009310469 0.75200003 1.6625005e-39
-0.019337134 0.0093104765 0.75200003 1.1114777e-39
-0.017904744 0.009310469 0.75199997 4.6755304e-40
-0.01642853 0.0092857182 0.75 4.6575938e-40
-0.014940016 0.0092485771 0.74700004 4.6683978e-40
-0.013480934 0.0092238113 0.745 4.6684398e-40
-0.012061868 0.0092238039 0.745 3.7644762e-40
-0.010642826 0.0092238039 0.745 3.7788816e-40
-0.009223761 0.0092238113 0.745 3.7860983e-40
-0.0077837659 0.009199053 0.74299997 5.6336122e-40
-0.0063685458 0.009199053 0.74299997 6.5555965e-40
-0.0049533118 0.0091990381 0.74299997 7.4883428e-40
-0.0035380535 0.0091990456 0.74299997 7.4884129e-40
-0.0021142699 0.009161897 0.73999995 1.1169077e-39
-0.00070474477 0.009161897 0.73999995 1.392417e-39
0.00070385641 0.0091495216 0.73899996 8.4033066e-40
0.0021114592 0.0091495141 0.73899996 1.9750881e-40
0.0035190992 0.009149529 0.73899996 4.7107493e-39
0.0049133282 0.0091247708 0.73699999 9.1321248e-39
0.006317161 0.0091247633 0.73699999 8.9534746e-39
0.0077209547 0.0091247708 0.73699999 8.7651345e-39
0.0091495644 0.0091495141 0.73899996 8.2977006e-39
0.010571418 0.009161897 0.74000001 7.8435453e-39
0.011980982 0.009161897 0.73999995 8.1176183e-39
0.013390509 0.009161897 0.73999995 8.3030886e-39
0.014840006 0.0091866627 0.74200004 8.0229256e-39
0.016253341 0.0091866627 0.74200004 7.6580877e-39
0.01766669 0.0091866627 0.74199998 6.642868e-39
0.019080024 0.0091866702 0.74199998 5.6337551e-39
0.020493358 0.0091866627 0.74200004 4.6156726e-39
0.021936228 0.009199053 0.74299997 3.5175885e-39
0.02335145 0.009199053 0.74299997 4.7100108e-39
0.024766684 0.009199053 0.74299997 5.9060148e-39
0.026252415 0.0092238039 0.745 5.2620803e-39
0.027671481 0.0092238113 0.745 4.5273865e-39
0.029207669 0.0092609674 0.74799997 9.0391542e-39
0.03071432 0.0092857257 0.75 1.3461624e-38
0.032271456 0.0093228519 0.75299996 1.4845272e-38
0.033795286 0.0093476102 0.755 1.6221724e-38
0.035280023 0.0093600079 0.75599998 1.6128451e-38
0.03672003 0.0093600154 0.75599998 1.5945861e-38
-0.025199983 0.010800011 0.75599998 4.0649777e-39
-0.023728525 0.010785714 0.755 4.2522192e-39
-0.022290442 0.010785714 0.755 2.9546672e-39
-0.020852357 0.010785714 0.755 1.5706664e-39
-0.019362859 0.010757133 0.75299996 1.111835e-39
-0.017904745 0.010742851 0.75199997 5.6082347e-40
-0.016428549 0.010714278 0.75 5.5938994e-40
-0.014999965 0.010714285 0.75 4.6827611e-40
-0.013517148 0.010671422 0.74700004 4.6863765e-40
-0.012061855 0.010642856 0.745 4.6936072e-40
-0.010642811 0.010642864 0.745 4.6972365e-40
-0.0092237843 0.010642849 0.745 4.6972926e-40
-0.0078047402 0.010642856 0.745 5.6228642e-40
-0.0063856756 0.010642864 0.745 7.4632175e-40
-0.0049533136 0.010614276 0.74299997 7.4704482e-40
-0.0035380572 0.010614283 0.74299997 7.4776929e-40
-0.0021142997 0.01057142 0.74000001 1.0247177e-39
-0.00070477457 0.01057142 0.74000001 1.3005857e-39
0.00070381729 0.010557137 0.73900002 8.3925727e-40
0.0021114592 0.010557123 0.73899996 2.8504232e-40
0.0035190992 0.010557145 0.73899996 4.5256447e-39
0.004926702 0.010557145 0.73900002 8.8562525e-39
0.0063343439 0.01055713 0.73899996 8.6725717e-39
0.0077419449 0.010557137 0.73900002 8.5767762e-39
0.0091619017 0.01057142 0.73999995 8.3923723e-39
0.010571428 0.010571405 0.74000001 8.1158078e-39
0.011980953 0.010571413 0.74000001 8.2094538e-39
0.013426682 0.010599993 0.74200004 8.300925e-39
0.014840031 0.010600008 0.74199998 8.0246954e-39
0.016253365 0.010600001 0.74199998 7.7473896e-39
0.017666699 0.010600001 0.74200004 7.1027419e-39
0.019080011 0.010600008 0.74200004 6.4566761e-39
0.020520993 0.010614291 0.74299997 5.9067505e-39
0.021936227 0.010614291 0.74299997 5.3550116e-39
0.023351446 0.010614291 0.74299997 5.8145394e-39
0.024766702 0.010614283 0.74299997 6.2747889e-39
0.02625243 0.010642864 0.745 5.2613643e-39
0.027671495 0.010642864 0.745 4.2461361e-39
0.029207634 0.010685712 0.74799997 8.8547545e-39
0.030796196 0.010742851 0.75200003 1.3463408e-38
0.032271463 0.010757141 0.75299996 1.4843111e-38
0.033795275 0.010785699 0.75500005 1.6128445e-38
0.035280023 0.010800004 0.75600004 1.6036964e-38
0.036720026 0.010799997 0.75599998 1.6036252e-38
-0.025199987 0.012240008 0.75599998 3.9745547e-39
-0.023728538 0.01222381 0.755 3.7872894e-39
-0.022290453 0.012223795 0.755 2.6784405e-39
-0.020880004 0.012240015 0.75599998 1.4809819e-39
-0.019414246 0.012223803 0.755 1.1121938e-39
-0.017904744 0.012175247 0.75199997 6.519415e-40
-0.016428528 0.012142859 0.75 5.5831374e-40
-0.014999983 0.012142852 0.75 4.6791598e-40
-0.013517154 0.012094282 0.74700004 5.6118921e-40
-0.012061877 0.012061909 0.745 5.6155074e-40
-0.010642833 0.012061894 0.745 5.6191368e-40
-0.0092237685 0.012061901 0.745 5.6120182e-40
-0.0078047263 0.012061916 0.745 6.5268419e-40
-0.0063856598 0.012061909 0.745 7.4524415e-40
-0.0049533173 0.012029521 0.74299997 7.4560989e-40
-0.0035380609 0.012029521 0.74299997 7.4812803e-40
-0.0021199752 0.012013331 0.74199998 1.0247191e-39
-0.00070476526 0.011980936 0.74000001 1.2080314e-39
0.00070476165 0.011980943 0.74000001 8.385384e-40
0.0021142866 0.011980943 0.74000001 3.8118261e-40
0.0035190601 0.011964761 0.73900002 4.4345295e-39
0.004926702 0.011964753 0.73899996 8.4849687e-39
0.0063343048 0.011964753 0.73900002 8.4878302e-39
0.0077524073 0.011980943 0.73999995 8.395266e-39
0.0091619324 0.011980943 0.73999995 8.394896e-39
0.010571435 0.011980943 0.73999995 8.3945485e-39
0.012013337 0.012013331 0.74200004 8.3038004e-39
0.013426708 0.012013346 0.74199998 8.2105258e-39
0.01484002 0.012013331 0.74199998 8.0275681e-39
0.016253354 0.012013331 0.74200004 7.8406643e-39
0.017666688 0.012013324 0.74200004 7.5637201e-39
0.01908 0.012013331 0.74200004 7.2882192e-39
0.020520989 0.012029529 0.74299997 7.1992577e-39
0.021936223 0.012029536 0.74299997 7.1041852e-39
0.023351442 0.012029514 0.74299997 6.826518e-39
0.024833364 0.012061901 0.74500006 6.5499227e-39
0.026252406 0.012061909 0.745 5.261702e-39
0.027745746 0.012094289 0.74699998 3.8845311e-39
0.029207658 0.012110464 0.74800003 8.6696668e-39
0.030796194 0.012175247 0.75200003 1.3459477e-38
0.032271475 0.01219143 0.75299996 1.4751288e-38
0.033795301 0.01222381 0.755 1.6036622e-38
0.03523336 0.012223803 0.755 1.6038413e-38
0.036720026 0.01224 0.75599998 1.6036263e-38
-0.025266644 0.013716184 0.75800002 4.2457326e-39
-0.023759983 0.013680004 0.75599998 3.2330352e-39
-0.022320013 0.013680004 0.75600004 2.2189015e-39
-0.020880008 0.013679996 0.75600004 1.296592e-39
-0.019440001 0.013680004 0.75599998 1.0203583e-39
-0.017904745 0.013607621 0.75199997 6.519415e-40
-0.016472369 0.013607606 0.75200003 5.5938994e-40
-0.014999962 0.013571441 0.75 4.6683838e-40
-0.013517121 0.013517141 0.74699998 4.6899218e-40
-0.012061864 0.013480946 0.745 4.6971244e-40
-0.010642822 0.013480946 0.745 4.6935511e-40
-0.0092237554 0.013480961 0.745 4.6900339e-40
-0.007804729 0.013480946 0.745 6.5303872e-40
-0.0063856849 0.013480954 0.745 8.3636078e-40
-0.0049532969 0.013444759 0.74299997 8.3852159e-40
-0.0035380628 0.013444766 0.74299997 8.4104112e-40
-0.0021199901 0.013426676 0.74199998 1.0247191e-39
-0.00070665398 0.013426661 0.74200004 1.3002256e-39
0.0007047691 0.013390474 0.73999995 8.3781813e-40
0.002114296 0.013390467 0.74000001 3.7472683e-40
0.0035333652 0.013426669 0.74199998 4.2483502e-39
0.0049333256 0.013390474 0.74000001 8.2123363e-39
0.0063428506 0.013390459 0.74000001 8.2112531e-39
0.0077523775 0.013390467 0.74000001 8.212681e-39
0.0091619026 0.013390459 0.74000001 8.2112377e-39
0.010571428 0.013390459 0.74000001 8.2119607e-39
0.012013363 0.013426676 0.74199998 7.6591583e-39
0.013426697 0.013426669 0.74199998 7.1996193e-39
0.014840031 0.013426661 0.74200004 7.3829273e-39
0.016253343 0.013426669 0.74200004 7.5651634e-39
0.017666677 0.013426669 0.74200004 7.4733265e-39
0.019080011 0.013426661 0.74200004 7.3822071e-39
0.020520985 0.013444766 0.74299997 7.5662354e-39
0.021936242 0.013444774 0.74299997 7.7495392e-39
0.023351438 0.013444752 0.74299997 7.2885583e-39
0.024833377 0.013480961 0.745 6.8257739e-39
0.026252421 0.013480954 0.745 5.2606048e-39
0.027745739 0.013517149 0.74699998 3.6965539e-39
0.029207662 0.013535231 0.74800003 7.8431642e-39
0.030796196 0.013607621 0.75200003 1.1994069e-38
0.032271445 0.013625711 0.75300002 1.2451466e-38
0.03379529 0.013661891 0.75500005 1.3003554e-38
0.035233349 0.013661899 0.755 1.300104e-38
0.036720023 0.013680004 0.75600004 1.3093594e-38
-0.025333321 0.015199997 0.76000005 4.5180105e-39
-0.023822835 0.015159994 0.75799996 2.5880315e-39
-0.022379018 0.015160009 0.75799996 1.8515553e-39
-0.020935204 0.015160002 0.75799996 1.1139944e-39
-0.019491389 0.015160002 0.75799996 9.2924025e-40
-0.017928556 0.015060008 0.75299996 6.5229603e-40
-0.016472369 0.015039995 0.75200003 5.5974026e-40
-0.01499998 0.015000001 0.75 4.6826911e-40
-0.013535185 0.014960006 0.74799997 4.704257e-40
-0.012094255 0.014940001 0.74699998 3.7787555e-40
-0.010671442 0.014940001 0.74700004 3.7608609e-40
-0.0092485901 0.014939994 0.74700004 3.7752662e-40
-0.0078047132 0.014899999 0.745 6.5447365e-40
-0.0063856691 0.014899999 0.745 9.2963121e-40
-0.0049666036 0.014899999 0.745 9.3035848e-40
-0.0035380665 0.014860012 0.74299997 9.3216196e-40
-0.002119977 0.014839999 0.74200004 1.116919e-39
-0.00070666516 0.014839999 0.74200004 1.2998669e-39
0.000706669 0.014839992 0.74200004 8.3817126e-40
0.0021200404 0.014840007 0.74199998 2.8862124e-40
0.0035333522 0.014840007 0.74199998 4.1557832e-39
0.0049333554 0.014799982 0.73999995 7.9307215e-39
0.0063428599 0.01479999 0.73999995 7.9317949e-39
0.007752385 0.01479999 0.73999995 7.9339417e-39
0.0091619119 0.01479999 0.74000001 7.9339361e-39
0.010571437 0.01479999 0.74000001 7.9339347e-39
0.011980962 0.01479999 0.74000001 7.0134273e-39
0.013426684 0.014840007 0.74200004 6.0961514e-39
0.014840018 0.014839992 0.74200004 6.7386439e-39
0.016275272 0.014859997 0.74299997 7.2900156e-39
0.017690528 0.014860004 0.74299997 7.3814938e-39
0.019105725 0.014860019 0.74299997 7.3825686e-39
0.020520983 0.014860004 0.74299997 7.8424635e-39
0.02193624 0.014860012 0.74299997 8.3027074e-39
0.023351435 0.014859989 0.74299997 7.6609267e-39
0.024833392 0.014899999 0.745 7.01197e-39
0.026252396 0.014899999 0.745 5.2577587e-39
0.027745733 0.014940001 0.74699998 3.513613e-39
0.029207665 0.014959998 0.74799997 7.011984e-39
0.030796196 0.015039995 0.75200003 1.0422815e-38
0.032271452 0.015060008 0.75300002 1.024094e-38
0.033795275 0.015099995 0.75500005 9.9650776e-39
0.035233375 0.015100002 0.755 1.0051536e-38
0.036720019 0.015120007 0.75600004 1.0055126e-38
-0.025333289 0.016647615 0.75999999 3.7829664e-39
-0.023885665 0.016647622 0.75999999 2.4018466e-39
-0.022438066 0.016647622 0.75999999 1.666085e-39
-0.020935191 0.01660382 0.75799996 1.0217974e-39
-0.019491412 0.016603805 0.75800002 7.4485039e-40
-0.017976161 0.016538091 0.755 5.6009759e-40
-0.016472369 0.016472377 0.75200003 5.5937312e-40
-0.015039979 0.016472369 0.75200003 4.6754604e-40
-0.013571395 0.016428582 0.75 4.6970684e-40
-0.012110446 0.016384758 0.74799997 4.7042851e-40
-0.010671409 0.016362861 0.74699998 4.6971525e-40
-0.0092485966 0.016362853 0.74700004 4.6972085e-40
-0.007825722 0.016362853 0.74700004 7.4594901e-40
-0.0063856933 0.016319044 0.745 9.2927248e-40
-0.0049666278 0.016319044 0.745 9.3071862e-40
-0.0035475846 0.016319044 0.745 8.406894e-40
-0.0021228511 0.016275227 0.74299997 1.0247303e-39
-0.00070668006 0.01625333 0.74200004 1.2087488e-39
0.00070669508 0.01625333 0.74199998 8.3852439e-40
0.0021200292 0.016253345 0.74200004 5.6160679e-40
0.0035333391 0.016253337 0.74200004 4.4337868e-39
0.0049333256 0.016209498 0.74000001 8.3924003e-39
0.0063428897 0.01620952 0.73999995 8.5767888e-39
0.0077523943 0.016209528 0.73999995 8.851575e-39
0.0091866916 0.016253337 0.74199998 8.5771419e-39
0.010600026 0.01625333 0.74200004 8.3009109e-39
0.012013338 0.016253337 0.74200004 7.6580555e-39
0.013426672 0.01625333 0.74200004 7.1063348e-39
0.014860034 0.016275249 0.74299997 7.2910904e-39
0.016275268 0.016275235 0.74299997 7.475123e-39
0.017690526 0.016275242 0.74299997 7.4744069e-39
0.019105744 0.016275235 0.74299997 7.4747656e-39
0.020520978 0.016275242 0.74299997 7.6598716e-39
0.021936236 0.016275249 0.74299997 7.9371633e-39
0.023351457 0.016275235 0.74299997 7.2939477e-39
0.024833368 0.016319044 0.745 6.650023e-39
0.026322853 0.016362861 0.74699998 4.5223811e-39
0.02778287 0.016384758 0.74800003 2.4037089e-39
0.029207667 0.016384766 0.74799997 6.2762252e-39
0.030837186 0.016494289 0.75299996 1.0147658e-38
0.032271463 0.016494274 0.75299996 9.9629042e-39
0.033795279 0.016538098 0.755 9.8707198e-39
0.035233364 0.016538098 0.755 9.6841887e-39
0.036720015 0.016560011 0.75600004 9.4987283e-39
0.038160022 0.016559996 0.75600004 9.8682268e-39
-0.025433324 0.018166661 0.76300001 3.1365334e-39
-0.023917118 0.018119052 0.76099998 2.1249052e-39
-0.022467609 0.018119045 0.76100004 1.4813378e-39
-0.020990448 0.018095247 0.75999999 8.3740896e-40
-0.019491397 0.018047608 0.75800002 6.5158137e-40
-0.017976172 0.01797618 0.755 4.6791177e-40
-0.016472369 0.017904758 0.75200003 4.6683698e-40
-0.01503998 0.017904766 0.75200003 4.6863204e-40
-0.01357141 0.017857142 0.75000006 5.6190387e-40
-0.012110443 0.017809525 0.74799997 5.6154934e-40
-0.010685684 0.017809525 0.74800003 5.6191228e-40
-0.0092609096 0.017809525 0.74799997 5.6191508e-40
-0.0078257266 0.017785713 0.74700004 7.4594901e-40
-0.0064028762 0.017785713 0.74700004 9.2998854e-40
-0.0049666129 0.017738111 0.745 8.3887892e-40
-0.0035476107 0.017738089 0.745 7.4776929e-40
-0.002122853 0.017690487 0.74299997 9.3216756e-40
-0.00070662791 0.017666668 0.74200004 1.1154756e-39
0.00070668204 0.017666675 0.74200004 9.2929069e-40
0.0021142829 0.017619044 0.73999995 7.5029163e-40
0.003523808 0.017619044 0.74000001 4.8093572e-39
0.0049333349 0.017619036 0.74000001 8.7608115e-39
0.0063600354 0.017666668 0.74199998 9.2232344e-39
0.0077733686 0.017666675 0.74200004 9.6806126e-39
0.0091866804 0.017666668 0.74199998 9.1295954e-39
0.010600015 0.017666668 0.74200004 8.5782223e-39
0.012013349 0.01766666 0.74200004 8.3952688e-39
0.013426661 0.017666668 0.74200004 8.1197609e-39
0.014860029 0.017690487 0.74299997 7.8435369e-39
0.016253367 0.017666668 0.74200004 7.5673172e-39
0.017690521 0.01769048 0.74299997 7.5666039e-39
0.01910574 0.017690487 0.74299997 7.4751314e-39
0.020520976 0.017690487 0.74299997 7.5680459e-39
0.021995274 0.017738104 0.745 7.5687535e-39
0.02341434 0.017738089 0.745 6.9269714e-39
0.024833383 0.017738104 0.745 6.1832967e-39
0.026322845 0.017785706 0.74700004 3.7776148e-39
0.027782874 0.017809525 0.74800003 1.3023836e-39
0.029285746 0.017857134 0.75 5.633025e-39
0.030837195 0.017928578 0.75299996 9.8671352e-39
0.032357186 0.017976187 0.755 9.7760102e-39
0.033795267 0.017976187 0.755 9.6841747e-39
0.035280008 0.018000007 0.75600004 9.3153992e-39
0.036720011 0.017999999 0.75600004 8.9477083e-39
0.038261022 0.018047631 0.75799996 9.0395536e-39
-0.025499959 0.019671433 0.76499999 2.7699116e-39
-0.023979971 0.019620009 0.76299995 1.9394419e-39
-0.022467608 0.01956857 0.76100004 1.3891422e-39
-0.020990454 0.019542858 0.75999999 9.2888572e-40
-0.019491384 0.019491434 0.75799996 7.4449446e-40
-0.017928569 0.019362845 0.75299996 5.6011441e-40
-0.016472371 0.01933714 0.75200003 5.6012282e-40
-0.015039979 0.01933714 0.75200003 6.5302891e-40
-0.01357139 0.019285709 0.75 6.5266457e-40
-0.012110441 0.019234292 0.74799997 7.4414554e-40
-0.010685682 0.019234277 0.74799997 5.6119621e-40
-0.0092609068 0.019234285 0.74799997 4.6972225e-40
-0.0078256968 0.019208573 0.74699998 7.4559028e-40
-0.0064028604 0.019208573 0.74700004 9.2962701e-40
-0.0049666371 0.019157141 0.745 8.3851598e-40
-0.0035475716 0.019157141 0.745 7.4704482e-40
-0.0021199752 0.019080013 0.74199998 9.3179762e-40
-0.00070664095 0.019080006 0.74200004 1.1161917e-39
0.000706669 0.019079998 0.74200004 8.374608e-40
0.002120005 0.019079998 0.74200004 5.5800265e-40
0.0035333391 0.019079991 0.74200004 4.3419065e-39
0.0049466882 0.019080006 0.74199998 8.1175973e-39
0.0063600242 0.019080013 0.74199998 8.4867652e-39
0.0077733584 0.019079991 0.74200004 8.8541001e-39
0.0091866693 0.019080006 0.74200004 8.5782279e-39
0.010600003 0.019079991 0.74200004 8.2108915e-39
0.012013338 0.019079991 0.74200004 8.1204966e-39
0.013426709 0.019080006 0.74200004 8.0315211e-39
0.014860027 0.019105725 0.74299997 7.7524175e-39
0.016253356 0.019080006 0.74200004 7.4751244e-39
0.017690519 0.019105718 0.74299997 7.3829357e-39
0.019105736 0.01910571 0.74299997 7.2903898e-39
0.020576246 0.019157149 0.745 7.291473e-39
0.021995289 0.019157149 0.745 7.383656e-39
0.023414318 0.019157134 0.745 6.7397201e-39
0.024899989 0.019208565 0.74700004 6.0928808e-39
0.026322864 0.019208573 0.74700004 3.412386e-39
0.027782876 0.019234292 0.74799997 7.4202817e-40
0.029207673 0.019234292 0.74799997 5.4472073e-39
0.030837165 0.019362852 0.75300002 1.0145877e-38
0.032357171 0.019414276 0.755 1.0144793e-38
0.033795256 0.019414283 0.75500005 1.0234109e-38
0.035280041 0.01944001 0.75599998 9.7749214e-39
0.036817182 0.019491427 0.75800002 9.4061599e-39
0.038260996 0.019491427 0.75800002 9.4068928e-39
0.039809562 0.019542851 0.76000005 9.4065354e-39
-0.02549996 0.021128558 0.76499999 2.4936821e-39
-0.02397999 0.021073334 0.76299995 1.7575618e-39
-0.022467604 0.021018088 0.76100004 1.3898597e-39
-0.020990459 0.020990469 0.76000005 9.2960318e-40
-0.019491408 0.020935237 0.75800002 7.4485459e-40
-0.017928559 0.020797141 0.75299996 5.6010881e-40
-0.016472369 0.020769522 0.75200003 6.519471e-40
-0.015039979 0.020769514 0.75200003 7.4414133e-40
-0.01357141 0.020714276 0.75 8.356181e-40
-0.012142827 0.020714276 0.75 8.3598103e-40
-0.010685678 0.020659044 0.74799997 6.5195551e-40
-0.0092609031 0.020659052 0.74799997 3.7752802e-40
-0.0078361444 0.020659044 0.74799997 6.5375618e-40
-0.0064028269 0.020631433 0.74699998 9.2962841e-40
-0.0049666241 0.020576201 0.745 8.3851598e-40
-0.0035475567 0.020576186 0.745 6.5520793e-40
-0.0021228362 0.020520948 0.74300003 8.4031805e-40
-0.00070665212 0.020493329 0.74200004 1.0232688e-39
0.00070668204 0.020493336 0.74200004 6.5377159e-40
0.002120031 0.020493336 0.74199998 2.8859602e-40
0.0035333652 0.020493336 0.74199998 3.8823913e-39
0.0049466994 0.020493343 0.74200004 7.4715244e-39
0.0063600093 0.020493336 0.74200004 7.7524273e-39
0.0077733453 0.020493329 0.74200004 8.0268576e-39
0.0091866786 0.020493329 0.74200004 7.9346634e-39
0.010600029 0.020493343 0.74199998 7.843188e-39
0.012013364 0.020493343 0.74199998 7.9361025e-39
0.013426698 0.020493329 0.74200004 7.9360955e-39
0.01484001 0.020493336 0.74200004 7.6598645e-39
0.016253345 0.020493329 0.74200004 7.2914506e-39
0.017690515 0.020520963 0.74299991 7.1989032e-39
0.019105736 0.020520948 0.74299997 7.0148805e-39
0.020520993 0.020520955 0.74299997 7.106723e-39
0.021995265 0.020576194 0.745 7.106716e-39
0.023414331 0.020576172 0.745 6.5556974e-39
0.024899984 0.020631433 0.74700004 5.9045575e-39
0.026322857 0.020631425 0.74700004 3.0364512e-39
0.027782902 0.020659044 0.74800003 1.0456489e-40
0.029285748 0.02071429 0.75 5.2671166e-39
0.030919079 0.020852372 0.755 1.0419233e-38
0.032357164 0.02085238 0.75500005 1.0606134e-38
0.033840034 0.020880006 0.75600004 1.0695457e-38
0.035280038 0.020879999 0.75599998 1.0327395e-38
0.036817197 0.02093523 0.75800002 9.8678611e-39
0.038261011 0.020935223 0.75800002 9.7756697e-39
0.039809514 0.020990476 0.75999999 9.6834642e-39
-0.02549996 0.022585712 0.76500005 1.6664395e-39
-0.023979969 0.022526667 0.76299995 1.4820525e-39
-0.022467602 0.022467621 0.76100004 1.2065474e-39
-0.020990465 0.022438079 0.76000005 9.3068078e-40
-0.019491393 0.022379041 0.75800002 8.3669009e-40
-0.017928552 0.022231437 0.75299996 7.4233926e-40
-0.016494274 0.02223143 0.75299996 6.5157576e-40
-0.015039979 0.022201911 0.75200003 6.519401e-40
-0.013607588 0.022201903 0.75199997 6.5230444e-40
-0.012142843 0.02214285 0.75 7.4414414e-40
-0.010714261 0.022142865 0.75 6.5267158e-40
-0.0092609404 0.022083811 0.74799997 5.6084168e-40
-0.0078361435 0.022083804 0.74799997 7.4523435e-40
-0.0064028352 0.022054285 0.74699998 9.2855221e-40
-0.004979983 0.022054292 0.74699998 7.4596302e-40
-0.0035571102 0.0220543 0.74699998 6.5377159e-40
-0.0021228399 0.021936186 0.74300003 7.4812102e-40
-0.0007076058 0.021936193 0.74299997 8.4030544e-40
0.00070765062 0.021936193 0.74299997 8.3742437e-40
0.002120018 0.021906674 0.74199998 8.3530561e-40
0.0035333522 0.021906674 0.74200004 3.6958715e-39
0.0049466882 0.021906666 0.74200004 6.4599032e-39
0.0063599981 0.021906674 0.74200004 7.1063362e-39
0.0077733323 0.021906659 0.74200004 7.7502679e-39
0.0091867056 0.021906666 0.74199998 7.5666039e-39
0.010600016 0.021906681 0.74199998 7.4740496e-39
0.01201335 0.021906666 0.74200004 7.4747656e-39
0.013426684 0.021906666 0.74200004 7.5662382e-39
0.01486002 0.021936201 0.74299997 7.1074152e-39
0.01625333 0.021906666 0.74200004 6.7397187e-39
0.017690536 0.021936208 0.74299997 6.8311997e-39
0.019105731 0.021936186 0.74299997 6.9223247e-39
0.020520989 0.021936193 0.74299997 7.0141658e-39
0.02205429 0.022054292 0.74699998 7.1049251e-39
0.023477165 0.022054285 0.74699998 6.5553457e-39
0.024933372 0.022083804 0.74799997 6.004655e-39
0.026358146 0.022083819 0.74799997 3.2280297e-39
0.027782904 0.022083811 0.74800003 4.6401897e-40
0.029285731 0.022142865 0.75 5.4464744e-39
0.030714335 0.022142865 0.75 1.0330986e-38
0.03235719 0.022290476 0.755 1.0329921e-38
0.033840008 0.022320017 0.75599998 1.032885e-38
0.035280038 0.022320002 0.75600004 1.0144825e-38
0.036817212 0.022379041 0.75799996 9.9618616e-39
0.038260989 0.022379041 0.75800002 9.8692988e-39
-0.023979986 0.023979999 0.76300001 1.1157923e-39
-0.022438055 0.023885712 0.75999999 1.0235953e-39
-0.020990456 0.023885705 0.75999999 8.3848936e-40
-0.019439982 0.023760006 0.75599998 9.2924725e-40
-0.017928541 0.023665711 0.75299996 9.2744799e-40
-0.016494265 0.023665719 0.75299996 7.4341406e-40
-0.015039979 0.023634285 0.75200003 4.6826911e-40
-0.013607589 0.023634285 0.75199997 5.61185e-40
-0.012142824 0.023571432 0.75 5.6154934e-40
-0.010714279 0.023571432 0.75 6.5410791e-40
-0.0092609385 0.023508564 0.74799997 6.5375198e-40
-0.0078361388 0.023508571 0.74799997 7.4595041e-40
-0.0064028399 0.023477152 0.74700004 8.3779151e-40
-0.0049799904 0.023477137 0.74699998 7.4632035e-40
-0.003547566 0.023414299 0.745 6.5592259e-40
-0.0021228455 0.023351423 0.74299997 6.5771905e-40
-0.00070760952 0.023351431 0.74299997 6.5628132e-40
0.00070764689 0.023351431 0.74299997 1.0196758e-39
0.002120031 0.023319989 0.74200004 1.3899101e-39
0.003533341 0.023319997 0.74200004 3.4214342e-39
0.004946677 0.023320004 0.74200004 5.4482737e-39
0.0063600112 0.023319989 0.74200004 6.4627703e-39
0.0077733584 0.023320004 0.74199998 7.3825672e-39
0.0091866925 0.023320004 0.74200004 7.1989032e-39
0.010600027 0.023319997 0.74200004 7.0148707e-39
0.012013339 0.023320004 0.74200004 7.1067034e-39
0.013426673 0.023319989 0.74200004 7.1985375e-39
0.014860016 0.023351431 0.74299997 6.6468056e-39
0.016275274 0.023351431 0.74299997 6.0957927e-39
0.017690532 0.023351446 0.74299997 6.4631346e-39
0.019105729 0.023351431 0.74299997 6.8301249e-39
0.020520985 0.023351431 0.74299997 6.9223247e-39
0.022054285 0.023477145 0.74699998 7.0138029e-39
0.023477159 0.023477145 0.74699998 6.555703e-39
0.024933374 0.023508579 0.74799997 5.9982034e-39
0.026358148 0.023508571 0.74799997 3.4074086e-39
0.027857168 0.023571432 0.75 8.40695e-40
0.029285712 0.023571424 0.75 5.5401049e-39
0.030837169 0.023665711 0.75299996 1.0234125e-38
0.032357179 0.023728557 0.755 1.0144807e-38
0.033840004 0.023759998 0.75600004 9.9611329e-39
0.035373375 0.023822844 0.75800002 9.9611301e-39
0.036914337 0.023885712 0.75999999 9.9611329e-39
0.038361914 0.023885712 0.75999999 9.9614945e-39
-0.023979964 0.025433332 0.76299995 1.116514e-39
-0.02243806 0.025333323 0.75999999 1.0232379e-39
-0.0209352 0.025266662 0.75799996 8.3777469e-40
-0.019439986 0.025200009 0.75600004 8.366985e-40
-0.017928571 0.0251 0.75299996 7.437812e-40
-0.016494256 0.025100015 0.75299996 6.5122123e-40
-0.015059958 0.0251 0.75299996 4.6683558e-40
-0.013607589 0.025066674 0.75199997 4.6934811e-40
-0.012175236 0.025066666 0.75200003 4.7043131e-40
-0.010714258 0.025000006 0.75 4.7079565e-40
-0.0092609115 0.024933331 0.74800003 5.6227521e-40
-0.007836137 0.024933338 0.74799997 7.4630634e-40
-0.0064028464 0.024900004 0.74700004 1.0221772e-39
-0.004979996 0.024900004 0.74699998 8.3958797e-40
-0.0035475902 0.024833322 0.745 6.5735612e-40
-0.0021228474 0.024766661 0.74299997 7.4955315e-40
-0.00070758903 0.024766669 0.74299997 8.4175298e-40
0.00070764503 0.024766669 0.74299997 8.3781253e-40
0.002120018 0.024733327 0.74200004 9.2643205e-40
0.003533328 0.024733335 0.74200004 3.418916e-39
0.0049466994 0.024733335 0.74199998 5.9078071e-39
0.0063600354 0.024733335 0.74200004 6.9223065e-39
0.0077733453 0.024733342 0.74199998 7.8428209e-39
0.0091866814 0.024733335 0.74200004 7.5658851e-39
0.010600016 0.024733327 0.74200004 7.3814938e-39
0.012013327 0.024733327 0.74200004 7.2900128e-39
0.013426699 0.024733342 0.74199998 7.1985375e-39
0.014860013 0.024766684 0.74299997 6.7382852e-39
0.016275272 0.024766669 0.74299997 6.3698628e-39
0.017690528 0.024766684 0.74299997 6.5535296e-39
0.019105725 0.024766669 0.74299997 6.7375663e-39
0.020631429 0.024899997 0.74700004 7.0134372e-39
0.022083845 0.024933331 0.74799997 7.3807833e-39
0.02350862 0.024933346 0.74799997 6.9230436e-39
0.024933375 0.024933346 0.74799997 6.463485e-39
0.026428606 0.024999999 0.75 3.6926134e-39
0.027857151 0.024999991 0.75 8.3819088e-40
0.029363845 0.025066659 0.75199997 5.7230599e-39
0.030919081 0.025166661 0.755 1.0512139e-38
0.032399993 0.025200009 0.75600004 1.0328111e-38
0.033840001 0.025200002 0.75600004 1.0052593e-38
0.03537339 0.025266662 0.75800002 1.0052582e-38
0.03691433 0.025333323 0.76000005 9.9600441e-39
0.038412377 0.025366671 0.76100004 1.0145165e-38
-0.023980005 0.026886664 0.76299995 1.1150762e-39
-0.022467615 0.026816189 0.76100004 1.0232408e-39
-0.020935223 0.026710473 0.75800002 8.3813343e-40
-0.019491408 0.02671048 0.75799996 7.4450287e-40
-0.017976167 0.026604757 0.75500005 5.6010881e-40
-0.016538044 0.026604757 0.755 5.5866967e-40
-0.015059973 0.026534297 0.75299996 4.6827191e-40
-0.01360759 0.026499048 0.75200003 3.7859301e-40
-0.012175237 0.026499033 0.75200003 2.8712185e-40
-0.010714276 0.026428565 0.75 3.7968042e-40
-0.0092856707 0.026428573 0.75 4.7115718e-40
-0.007836136 0.026358105 0.74799997 8.3814043e-40
-0.0064113997 0.026358098 0.74799997 1.1150889e-39
-0.0049800016 0.026322857 0.74699998 9.3250107e-40
-0.0035571288 0.026322864 0.74700004 6.5735752e-40
-0.0021228511 0.026181906 0.74299997 8.4139145e-40
-0.00070759276 0.026181914 0.74299997 9.3287241e-40
0.0007076413 0.026181906 0.74299997 7.4705463e-40
0.0021200031 0.026146673 0.74200004 4.7155235e-40
0.0035333782 0.026146665 0.74199998 3.4199796e-39
0.0049466882 0.026146673 0.74199998 6.365544e-39
0.0063600224 0.02614668 0.74200004 7.3832805e-39
0.0077733584 0.026146665 0.74200004 8.3012809e-39
0.0091990642 0.026181906 0.74299997 8.0243451e-39
0.010600004 0.02614665 0.74200004 7.657359e-39
0.012013376 0.026146673 0.74200004 7.4736866e-39
0.013444775 0.026181906 0.74299997 7.1981801e-39
0.014860032 0.026181899 0.74299997 6.9212387e-39
0.016275268 0.026181914 0.74299997 6.5535282e-39
0.017690524 0.026181921 0.74299997 6.6435616e-39
0.019208569 0.026322857 0.74700004 6.6453651e-39
0.020631421 0.026322864 0.74700004 7.196748e-39
0.022083847 0.026358098 0.74799997 7.65665e-39
0.023508606 0.026358098 0.74800003 7.2914688e-39
0.024933381 0.026358098 0.74799997 6.9201499e-39
0.02642859 0.026428565 0.75 3.8769935e-39
0.027857171 0.02642858 0.75 8.4465227e-40
0.029363843 0.026499063 0.75200003 5.8184995e-39
0.030919109 0.026604764 0.755 1.0791227e-38
0.03235719 0.026604757 0.755 1.0511036e-38
0.03392959 0.02671048 0.75800002 1.0143703e-38
0.03537336 0.026710488 0.75799996 1.0053312e-38
0.036962897 0.026816197 0.76099998 9.9614861e-39
0.038412381 0.026816197 0.76100004 1.0237718e-38
-0.023979984 0.028340004 0.76299995 1.2058327e-39
-0.022438096 0.028228551 0.75999999 1.1143602e-39
-0.020935208 0.028154284 0.75799996 1.0218044e-39
-0.019491395 0.028154291 0.75799996 8.3705303e-40
-0.017976139 0.02804286 0.755 6.5230303e-40
-0.016538056 0.028042845 0.755 5.601046e-40
-0.015060002 0.027968571 0.75299996 4.6827471e-40
-0.013625666 0.027968578 0.75299996 4.6971384e-40
-0.012175237 0.027931429 0.75200003 3.7824269e-40
-0.010714255 0.027857155 0.75 4.7079985e-40
-0.0092609068 0.027782865 0.74799997 5.6371014e-40
-0.0078361705 0.02778285 0.74800003 6.562603e-40
-0.0064028595 0.027745709 0.74700004 8.410159e-40
-0.0049800072 0.027745716 0.74700004 8.4102431e-40
-0.0035571344 0.027745716 0.74700004 7.4955315e-40
-0.002122853 0.027597144 0.74299997 8.4139285e-40
-0.00070759462 0.027597159 0.74299997 9.3323395e-40
0.00070766179 0.027597144 0.74299997 9.3000956e-40
0.0021228977 0.027597152 0.74299997 1.0171787e-39
0.003538115 0.027597129 0.74299997 3.325619e-39
0.004953349 0.027597152 0.74299997 5.7198201e-39
0.0063686073 0.027597159 0.74299997 6.7379237e-39
0.0077838283 0.027597144 0.74300003 7.8424635e-39
0.0091990624 0.027597144 0.74299997 7.6577192e-39
0.01061432 0.027597144 0.74299997 7.5655249e-39
0.012029577 0.027597152 0.74299997 7.4736894e-39
0.013444773 0.027597144 0.74299997 7.3822113e-39
0.014900041 0.027671419 0.745 7.3818497e-39
0.016362879 0.027745716 0.74699998 7.3811183e-39
0.017785691 0.027745716 0.74700004 7.0134035e-39
0.019208565 0.027745709 0.74700004 6.6457182e-39
0.020631416 0.027745709 0.74700004 6.8290459e-39
0.022083849 0.027782857 0.74799997 7.0127281e-39
0.023508608 0.027782857 0.74800003 6.647191e-39
0.025000026 0.02785714 0.75 6.2826824e-39
0.02642861 0.027857147 0.75 4.3372388e-39
0.027931454 0.027931415 0.75200003 2.3950979e-39
0.029481012 0.028042845 0.755 7.6645533e-39
0.03096002 0.028080016 0.75599998 1.2833126e-38
0.032485764 0.028154291 0.75799996 1.1807466e-38
0.033929564 0.028154269 0.75800002 1.0783674e-38
0.035466652 0.028228566 0.75999999 1.023556e-38
0.0369629 0.028265722 0.76100004 9.6867026e-39
0.038513359 0.028339989 0.76300001 1.0054406e-38
-0.023917116 0.02971524 0.76099998 1.2065446e-39
-0.022438062 0.029676192 0.75999999 1.2061901e-39
-0.020935193 0.029598102 0.75799996 1.113993e-39
-0.019491415 0.029598087 0.75800002 9.2924305e-40
-0.01800001 0.029520012 0.75599998 6.5337222e-40
-0.016560003 0.029520005 0.75599998 5.6117239e-40
-0.015099945 0.029480949 0.755 4.6862644e-40
-0.013625694 0.02940286 0.75300002 4.6935231e-40
-0.012175236 0.029363811 0.75200003 4.7007538e-40
-0.010714271 0.029285714 0.75 5.6191648e-40
-0.009260904 0.029207624 0.74799997 5.6371014e-40
-0.0078361677 0.029207617 0.74800003 5.6550521e-40
-0.0064028651 0.029168576 0.74700004 5.6515488e-40
-0.0049799904 0.029168569 0.74700004 7.4919301e-40
-0.00355714 0.029168576 0.74700004 8.4139004e-40
-0.0021228567 0.029012382 0.74299997 9.3358848e-40
-0.00070759834 0.029012397 0.74299997 9.3251789e-40
0.00070765807 0.029012382 0.74299997 1.2062363e-39
0.002120018 0.028973341 0.74199998 1.4820959e-39
0.0035333522 0.028973334 0.74200004 3.2366505e-39
0.0049533714 0.029012382 0.74299997 4.9876444e-39
0.0063686054 0.029012397 0.74299997 6.1894204e-39
0.0077838227 0.029012382 0.74299997 7.2914534e-39
0.0091990577 0.029012382 0.74299997 7.3825784e-39
0.010614315 0.029012382 0.74299997 7.4740524e-39
0.012061947 0.029090479 0.745 7.5655277e-39
0.013481012 0.029090486 0.745 7.5662452e-39
0.014900016 0.029090464 0.745 7.8428279e-39
0.016362872 0.029168583 0.74699998 8.1176057e-39
0.017785724 0.029168576 0.74699998 7.3832707e-39
0.019208597 0.029168576 0.74699998 6.5542471e-39
0.02063141 0.029168569 0.74700004 6.4613438e-39
0.022083852 0.029207624 0.74799997 6.3687978e-39
0.02350861 0.02920761 0.74800003 6.0011041e-39
0.024933385 0.029207624 0.74799997 5.5393973e-39
0.026428593 0.029285699 0.75 4.7935744e-39
0.027857173 0.029285721 0.75 3.9817994e-39
0.029402889 0.02940286 0.75299996 9.4277511e-39
0.030960018 0.029519998 0.75600004 1.4852482e-38
0.032485742 0.029598087 0.75800002 1.3193682e-38
0.033929534 0.029598095 0.75799996 1.1435529e-38
0.035466682 0.029676184 0.75999999 1.0417798e-38
0.036962904 0.029715233 0.76100004 9.4101214e-39
0.038513377 0.029793322 0.76300001 9.8703778e-39
-0.023917114 0.031164765 0.76099998 1.4827644e-39
-0.022467606 0.031164773 0.76100004 1.2065432e-39
-0.020935215 0.03104189 0.75800002 1.0228708e-39
-0.019491401 0.031041905 0.75800002 8.3847955e-40
-0.018000014 0.030960001 0.75600004 6.5372535e-40
-0.016560007 0.030960016 0.75599998 5.6080525e-40
-0.015099957 0.030919045 0.755 5.5973886e-40
-0.013625687 0.030837141 0.75299996 5.6082487e-40
-0.012175236 0.030796178 0.75200003 5.622668e-40
-0.010742847 0.0307962 0.75200003 5.6263114e-40
-0.0092856856 0.030714273 0.75 6.5590577e-40
-0.007836163 0.030632384 0.74799997 6.5590857e-40
-0.0064113904 0.030632377 0.74799997 6.5519952e-40
-0.0049799979 0.030591421 0.74700004 7.4811962e-40
-0.0035571456 0.030591428 0.74700004 8.4139285e-40
-0.0021228381 0.030427612 0.74300003 9.3287241e-40
-0.00070760207 0.030427635 0.74299997 1.0239961e-39
0.00070765434 0.030427627 0.74299997 1.2973557e-39
0.0021228883 0.030427627 0.74299997 1.4785086e-39
0.0035381075 0.030427612 0.74299997 2.9597063e-39
0.0049533658 0.030427627 0.74299997 4.4377062e-39
0.0063685998 0.030427635 0.74299997 5.7273703e-39
0.007783819 0.03042762 0.74299997 7.0170259e-39
0.0091990782 0.030427627 0.74299997 7.0152434e-39
0.010614313 0.03042762 0.74299997 7.1063573e-39
0.012061921 0.030509524 0.745 7.1059929e-39
0.013480988 0.030509517 0.745 7.1070719e-39
0.014940015 0.030591421 0.74700004 6.8297746e-39
0.016362866 0.030591436 0.74699998 6.6486077e-39
0.017785739 0.030591436 0.74700004 4.9894619e-39
0.019234344 0.030632377 0.74799997 3.3389341e-39
0.020631464 0.030591428 0.74699998 5.8152639e-39
0.022083856 0.030632392 0.74799997 8.2033497e-39
0.023508616 0.030632377 0.74799997 8.7618989e-39
0.024933388 0.030632392 0.74799997 9.3968567e-39
0.026428614 0.030714288 0.75 8.6697061e-39
0.027857156 0.030714296 0.75 7.9433094e-39
0.029402899 0.030837148 0.75299996 1.089643e-38
0.030960014 0.030960009 0.75600004 1.3761628e-38
0.032400019 0.030960001 0.75599998 1.255019e-38
0.033929549 0.031041905 0.75799996 1.134696e-38
0.035466678 0.031123802 0.75999999 1.0697611e-38
0.036962908 0.031164773 0.76100004 1.005333e-38
-0.0224676 0.032614291 0.76100004 1.2980228e-39
-0.02099045 0.032571413 0.75999999 9.3067938e-40
-0.019491388 0.032485709 0.75799996 8.3991868e-40
-0.018000016 0.032400005 0.75600004 6.5301489e-40
-0.016560009 0.032399997 0.75599998 6.5157576e-40
-0.015099969 0.032357134 0.75500005 5.601046e-40
-0.013661847 0.032357149 0.755 5.6046754e-40
-0.012191402 0.032271422 0.75299996 5.6155074e-40
-0.010742846 0.032228574 0.75200003 6.5375198e-40
-0.0092608975 0.032057144 0.74799997 6.5519111e-40
-0.007836163 0.032057151 0.74799997 6.5555545e-40
-0.0064113662 0.032057144 0.74799997 6.5520232e-40
-0.0049800035 0.032014288 0.74700004 7.4704342e-40
-0.003557153 0.032014281 0.74700004 7.4848115e-40
-0.0021228418 0.031842858 0.74300003 9.3251368e-40
-0.00070760766 0.031842858 0.74299997 1.1154728e-39
0.00070765062 0.031842865 0.74299997 1.2969956e-39
0.0021229088 0.031842873 0.74299997 1.4831777e-39
0.0035381056 0.031842858 0.74299997 2.6860075e-39
0.004953362 0.031842865 0.74299997 3.8827528e-39
0.006368598 0.031842858 0.74299997 5.3567983e-39
0.0077838153 0.031842858 0.74299997 6.7350426e-39
0.0091990745 0.031842865 0.74299997 6.7379068e-39
0.010614309 0.031842858 0.74299997 6.6450022e-39
0.012061937 0.031928569 0.745 6.6450106e-39
0.013481001 0.031928577 0.745 6.5535324e-39
0.014940009 0.032014288 0.74700004 5.8123912e-39
0.016362861 0.032014281 0.74699998 5.0755437e-39
0.017785735 0.032014288 0.74700004 2.586647e-39
0.019208586 0.032014295 0.74699998 1.0997951e-40
0.020631459 0.032014281 0.74699998 5.0737822e-39
0.022083858 0.032057151 0.74799997 1.0054433e-38
0.023508618 0.032057144 0.74799997 1.1629638e-38
0.024933353 0.032057136 0.74800003 1.3184019e-38
0.026428595 0.032142855 0.75 1.2545109e-38
0.027931454 0.032228567 0.75200003 1.1898327e-38
0.029480992 0.032357134 0.755 1.226855e-38
0.030960012 0.032400005 0.75600004 1.2638403e-38
0.032485772 0.032485709 0.75799996 1.1898696e-38
0.033929549 0.032485716 0.75800002 1.1158967e-38
0.035373341 0.032485709 0.75800002 1.0880211e-38
0.036962908 0.032614283 0.76100004 1.0604704e-38
-0.022526644 0.034153327 0.76299995 1.3898597e-39
-0.020990456 0.034019046 0.76000005 1.0214415e-39
-0.019542856 0.034019038 0.75999999 8.3705303e-40
-0.018047597 0.033929512 0.75800002 5.5903541e-40
-0.016560012 0.033839993 0.75600004 5.5975147e-40
-0.015099942 0.033795238 0.755 6.519457e-40
-0.013625668 0.033705711 0.75299996 5.6082767e-40
-0.012191392 0.033705719 0.75299996 5.6155214e-40
-0.010742846 0.033660948 0.75200003 5.6191788e-40
-0.0092608947 0.033481911 0.74799997 5.6300109e-40
-0.0078361584 0.033481903 0.74799997 6.5520092e-40
-0.0064028464 0.033437148 0.74699998 7.4632315e-40
-0.0049799718 0.03343714 0.74699998 8.3959638e-40
-0.0035571586 0.033437148 0.74700004 9.3215215e-40
-0.0021228436 0.033258095 0.74299997 1.0243492e-39
-0.00070760952 0.03325811 0.74299997 1.1161889e-39
0.00070764875 0.033258103 0.74299997 1.2065936e-39
0.0021229051 0.03325811 0.74299997 1.2977187e-39
0.0035381019 0.033258095 0.74299997 2.1281912e-39
0.0049533583 0.033258103 0.74299997 2.9579463e-39
0.0063686166 0.03325811 0.74299997 4.9847914e-39
0.0077838507 0.033258103 0.74299991 7.0012024e-39
0.0091990717 0.033258103 0.74299997 6.732488e-39
0.010642908 0.033347629 0.745 6.4580788e-39
0.012110512 0.033481896 0.74800003 7.5669402e-39
0.013535285 0.033481911 0.74799997 8.7611576e-39
0.014940003 0.03343714 0.74700004 6.9190625e-39
0.016362853 0.033437148 0.74700004 5.1630534e-39
0.017809555 0.033481903 0.74799997 2.7645531e-39
0.019234352 0.033481911 0.74799997 4.6045827e-40
0.020659087 0.033481911 0.74799997 6.4638871e-39
0.022083823 0.033481896 0.74799997 1.2463705e-38
0.02350862 0.033481911 0.74799997 1.2734206e-38
0.024933357 0.033481903 0.74799997 1.310261e-38
0.026428616 0.033571437 0.75 1.2084513e-38
0.027931454 0.033660963 0.75200003 1.1071442e-38
0.029480981 0.033795238 0.755 1.1435901e-38
0.030960009 0.033840001 0.75600004 1.1889695e-38
0.03248575 0.033929519 0.75800002 1.1340472e-38
0.033929564 0.033929527 0.75800002 1.0877705e-38
0.035373356 0.033929527 0.75799996 1.0695827e-38
0.036962911 0.034063809 0.76100004 1.0604349e-38
-0.022526661 0.035606675 0.76300001 1.3905813e-39
-0.020990446 0.035466671 0.75999999 1.1132784e-39
-0.019542823 0.035466656 0.75999999 8.3597683e-40
-0.01804758 0.03537333 0.75800002 4.6791598e-40
-0.016560014 0.035280012 0.75600004 5.5939274e-40
-0.015099954 0.035233334 0.755 6.519471e-40
-0.013625697 0.035139993 0.75300002 6.5230724e-40
-0.012191383 0.035140008 0.75299996 5.6119481e-40
-0.010742847 0.035093345 0.75200003 5.6119902e-40
-0.0092609311 0.03490667 0.74800003 4.7116279e-40
-0.0078361565 0.03490667 0.74799997 6.5519812e-40
-0.0064113978 0.034906663 0.74800003 7.4775668e-40
-0.0049799755 0.034860007 0.74699998 9.3215074e-40
-0.0035571251 0.034860015 0.74699998 1.1158245e-39
-0.0021285377 0.034766674 0.745 1.1165448e-39
-0.00070947403 0.034766652 0.745 1.0243548e-39
0.00070764503 0.034673341 0.74299997 1.115477e-39
0.0021229014 0.034673348 0.74299997 1.1129701e-39
0.0035381 0.034673333 0.74299997 1.5707168e-39
0.0049533565 0.034673341 0.74299997 2.0424584e-39
0.0063686147 0.034673333 0.74299997 4.7146645e-39
0.0077838488 0.034673348 0.74299991 7.2860514e-39
0.0092238421 0.034766667 0.74500006 6.8243572e-39
0.010642884 0.034766659 0.745 6.2816118e-39
0.012110515 0.034906663 0.74799997 8.5872018e-39
0.013517123 0.034859993 0.74700004 1.0880214e-38
0.014939996 0.034860007 0.74700004 8.031154e-39
0.016384821 0.034906678 0.74799997 5.1670092e-39
0.017809557 0.034906656 0.74799997 3.0318087e-39
0.019234315 0.034906663 0.74800003 8.4286841e-40
0.020659089 0.034906678 0.74799997 7.8575653e-39
0.022083825 0.034906663 0.74799997 1.4753131e-38
0.023508623 0.03490667 0.74799997 1.3924111e-38
0.024933359 0.03490667 0.74799997 1.3004308e-38
0.026534298 0.035139993 0.75300002 1.1618869e-38
0.028042885 0.035233334 0.755 1.0148052e-38
0.029520012 0.035280019 0.75599998 1.0605422e-38
0.030959982 0.035280004 0.75600004 1.1063885e-38
0.032485764 0.03537333 0.75800002 1.0879858e-38
0.034063824 0.035513334 0.76100004 1.0604351e-38
0.035513345 0.035513334 0.76100004 1.0604351e-38
0.037060045 0.035606667 0.76299995 1.0513236e-38
0.038513336 0.035606667 0.76299995 1.0697627e-38
-0.019542828 0.036914282 0.75999999 9.2852839e-40
-0.017999986 0.036720008 0.75599998 5.6011021e-40
-0.01653805 0.036671415 0.755 6.5158557e-40
