# .PCD v0.7 - Point Cloud Data file format
VERSION 0.7
FIELDS x y z rgb
SIZE 4 4 4 4
TYPE F F F F
COUNT 1 1 1 1
WIDTH 990
HEIGHT 1
VIEWPOINT 0 0 0 1 0 0 0
POINTS 990
DATA ascii
-0.0092609795 0.014959998 0.74799997 1.0139043e-38
-0.0078257313 0.014940009 0.74699998 5.8123786e-39
-0.006402873 0.014940009 0.74699998 1.394568e-39
-0.004980017 0.014939994 0.74699998 1.1140197e-39
-0.0035476319 0.014899999 0.745 8.3959498e-40
-0.0021228658 0.014859982 0.74300003 1.023989e-39
-0.00070764183 0.014859989 0.74300003 1.1169035e-39
0.00070759689 0.014859997 0.74300003 1.1179825e-39
0.0021199782 0.014839992 0.74200004 1.117621e-39
0.0035333114 0.014839999 0.74199998 1.1172609e-39
0.0049466458 0.014839999 0.74199998 1.0236261e-39
0.0063600005 0.014839984 0.74200004 8.3779712e-40
0.0077523761 0.014799997 0.73999995 6.5520232e-40
0.0091618858 0.014799997 0.73999995 8.4066697e-40
0.010599987 0.014839999 0.74199998 1.0243394e-39
0.012013306 0.014840007 0.74199998 9.3178921e-40
0.01342664 0.014839999 0.74199998 8.3995792e-40
0.014839995 0.014839992 0.74200004 8.3996072e-40
0.016253328 0.014839999 0.74200004 7.4741477e-40
0.01769045 0.014859989 0.74299997 5.6267598e-40
0.019079981 0.014839992 0.74199998 2.8859742e-40
0.020520933 0.014859989 0.74300003 3.7901788e-39
0.021936173 0.014859989 0.74300003 7.1956536e-39
0.023351409 0.014859997 0.74300003 7.6602401e-39
0.024766646 0.014859989 0.74300003 8.0272149e-39
0.026252363 0.014900006 0.745 8.0264905e-39
0.027745675 0.014940001 0.74699998 7.9335718e-39
0.029207602 0.014959998 0.74799997 6.9208632e-39
0.03071426 0.015000015 0.75 5.909951e-39
0.032271415 0.01506 0.75299996 8.39704e-39
0.033795219 0.01509998 0.75500005 1.0882708e-38
0.035233323 0.01509998 0.755 1.0697972e-38
0.036671415 0.01509998 0.75500005 1.0515733e-38
0.038160007 0.015119985 0.75600004 1.1158939e-38
0.039599985 0.015119992 0.75600004 1.1804301e-38
-0.019491464 0.016603805 0.75800002 8.3165663e-40
-0.017928585 0.016494296 0.75299996 9.2205719e-40
-0.016472396 0.016472369 0.75199997 6.4583184e-40
-0.015040039 0.016472377 0.75199997 3.6925336e-40
-0.013571438 0.01642859 0.75 2.1166431e-39
-0.012142869 0.016428582 0.75 3.8655028e-39
-0.010714298 0.016428582 0.75 6.5549575e-39
-0.0092857489 0.01642859 0.75 9.2275168e-39
-0.0078362236 0.016384766 0.74799997 4.9833551e-39
-0.0064114612 0.016384766 0.74799997 8.3531261e-40
-0.0049866727 0.016384766 0.74799997 8.3816285e-40
-0.0035571752 0.016362861 0.74699998 7.4848256e-40
-0.0021228686 0.01627522 0.74300003 9.3179622e-40
-0.00070762879 0.016275235 0.74300003 1.0247107e-39
0.00070759503 0.016275227 0.74300003 1.1169063e-39
0.0021228327 0.01627522 0.74300003 1.2087404e-39
0.0035333207 0.016253322 0.74200004 1.0247093e-39
0.0049466533 0.01625333 0.74199998 9.3215215e-40
0.0063599744 0.01625333 0.74199998 7.4704062e-40
0.0077523761 0.01620952 0.74000001 6.5448766e-40
0.0091866609 0.016253322 0.74200004 8.3995231e-40
0.01059998 0.016253322 0.74200004 1.1161889e-39
0.012013315 0.01625333 0.74200004 9.3217036e-40
0.013426649 0.01625333 0.74199998 8.4068799e-40
0.014839982 0.01625333 0.74199998 7.4812803e-40
0.01627521 0.01627522 0.74299997 7.4813643e-40
0.01769045 0.016275235 0.74299997 5.6124526e-40
0.019105686 0.016275235 0.74299997 2.8107245e-40
0.020520926 0.016275242 0.74299997 3.7880377e-39
0.021936169 0.016275227 0.74300003 7.2932372e-39
0.023351407 0.016275227 0.74300003 7.7535147e-39
0.024833309 0.016319059 0.745 8.3045193e-39
0.026252355 0.016319044 0.745 8.0275681e-39
0.027745698 0.016362861 0.74700004 7.8428167e-39
0.029168535 0.016362861 0.74699998 6.9205115e-39
0.030714264 0.016428582 0.75 6.0929088e-39
0.032271411 0.016494289 0.75299996 8.3034109e-39
0.033795215 0.016538091 0.755 1.0603965e-38
0.035233319 0.016538084 0.75500005 1.0327026e-38
0.036671408 0.016538091 0.755 1.0140491e-38
0.038159978 0.016560003 0.75599998 1.032632e-38
0.039599989 0.016559988 0.75600004 1.0415654e-38
-0.019491464 0.018047623 0.75800002 1.0153178e-39
-0.017976219 0.01797618 0.75500005 8.3021609e-40
-0.0164943 0.017928585 0.75299996 6.4475704e-40
-0.015040035 0.017904758 0.75199997 4.6252939e-40
-0.013571464 0.017857142 0.75 4.0480696e-39
-0.012142866 0.017857149 0.75 7.5557943e-39
-0.010714295 0.017857142 0.75 7.9425471e-39
-0.0092857452 0.017857149 0.75 8.2044035e-39
-0.0078361994 0.017809525 0.74799997 4.2411097e-39
-0.006428577 0.017857149 0.75 2.8715268e-40
-0.0050000064 0.017857142 0.75 4.711754e-40
-0.0035619361 0.01780951 0.74799997 6.5556806e-40
-0.0021286008 0.017738104 0.745 8.3816706e-40
-0.00070763065 0.017690465 0.74300003 9.3180042e-40
0.00070760713 0.017690465 0.74300003 1.1158358e-39
0.0021228318 0.017690465 0.74300003 1.3002186e-39
0.0035333282 0.017666668 0.74200004 1.0243492e-39
0.0049466477 0.017666668 0.74200004 7.4812102e-40
0.0063599818 0.01766666 0.74200004 7.4668189e-40
0.0077523706 0.017619044 0.74000001 6.5448626e-40
0.0091866478 0.017666668 0.74199998 9.3178641e-40
0.010599989 0.01766666 0.74200004 1.1154616e-39
0.012013322 0.017666668 0.74200004 9.3143608e-40
0.013426656 0.01766666 0.74200004 7.4812522e-40
0.014839991 0.01766666 0.74199998 7.4776929e-40
0.016275221 0.017690457 0.74299997 7.4706024e-40
0.017690461 0.017690472 0.74299997 5.6160399e-40
0.019105684 0.017690465 0.74299997 2.871695e-40
0.020520924 0.01769048 0.74299997 3.7880334e-39
0.02193616 0.01769048 0.74299997 7.2874975e-39
0.023414288 0.017738082 0.74500006 7.9393451e-39
0.02483332 0.017738082 0.74500006 8.580746e-39
0.026252382 0.017738089 0.74500006 8.120121e-39
0.027745683 0.017785721 0.74699998 7.657352e-39
0.029168541 0.017785721 0.74699998 6.9169241e-39
0.030714266 0.017857157 0.75 6.1851016e-39
0.0322714 0.017928593 0.7529999 8.2108565e-39
0.033795215 0.017976172 0.755 1.0234111e-38
0.035233323 0.017976172 0.75500005 1.0049729e-38
0.036671408 0.017976172 0.75500005 9.7738676e-39
0.038159981 0.018000007 0.75599998 9.4061697e-39
0.039599996 0.017999992 0.75600004 9.0377585e-39
0.041039985 0.017999999 0.75600004 9.1285248e-39
-0.019542865 0.019542843 0.75999999 8.3127687e-40
-0.018000022 0.019440003 0.75600004 4.6322863e-40
-0.016494328 0.019362859 0.7529999 1.4716352e-39
-0.015040025 0.019337133 0.75199997 2.4818411e-39
-0.013607666 0.019337147 0.75199997 5.3502794e-39
-0.012175258 0.01933714 0.75199997 8.2140795e-39
-0.010714293 0.019285716 0.75 6.1836933e-39
-0.0092857424 0.019285731 0.75 4.1510777e-39
-0.0078571718 0.019285724 0.75 2.4011417e-39
-0.0064285737 0.019285709 0.75 5.6013263e-40
-0.0050000236 0.019285724 0.75 5.6264796e-40
-0.0035619119 0.019234285 0.74799997 5.6480596e-40
-0.0021285748 0.019157134 0.74500006 6.5592959e-40
-0.00070765393 0.019105718 0.74299997 8.3960899e-40
0.00070760527 0.019105703 0.74300003 1.0247219e-39
0.0021199819 0.019080006 0.74199998 1.2091034e-39
0.003533317 0.019079991 0.74199998 9.3322974e-40
0.004946657 0.019079991 0.74200004 5.6516609e-40
0.0063599912 0.019079991 0.74200004 6.5448626e-40
0.0077733235 0.019079998 0.74200004 7.4416796e-40
0.0091866422 0.019079991 0.74199998 9.2998994e-40
0.010599976 0.019080006 0.74199998 1.0225401e-39
0.012013311 0.019079998 0.74199998 9.3141787e-40
0.013426665 0.019079991 0.74200004 8.3959358e-40
0.014859981 0.019105695 0.74300003 7.4776789e-40
0.01627522 0.01910571 0.74300003 7.4706024e-40
0.017690457 0.019105703 0.74300003 7.4527498e-40
0.019105697 0.01910571 0.74299997 8.3387488e-40
0.020520922 0.019105718 0.74299997 3.508218e-39
0.021936158 0.019105703 0.74299997 6.2726449e-39
0.02341428 0.019157141 0.74500006 7.2000032e-39
0.024833325 0.019157134 0.74500006 8.0297359e-39
0.026252372 0.019157149 0.74500006 7.7517014e-39
0.027745701 0.01920858 0.74700004 7.4740398e-39
0.029168542 0.019208573 0.74699998 6.6432113e-39
0.03079617 0.019337133 0.75199997 5.9067253e-39
0.032271408 0.019362859 0.75299996 8.1186595e-39
0.033795215 0.019414276 0.75500005 1.0418143e-38
0.035233304 0.019414283 0.755 1.0234837e-38
0.036671411 0.019414276 0.75500005 9.9575386e-39
0.038159985 0.019440003 0.75599998 9.6813161e-39
0.039599996 0.019439995 0.75600004 9.3125447e-39
0.041039988 0.019440003 0.75600004 9.4047432e-39
-0.019491468 0.020935245 0.75799996 6.4654089e-40
-0.018000001 0.020879984 0.75600004 9.4465733e-41
-0.016538117 0.020852365 0.75500005 2.2963807e-39
-0.015060045 0.020797156 0.7529999 4.5208971e-39
-0.013607634 0.020769522 0.75199997 6.656448e-39
-0.012175275 0.020769522 0.75199997 8.7575507e-39
-0.01071429 0.02071429 0.75 4.4262212e-39
-0.0092857396 0.02071429 0.75 1.0562708e-40
-0.00785717 0.02071429 0.75 4.6828312e-40
-0.006428571 0.02071429 0.75 8.3706704e-40
-0.0049866783 0.020659044 0.74799997 6.5448065e-40
-0.0035619379 0.020659052 0.74799997 3.804161e-40
-0.0021285971 0.020576186 0.74500006 5.651703e-40
-0.00070765393 0.020520955 0.74299997 6.5736873e-40
0.00070758385 0.02052094 0.74299997 9.3431435e-40
0.0021199903 0.020493329 0.74200004 1.1176224e-39
0.0035333105 0.020493329 0.74199998 7.4991748e-40
0.004946643 0.020493336 0.74199998 3.8113356e-40
0.0063599781 0.020493343 0.74199998 6.5376319e-40
0.0077733179 0.020493329 0.74200004 8.3707545e-40
0.0091866516 0.020493321 0.74200004 9.2927108e-40
0.010599986 0.020493336 0.74200004 9.307046e-40
0.012013318 0.020493321 0.74199998 9.3142207e-40
0.013426639 0.020493336 0.74199998 9.3143048e-40
0.014839992 0.020493321 0.74200004 8.3996212e-40
0.016275218 0.02052094 0.74300003 6.5522194e-40
0.017690457 0.02052094 0.74300003 1.0214947e-39
0.019105695 0.020520955 0.74299997 1.2973543e-39
0.020520933 0.020520933 0.74299997 3.3223932e-39
0.021936158 0.02052094 0.74299997 5.2620929e-39
0.023414271 0.020576194 0.745 6.3745558e-39
0.024833318 0.020576194 0.745 7.4762076e-39
0.02632283 0.020631433 0.74699998 7.3825644e-39
0.027745686 0.020631433 0.74699998 7.1970899e-39
0.029207606 0.020659037 0.74800003 6.3662573e-39
0.030796153 0.020769522 0.75199997 5.5408126e-39
0.032271411 0.020797148 0.7529999 8.1226083e-39
0.03379523 0.020852365 0.75500005 1.0603257e-38
0.035233315 0.020852365 0.75500005 1.0421751e-38
0.03672 0.020879999 0.75600004 1.0143726e-38
0.038159993 0.020879999 0.75599998 9.8653416e-39
0.039599985 0.020880006 0.75599998 9.5898379e-39
0.041039996 0.020879999 0.75600004 9.5891246e-39
-0.019491471 0.022379063 0.75799996 2.2124177e-39
-0.01800001 0.022319987 0.75600004 3.0324996e-39
-0.016560007 0.022319995 0.75600004 4.6116578e-39
-0.015100017 0.022290461 0.75500005 6.0982645e-39
-0.013625733 0.022231445 0.7529999 5.3607303e-39
-0.012175272 0.022201888 0.75199997 4.6206388e-39
-0.010714286 0.022142857 0.75 2.4958401e-39
-0.0092857359 0.022142872 0.75 3.7644482e-40
-0.007836205 0.022083804 0.74800003 5.6154514e-40
-0.0064114644 0.022083811 0.74799997 7.4630213e-40
-0.0049867029 0.022083819 0.74799997 6.5519391e-40
-0.0035619426 0.022083811 0.74799997 6.5520372e-40
-0.0021228956 0.021936178 0.74300003 7.4884129e-40
-0.00070764276 0.021936178 0.74299997 8.4175298e-40
0.00070758106 0.021936178 0.74299997 9.3430594e-40
0.0021199847 0.021906666 0.74200004 1.1179769e-39
0.0035333179 0.021906652 0.74200004 9.3358708e-40
0.0049466523 0.021906666 0.74199998 6.5735331e-40
0.0063685547 0.021936171 0.74300003 8.388621e-40
0.0077837934 0.021936178 0.74300003 9.2926687e-40
0.0091990167 0.021936178 0.74299997 9.2998714e-40
0.010614255 0.021936186 0.74299997 8.3887051e-40
0.012029495 0.021936193 0.74299997 9.3142487e-40
0.013444732 0.021936178 0.74299997 9.3143188e-40
0.014859991 0.021936171 0.74300003 8.3924466e-40
0.016275216 0.021936178 0.74300003 6.5557927e-40
0.017738074 0.021995239 0.745 1.0225667e-39
0.019157119 0.021995246 0.745 1.4810225e-39
0.020576168 0.021995239 0.745 3.3249029e-39
0.021995217 0.021995232 0.745 5.1706134e-39
0.023414277 0.021995239 0.745 6.55571e-39
0.024833307 0.021995239 0.745 8.0261415e-39
0.026322838 0.022054277 0.74699998 7.566234e-39
0.027745694 0.022054285 0.74700004 7.1981591e-39
0.029207595 0.022083804 0.74799997 6.0889431e-39
0.030796168 0.022201896 0.75199997 5.0740961e-39
0.032228541 0.022201903 0.75199997 7.7509644e-39
0.033795211 0.022290461 0.755 1.0512147e-38
0.035233319 0.022290453 0.75500005 1.0237377e-38
0.036671404 0.022290461 0.755 1.0054765e-38
0.038159996 0.022320002 0.75600004 9.9600427e-39
0.03959997 0.022320002 0.75599998 9.8674912e-39
0.04104 0.022319995 0.75600004 9.8667751e-39
0.042479988 0.022320002 0.75600004 9.9578847e-39
-0.019491453 0.023822851 0.75800002 3.8798297e-39
-0.018000012 0.023759998 0.75599998 5.9945657e-39
-0.016560014 0.023759991 0.75600004 6.8358002e-39
-0.015100015 0.023728557 0.75500005 7.6551394e-39
-0.013625738 0.023665711 0.75299996 4.0667335e-39
-0.012175262 0.023634285 0.75199997 3.8470267e-40
-0.010742902 0.023634285 0.75199991 5.6048155e-40
-0.0092857322 0.023571439 0.75 6.5374917e-40
-0.0078362292 0.023508571 0.74799997 6.5554003e-40
-0.0064114686 0.023508571 0.74799997 6.5590577e-40
-0.0049866787 0.023508571 0.74799997 7.4882447e-40
-0.0035619184 0.023508579 0.74799997 8.4030824e-40
-0.0021228695 0.023351423 0.74299997 9.3251088e-40
-0.00070764555 0.023351416 0.74299997 9.3358848e-40
0.00070759223 0.023351423 0.74299997 1.0261442e-39
0.0021199726 0.023320004 0.74199998 1.1176182e-39
0.0035333273 0.023319997 0.74200004 1.0254226e-39
0.0049466598 0.023319997 0.74200004 9.3250247e-40
0.0063685537 0.023351416 0.74300003 1.0225359e-39
0.0077837924 0.023351416 0.74300003 1.0225373e-39
0.0091990288 0.023351423 0.74299997 9.307032e-40
0.010614268 0.023351431 0.74299997 7.4775248e-40
0.012029492 0.023351423 0.74299997 8.4066557e-40
0.013444731 0.023351423 0.74299997 9.3178781e-40
0.01485997 0.023351423 0.74299997 8.3852299e-40
0.016275227 0.023351423 0.74300003 6.559338e-40
0.017690469 0.023351423 0.74300003 1.1151183e-39
0.019105691 0.023351431 0.74300003 1.5768027e-39
0.020520929 0.023351416 0.74300003 3.3259791e-39
0.02199522 0.023414284 0.745 4.9865822e-39
0.023477111 0.023477152 0.74699998 6.7426068e-39
0.024899967 0.023477152 0.74699998 8.485675e-39
0.026322823 0.023477145 0.74699998 7.842095e-39
0.027782843 0.023508571 0.74799997 7.1038167e-39
0.029285718 0.023571424 0.75 5.809143e-39
0.030837139 0.023665719 0.75299996 4.5284683e-39
0.032357138 0.023728564 0.75500005 7.4786837e-39
0.033795215 0.023728557 0.75500005 1.032775e-38
0.035279982 0.023759991 0.75599998 1.0144093e-38
0.036719989 0.023759998 0.75599998 9.9611301e-39
0.038159985 0.023759983 0.75600004 1.0052598e-38
0.03970474 0.023822866 0.75799996 1.0144441e-38
0.04114854 0.023822859 0.75799996 1.0236642e-38
-0.019491453 0.02526667 0.75800002 4.9869017e-39
-0.018000022 0.025199994 0.75599998 5.2713737e-39
-0.016559996 0.025199994 0.75600004 5.0808826e-39
-0.015100036 0.025166653 0.755 4.8957459e-39
-0.013625738 0.0251 0.75299996 2.5869119e-39
-0.012175278 0.025066666 0.75199997 2.8064785e-40
-0.01074287 0.025066659 0.75199997 3.7681336e-40
-0.0092857294 0.025000006 0.75 5.6263535e-40
-0.0078362068 0.024933331 0.74799997 6.5590437e-40
-0.0064114444 0.024933323 0.74799997 7.4846154e-40
-0.0049866838 0.024933316 0.74800003 8.4065997e-40
-0.0035619426 0.024933331 0.74799997 9.3250247e-40
-0.0021286083 0.024833336 0.745 1.0247037e-39
-0.00070954638 0.024833336 0.745 1.2094551e-39
0.00070759223 0.024766661 0.74299997 1.1172637e-39
0.0021228299 0.024766661 0.74299997 1.1169021e-39
0.0035380686 0.024766676 0.74299997 1.0243464e-39
0.0049533057 0.024766676 0.74299997 9.3250387e-40
0.0063685519 0.024766654 0.74300003 9.3213813e-40
0.0077837897 0.024766654 0.74300003 9.3249687e-40
0.0091990279 0.024766661 0.74300003 9.31778e-40
0.010614267 0.024766661 0.74300003 8.3958657e-40
0.012029503 0.024766646 0.74299997 9.3214234e-40
0.013444727 0.024766661 0.74299997 9.3250387e-40
0.014859967 0.024766654 0.74299997 8.3995231e-40
0.016275207 0.024766669 0.74299997 6.5700719e-40
0.017690465 0.024766661 0.74300003 1.1169091e-39
0.019105703 0.024766654 0.74300003 1.5782376e-39
0.020520926 0.024766646 0.74300003 3.1423081e-39
0.022054259 0.024900004 0.74699998 4.707487e-39
0.023477117 0.024900012 0.74699998 6.2784043e-39
0.024899973 0.024900012 0.74699998 7.9335816e-39
0.026358075 0.024933338 0.74799997 7.5662256e-39
0.027857136 0.025000006 0.75 7.2903604e-39
0.029285707 0.025000006 0.75 6.2744302e-39
0.030837126 0.025100008 0.75299996 5.3539158e-39
0.032357119 0.025166668 0.755 7.8438704e-39
0.033795226 0.025166661 0.75500005 1.0420655e-38
0.035279989 0.025199994 0.75600004 1.0236275e-38
0.036719982 0.025199994 0.75599998 1.0052603e-38
0.038159989 0.025199994 0.75600004 1.0144794e-38
0.039809491 0.025333337 0.75999999 1.0237001e-38
-0.019491455 0.026710488 0.75799996 6.1854085e-39
-0.018000033 0.026640005 0.75599998 4.4322818e-39
-0.016560007 0.026639998 0.75600004 3.2290933e-39
-0.015100035 0.026604757 0.75500005 2.0334116e-39
-0.013625746 0.026534289 0.75299996 1.1049869e-39
-0.012175267 0.026499063 0.75199991 9.9125051e-41
-0.010714324 0.026428588 0.75 2.8748479e-40
-0.0092857266 0.026428573 0.75 4.7151451e-40
-0.0078362105 0.026358098 0.74800003 6.5698057e-40
-0.0064114691 0.026358105 0.74799997 7.49179e-40
-0.0049800244 0.026322864 0.74700004 9.328542e-40
-0.0035571686 0.026322864 0.74700004 1.0246967e-39
-0.0021285813 0.026252389 0.74500006 1.2080174e-39
-0.00070763438 0.026181884 0.74300003 1.3927702e-39
0.00070758944 0.026181899 0.74299997 1.2087474e-39
0.0021228271 0.026181899 0.74299997 1.0243534e-39
0.0035380649 0.026181906 0.74299997 1.0225541e-39
0.0049533048 0.026181892 0.74299997 9.3214514e-40
0.0063685435 0.026181899 0.74299997 9.3213813e-40
0.0077837878 0.026181884 0.74300003 8.4065857e-40
0.009199026 0.026181899 0.74300003 9.3285139e-40
0.010614263 0.026181884 0.74300003 9.3249546e-40
0.012029502 0.026181899 0.74300003 9.3249967e-40
0.013444741 0.026181892 0.74299997 9.3249827e-40
0.014859979 0.026181899 0.74299997 8.4030404e-40
0.016275205 0.026181906 0.74299997 6.5664286e-40
0.017690443 0.026181914 0.74299997 1.1169077e-39
0.01915713 0.026252382 0.74500006 1.4842469e-39
0.020576177 0.026252382 0.74500006 2.9579169e-39
0.022054266 0.026322857 0.74700004 4.342652e-39
0.023508551 0.026358098 0.74799997 5.8210176e-39
0.024933327 0.026358098 0.74799997 7.2910904e-39
0.026358064 0.026358105 0.74799997 7.3825546e-39
0.027857136 0.026428573 0.75 7.3811183e-39
0.029363789 0.02649904 0.75199997 6.7353971e-39
0.030837111 0.026534297 0.7529999 6.0932605e-39
0.032357123 0.026604749 0.75500005 8.3051989e-39
0.033795208 0.026604749 0.755 1.0511413e-38
0.035279993 0.026639991 0.75600004 1.0327752e-38
0.036719985 0.026640005 0.75599998 1.01448e-38
0.038159996 0.026639991 0.75600004 1.0236637e-38
0.039704721 0.02671048 0.75799996 1.0237002e-38
-0.018000014 0.028080001 0.75599998 2.7673893e-39
-0.016560037 0.028080001 0.75599998 2.1227486e-39
-0.015100005 0.028042838 0.75500005 1.4744995e-39
-0.013625744 0.027968585 0.75299996 9.245431e-40
-0.012175264 0.027931422 0.75199997 4.6754043e-40
-0.010714321 0.027857155 0.75 5.6190947e-40
-0.0092609962 0.027782857 0.74799997 6.5482537e-40
-0.0078362068 0.027782857 0.74799997 7.4773987e-40
-0.0064114449 0.027782857 0.74799997 8.4137323e-40
-0.0049800384 0.027745716 0.74699998 9.3321153e-40
-0.0035571817 0.027745716 0.74699998 1.0254156e-39
-0.0021228741 0.027597122 0.74300003 1.1172595e-39
-0.00070763624 0.027597137 0.74300003 1.2098208e-39
0.00070760155 0.027597137 0.74300003 1.1172763e-39
0.0021228411 0.027597137 0.74299997 1.0247163e-39
0.0035380649 0.027597144 0.74299997 1.0243492e-39
0.0049533038 0.027597137 0.74299997 9.3250527e-40
0.0063685407 0.027597144 0.74299997 8.399425e-40
0.0077837999 0.027597137 0.74300003 7.4846294e-40
0.0091990381 0.027597137 0.74300003 1.0246841e-39
0.010614263 0.027597129 0.74300003 1.3005535e-39
0.012029502 0.027597129 0.74300003 1.1165266e-39
0.013444738 0.027597129 0.74300003 9.328528e-40
0.014899992 0.027671427 0.745 7.481014e-40
0.01631904 0.027671427 0.745 5.6265076e-40
0.017738087 0.027671434 0.745 9.3000676e-40
0.019208537 0.027745724 0.74699998 1.2933999e-39
0.020631395 0.027745724 0.74699998 2.8646436e-39
0.022054251 0.027745724 0.74699998 4.5263202e-39
0.023508541 0.027782865 0.74799997 5.9121315e-39
0.024933301 0.027782872 0.74799997 7.2921652e-39
0.026428556 0.027857155 0.75 7.2910778e-39
0.02785714 0.027857147 0.75 7.3814742e-39
0.029363785 0.027931437 0.75199997 6.5484933e-39
0.030919012 0.028042845 0.755 5.8152401e-39
0.032399982 0.028080001 0.75600004 8.5817788e-39
0.033795223 0.028042845 0.755 1.1339366e-38
0.03528 0.028080001 0.75600004 1.0788004e-38
0.036817107 0.028154299 0.75799996 1.0328832e-38
0.038260922 0.028154291 0.75799996 1.0145167e-38
0.039809491 0.028228574 0.75999999 9.9614973e-39
-0.018000022 0.029519998 0.75600004 1.1129154e-39
-0.016560018 0.029520005 0.75599998 1.0203597e-39
-0.015100027 0.029480934 0.755 8.3524395e-40
-0.013661933 0.029480927 0.75500005 8.3523414e-40
-0.01219146 0.029402867 0.75299996 7.4484899e-40
-0.010714318 0.029285729 0.75 8.3813343e-40
-0.0092857191 0.029285729 0.75 8.3849496e-40
-0.0078362124 0.02920761 0.74799997 9.296172e-40
-0.0064114509 0.029207617 0.74799997 9.3213113e-40
-0.0049866894 0.02920761 0.74800003 9.3321153e-40
-0.0035619501 0.029207632 0.74799997 9.339346e-40
-0.002128598 0.029090479 0.745 1.0261358e-39
-0.00070763903 0.029012375 0.74300003 1.0257841e-39
0.00070760061 0.029012375 0.74300003 1.0250736e-39
0.0021228383 0.029012382 0.74300003 1.0254268e-39
0.0035380761 0.029012367 0.74299997 1.0254212e-39
0.0049533001 0.029012367 0.74299997 9.3214514e-40
0.0063685388 0.029012375 0.74299997 7.4667348e-40
0.0077837785 0.029012382 0.74299997 5.6443601e-40
0.0091990354 0.02901236 0.74300003 1.1168825e-39
0.010614274 0.029012367 0.74300003 1.5757013e-39
0.012029513 0.029012367 0.74300003 1.2998374e-39
0.013444737 0.029012375 0.74300003 9.328556e-40
0.014899985 0.029090479 0.745 6.5591558e-40
0.016319033 0.029090486 0.745 3.804189e-40
0.017738082 0.029090479 0.745 7.4705323e-40
0.019208543 0.029168576 0.74699998 1.1154672e-39
0.020631399 0.029168569 0.74700004 2.8650024e-39
0.022054274 0.029168569 0.74700004 4.6192333e-39
0.023508551 0.029207617 0.74799997 6.008992e-39
0.02493331 0.02920761 0.74799997 7.2925254e-39
0.026428562 0.029285729 0.75 7.2914394e-39
0.02785713 0.029285721 0.75 7.2853311e-39
0.029363781 0.029363811 0.75199997 6.354052e-39
0.03091903 0.029480942 0.755 5.4504232e-39
0.032357138 0.029480934 0.75500005 8.7748133e-39
0.033795223 0.029480942 0.75500005 1.2077301e-38
0.03528 0.029519998 0.75600004 1.1339386e-38
0.036817107 0.029598102 0.75799996 1.0512509e-38
0.03826094 0.029598087 0.75800002 1.0053334e-38
0.039809503 0.029676177 0.75999999 9.594877e-39
-0.018000003 0.030960009 0.75600004 1.2043922e-39
-0.016560027 0.030960001 0.75599998 9.2816125e-40
-0.015100025 0.030919038 0.755 7.4484899e-40
-0.013661933 0.03091903 0.75500005 8.3632575e-40
-0.01219146 0.030837163 0.7529999 1.0214387e-39
-0.010742891 0.030796178 0.75199997 8.3777469e-40
-0.0092857443 0.030714288 0.75 7.470182e-40
-0.0078362161 0.030632377 0.74800003 8.3957396e-40
-0.0064114477 0.030632384 0.74799997 9.3213113e-40
-0.0049866862 0.030632392 0.74799997 9.3321153e-40
-0.0035619258 0.030632384 0.74799997 9.3464926e-40
-0.0021285925 0.030509539 0.745 9.3429333e-40
-0.00070954452 0.030509524 0.745 9.3358287e-40
0.00070759782 0.030427612 0.74300003 1.0257827e-39
0.0021228355 0.03042762 0.74300003 1.1179741e-39
0.0035380742 0.030427605 0.74300003 1.1176112e-39
0.0049533122 0.030427605 0.74299997 1.1161735e-39
0.0063685519 0.03042762 0.74299997 8.3994531e-40
0.0077837757 0.030427612 0.74299997 6.5519812e-40
0.0091990139 0.030427612 0.74299997 9.3249687e-40
0.010614273 0.030427605 0.74300003 1.2998374e-39
0.01202951 0.030427612 0.74300003 1.208718e-39
0.013480928 0.030509531 0.745 1.0257701e-39
0.014899976 0.030509517 0.745 8.4102851e-40
0.016319025 0.030509524 0.745 6.5808059e-40
0.01773807 0.030509524 0.745 9.3323395e-40
0.019208528 0.030591443 0.74699998 1.2094551e-39
0.020631399 0.030591443 0.74699998 2.3136306e-39
0.022054257 0.030591436 0.74699998 3.331744e-39
0.02350856 0.030632377 0.74799997 4.7146869e-39
0.02493332 0.030632369 0.74799997 6.098308e-39
0.026428565 0.030714296 0.75 6.6478748e-39
0.027931407 0.030796185 0.75199997 7.2874807e-39
0.029402828 0.030837141 0.75299996 6.267589e-39
0.030919032 0.03091903 0.75500005 5.2660488e-39
0.032357115 0.030919038 0.755 8.4936035e-39
0.033839982 0.030960001 0.75599998 1.171321e-38
0.035279993 0.030959994 0.75600004 1.1157158e-38
0.036719996 0.030960001 0.75600004 1.0512156e-38
0.03826094 0.031041913 0.75800002 1.0329201e-38
0.039809499 0.031123802 0.75999999 1.0145894e-38
-0.016560009 0.032399997 0.75599998 9.2706824e-40
-0.015120032 0.032399997 0.75599998 5.6081366e-40
-0.013661924 0.032357141 0.755 9.2709066e-40
-0.012191438 0.032271445 0.75299996 1.2958704e-39
-0.010742879 0.032228582 0.75199997 9.2781373e-40
-0.0092857406 0.03214287 0.75 5.6298847e-40
-0.0078571429 0.03214287 0.75 7.4881606e-40
-0.0064285924 0.032142863 0.75 8.410159e-40
-0.0049866899 0.032057136 0.74799997 8.4138024e-40
-0.0035619296 0.032057129 0.74799997 8.421005e-40
-0.0021285869 0.031928569 0.745 8.4246064e-40
-0.00070955383 0.031928584 0.745 8.4246484e-40
0.00070949493 0.031928577 0.745 1.0264988e-39
0.0021228355 0.031842843 0.74300003 1.210167e-39
0.0035380723 0.031842843 0.74300003 1.3019997e-39
0.0049533113 0.03184285 0.74300003 1.300915e-39
0.00636855 0.031842858 0.74299997 1.02504e-39
0.0077837869 0.031842843 0.74299997 6.5662464e-40
0.0091990251 0.03184285 0.74299997 8.4137463e-40
0.01061425 0.03184285 0.74299997 1.0246883e-39
0.012029509 0.031842843 0.74300003 1.1172413e-39
0.01348092 0.031928577 0.745 1.1168895e-39
0.014899982 0.031928577 0.745 1.0243436e-39
0.016319031 0.031928577 0.745 9.3358567e-40
0.017738078 0.031928577 0.745 1.1183357e-39
0.019208547 0.032014288 0.74699998 1.3005577e-39
0.020631406 0.032014288 0.74700004 1.6650172e-39
0.022054262 0.032014288 0.74700004 2.0392172e-39
0.023508545 0.032057144 0.74799997 3.4193042e-39
0.02493331 0.032057151 0.74799997 4.8083034e-39
0.026428569 0.032142863 0.75 6.005741e-39
0.027931402 0.032228582 0.75199997 7.1945648e-39
0.02940285 0.03227143 0.75299996 6.1624776e-39
0.03091903 0.032357126 0.75500005 5.0798569e-39
0.032357134 0.032357134 0.75500005 8.2202354e-39
0.033839986 0.03239999 0.75600004 1.1342272e-38
0.035279974 0.032399997 0.75599998 1.0972051e-38
0.036719989 0.032399982 0.75600004 1.0513232e-38
0.038260937 0.032485709 0.75799996 1.0605785e-38
0.03980951 0.032571428 0.75999999 1.0605429e-38
-0.015120014 0.033840008 0.75599998 1.5720747e-39
-0.013661923 0.03379523 0.755 2.1270548e-39
-0.012191465 0.033705711 0.7529999 2.6741217e-39
-0.010742897 0.033660956 0.75199997 1.848677e-39
-0.0092857387 0.03357143 0.75 1.1143588e-39
-0.0078571681 0.03357143 0.75 9.3212973e-40
-0.0064285896 0.033571437 0.75 8.420949e-40
-0.0049866862 0.033481918 0.74799997 8.4174317e-40
-0.0035619258 0.033481911 0.74799997 9.339388e-40
-0.0021285897 0.033347622 0.74500006 9.3429894e-40
-0.00070952682 0.033347614 0.74500006 1.026496e-39
0.00070758758 0.033258095 0.74299997 1.0264974e-39
0.0021228467 0.033258095 0.74300003 1.026496e-39
0.0035380705 0.03325808 0.74300003 1.0261344e-39
0.0049533094 0.033258088 0.74300003 1.1168797e-39
0.0063685463 0.033258088 0.74300003 9.3211711e-40
0.0077837859 0.033258088 0.74299997 8.3885369e-40
0.0091990242 0.033258088 0.74299997 9.3212973e-40
0.010614261 0.033258095 0.74299997 1.0243268e-39
0.0120295 0.033258095 0.74299997 1.0246883e-39
0.013480947 0.033347614 0.74500006 1.1161735e-39
0.014899993 0.033347622 0.74500006 9.3286821e-40
0.016319042 0.033347607 0.74500006 7.4991328e-40
0.017738091 0.033347614 0.74500006 1.1176126e-39
0.019208536 0.033437155 0.74699998 1.4842133e-39
0.020631405 0.03343714 0.74699998 2.2174385e-39
0.022083782 0.033481911 0.74799997 3.0461664e-39
0.023508545 0.033481911 0.74799997 5.5408476e-39
0.02493332 0.033481903 0.74799997 8.1176085e-39
0.026499026 0.033660948 0.75199997 8.0322162e-39
0.02793142 0.033660948 0.75199997 7.9453889e-39
0.029402837 0.033705726 0.75299996 6.5456011e-39
0.030919027 0.03379523 0.755 5.1709665e-39
0.032357134 0.033795223 0.75500005 8.2144803e-39
0.033839989 0.033839993 0.75600004 1.1340829e-38
0.035279982 0.033840001 0.75599998 1.0881289e-38
0.036719993 0.033839993 0.75600004 1.0513949e-38
0.038260922 0.033929527 0.75799996 1.0605786e-38
0.039861888 0.034063816 0.76099998 1.0697623e-38
-0.015100042 0.035233334 0.755 2.4925989e-39
-0.013661923 0.035233319 0.75500005 3.3341921e-39
-0.012191445 0.035140008 0.75299996 4.0620644e-39
-0.010742893 0.035093337 0.75199997 2.8613912e-39
-0.009285734 0.035000004 0.75 1.5742621e-39
-0.0078571634 0.035000011 0.75 1.2072803e-39
-0.0064285863 0.035000011 0.75 8.4137883e-40
-0.0050000157 0.035000011 0.75 9.3357867e-40
-0.0035619305 0.034906663 0.74799997 9.339402e-40
-0.0021285831 0.034766674 0.74500006 1.0261358e-39
-0.00070953614 0.034766659 0.745 1.1179741e-39
0.00070951169 0.034766667 0.745 9.3430594e-40
0.0021228252 0.034673348 0.74299997 7.5063355e-40
0.0035380826 0.034673326 0.74300003 8.4246764e-40
0.0049533225 0.034673326 0.74300003 8.4066417e-40
0.0063685463 0.034673333 0.74300003 9.3105493e-40
0.007783785 0.034673318 0.74300003 1.0228918e-39
0.0091990214 0.034673318 0.74299997 1.0236107e-39
0.01061426 0.034673333 0.74299997 1.0246883e-39
0.012061892 0.034766659 0.74500006 1.0250498e-39
0.013480938 0.034766674 0.74500006 1.0246995e-39
0.014899986 0.034766674 0.745 7.4848256e-40
0.016362827 0.03486 0.74699998 4.7405507e-40
0.017785683 0.03486 0.74699998 1.0257883e-39
0.019208554 0.034860007 0.74699998 1.5753509e-39
0.02063141 0.03486 0.74699998 2.7656097e-39
0.022083791 0.034906663 0.74799997 3.9763806e-39
0.023508554 0.03490667 0.74799997 7.6717321e-39
0.024999987 0.035000011 0.75 1.1341191e-38
0.026499024 0.03509333 0.75199997 1.0059426e-38
0.027931403 0.035093322 0.75199997 8.6685977e-39
0.029402826 0.035140015 0.7529999 6.9032545e-39
0.030919025 0.035233326 0.75500005 5.1720413e-39
0.032357112 0.035233326 0.755 8.2173501e-39
0.033839993 0.035279989 0.75600004 1.1248635e-38
0.035279986 0.035280004 0.75599998 1.0881289e-38
0.036719996 0.035279989 0.75600004 1.0513952e-38
0.038260918 0.035373338 0.75799996 1.0697988e-38
0.039966647 0.035606667 0.76299995 1.0790179e-38
-0.019620039 0.037059993 0.76299995 4.521609e-39
-0.018166702 0.03706 0.76299995 4.8950536e-39
-0.016603827 0.036817148 0.75800002 4.2410873e-39
-0.015120032 0.036719993 0.75600004 3.5899795e-39
-0.013661921 0.036671415 0.75500005 4.4329923e-39
-0.012191444 0.036574304 0.7529999 5.358173e-39
-0.010742882 0.036525719 0.75199997 3.2326919e-39
-0.009310523 0.036525719 0.75199991 1.1140155e-39
-0.0078781163 0.036525719 0.75199997 1.0239708e-39
-0.0064285835 0.036428578 0.75 9.339332e-40
-0.0050000129 0.036428578 0.75 9.3429613e-40
-0.003571444 0.036428578 0.75 9.3429894e-40
-0.0021343247 0.036282867 0.74699998 1.0261372e-39
-0.00071145466 0.036282852 0.74699998 1.1176182e-39
0.00070950331 0.036185719 0.745 1.1179797e-39
0.002128551 0.036185727 0.745 1.2094565e-39
0.0035475979 0.036185704 0.745 1.1169021e-39
0.004966646 0.036185712 0.745 9.3107455e-40
0.0063685575 0.036088556 0.74300003 9.3106894e-40
0.0077837962 0.036088556 0.74300003 1.0225415e-39
0.0091990195 0.036088564 0.74300003 1.115449e-39
0.010614259 0.036088571 0.74299997 1.3009164e-39
0.012029496 0.036088571 0.74299997 1.1165294e-39
0.013480931 0.036185712 0.745 1.0254198e-39
0.014899977 0.036185719 0.745 9.3359128e-40
0.016362846 0.036282867 0.74700004 9.3359829e-40
0.017785683 0.036282867 0.74699998 1.3931401e-39
0.019208539 0.036282875 0.74699998 1.8515931e-39
0.020576183 0.036185712 0.745 3.0504698e-39
0.022054253 0.03628286 0.74699998 4.2590827e-39
0.023508541 0.036331423 0.74799997 6.5629043e-39
0.024999978 0.036428586 0.75 8.9545578e-39
0.026428562 0.036428586 0.75 7.5676815e-39
0.027931402 0.036525697 0.75199997 6.1840212e-39
0.029402845 0.036574289 0.75299996 5.7165635e-39
0.030919041 0.036671415 0.75500005 5.1723986e-39
0.032357115 0.036671415 0.755 8.3066745e-39
0.03379523 0.036671408 0.75500005 1.1341188e-38
0.035279993 0.03672 0.75600004 1.0973123e-38
0.036914255 0.036914289 0.75999999 1.0697626e-38
0.038412374 0.036962874 0.76099998 1.0697993e-38
0.039861888 0.036962874 0.76099998 1.079054e-38
0.041419979 0.037059993 0.76299995 9.961863e-39
0.042873316 0.03706 0.76299995 9.1346163e-39
-0.019568585 0.038412377 0.76100004 7.009805e-39
-0.01811906 0.038412388 0.76100004 8.3862542e-39
-0.016647626 0.038361896 0.76000005 6.5466688e-39
-0.015120014 0.03816 0.75600004 4.6138158e-39
-0.013661941 0.038109526 0.755 5.6336907e-39
-0.01219145 0.038008578 0.75299996 6.6402896e-39
-0.010742899 0.037958097 0.75199997 3.5975185e-39
-0.0093104923 0.037958089 0.75199997 5.6443601e-40
-0.0078781331 0.0379581 0.75199997 7.4882307e-40
-0.0064457539 0.037958093 0.75199997 9.339318e-40
-0.0050000087 0.037857153 0.75 9.3465206e-40
-0.0035714393 0.037857149 0.75 9.3465487e-40
-0.0021371699 0.037756201 0.74799997 1.0264946e-39
-0.00071240927 0.037756182 0.74799997 1.0264974e-39
0.0007113883 0.037705723 0.74699998 1.3942009e-39
0.0021285566 0.03760476 0.745 1.6686312e-39
0.003557116 0.037705719 0.74699998 1.3920499e-39
0.0049799723 0.037705708 0.74699998 1.0239862e-39
0.0064028292 0.037705719 0.74699998 1.0232646e-39
0.0078047463 0.037604768 0.745 9.3071161e-40
0.0092237946 0.037604764 0.745 1.2069356e-39
0.010642841 0.03760476 0.745 1.4831609e-39
0.012094247 0.037705731 0.74699998 1.2069384e-39
0.013535216 0.03775619 0.74799997 9.3430874e-40
0.014959978 0.037756197 0.74799997 1.1187042e-39
0.016384739 0.037756193 0.74799997 1.3041731e-39
0.017785687 0.037705723 0.74699998 1.6697256e-39
0.019234275 0.037756193 0.74800003 2.038141e-39
0.020659015 0.037756197 0.74799997 3.3256274e-39
0.022083789 0.037756205 0.74799997 4.5288397e-39
0.023571413 0.037857149 0.75 5.5494572e-39
0.025066633 0.0379581 0.75199997 6.4609822e-39
0.026534257 0.038008586 0.75299996 5.0730325e-39
0.027968556 0.038008574 0.75299996 3.6936896e-39
0.029480934 0.038109519 0.75500005 4.4233345e-39
0.030959988 0.038160004 0.75600004 5.1738378e-39
0.032399982 0.038160007 0.75599998 8.3113464e-39
0.033840004 0.038159996 0.75600004 1.1433382e-38
0.035279993 0.03816 0.75600004 1.1156428e-38
0.036719985 0.03816 0.75599998 1.0788731e-38
0.038513314 0.038513321 0.76299995 1.0789812e-38
0.039966639 0.038513329 0.76299995 1.0695808e-38
0.041419975 0.038513333 0.76299995 9.3153908e-39
-0.021073356 0.039966669 0.76299995 5.3553297e-39
-0.019620046 0.039966669 0.76299995 6.3666244e-39
-0.01816671 0.039966665 0.76299995 7.3785931e-39
-0.016669534 0.039861906 0.76099998 6.272247e-39
-0.015160024 0.039704762 0.75800002 5.2566797e-39
-0.013680018 0.039600011 0.75599998 6.3669593e-39
-0.012191449 0.039442863 0.75299996 7.380363e-39
-0.010742889 0.039390475 0.75199991 3.8758907e-39
-0.00931051 0.039390471 0.75199997 3.7825109e-40
-0.0078781303 0.039390463 0.75199997 5.6515208e-40
-0.0064457427 0.039390471 0.75199997 8.4281236e-40
-0.0050000059 0.039285723 0.75 8.4281236e-40
-0.0035714365 0.039285716 0.75 8.4281657e-40
-0.0021371755 0.039180942 0.74799997 9.3429753e-40
-0.00071240088 0.039180949 0.74800003 1.0261358e-39
0.00071140786 0.039128575 0.74699998 1.2101684e-39
0.0021342637 0.039128572 0.74700004 1.4853175e-39
0.0035571207 0.039128575 0.74700004 1.3009305e-39
0.0049799564 0.039128583 0.74699998 1.1168979e-39
0.0064028134 0.03912859 0.74699998 8.3959358e-40
0.0078256838 0.039128587 0.74699998 5.619389e-40
0.0092485389 0.039128575 0.74699998 1.6664802e-39
0.010671397 0.039128575 0.74699998 2.8607018e-39
0.012110451 0.039180953 0.74799997 3.6014856e-39
0.013535211 0.039180953 0.74799997 4.4272932e-39
0.014959986 0.039180949 0.74799997 4.5245153e-39
0.016384749 0.039180946 0.74800003 4.617071e-39
0.017809492 0.039180968 0.74799997 4.8007448e-39
0.019234266 0.039180964 0.74799997 5.0712291e-39
0.020659026 0.039180953 0.74799997 3.8773676e-39
0.022083785 0.039180942 0.74799997 2.6856628e-39
0.023571417 0.039285727 0.75 3.5132626e-39
0.025066625 0.039390475 0.75199997 4.3386947e-39
0.026534276 0.039442852 0.75299996 3.4160223e-39
0.027968543 0.039442863 0.75299996 2.4919235e-39
0.029480934 0.0395476 0.75500005 4.0599386e-39
0.030959992 0.0396 0.75600004 5.5436951e-39
0.032399982 0.039600004 0.75600004 8.0308261e-39
0.033839975 0.039600007 0.75599998 1.0607581e-38
0.0353733 0.039704781 0.75799996 1.0234837e-38
0.036817119 0.03970477 0.75800002 9.9593309e-39
0.038412359 0.039861917 0.76099998 1.0143e-38
0.040071409 0.040071435 0.76499999 1.0325929e-38
0.041528556 0.04007142 0.76499999 1.069145e-38
-0.02107336 0.041419998 0.76299995 5.1712888e-39
-0.019620024 0.041419994 0.76299995 5.7223256e-39
-0.018166713 0.041419994 0.76299995 6.274405e-39
-0.016669547 0.041311432 0.76099998 6.0907242e-39
-0.015160027 0.041148577 0.75800002 5.9074231e-39
-0.013607671 0.040822864 0.75199997 7.013049e-39
-0.012175264 0.040822864 0.75199997 8.1111093e-39
-0.010742886 0.040822841 0.75199997 4.1474553e-39
-0.0093104988 0.040822852 0.75199997 1.967325e-40
-0.0078781191 0.040822845 0.75199997 4.7402984e-40
-0.0064457594 0.040822856 0.75199991 6.584225e-40
-0.0050000031 0.040714294 0.75 6.5878404e-40
-0.0035714328 0.040714297 0.75 6.5843091e-40
-0.0021371718 0.040605724 0.74799997 8.4174878e-40
-0.00071241113 0.040605716 0.74799997 1.0261386e-39
0.00071235036 0.040605713 0.74799997 1.1186944e-39
0.0021371248 0.04060572 0.74799997 1.2101698e-39
0.0035618872 0.040605716 0.74799997 1.209811e-39
0.0049866471 0.040605702 0.74800003 1.1165308e-39
0.006411402 0.040605713 0.74799997 6.5554984e-40
0.007836164 0.040605716 0.74799997 1.0418234e-40
0.0092609245 0.040605713 0.74799997 2.1285135e-39
0.010685699 0.040605716 0.74799997 4.1560887e-39
0.012110461 0.040605713 0.74799997 6.0021453e-39
0.013535221 0.040605716 0.74800003 7.8392181e-39
0.014959976 0.040605724 0.74799997 7.935364e-39
0.016384739 0.040605728 0.74799997 7.9339333e-39
0.017809499 0.040605724 0.74799997 8.0286443e-39
0.019234261 0.040605728 0.74799997 8.0185815e-39
0.020659035 0.040605709 0.74799997 4.426217e-39
0.022083797 0.040605713 0.74800003 8.4140966e-40
0.023571417 0.040714294 0.75 1.5707183e-39
0.025066646 0.040822864 0.75199997 2.2200169e-39
0.026534263 0.040877152 0.75299996 1.7601164e-39
0.027968561 0.040877141 0.75299996 1.3002144e-39
0.029480949 0.040985703 0.75500005 3.5964549e-39
0.030959997 0.041040003 0.75600004 5.9067098e-39
0.03239999 0.041040003 0.75600004 7.8446005e-39
0.033839978 0.041040011 0.75599998 9.6838034e-39
0.035279989 0.04104 0.75600004 9.3993089e-39
0.036817119 0.041148566 0.75800002 9.0384354e-39
0.038513321 0.041420005 0.76299995 9.4965492e-39
0.040176168 0.041637149 0.76699996 9.9614538e-39
-0.013607641 0.04225523 0.75199997 7.2903618e-39
-0.012175282 0.042255241 0.75199997 8.1175749e-39
-0.010742875 0.042255234 0.75199997 4.1517643e-39
-0.0093104951 0.042255234 0.75199997 2.864156e-40
-0.0078781368 0.042255238 0.75199997 4.7330817e-40
-0.0064457292 0.042255238 0.75199997 7.502566e-40
-0.00501337 0.042255241 0.75199997 8.420977e-40
-0.0035809909 0.042255241 0.75199997 9.3322274e-40
-0.0021371765 0.042030483 0.74799997 9.3358708e-40
-0.00071240088 0.042030476 0.74799997 1.0261414e-39
0.00071235967 0.04203048 0.74799997 1.1183371e-39
0.002137135 0.04203048 0.74799997 1.209811e-39
0.0035618742 0.042030495 0.74799997 1.117614e-39
0.0049866368 0.042030476 0.74799997 1.1168811e-39
0.0064113964 0.042030476 0.74799997 9.3068359e-40
0.0078361714 0.042030472 0.74799997 8.3526497e-40
0.0092609329 0.04203048 0.74799997 2.5005036e-39
0.010685695 0.042030476 0.74800003 4.2558205e-39
0.012110449 0.042030483 0.74799997 6.4652912e-39
0.013535211 0.042030469 0.74799997 8.6750871e-39
0.014959972 0.042030465 0.74799997 9.1328324e-39
0.016384749 0.042030472 0.74799997 9.6845699e-39
0.017809508 0.042030469 0.74799997 9.1328464e-39
0.01923427 0.042030472 0.74800003 8.5792859e-39
0.020659026 0.042030476 0.74799997 4.6113103e-39
0.022142837 0.042142872 0.75 5.6051098e-40
0.023634249 0.042255238 0.75199997 1.206595e-39
0.025099989 0.042311434 0.75299996 1.9445076e-39
0.026534252 0.042311445 0.7529999 1.5778817e-39
0.028042844 0.042423792 0.75500005 1.2098138e-39
0.02948093 0.0424238 0.755 3.508204e-39
0.030959981 0.042480003 0.75599998 5.7233752e-39
0.032399993 0.042479992 0.75600004 9.3160774e-39
0.033929504 0.042592369 0.75800002 1.2903385e-38
0.035373315 0.042592384 0.75800002 1.2716108e-38
0.036817115 0.042592391 0.75799996 1.2532461e-38
0.038513314 0.042873327 0.76299995 1.2812296e-38
-0.013716215 0.044036198 0.75799996 7.6598393e-39
-0.012175251 0.043687627 0.75199997 8.0203542e-39
-0.010742892 0.043687612 0.75199997 4.147828e-39
-0.0093105119 0.043687612 0.75199997 2.885778e-40
-0.0078885956 0.043745719 0.75299996 5.6586954e-40
-0.0064457459 0.043687619 0.75199997 7.502608e-40
-0.0050133667 0.043687608 0.75199997 9.33936e-40
-0.0035809798 0.043687623 0.75199997 1.1172525e-39
-0.0021371532 0.043455243 0.74799997 1.0250638e-39
-0.00071239157 0.043455232 0.74799997 9.3359128e-40
0.0007123485 0.043455236 0.74799997 1.026147e-39
0.0021371099 0.043455239 0.74799997 1.1179811e-39
0.0035618844 0.043455236 0.74799997 1.1179783e-39
0.0049866471 0.043455236 0.74799997 1.0246981e-39
0.0064114067 0.043455239 0.74799997 1.2980424e-39
0.0078361817 0.043455236 0.74799997 1.5753383e-39
0.0092609227 0.043455247 0.74799997 2.9664984e-39
0.010685683 0.043455243 0.74799997 4.2565394e-39
0.012110458 0.043455251 0.74799997 6.9280602e-39
0.01353522 0.043455232 0.74799997 9.5005387e-39
0.01495998 0.043455236 0.74799997 1.0419261e-38
0.016384758 0.043455228 0.74800003 1.1340126e-38
0.017857123 0.043571442 0.75 1.0238457e-38
0.019234259 0.043455243 0.74799997 9.1245535e-39
0.02065902 0.043455247 0.74799997 4.695604e-39
0.022142841 0.043571454 0.75 2.8750581e-40
0.023571409 0.04357145 0.75 9.3430594e-40
0.025099976 0.043745734 0.7529999 1.5785935e-39
0.026534274 0.043745726 0.75299996 1.3970792e-39
0.027968537 0.043745738 0.7529999 1.1183357e-39
0.029480932 0.043861903 0.75500005 3.3195093e-39
0.030959986 0.043920003 0.75599998 5.5407958e-39
0.032399997 0.043919995 0.75600004 1.0793371e-38
0.033929501 0.044036184 0.75800002 1.6030849e-38
0.035373315 0.044036202 0.75799996 1.602904e-38
0.03696283 0.044210486 0.76099998 1.6032637e-38
0.038513314 0.044326648 0.76299995 1.6128788e-38
0.03996665 0.044326663 0.76299995 1.6126995e-38
-0.015200017 0.045599993 0.75999999 3.7926928e-39
-0.013716226 0.045479998 0.75800002 4.159669e-39
-0.012240023 0.045360003 0.75599998 4.4416369e-39
-0.01075717 0.045180012 0.7529999 2.5895043e-39
-0.0093228873 0.045180008 0.75299996 7.4561129e-40
-0.0078885956 0.045180015 0.7529999 8.4066697e-40
-0.0064457632 0.045120008 0.75199997 9.339374e-40
-0.0050133555 0.045120005 0.75199997 1.0261316e-39
-0.0035809965 0.045120008 0.75199991 1.1176126e-39
-0.0021428734 0.045000006 0.75 1.1168993e-39
-0.00071430265 0.045000006 0.75 1.1161875e-39
0.00071428099 0.045000002 0.75 1.2091048e-39
0.0021371201 0.044880003 0.74799997 1.3934918e-39
0.0035618816 0.044879995 0.74799997 1.3012962e-39
0.0049866573 0.044879999 0.74800003 1.2090978e-39
0.0064113964 0.044880006 0.74799997 1.0214765e-39
0.0078361584 0.044879995 0.74799997 8.3456572e-40
0.0092609329 0.044879995 0.74799997 3.2373428e-39
0.010685693 0.044879995 0.74799997 5.630846e-39
0.012110455 0.044879992 0.74799997 7.2921764e-39
0.013535229 0.044879999 0.74800003 8.8569812e-39
0.01495997 0.044880006 0.74799997 9.5945491e-39
0.016384732 0.044880003 0.74799997 1.0243127e-38
0.017857125 0.045000009 0.75 9.5026939e-39
0.019234266 0.044879999 0.74799997 8.85227e-39
0.020714279 0.045000006 0.75 4.5180231e-39
0.022142829 0.045000013 0.75 2.864198e-40
0.023634262 0.045120005 0.75199997 1.0257715e-39
0.02509998 0.045180015 0.75299996 1.7633337e-39
0.026534257 0.045180023 0.7529999 1.3956414e-39
0.027968556 0.045180019 0.75299996 1.1179741e-39
0.02948093 0.045299985 0.75500005 3.2319758e-39
0.03095999 0.045360003 0.75599998 5.3574989e-39
0.032485697 0.045480002 0.75800002 1.0793046e-38
0.034019027 0.045599997 0.75999999 1.6315717e-38
0.035513319 0.045660004 0.76099998 1.6129521e-38
0.036962848 0.045660004 0.76099998 1.6042705e-38
0.038513321 0.045779992 0.76299995 1.6130592e-38
0.039966643 0.045779988 0.76299995 1.6220274e-38
-0.015200019 0.047047615 0.76000005 3.8111815e-40
-0.013716226 0.046923805 0.75800002 6.5303451e-40
-0.012240033 0.046799999 0.75600004 8.4281376e-40
-0.010785756 0.046738084 0.755 1.0225471e-39
-0.0093228854 0.0466143 0.75299996 1.1147371e-39
-0.0078886021 0.046614293 0.75299996 1.1168839e-39
-0.0064457315 0.046552379 0.75199997 1.0257715e-39
-0.0050133727 0.046552386 0.75199997 1.1183287e-39
-0.0035809658 0.046552382 0.75199997 1.1179755e-39
-0.0021428706 0.046428584 0.75 1.2090978e-39
-0.00071429985 0.046428584 0.75 1.3009389e-39
0.00071426982 0.04642858 0.75 1.4846155e-39
0.0021371294 0.046304759 0.74799997 1.5764468e-39
0.0035618695 0.04630477 0.74799997 1.4842483e-39
0.0049999873 0.046428584 0.75 1.3891758e-39
0.0064114067 0.04630477 0.74799997 7.4416656e-40
0.0078361658 0.04630477 0.74799997 1.0418094e-40
0.009285707 0.046428591 0.75 3.6089909e-39
0.010714276 0.046428587 0.75 7.0116071e-39
0.01214284 0.04642858 0.75 7.6613121e-39
0.013571411 0.04642858 0.75 8.213767e-39
0.01495998 0.046304766 0.74799997 8.6747437e-39
0.016428566 0.046428576 0.75 9.1364296e-39
0.017857131 0.046428584 0.75 8.8598455e-39
0.019285701 0.046428584 0.75 8.4813421e-39
0.020714283 0.046428584 0.75 4.3289753e-39
0.022142833 0.046428591 0.75 1.9710104e-40
0.023634261 0.046552379 0.75199997 1.1190475e-39
0.025099982 0.046614297 0.7529999 1.9466488e-39
0.026604753 0.046738073 0.75500005 1.4878342e-39
0.02804284 0.046738077 0.75500005 1.0257757e-39
0.02951999 0.046799984 0.75600004 3.0414805e-39
0.030959982 0.046800002 0.75600004 5.0798387e-39
0.032485683 0.046923805 0.75800002 1.0796639e-38
0.034019031 0.047047615 0.75999999 1.6497956e-38
0.035513334 0.047109518 0.76100004 1.6313911e-38
0.036962848 0.047109514 0.76100004 1.6038766e-38
0.038513318 0.047233332 0.76299995 1.6129887e-38
0.039966654 0.047233332 0.76299995 1.6221008e-38
-0.015200041 0.048495233 0.75999999 3.7570774e-40
-0.013716229 0.048367623 0.75800002 5.6045633e-40
-0.012240014 0.048240002 0.75600004 8.356195e-40
-0.010800037 0.048240006 0.75599998 7.4523294e-40
-0.0093476344 0.048176181 0.75500005 6.5554844e-40
-0.0078886012 0.048048593 0.75299996 5.6371154e-40
-0.0064542885 0.048048574 0.75299996 5.6659121e-40
-0.0050133625 0.047984764 0.75199991 5.6552482e-40
-0.0035857426 0.048048574 0.75299996 6.5915959e-40
-0.0021428668 0.047857162 0.75 6.570128e-40
-0.00071429706 0.047857158 0.75 7.5100629e-40
0.00071427354 0.047857158 0.75 7.499357e-40
0.0021428375 0.047857165 0.75 8.4140546e-40
0.0035714072 0.047857147 0.75 8.3565873e-40
0.004999992 0.047857147 0.75 7.4094077e-40
0.0064114169 0.047729518 0.74799997 8.3204619e-40
0.0078361761 0.047729518 0.74800003 8.3025112e-40
0.0092856959 0.047857154 0.75 3.8805514e-39
0.010714279 0.04785715 0.75 6.9201317e-39
0.012142829 0.047857162 0.75 7.4769236e-39
0.013535215 0.047729526 0.74799997 8.1215644e-39
0.01495999 0.047729526 0.74799997 8.3981456e-39
0.016428549 0.04785715 0.75 8.6758101e-39
0.017857118 0.047857143 0.75 8.5818265e-39
0.019285701 0.047857147 0.75 8.5774852e-39
0.020714287 0.047857143 0.75 4.4276309e-39
0.022142837 0.04785715 0.75 2.88582e-40
0.023634255 0.047984764 0.75199991 1.1183357e-39
0.025099991 0.048048578 0.75299996 1.9470089e-39
0.026604734 0.048176184 0.755 1.4874741e-39
0.028042842 0.048176177 0.75500005 1.1183231e-39
0.029519992 0.048239987 0.75600004 2.9528652e-39
0.030959984 0.048240006 0.75600004 4.7975148e-39
0.032485679 0.04836762 0.75800002 1.0609744e-38
0.034019027 0.048495237 0.75999999 1.6504776e-38
0.035513319 0.048559051 0.76099998 1.6223153e-38
0.037059989 0.048686661 0.76299995 1.5944427e-38
0.038614269 0.048814278 0.76499999 1.6312852e-38
0.040228572 0.049005706 0.76800001 1.6588008e-38
-0.015260038 0.050139997 0.76299995 2.8530437e-40
-0.01371623 0.049811423 0.75799996 5.6152272e-40
-0.012272417 0.049811441 0.75799996 8.3561389e-40
-0.010800018 0.049680009 0.75599998 4.668566e-40
-0.009360021 0.049679998 0.75600004 1.0238307e-40
-0.0079095326 0.049614269 0.75500005 9.9511809e-41
