# .PCD v0.7 - Point Cloud Data file format
VERSION 0.7
FIELDS x y z rgb
SIZE 4 4 4 4
TYPE F F F F
COUNT 1 1 1 1
WIDTH 941
HEIGHT 1
VIEWPOINT 0 0 0 1 0 0 0
POINTS 941
DATA ascii
-0.0049266666 -0.020410493 0.73900008 9.3201202e-39
-0.0035095243 -0.020355232 0.73700005 9.3244207e-39
-0.0021057145 -0.020355269 0.73700011 9.2297098e-39
-0.00070095243 -0.020327635 0.73600018 9.2293469e-39
0.00070095243 -0.020327628 0.73600006 9.043878e-39
0.002102857 -0.02032762 0.73600012 8.9548969e-39
0.0035047622 -0.020327628 0.73600012 8.1208273e-39
0.0049066669 -0.020327635 0.73600012 7.2925254e-39
0.0063085724 -0.02032762 0.73600012 7.2918191e-39
0.0077104773 -0.020327613 0.73600012 7.2896751e-39
0.0091123804 -0.02032765 0.73600012 8.3949367e-39
0.010514285 -0.020327635 0.73600012 9.5934701e-39
0.01191619 -0.020327628 0.73600012 1.014736e-38
0.013318097 -0.020327635 0.73600012 1.0697988e-38
0.014720002 -0.020327635 0.73600012 6.093629e-39
0.016121905 -0.020327628 0.73600018 1.5753776e-39
0.017547619 -0.020355269 0.73700011 1.4846015e-39
0.018951427 -0.020355262 0.73700011 1.3952953e-39
0.02041048 -0.020410486 0.73900008 1.7622954e-39
0.021818098 -0.020410493 0.73900008 2.1289045e-39
0.023257146 -0.02043809 0.74000001 1.7601107e-39
0.024733335 -0.020493343 0.74200004 1.3902366e-39
0.026146669 -0.020493336 0.74200004 2.0337801e-39
0.027597146 -0.02052097 0.74300009 2.7709416e-39
0.029012384 -0.020520963 0.74300009 3.782532e-39
0.030591432 -0.02063144 0.74700004 4.886339e-39
0.032014284 -0.020631462 0.74700004 5.0699959e-39
0.033481903 -0.020659059 0.74800003 5.3451563e-39
0.035 -0.020714298 0.75000012 5.5291986e-39
-0.020659046 -0.0192343 0.74800003 7.4811401e-40
-0.019208573 -0.019208573 0.74700004 3.9803294e-39
-0.017738095 -0.019157164 0.74500012 7.1949319e-39
-0.016275238 -0.019105725 0.74300009 7.1938571e-39
-0.014860002 -0.019105725 0.74300009 7.1048957e-39
-0.013426669 -0.019080006 0.74200004 7.4700895e-39
-0.012013335 -0.019080013 0.74200004 7.8410244e-39
-0.01057143 -0.019028567 0.74000001 6.9169367e-39
-0.0091619063 -0.019028574 0.74000001 5.9128503e-39
-0.0077419053 -0.019002862 0.73900002 6.5528346e-39
-0.0063342866 -0.01900287 0.73900002 7.1081537e-39
-0.0049266671 -0.019002862 0.73900002 7.0141672e-39
-0.0035095243 -0.018951431 0.73700011 6.9255561e-39
-0.0021057145 -0.018951453 0.73700011 6.9230408e-39
-0.00070095237 -0.018925734 0.73600012 6.8333605e-39
0.00070095249 -0.018925726 0.73600018 6.6475399e-39
0.0021028572 -0.018925734 0.73600006 6.3712991e-39
0.0035047624 -0.018925726 0.73600012 5.075901e-39
0.0049066674 -0.018925719 0.73600012 3.7026888e-39
0.0063085724 -0.018925704 0.73600012 3.9746247e-39
0.0077104778 -0.018925726 0.73600012 4.2555136e-39
0.0091123823 -0.018925734 0.73600012 7.0148861e-39
0.010514287 -0.018925719 0.73600012 9.6867377e-39
0.011916192 -0.018925741 0.73600012 1.0610486e-38
0.013318097 -0.018925734 0.73600012 1.1432314e-38
0.014720002 -0.018925719 0.73600012 6.2812489e-39
0.016143808 -0.018951446 0.73700011 1.1223027e-39
0.017547619 -0.018951453 0.73700011 1.573214e-39
0.018951427 -0.018951461 0.73700011 1.9448691e-39
0.020355238 -0.018951461 0.73700011 2.0377906e-39
0.021818096 -0.019002855 0.73900008 2.1285373e-39
0.023225715 -0.019002862 0.73900008 1.7601079e-39
0.024733335 -0.019080006 0.74200004 1.2991172e-39
0.026146669 -0.019079991 0.74200004 2.1248982e-39
0.027597146 -0.019105725 0.74300009 2.8620624e-39
0.029012384 -0.019105732 0.74300009 3.8740143e-39
0.03059143 -0.01920858 0.74700004 4.8863348e-39
0.032014288 -0.019208588 0.74700004 4.9788667e-39
0.033481907 -0.019234292 0.74800009 5.0699973e-39
0.035000004 -0.019285731 0.75000012 5.3448004e-39
-0.020769527 -0.017904788 0.75200009 1.018594e-39
-0.019208573 -0.017785735 0.7470001 4.2508053e-39
-0.017738096 -0.017738104 0.74500006 7.4707845e-39
-0.016275236 -0.017690487 0.74300009 7.6576813e-39
-0.014860002 -0.017690495 0.74300009 7.9346311e-39
-0.013426669 -0.017666675 0.7420001 8.48637e-39
-0.012013335 -0.017666683 0.7420001 9.1295856e-39
-0.010571431 -0.017619044 0.74000001 8.3009208e-39
-0.0091619045 -0.017619051 0.74000001 7.4751258e-39
-0.0077419057 -0.017595261 0.73900008 7.8428321e-39
-0.0063342862 -0.017595246 0.73900008 8.2098083e-39
-0.0049266671 -0.017595246 0.73900008 7.6569947e-39
-0.0035190478 -0.017595246 0.73900008 7.195662e-39
-0.0021057145 -0.017547645 0.73700011 7.1045398e-39
-0.00070095243 -0.017523818 0.73600012 7.0123554e-39
0.00070095243 -0.01752384 0.73600012 6.920887e-39
0.0021028572 -0.017523833 0.73600018 6.8276012e-39
0.0035047624 -0.01752381 0.73600012 6.1829422e-39
0.0049066669 -0.017523803 0.73600012 5.53904e-39
0.0063085724 -0.017523818 0.73600012 5.6323314e-39
0.0077104773 -0.01752381 0.73600012 5.8145633e-39
0.0090876184 -0.017476209 0.73400009 7.4754901e-39
0.010514287 -0.017523833 0.73600012 9.2315035e-39
0.011916192 -0.017523825 0.73600012 9.781457e-39
0.013318097 -0.017523818 0.73600012 1.0425714e-38
0.014720002 -0.017523825 0.73600012 7.7506182e-39
0.01614381 -0.017547645 0.73700011 5.0694396e-39
0.01754762 -0.017547645 0.73700011 3.4153105e-39
0.018951429 -0.017547637 0.73700011 1.6715122e-39
0.02035524 -0.01754766 0.73700011 2.0384955e-39
0.021818096 -0.017595246 0.73900002 2.4955136e-39
0.023257148 -0.017619044 0.74000001 1.8515819e-39
0.024733335 -0.017666668 0.74200004 1.2062041e-39
0.026146669 -0.017666675 0.74200004 2.1259744e-39
0.027597146 -0.017690487 0.74300009 3.1375717e-39
0.029090479 -0.017738104 0.74500012 4.0580497e-39
0.030591432 -0.017785728 0.74700004 4.9788849e-39
0.032057144 -0.017809547 0.74800003 5.1621663e-39
0.033481907 -0.017809547 0.74800009 5.3458527e-39
0.035 -0.017857157 0.75000012 5.6206558e-39
-0.020714285 -0.01642859 0.75000012 1.3009164e-39
-0.019208573 -0.016362868 0.74700004 4.5327675e-39
-0.017785715 -0.016362868 0.74700004 7.6566079e-39
-0.01631905 -0.016319059 0.74500012 8.2147942e-39
-0.014860002 -0.016275257 0.74300009 8.7633044e-39
-0.013444765 -0.016275242 0.74300009 9.5948545e-39
-0.012013335 -0.016253337 0.74200004 1.0325602e-38
-0.010600001 -0.016253345 0.74200004 9.6820461e-39
-0.0091619045 -0.016209528 0.74000001 9.0381299e-39
-0.0077523817 -0.016209528 0.74000001 9.1328436e-39
-0.0063342862 -0.016187616 0.73900008 9.2218009e-39
-0.0049266671 -0.016187631 0.73900008 8.2994914e-39
-0.003519048 -0.016187631 0.73900008 7.3800589e-39
-0.0021114287 -0.016187631 0.73900008 7.286787e-39
-0.00070095237 -0.016121916 0.73600012 7.1038377e-39
0.00070095243 -0.016121916 0.73600012 7.1956788e-39
0.0021028572 -0.016121924 0.73600018 7.1963865e-39
0.0035047624 -0.016121931 0.73600018 7.2892884e-39
0.0049066674 -0.016121916 0.73600012 7.2896597e-39
0.0063085724 -0.016121902 0.73600012 7.2921848e-39
0.0077104778 -0.016121909 0.73600012 7.2893136e-39
0.0091123804 -0.016121916 0.73600012 8.0239962e-39
0.010514285 -0.016121916 0.73600012 8.6740277e-39
0.01191619 -0.016121909 0.73600012 9.0410207e-39
0.013318095 -0.016121924 0.73600012 9.4101424e-39
0.01472 -0.016121924 0.73600012 9.2264588e-39
0.016143808 -0.016143821 0.73700011 9.0312915e-39
0.017547619 -0.016143836 0.73700011 5.2556161e-39
0.018951427 -0.016143836 0.73700011 1.3970904e-39
0.020410478 -0.016187638 0.73900008 2.1321331e-39
0.021818096 -0.016187645 0.73900008 2.7721033e-39
0.023320001 -0.016253337 0.7420001 1.9441391e-39
0.024733335 -0.016253337 0.74200004 1.1158077e-39
0.026181908 -0.016275249 0.74300003 2.2181728e-39
0.027597146 -0.016275242 0.74300003 3.3216014e-39
0.029090479 -0.016319051 0.74500006 4.1495236e-39
0.03059143 -0.016362876 0.7470001 4.9774584e-39
0.03205714 -0.016384788 0.74800009 5.2533026e-39
0.033481903 -0.01638478 0.74800009 5.5291762e-39
0.035 -0.016428582 0.75000012 5.8961665e-39
-0.020769525 -0.01504001 0.75200003 1.298048e-39
-0.019208573 -0.014940016 0.74700004 3.6979944e-39
-0.017785715 -0.014940016 0.74700004 6.000339e-39
-0.01631905 -0.014900014 0.74500012 5.5400853e-39
-0.014860002 -0.014860012 0.74300009 4.9930268e-39
-0.013444765 -0.014860012 0.74300009 5.819196e-39
-0.012029527 -0.014860004 0.74300009 6.7433032e-39
-0.010600001 -0.014840007 0.74200004 6.0021733e-39
-0.0091619045 -0.014800012 0.74000001 5.3622059e-39
-0.0077523817 -0.014800005 0.74000001 6.9252128e-39
-0.0063342862 -0.014780007 0.73900002 8.4903525e-39
-0.0049266671 -0.01478 0.73900002 8.3020082e-39
-0.003519048 -0.014780015 0.73900002 8.2069455e-39
-0.0021114287 -0.014780007 0.73900008 8.3924101e-39
-0.00070095237 -0.014720015 0.73600012 8.5728539e-39
0.00070095249 -0.014720008 0.73600012 8.3927717e-39
0.0021028572 -0.014720023 0.73600012 8.2080203e-39
0.0035047624 -0.014720023 0.73600018 8.5789454e-39
0.0049066669 -0.014720008 0.73600018 9.0381285e-39
0.0063085724 -0.014720015 0.73600012 8.4878372e-39
0.0077104773 -0.014720008 0.73600012 8.0257912e-39
0.0091123804 -0.014720008 0.73600012 8.578958e-39
0.010514285 -0.014720008 0.73600012 9.1339184e-39
0.01191619 -0.014720015 0.73600012 9.1332024e-39
0.013318097 -0.014720015 0.73600012 9.2232442e-39
0.014740001 -0.01474002 0.73700011 9.0417256e-39
0.016143808 -0.01474002 0.73700011 8.8594699e-39
0.017547619 -0.014740027 0.73700011 4.8940223e-39
0.019002857 -0.014780022 0.73900008 9.3720383e-40
0.020410476 -0.014780007 0.73900008 1.6718878e-39
0.021847622 -0.01480002 0.74000007 2.3129314e-39
0.023320001 -0.014839999 0.74200004 1.7601135e-39
0.024733335 -0.014840014 0.74200004 1.114377e-39
0.026181908 -0.014860027 0.74300009 2.125624e-39
0.027597146 -0.014860012 0.74300009 3.1375731e-39
0.029090481 -0.014900006 0.74500012 3.9654911e-39
0.030632384 -0.014960013 0.74800009 4.8856299e-39
0.03205714 -0.014960021 0.74800009 5.2536795e-39
0.033481903 -0.014960006 0.74800003 5.6206642e-39
0.035000004 -0.015000015 0.75000012 5.8043352e-39
-0.020769527 -0.013607629 0.75200003 1.2991284e-39
-0.019285718 -0.013571441 0.75000012 2.8693198e-39
-0.017785715 -0.013517149 0.74700004 4.3394094e-39
-0.01631905 -0.013480954 0.74500006 2.7688845e-39
-0.014860002 -0.013444789 0.74300009 1.2148529e-39
-0.013444765 -0.013444774 0.74300009 2.129259e-39
-0.012013335 -0.013426661 0.74200004 3.0533635e-39
-0.010600001 -0.013426676 0.74200004 2.3125909e-39
-0.0091619063 -0.013390489 0.74000001 1.587957e-39
-0.0077523808 -0.013390474 0.74000001 4.6239164e-39
-0.0063342866 -0.013372391 0.73900008 7.6591555e-39
-0.0049266671 -0.013372384 0.73900002 8.3034417e-39
-0.003519048 -0.013372384 0.73900002 8.9473706e-39
-0.0021114287 -0.013372384 0.73900002 9.5030513e-39
-0.00070095243 -0.013318121 0.73600012 9.9590044e-39
0.00070095243 -0.013318107 0.73600012 9.593819e-39
0.0021028572 -0.013318114 0.73600012 9.2250351e-39
0.0035047624 -0.013318107 0.73600012 9.9640168e-39
0.0049066669 -0.013318114 0.73600018 1.0696907e-38
0.0063085719 -0.013318099 0.73600006 9.7789109e-39
0.0077104773 -0.013318099 0.73600012 8.7644184e-39
0.0091123804 -0.013318114 0.73600012 9.2235987e-39
0.010514285 -0.013318107 0.73600012 9.5923756e-39
0.01191619 -0.013318107 0.73600012 9.3183041e-39
0.013318095 -0.013318099 0.73600012 8.9491712e-39
0.014740001 -0.013336204 0.73700005 8.7662219e-39
0.016143808 -0.013336197 0.73700011 8.5785852e-39
0.017547619 -0.013336211 0.73700011 4.5238132e-39
0.019002857 -0.013372391 0.73900002 4.7982001e-40
0.020410478 -0.013372391 0.73900002 1.2137851e-39
0.021847621 -0.013390489 0.74000007 1.8537511e-39
0.023319999 -0.013426684 0.7420001 1.4846043e-39
0.024766669 -0.013444774 0.74300009 1.115449e-39
0.026181906 -0.013444789 0.74300009 2.0319907e-39
0.027597146 -0.013444766 0.74300009 2.9528147e-39
0.029090479 -0.013480969 0.74500012 3.8729213e-39
0.03059143 -0.013517156 0.74700004 4.7023176e-39
0.032057144 -0.013535246 0.74800003 5.2544124e-39
0.033481907 -0.013535246 0.74800003 5.7132242e-39
-0.020714287 -0.012142867 0.75000012 1.2944691e-39
-0.019234285 -0.012110502 0.74800003 3.5118053e-39
-0.017785715 -0.012094311 0.7470001 5.7183781e-39
-0.01631905 -0.012061916 0.74500006 4.9819103e-39
-0.014860002 -0.012029551 0.74300009 4.2429089e-39
-0.013444765 -0.012029536 0.74300009 4.705301e-39
-0.012029525 -0.012029544 0.74300009 5.1601807e-39
-0.010600001 -0.012013339 0.7420001 4.7063912e-39
-0.0091866665 -0.012013331 0.74200004 4.3379758e-39
-0.0077523817 -0.011980951 0.74000001 5.7251969e-39
-0.0063342862 -0.011964768 0.73900008 7.1985277e-39
-0.0049266666 -0.011964776 0.73900008 6.9226793e-39
-0.003519048 -0.011964768 0.73900008 6.744755e-39
-0.0021114287 -0.011964783 0.73900008 6.9273568e-39
-0.00070095237 -0.011916205 0.73600012 7.0235055e-39
0.00070095243 -0.011916198 0.73600012 6.835178e-39
0.002102857 -0.011916205 0.73600012 6.7462025e-39
0.0035047622 -0.011916213 0.73600012 7.5709171e-39
0.0049066669 -0.011916213 0.73600018 8.4968013e-39
0.0063085724 -0.011916198 0.73600018 8.5846865e-39
0.0077104773 -0.011916205 0.73600006 8.7644156e-39
0.0091123804 -0.011916198 0.73600012 9.2235973e-39
0.010514287 -0.011916198 0.73600012 9.6831321e-39
0.011916192 -0.011916183 0.73600012 9.2246693e-39
0.013318097 -0.011916205 0.73600012 8.8562581e-39
0.014740003 -0.011932395 0.73700011 8.7662233e-39
0.016143808 -0.011932395 0.73700011 8.6743682e-39
0.017547619 -0.011932403 0.73700011 4.6181613e-39
0.019002859 -0.011964776 0.73900008 5.7022057e-40
0.020410478 -0.011964776 0.73900002 1.2127061e-39
0.021847622 -0.011980966 0.74000007 1.8530322e-39
0.023320001 -0.012013339 0.74200004 1.392766e-39
0.024733335 -0.012013331 0.74200004 9.3213393e-40
0.026181908 -0.012029529 0.74300009 1.9412272e-39
0.027597146 -0.012029536 0.74300009 2.9528049e-39
0.029012384 -0.012029536 0.74300009 3.7821452e-39
0.030632384 -0.012110479 0.74800003 4.7041099e-39
0.032057144 -0.012110479 0.74800003 5.0711156e-39
0.033481907 -0.012110479 0.74800003 5.4377247e-39
-0.020769525 -0.010742866 0.75200003 1.3009221e-39
-0.019285716 -0.010714293 0.75000006 4.1650584e-39
-0.017785715 -0.010671444 0.7470001 7.0105323e-39
-0.016319048 -0.010642879 0.74500012 7.1056048e-39
-0.014900001 -0.010642871 0.74500012 7.1938459e-39
-0.013444763 -0.010614298 0.74300009 7.2892631e-39
-0.012029525 -0.010614298 0.74300009 7.2856842e-39
-0.010599999 -0.010600008 0.74200004 7.1985221e-39
-0.0091866665 -0.010600001 0.74200004 7.0119784e-39
-0.0077523808 -0.010571428 0.74000001 6.8318919e-39
-0.0063342862 -0.010557152 0.73900002 6.6449938e-39
-0.0049266671 -0.010557152 0.73900008 5.6272699e-39
-0.003519048 -0.010557152 0.73900008 4.5284796e-39
-0.0021114287 -0.010557152 0.73900008 4.3466092e-39
-0.00070190482 -0.010528594 0.73700011 4.0711041e-39
0.00070190482 -0.010528594 0.73700011 4.1611488e-39
0.002102857 -0.010514304 0.73600012 4.1607788e-39
0.0035047622 -0.010514304 0.73600012 5.2606412e-39
0.0049066669 -0.010514297 0.73600012 6.2801797e-39
0.0063171438 -0.010528594 0.73700011 7.481597e-39
0.0077104773 -0.010514304 0.73600018 8.6736633e-39
0.0091123804 -0.010514289 0.73600012 9.2235973e-39
0.010514285 -0.010514297 0.73600012 9.7764026e-39
0.011916192 -0.010514297 0.73600012 9.2250309e-39
0.013336191 -0.010528594 0.73700011 8.6736676e-39
0.014740001 -0.010528594 0.73700011 8.675471e-39
0.016143808 -0.010528587 0.73700011 8.6693487e-39
0.017547619 -0.010528594 0.73700011 4.7035368e-39
0.019002859 -0.01055716 0.73900008 6.6169734e-40
0.020438099 -0.010571435 0.74000007 1.2130676e-39
0.021847622 -0.010571443 0.74000007 1.7615569e-39
0.023320001 -0.010600008 0.7420001 1.2090964e-39
0.024733335 -0.010600016 0.7420001 6.5626871e-40
0.026181908 -0.010614298 0.74300009 1.8483155e-39
0.027597146 -0.010614291 0.74300003 2.9531721e-39
0.029090481 -0.010642864 0.74500006 3.7821648e-39
0.030632386 -0.01068572 0.74800003 4.6108395e-39
0.032142859 -0.010714285 0.75000006 4.8877837e-39
0.03357143 -0.010714293 0.75000006 5.1618426e-39
-0.023760002 -0.0093600228 0.7560001 8.3884949e-40
-0.02223143 -0.0093228668 0.75300008 9.2817386e-40
-0.020769527 -0.0093104839 0.75200003 1.0203905e-39
-0.019285714 -0.0092857257 0.75000012 4.0674846e-39
-0.017809523 -0.0092609674 0.74800003 7.1045202e-39
-0.016319051 -0.0092238262 0.74500012 7.1048845e-39
-0.014900003 -0.0092238337 0.74500012 7.1981563e-39
-0.013444763 -0.009199053 0.74300009 7.2896345e-39
-0.012029525 -0.0091990605 0.74300009 7.3829161e-39
-0.010600001 -0.0091866776 0.7420001 7.1988962e-39
-0.0091866665 -0.0091866702 0.7420001 7.1081299e-39
-0.0077523817 -0.0091619045 0.74000001 6.9230156e-39
-0.0063428576 -0.0091619194 0.74000001 6.8297297e-39
-0.004933333 -0.0091619045 0.74000001 5.8109143e-39
-0.003519048 -0.0091495365 0.73900002 4.7935562e-39
-0.0021114284 -0.0091495216 0.73900002 4.3390478e-39
-0.00070190488 -0.0091247782 0.73700011 3.875204e-39
0.00070190482 -0.0091247931 0.73700011 4.0620994e-39
0.0021057148 -0.0091247857 0.73700011 4.3325724e-39
0.0035095243 -0.0091247931 0.73700011 4.981148e-39
0.0049133338 -0.0091247857 0.73700005 5.5343624e-39
0.0063171438 -0.0091247782 0.73700011 7.2003634e-39
0.0077104778 -0.0091123953 0.73600018 8.8569812e-39
0.0091123804 -0.0091124102 0.73600018 9.0410025e-39
0.010528572 -0.0091247708 0.73700011 9.3208138e-39
0.011932382 -0.0091247782 0.73700011 8.9495258e-39
0.013336193 -0.0091247931 0.73700011 8.5811202e-39
0.014740003 -0.0091247782 0.73700011 8.5825663e-39
0.016143808 -0.0091247782 0.73700011 8.6743724e-39
0.017547619 -0.0091247857 0.73700011 4.8007504e-39
0.019002859 -0.009149529 0.73900008 9.3505143e-40
0.020438097 -0.0091619119 0.74000007 1.3945876e-39
0.021906668 -0.0091866776 0.74200004 1.8519589e-39
0.023320001 -0.0091866627 0.74200004 1.5753622e-39
0.024766671 -0.009199068 0.74300009 1.2062055e-39
0.026181908 -0.009199068 0.74300009 2.0330627e-39
0.027597146 -0.0091990605 0.74300009 2.8617051e-39
0.029090479 -0.0092238113 0.74500006 3.7814656e-39
0.030632384 -0.0092609674 0.74800003 4.610122e-39
0.032142855 -0.0092857182 0.75000012 4.9781646e-39
0.033571426 -0.0092857182 0.75000012 5.437691e-39
-0.02526667 -0.0079409704 0.75800002 1.0221603e-39
-0.023760002 -0.0079200119 0.7560001 1.1125567e-39
-0.02223143 -0.0078885704 0.75300002 9.2565292e-40
-0.020769525 -0.0078781098 0.75200003 7.4846714e-40
-0.019337142 -0.0078781024 0.75200003 3.9803154e-39
-0.017809523 -0.0078362077 0.74800003 7.1038097e-39
-0.016362857 -0.0078257248 0.74700004 7.1034622e-39
-0.014900003 -0.0078047663 0.74500006 7.1048915e-39
-0.013480954 -0.0078047663 0.74500006 7.2885583e-39
-0.012029525 -0.0077838227 0.74300009 7.4733139e-39
-0.010614285 -0.0077838153 0.74300003 7.2896513e-39
-0.0091866665 -0.0077733397 0.74200004 7.1063418e-39
-0.0077733337 -0.0077733323 0.74200004 7.0141504e-39
-0.0063600005 -0.0077733397 0.74200004 6.9194296e-39
-0.0049466663 -0.0077733472 0.74200004 5.9935259e-39
-0.0035238101 -0.0077523738 0.74000001 4.9826194e-39
-0.0021114284 -0.0077419132 0.73900002 4.3401324e-39
-0.00070190482 -0.0077209771 0.73700011 3.6040093e-39
0.00070190482 -0.0077209845 0.73700011 4.0628253e-39
0.0021057143 -0.0077209696 0.73700011 4.5212769e-39
0.003509524 -0.0077209547 0.73700011 4.7052996e-39
0.0049133338 -0.0077209771 0.73700011 4.8032658e-39
0.0063171438 -0.0077209696 0.73700011 6.9287889e-39
0.0077209533 -0.0077209696 0.73700011 8.9480894e-39
0.0091247633 -0.0077209696 0.73700011 8.9455741e-39
0.010528572 -0.0077209696 0.73700011 8.8562497e-39
0.011932382 -0.0077209771 0.73700011 8.6711452e-39
0.013336193 -0.0077209845 0.73700011 8.3967219e-39
0.014740003 -0.0077209771 0.73700011 8.4903595e-39
0.01614381 -0.0077209845 0.73700011 8.5775076e-39
0.01754762 -0.0077209845 0.73700011 4.8904321e-39
0.019028574 -0.0077523962 0.74000001 1.1201532e-39
0.020438099 -0.0077523813 0.74000007 1.5778943e-39
0.021847622 -0.0077523962 0.74000007 1.9437887e-39
0.023320001 -0.0077733472 0.74200004 1.8505057e-39
0.024733335 -0.0077733397 0.7420001 1.757573e-39
0.026181908 -0.0077838227 0.74300009 2.3082076e-39
0.027597146 -0.0077838227 0.74300009 2.7691479e-39
0.029012384 -0.0077838153 0.74300009 3.6885483e-39
0.030591432 -0.0078257248 0.74700004 4.6093975e-39
0.032057144 -0.0078362003 0.74800003 5.1611112e-39
0.033481907 -0.0078362077 0.74800003 5.6206404e-39
0.03490667 -0.0078361928 0.74800003 5.6213508e-39
-0.0252 -0.0064800084 0.75600004 1.0217988e-39
-0.02376 -0.0064800009 0.75600004 1.0210743e-39
-0.022231432 -0.0064542964 0.75300002 9.2600185e-40
-0.020769525 -0.0064457357 0.75200003 7.4092956e-40
-0.019337142 -0.0064457282 0.75200003 3.8827416e-39
-0.017857146 -0.0064285845 0.75000012 7.1041754e-39
-0.016362859 -0.0064028576 0.74700004 7.1041909e-39
-0.014900003 -0.0063857213 0.74500012 7.1052558e-39
-0.013480954 -0.0063857213 0.74500012 7.3807511e-39
-0.012029527 -0.0063685775 0.74300009 7.7484588e-39
-0.010614287 -0.0063685924 0.74300009 7.4725992e-39
-0.0091866665 -0.0063600093 0.7420001 7.1963893e-39
-0.0077733337 -0.0063600093 0.74200004 7.1971208e-39
-0.0063600009 -0.0063600019 0.74200004 7.1056286e-39
-0.0049466668 -0.0063600019 0.74200004 6.366623e-39
-0.0035238101 -0.0063428506 0.74000001 5.7209033e-39
-0.0021114287 -0.0063342974 0.73900008 4.9840655e-39
-0.00070190482 -0.0063171536 0.73700011 4.3415716e-39
0.00070380955 -0.0063343048 0.73900008 4.5241622e-39
0.0021114284 -0.0063342974 0.73900008 4.6163536e-39
0.0035095243 -0.0063171536 0.73700011 4.9826152e-39
0.0049133333 -0.0063171685 0.73700011 5.2592161e-39
0.0063171433 -0.0063171685 0.73700011 6.9230338e-39
0.0077209529 -0.0063171536 0.73700011 8.4889007e-39
0.0091247614 -0.0063171685 0.73700011 8.7629723e-39
0.010528572 -0.0063171685 0.73700011 9.0377641e-39
0.01193238 -0.0063171536 0.73700011 8.671141e-39
0.013336191 -0.0063171759 0.73700011 8.3030844e-39
0.014740001 -0.0063171685 0.73700011 8.3055983e-39
0.016143808 -0.0063171685 0.73700005 8.3062975e-39
0.017595237 -0.0063342974 0.73900008 4.708552e-39
0.019028572 -0.0063428581 0.74000001 1.1172791e-39
0.020493334 -0.0063600093 0.74200004 1.5771712e-39
0.021906668 -0.0063599944 0.74200004 2.1274541e-39
0.023320001 -0.0063600093 0.74200004 1.6664704e-39
0.024766671 -0.00636857 0.74300009 1.2973165e-39
0.026181908 -0.0063685775 0.74300009 2.2163693e-39
0.027597148 -0.0063685849 0.74300009 3.2279625e-39
0.029090481 -0.0063857362 0.74500012 4.0566007e-39
0.030632384 -0.0064114407 0.74800003 4.8852558e-39
0.032142855 -0.006428577 0.75000012 5.3447737e-39
0.033571426 -0.0064285845 0.75000012 5.8954238e-39
-0.02671048 -0.0050533563 0.75800002 1.1139902e-39
-0.025200002 -0.0050399974 0.75600004 1.0218072e-39
-0.023760002 -0.0050400123 0.75600004 9.2816825e-40
-0.022290478 -0.0050333515 0.75500011 8.3273563e-40
-0.020797145 -0.00502 0.75300002 7.4810701e-40
-0.019337144 -0.0050133392 0.75200009 3.8888415e-39
-0.017857144 -0.0049999952 0.75000012 7.0116155e-39
-0.016384762 -0.004986681 0.74800009 7.0116253e-39
-0.014940003 -0.0049800202 0.7470001 7.0123385e-39
-0.013480954 -0.0049666762 0.74500012 7.563706e-39
-0.012029525 -0.0049533397 0.74300009 8.0236066e-39
-0.010614287 -0.0049533397 0.74300009 7.655194e-39
-0.0091866665 -0.004946664 0.74200004 7.2885793e-39
-0.0077733337 -0.0049466789 0.74200004 7.2885905e-39
-0.0063600005 -0.0049466714 0.74200004 7.2892982e-39
-0.0049466663 -0.0049466714 0.74200004 6.8301109e-39
-0.0035238101 -0.0049333274 0.74000001 6.3662699e-39
-0.0021114287 -0.0049266741 0.73900008 5.7166055e-39
-0.00070380949 -0.0049266741 0.73900008 5.0759066e-39
0.00070380961 -0.0049266741 0.73900008 4.8918727e-39
0.0021114284 -0.004926689 0.73900008 4.7085576e-39
0.003509524 -0.004913345 0.73700011 5.2577755e-39
0.0049133338 -0.0049133673 0.73700011 5.7212662e-39
0.0063342862 -0.0049266815 0.73900008 6.9230296e-39
0.0077209533 -0.0049133524 0.73700011 8.0275695e-39
0.0091247633 -0.0049133599 0.73700011 8.578944e-39
0.010528572 -0.0049133524 0.73700011 9.1303143e-39
0.011932382 -0.0049133375 0.73700005 8.6722116e-39
0.013336191 -0.0049133524 0.73700011 8.2137544e-39
0.014740003 -0.0049133524 0.73700011 8.1219217e-39
0.016187618 -0.0049266741 0.73900002 7.9314166e-39
0.017619049 -0.0049333349 0.74000001 4.5194958e-39
0.019028572 -0.0049333274 0.74000001 1.1187098e-39
0.020493334 -0.0049466714 0.74200004 1.6700787e-39
0.021906668 -0.004946664 0.74200004 2.2189281e-39
0.023320001 -0.0049466714 0.74200004 1.5735573e-39
0.024766671 -0.0049533471 0.74300009 8.3849636e-40
0.026181908 -0.0049533471 0.74300009 2.2152917e-39
0.027671432 -0.0049666762 0.74500006 3.5956646e-39
0.029090481 -0.0049666762 0.74500006 4.3324701e-39
0.030714288 -0.0050000101 0.75000012 5.0682121e-39
0.032142859 -0.0050000101 0.75000012 5.620283e-39
0.033660956 -0.0050133392 0.75200003 6.1705743e-39
-0.026710479 -0.0036095306 0.75800002 1.2061901e-39
-0.025200002 -0.0036000162 0.7560001 1.0214569e-39
-0.02376 -0.0036000088 0.7560001 9.2853259e-40
-0.022290478 -0.0035952628 0.75500011 1.2022328e-39
-0.020797145 -0.003585726 0.75300008 1.4781289e-39
-0.019337142 -0.0035809651 0.75200009 3.8820255e-39
-0.017857144 -0.0035714433 0.75000012 6.2762084e-39
-0.016384762 -0.0035619065 0.74800003 6.644628e-39
-0.014940003 -0.0035571605 0.74700004 7.0119728e-39
-0.013480954 -0.0035476312 0.74500012 7.4722293e-39
-0.012061905 -0.0035476387 0.74500012 7.8406531e-39
-0.010614287 -0.0035381019 0.74300009 7.6569863e-39
-0.0091990493 -0.0035381168 0.74300009 7.472965e-39
-0.0077838101 -0.0035381019 0.74300009 7.7495547e-39
-0.0063685719 -0.0035381094 0.74300009 8.0246996e-39
-0.0049466663 -0.0035333261 0.74200004 7.6577122e-39
-0.0035238101 -0.0035238042 0.74000001 7.2892954e-39
-0.0021142859 -0.0035238117 0.74000001 6.7350552e-39
-0.00070380955 -0.0035190582 0.73900002 6.2719289e-39
0.00070476194 -0.0035238191 0.74000007 6.0900487e-39
0.0021142857 -0.0035238191 0.74000007 5.9042239e-39
0.003519048 -0.0035190508 0.73900002 6.1800878e-39
0.0049266671 -0.0035190657 0.73900008 6.4548782e-39
0.0063342862 -0.0035190508 0.73900008 7.4736782e-39
0.0077209533 -0.0035095438 0.73700011 8.5778636e-39
0.0091495235 -0.0035190657 0.73900008 8.7622576e-39
0.010528572 -0.0035095438 0.73700011 8.9462832e-39
0.01193238 -0.0035095289 0.73700011 8.5814467e-39
0.013372382 -0.0035190731 0.73900008 8.3084541e-39
0.014780002 -0.0035190657 0.73900008 8.0282869e-39
0.016209526 -0.0035238042 0.74000001 7.7470239e-39
0.017619051 -0.0035238191 0.74000001 4.3368954e-39
0.019028574 -0.0035238042 0.74000001 9.3359969e-40
0.020493332 -0.0035333335 0.74200004 1.5764454e-39
0.021906666 -0.003533341 0.74200004 2.2182078e-39
0.023351431 -0.0035381094 0.74300009 1.6661088e-39
0.024766671 -0.0035381094 0.74300009 1.2061957e-39
0.026181908 -0.0035381094 0.74300009 2.3092782e-39
0.02767143 -0.0035476238 0.74500006 3.5049067e-39
0.029168574 -0.0035571679 0.7470001 4.1488033e-39
0.030714288 -0.0035714358 0.75000012 4.8838278e-39
0.032142855 -0.0035714358 0.75000012 5.3440619e-39
0.033660959 -0.0035809577 0.75200003 5.8025163e-39
0.035093341 -0.0035809577 0.75200003 5.5270042e-39
-0.026710479 -0.0021657422 0.75800008 1.2054684e-39
-0.025200002 -0.0021600127 0.7560001 1.0210898e-39
-0.023760002 -0.0021600053 0.7560001 8.3633836e-40
-0.022290478 -0.0021571591 0.75500011 1.5692259e-39
-0.020797146 -0.0021514297 0.75300002 2.2171162e-39
-0.019362858 -0.0021514222 0.75300002 3.8845255e-39
-0.01790476 -0.002148591 0.75200009 5.4475282e-39
-0.016428573 -0.0021428615 0.75000012 6.2780007e-39
-0.014940003 -0.0021343082 0.74700004 7.0123315e-39
-0.013480954 -0.0021285862 0.74500006 7.3803966e-39
-0.012029527 -0.0021228716 0.74300009 7.6569835e-39
-0.010614287 -0.002122879 0.74300009 7.6591401e-39
-0.0091990493 -0.0021228567 0.74300003 7.6591541e-39
-0.0077838101 -0.0021228641 0.74300003 8.2112573e-39
-0.0063685719 -0.0021228641 0.74300009 8.6700704e-39
-0.0049533332 -0.0021228641 0.74300009 8.4863952e-39
-0.0035380956 -0.0021228641 0.74300009 8.2105272e-39
-0.0021142859 -0.0021142885 0.74000001 7.8453362e-39
-0.00070476189 -0.0021142885 0.74000001 7.3825742e-39
0.00070476194 -0.002114296 0.74000001 7.1996235e-39
0.0021142857 -0.0021142885 0.74000007 7.0119966e-39
0.003519048 -0.0021114424 0.73900002 7.1031034e-39
0.0049266666 -0.0021114349 0.73900002 7.1963753e-39
0.0063428576 -0.0021142885 0.74000007 8.1229811e-39
0.0077419057 -0.0021114349 0.73900002 9.0388305e-39
0.0091619045 -0.002114296 0.74000007 8.8540903e-39
0.010557145 -0.0021114424 0.73900008 8.6718571e-39
0.011964763 -0.0021114349 0.73900008 8.4903413e-39
0.013372382 -0.0021114424 0.73900008 8.305234e-39
0.014800001 -0.0021142885 0.74000001 7.9353794e-39
0.016253334 -0.0021200106 0.74200004 7.5601257e-39
0.017666668 -0.0021200031 0.74200004 4.1478435e-39
0.019080002 -0.0021200031 0.74200004 6.5773587e-40
0.020493334 -0.0021200031 0.74200004 1.3920611e-39
0.021906668 -0.0021200106 0.74200004 2.1263737e-39
0.023351431 -0.0021228567 0.74300009 1.8504959e-39
0.024766669 -0.0021228641 0.74300009 1.482777e-39
0.026252383 -0.0021285862 0.74500012 2.4029074e-39
0.02767143 -0.0021285787 0.74500012 3.3223119e-39
0.029168576 -0.0021343008 0.7470001 4.058044e-39
0.03071429 -0.0021428689 0.75000012 4.7012372e-39
0.032142855 -0.0021428689 0.75000012 5.0689225e-39
0.033660956 -0.0021485835 0.75200003 5.4359002e-39
0.035093337 -0.0021485761 0.75200003 5.3433416e-39
-0.02671048 -0.00072192401 0.75800002 1.204388e-39
-0.025200002 -0.00072000921 0.7560001 9.2924445e-40
-0.023760002 -0.00072001666 0.7560001 7.4522033e-40
-0.022290478 -0.00071906298 0.75500011 1.2026098e-39
-0.020797145 -0.00071714818 0.75300002 1.7525577e-39
-0.019362858 -0.00071715564 0.75300002 3.3263266e-39
-0.017904762 -0.00071620941 0.75200009 4.8922034e-39
-0.016428571 -0.00071430951 0.75000012 5.7230375e-39
-0.014960002 -0.00071237981 0.74800003 6.5520765e-39
-0.013517145 -0.00071143359 0.74700004 6.8286675e-39
-0.012061907 -0.00070953369 0.74500012 7.1967312e-39
-0.010642858 -0.00070953369 0.74500012 7.1978116e-39
-0.0091990493 -0.00070763379 0.74300009 7.2007011e-39
-0.0077838111 -0.00070762634 0.74300009 7.384033e-39
-0.0063685714 -0.00070764124 0.74300009 7.5702095e-39
-0.0049466668 -0.00070666522 0.74200004 7.014526e-39
-0.0035333338 -0.00070666522 0.74200004 6.4656598e-39
-0.0021142857 -0.00070476532 0.74000001 6.0947249e-39
-0.00070380955 -0.00070382655 0.73900008 5.7334911e-39
0.00070380955 -0.0007038191 0.73900008 5.6352069e-39
0.0021114284 -0.00070382655 0.73900008 5.5451454e-39
0.0035190478 -0.00070382655 0.73900008 5.7234158e-39
0.0049266671 -0.0007038191 0.73900008 5.8191988e-39
0.0063428581 -0.00070476532 0.74000007 5.9106755e-39
0.0077419057 -0.00070380419 0.73900002 6.1008093e-39
0.0091619045 -0.00070477277 0.74000007 7.3843595e-39
0.01057143 -0.00070475787 0.74000001 8.6715025e-39
0.011964763 -0.00070382655 0.73900002 8.3963646e-39
0.013390478 -0.00070475787 0.74000001 8.1187001e-39
0.014800001 -0.00070476532 0.74000001 7.8421118e-39
0.016253334 -0.00070668012 0.7420001 7.6551912e-39
0.017666668 -0.00070667267 0.7420001 4.2450585e-39
0.019080002 -0.00070666522 0.74200004 8.4140826e-40
0.020520953 -0.00070763379 0.74300009 1.4846183e-39
0.021936193 -0.00070764124 0.74300009 2.1267339e-39
0.023351433 -0.00070761889 0.74300003 1.7590177e-39
0.024833336 -0.00070954114 0.74500012 1.2983885e-39
0.026252385 -0.00070953369 0.74500012 2.4029074e-39
0.027745716 -0.00071144849 0.74700004 3.4148649e-39
0.029168574 -0.00071144849 0.74700004 3.6899846e-39
0.03071429 -0.00071429461 0.75000012 4.0598279e-39
0.032228578 -0.00071620196 0.75200003 4.4257237e-39
0.033660959 -0.00071620941 0.75200003 4.7937776e-39
0.035093341 -0.00071620196 0.75200003 4.6997827e-39
-0.02516667 0.00071903318 0.75500011 9.2924305e-40
-0.023728574 0.00071902573 0.75500011 5.6154934e-40
-0.022290478 0.00071902573 0.75500011 9.274634e-40
-0.020797145 0.00071712583 0.75300008 1.2966047e-39
-0.019337142 0.00071617961 0.75200009 2.7753052e-39
-0.01790476 0.00071617216 0.75200009 4.2493493e-39
-0.016384762 0.00071237236 0.74800003 5.170228e-39
-0.014940001 0.00071140379 0.7470001 6.0003432e-39
-0.013517145 0.00071141869 0.74700004 6.3684125e-39
-0.012061905 0.00070950389 0.74500012 6.736116e-39
-0.010642858 0.00070951134 0.74500012 6.735044e-39
-0.0092238095 0.00070951134 0.74500012 6.7372048e-39
-0.0077838111 0.00070761144 0.74300009 6.5535436e-39
-0.0063685714 0.00070759654 0.74300009 6.3691481e-39
-0.0049466663 0.00070665777 0.74200004 5.535447e-39
-0.0035333338 0.00070665777 0.74200004 4.7082003e-39
-0.0021142859 0.00070475787 0.74000001 4.4258695e-39
-0.00070380949 0.00070380419 0.73900002 4.0653518e-39
0.00070380961 0.00070380419 0.73900002 4.062133e-39
0.0021114287 0.00070380419 0.73900008 4.0642728e-39
0.003519048 0.00070380419 0.73900008 4.2418313e-39
0.0049266671 0.00070378929 0.73900008 4.4308945e-39
0.0063342862 0.00070379674 0.73900008 3.7837525e-39
0.0077419057 0.00070378929 0.73900008 3.0583984e-39
0.0091619045 0.00070474297 0.74000007 5.8184883e-39
0.01057143 0.00070475787 0.74000007 8.5789426e-39
0.011980955 0.00070475787 0.74000001 8.3045207e-39
0.013426669 0.00070666522 0.74200004 7.9353836e-39
0.014840001 0.00070667267 0.74200004 7.8424706e-39
0.016253334 0.00070666522 0.74200004 7.6544766e-39
0.017666668 0.00070666522 0.74200004 4.3358248e-39
0.019080002 0.00070666522 0.74200004 9.3468289e-40
0.020520953 0.00070760399 0.74300009 1.5775314e-39
0.021936191 0.00070759654 0.74300009 2.1274513e-39
0.023414286 0.00070949644 0.74500012 1.6678983e-39
0.024833335 0.00070951134 0.74500012 1.1161524e-39
0.026252383 0.00070951134 0.74500012 2.3110747e-39
0.027745718 0.00071141869 0.74700004 3.5027487e-39
0.029207623 0.00071236491 0.74800003 3.4105194e-39
0.03071429 0.00071427971 0.75000012 3.3208279e-39
0.032228574 0.00071618706 0.75200009 3.7803557e-39
0.033705715 0.00071713328 0.75300002 4.1466173e-39
0.035140004 0.00071713328 0.75300002 4.0526252e-39
-0.02516667 0.0021571293 0.75500011 1.0214345e-39
-0.023728574 0.0021571368 0.75500011 9.2925006e-40
-0.022290478 0.0021571293 0.75500011 1.1107771e-39
-0.020797146 0.0021514297 0.75300002 1.2001028e-39
-0.019362859 0.0021514297 0.75300002 3.418504e-39
-0.017904762 0.0021485537 0.75200009 5.6286698e-39
-0.016384762 0.0021371394 0.74800003 6.1829268e-39
-0.014940003 0.002134271 0.7470001 6.7364607e-39
-0.013517145 0.002134271 0.7470001 6.9201401e-39
-0.012061905 0.0021285489 0.74500012 7.1034566e-39
-0.010642858 0.0021285564 0.74500006 7.0105477e-39
-0.0092238113 0.0021285713 0.74500006 7.0098288e-39
-0.0077838111 0.0021228418 0.74300009 6.5517247e-39
-0.0063685719 0.0021228567 0.74300009 6.1850932e-39
-0.0049466663 0.0021200031 0.74200004 5.1666435e-39
-0.0035333338 0.0021199957 0.74200004 4.2421775e-39
-0.0021142859 0.0021142811 0.74000001 3.9673758e-39
-0.00070380949 0.0021114275 0.73900002 3.7844321e-39
0.00070380961 0.00211142 0.73900002 3.6022059e-39
0.0021114284 0.00211142 0.73900002 3.4178104e-39
0.0035190478 0.0021114126 0.73900002 3.6929511e-39
0.0049266671 0.00211142 0.73900002 4.0628267e-39
0.0063342862 0.0021114275 0.73900002 3.5100411e-39
0.0077419057 0.0021114126 0.73900008 2.9583106e-39
0.0091619045 0.0021142662 0.74000007 5.8174079e-39
0.01057143 0.0021142811 0.74000007 8.6736409e-39
0.012013333 0.0021199808 0.74200004 8.2119579e-39
0.013426669 0.0021199957 0.74200004 7.8424663e-39
0.014840001 0.0021199882 0.74200004 7.7520686e-39
0.016253334 0.0021199882 0.7420001 7.7538482e-39
0.017666668 0.0021199957 0.7420001 4.2468662e-39
0.019080002 0.0021199957 0.74200004 8.406992e-40
0.020520955 0.0021228492 0.74300009 1.3931443e-39
0.021936193 0.0021228492 0.74300009 2.0359746e-39
0.023414288 0.0021285564 0.74500006 1.4842259e-39
0.024833335 0.0021285713 0.74500006 1.0243169e-39
0.026322858 0.002134271 0.7470001 2.3986068e-39
0.027782861 0.002137132 0.74800003 3.8643454e-39
0.029207623 0.002137132 0.74800003 5.5259504e-39
0.030796193 0.0021485612 0.75200009 7.2672319e-39
0.032228574 0.0021485612 0.75200009 7.4573545e-39
0.033660956 0.0021485537 0.75200009 7.6331306e-39
0.035233334 0.0021571219 0.75500011 7.2700906e-39
-0.026604766 0.0035952181 0.75500011 1.1136287e-39
-0.02516667 0.0035952106 0.75500011 1.205467e-39
-0.023728576 0.0035952181 0.75500011 1.2962361e-39
-0.022290479 0.0035952106 0.75500011 1.2022594e-39
-0.020797145 0.0035857037 0.75300002 1.1147301e-39
-0.019362858 0.0035857037 0.75300002 4.0692502e-39
-0.017904762 0.0035809427 0.75200009 7.0083574e-39
-0.016428573 0.0035714135 0.75000012 7.2874639e-39
-0.014960002 0.0035618991 0.74800003 7.4718607e-39
-0.013517145 0.0035571232 0.74700004 7.4715118e-39
-0.012061907 0.0035476089 0.74500006 7.3789589e-39
-0.01064286 0.0035476089 0.74500006 7.2860472e-39
-0.0092238113 0.0035476014 0.74500006 7.1938473e-39
-0.0078047621 0.0035476163 0.74500012 6.5499185e-39
-0.0063685714 0.0035380945 0.74300003 5.9027624e-39
-0.0049533332 0.0035380945 0.74300009 4.8871881e-39
-0.0035333335 0.0035333261 0.74200004 3.7844405e-39
-0.0021142857 0.0035238042 0.74000001 3.6007639e-39
-0.00070380955 0.0035190284 0.73900008 3.417816e-39
0.00070380961 0.0035190359 0.73900008 3.1448262e-39
0.0021114284 0.0035190359 0.73900008 2.7753249e-39
0.0035190478 0.0035190359 0.73900008 3.2334205e-39
0.0049266671 0.0035190508 0.73900002 3.6022101e-39
0.0063342866 0.0035190359 0.73900002 3.2348821e-39
0.0077419057 0.0035190433 0.73900002 2.7789374e-39
0.0091495235 0.0035190284 0.73900002 5.7266472e-39
0.01057143 0.0035238042 0.74000007 8.6704067e-39
0.012013333 0.0035333261 0.74200004 8.2108719e-39
0.013426669 0.003533341 0.74200004 7.7516958e-39
0.014840001 0.0035333335 0.74200004 7.7524147e-39
0.016253334 0.0035333261 0.74200004 7.7470281e-39
0.017666668 0.0035333335 0.74200004 4.2411321e-39
0.019105718 0.003538087 0.74300003 6.5846454e-40
0.020520955 0.003538087 0.74300009 1.3023822e-39
0.021936193 0.003538087 0.74300009 1.9437719e-39
0.023414288 0.0035476089 0.74500012 1.3916575e-39
0.024900002 0.0035571232 0.74700004 8.3705303e-40
0.02632286 0.0035571232 0.74700004 2.4868578e-39
0.027782861 0.0035618916 0.74800003 4.150974e-39
0.029285716 0.0035714284 0.75000012 7.7447118e-39
0.030796194 0.0035809353 0.75200009 1.1238778e-38
0.032228574 0.0035809427 0.75200009 1.1148749e-38
0.033795241 0.0035952255 0.75500011 1.1054404e-38
0.035233337 0.0035952181 0.75500011 1.0592358e-38
-0.026604766 0.0050333142 0.75500011 1.0221575e-39
-0.02516667 0.0050333142 0.75500011 1.1132742e-39
-0.023728576 0.0050333068 0.75500011 1.2044048e-39
-0.022290479 0.0050333068 0.75500011 1.018594e-39
-0.020769523 0.0050133169 0.75200009 7.4237149e-40
-0.019337142 0.0050133094 0.75200009 4.0642336e-39
-0.01790476 0.0050133169 0.75200009 7.2831493e-39
-0.016428573 0.0050000027 0.75000012 7.8395516e-39
-0.014960002 0.0049866587 0.74800003 8.3916506e-39
-0.013517145 0.0049799904 0.74700004 8.116154e-39
-0.012094287 0.0049799904 0.74700004 7.8377748e-39
-0.010642858 0.0049666539 0.74500012 8.1157882e-39
-0.0092238113 0.0049666539 0.74500012 8.3880577e-39
-0.0078047621 0.0049666464 0.74500012 7.6533653e-39
-0.0063685719 0.0049533248 0.74300009 6.9993989e-39
-0.0049533332 0.0049533173 0.74300009 6.3608581e-39
-0.0035380956 0.0049533099 0.74300009 5.8051844e-39
-0.0021142859 0.0049333274 0.74000001 5.8091332e-39
-0.00070380955 0.0049266517 0.73900008 5.8963066e-39
0.00070380955 0.0049266592 0.73900008 5.8109283e-39
0.0021114284 0.0049266517 0.73900008 5.6211546e-39
0.003519048 0.0049266517 0.73900008 6.1764668e-39
0.0049266666 0.0049266517 0.73900008 6.7242554e-39
0.0063342862 0.0049266517 0.73900008 6.2711806e-39
0.0077419053 0.0049266443 0.73900008 5.8991849e-39
0.0091619045 0.00493332 0.74000007 7.4718776e-39
0.01057143 0.0049333274 0.74000007 9.0398955e-39
0.012013335 0.0049466565 0.74200004 8.579639e-39
0.013390478 0.0049333423 0.74000001 8.1186679e-39
0.014800001 0.0049333274 0.74000001 8.0279086e-39
0.016253334 0.0049466565 0.74200004 7.9350011e-39
0.017666668 0.004946664 0.7420001 4.3383528e-39
0.019105716 0.0049533173 0.74300009 6.5774848e-40
0.020520953 0.0049533099 0.74300009 1.3009445e-39
0.021936191 0.0049533173 0.74300009 1.9426859e-39
0.023414288 0.0049666539 0.74500012 1.2969368e-39
0.024900002 0.0049799904 0.74700004 6.4871151e-40
0.0263581 0.0049866661 0.74800003 3.5942675e-39
0.027782861 0.0049866661 0.74800003 6.5487428e-39
0.029285718 0.0049999878 0.75000012 1.0513767e-38
0.030837145 0.0050199926 0.75300002 1.4477434e-38
0.03227143 0.0050199851 0.75300002 1.4380248e-38
0.033795238 0.0050333217 0.75500011 1.4383482e-38
0.035233334 0.0050333291 0.75500011 1.4010405e-38
-0.02516667 0.0064714029 0.75500011 1.0210799e-39
-0.023728576 0.0064714178 0.75500011 1.1118463e-39
-0.022231432 0.006454289 0.75300002 7.4128268e-40
-0.020769525 0.0064456984 0.75200009 3.8005036e-40
-0.019337144 0.0064457133 0.75200003 3.9788651e-39
-0.017857142 0.0064285621 0.75000012 7.5629634e-39
-0.016384762 0.0064114258 0.74800003 8.3959428e-39
-0.014940003 0.0064028427 0.74700004 9.2217546e-39
-0.013517145 0.0064028427 0.74700004 8.7636645e-39
-0.012061907 0.0063857064 0.74500012 8.3041381e-39
-0.010642858 0.0063856989 0.74500012 8.9505851e-39
-0.0092238113 0.0063856989 0.74500012 9.590554e-39
-0.007804763 0.0063856989 0.74500012 8.8590902e-39
-0.0063685714 0.0063685626 0.74300009 8.0257576e-39
-0.0049533332 0.0063685551 0.74300009 7.9350011e-39
-0.0035380956 0.0063685626 0.74300009 7.7488232e-39
-0.0021142859 0.0063428506 0.74000001 8.1176057e-39
-0.00070476194 0.0063428581 0.74000001 8.3927549e-39
0.00070380955 0.0063342676 0.73900002 8.4899713e-39
0.0021114287 0.0063342825 0.73900002 8.4842302e-39
0.003519048 0.0063342676 0.73900002 9.127436e-39
0.0049266671 0.006334275 0.73900008 9.7710076e-39
0.0063342862 0.0063342825 0.73900008 9.4104871e-39
0.0077419057 0.0063342676 0.73900008 8.9448454e-39
0.0091495235 0.0063342825 0.73900008 9.129587e-39
0.01057143 0.0063428506 0.74000007 9.3150531e-39
0.011980953 0.0063428432 0.74000007 8.8573133e-39
0.013390476 0.0063428581 0.74000007 8.3963408e-39
0.014800001 0.0063428506 0.74000001 8.3059402e-39
0.016253332 0.0063599944 0.74200004 8.1161638e-39
0.017666666 0.0063599944 0.74200004 4.4276701e-39
0.019105716 0.0063685626 0.74300009 6.5846314e-40
0.020520953 0.0063685551 0.74300009 1.301306e-39
0.021995239 0.0063856989 0.74500012 1.8505057e-39
0.023477145 0.0064028502 0.74700004 1.2047664e-39
0.024900002 0.0064028427 0.74700004 4.6648385e-40
0.026322858 0.0064028427 0.74700004 4.6930593e-39
0.027782863 0.0064114258 0.74800003 8.9422474e-39
0.029285718 0.0064285621 0.75000012 1.3283989e-38
0.03071429 0.0064285696 0.75000012 1.7600981e-38
0.03227143 0.0064542741 0.75300008 1.7602782e-38
0.033705715 0.006454289 0.75300008 1.7600998e-38
0.035233337 0.0064714104 0.75500011 1.7510966e-38
0.036720004 0.0064799935 0.75600004 1.732405e-38
0.038160004 0.0064799935 0.75600004 1.7417662e-38
-0.023665717 0.0078885704 0.75300002 1.0217988e-39
-0.022231432 0.007888563 0.75300002 1.0182115e-39
-0.020769525 0.0078780875 0.75200003 1.0160815e-39
-0.019337144 0.0078780875 0.75200003 3.6969112e-39
-0.017857144 0.0078571439 0.75000012 6.3691047e-39
-0.01638476 0.0078361928 0.74800003 7.1059369e-39
-0.014960002 0.0078361854 0.74800003 7.9371325e-39
-0.013517145 0.007825695 0.7470001 7.3839783e-39
-0.012094287 0.007825695 0.7470001 6.8383701e-39
-0.010642858 0.0078047663 0.74500006 7.6620436e-39
-0.0092238095 0.0078047588 0.74500006 8.4914245e-39
-0.0077838101 0.0077838078 0.74300009 8.122279e-39
-0.0063857147 0.0078047439 0.74500006 7.8496452e-39
-0.0049666665 0.0078047588 0.74500006 7.9382535e-39
-0.0035476196 0.0078047588 0.74500006 8.0347609e-39
-0.0021142857 0.0077523664 0.74000001 7.9393451e-39
-0.00070476194 0.0077523813 0.74000001 7.8521745e-39
0.00070380961 0.0077418908 0.73900008 7.756393e-39
0.0021142859 0.0077523813 0.74000001 7.7592657e-39
0.0035238101 0.0077523738 0.74000001 8.1212281e-39
0.0049333335 0.0077523813 0.74000001 8.4035575e-39
0.0063428581 0.0077523813 0.74000007 8.2145111e-39
0.0077523817 0.0077523813 0.74000007 8.0340477e-39
0.0091619045 0.0077523664 0.74000007 8.3952688e-39
0.01057143 0.0077523738 0.74000007 8.7636926e-39
0.011980953 0.0077523813 0.74000007 8.4881917e-39
0.013390476 0.0077523738 0.74000007 8.3038018e-39
0.014800001 0.0077523813 0.74000001 8.2133999e-39
0.016253334 0.0077733248 0.74200004 8.2141005e-39
0.017666668 0.0077733248 0.74200004 4.4308917e-39
0.019105716 0.0077838004 0.74300009 7.4742738e-40
0.02057619 0.0078047588 0.74500006 1.3002326e-39
0.022054287 0.0078256875 0.7470001 1.9423538e-39
0.023477145 0.0078257024 0.7470001 1.1118785e-39
0.024933336 0.0078361779 0.74800003 3.6963591e-40
0.0263581 0.0078361779 0.74800003 4.4222093e-39
0.027857145 0.0078571364 0.75000006 8.4881328e-39
0.029363813 0.00787808 0.75200009 1.2726607e-38
0.030837145 0.007888563 0.75300002 1.6866721e-38
0.032357145 0.0079095066 0.75500011 1.6773791e-38
0.033839997 0.0079199895 0.75600004 1.6682329e-38
0.03528 0.007919997 0.75600004 1.6681985e-38
0.03672 0.0079199895 0.75600004 1.6681278e-38
-0.023728574 0.0093475953 0.75500011 8.3669569e-40
-0.022290478 0.0093476027 0.75500011 1.2015308e-39
-0.020797146 0.0093228444 0.75300008 1.5731915e-39
-0.019337142 0.0093104616 0.75200003 3.3313545e-39
-0.01790476 0.0093104765 0.75200003 5.0791016e-39
-0.016428573 0.0092856959 0.75000012 5.8130723e-39
-0.014960002 0.009260945 0.74800003 6.5509862e-39
-0.013517145 0.0092485473 0.74700004 5.9967475e-39
-0.012094287 0.0092485622 0.7470001 5.3582262e-39
-0.010642858 0.009223789 0.74500006 6.3670028e-39
-0.0092238113 0.0092238113 0.74500012 7.290017e-39
-0.007804764 0.0092238039 0.74500012 7.4722475e-39
-0.0063857147 0.0092237964 0.74500012 7.5669543e-39
-0.0049666665 0.0092237964 0.74500012 7.9332214e-39
-0.0035476196 0.0092238113 0.74500012 8.3037962e-39
-0.0021200001 0.0091866553 0.74200004 7.7524287e-39
-0.00070666679 0.0091866627 0.74200004 7.1996221e-39
0.00070476194 0.0091619045 0.74000001 7.1070691e-39
0.0021199998 0.0091866702 0.74200004 7.0134358e-39
0.0035333335 0.0091866553 0.74200004 7.0109204e-39
0.0049466668 0.0091866627 0.74200004 7.0127197e-39
0.0063428581 0.0091619045 0.74000001 7.0094967e-39
0.0077523817 0.0091619045 0.74000007 7.0112848e-39
0.0091619045 0.0091619045 0.74000007 7.5615747e-39
0.01057143 0.0091618896 0.74000007 8.1176141e-39
0.011980953 0.0091619119 0.74000007 8.119412e-39
0.013390478 0.009161897 0.74000007 8.1197693e-39
0.014840003 0.0091866627 0.74200004 8.2126796e-39
0.016253334 0.0091866553 0.74200004 8.2076391e-39
0.017690478 0.0091990307 0.74300009 4.5180595e-39
0.019105718 0.0091990456 0.74300003 7.5029163e-40
0.020576192 0.0092237964 0.74500012 1.3934974e-39
0.021995239 0.0092238039 0.74500012 2.0349026e-39
0.023477145 0.0092485547 0.74700004 1.1140295e-39
0.024900002 0.0092485547 0.7470001 1.9027391e-40
0.0263581 0.009260945 0.74800003 4.1384632e-39
0.027857145 0.0092857108 0.75000012 8.0239345e-39
0.029285718 0.0092857033 0.75000012 1.208411e-38
0.030837145 0.0093228519 0.75300002 1.6127726e-38
0.032357141 0.0093475953 0.75500011 1.5943681e-38
0.033840001 0.009359993 0.7560001 1.5761095e-38
0.035280004 0.0093599856 0.7560001 1.5944417e-38
0.036720004 0.009359993 0.7560001 1.6036977e-38
-0.023728574 0.010785706 0.75500011 8.3741736e-40
-0.022290478 0.010785699 0.75500011 1.387001e-39
-0.020797145 0.010757133 0.75300002 1.9376623e-39
-0.019362858 0.010757133 0.75300002 3.6039813e-39
-0.017904762 0.010742843 0.75200003 5.3542479e-39
-0.016428573 0.010714285 0.75000012 6.0896606e-39
-0.014960002 0.010685705 0.74800003 6.9158143e-39
-0.013535241 0.010685712 0.74800003 6.4566298e-39
-0.012094287 0.010671414 0.74700004 5.9963958e-39
-0.010671429 0.010671414 0.74700004 6.6435686e-39
-0.0092485733 0.010671414 0.74700004 7.2882108e-39
-0.0078257155 0.0106714 0.74700004 7.3807623e-39
-0.0063857143 0.010642841 0.74500012 7.4722405e-39
-0.0049666665 0.010642841 0.74500012 7.5658696e-39
-0.0035476196 0.010642834 0.74500012 7.6577065e-39
-0.0021200001 0.010600008 0.74200004 7.0105533e-39
-0.00070666673 0.010599993 0.74200004 6.3623238e-39
0.00070666673 0.010600008 0.74200004 6.2722806e-39
0.0021200001 0.010600001 0.74200004 6.1764878e-39
0.0035333338 0.010600001 0.74200004 6.1797052e-39
0.0049466668 0.010600001 0.74200004 6.1782759e-39
0.0063428581 0.010571428 0.74000001 5.9949692e-39
0.0077523822 0.01057142 0.74000001 5.8991989e-39
0.0091619063 0.010571428 0.74000007 7.193874e-39
0.01057143 0.010571413 0.74000007 8.4842372e-39
0.011980955 0.010571435 0.74000007 8.3027214e-39
0.013426669 0.010599993 0.74200004 8.0264961e-39
0.014840001 0.010599993 0.74200004 8.0279296e-39
0.016253334 0.010599993 0.74200004 8.0286288e-39
