# .PCD v0.7 - Point Cloud Data file format
VERSION 0.7
FIELDS x y z rgb
SIZE 4 4 4 4
TYPE F F F F
COUNT 1 1 1 1
WIDTH 970
HEIGHT 1
VIEWPOINT 0 0 0 1 0 0 0
POINTS 970
DATA ascii
-0.0077838097 -0.0035380796 0.74300003 8.4067959e-40
-0.0063685635 -0.0035380796 0.74299997 1.0254268e-39
-0.0049666623 -0.0035476163 0.745 1.0254268e-39
-0.00353809 -0.003538087 0.74299997 9.3394721e-40
-0.0021200024 -0.0035333335 0.74199998 6.5700299e-40
-0.00070668024 -0.003533341 0.74200004 3.8006017e-40
0.00070666231 -0.0035333335 0.74200004 6.5628272e-40
0.0021199842 -0.003533341 0.74200004 8.4138724e-40
0.0035333128 -0.003533341 0.74200004 1.0257743e-39
0.0049466691 -0.003533341 0.74200004 1.1176014e-39
0.0063599772 -0.0035333335 0.74200004 6.5446944e-40
0.0077733337 -0.0035333335 0.74200004 1.9389206e-40
0.0091866618 -0.0035333335 0.74199998 3.5139941e-39
0.010599998 -0.003533341 0.74200004 6.8333955e-39
0.012013326 -0.003533341 0.74199998 8.9474546e-39
0.013426662 -0.0035333484 0.74200004 1.1147132e-38
0.014839991 -0.0035333335 0.74200004 8.4798862e-39
0.016275244 -0.003538087 0.74299997 5.7883352e-39
0.017690483 -0.0035381019 0.74299997 6.2704883e-39
0.019105718 -0.0035380796 0.74299997 6.7264302e-39
0.020576205 -0.0035476163 0.745 3.5989941e-39
0.021995224 -0.0035476163 0.74500006 5.6408709e-40
0.023477152 -0.0035571456 0.74699998 1.7568401e-39
0.024900012 -0.0035571456 0.74699998 2.9528245e-39
0.026252367 -0.0035476089 0.74500006 3.7803908e-39
0.028228583 -0.003619045 0.76000005 4.7005128e-39
0.029676208 -0.0036190525 0.76000005 4.9767101e-39
-0.022290483 -0.0021571517 0.75500005 2.9507184e-39
-0.020797167 -0.0021514222 0.75300002 1.5710251e-39
-0.019337155 -0.0021485761 0.75200003 1.2018811e-39
-0.017857136 -0.0021428466 0.75 7.4198193e-40
-0.016362861 -0.0021342859 0.74699998 6.5050237e-40
-0.014900016 -0.0021285638 0.74500006 4.6755725e-40
-0.013480946 -0.0021285638 0.745 4.6720832e-40
-0.01206191 -0.0021285713 0.74500006 4.6865166e-40
-0.010642875 -0.0021285713 0.74500006 5.6121163e-40
-0.0091990437 -0.0021228567 0.74300003 5.6337803e-40
-0.0077837976 -0.0021228567 0.74299997 9.3288503e-40
-0.00636857 -0.0021228492 0.74300003 1.2087474e-39
-0.0049666641 -0.0021285713 0.74500006 1.1172679e-39
-0.0035476286 -0.0021285713 0.74500006 9.3323395e-40
-0.0021200201 -0.0021200106 0.74200004 7.4920002e-40
-0.00070667744 -0.0021200031 0.74200004 4.7297186e-40
0.00070664461 -0.002120018 0.74200004 6.5592259e-40
0.0021228844 -0.0021228418 0.74299997 7.4919161e-40
0.0035333287 -0.0021199957 0.74199998 8.4174457e-40
0.0049466654 -0.0021200106 0.74200004 9.3357727e-40
0.0063599939 -0.0021200031 0.74200004 5.6551642e-40
0.0077733011 -0.0021200106 0.74200004 1.002559e-40
0.0091866581 -0.0021200106 0.74200004 9.4172862e-41
0.010599987 -0.0021199957 0.74199998 1.0857261e-40
0.012013323 -0.0021200031 0.74200004 4.3276763e-39
0.01342665 -0.0021200106 0.74200004 8.4882281e-39
0.01485999 -0.0021228492 0.74300003 9.7846618e-39
0.016275249 -0.0021228492 0.74299997 1.0967744e-38
0.017738083 -0.0021285787 0.74500006 8.488528e-39
0.019157132 -0.0021285787 0.74500006 5.9059994e-39
0.020631433 -0.0021342933 0.74699998 3.4117204e-39
0.022054292 -0.0021342933 0.74699998 8.3815164e-40
0.023477122 -0.0021342859 0.74699998 1.6635725e-39
0.024933353 -0.002137132 0.74800003 2.4932897e-39
0.026358116 -0.0021371394 0.74800003 3.5034508e-39
0.028265733 -0.002174288 0.76099998 4.5172075e-39
0.029715236 -0.002174288 0.76099998 4.8859648e-39
0.031164765 -0.002174288 0.76099998 5.1611182e-39
-0.022290489 -0.00071904808 0.75500005 3.0468559e-39
-0.020797178 -0.00071714818 0.75300002 1.5713825e-39
-0.01933714 -0.00071618706 0.75199997 1.1107616e-39
-0.017857149 -0.00071427971 0.75 7.427008e-40
-0.016384769 -0.00071238726 0.74800003 5.5938714e-40
-0.014940009 -0.00071141869 0.74699998 4.6863625e-40
-0.013517152 -0.00071142614 0.74700004 3.7573156e-40
-0.012061913 -0.00070952624 0.74500006 3.7645743e-40
-0.010642855 -0.00070951134 0.745 4.6937753e-40
-0.0092238057 -0.00070951879 0.74500006 6.5450167e-40
-0.0078047719 -0.00070952624 0.74500006 8.3998454e-40
-0.0063685579 -0.00070761889 0.74299997 1.0243674e-39
-0.004966679 -0.00070952624 0.74500006 9.3252489e-40
-0.0035380844 -0.00070760399 0.74299997 8.3996633e-40
-0.0021228588 -0.00070761889 0.74300003 7.4884269e-40
-0.0007066821 -0.00070667267 0.74200004 5.6516749e-40
0.00070763554 -0.00070761144 0.74299997 7.4847415e-40
0.0021228611 -0.00070761144 0.74299997 8.4138584e-40
0.003533324 -0.00070667267 0.74200004 9.3321994e-40
0.0049466519 -0.00070666522 0.74200004 1.0254184e-39
0.0063599884 -0.00070666522 0.74200004 5.6265777e-40
0.0077733169 -0.00070666522 0.74200004 9.7737765e-41
0.009186673 -0.00070666522 0.74200004 2.7641915e-39
0.010599981 -0.00070667267 0.74200004 5.4335726e-39
0.012013338 -0.00070667267 0.74200004 8.670467e-39
0.013426665 -0.00070667267 0.74199998 1.1815133e-38
0.014860016 -0.00070760399 0.74299997 1.2451543e-38
0.016275227 -0.00070761889 0.74300003 1.3104744e-38
0.017738082 -0.00070952624 0.74500006 1.1716041e-38
0.019157153 -0.00070951134 0.745 1.0231586e-38
0.020631425 -0.00071141869 0.74699998 5.3481411e-39
0.022083808 -0.00071238726 0.74800003 5.5976829e-40
0.02350859 -0.00071237981 0.74799997 1.7561269e-39
0.024933353 -0.00071237981 0.74799997 3.0475327e-39
0.02649904 -0.00071619451 0.75200003 3.6899916e-39
0.028154287 -0.00072188675 0.75799996 4.3353386e-39
0.029598104 -0.0007218942 0.75799996 4.5179194e-39
-0.022290478 0.00071905553 0.755 3.0461398e-39
-0.020797174 0.00071714818 0.75300002 1.4799043e-39
-0.019337147 0.00071618706 0.75199997 1.1100414e-39
-0.017904753 0.00071618706 0.75199997 7.4234066e-40
-0.016384754 0.00071238726 0.74800003 5.5867107e-40
-0.014940006 0.00071142614 0.74699998 3.7500849e-40
-0.013517146 0.00071142614 0.74699998 2.8282127e-40
-0.012061913 0.00070951879 0.74500006 1.9171164e-40
-0.010642858 0.00070952624 0.745 4.6830274e-40
-0.0092238216 0.00070951879 0.74500006 6.5413733e-40
-0.0077837929 0.00070762634 0.74299997 7.477791e-40
-0.0063685672 0.00070761889 0.74299997 8.4032786e-40
-0.0049533211 0.00070762634 0.74299997 8.4032366e-40
-0.0035380938 0.00070763379 0.74300003 7.4848396e-40
-0.0021200229 0.00070665777 0.74200004 7.4955735e-40
-0.00070668024 0.00070666522 0.74200004 6.5592399e-40
0.00070666231 0.00070665777 0.74199998 8.3887331e-40
0.0021228872 0.00070763379 0.74299997 9.3214374e-40
0.0035333398 0.00070667267 0.74200004 1.024338e-39
0.0049466481 0.00070665777 0.74200004 1.0239778e-39
0.0063599767 0.00070666522 0.74200004 5.6192909e-40
0.0077733337 0.00070665777 0.74199998 1.002587e-40
0.0091866413 0.00070665777 0.74200004 5.4313992e-39
0.010599997 0.00070665032 0.74200004 1.0784438e-38
0.012013305 0.00070666522 0.74200004 1.3013992e-38
0.013426661 0.00070665777 0.74200004 1.5110405e-38
0.014859994 0.00070763379 0.74299997 1.5193252e-38
0.016275253 0.00070763379 0.74299997 1.5205467e-38
0.01773808 0.00070952624 0.74500006 1.4946841e-38
0.019208563 0.00071142614 0.74700004 1.4557573e-38
0.020631444 0.00071143359 0.74699998 7.3724778e-39
0.022083808 0.00071238726 0.74800003 1.9457309e-40
0.023508571 0.00071237981 0.74800003 1.9369098e-39
0.025000013 0.00071428716 0.75 3.5935038e-39
0.026499053 0.00071619451 0.75199997 3.8732842e-39
0.027931415 0.00071617961 0.75200003 4.0555063e-39
0.029519994 0.00071999431 0.75599998 4.1473278e-39
-0.022290468 0.0021571517 0.755 3.1390529e-39
-0.020797152 0.0021514297 0.75299996 1.5699447e-39
-0.019362886 0.0021514222 0.75300002 1.1100372e-39
-0.017904758 0.0021485686 0.75199997 7.4198193e-40
-0.016428582 0.002142854 0.75 5.5831374e-40
-0.01495999 0.0021371394 0.74800003 4.6541046e-40
-0.013517155 0.0021342784 0.74699998 3.7429943e-40
-0.012094296 0.0021342933 0.74700004 3.7430784e-40
-0.010642859 0.0021285787 0.74500006 5.6049696e-40
-0.0092238253 0.0021285713 0.74500006 7.4632596e-40
-0.0077838022 0.0021228641 0.74299997 7.4776649e-40
-0.0063685533 0.0021228641 0.74299997 8.4031805e-40
-0.0049533276 0.0021228641 0.74300003 8.4067538e-40
-0.0035380807 0.0021228641 0.74299997 9.3143328e-40
-0.0021200061 0.0021199882 0.74200004 9.3143048e-40
-0.00070666347 0.0021200106 0.74199998 9.2927528e-40
0.00070665765 0.0021199957 0.74200004 9.3070741e-40
0.0021200001 0.0021199957 0.74200004 9.3142627e-40
0.0035333082 0.0021199882 0.74200004 1.1161735e-39
0.0049466649 0.0021199882 0.74200004 1.3005549e-39
0.0063599925 0.0021199882 0.74199998 1.201179e-39
0.0077733286 0.0021199957 0.74200004 1.0136026e-39
0.0091866581 0.0021200031 0.74200004 7.0170287e-39
0.010599993 0.0021199957 0.74200004 1.3106167e-38
0.012013321 0.0021199957 0.74200004 1.3270479e-38
0.013426677 0.0021199957 0.74200004 1.3440102e-38
0.01486002 0.0021228641 0.74299997 1.3619768e-38
0.016275231 0.0021228716 0.74299997 1.3903972e-38
0.017785696 0.0021342933 0.74699998 1.4108179e-38
0.019208554 0.0021342784 0.74699998 1.4383261e-38
0.020659074 0.0021371394 0.74799997 7.3753575e-39
0.02208381 0.0021371394 0.74799997 3.6855411e-40
0.023508571 0.0021371469 0.74800003 1.4734079e-39
0.025000013 0.0021428615 0.75 2.668672e-39
0.026499046 0.0021485686 0.75199997 4.8805838e-39
0.027931426 0.0021485686 0.75199997 7.0806757e-39
0.029363789 0.0021485612 0.75200003 7.2707898e-39
-0.022320015 0.0035999939 0.75599998 3.1354684e-39
-0.020852383 0.0035952479 0.755 1.570665e-39
-0.019362882 0.0035857186 0.75300002 1.201158e-39
-0.017904766 0.0035809427 0.75199997 7.4198333e-40
-0.01642856 0.0035714433 0.75 6.508667e-40
-0.014959988 0.0035619065 0.74799997 4.6648525e-40
-0.013535225 0.0035618991 0.74800003 4.6613353e-40
-0.012094293 0.0035571381 0.74699998 4.6757686e-40
-0.010642862 0.0035476163 0.74500006 6.5233386e-40
-0.0092238253 0.0035476163 0.74500006 7.4632736e-40
-0.007804771 0.0035476163 0.745 7.4812663e-40
-0.0063685616 0.0035381019 0.74299997 7.4884129e-40
-0.0049666641 0.0035476312 0.745 9.3358427e-40
-0.0035380882 0.0035381019 0.74299997 1.1154616e-39
-0.0021200043 0.0035333335 0.74199998 1.1147441e-39
-0.0007066821 0.0035333335 0.74200004 1.1136665e-39
0.00070666044 0.0035333335 0.74200004 1.0225471e-39
0.0021199684 0.0035333261 0.74200004 9.3106894e-40
0.003533324 0.003533341 0.74200004 1.2994857e-39
0.0049466528 0.0035333335 0.74199998 1.5717552e-39
0.0063599888 0.0035333335 0.74200004 1.7453747e-39
0.0077733174 0.0035333261 0.74200004 1.9520634e-39
0.0091866534 0.0035333261 0.74200004 8.7009564e-39
0.010599981 0.0035333261 0.74200004 1.5297286e-38
0.012029525 0.0035381019 0.74299997 1.3520801e-38
0.013444786 0.0035381019 0.74299997 1.1683724e-38
0.014859999 0.0035380945 0.74299997 1.2126033e-38
0.016362855 0.003557153 0.74699998 1.2622588e-38
0.017785715 0.0035571456 0.74699998 1.3381377e-38
0.019208573 0.0035571381 0.74699998 1.4101297e-38
0.020659056 0.0035619065 0.74800003 7.3768009e-39
0.022083838 0.0035619065 0.74799997 5.6227101e-40
0.023571417 0.0035714284 0.75 1.1035492e-39
0.024999987 0.0035714284 0.75 1.6649486e-39
0.02649904 0.0035809502 0.75199997 5.8990518e-39
0.027931422 0.0035809577 0.75199997 1.0039541e-38
0.029363804 0.0035809502 0.75199997 1.0316843e-38
-0.026780937 0.005066663 0.75999999 5.9059588e-39
-0.025333323 0.005066663 0.76000005 5.4474987e-39
-0.023728557 0.0050333515 0.755 4.8957697e-39
-0.022290481 0.005033344 0.75500005 3.2298164e-39
-0.02079716 0.0050200075 0.75299996 1.6610684e-39
-0.019337153 0.0050133243 0.75200003 1.1089666e-39
-0.017904773 0.0050133318 0.75200003 5.5795501e-40
-0.016428575 0.0050000027 0.75 5.5831374e-40
-0.014959988 0.004986681 0.74799997 4.6684398e-40
-0.013535225 0.004986681 0.74799997 4.6684959e-40
-0.012094287 0.0049799979 0.74699998 4.6865306e-40
-0.010642862 0.0049666688 0.74500006 5.608571e-40
-0.0092238076 0.0049666762 0.745 6.5413453e-40
-0.007804771 0.0049666613 0.74500006 6.5557507e-40
-0.0063685626 0.0049533471 0.74299997 7.4848115e-40
-0.0049533369 0.0049533397 0.74299997 8.4031104e-40
-0.003538077 0.0049533397 0.74299997 1.0229086e-39
-0.002120008 0.0049466565 0.74200004 1.0221926e-39
-0.00070666533 0.0049466491 0.74200004 1.0211164e-39
0.00070665672 0.004946664 0.74200004 9.2963962e-40
0.0021199842 0.004946664 0.74200004 9.3035428e-40
0.0035380821 0.0049533471 0.74300003 1.2984095e-39
0.0049466491 0.0049466565 0.74200004 1.6661018e-39
0.0063600056 0.0049466565 0.74200004 1.662146e-39
0.0077733127 0.0049466491 0.74200004 1.766617e-39
0.0091866693 0.0049466565 0.74200004 8.6859275e-39
0.01061429 0.0049533546 0.74299997 1.566748e-38
0.012029552 0.0049533546 0.74299997 1.3714801e-38
0.013444764 0.0049533397 0.74299997 1.1872393e-38
0.014900004 0.0049666688 0.74500006 1.1972522e-38
0.016362876 0.0049799979 0.74699998 1.2180638e-38
0.017785706 0.0049799979 0.74699998 1.2270732e-38
0.019234292 0.0049866587 0.74800003 1.2447539e-38
0.020659056 0.0049866736 0.74800003 6.3637489e-39
0.022142863 0.0050000027 0.75 3.7931888e-40
0.023571435 0.0050000027 0.75 2.3042195e-39
0.025000008 0.0050000101 0.75 4.3353624e-39
0.026499033 0.0050133318 0.75200003 9.0376268e-39
0.027931415 0.0050133243 0.75199997 1.373883e-38
0.029402835 0.0050199926 0.75300002 1.3826735e-38
-0.028265713 0.0065228492 0.76099998 5.7215745e-39
-0.026780939 0.006514281 0.75999999 6.4569843e-39
-0.025333326 0.0065142885 0.76000005 5.8155792e-39
-0.023760024 0.0064799935 0.75600004 5.0762247e-39
-0.022231441 0.0064542964 0.75300002 3.4102644e-39
-0.020769522 0.0064457059 0.75199997 1.6614313e-39
-0.019337161 0.0064457059 0.75200003 1.0153416e-39
-0.017904779 0.0064457133 0.75200003 3.7321062e-40
-0.016428567 0.0064285845 0.75 4.6576358e-40
-0.014959993 0.0064114183 0.74800003 4.6612792e-40
-0.013535243 0.0064114332 0.74800003 4.6577479e-40
-0.012094297 0.0064028651 0.74699998 3.7574277e-40
-0.010671438 0.0064028651 0.74699998 4.6758948e-40
-0.0092238076 0.0063857138 0.745 5.6158157e-40
-0.0078047737 0.0063857213 0.74500006 6.5449747e-40
-0.0063857017 0.0063857213 0.745 6.5592959e-40
-0.0049666669 0.0063857138 0.74500006 8.3959778e-40
-0.0035380984 0.0063685775 0.74299997 9.3071582e-40
-0.0021200052 0.0063600019 0.74200004 9.2928229e-40
-0.00070668396 0.0063599944 0.74200004 8.3744539e-40
0.00070763554 0.0063685775 0.74299997 9.2856202e-40
0.002122849 0.00636857 0.74299997 9.2998994e-40
0.0035381091 0.0063685849 0.74299997 1.298041e-39
0.0049533225 0.0063685775 0.74300003 1.6632278e-39
0.0063685831 0.0063685775 0.74299997 1.5624226e-39
0.0077838232 0.0063685775 0.74300003 1.4986481e-39
0.0091990558 0.00636857 0.74299997 8.7921179e-39
0.010614317 0.0063685775 0.74299997 1.5937266e-38
0.01202953 0.0063685849 0.74299997 1.3981733e-38
0.013444791 0.0063685849 0.74299997 1.2063267e-38
0.014900004 0.0063857064 0.74500006 1.189398e-38
0.016362866 0.0064028651 0.74699998 1.1619937e-38
0.017785724 0.0064028651 0.74699998 1.1165092e-38
0.019234292 0.0064114332 0.74799997 1.0694759e-38
0.020659056 0.0064114258 0.74799997 5.4349893e-39
0.022083819 0.0064114258 0.74800003 1.0166e-40
0.023571437 0.006428577 0.75000006 3.4901917e-39
0.02500001 0.0064285696 0.75000006 6.9132443e-39
0.026428554 0.0064285696 0.75 1.2176596e-38
0.027931435 0.0064457133 0.75200003 1.7323328e-38
0.029363817 0.0064457133 0.75200003 1.7326557e-38
0.030919034 0.0064714253 0.75500005 1.7324764e-38
0.032357156 0.0064714402 0.75500005 1.7326561e-38
-0.028340008 0.007993333 0.76300001 5.3535193e-39
-0.026780939 0.0079619214 0.76000005 5.997102e-39
-0.025333328 0.0079619139 0.76000005 5.9074343e-39
-0.023760017 0.007919997 0.75600004 5.7244668e-39
-0.022320002 0.0079200044 0.75599998 3.4142161e-39
-0.020769529 0.0078780949 0.75199997 1.1097065e-39
-0.019337146 0.0078781024 0.75199997 8.3275104e-40
-0.017904771 0.0078780875 0.75200003 6.4800245e-40
-0.016428566 0.0078571513 0.75 5.5724175e-40
-0.014959992 0.0078361928 0.74800003 4.6541186e-40
-0.013535228 0.0078361928 0.74800003 4.6613493e-40
-0.012094292 0.0078257173 0.74699998 4.6758107e-40
-0.010671434 0.0078257099 0.74699998 5.6014384e-40
-0.0092238104 0.0078047663 0.74500006 5.619403e-40
-0.0078047737 0.0078047588 0.74500006 6.548534e-40
-0.0063857175 0.0078047588 0.745 6.5664846e-40
-0.0049666679 0.0078047588 0.74500006 8.3960199e-40
-0.0035476333 0.0078047588 0.74500006 1.0229128e-39
-0.0021200108 0.0077733248 0.74200004 9.2999975e-40
-0.0007066821 0.0077733248 0.74200004 9.2928089e-40
0.00070762809 0.0077838153 0.74299997 9.2999555e-40
0.0021228751 0.0077838153 0.74299997 1.0225373e-39
0.0035380877 0.0077838153 0.74299997 1.2983899e-39
0.0049533481 0.0077838153 0.74299997 1.5746181e-39
0.0063685612 0.0077838227 0.74299997 1.2051279e-39
0.0077838218 0.0077838227 0.74299997 8.5329267e-40
0.0091990354 0.0077838153 0.74299997 8.040219e-39
0.010614295 0.0077838153 0.74299997 1.520619e-38
0.012029556 0.0077838153 0.74299997 1.3265379e-38
0.013444769 0.0077838153 0.74299997 1.1422599e-38
0.014900002 0.0078047588 0.74500006 1.1053131e-38
0.016384775 0.0078361854 0.74800003 1.0689023e-38
0.01780951 0.0078362003 0.74800003 1.1712132e-38
0.019234294 0.0078362077 0.74799997 1.2720507e-38
0.020714287 0.0078571588 0.75 8.8483254e-39
0.022201896 0.0078780875 0.75199997 5.0604181e-39
0.023571432 0.0078571439 0.75 5.8872444e-39
0.025066659 0.0078780875 0.75199997 6.6402812e-39
0.026499048 0.0078780875 0.75200003 1.1619902e-38
0.027968528 0.007888563 0.75300002 1.6591557e-38
0.029402843 0.0078885555 0.75300002 1.6589388e-38
0.030919056 0.0079095364 0.75500005 1.6497567e-38
-0.028265707 0.0094218999 0.76099998 4.8932614e-39
-0.026780941 0.009409532 0.76000005 5.5386322e-39
-0.02533333 0.0094095245 0.76000005 6.0006893e-39
-0.023760011 0.009359993 0.75599998 6.3637195e-39
-0.022320019 0.0093599856 0.75600004 3.4127797e-39
-0.020797161 0.0093228593 0.75299996 4.6829293e-40
-0.019362882 0.0093228593 0.75300002 6.4908285e-40
-0.017904758 0.0093104765 0.75199997 8.3275104e-40
-0.01642856 0.0092857182 0.75 6.4907724e-40
-0.014999986 0.0092857182 0.75 3.7357776e-40
-0.013535228 0.0092609525 0.74800003 4.6542027e-40
-0.012094287 0.0092485845 0.74699998 5.5905643e-40
-0.010671429 0.0092485771 0.74699998 5.6014104e-40
-0.0092485845 0.0092485622 0.74699998 5.619375e-40
-0.0078047775 0.0092238113 0.74500006 6.5449326e-40
-0.0063857203 0.0092238188 0.74500006 6.5557507e-40
-0.0049666716 0.0092238039 0.74500006 8.3889293e-40
-0.0035476156 0.0092238113 0.745 1.0225583e-39
-0.0021228476 0.009199068 0.74299997 1.0225527e-39
-0.00070762087 0.009199053 0.74299997 1.0218324e-39
0.00070763926 0.0091990605 0.74299997 1.0225471e-39
0.0021228518 0.009199053 0.74299997 1.0228988e-39
0.0035381129 0.0091990605 0.74299997 1.298757e-39
0.0049533257 0.009199053 0.74299997 1.4806344e-39
0.0063685868 0.009199053 0.74299997 8.3061266e-40
0.007783799 0.0091990605 0.74299997 1.153689e-40
0.0092238085 0.0092238113 0.74500006 7.3083825e-39
0.010642858 0.0092238039 0.74500006 1.4381848e-38
0.0120619 0.0092238113 0.745 1.2634802e-38
0.013480949 0.0092238039 0.74500006 1.078373e-38
0.014900018 0.0092238113 0.745 1.029907e-38
0.016384777 0.0092609525 0.74800003 9.7774788e-39
0.017809538 0.0092609525 0.74800003 1.2273903e-38
0.019234274 0.0092609525 0.74800003 1.4654097e-38
0.020714287 0.0092857182 0.75 1.2360723e-38
0.022201888 0.0093104765 0.75200003 1.0037149e-38
0.023634272 0.009310469 0.75199997 8.1738286e-39
0.025066681 0.0093104839 0.75199997 6.3651474e-39
0.026534267 0.0093228668 0.75300002 1.1163241e-38
0.028042855 0.0093476325 0.755 1.5851497e-38
0.029480956 0.0093476176 0.75500005 1.5757849e-38
-0.031123811 0.010857135 0.76000005 2.8638939e-39
-0.029676201 0.010857128 0.76000005 4.2478906e-39
-0.02826572 0.010871425 0.76099998 4.8014217e-39
-0.026780942 0.010857143 0.76000005 5.3549514e-39
-0.025266677 0.01082857 0.75800002 5.5400615e-39
-0.023760026 0.010799989 0.75600004 5.6326145e-39
-0.022320013 0.010799989 0.75599998 3.3223764e-39
-0.020852383 0.010785721 0.755 1.0171535e-39
-0.019362891 0.010757133 0.75300002 8.3383284e-40
-0.017904766 0.010742858 0.75199997 6.5051638e-40
-0.016428573 0.0107143 0.75 5.5795921e-40
-0.015 0.010714293 0.75 4.6577339e-40
-0.013535227 0.010685727 0.74799997 4.6614053e-40
-0.012110464 0.010685727 0.74799997 5.5941516e-40
-0.010671439 0.010671444 0.74699998 5.608543e-40
-0.0092485789 0.010671437 0.74699998 6.5412893e-40
-0.0078047579 0.010642864 0.745 6.5484919e-40
-0.0063857213 0.010642849 0.74500006 6.5557787e-40
-0.0049666865 0.010642856 0.74500006 7.4742317e-40
-0.0035476175 0.010642864 0.74500006 8.3889153e-40
-0.002122856 0.010614291 0.74299997 9.3035848e-40
-0.00070760876 0.010614306 0.74299997 9.2927808e-40
0.00070761784 0.010614298 0.74299997 9.3035008e-40
0.0021228788 0.010614298 0.74299997 8.3923064e-40
0.0035380914 0.010614298 0.74299997 1.023975e-39
0.0049666655 0.010642856 0.74500006 1.2076446e-39
0.0063685644 0.010614291 0.74299997 6.5268279e-40
0.0078047579 0.010642856 0.745 1.0136853e-40
0.0092238067 0.010642849 0.74500006 5.2707586e-39
0.010642849 0.010642856 0.745 1.0438687e-38
0.012061899 0.010642849 0.74500006 1.10769e-38
0.013480947 0.010642856 0.74500006 1.1809021e-38
0.014899991 0.010642864 0.745 1.1527004e-38
0.016384777 0.010685734 0.74799997 1.1266213e-38
0.01780954 0.010685727 0.74799997 1.153491e-38
0.019285735 0.0107143 0.75 1.1801479e-38
0.020714309 0.0107143 0.75 9.3194391e-39
0.022201883 0.010742851 0.75200003 6.8398037e-39
0.023634292 0.010742858 0.75200003 6.4494257e-39
0.025099983 0.010757141 0.75300002 6.0957534e-39
0.026604755 0.010785721 0.755 1.1069257e-38
0.028042857 0.010785714 0.75500005 1.6127365e-38
0.029480953 0.010785721 0.755 1.5942598e-38
-0.031123813 0.012304753 0.76000005 3.0479237e-39
-0.029676203 0.012304761 0.76000005 4.1542656e-39
-0.028265711 0.012320936 0.76099998 4.7092358e-39
-0.026780944 0.012304768 0.76000005 5.1712818e-39
-0.025333332 0.012304761 0.76000005 5.0805211e-39
-0.023760021 0.012239985 0.75599998 4.8925453e-39
-0.022320027 0.012239993 0.75600004 3.2265934e-39
-0.020852374 0.012223817 0.755 1.4781233e-39
-0.019362889 0.012191422 0.75300002 1.0178612e-39
-0.017904771 0.012175232 0.75199997 4.6648665e-40
-0.016428584 0.012142859 0.75 4.6648245e-40
-0.015000011 0.012142852 0.75 4.6613072e-40
-0.013535233 0.012110479 0.74800003 4.657776e-40
-0.012094278 0.012094297 0.74699998 4.679356e-40
-0.010671433 0.012094289 0.74699998 5.6193049e-40
-0.0092485752 0.012094289 0.74699998 6.5412752e-40
-0.0078047598 0.012061909 0.74500006 6.5449046e-40
-0.0063857241 0.012061901 0.74500006 5.6373817e-40
-0.0049666669 0.012061909 0.745 6.5629814e-40
-0.0035476184 0.012061901 0.74500006 6.5557507e-40
-0.0021228429 0.012029536 0.74299997 7.4704763e-40
-0.00070761715 0.012029529 0.74299997 8.3816005e-40
0.00070952333 0.012061909 0.74500006 7.4703642e-40
0.002128544 0.012061901 0.74500006 6.5627151e-40
0.0035476142 0.012061901 0.745 8.4137183e-40
0.0049666646 0.012061901 0.74500006 9.3213533e-40
0.0063857059 0.012061901 0.745 5.6228782e-40
0.0078047561 0.012061894 0.74500006 1.0421317e-40
0.0092485799 0.012094289 0.74699998 3.3263757e-39
0.010642847 0.012061909 0.745 6.4681975e-39
0.012061897 0.012061901 0.74500006 9.607867e-39
0.013480946 0.012061894 0.74500006 1.2725582e-38
0.014899989 0.012061901 0.745 1.2733089e-38
0.016362865 0.012094289 0.74699998 1.2725551e-38
0.017809542 0.012110494 0.74799997 1.0889556e-38
0.019285709 0.012142867 0.75 8.9423511e-39
0.020769514 0.012175232 0.75199997 6.2748113e-39
0.022231407 0.01219143 0.75299996 3.6018513e-39
0.023665702 0.012191415 0.75300002 4.6880482e-39
0.025166685 0.012223817 0.755 5.7262604e-39
0.026604779 0.012223817 0.755 1.1073926e-38
0.028079983 0.012239993 0.75600004 1.6310322e-38
0.02951999 0.012239993 0.75600004 1.6126991e-38
0.031123836 0.012304768 0.75999999 1.5850771e-38
-0.028265717 0.013770476 0.76099998 5.3531675e-39
-0.026780946 0.013752386 0.76000005 6.0914318e-39
-0.025333334 0.013752379 0.76000005 5.6322459e-39
-0.02382287 0.013716191 0.75800002 5.1716363e-39
-0.022320021 0.013679989 0.75600004 3.4142091e-39
-0.020852383 0.013661899 0.75500005 1.6610754e-39
-0.019362886 0.013625704 0.75300002 1.1089778e-39
-0.017904764 0.013607629 0.75200003 5.5688582e-40
-0.016472384 0.013607621 0.75200003 4.6612372e-40
-0.014999991 0.013571441 0.75 4.6612792e-40
-0.013535232 0.013535246 0.74800003 4.6649086e-40
-0.012110468 0.013535239 0.74800003 4.6829293e-40
-0.010671427 0.013517149 0.74699998 4.6973486e-40
-0.0092485696 0.013517141 0.74699998 5.6265076e-40
-0.0078257248 0.013517141 0.74699998 5.6337103e-40
-0.0063857241 0.013480946 0.74500006 6.5592819e-40
-0.0049666697 0.013480961 0.745 6.5629113e-40
-0.0035476203 0.013480954 0.74500006 6.55931e-40
-0.0021285836 0.013480946 0.74500006 8.3852439e-40
-0.00070952822 0.013480946 0.74500006 1.1129477e-39
0.00070952147 0.013480946 0.74500006 9.3034587e-40
0.0021285636 0.013480946 0.745 7.481014e-40
0.0035476123 0.013480961 0.74500006 8.4100329e-40
0.0049800016 0.013517149 0.74699998 9.3321013e-40
0.006385705 0.013480954 0.745 7.4668189e-40
0.0078047542 0.013480954 0.74500006 4.6722654e-40
0.0092485705 0.013517141 0.74699998 1.8504959e-39
0.010642846 0.013480946 0.745 3.3260211e-39
0.012061895 0.013480954 0.74500006 6.6457883e-39
0.013480965 0.013480954 0.745 1.0048005e-38
0.014899988 0.013480954 0.74500006 9.4090998e-39
0.016362855 0.013517141 0.74699998 8.7587039e-39
0.017857157 0.013571441 0.75 7.283941e-39
0.019285731 0.013571434 0.75 5.8852027e-39
0.020769536 0.013607621 0.75199997 3.8672909e-39
0.022231411 0.013625726 0.75299996 1.839364e-39
0.023665678 0.013625711 0.75300002 3.8694181e-39
0.025166679 0.013661914 0.755 6.0060731e-39
0.026639991 0.013679989 0.75600004 1.0058718e-38
0.02807999 0.013679989 0.75599998 1.4106992e-38
0.029519998 0.013679996 0.75600004 1.3644924e-38
0.031164756 0.013770476 0.76099998 1.3279017e-38
-0.026780946 0.015200004 0.76000005 7.009777e-39
-0.025333336 0.015199997 0.76000005 6.1850456e-39
-0.023822846 0.015160017 0.75799996 5.3535094e-39
-0.022379056 0.015160009 0.75799996 3.5968039e-39
-0.020880021 0.015119985 0.75600004 1.7539829e-39
-0.01941428 0.01510001 0.755 1.2000874e-39
-0.017904771 0.015039995 0.75200003 6.4907444e-40
-0.016472388 0.015040003 0.75200003 5.5795501e-40
-0.015000003 0.015000001 0.75 3.7428402e-40
-0.013571431 0.015000001 0.75 3.7356795e-40
-0.012142858 0.015000001 0.75 3.7573436e-40
-0.010714286 0.015000008 0.75 3.7790217e-40
-0.0092857145 0.015000015 0.75 3.7898397e-40
-0.0078257201 0.014940009 0.74699998 5.6337803e-40
-0.0064028623 0.014940001 0.74699998 6.55931e-40
-0.0049800174 0.014940001 0.74700004 6.5664846e-40
-0.0035618956 0.014960013 0.74799997 5.6373817e-40
-0.002128565 0.014900014 0.745 1.0218423e-39
-0.00070952915 0.014900006 0.74500006 1.3884598e-39
0.00071142323 0.014940001 0.74700004 1.1125875e-39
0.0021343024 0.014940009 0.74699998 7.4667348e-40
0.0035571333 0.014940001 0.74699998 8.4065576e-40
0.0049799918 0.014940001 0.74699998 9.3249827e-40
0.0064028506 0.014940001 0.74699998 9.3214794e-40
0.0078257089 0.014939994 0.74700004 8.3528319e-40
0.0092485882 0.014940009 0.74699998 4.6614053e-40
0.010671419 0.014940009 0.74699998 1.0818024e-40
0.012094278 0.014940001 0.74699998 3.693408e-39
0.013517137 0.014940001 0.74700004 7.2929093e-39
0.014899986 0.014899999 0.74500006 6.0043243e-39
0.016362844 0.014940009 0.74699998 4.7161162e-39
0.017785704 0.014940016 0.74699998 3.785207e-39
0.019285703 0.015000008 0.75 2.8636011e-39
0.020769529 0.015040003 0.75200003 1.4699032e-39
0.022231415 0.01506 0.75299996 9.4147639e-41
0.023665681 0.015059993 0.75300002 3.1272133e-39
0.025166655 0.015099995 0.75500005 6.1832995e-39
0.026639994 0.01512 0.75599998 9.0471052e-39
0.028079975 0.015119992 0.75600004 1.1804306e-38
0.029520001 0.015119992 0.75599998 1.1250407e-38
0.031246692 0.015260011 0.76299995 1.0700471e-38
-0.029793324 0.016713336 0.76299995 3.7901466e-39
-0.028340001 0.016713329 0.76299995 4.4326392e-39
-0.026886662 0.016713344 0.76299995 5.0797882e-39
-0.025366668 0.016669519 0.76099998 4.6191716e-39
-0.023885727 0.016647622 0.76000005 4.16395e-39
-0.022438101 0.016647615 0.76000005 2.7717179e-39
-0.020935228 0.01660382 0.75799996 1.475961e-39
-0.019440021 0.016559988 0.75600004 1.016408e-39
-0.017928606 0.016494289 0.75300002 5.5723194e-40
-0.016472396 0.016472377 0.75200003 4.6647404e-40
-0.014999996 0.01642859 0.75 4.6682997e-40
-0.013571423 0.01642859 0.75 4.6646704e-40
-0.012142852 0.016428582 0.75 4.6720692e-40
-0.010714279 0.016428582 0.75 5.608571e-40
-0.009285707 0.016428582 0.75 7.4704763e-40
-0.0078571346 0.016428575 0.75 7.4741336e-40
-0.0064285621 0.01642859 0.75 7.4776929e-40
-0.0049866652 0.016384758 0.74800003 5.640941e-40
-0.0035618946 0.016384766 0.74799997 4.7154674e-40
-0.0021342898 0.016362868 0.74699998 7.4633997e-40
-0.00071143091 0.016362868 0.74699998 1.0211234e-39
0.00071141392 0.016362861 0.74699998 9.2856342e-40
0.0021342726 0.016362853 0.74700004 8.3636499e-40
0.0035619072 0.016384766 0.74800003 9.3070741e-40
0.0049800109 0.016362853 0.74699998 1.0239806e-39
0.0064028418 0.016362868 0.74699998 7.4488963e-40
0.0078257006 0.016362861 0.74699998 4.6506714e-40
0.0092609525 0.01638478 0.74799997 2.8581598e-39
0.010685715 0.016384773 0.74800003 5.3442286e-39
0.01209427 0.016362861 0.74699998 8.0297527e-39
0.013517127 0.016362853 0.74699998 1.0711958e-38
0.014939986 0.016362868 0.74700004 9.5076573e-39
0.016362865 0.016362868 0.74699998 8.3062793e-39
0.017809523 0.016384773 0.74799997 7.8438887e-39
0.019234287 0.016384773 0.74800003 7.4772599e-39
0.020714296 0.01642859 0.75 3.780877e-39
0.022231419 0.016494296 0.75300002 9.3086856e-41
0.023665683 0.016494289 0.75300002 3.2255172e-39
0.025166679 0.016538106 0.75500005 6.3687768e-39
0.026639983 0.016559981 0.75600004 8.9509775e-39
0.028079981 0.016560003 0.75599998 1.1527024e-38
0.029598091 0.01660382 0.75799996 1.0973487e-38
0.031164773 0.016669527 0.76099998 1.051467e-38
-0.029793344 0.018166676 0.76300001 2.6805845e-39
-0.028340006 0.018166676 0.76300001 2.9525078e-39
-0.026886681 0.018166669 0.76300001 3.1408424e-39
-0.025366673 0.018119052 0.76099998 3.0475719e-39
-0.023885727 0.01809524 0.76000005 2.9575301e-39
-0.022438081 0.018095247 0.75999999 2.0330767e-39
-0.020935237 0.018047631 0.75799996 1.1100498e-39
-0.019440018 0.017999984 0.75600004 8.323811e-40
-0.017928604 0.017928563 0.75300002 4.6611811e-40
-0.016472403 0.017904758 0.75200003 4.6683698e-40
-0.015040006 0.017904758 0.75200003 4.6683698e-40
-0.013571437 0.017857149 0.75 4.6683838e-40
-0.012175243 0.017904751 0.75199997 4.6720972e-40
-0.010714293 0.017857149 0.75 7.4344769e-40
-0.0092857201 0.017857157 0.75 1.0214709e-39
-0.0078571476 0.017857157 0.75 9.3071862e-40
-0.0064285761 0.017857149 0.75 7.4740496e-40
-0.0049866633 0.017809533 0.74800003 5.6337523e-40
-0.0035619002 0.017809525 0.74800003 3.7970704e-40
-0.0021342842 0.017785721 0.74699998 5.6266337e-40
-0.00071142532 0.017785713 0.74699998 6.537744e-40
0.00071238249 0.017809525 0.74799997 7.4380782e-40
0.0021371448 0.017809525 0.74799997 8.3707825e-40
0.0035619081 0.017809533 0.74800003 1.0221842e-39
0.0049866713 0.017809525 0.74800003 1.1133008e-39
0.0064028609 0.017785721 0.74699998 6.5017726e-40
0.007836218 0.017809533 0.74799997 9.9535631e-41
0.0092609813 0.017809525 0.74799997 5.3406301e-39
0.010685717 0.017809525 0.74799997 1.050928e-38
0.012094288 0.017785728 0.74699998 1.2368624e-38
0.013517146 0.017785721 0.74699998 1.4107031e-38
0.014939977 0.017785713 0.74699998 1.3007867e-38
0.016384769 0.017809518 0.74800003 1.1806475e-38
0.017809551 0.017809533 0.74799997 1.1990507e-38
0.019337136 0.017904758 0.75200003 1.2071917e-38
0.020769518 0.017904758 0.75200003 6.0835761e-39
0.022231422 0.017928571 0.75299996 1.013391e-40
0.023665689 0.017928556 0.75300002 3.3130549e-39
0.025166675 0.017976202 0.755 6.5488591e-39
0.026639987 0.017999992 0.75599998 8.8605685e-39
0.02815428 0.018047623 0.75799996 1.1156087e-38
0.029598095 0.018047631 0.75799996 1.0785508e-38
0.031164782 0.018119045 0.76099998 1.0327766e-38
0.032614283 0.018119045 0.76099998 1.004975e-38
-0.02979333 0.019620001 0.76300001 2.4022067e-39
-0.028340006 0.019620009 0.76300001 2.4018508e-39
-0.026886666 0.019620001 0.76300001 2.401855e-39
-0.025366664 0.01956857 0.76099998 2.3107412e-39
-0.023980001 0.019620001 0.76300001 2.1259856e-39
-0.022467621 0.019568563 0.76099998 1.5720943e-39
-0.020935245 0.019491434 0.75800002 1.0174926e-39
-0.019440031 0.019439988 0.75600004 7.4126587e-40
-0.0179286 0.019362867 0.75300002 4.6647965e-40
-0.016472377 0.019337147 0.75199997 4.6684118e-40
-0.015040013 0.019337133 0.75200003 4.6612792e-40
-0.013607632 0.019337147 0.75200003 4.6613213e-40
-0.012175252 0.019337147 0.75200003 3.750197e-40
-0.010742856 0.019337147 0.75200003 6.5232545e-40
-0.0092856996 0.019285731 0.75 8.3815305e-40
-0.0078571271 0.019285724 0.75 7.4703922e-40
-0.0064285696 0.019285731 0.75 6.5556526e-40
-0.0049999962 0.019285738 0.75 5.6373116e-40
-0.0035714239 0.019285731 0.75 5.6337383e-40
-0.0021342796 0.019208573 0.74699998 5.630165e-40
-0.00071238738 0.019234292 0.74800003 6.5448486e-40
0.00071241136 0.0192343 0.74799997 7.4523435e-40
0.0021371457 0.0192343 0.74799997 8.3743278e-40
0.0035619091 0.019234292 0.74799997 1.021824e-39
0.0049866722 0.019234285 0.74800003 1.2051321e-39
0.0064028515 0.01920858 0.74699998 1.1079114e-39
0.0078361994 0.019234292 0.74800003 1.0132453e-39
0.0092609618 0.019234285 0.74800003 6.7415222e-39
0.010685719 0.0192343 0.74799997 1.2463318e-38
0.012094278 0.01920858 0.74699998 1.0057312e-38
0.013535244 0.019234285 0.74799997 7.7585748e-39
0.014960007 0.019234285 0.74800003 9.5113596e-39
0.016384769 0.019234292 0.74800003 1.1350211e-38
0.017809533 0.019234285 0.74800003 1.1346971e-38
0.019337147 0.019337147 0.75199997 1.1440561e-38
0.020769509 0.019337133 0.75200003 6.0889515e-39
0.022231426 0.019362867 0.75299996 7.4167645e-40
0.023665689 0.019362859 0.75300002 3.4124294e-39
0.025166672 0.019414291 0.755 6.0918326e-39
0.026639972 0.019439988 0.75600004 8.6740179e-39
0.028079974 0.019439995 0.75599998 1.1247559e-38
0.029598102 0.019491434 0.75800002 1.0971329e-38
0.03116479 0.019568563 0.76099998 1.0787658e-38
0.032614291 0.019568577 0.76099998 1.0418881e-38
-0.028339988 0.021073334 0.76299995 1.9426635e-39
-0.026886664 0.021073341 0.76299995 1.6668039e-39
-0.025433347 0.021073326 0.76300001 1.4834972e-39
-0.023980007 0.021073326 0.76300001 1.298027e-39
-0.022467624 0.021018095 0.76099998 1.1118392e-39
-0.020990474 0.020990483 0.76000005 9.2601306e-40
-0.01949143 0.020935252 0.75799996 6.4799124e-40
-0.017928595 0.020797133 0.75300002 3.7464135e-40
-0.016472381 0.020769522 0.75199997 4.6719851e-40
-0.01504 0.020769514 0.75199997 4.6612932e-40
-0.013607638 0.020769522 0.75200003 3.7322323e-40
-0.012175244 0.020769522 0.75200003 2.8354434e-40
-0.010742862 0.020769522 0.75200003 4.6937333e-40
-0.0092857126 0.02071429 0.75 6.5412192e-40
-0.0078571402 0.020714305 0.75 5.6336402e-40
-0.0064285677 0.020714298 0.75 4.7260893e-40
-0.0049999952 0.020714298 0.75 6.5628412e-40
-0.003571423 0.020714298 0.75 7.4740356e-40
-0.0021371359 0.020659044 0.74800003 6.5485059e-40
-0.00071237248 0.020659052 0.74800003 5.6264936e-40
0.00071239087 0.020659052 0.74800003 7.4523855e-40
0.0021371541 0.020659044 0.74800003 8.3815164e-40
0.0035619091 0.020659059 0.74799997 1.114377e-39
0.0049866731 0.020659052 0.74799997 1.2951697e-39
0.0064028697 0.02063144 0.74699998 1.6542525e-39
0.0078257006 0.02063144 0.74699998 1.9513459e-39
0.0092609627 0.020659052 0.74800003 8.1485127e-39
0.010685726 0.020659044 0.74800003 1.4285686e-38
0.012094297 0.020631433 0.74699998 7.8220242e-39
0.013535244 0.020659052 0.74799997 1.3196714e-39
0.014960009 0.020659052 0.74799997 6.1123672e-39
0.016384769 0.020659052 0.74799997 1.0885652e-38
0.017857147 0.02071429 0.75 1.079058e-38
0.01928572 0.020714283 0.75 1.069655e-38
0.020769522 0.020769529 0.75199997 6.0896676e-39
0.022201885 0.020769514 0.75200003 1.3931345e-39
0.023665695 0.020797148 0.75300002 3.5035474e-39
0.02519998 0.020879984 0.75600004 5.5415385e-39
0.026639979 0.020879984 0.75600004 8.4953733e-39
0.028080007 0.020879999 0.75599998 1.1341193e-38
0.029598098 0.020935237 0.75799996 1.1248638e-38
0.031410467 0.021183804 0.76700002 1.1157157e-38
0.032871425 0.021183804 0.76699996 1.0790169e-38
-0.02841429 0.022585727 0.76499999 1.8501007e-39
-0.026957141 0.022585727 0.76499999 1.3905715e-39
-0.025500016 0.02258572 0.76499999 1.2980256e-39
-0.024042867 0.02258572 0.76499999 1.2047523e-39
-0.022467615 0.022467628 0.76099998 1.0200023e-39
-0.020990476 0.022438087 0.76000005 9.2601026e-40
-0.019491438 0.022379056 0.75800002 6.5013943e-40
-0.017976189 0.022290476 0.755 4.6719151e-40
-0.016494308 0.022231437 0.75300002 4.6647965e-40
-0.015040006 0.022201911 0.75199997 5.5724735e-40
-0.013607612 0.022201911 0.75199997 4.65779e-40
-0.012175249 0.022201903 0.75200003 3.7538264e-40
-0.010742868 0.022201896 0.75200003 5.6049136e-40
-0.0093104858 0.022201903 0.75200003 7.4559728e-40
-0.0078571327 0.022142872 0.75 5.6371855e-40
-0.0064285602 0.022142872 0.75 4.7368372e-40
-0.0049999878 0.022142872 0.75 5.6480736e-40
-0.0035714156 0.02214288 0.75 6.5556666e-40
-0.002137135 0.022083819 0.74799997 5.6373116e-40
-0.00071237062 0.022083811 0.74799997 5.6336823e-40
0.0007123918 0.022083811 0.74800003 6.5448205e-40
0.002137155 0.022083819 0.74800003 6.5484079e-40
0.0035619175 0.022083819 0.74800003 1.1147343e-39
0.0049866536 0.022083819 0.74800003 1.6657347e-39
0.0064114369 0.022083819 0.74799997 1.9372825e-39
0.0078362003 0.022083811 0.74799997 2.2239994e-39
0.0092609646 0.022083811 0.74800003 8.043086e-39
0.010685727 0.022083804 0.74800003 1.3831538e-38
0.01211049 0.022083819 0.74800003 7.5547405e-39
0.013535253 0.022083819 0.74800003 1.4010883e-39
0.014959989 0.022083811 0.74800003 5.9197237e-39
0.016428575 0.022142872 0.75000006 1.0513645e-38
0.017857149 0.022142865 0.75000006 1.0514716e-38
0.01928572 0.022142857 0.75000006 1.051575e-38
0.020769518 0.022201903 0.75199997 5.9056365e-39
0.022231404 0.022231437 0.75299996 1.2987865e-39
0.023665668 0.02223143 0.75300002 3.32454e-39
0.02516667 0.022290491 0.75500005 5.452933e-39
0.026604764 0.022290491 0.755 8.2162823e-39
0.028154289 0.022379048 0.75799996 1.1066411e-38
0.029598106 0.022379056 0.75799996 1.0973857e-38
0.031328555 0.022585712 0.76499999 1.0883089e-38
0.032785706 0.022585727 0.76499999 1.042175e-38
-0.02841429 0.02404286 0.76499999 1.7579093e-39
-0.026957141 0.02404286 0.76499999 1.1147077e-39
-0.025500009 0.024042867 0.76499999 1.1136385e-39
-0.02404286 0.024042875 0.76499999 1.1125581e-39
-0.022467621 0.023917146 0.76099998 1.0203611e-39
-0.020990476 0.023885712 0.76000005 8.3561109e-40
-0.019491425 0.023822874 0.75799996 6.5157996e-40
-0.01797618 0.023728579 0.755 4.6719571e-40
-0.016538104 0.023728579 0.75500005 5.5831935e-40
-0.015060017 0.023665704 0.75300002 6.4944438e-40
-0.01362573 0.023665726 0.75300002 5.565397e-40
-0.012191465 0.023665711 0.75300002 3.750253e-40
-0.010742875 0.023634277 0.75200003 5.6013543e-40
-0.0093104942 0.023634277 0.75200003 7.4560008e-40
-0.0078571439 0.023571432 0.75 6.5555825e-40
-0.0064285723 0.023571447 0.75 4.7296626e-40
-0.0050000008 0.023571447 0.75 4.7332919e-40
-0.0035714286 0.023571447 0.75 4.7261173e-40
-0.0021371406 0.023508579 0.74800003 5.6444723e-40
-0.00071236969 0.023508579 0.74799997 5.6336823e-40
0.00071239274 0.023508571 0.74799997 5.6264656e-40
0.002137156 0.023508579 0.74799997 4.7152853e-40
0.0035619203 0.023508571 0.74800003 1.2072887e-39
0.0049866829 0.023508579 0.74800003 1.9383727e-39
0.0064114183 0.023508579 0.74800003 2.2048997e-39
0.0078361807 0.023508571 0.74800003 2.4166415e-39
0.0092609655 0.023508579 0.74799997 7.9681152e-39
0.010685728 0.023508586 0.74799997 1.3360515e-38
0.012110491 0.023508579 0.74800003 7.3473764e-39
0.013535255 0.023508571 0.74800003 1.4046616e-39
0.014960018 0.023508586 0.74800003 5.8354118e-39
0.016428569 0.023571439 0.75 1.0149165e-38
0.017857142 0.023571439 0.75 1.0238844e-38
0.019337129 0.023634285 0.75199997 1.0236295e-38
0.02076951 0.023634292 0.75199997 5.7180222e-39
0.022201918 0.023634292 0.75199997 1.1154672e-39
0.023665674 0.023665704 0.75300002 3.2265892e-39
0.025166666 0.023728579 0.755 5.3571374e-39
0.02671048 0.023822874 0.75799996 8.0336763e-39
0.028154295 0.023822866 0.75799996 1.069762e-38
0.029949516 0.02410572 0.76699996 1.0605425e-38
0.031410452 0.024105713 0.76700002 1.051287e-38
-0.028340016 0.025433339 0.76300001 2.3099999e-39
-0.026957154 0.025500007 0.76499999 1.4816938e-39
-0.025500007 0.025500007 0.76499999 1.2051167e-39
-0.024042858 0.025500007 0.76499999 1.0200066e-39
-0.022526672 0.025433332 0.76300001 1.0196422e-39
-0.020990478 0.025333345 0.76000005 1.0196436e-39
-0.019491434 0.025266685 0.75799996 7.4342107e-40
-0.018000018 0.025199987 0.75600004 5.5867808e-40
-0.016538095 0.025166675 0.75500005 5.5868088e-40
-0.015060026 0.025100008 0.75300002 5.5832775e-40
-0.013625727 0.0251 0.75300002 4.657804e-40
-0.01219144 0.0251 0.75299996 3.7538544e-40
-0.010742862 0.025066681 0.75199997 5.6013823e-40
-0.0092857182 0.025000006 0.75000006 7.4560429e-40
-0.0078571457 0.025000006 0.75000006 5.6372696e-40
-0.0064285863 0.025000006 0.75 4.7332639e-40
-0.0050000139 0.024999999 0.75 5.6480316e-40
-0.0035714416 0.025000006 0.75 7.4811682e-40
-0.0021371387 0.024933331 0.74800003 6.5556386e-40
-0.00071237527 0.024933331 0.74800003 5.6229063e-40
0.00071237411 0.024933338 0.74800003 6.5448205e-40
0.0021371569 0.024933346 0.74799997 7.4739375e-40
0.0035619212 0.024933346 0.74799997 1.2065712e-39
0.0049866838 0.024933338 0.74800003 1.6653802e-39
0.0064114472 0.024933331 0.74800003 1.4799043e-39
0.0078361826 0.024933346 0.74800003 1.3103136e-39
0.009260946 0.024933338 0.74800003 7.3948636e-39
0.010685729 0.024933353 0.74799997 1.3550277e-38
0.012110492 0.024933346 0.74799997 1.0137222e-38
0.013571426 0.025000006 0.75 6.7389999e-39
0.014999999 0.024999999 0.75 9.0492856e-39
0.016428569 0.025000006 0.75 1.1345888e-38
0.01790474 0.025066659 0.75200003 1.070483e-38
0.019337149 0.025066666 0.75200003 1.0063743e-38
0.020769531 0.025066666 0.75200003 5.3474544e-39
0.022231411 0.025100008 0.75300002 6.4695568e-40
0.023728566 0.025166675 0.755 3.3216351e-39
0.025199976 0.02519998 0.75600004 6.0003306e-39
0.026710486 0.02526667 0.75799996 8.3981372e-39
0.028154273 0.025266662 0.75800002 1.0789443e-38
0.02987143 0.0255 0.76499999 1.078908e-38
0.031246662 0.025433347 0.76299995 1.0786936e-38
-0.028339997 0.026886672 0.76300001 2.8628121e-39
-0.026957147 0.026957162 0.76499999 1.7579191e-39
-0.025500018 0.026957147 0.76499999 1.2965906e-39
-0.024042873 0.026957147 0.76499999 8.3669149e-40
-0.022467617 0.026816197 0.76099998 1.0178458e-39
-0.02099048 0.026780963 0.76000005 1.111119e-39
-0.019491442 0.026710488 0.75800002 9.2781092e-40
-0.018000014 0.026639991 0.75600004 6.5158977e-40
-0.016559999 0.026640005 0.75599998 5.5904102e-40
-0.01510001 0.026604757 0.75500005 3.7465816e-40
-0.013625724 0.026534297 0.75300002 3.7286871e-40
-0.012191437 0.026534297 0.75299996 3.7502671e-40
-0.010742854 0.026499048 0.75199997 5.5942077e-40
-0.0093104737 0.026499048 0.75199997 6.5412752e-40
-0.0078780912 0.026499055 0.75199997 5.6444723e-40
-0.0064457301 0.026499048 0.75200003 4.7261173e-40
-0.0049999924 0.026428588 0.75 7.4811822e-40
-0.0035714211 0.026428588 0.75 9.3143468e-40
-0.0021371378 0.026358098 0.74799997 7.4705183e-40
-0.00071237527 0.02635809 0.74800003 5.6265777e-40
0.00071238808 0.026358105 0.74800003 8.3744119e-40
0.0021371364 0.026358098 0.74800003 1.021831e-39
0.0035619007 0.026358098 0.74800003 1.2062223e-39
0.0049866838 0.026358113 0.74799997 1.2958914e-39
0.0064114477 0.026358105 0.74799997 7.3840862e-40
0.0078362105 0.026358098 0.74800003 1.1285217e-40
0.009260946 0.026358098 0.74800003 6.933863e-39
0.010685709 0.026358105 0.74800003 1.3736126e-38
0.012110472 0.026358105 0.74800003 1.2911736e-38
0.013535256 0.026358113 0.74799997 1.1992332e-38
0.015000019 0.026428588 0.75 1.2276476e-38
0.016428592 0.026428588 0.75 1.2549089e-38
0.017904755 0.026499055 0.75199997 1.1170098e-38
0.019362843 0.026534282 0.75300002 9.7692139e-39
0.020797128 0.026534282 0.75300002 4.9610912e-39
0.022231415 0.026534289 0.75300002 9.9530026e-41
0.02372859 0.026604757 0.755 3.3202114e-39
0.025199983 0.026639991 0.75599998 6.551345e-39
0.026710464 0.026710488 0.75799996 8.7694197e-39
0.028228577 0.026780948 0.76000005 1.0881671e-38
0.029793333 0.026886672 0.76300001 1.0974261e-38
0.031246673 0.026886664 0.76300001 1.0979588e-38
0.032699984 0.026886672 0.76300001 9.7756304e-39
-0.02404285 0.028414302 0.76499999 1.1143476e-39
-0.022467609 0.028265737 0.76099998 1.2040251e-39
-0.020990482 0.028228574 0.76000005 1.3877017e-39
-0.019491429 0.028154291 0.75799996 1.0196464e-39
-0.018000007 0.028080001 0.75599998 7.4414414e-40
-0.016560014 0.028079994 0.75600004 5.5975988e-40
-0.015099999 0.02804286 0.75500005 4.6721112e-40
-0.013625734 0.027968578 0.75300002 3.750211e-40
-0.012191434 0.027968571 0.75299996 3.761029e-40
-0.010742862 0.027931429 0.75200003 5.6121303e-40
-0.0093104793 0.027931437 0.75199997 6.5484639e-40
-0.0078780986 0.027931429 0.75199997 6.5592539e-40
-0.0064457031 0.027931429 0.75199997 5.6373116e-40
-0.0050000055 0.027857147 0.75 6.5628412e-40
-0.0035714332 0.027857147 0.75 8.3996492e-40
-0.0021371229 0.027782872 0.74799997 7.4742037e-40
-0.00071237434 0.027782865 0.74799997 6.5521773e-40
0.00071238901 0.027782865 0.74799997 7.4596863e-40
0.0021371392 0.027782857 0.74800003 9.2928509e-40
0.0035619016 0.02778285 0.74800003 1.0229185e-39
0.0049866652 0.027782857 0.74800003 1.1147385e-39
0.0064114486 0.027782872 0.74799997 8.3527057e-40
0.0078362124 0.027782865 0.74799997 5.5982014e-40
0.0092609748 0.027782865 0.74799997 4.4417196e-39
0.01068571 0.027782857 0.74799997 8.3239539e-39
0.012110473 0.027782857 0.74800003 9.7912017e-39
0.013571421 0.027857155 0.75 1.1358866e-38
0.014999993 0.027857155 0.75 1.1265242e-38
0.016428564 0.027857155 0.75 1.1270578e-38
0.017904775 0.027931429 0.75199997 8.1237322e-39
0.019337157 0.027931437 0.75199997 4.9837152e-39
0.020797132 0.027968585 0.75300002 2.5834044e-39
0.022231419 0.027968578 0.75300002 1.9459552e-40
0.023728568 0.02804286 0.75500005 3.231973e-39
0.025199968 0.028079987 0.75600004 6.3701879e-39
0.026639996 0.028080001 0.75600004 9.1324499e-39
0.028228577 0.028228574 0.76000005 1.1799344e-38
0.029793333 0.028340004 0.76300001 1.2272229e-38
0.031246673 0.028339997 0.76300001 1.2657035e-38
0.032700013 0.028339997 0.76300001 1.1442254e-38
-0.024042863 0.029871434 0.76499999 1.2954934e-39
-0.022467602 0.029715247 0.76099998 1.4798707e-39
-0.020935224 0.029598102 0.75799996 1.570644e-39
-0.019491423 0.029598109 0.75799996 1.2018825e-39
-0.018000022 0.029519998 0.75600004 8.3597823e-40
-0.016560007 0.029520005 0.75599998 6.5195271e-40
-0.015100002 0.029480956 0.755 4.6792719e-40
-0.013661915 0.029480949 0.75500005 4.6793279e-40
-0.012191444 0.029402867 0.75299996 3.7682037e-40
-0.010742867 0.029363811 0.75200003 5.6229063e-40
-0.0093104867 0.029363811 0.75200003 6.5556806e-40
-0.0078780912 0.029363804 0.75199997 6.5701e-40
-0.0064457087 0.029363811 0.75199997 6.5664986e-40
-0.004999999 0.029285721 0.75 6.5664706e-40
-0.0035714267 0.029285714 0.75 6.5665126e-40
-0.0021371425 0.029207617 0.74800003 6.55938e-40
-0.00071235851 0.029207632 0.74799997 6.5521213e-40
0.00071238994 0.029207632 0.74799997 7.4596302e-40
0.0021371681 0.029207639 0.74800003 7.4704062e-40
0.0035619026 0.029207632 0.74799997 8.4067258e-40
0.0049866661 0.029207624 0.74800003 9.3070741e-40
0.006411429 0.029207624 0.74800003 9.2783054e-40
0.0078571523 0.029285736 0.75 9.3036689e-40
0.0092857238 0.029285729 0.75 1.9491922e-39
0.010714296 0.029285729 0.75 2.881214e-39
0.012142869 0.029285729 0.75 6.753408e-39
0.013571441 0.029285721 0.75 1.0609428e-38
0.015000014 0.029285721 0.75 1.0246755e-38
0.016472388 0.029363811 0.75200003 9.8657381e-39
0.01790477 0.029363818 0.75200003 4.978323e-39
0.019337149 0.029363811 0.75199997 1.0672289e-40
0.020797137 0.029402852 0.75300002 1.9423959e-40
0.022231422 0.029402852 0.75300002 1.9423118e-40
0.023728563 0.029480956 0.75500005 3.2265878e-39
0.025199976 0.029519998 0.75600004 6.1829352e-39
0.026710469 0.029598102 0.75799996 9.4994499e-39
0.028228574 0.029676192 0.76000005 1.272524e-38
