# .PCD v0.7 - Point Cloud Data file format
VERSION 0.7
FIELDS x y z rgb
SIZE 4 4 4 4
TYPE F F F F
COUNT 1 1 1 1
WIDTH 954
HEIGHT 1
VIEWPOINT 0 0 0 1 0 0 0
POINTS 954
DATA ascii
0.021995269 -0.0078047737 0.74500006 1.1572448e-38
0.023414288 -0.0078047812 0.74500006 1.3044006e-38
0.02490001 -0.0078257099 0.74700004 1.4554359e-38
0.026322873 -0.0078257173 0.74700004 1.6052876e-38
0.027782869 -0.0078361928 0.74799997 1.7516486e-38
0.029207628 -0.0078361928 0.74799997 1.5308111e-38
0.030632392 -0.0078361779 0.74799997 1.3089644e-38
0.032142848 -0.0078571513 0.75000006 7.7441078e-39
0.033660956 -0.0078781173 0.75200003 2.4039555e-39
0.035233352 -0.0079095289 0.75500005 3.7810662e-39
0.036671441 -0.0079095289 0.75500005 5.1596664e-39
0.038159981 -0.007919997 0.75600004 5.2511362e-39
0.039599989 -0.0079200119 0.75600004 5.344422e-39
0.04103997 -0.007919997 0.75599998 5.2529607e-39
0.042479981 -0.007919997 0.75599998 5.1607496e-39
0.044036198 -0.0079409629 0.75800002 5.3440451e-39
-0.016603805 -0.0064971596 0.75800002 9.2673473e-40
-0.015160003 -0.0064971521 0.75800002 8.3418177e-40
-0.013680023 -0.0064800084 0.75600004 5.5975007e-40
-0.012240015 -0.0064800084 0.75600004 3.7678954e-40
-0.01078571 -0.0064714327 0.75500005 7.383848e-40
-0.0093228491 -0.0064542815 0.75300002 1.1032465e-39
-0.0078781061 -0.0064457208 0.75199997 6.2779923e-39
-0.0064457348 -0.0064457208 0.75199997 1.1434032e-38
-0.005013362 -0.0064457208 0.75199997 1.1414997e-38
-0.0035714356 -0.0064285696 0.75 1.1479863e-38
-0.0021371485 -0.0064114258 0.74800003 1.1571633e-38
-0.00071144366 -0.0064028576 0.74699998 1.1571654e-38
0.00071142073 -0.0064028427 0.74699998 1.1755344e-38
0.0021342861 -0.0064028427 0.74699998 1.2030851e-38
0.0035571533 -0.0064028725 0.74700004 1.2214522e-38
0.0049666632 -0.0063857213 0.74500006 1.2490028e-38
0.0063857082 -0.0063857362 0.74500006 1.2490028e-38
0.0078047551 -0.0063857362 0.74500006 1.2490025e-38
0.0091990363 -0.00636857 0.74300003 1.2581857e-38
0.010614263 -0.0063685775 0.74300003 1.2673678e-38
0.012029491 -0.0063685849 0.74299997 1.2949169e-38
0.013426651 -0.0063600019 0.74200004 1.331687e-38
0.014839982 -0.0063600019 0.74199998 1.3041364e-38
0.016275229 -0.0063685849 0.74300003 1.2857334e-38
0.017690457 -0.0063685775 0.74300003 1.2765498e-38
0.01910571 -0.00636857 0.74300003 1.2673681e-38
0.020520939 -0.00636857 0.74300003 1.2214522e-38
0.021995246 -0.0063857362 0.74500006 1.175542e-38
0.023477156 -0.0064028576 0.74699998 1.3526556e-38
0.024933338 -0.0064114332 0.74799997 1.5305579e-38
0.026358102 -0.0064114183 0.74799997 1.6137905e-38
0.027782861 -0.0064114183 0.74799997 1.6961887e-38
0.029207621 -0.0064114332 0.74799997 1.484498e-38
0.030714292 -0.006428577 0.75000006 1.2723018e-38
0.032228541 -0.0064457282 0.75199997 7.7448267e-39
0.033660941 -0.0064457208 0.75199997 2.7673515e-39
0.035233349 -0.0064714104 0.755 3.9640183e-39
0.036719996 -0.0064800009 0.75600004 5.1596692e-39
0.038260955 -0.0064971521 0.75800002 5.2525753e-39
0.039704785 -0.0064971596 0.75800002 5.4369834e-39
0.041039973 -0.0064800009 0.75599998 5.3448074e-39
0.042592388 -0.0064971671 0.75800002 5.2525879e-39
-0.016647622 -0.0050666779 0.76000005 8.3490203e-40
-0.015160019 -0.0050533563 0.75800002 5.5939274e-40
-0.013680021 -0.0050399974 0.75600004 3.7500148e-40
-0.012240012 -0.0050400123 0.75600004 9.8773325e-41
-0.010785712 -0.0050333366 0.755 1.0110256e-39
-0.0093228342 -0.0050199926 0.75300002 1.9470019e-39
-0.0078780949 -0.0050133318 0.75199997 7.6760019e-39
-0.0064457222 -0.0050133467 0.75199997 1.3263551e-38
-0.0050133504 -0.0050133392 0.75200003 1.2142086e-38
-0.0035809509 -0.0050133467 0.75200003 1.1025687e-38
-0.0021371308 -0.0049866587 0.74799997 1.1296149e-38
-0.00071142783 -0.0049799979 0.74700004 1.1572025e-38
0.0007123921 -0.0049866661 0.74799997 1.1755348e-38
0.0021342749 -0.0049799979 0.74700004 1.1939024e-38
0.0035571384 -0.0049799979 0.74699998 1.230637e-38
0.0049666669 -0.0049666762 0.74500006 1.2581868e-38
0.0063857418 -0.0049666837 0.74500006 1.2490024e-38
0.0078047886 -0.0049666837 0.74500006 1.2398182e-38
0.0091990326 -0.0049533322 0.74299997 1.2581846e-38
0.010614259 -0.0049533471 0.74299997 1.2673671e-38
0.012029488 -0.0049533322 0.74299997 1.2949169e-38
0.01344477 -0.0049533322 0.74300003 1.3133559e-38
0.014859999 -0.0049533471 0.74300003 1.3041366e-38
0.016275225 -0.0049533471 0.74300003 1.2857345e-38
0.017690454 -0.0049533397 0.74300003 1.2857352e-38
0.019105706 -0.0049533397 0.74299997 1.2765515e-38
0.020576179 -0.0049666762 0.74500006 1.2306338e-38
0.021995224 -0.0049666762 0.74500006 1.1860177e-38
0.023508567 -0.0049866587 0.74799997 1.4001194e-38
0.024933327 -0.0049866736 0.74799997 1.6039918e-38
0.02635809 -0.0049866736 0.74799997 1.6231529e-38
0.02778285 -0.0049866587 0.74799997 1.6411586e-38
0.029207613 -0.0049866661 0.74799997 1.4387234e-38
0.030714296 -0.0050000176 0.75000006 1.2260964e-38
0.032228556 -0.0050133392 0.75200003 7.7444609e-39
0.033705734 -0.00502 0.75300002 3.140436e-39
0.035233349 -0.0050333366 0.75500005 4.1477033e-39
0.036719978 -0.0050400048 0.75600004 5.0682037e-39
0.038260944 -0.0050533414 0.75800002 5.2536613e-39
0.039704766 -0.0050533488 0.75800002 5.4373393e-39
0.041148569 -0.0050533488 0.75800002 5.4369876e-39
0.042592399 -0.0050533488 0.75800002 5.3451409e-39
-0.016647629 -0.0036190674 0.75999999 1.0185744e-39
-0.015160007 -0.0036095306 0.75800002 6.519457e-40
-0.013680018 -0.0036000013 0.75600004 3.7607488e-40
-0.012240009 -0.0036000088 0.75600004 1.0092712e-40
-0.010785686 -0.0035952404 0.75500005 2.0280362e-39
-0.0093475999 -0.0035952479 0.75500005 3.9666822e-39
-0.0079095159 -0.003595233 0.755 8.3967233e-39
-0.0064457394 -0.0035809502 0.75199997 1.2802204e-38
-0.0050133672 -0.0035809577 0.75199997 1.1861135e-38
-0.0035809695 -0.0035809651 0.75199997 1.0928809e-38
-0.0021371392 -0.0035618991 0.74799997 1.1204693e-38
-0.00071141293 -0.003557153 0.74700004 1.1572396e-38
0.00071238278 -0.0035619065 0.74799997 1.175571e-38
0.0021342908 -0.0035571456 0.74700004 1.1939032e-38
0.003557157 -0.003557153 0.74700004 1.2214547e-38
0.0049666744 -0.0035476387 0.74500006 1.2490037e-38
0.0063685458 -0.0035380945 0.74300003 1.2398184e-38
0.0077837743 -0.0035381019 0.74300003 1.2398175e-38
0.009199027 -0.0035381019 0.74299997 1.2582193e-38
0.010614285 -0.0035381094 0.74300003 1.276586e-38
0.012029512 -0.0035381019 0.74300003 1.3041721e-38
0.013444766 -0.0035380945 0.74300003 1.3318308e-38
0.014859993 -0.0035381019 0.74300003 1.2949892e-38
0.016319074 -0.0035476387 0.74500012 1.2581848e-38
0.01769045 -0.0035380945 0.74300003 1.2581864e-38
0.019157164 -0.0035476387 0.74500006 1.267368e-38
0.020631429 -0.0035571456 0.74699998 1.2492499e-38
0.022054296 -0.0035571307 0.74699998 1.231685e-38
0.02350856 -0.0035618991 0.74799997 1.446507e-38
0.02493332 -0.0035618991 0.74799997 1.6509514e-38
0.026358083 -0.003561914 0.74799997 1.6414477e-38
0.027782843 -0.0035618991 0.74799997 1.6320105e-38
0.02928569 -0.0035714284 0.75000006 1.3925539e-38
0.030714272 -0.0035714358 0.75000006 1.1526274e-38
0.032271426 -0.0035857111 0.75300002 7.4685887e-39
0.03379523 -0.003595233 0.75500005 3.3201651e-39
0.035233345 -0.003595233 0.75500005 4.1484348e-39
0.036719982 -0.0036000088 0.75600004 4.977457e-39
0.038260952 -0.0036095381 0.75799996 5.1614769e-39
0.039704755 -0.0036095306 0.75800002 5.4376953e-39
0.041148581 -0.0036095306 0.75800002 5.4369722e-39
0.042592384 -0.0036095381 0.75800002 5.4369764e-39
-0.016647637 -0.0021714345 0.75999999 1.1096925e-39
-0.015160022 -0.0021657199 0.75800002 6.5158977e-40
-0.013680017 -0.0021600127 0.75600004 3.7572315e-40
-0.012240036 -0.0021599904 0.75599998 9.7704134e-41
-0.010800026 -0.0021600053 0.75599998 3.0335688e-39
-0.0093476027 -0.0021571442 0.75500005 5.9963887e-39
-0.0079095159 -0.0021571517 0.75500005 9.233639e-39
-0.0064542689 -0.0021514297 0.75300002 1.2331184e-38
-0.0050133551 -0.0021485686 0.75200003 1.1571638e-38
-0.0035809574 -0.0021485835 0.75199997 1.0745134e-38
-0.0021371476 -0.002137132 0.74799997 1.1112493e-38
-0.00071238616 -0.0021371394 0.74799997 1.1480198e-38
0.00071237533 -0.0021371394 0.74799997 1.1755709e-38
0.0021342777 -0.0021342859 0.74699998 1.1939026e-38
0.003557143 -0.0021342784 0.74699998 1.2122702e-38
0.0049666781 -0.0021285862 0.74500006 1.2306357e-38
0.0063685402 -0.0021228567 0.74299997 1.2398535e-38
0.00780477 -0.0021285713 0.74500006 1.2398526e-38
0.0091990512 -0.0021228716 0.74300003 1.2582187e-38
0.010614282 -0.0021228716 0.74300003 1.2765857e-38
0.012029508 -0.0021228641 0.74300003 1.3133199e-38
0.013444737 -0.0021228716 0.74300003 1.3409064e-38
0.014859989 -0.0021228641 0.74300003 1.2857335e-38
0.016319051 -0.0021285787 0.74500006 1.2214495e-38
0.017738098 -0.0021285862 0.74500006 1.2398175e-38
0.019157143 -0.0021285936 0.74500006 1.2490034e-38
0.020631444 -0.0021342784 0.74700004 1.267373e-38
0.022054285 -0.0021342933 0.74700004 1.2799397e-38
0.023508582 -0.0021371394 0.74800003 1.4940423e-38
0.024933312 -0.002137132 0.74799997 1.696512e-38
0.026358102 -0.0021371543 0.74800003 1.6597071e-38
0.027782865 -0.0021371394 0.74800003 1.6228272e-38
0.029285723 -0.0021428689 0.75000006 1.3559998e-38
0.03079618 -0.0021485835 0.75199997 1.0785859e-38
0.032271471 -0.0021514371 0.75300002 7.1909396e-39
0.033705708 -0.0021514297 0.75300002 3.508501e-39
0.035233341 -0.0021571368 0.755 4.1487893e-39
0.036719982 -0.0021599978 0.75600004 4.7930643e-39
0.038260967 -0.0021657273 0.75800002 5.1607566e-39
0.039704766 -0.0021657199 0.75799996 5.4366233e-39
0.041148566 -0.0021657199 0.75800002 5.5281028e-39
0.042592391 -0.0021657273 0.75800002 5.5281014e-39
0.044210505 -0.002174288 0.76100004 5.527384e-39
-0.016647615 -0.0007238239 0.76000005 1.0189332e-39
-0.015159982 -0.00072192401 0.75800002 7.437868e-40
-0.013680013 -0.00072000921 0.75600004 4.6612932e-40
-0.012240035 -0.00071999431 0.75599998 9.5198612e-41
-0.010800024 -0.00072000176 0.75599998 3.5031537e-39
-0.0093600154 -0.00071999431 0.75599998 6.9251455e-39
-0.0079095187 -0.00071904063 0.75500005 9.5855485e-39
-0.0064542796 -0.00071714073 0.75300002 1.2134953e-38
-0.0050133467 -0.00071618706 0.75199997 1.1574865e-38
-0.0035809742 -0.00071620196 0.75199997 1.1020638e-38
-0.002137156 -0.00071237236 0.74799997 1.1296157e-38
-0.00071141106 -0.00071141869 0.74700004 1.157167e-38
0.00071236695 -0.00071237981 0.74799997 1.1755348e-38
0.0021342926 -0.00071144104 0.74700004 1.2030856e-38
0.0035571579 -0.00071141869 0.74700004 1.2214527e-38
0.0049666855 -0.00070954114 0.74500006 1.2490018e-38
0.0063685365 -0.00070761889 0.74299997 1.2398168e-38
0.0078047775 -0.00070954114 0.74500006 1.2398161e-38
0.0091990475 -0.00070762634 0.74300003 1.2490346e-38
0.010614276 -0.00070762634 0.74300003 1.267402e-38
0.012029503 -0.00070762634 0.74300003 1.2949528e-38
0.013444731 -0.00070762634 0.74300003 1.3224674e-38
0.014900008 -0.00070953369 0.74500006 1.2765853e-38
0.016319055 -0.00070952624 0.74500006 1.2398154e-38
0.017738102 -0.00070953369 0.74500006 1.2398155e-38
0.019157147 -0.00070952624 0.74500006 1.2306389e-38
0.020631433 -0.00071142614 0.74699998 1.3528302e-38
0.02205427 -0.00071142614 0.74699998 1.4755976e-38
0.023508575 -0.00071237981 0.74800003 1.5586172e-38
0.024933336 -0.00071237981 0.74800003 1.6507034e-38
0.026358094 -0.00071237981 0.74800003 1.6323e-38
0.027782857 -0.00071237981 0.74800003 1.6139668e-38
0.029285694 -0.00071429461 0.75000006 1.2817069e-38
0.030796187 -0.00071619451 0.75200003 9.4883306e-39
0.032228563 -0.00071619451 0.75199997 6.6338366e-39
0.033705752 -0.00071714818 0.75300002 3.7814992e-39
0.035233341 -0.00071904808 0.75500005 4.2409794e-39
0.036719985 -0.00072000176 0.75600004 4.6101066e-39
0.038260952 -0.00072193146 0.75800002 4.7930517e-39
0.039704777 -0.00072191656 0.75800002 4.8852572e-39
0.041148551 -0.00072191656 0.75800002 4.976385e-39
0.042704765 -0.0007238239 0.75999999 5.1607678e-39
-0.016647622 0.00072380155 0.75999999 8.3633977e-40
-0.015159998 0.0007218942 0.75800002 8.3526637e-40
-0.013680011 0.00071998686 0.75600004 4.6541606e-40
-0.012240032 0.00072000176 0.75599998 9.7358013e-41
-0.010800023 0.00072000176 0.75599998 3.9591138e-39
-0.0093476055 0.00071904808 0.75500005 7.8381153e-39
-0.0078885565 0.00071713328 0.75300002 9.9564596e-39
-0.006454262 0.00071713328 0.75300002 1.1955577e-38
-0.0050199982 0.00071714073 0.75300002 1.1571635e-38
-0.0035809621 0.00071618706 0.75199997 1.1204307e-38
-0.0021371327 0.00071237236 0.74800003 1.1479829e-38
-0.00071237219 0.00071238726 0.74800003 1.1663507e-38
0.00071238837 0.00071237981 0.74800003 1.1847185e-38
0.0021342777 0.00071143359 0.74699998 1.2030852e-38
0.003557143 0.00071143359 0.74699998 1.2306356e-38
0.0049666902 0.00070951134 0.74500006 1.2581855e-38
0.0063857343 0.00070950389 0.74500006 1.2490013e-38
0.0078047812 0.00070952624 0.74500006 1.2306336e-38
0.0091990437 0.00070761144 0.74300003 1.249e-38
0.010642847 0.00070951134 0.74500006 1.2582197e-38
0.012029499 0.00070761889 0.74300003 1.276623e-38
0.013444725 0.00070761889 0.74299997 1.2949536e-38
0.014900016 0.00070950389 0.74500012 1.276622e-38
0.016362878 0.00071142614 0.74700004 1.2582186e-38
0.017785717 0.00071141869 0.74700004 1.2398154e-38
0.01920858 0.00071143359 0.74700004 1.2145361e-38
0.020631447 0.00071143359 0.74700004 1.4468265e-38
0.022083804 0.00071237981 0.74800003 1.6685636e-38
0.023508569 0.00071237981 0.74800003 1.6325157e-38
0.024933329 0.00071237981 0.74800003 1.5956019e-38
0.026358088 0.00071237981 0.74800003 1.5955659e-38
0.02778285 0.00071238726 0.74800003 1.5950256e-38
0.029285723 0.00071427971 0.75000006 1.2079511e-38
0.030796174 0.00071618706 0.75199997 8.1979618e-39
0.032271445 0.00071713328 0.75300002 6.1663943e-39
0.033705737 0.00071714073 0.75300002 4.0559267e-39
0.035233337 0.00071904808 0.75500005 4.2395528e-39
0.036719985 0.00072000176 0.75600004 4.423207e-39
0.038260959 0.0007218942 0.75800002 4.4239063e-39
0.039809521 0.000723809 0.75999999 4.3313631e-39
0.041257139 0.00072380155 0.76000005 4.5150439e-39
0.042704761 0.0007237941 0.76000005 4.7001484e-39
-0.015200007 0.0021714196 0.75999999 8.3598664e-40
-0.013716185 0.0021656975 0.75800002 4.6542027e-40
-0.012240029 0.0021600127 0.75599998 9.3418963e-41
-0.01080002 0.0021599904 0.75599998 4.057775e-39
-0.0093476092 0.0021571442 0.75500005 8.031828e-39
-0.0078885425 0.0021514297 0.75300002 9.8595836e-39
-0.0064542736 0.0021514148 0.75300002 1.177082e-38
-0.0050133234 0.0021485612 0.75200003 1.1300072e-38
-0.0035809509 0.0021485537 0.75200003 1.0928801e-38
-0.0021371411 0.0021371394 0.74800003 1.1296517e-38
-0.00071238057 0.0021371469 0.74800003 1.1663507e-38
0.00071143004 0.0021342859 0.74700004 1.175535e-38
0.0021342945 0.0021342784 0.74700004 1.1939373e-38
0.0035571337 0.0021342859 0.74700004 1.2122676e-38
0.0049666679 0.0021285638 0.74500006 1.2398186e-38
0.0063857129 0.0021285638 0.74500006 1.230671e-38
0.0078047896 0.0021285489 0.74500006 1.2306706e-38
0.00919904 0.0021228492 0.74299997 1.2398536e-38
0.010614267 0.0021228641 0.74299997 1.2490374e-38
0.012029495 0.0021228567 0.74299997 1.2674048e-38
0.013480974 0.0021285564 0.74500006 1.2857353e-38
0.014900019 0.0021285638 0.74500006 1.2490362e-38
0.016362838 0.0021343008 0.74699998 1.2122654e-38
0.017738113 0.0021285489 0.74500006 1.3150414e-38
0.019208567 0.0021342859 0.74699998 1.4275913e-38
0.020631433 0.0021343008 0.74699998 1.5394955e-38
0.022083798 0.0021371394 0.74799997 1.6601373e-38
0.023508558 0.0021371394 0.74799997 1.6507387e-38
0.024933318 0.0021371394 0.74799997 1.6413759e-38
0.026358107 0.0021371469 0.74799997 1.5954942e-38
0.027857145 0.0021428466 0.75000006 1.5492871e-38
0.029285723 0.0021428466 0.75000006 1.0047288e-38
0.030796185 0.0021485537 0.75200003 4.6899077e-39
0.032271434 0.0021514222 0.75300002 4.6055356e-39
0.033705726 0.0021514297 0.75300002 4.6076543e-39
0.035279978 0.0021599904 0.75600004 6.0773474e-39
0.036817141 0.002165705 0.75800002 7.4494722e-39
0.0383619 0.0021714121 0.76000005 6.9952903e-39
0.039809514 0.0021714196 0.75999999 6.4403397e-39
0.041257136 0.0021714121 0.75999999 5.708534e-39
0.042760957 0.0021742731 0.76100004 4.8823789e-39
-0.016669504 0.0036238134 0.7610001 9.2781232e-40
-0.015199984 0.0036190376 0.76000005 8.3525656e-40
-0.0137162 0.0036095083 0.75800002 4.6647684e-40
-0.012240026 0.0036000013 0.75599998 9.807688e-41
-0.010800017 0.0036000013 0.75599998 4.1460316e-39
-0.009360034 0.0035999939 0.75600004 8.2068866e-39
-0.0078885537 0.0035857111 0.75300002 9.8620836e-39
-0.0064542596 0.0035857037 0.75300002 1.1497818e-38
-0.0050133392 0.0035809427 0.75199997 1.102062e-38
-0.0035809677 0.0035809502 0.75199997 1.0561823e-38
-0.0021371495 0.0035618991 0.74799997 1.1113217e-38
-0.00071238802 0.003561914 0.74800003 1.1572047e-38
0.00071237347 0.0035619065 0.74799997 1.175537e-38
0.0021371341 0.0035618991 0.74799997 1.1847191e-38
0.0035571486 0.0035571381 0.74700004 1.2030847e-38
0.0049800137 0.003557153 0.74700004 1.2123042e-38
0.0063857203 0.0035476089 0.74500006 1.2215239e-38
0.0078047672 0.003547594 0.74500006 1.2214873e-38
0.0092238141 0.0035476089 0.74500006 1.2306343e-38
0.010642859 0.0035476163 0.74500006 1.2398543e-38
0.012061905 0.0035476014 0.74500006 1.258186e-38
0.013480952 0.0035476014 0.74500006 1.2673681e-38
0.014899997 0.0035476089 0.74500006 1.221449e-38
0.016362855 0.0035571456 0.74700004 1.1677533e-38
0.017785721 0.0035571307 0.74700004 1.3988912e-38
0.019208586 0.003557153 0.74699998 1.6308921e-38
0.020659028 0.003561914 0.74799997 1.6417705e-38
0.022083815 0.0035619065 0.74799997 1.6416277e-38
0.023508577 0.0035619065 0.74799997 1.6597443e-38
0.024933336 0.003561914 0.74799997 1.6782545e-38
0.0263581 0.0035619065 0.74799997 1.586562e-38
0.027857145 0.0035714209 0.75000006 1.4930347e-38
0.029285701 0.0035714209 0.75000006 8.0189501e-39
0.030796167 0.0035809502 0.75199997 1.1194203e-39
0.032271449 0.0035857186 0.75300002 3.1419228e-39
0.033795249 0.0035952404 0.75500005 5.1636853e-39
0.03523336 0.003595233 0.75500005 7.829374e-39
0.036719993 0.0035999864 0.75600004 1.0497624e-38
0.038361888 0.003619045 0.76000005 9.5753218e-39
0.039809536 0.0036190376 0.75999999 8.5665551e-39
0.041311439 0.0036238134 0.76100004 6.8123424e-39
0.042760983 0.0036238059 0.76100004 5.0696428e-39
-0.01666948 0.0050733238 0.76100004 8.3597122e-40
-0.015299996 0.0050999969 0.76500005 9.2707945e-40
-0.013716189 0.0050533116 0.75800002 4.6573836e-40
-0.012240024 0.0050399974 0.75599998 9.4125218e-41
-0.010800014 0.0050400048 0.75599998 3.966315e-39
-0.0093600312 0.0050399899 0.75600004 7.849229e-39
-0.0078885648 0.0050200075 0.75300002 9.6784e-39
-0.0064542713 0.0050200075 0.75300002 1.1593235e-38
-0.0050199768 0.0050199926 0.75300002 1.1117836e-38
-0.0035809556 0.0050133243 0.75200003 1.0653307e-38
-0.0021371578 0.0049866587 0.74799997 1.1112871e-38
-0.0007123964 0.0049866736 0.74799997 1.1571704e-38
0.00071236509 0.0049866736 0.74799997 1.1663554e-38
0.0021371257 0.0049866587 0.74799997 1.1847204e-38
0.0035571356 0.0049800053 0.74700004 1.1939375e-38
0.0049800007 0.0049799979 0.74699998 1.2123765e-38
0.0063857222 0.0049666539 0.74500006 1.2215243e-38
0.007804771 0.0049666539 0.74500006 1.2306712e-38
0.0092238178 0.0049666613 0.74500006 1.2306703e-38
0.010671434 0.0049799979 0.74699998 1.2398546e-38
0.012094273 0.0049800053 0.74699998 1.2306359e-38
0.013480986 0.0049666464 0.74500006 1.2306338e-38
0.014960001 0.0049866661 0.74799997 1.286845e-38
0.016384762 0.004986681 0.74799997 1.3526147e-38
0.017809525 0.0049866661 0.74799997 1.5203001e-38
0.019208571 0.0049800053 0.74699998 1.6880096e-38
0.020659044 0.004986681 0.74799997 1.6509186e-38
0.022083806 0.0049866661 0.74799997 1.6139703e-38
0.023508569 0.0049866661 0.74799997 1.6506698e-38
0.024933329 0.004986681 0.74799997 1.6966941e-38
0.026358092 0.0049866736 0.74799997 1.4296528e-38
0.027857151 0.0049999803 0.75000006 1.1710693e-38
0.029285727 0.0049999952 0.75000006 6.4515837e-39
0.030796181 0.0050133169 0.75200003 1.2087194e-39
0.032271437 0.0050200075 0.75300002 3.6951035e-39
0.033795249 0.0050333291 0.755 6.1781778e-39
0.035279986 0.0050399974 0.75600004 1.0233216e-38
0.036817171 0.0050533339 0.75800002 1.428871e-38
0.03826094 0.005053319 0.75800002 1.3731981e-38
0.039809529 0.005066663 0.75999999 1.3274925e-38
0.041311439 0.0050733313 0.76100004 1.2164617e-38
0.042760979 0.0050733313 0.76100004 1.1153391e-38
-0.01675716 0.0065571368 0.76499999 8.3633136e-40
-0.015300007 0.0065571442 0.76499999 9.2744659e-40
-0.013752379 0.006514281 0.75999999 5.5866687e-40
-0.012272376 0.0064971223 0.75800002 9.8075478e-41
-0.010800011 0.0064800009 0.75599998 3.7751037e-39
-0.0093600284 0.0064799935 0.75600004 7.4722069e-39
-0.0079200193 0.0064800009 0.75600004 9.5930385e-39
-0.0064542824 0.006454289 0.75300002 1.1593608e-38
-0.0050133457 0.0064457133 0.75199997 1.1204302e-38
-0.0035809733 0.0064457059 0.75199997 1.0745141e-38
-0.002142864 0.0064285621 0.75000006 1.111286e-38
-0.00071237871 0.0064114407 0.74799997 1.1480211e-38
0.00071238278 0.0064114407 0.74799997 1.166389e-38
0.0021371425 0.0064114407 0.74799997 1.1847904e-38
0.0035571505 0.0064028502 0.74700004 1.1939724e-38
0.0049800156 0.0064028651 0.74700004 1.2031564e-38
0.0064028548 0.0064028502 0.74700004 1.2215238e-38
0.0078257201 0.0064028502 0.74700004 1.2306713e-38
0.0092485836 0.0064028725 0.74700004 1.239819e-38
0.010671423 0.0064028576 0.74700004 1.2398182e-38
0.012094288 0.0064028502 0.74700004 1.2122667e-38
0.013535232 0.0064114332 0.74799997 1.1858337e-38
0.014959994 0.0064114258 0.74799997 1.3610083e-38
0.016384754 0.0064114407 0.74799997 1.5383024e-38
0.017809518 0.0064114407 0.74799997 1.6416619e-38
0.019234277 0.0064114258 0.74799997 1.7427175e-38
0.020659041 0.0064114407 0.74799997 1.6691065e-38
0.02208383 0.0064114258 0.74800003 1.5863831e-38
0.023508588 0.0064114183 0.74800003 1.6506682e-38
0.024933351 0.0064114332 0.74800003 1.7055152e-38
0.026358111 0.0064114258 0.74800003 1.2734186e-38
0.027857151 0.0064285621 0.75000006 8.3844956e-39
0.029285703 0.0064285547 0.75000006 4.8677816e-39
0.030796163 0.0064457133 0.75199997 1.3016283e-39
0.032228563 0.0064457059 0.75199997 4.250773e-39
0.033795249 0.0064714253 0.75500005 7.104827e-39
0.035279986 0.0064800009 0.75600004 1.2544984e-38
0.036719996 0.006479986 0.75600004 1.796688e-38
0.038260955 0.0064971298 0.75800002 1.7972635e-38
0.039809525 0.0065142661 0.76000005 1.7875763e-38
0.041311443 0.0065228567 0.76100004 1.7602037e-38
0.042760979 0.0065228641 0.76100004 1.7228966e-38
-0.018285703 0.0080457106 0.76800001 8.3669009e-40
-0.016757142 0.0080142766 0.76500005 8.3633136e-40
-0.015300018 0.0080142841 0.76499999 8.3633696e-40
-0.013770451 0.0079723746 0.76100004 4.6684819e-40
-0.012304764 0.007961899 0.75999999 9.7004886e-41
-0.010828564 0.0079409555 0.75800002 3.3205827e-39
-0.0093600256 0.007919997 0.75600004 6.4677603e-39
-0.0079200165 0.007919997 0.75600004 9.1313667e-39
-0.0064714183 0.0079095289 0.755 1.1871639e-38
-0.0050333319 0.0079095215 0.75500005 1.1302604e-38
-0.0035857053 0.007888563 0.75300002 1.0836977e-38
-0.002142865 0.0078571364 0.75000006 1.1112849e-38
-0.00071428512 0.0078571439 0.75000006 1.1388717e-38
0.00071429479 0.0078571364 0.75000006 1.1664226e-38
0.0021371369 0.0078362003 0.74799997 1.1848248e-38
0.0035618984 0.0078362077 0.74799997 1.1939715e-38
0.0049866578 0.0078362003 0.74799997 1.2031197e-38
0.0064114481 0.0078361928 0.74800003 1.2123038e-38
0.0078362096 0.0078361928 0.74800003 1.2214522e-38
0.0092609711 0.0078361928 0.74800003 1.2030856e-38
0.010685733 0.0078361928 0.74800003 1.1847163e-38
0.012110494 0.0078362003 0.74800003 1.2963873e-38
0.013535256 0.0078361928 0.74800003 1.3986394e-38
0.014960016 0.0078361928 0.74800003 1.501573e-38
0.016384777 0.0078362003 0.74800003 1.6142899e-38
0.017809536 0.0078361928 0.74800003 1.6783986e-38
0.0192343 0.0078361854 0.74800003 1.7425396e-38
0.020659059 0.0078362003 0.74800003 1.6782902e-38
0.022083823 0.0078362003 0.74800003 1.6230448e-38
0.02350858 0.0078361854 0.74800003 1.4943311e-38
0.024933344 0.0078361928 0.74800003 1.3655764e-38
0.026428547 0.007857129 0.75000006 8.9426818e-39
0.027857125 0.0078571364 0.75000006 4.2249625e-39
0.029285707 0.0078571439 0.75000006 3.5914117e-39
0.030837176 0.007888563 0.75300002 2.960044e-39
0.032357156 0.0079095289 0.755 4.98222e-39
0.033839978 0.0079199895 0.75600004 7.0069379e-39
0.035279989 0.007919997 0.75600004 1.2080521e-38
0.036817137 0.0079409406 0.75800002 1.7235153e-38
0.0383619 0.007961899 0.75999999 1.7143323e-38
0.039861951 0.0079723671 0.76100004 1.7050774e-38
0.041420009 0.0079933256 0.76300001 1.69593e-38
-0.018285725 0.0095085725 0.76800001 8.3669009e-40
-0.016757153 0.0094714314 0.76499999 7.4449586e-40
-0.015299999 0.0094714239 0.76500005 6.5194851e-40
-0.013770453 0.0094219074 0.76100004 3.7501269e-40
-0.012304742 0.0094095021 0.76000005 9.7356612e-41
-0.010828579 0.0093847513 0.75800002 2.7587951e-39
-0.0093600228 0.009359993 0.75600004 5.4486016e-39
-0.0079200137 0.0093600079 0.75600004 8.7769531e-39
-0.0064800046 0.0093599856 0.75600004 1.2057831e-38
-0.0050333343 0.0093476176 0.755 1.1480543e-38
-0.0035952476 0.0093476176 0.75500005 1.0837696e-38
-0.002142865 0.0092857182 0.75 1.1113205e-38
-0.00071431027 0.0092857108 0.75000006 1.1296883e-38
0.00071426964 0.0092857108 0.75000006 1.1572755e-38
0.0021371574 0.0092609525 0.74800003 1.1848255e-38
0.0035714034 0.0092857033 0.75000006 1.1939724e-38
0.0049866801 0.0092609525 0.74800003 1.2031193e-38
0.0064114416 0.0092609525 0.74800003 1.2122662e-38
0.0078362022 0.009260945 0.74800003 1.2122697e-38
0.0092609618 0.0092609525 0.74800003 1.1755391e-38
0.010685723 0.0092609525 0.74800003 1.1313101e-38
0.012110485 0.009260945 0.74800003 1.3715562e-38
0.013535246 0.0092609599 0.74800003 1.6121653e-38
0.014960008 0.0092609525 0.74799997 1.6507004e-38
0.016384769 0.009260945 0.74799997 1.6784683e-38
0.017809529 0.0092609599 0.74799997 1.705949e-38
0.019234288 0.0092609525 0.74799997 1.733534e-38
0.020659052 0.009260945 0.74799997 1.69687e-38
0.022083811 0.0092609599 0.74799997 1.6595243e-38
0.023508579 0.0092609599 0.74799997 1.337955e-38
0.024999991 0.0092857033 0.75000006 1.013728e-38
0.026428573 0.0092857033 0.75000006 5.1555172e-39
0.027857151 0.0092857033 0.75000006 1.0096776e-40
0.029363811 0.0093104616 0.75200003 2.4050948e-39
0.030837165 0.0093228519 0.75300002 4.6112949e-39
0.032357156 0.0093476102 0.75500005 5.7104468e-39
0.033839982 0.009359993 0.75600004 6.828292e-39
0.035373319 0.0093847513 0.75800002 1.1718207e-38
0.036914304 0.009409517 0.76000005 1.6497236e-38
0.038412407 0.0094219074 0.76100004 1.6406114e-38
0.039861917 0.0094218999 0.76100004 1.6222804e-38
0.041419987 0.0094466507 0.76300001 1.6406478e-38
0.042985696 0.0094714239 0.76500005 1.6591215e-38
-0.018214289 0.010928564 0.76499999 8.3705022e-40
-0.016757164 0.010928579 0.76499999 8.3633136e-40
-0.01525999 0.010899983 0.76300001 9.2781373e-40
-0.013770453 0.010871425 0.76100004 6.5051918e-40
-0.012304775 0.010857128 0.76000005 4.6433286e-40
-0.010828568 0.01082857 0.75800002 1.8458072e-39
-0.0093847662 0.010828555 0.75800002 3.1484108e-39
-0.0079200109 0.010799982 0.75600004 7.6613093e-39
-0.0064800307 0.010800004 0.75599998 1.2153265e-38
-0.0050333086 0.010785714 0.75500005 1.149167e-38
-0.0035952216 0.010785714 0.75500005 1.0837698e-38
-0.0021428603 0.010714285 0.75000006 1.1021006e-38
-0.00071428047 0.010714278 0.75000006 1.1296524e-38
0.00071429944 0.01071427 0.75000006 1.1480565e-38
0.0021428533 0.010714278 0.75000006 1.1664232e-38
0.0035714314 0.01071427 0.75000006 1.1847539e-38
0.0050000111 0.010714278 0.75000006 1.2030831e-38
0.006428591 0.010714278 0.75000006 1.221484e-38
0.0078361938 0.010685712 0.74799997 1.230638e-38
0.0092609543 0.01068572 0.74799997 1.3062292e-38
0.010685716 0.010685712 0.74799997 1.3811406e-38
0.012110475 0.010685712 0.74799997 1.529915e-38
0.013535237 0.01068572 0.74799997 1.6696426e-38
0.014959998 0.01068572 0.74799997 1.6786481e-38
0.01638476 0.010685705 0.74799997 1.6878322e-38
0.017809521 0.01068572 0.74799997 1.5774508e-38
0.019234281 0.01068572 0.74799997 1.4765008e-38
0.020659044 0.010685705 0.74799997 1.2733839e-38
0.022142835 0.010714278 0.75000006 1.0802397e-38
0.023508567 0.01068572 0.74799997 7.9289223e-39
0.024999995 0.01071427 0.75000006 5.1433301e-39
0.026428573 0.010714285 0.75000006 2.9456989e-39
0.027857129 0.010714278 0.75000006 7.4093796e-40
0.029363796 0.010742858 0.75199997 3.2319842e-39
0.030837156 0.010757148 0.75300002 5.8080318e-39
0.032357153 0.010785714 0.75500005 6.082811e-39
0.033839982 0.010799997 0.75600004 6.3669649e-39
0.035373338 0.010828562 0.75800002 1.1529519e-38
0.03691427 0.010857128 0.76000005 1.6680903e-38
0.038412403 0.01087141 0.76100004 1.6405741e-38
0.039861917 0.010871433 0.76100004 1.6220995e-38
0.041419994 0.010899998 0.76300001 1.6222073e-38
-0.018214298 0.012385719 0.76499999 7.4450007e-40
-0.016713344 0.012353331 0.76300001 9.2780952e-40
-0.015260008 0.012353323 0.76300001 1.1107645e-39
-0.013752403 0.012304761 0.75999999 1.0182129e-39
-0.012304782 0.012304753 0.75999999 8.3202657e-40
-0.010828584 0.01227238 0.75800002 8.2843644e-40
-0.0093600173 0.012239993 0.75600004 8.4606057e-40
-0.0079200082 0.012239985 0.75600004 6.5668111e-39
-0.0064714253 0.012223817 0.755 1.2156128e-38
-0.0050333375 0.012223803 0.75500005 1.1494535e-38
-0.0035952243 0.01222381 0.75500005 1.0749439e-38
-0.0021428594 0.012142844 0.75000006 1.1020634e-38
-0.00071430654 0.012142859 0.75000006 1.1204321e-38
0.00071427337 0.012142844 0.75000006 1.1388011e-38
0.0021428533 0.012142844 0.75000006 1.1480208e-38
0.0035714342 0.012142859 0.75000006 1.1755358e-38
0.0049999868 0.012142844 0.75000006 1.2037707e-38
0.0064285668 0.012142844 0.75000006 1.2307142e-38
0.0078361863 0.012110472 0.74799997 1.2518497e-38
0.0092609478 0.012110479 0.74799997 1.4467193e-38
0.010685708 0.012110479 0.74799997 1.6314343e-38
0.01211047 0.012110472 0.74799997 1.6788623e-38
0.013535231 0.012110479 0.74799997 1.7245997e-38
0.014959993 0.012110479 0.74799997 1.7063752e-38
0.016384752 0.012110479 0.74799997 1.6872558e-38
0.017809514 0.012110479 0.74799997 1.4486283e-38
0.019234274 0.012110479 0.74799997 1.2077719e-38
0.020714287 0.012142844 0.75000006 8.5832726e-39
0.022142865 0.012142837 0.75000006 4.984804e-39
0.023571443 0.012142852 0.75000006 2.5737411e-39
0.025000025 0.012142844 0.75000006 9.6678384e-41
0.026428577 0.012142844 0.75000006 7.434575e-40
0.027931437 0.012175232 0.75199997 1.2980564e-39
0.029363807 0.012175232 0.75200003 4.1575124e-39
0.030919034 0.01222381 0.755 7.0029709e-39
0.032357149 0.012223817 0.755 6.4462098e-39
0.033839989 0.01224 0.75600004 5.8195323e-39
0.035373345 0.012272358 0.75800002 1.135229e-38
0.036914259 0.012304761 0.75999999 1.6772008e-38
0.038412403 0.012320943 0.76100004 1.6498284e-38
0.039861917 0.012320966 0.76100004 1.6130583e-38
0.041528549 0.012385711 0.76500005 1.6130226e-38
-0.01821428 0.013842851 0.76500005 9.2781513e-40
-0.016713362 0.013806671 0.76300001 9.2709346e-40
-0.015219972 0.013770469 0.76100004 9.2565573e-40
-0.013752379 0.013752379 0.76000005 7.4233926e-40
-0.012304759 0.013752371 0.76000005 6.5014363e-40
-0.01082857 0.013716176 0.75800002 5.5543547e-40
-0.0093847709 0.013716184 0.75800002 4.6257002e-40
-0.0079200063 0.013679996 0.75600004 5.4464842e-39
-0.0064800265 0.013680011 0.75599998 1.0419499e-38
-0.0050333412 0.013661914 0.755 1.0769171e-38
-0.0035952281 0.013661899 0.755 1.1113901e-38
-0.002148574 0.013607614 0.75199997 1.1296485e-38
-0.00071620179 0.013607606 0.75199997 1.1479821e-38
0.0007161714 0.013607614 0.75200003 1.1944761e-38
0.0021485698 0.013607614 0.75200003 1.239821e-38
0.0035714062 0.013571411 0.75000006 1.3061158e-38
0.0049999859 0.013571434 0.75000006 1.3710897e-38
0.0064285649 0.013571419 0.75000006 1.3630972e-38
0.0078361789 0.013535239 0.74799997 1.3472473e-38
0.0092609385 0.013535254 0.74799997 1.383844e-38
0.0106857 0.013535246 0.74799997 1.4311959e-38
0.012110461 0.013535239 0.74799997 1.3289922e-38
0.013535222 0.013535246 0.74799997 1.2373328e-38
0.014959984 0.013535239 0.74799997 1.04304e-38
0.016384745 0.013535239 0.74799997 8.5004376e-39
0.017809507 0.013535239 0.74799997 7.2872229e-39
0.019234268 0.013535239 0.74799997 6.0685668e-39
0.020714283 0.013571426 0.75000006 4.3290313e-39
0.022142865 0.013571419 0.75000006 2.5719418e-39
0.02357142 0.013571411 0.75000006 1.564603e-39
0.024999999 0.013571426 0.75000006 6.5055702e-40
0.02642858 0.013571419 0.75000006 1.3852452e-39
0.02793142 0.013607614 0.75199997 2.2135499e-39
0.029402889 0.013625719 0.75300002 4.6156123e-39
0.03091906 0.013661914 0.75500005 7.0083518e-39
0.032357175 0.013661899 0.75500005 6.2682813e-39
0.033839989 0.013679996 0.75600004 5.6322669e-39
0.03537333 0.013716176 0.75800002 9.6891899e-39
0.03681716 0.013716176 0.75800002 1.3831466e-38
0.038361903 0.013752371 0.76000005 1.3923293e-38
0.039861917 0.013770469 0.76100004 1.4019433e-38
0.041528534 0.013842843 0.76499999 1.4660487e-38
-0.018214291 0.015299991 0.76499999 1.1111246e-39
-0.016713357 0.015259989 0.76300001 9.2673333e-40
-0.01526002 0.015260004 0.76300001 6.508653e-40
-0.013770456 0.015219994 0.76100004 5.5938714e-40
-0.012304766 0.015199989 0.76000005 4.6647825e-40
-0.010828558 0.015159994 0.75800002 2.8065766e-40
-0.009384756 0.015159979 0.75800002 9.9887357e-41
-0.0079200035 0.015119992 0.75600004 4.3361892e-39
-0.0064800242 0.015119992 0.75599998 8.5745817e-39
-0.0050333152 0.015100002 0.75500005 1.0048582e-38
-0.0036000309 0.015119992 0.75600004 1.140597e-38
-0.0021514127 0.01506 0.75300002 1.1571648e-38
-0.00071711728 0.01506 0.75300002 1.1772236e-38
0.00071617885 0.015040003 0.75199997 1.2604909e-38
0.0021485512 0.01504001 0.75199997 1.3350018e-38
0.0035809225 0.015039995 0.75199997 1.4380318e-38
0.0050000176 0.014999986 0.75000006 1.5386596e-38
0.0064285714 0.014999993 0.75000006 1.4941443e-38
0.0078571504 0.014999993 0.75000006 1.4383648e-38
0.0092857303 0.014999993 0.75000006 1.3284884e-38
0.010685693 0.014960006 0.74799997 1.2168845e-38
0.012110454 0.014960006 0.74799997 9.7771537e-39
0.013535213 0.014960021 0.74799997 7.3790009e-39
0.015000023 0.014999993 0.75000006 3.7837595e-39
0.016428577 0.014999986 0.75000012 1.0998511e-40
0.017857127 0.015000001 0.75000006 9.3130296e-41
0.019285707 0.015000001 0.75 9.4902938e-41
0.020714261 0.014999986 0.75000006 9.2372193e-41
0.022142839 0.014999993 0.75000006 9.4518983e-41
0.023571417 0.015000001 0.75000006 6.4588509e-40
0.024999995 0.014999986 0.75 1.1068534e-39
0.02642855 0.015000001 0.75000006 2.1166823e-39
0.027931431 0.015039988 0.75199997 3.1397998e-39
0.029363804 0.015039995 0.75199997 5.0830658e-39
0.030919056 0.015100002 0.755 7.0065694e-39
0.032399982 0.015119992 0.75600004 6.1692683e-39
0.033839993 0.01512 0.75600004 5.3567661e-39
0.035373341 0.015160002 0.75800002 8.1240559e-39
0.036914278 0.015200004 0.75999999 1.0791943e-38
0.038412426 0.015220001 0.76100004 1.1343669e-38
0.039861914 0.015220001 0.76100004 1.1898989e-38
0.04141999 0.015259996 0.76299995 1.3281186e-38
0.042873327 0.015259996 0.76300001 1.4565098e-38
-0.0182143 0.016757138 0.76499999 1.1111218e-39
-0.016713345 0.016713329 0.76300001 8.3489503e-40
-0.015260013 0.016713329 0.76300001 6.508653e-40
-0.013770457 0.016669512 0.76100004 5.5974587e-40
-0.012304773 0.016647607 0.75999999 5.5975428e-40
-0.010857153 0.016647607 0.75999999 3.7357916e-40
-0.0093847457 0.016603798 0.75800002 2.7853189e-40
-0.0079200305 0.016560003 0.75599998 2.4033194e-39
-0.0064800209 0.016560003 0.75599998 4.6264149e-39
-0.0050400384 0.016559996 0.75600004 8.3952884e-39
-0.0036000281 0.016559996 0.75600004 1.2154705e-38
-0.0021514248 0.016494274 0.75300002 1.1969856e-38
-0.00071712938 0.016494289 0.75300002 1.179919e-38
0.00071716512 0.016494274 0.75300002 1.0601829e-38
0.0021485633 0.016472377 0.75199997 9.3326646e-39
0.0035809365 0.016472369 0.75200003 8.9563837e-39
0.0049999915 0.016428567 0.75000006 8.5947758e-39
0.0064285714 0.01642856 0.75000006 7.9382899e-39
0.0078571495 0.016428567 0.75000006 7.2950897e-39
0.0092857042 0.01642856 0.75000006 6.7308093e-39
0.010685713 0.016384766 0.74800003 6.1589534e-39
0.012110475 0.016384758 0.74800003 4.9718714e-39
0.013571418 0.016428567 0.75000006 3.7657948e-39
0.014999997 0.016428567 0.75000006 2.2095954e-39
0.016428577 0.01642856 0.75000006 6.4336135e-40
0.017857155 0.01642856 0.75000006 5.5402717e-40
0.019285711 0.01642856 0.75000006 5.5402857e-40
0.02071429 0.01642856 0.75000006 5.5510617e-40
0.022142868 0.016428575 0.75000006 6.4910107e-40
0.02357142 0.016428567 0.75000006 8.3134414e-40
0.025066672 0.016472377 0.75200003 1.1061234e-39
0.026499042 0.016472377 0.75200003 3.136539e-39
0.027931442 0.016472369 0.75200003 5.2577587e-39
0.029402867 0.016494274 0.75300002 5.6319517e-39
0.030919056 0.016538098 0.75500005 6.0006949e-39
0.032399986 0.016559996 0.75600004 5.7179788e-39
0.033929527 0.016603805 0.75800002 5.358208e-39
0.03537333 0.016603798 0.75800002 7.9357368e-39
0.0369143 0.016647607 0.76000005 1.0419238e-38
0.038412426 0.016669519 0.76100004 1.0420312e-38
0.039861914 0.016669519 0.76100004 1.0420316e-38
0.041420002 0.016713336 0.76300001 1.1064962e-38
-0.018214282 0.018214285 0.76500005 1.0189276e-39
-0.016713338 0.018166654 0.76300001 8.3489783e-40
-0.015260032 0.018166669 0.76300001 6.5158277e-40
-0.013770458 0.018119037 0.76100004 6.5229743e-40
-0.012320945 0.018119052 0.76100004 5.5974447e-40
-0.01085716 0.01809524 0.75999999 5.5866687e-40
-0.0093847606 0.018047616 0.75800002 4.6469579e-40
-0.0079409331 0.018047608 0.75800002 5.5547191e-40
-0.0064800186 0.017999999 0.75599998 5.7452817e-40
-0.0050400356 0.018000007 0.75600004 6.7505087e-39
-0.0036000253 0.017999992 0.75600004 1.2809088e-38
-0.0021514099 0.017928571 0.75300002 1.2353805e-38
-0.00071714149 0.017928571 0.75300002 1.1796002e-38
0.000716204 0.017904758 0.75200003 8.5781985e-39
0.0021485465 0.017904751 0.75199997 5.2656803e-39
0.0035809178 0.017904766 0.75199997 3.5179542e-39
0.0050000194 0.017857134 0.75000006 1.7666128e-39
0.0064285435 0.017857134 0.75000006 9.2214688e-40
0.0078571234 0.017857149 0.75000006 1.0316079e-40
0.0092857033 0.017857134 0.75000006 9.2400219e-41
0.010685732 0.017809533 0.74799997 9.4532996e-41
0.012110493 0.017809525 0.74799997 9.3079849e-41
0.013535255 0.017809533 0.74799997 9.4869307e-41
0.014999998 0.017857134 0.75000006 6.4551935e-40
0.016428551 0.017857149 0.75000006 1.1061276e-39
0.017857131 0.017857134 0.75000006 1.0171577e-39
0.019285711 0.017857127 0.75000006 9.2460335e-40
0.02071429 0.017857142 0.75000006 1.0167948e-39
0.022142842 0.017857127 0.75000006 1.1086345e-39
0.023634255 0.017904758 0.75199997 1.1079226e-39
0.025066653 0.017904758 0.75199997 1.0203975e-39
0.026499027 0.017904758 0.75199997 4.2489948e-39
0.027968585 0.017928578 0.75300002 7.3768023e-39
0.029402882 0.017928571 0.75300002 6.1854716e-39
0.030959979 0.018000007 0.75600004 4.9833312e-39
0.032399986 0.017999992 0.75600004 5.160517e-39
0.033929542 0.018047594 0.75800002 5.3542619e-39
0.035466645 0.018095233 0.75999999 7.7491875e-39
0.036914293 0.018095233 0.75999999 1.0048661e-38
0.038412429 0.018119037 0.76100004 9.4972891e-39
0.039861914 0.018119052 0.76100004 8.9469992e-39
0.041419979 0.018166654 0.76300001 8.8519407e-39
-0.018214293 0.019671425 0.76499999 1.2018811e-39
-0.016757138 0.019671418 0.76500005 9.2709346e-40
-0.015259996 0.019619994 0.76300001 6.5230023e-40
-0.013770434 0.01956857 0.76100004 5.6046053e-40
-0.012320946 0.019568563 0.76100004 4.6861663e-40
-0.010857137 0.019542836 0.76000005 4.6717189e-40
-0.0093847755 0.019491412 0.75800002 4.6611391e-40
-0.0079409471 0.019491419 0.75800002 3.7429523e-40
-0.0064800163 0.019440003 0.75599998 3.7542748e-40
-0.0050400328 0.019440003 0.75600004 4.4374092e-39
-0.0036000235 0.019439995 0.75600004 8.4978985e-39
-0.002151421 0.019362859 0.75300002 9.8725569e-39
-0.00071712752 0.019362852 0.75300002 1.133005e-38
0.00071714184 0.019362859 0.75300002 7.1862943e-39
0.0021485577 0.01933714 0.75199997 3.0311025e-39
0.0035809309 0.019337133 0.75200003 2.0277321e-39
0.0049999952 0.019285701 0.75000006 1.0107131e-39
0.0064285751 0.019285709 0.75000006 7.3662757e-40
0.0078571551 0.019285701 0.75000006 5.5187478e-40
0.0092857089 0.019285709 0.75000006 4.614686e-40
0.010685724 0.0192343 0.74799997 3.6963171e-40
0.012110484 0.019234292 0.74799997 4.6397693e-40
0.013535245 0.019234285 0.74799997 6.5052899e-40
0.015000002 0.019285701 0.75000006 7.4093937e-40
0.016428582 0.019285694 0.75000006 8.3277626e-40
0.01785716 0.019285709 0.75000006 9.2568796e-40
0.019285714 0.019285694 0.75000006 1.0178766e-39
0.020714294 0.019285716 0.75000012 8.3312379e-40
0.022142844 0.019285716 0.75 6.5017306e-40
0.02363427 0.01933714 0.75200003 1.750048e-39
0.025066666 0.019337133 0.75200003 2.9442906e-39
0.026534282 0.019362852 0.75300002 5.4479051e-39
0.027968574 0.019362852 0.75300002 7.9371535e-39
0.029480936 0.019414283 0.755 5.8123856e-39
0.030959979 0.019440003 0.75600004 3.6890275e-39
0.03239999 0.019439995 0.75600004 4.5183944e-39
0.033929523 0.019491412 0.75800002 5.4446625e-39
0.035466667 0.019542843 0.76000005 8.1172386e-39
0.036914282 0.019542858 0.75999999 1.0783698e-38
0.038412426 0.019568563 0.76100004 1.0049731e-38
0.03986191 0.019568563 0.76100004 9.3143384e-39
0.041419994 0.019619994 0.76300001 9.1281633e-39
-0.018214304 0.021128573 0.76499999 1.2947998e-39
-0.016757149 0.021128558 0.76499999 1.0196506e-39
-0.015260014 0.021073326 0.76300001 6.5230444e-40
-0.013806682 0.021073326 0.76299995 4.6862924e-40
-0.012320948 0.021018095 0.76100004 2.8423518e-40
-0.010900011 0.021073319 0.76300001 3.7570634e-40
-0.0093847653 0.02093523 0.75800002 4.6791318e-40
-0.0079409629 0.02093523 0.75800002 2.8353733e-40
-0.0064800396 0.020879999 0.75600004 1.0132649e-40
-0.00504003 0.020880006 0.75600004 2.1249598e-39
-0.0036000207 0.020879999 0.75600004 4.1668983e-39
-0.0021514033 0.020797133 0.75300002 7.49238e-39
-0.00071713777 0.020797141 0.75300002 1.0782647e-38
0.00071619748 0.020769514 0.75200003 5.8059243e-39
0.0021485707 0.020769514 0.75200003 8.3925447e-40
0.0035714146 0.020714283 0.75000006 5.5153286e-40
0.0049999943 0.020714276 0.75000006 1.8490273e-40
0.0064285733 0.02071429 0.75000006 6.4550954e-40
0.0078361928 0.020659052 0.74799997 1.0128515e-39
0.009285707 0.020714276 0.75000006 8.3205039e-40
0.010685715 0.020659059 0.74799997 6.4801226e-40
0.012110476 0.020659059 0.74799997 9.2566273e-40
0.013535238 0.020659044 0.74799997 1.110061e-39
0.015 0.020714283 0.75000006 8.3528178e-40
0.016428579 0.020714276 0.75000006 4.6722514e-40
0.017857134 0.020714268 0.75000006 8.3528879e-40
0.019285712 0.020714283 0.75000006 1.1086387e-39
0.020714292 0.020714283 0.75000006 6.4694727e-40
0.022142872 0.020714268 0.75000006 9.5218231e-41
0.023571426 0.020714283 0.75000006 2.4807901e-39
0.025066651 0.020769507 0.75199997 4.800749e-39
0.02649902 0.020769529 0.75199997 6.6604557e-39
0.027968563 0.020797148 0.75300002 8.4838715e-39
0.029480962 0.02085238 0.75500005 5.4374963e-39
0.030959982 0.020879984 0.75600004 2.4036753e-39
0.032399993 0.020879999 0.75600004 3.9630654e-39
0.033929534 0.02093523 0.75800002 5.4471722e-39
0.035373338 0.020935215 0.75800002 8.4917664e-39
0.036914308 0.020990469 0.76000005 1.1521257e-38
0.0383619 0.020990461 0.75999999 1.0602897e-38
0.039809521 0.020990469 0.75999999 9.6827524e-39
0.04131145 0.021018095 0.76100004 9.4944235e-39
-0.019851439 0.022792369 0.77199996 1.5706776e-39
-0.018333316 0.022733331 0.7700001 1.2940893e-39
-0.016822847 0.022674292 0.76800001 1.018936e-39
-0.015300006 0.022585712 0.76499999 8.3526077e-40
-0.013842851 0.022585712 0.76500005 6.5158557e-40
-0.012353365 0.022526659 0.76300001 5.5903121e-40
-0.010871406 0.022467606 0.76100004 5.5974587e-40
-0.0094095301 0.022438101 0.75999999 5.6190667e-40
-0.0079409517 0.022379041 0.75800002 4.6864465e-40
-0.0064971498 0.022379026 0.75800002 2.8389186e-40
-0.0050400272 0.02232001 0.75600004 1.4820511e-39
-0.0036000169 0.022320002 0.75600004 2.7760689e-39
-0.0021514155 0.02223143 0.75300002 4.7183149e-39
-0.00071712007 0.022231422 0.75300002 6.6558118e-39
0.00071717351 0.022231422 0.75300002 6.5557072e-39
0.0021514383 0.022231437 0.75300002 6.4584473e-39
0.0035809244 0.022201903 0.75199997 5.3452572e-39
0.0050133215 0.022201888 0.75199997 4.2260149e-39
0.0064285798 0.022142842 0.75000006 2.3896665e-39
0.0078571588 0.02214285 0.75000006 5.5260345e-40
0.0092857387 0.02214285 0.75000006 4.6256582e-40
0.010714263 0.022142857 0.75000006 3.728673e-40
0.012142843 0.022142857 0.75000006 4.6468739e-40
0.013571422 0.022142857 0.75000006 6.5123805e-40
0.014999975 0.02214285 0.75000006 4.657832e-40
0.016428556 0.022142857 0.75000006 2.8319401e-40
0.017857134 0.022142857 0.75000006 4.6471821e-40
0.019285716 0.022142865 0.75000006 6.4838921e-40
0.020714268 0.022142857 0.75000006 2.3939797e-39
0.022142848 0.02214285 0.75000006 4.1338333e-39
0.023634266 0.022201896 0.75199997 5.8094723e-39
0.025066663 0.022201896 0.75199997 7.4840871e-39
0.026534313 0.02223143 0.75300002 6.744074e-39
0.02796861 0.022231422 0.75300002 6.002888e-39
0.029480958 0.022290476 0.755 3.8784298e-39
0.030919047 0.022290476 0.75500005 1.8519322e-39
0.032399993 0.022319995 0.75600004 3.9687925e-39
0.033839978 0.022319987 0.75600004 6.0017725e-39
0.035373345 0.022379041 0.75800002 8.5814607e-39
0.036914274 0.022438087 0.75999999 1.1247909e-38
0.038361896 0.022438079 0.76000005 1.0604332e-38
0.039809544 0.022438079 0.76000005 9.9618434e-39
0.041311454 0.022467613 0.76100004 9.8678569e-39
0.042760994 0.022467621 0.76100004 9.7767375e-39
-0.019851439 0.024262846 0.77200001 1.5713853e-39
-0.018333331 0.024199992 0.77000004 1.2947998e-39
-0.016822867 0.024137154 0.76800001 1.1100512e-39
-0.015300016 0.024042845 0.76499999 9.2673473e-40
-0.013842862 0.024042852 0.76499999 8.3453629e-40
-0.012353359 0.023980007 0.76300001 7.4234207e-40
-0.010871407 0.023917139 0.76100004 7.4198473e-40
-0.0093847401 0.023822837 0.75800002 6.5230724e-40
-0.0079409676 0.023822859 0.75800002 5.6191368e-40
-0.0064971391 0.023822844 0.75800002 4.6828452e-40
-0.0050400253 0.023759991 0.75600004 9.263872e-40
-0.0036000151 0.023759998 0.75600004 1.3002172e-39
-0.0021514005 0.023665704 0.75300002 1.8573609e-39
-0.00071713218 0.023665711 0.75300002 2.4191526e-39
0.00071619189 0.023634277 0.75199997 7.302235e-39
0.0021514569 0.023665711 0.75300002 1.2071926e-38
0.0035809635 0.023634277 0.75200003 1.0236276e-38
0.0050133346 0.023634277 0.75200003 8.2890518e-39
0.0064285779 0.023571424 0.75000006 4.2260233e-39
0.0078571318 0.023571424 0.75000006 1.0096075e-40
0.0093104495 0.023634285 0.75199997 9.2352575e-41
0.010714291 0.023571424 0.75000006 9.5927288e-41
0.012142844 0.023571417 0.75000006 9.2687486e-41
0.013571424 0.023571417 0.75000006 9.6281816e-41
0.015000003 0.023571417 0.75000006 9.2701499e-41
0.016428582 0.023571417 0.75000006 9.6300033e-41
0.017857138 0.023571417 0.75000006 9.2365187e-41
0.019285716 0.023571417 0.75000006 1.045733e-40
0.020714296 0.023571417 0.75000006 4.1467827e-39
0.022142878 0.023571417 0.75000006 8.2026071e-39
0.023634277 0.023634285 0.75200003 9.2314488e-39
0.025066677 0.02363427 0.75200003 1.0141924e-38
0.026499018 0.023634285 0.75199997 6.8279683e-39
0.028042872 0.023728579 0.75500005 3.4221446e-39
0.029519977 0.023760006 0.75600004 2.4047613e-39
0.030959986 0.023759991 0.75600004 1.3016395e-39
0.032485701 0.023822844 0.75800002 3.9659241e-39
0.033929527 0.023822851 0.75800002 6.5517065e-39
0.035466675 0.023885697 0.76000005 8.7679932e-39
0.036914267 0.023885712 0.75999999 1.0880205e-38
0.038361888 0.023885705 0.75999999 1.0603977e-38
0.03986191 0.023917146 0.76100004 1.0237361e-38
0.041311454 0.023917131 0.76100004 1.0329922e-38
-0.018380966 0.025733314 0.77200001 1.2951529e-39
-0.016866658 0.025666654 0.77000004 1.1107645e-39
-0.015340004 0.025566682 0.76700002 1.0189248e-39
-0.013842873 0.025499992 0.76499999 9.2636759e-40
-0.012353322 0.025433324 0.76300001 8.3417756e-40
-0.010871409 0.025366664 0.76100004 6.508681e-40
-0.0094095152 0.025333337 0.75999999 5.5975568e-40
-0.0079409266 0.025266655 0.75800002 5.6047735e-40
-0.0064971549 0.025266662 0.75800002 4.6864886e-40
