# .PCD v0.7 - Point Cloud Data file format
VERSION 0.7
FIELDS x y z rgb
SIZE 4 4 4 4
TYPE F F F F
COUNT 1 1 1 1
WIDTH 969
HEIGHT 1
VIEWPOINT 0 0 0 1 0 0 0
POINTS 969
DATA ascii
-0.017857136 0.0107143 0.75000012 4.8907699e-39
-0.016428571 0.010714293 0.75000012 5.72232e-39
-0.014939997 0.010671422 0.7470001 6.5513576e-39
-0.013517157 0.010671437 0.7470001 6.5517233e-39
-0.012061908 0.010642879 0.74500006 6.6424854e-39
-0.010642855 0.010642856 0.74500012 6.7343223e-39
-0.0092238123 0.010642856 0.74500012 6.8240068e-39
-0.0078047682 0.010642871 0.74500012 5.9978461e-39
-0.006385725 0.010642871 0.74500006 5.1716896e-39
-0.004966672 0.010642864 0.74500012 6.0007244e-39
-0.0035476291 0.010642856 0.74500012 6.8293976e-39
-0.0021228562 0.010614291 0.74300009 6.2769497e-39
-0.00070761016 0.010614291 0.74300009 5.8141891e-39
0.00070666883 0.010599993 0.7420001 5.6298049e-39
0.002122859 0.010614298 0.74300003 5.4432584e-39
0.003533327 0.010599993 0.7420001 7.1041838e-39
0.0049466542 0.010600001 0.7420001 8.8537232e-39
0.0063599916 0.010600016 0.7420001 8.7636828e-39
0.007773329 0.010600001 0.7420001 8.7611772e-39
0.0091866581 0.010600001 0.7420001 8.7640527e-39
0.010599994 0.010599993 0.7420001 8.8583783e-39
0.012013323 0.010600016 0.7420001 4.7121281e-39
0.013426661 0.010600008 0.7420001 5.6408289e-40
0.014860011 0.010614298 0.74300009 7.4701399e-40
0.016275242 0.010614291 0.74300009 1.0214611e-39
0.017690482 0.010614291 0.74300009 1.0214779e-39
0.019157138 0.010642856 0.74500012 1.1158259e-39
0.020631427 0.010671422 0.7470001 1.4828106e-39
0.022054281 0.010671444 0.7470001 1.758666e-39
0.023508566 0.01068572 0.74800009 9.2639561e-40
0.024933331 0.010685727 0.74800009 9.235818e-41
0.02635809 0.01068572 0.74800009 5.7180138e-39
0.027857149 0.0107143 0.75000012 1.1252906e-38
0.029285718 0.0107143 0.75000012 1.373893e-38
0.030796185 0.010742873 0.75200009 1.6218124e-38
-0.026780952 0.012304775 0.76000011 1.756494e-39
-0.025333343 0.012304783 0.76000005 3.2344841e-39
-0.023822859 0.01227238 0.75800002 4.6166885e-39
-0.022379039 0.012272388 0.75800008 5.7215927e-39
-0.020880004 0.01224 0.75600004 6.7307042e-39
-0.019414274 0.012223817 0.75500011 6.2711666e-39
-0.017857134 0.012142867 0.75000012 5.7212354e-39
-0.016428571 0.012142867 0.75000012 6.0003348e-39
-0.014959999 0.012110472 0.74800014 6.2758539e-39
-0.013517136 0.012094274 0.74700016 6.2762266e-39
-0.01206191 0.012061901 0.74500012 6.2755064e-39
-0.010642867 0.012061909 0.74500012 6.0907564e-39
-0.0092238234 0.012061909 0.74500006 5.9052875e-39
-0.0078047654 0.012061909 0.74500006 4.7074772e-39
-0.006385712 0.012061909 0.74500012 3.5157766e-39
-0.0049666693 0.012061916 0.74500012 4.3412282e-39
-0.0035476261 0.012061909 0.74500006 5.0794953e-39
-0.0021228511 0.012029521 0.74300009 4.708922e-39
-0.0007076055 0.012029536 0.74300009 4.3419345e-39
0.00070665253 0.012013331 0.7420001 4.1550307e-39
0.0021228641 0.012029529 0.74300009 3.8820452e-39
0.0035333177 0.012013353 0.7420001 6.5560463e-39
0.0049466551 0.012013339 0.7420001 9.1306646e-39
0.0063599939 0.012013331 0.7420001 8.7665484e-39
0.0077733207 0.012013346 0.7420001 8.3030732e-39
0.009186659 0.012013339 0.7420001 8.4860351e-39
0.010599985 0.012013346 0.7420001 8.5778468e-39
0.012013324 0.012013331 0.7420001 4.5288117e-39
0.013426661 0.012013339 0.7420001 4.7584032e-40
0.014860005 0.012029544 0.74300003 7.4738814e-40
0.016275248 0.012029529 0.74300009 9.3035008e-40
0.017690487 0.012029521 0.74300009 9.2820609e-40
0.019157132 0.012061901 0.74500006 9.3072002e-40
0.020631429 0.012094289 0.7470001 1.2984235e-39
0.022054283 0.012094289 0.7470001 1.5735573e-39
0.023508566 0.012110479 0.74800009 8.3383845e-40
0.024933333 0.012110494 0.74800009 1.0060342e-40
0.026428577 0.012142867 0.75000012 5.6279678e-39
0.027857143 0.012142874 0.75000012 1.1158561e-38
0.029363809 0.012175247 0.75200009 1.3743244e-38
0.030837139 0.012191445 0.75300002 1.6219209e-38
0.032400005 0.01224 0.7560001 1.6127725e-38
0.033840004 0.01224 0.7560001 1.5941907e-38
-0.025266673 0.013716199 0.75800002 3.2337737e-39
-0.023822851 0.013716191 0.75800008 4.61705e-39
-0.022319987 0.013679996 0.7560001 5.4453674e-39
-0.020879989 0.013679996 0.7560001 6.2726043e-39
-0.01941427 0.013661921 0.75500011 5.7212312e-39
-0.017857144 0.013571456 0.75000012 5.1712972e-39
-0.016428581 0.013571449 0.75000012 5.5393595e-39
-0.014960005 0.013535246 0.74800014 5.9081574e-39
-0.013517139 0.013517141 0.74700016 5.908177e-39
-0.012061906 0.013480954 0.74500012 6.0010803e-39
-0.010642863 0.013480961 0.74500006 6.0911137e-39
-0.0092238104 0.013480946 0.74500012 6.0900305e-39
-0.0078047672 0.013480946 0.74500012 5.44538e-39
-0.0063857241 0.013480969 0.74500012 4.8940209e-39
-0.0049666809 0.013480969 0.74500006 5.1713336e-39
-0.0035476128 0.013480946 0.74500012 5.5397448e-39
-0.0021228562 0.013444781 0.74300009 5.1709595e-39
-0.00070761063 0.013444774 0.74300009 4.7096184e-39
0.00070666091 0.013426676 0.7420001 3.5996877e-39
0.0021228623 0.013444759 0.74300009 2.4958933e-39
0.0035381 0.013444766 0.74300009 5.909256e-39
0.0049533388 0.013444766 0.74300009 9.4079648e-39
0.0063685775 0.013444766 0.74300009 8.8555084e-39
0.0077838157 0.013444781 0.74300009 8.3927535e-39
0.0091990465 0.013444781 0.74300003 8.4871099e-39
0.010614295 0.013444766 0.74300009 8.6721906e-39
0.012029533 0.013444759 0.74300009 4.6184892e-39
0.013426659 0.013426684 0.7420001 5.6337663e-40
0.014860003 0.013444774 0.74300009 5.640913e-40
0.016275244 0.013444766 0.74300009 6.5628552e-40
0.017738087 0.013480961 0.74500006 8.3888032e-40
0.01915714 0.013480954 0.74500012 1.0236317e-39
0.020631434 0.013517156 0.7470001 1.3920541e-39
0.022054281 0.013517149 0.7470001 1.7608142e-39
0.023508566 0.013535239 0.74800009 9.2710327e-40
0.024933331 0.013535239 0.74800009 9.2348371e-41
0.026428567 0.013571441 0.75000012 5.2606202e-39
0.027857143 0.013571449 0.75000012 1.0520737e-38
0.0293638 0.013607629 0.75200003 1.2084474e-38
0.030919056 0.013661921 0.75500011 1.3644236e-38
0.032357145 0.013661928 0.75500011 1.3366927e-38
0.033840004 0.013680004 0.7560001 1.3092144e-38
-0.025266664 0.015160002 0.75800008 3.3266938e-39
-0.023885729 0.015200004 0.76000011 4.6167011e-39
-0.022379048 0.015159994 0.75800008 5.1695133e-39
-0.020879989 0.015119992 0.7560001 5.7212396e-39
-0.019414281 0.015100002 0.75500011 5.1695049e-39
-0.017904766 0.01504001 0.75200009 4.5273711e-39
-0.016428564 0.015000015 0.75000012 4.9851109e-39
-0.015000002 0.015000008 0.75000012 5.4471764e-39
-0.013535242 0.014960006 0.74800009 5.6312244e-39
-0.012094288 0.014940009 0.7470001 5.724492e-39
-0.010671434 0.014940001 0.7470001 5.9992782e-39
-0.0092485687 0.014940001 0.74700016 6.2744232e-39
-0.007804764 0.014900006 0.74500012 6.2737029e-39
-0.0063857208 0.014900006 0.74500006 6.1833093e-39
-0.0049666674 0.014899999 0.74500012 6.0932745e-39
-0.0035476249 0.014899999 0.74500012 6.0014334e-39
-0.0021228511 0.014860004 0.74300009 5.541893e-39
-0.00070762041 0.014860004 0.74300009 5.0744619e-39
0.0007076253 0.014860004 0.74300009 3.1301308e-39
0.0021228571 0.014860019 0.74300009 1.1212392e-39
0.0035380959 0.014860019 0.74300003 5.3600311e-39
0.0049533439 0.014860004 0.74300009 9.589489e-39
0.0063685831 0.014860004 0.74300009 9.0388375e-39
0.0077838143 0.014860004 0.74300009 8.3956359e-39
0.0091990521 0.014860004 0.74300009 8.5814649e-39
0.01061429 0.014860004 0.74300009 8.670041e-39
0.01202953 0.014860019 0.74300009 4.6177703e-39
0.01342666 0.014839999 0.7420001 5.6696396e-40
0.014860009 0.014860004 0.74300009 4.7261874e-40
0.016319038 0.014899999 0.74500006 3.8006297e-40
0.017738091 0.014900006 0.74500012 7.4704482e-40
0.019157136 0.014900006 0.74500012 1.1154728e-39
0.020631429 0.014939994 0.7470001 1.4846183e-39
0.022054283 0.014940016 0.7470001 1.8508658e-39
0.023508566 0.014959998 0.74800009 1.021101e-39
0.024933333 0.014960006 0.74800009 1.0204396e-40
0.026428567 0.015000015 0.75000012 4.9851249e-39
0.027857145 0.015000008 0.75000012 9.7785297e-39
0.029363813 0.015040003 0.75200009 1.043001e-38
0.030919051 0.015100025 0.75500011 1.0977429e-38
0.032357149 0.01510001 0.75500011 1.0603981e-38
0.033840004 0.01512 0.7560001 1.023843e-38
-0.025266666 0.016603813 0.75800002 3.326342e-39
-0.023822844 0.01660382 0.75800008 4.8028916e-39
-0.022438103 0.016647629 0.76000011 5.5379413e-39
-0.020879989 0.016559996 0.7560001 6.1807828e-39
-0.01943999 0.016560011 0.7560001 5.7215969e-39
-0.017904766 0.016472399 0.75200003 5.2624124e-39
-0.016428562 0.01642859 0.75000012 5.6301047e-39
-0.015000001 0.016428575 0.75000012 5.9981796e-39
-0.013535249 0.016384773 0.74800009 6.0914654e-39
-0.012094292 0.016362861 0.7470001 6.2758567e-39
-0.010671438 0.016362868 0.7470001 6.4595305e-39
-0.0092485724 0.016362846 0.7470001 6.7343223e-39
-0.0078257164 0.016362861 0.7470001 6.7357601e-39
-0.0064028613 0.016362861 0.7470001 6.8293906e-39
-0.0049666646 0.016319051 0.74500012 6.8297493e-39
-0.0035476217 0.016319051 0.74500006 6.8304654e-39
-0.0021228562 0.016275257 0.74300003 6.8290277e-39
-0.00070761482 0.016275242 0.74300009 6.8247313e-39
0.00070763135 0.016275249 0.74300009 5.5336618e-39
0.0021228623 0.016275249 0.74300009 4.2436558e-39
0.0035381 0.016275242 0.74300009 6.6439288e-39
0.0049533388 0.016275242 0.74300009 9.0402753e-39
0.0063685696 0.016275249 0.74300009 8.5800356e-39
0.0077838083 0.016275257 0.74300003 8.1205008e-39
0.0092238011 0.016319066 0.74500006 8.0293841e-39
0.010614288 0.016275257 0.74300009 7.9411009e-39
0.012029526 0.016275249 0.74300009 4.6181262e-39
0.013444764 0.016275242 0.74300009 1.2973445e-39
0.014899991 0.016319051 0.74500006 1.0225583e-39
0.016319044 0.016319044 0.74500012 7.4669029e-40
0.017738095 0.016319066 0.74500012 1.0221926e-39
0.01915714 0.016319059 0.74500006 1.2065965e-39
0.020631425 0.016362861 0.7470001 1.4835533e-39
0.02208381 0.016384766 0.74800009 1.759759e-39
0.023508577 0.016384766 0.74800009 9.2819768e-40
0.025000006 0.01642859 0.75000012 1.8635588e-40
0.026428577 0.01642859 0.75000012 4.9840585e-39
0.027931426 0.016472384 0.75200009 9.7799745e-39
0.029363811 0.016472384 0.75200009 1.014949e-38
0.030919056 0.016538106 0.75500011 1.0516468e-38
0.032400005 0.016560003 0.7560001 1.0053338e-38
0.033840004 0.016559996 0.75600016 9.5945084e-39
-0.025266659 0.018047623 0.75800008 3.3291965e-39
-0.023885733 0.018095255 0.76000005 4.9854752e-39
-0.0224381 0.018095255 0.76000011 5.8145156e-39
-0.02093523 0.018047631 0.75800008 6.6406735e-39
-0.01943999 0.018000007 0.7560001 6.2740462e-39
-0.017904757 0.017904766 0.75200009 5.9067014e-39
-0.016472382 0.017904766 0.75200009 6.1832827e-39
-0.014999994 0.017857164 0.75000012 6.4588046e-39
-0.013571432 0.017857164 0.75000012 6.6439274e-39
-0.012110475 0.017809525 0.74800009 6.7357587e-39
-0.010685724 0.017809533 0.74800009 6.9205016e-39
-0.0092609581 0.017809533 0.74800009 7.1038181e-39
-0.0078257201 0.017785721 0.7470001 7.2885695e-39
-0.0064028651 0.017785728 0.7470001 7.3811239e-39
-0.0049799997 0.017785713 0.7470001 7.4743957e-39
-0.0035571451 0.017785713 0.7470001 7.5662326e-39
-0.0021228511 0.01769048 0.74300009 8.1186819e-39
-0.00070762041 0.017690495 0.74300009 8.5760615e-39
0.00070762576 0.017690487 0.74300009 8.0275555e-39
0.0021228571 0.017690495 0.74300003 7.3782498e-39
0.0035381052 0.017690472 0.74300009 7.9317753e-39
0.0049533444 0.017690487 0.74300009 8.3927464e-39
0.0063599939 0.017666675 0.7420001 8.1197497e-39
0.0077838134 0.017690487 0.74300009 7.7491819e-39
0.0091990503 0.017690495 0.74300009 7.4736782e-39
0.010614282 0.017690487 0.74300009 7.1952809e-39
0.01202953 0.01769048 0.74300009 4.6159738e-39
0.013444769 0.01769048 0.74300009 1.9427013e-39
0.014899996 0.017738096 0.74500012 1.5732084e-39
0.016319038 0.017738096 0.74500012 1.1129533e-39
0.017738091 0.017738119 0.74500006 1.2040699e-39
0.019157143 0.017738096 0.74500012 1.2977089e-39
0.020631431 0.017785728 0.7470001 1.4835421e-39
0.02208381 0.017809525 0.74800009 1.5746503e-39
0.023508566 0.017809533 0.74800014 9.2928229e-40
0.024999997 0.017857149 0.75000012 1.9460532e-40
0.026428567 0.017857164 0.75000012 4.9840501e-39
0.027931428 0.017904773 0.75200003 9.6813161e-39
0.029363802 0.017904773 0.75200003 9.8711107e-39
0.030960012 0.017999992 0.7560001 1.0053699e-38
0.032400001 0.018000007 0.7560001 9.4983751e-39
0.033929527 0.018047623 0.75800008 8.9484243e-39
0.03537333 0.018047631 0.75800008 9.3143174e-39
-0.025266675 0.019491449 0.75800008 3.3255937e-39
-0.023917144 0.019568585 0.7610001 4.8014329e-39
-0.022438107 0.019542873 0.76000005 5.446089e-39
-0.020935247 0.019491449 0.75800002 6.0892976e-39
-0.01943999 0.019440003 0.75600016 5.9978223e-39
-0.017904773 0.019337147 0.75200003 5.8148729e-39
-0.016472382 0.019337155 0.75200003 5.9992642e-39
-0.014999994 0.019285738 0.75000012 6.1833107e-39
-0.013571431 0.019285731 0.75000012 6.367716e-39
-0.012142853 0.019285724 0.75000012 6.5517345e-39
-0.010714275 0.019285716 0.75000012 6.6442763e-39
-0.0092609506 0.019234285 0.74800009 6.8290291e-39
-0.0078361994 0.019234285 0.74800009 6.9208702e-39
-0.0064028585 0.019208565 0.74700016 7.1049027e-39
-0.0049800039 0.019208573 0.7470001 7.1059803e-39
-0.0035571484 0.019208573 0.7470001 7.1067034e-39
-0.002122846 0.019105732 0.74300009 7.3832903e-39
-0.00070761482 0.019105725 0.74300009 7.5680206e-39
0.00070763088 0.019105725 0.74300009 6.1854491e-39
0.0021228623 0.019105718 0.74300009 4.8100761e-39
0.0035381014 0.019105732 0.74300009 4.7114317e-39
0.0049533318 0.019105732 0.74300003 4.6224506e-39
0.0063599856 0.01908002 0.7420001 4.4351769e-39
0.0077838199 0.019105718 0.74300009 4.2525863e-39
0.0091990577 0.019105725 0.74300009 3.9734967e-39
0.010614288 0.019105725 0.74300009 3.7912536e-39
0.012029526 0.019105725 0.74300009 2.6806111e-39
0.013444766 0.019105718 0.74300009 1.4777813e-39
0.014860004 0.019105732 0.74300003 1.295904e-39
0.016362857 0.019208573 0.7470001 1.0200402e-39
0.017738095 0.019157141 0.74500012 1.1125931e-39
0.019208578 0.019208565 0.7470001 1.2051503e-39
0.020659043 0.019234285 0.74800009 1.4824547e-39
0.02208381 0.019234285 0.74800014 1.7590374e-39
0.023571435 0.019285731 0.75000012 1.0200486e-39
0.025000006 0.019285724 0.75000012 2.8034237e-40
0.02649904 0.019337162 0.75200003 5.0744423e-39
0.027931435 0.019337147 0.75200009 9.9568169e-39
0.029402858 0.019362859 0.75300008 1.032849e-38
0.030960005 0.019439995 0.7560001 1.0787662e-38
0.032400008 0.019440003 0.7560001 1.0234849e-38
0.033929523 0.019491449 0.75800008 9.7745781e-39
0.035373319 0.019491442 0.75800002 9.8667555e-39
-0.026886664 0.021073334 0.76300007 1.9401594e-39
-0.025433322 0.021073341 0.76300007 3.3270301e-39
-0.023917144 0.021018103 0.7610001 4.6166843e-39
-0.022438101 0.020990506 0.76000005 5.0787428e-39
-0.020990483 0.020990491 0.76000011 5.5379231e-39
-0.019439999 0.020880014 0.7560001 5.6297614e-39
-0.017904773 0.020769544 0.75200003 5.72232e-39
-0.016472375 0.020769522 0.75200009 5.8152359e-39
-0.015000003 0.020714298 0.75000012 5.9070812e-39
-0.013607626 0.020769529 0.75200009 6.0911207e-39
-0.012142862 0.020714305 0.75000012 6.2758623e-39
-0.010714284 0.020714298 0.75000012 6.4598878e-39
-0.0092609571 0.020659052 0.74800014 6.552445e-39
-0.007836191 0.020659044 0.74800014 6.6442861e-39
-0.0064028478 0.020631425 0.74700016 6.7372006e-39
-0.0049800072 0.020631425 0.7470001 6.7382796e-39
-0.0035476317 0.020576194 0.74500012 6.6468028e-39
-0.0021285741 0.020576201 0.74500006 6.6475217e-39
-0.00070761994 0.020520963 0.74300003 6.5520877e-39
0.0007076211 0.020520948 0.74300009 4.3361878e-39
0.0021228679 0.020520955 0.74300009 2.1317631e-39
0.0035380982 0.02052097 0.74300009 1.4810085e-39
0.0049533369 0.020520955 0.74300009 7.5063215e-40
0.0063685747 0.020520955 0.74300009 7.4597143e-40
0.0077838139 0.02052097 0.74300009 6.5808059e-40
0.0091990447 0.02052097 0.74300003 5.6050397e-40
0.010614293 0.020520955 0.74300009 3.814965e-40
0.012029531 0.020520948 0.74300009 7.4525256e-40
0.013444771 0.02052097 0.74300009 1.0211164e-39
0.014860001 0.020520963 0.74300009 1.0207562e-39
0.01627524 0.020520963 0.74300009 9.2892215e-40
0.01769048 0.02052097 0.74300003 1.0204003e-39
0.019208575 0.02063144 0.7470001 1.1136778e-39
0.020631429 0.020631433 0.7470001 1.5742972e-39
0.022083811 0.020659044 0.74800014 1.941265e-39
0.023571437 0.02071429 0.75000012 1.1115029e-39
0.025000006 0.020714298 0.75000012 2.8643241e-40
0.026499044 0.020769522 0.75200009 5.2602712e-39
0.027931428 0.020769522 0.75200009 1.0140489e-38
0.029402854 0.020797156 0.75300008 1.0882372e-38
0.030960003 0.020879991 0.7560001 1.1523065e-38
0.032399997 0.020880006 0.7560001 1.1062809e-38
0.033929531 0.020935245 0.75800008 1.0511434e-38
0.035373326 0.020935237 0.75800008 1.0512149e-38
-0.026886668 0.022526667 0.76300007 1.6607082e-39
-0.025366673 0.022467628 0.7610001 3.0479363e-39
-0.024042867 0.022585727 0.7650001 4.5241285e-39
-0.022467619 0.022467636 0.7610001 4.89399e-39
-0.020990489 0.022438109 0.76000011 5.2616964e-39
-0.019491419 0.022379056 0.75800008 5.3535361e-39
-0.017928574 0.022231445 0.75300002 5.446096e-39
-0.016494287 0.022231437 0.75300008 5.6297726e-39
-0.015040002 0.022201911 0.75200009 5.7216109e-39
-0.013607626 0.022201918 0.75200009 5.907077e-39
-0.012142861 0.022142872 0.75000012 5.9999901e-39
-0.010714283 0.022142872 0.75000012 6.1843799e-39
-0.0092857201 0.022142872 0.75000012 6.3676964e-39
-0.0078361835 0.022083819 0.74800014 6.3687768e-39
-0.0064028511 0.022054285 0.74700016 6.3694985e-39
-0.0049799965 0.022054285 0.7470001 6.36986e-39
-0.0035571414 0.022054285 0.7470001 6.461334e-39
-0.0021285759 0.021995239 0.74500012 6.8301067e-39
-0.00070953288 0.021995239 0.74500012 7.1970857e-39
0.00070951029 0.021995246 0.74500006 4.4298197e-39
0.0021285717 0.021995232 0.74500012 1.7572297e-39
0.0035476144 0.021995232 0.74500012 1.4813294e-39
0.0049666651 0.021995246 0.74500012 1.2955271e-39
0.0063685812 0.021936208 0.74300009 1.1143868e-39
0.0077838115 0.021936208 0.74300009 1.0221856e-39
0.0091990484 0.021936201 0.74300009 7.4631335e-40
0.010614286 0.021936193 0.74300009 5.619347e-40
0.012029527 0.021936208 0.74300003 8.3924326e-40
0.013444767 0.021936193 0.74300009 1.1165406e-39
0.014860005 0.021936186 0.74300009 9.3071301e-40
0.016275244 0.021936201 0.74300009 7.4560989e-40
0.017690483 0.021936208 0.74300009 1.0211178e-39
0.019208569 0.022054285 0.7470001 1.205516e-39
0.020659043 0.022083811 0.74800014 1.5743028e-39
0.022142855 0.022142872 0.75000012 1.9423328e-39
0.023571426 0.022142865 0.75000012 1.1111204e-39
0.025066668 0.022201911 0.75200009 2.7853189e-40
0.026499042 0.022201918 0.75200009 5.1670064e-39
0.027968561 0.022231437 0.75300002 9.9625609e-39
0.029480964 0.022290491 0.75500011 1.0513592e-38
0.030919053 0.022290491 0.75500011 1.0971336e-38
0.032400001 0.02232001 0.7560001 1.0695831e-38
0.033840008 0.022320002 0.7560001 1.03285e-38
0.035373326 0.022379056 0.75800002 1.0236676e-38
0.036817145 0.022379056 0.75800008 1.0237377e-38
-0.026886657 0.023979992 0.76300007 1.2969564e-39
-0.025433326 0.023979999 0.76300007 2.8631947e-39
-0.024042858 0.024042875 0.76500005 4.4308609e-39
-0.022467619 0.023917153 0.7610001 4.7110379e-39
-0.020990485 0.023885734 0.76000005 4.9854724e-39
-0.019491436 0.023822859 0.75800002 5.0758786e-39
-0.01792858 0.023665734 0.75300002 5.1691518e-39
-0.016494291 0.023665734 0.75300002 5.352827e-39
-0.015040002 0.0236343 0.75200003 5.5379357e-39
-0.013607628 0.0236343 0.75200003 5.6315691e-39
-0.012142845 0.023571447 0.75000012 5.7244808e-39
-0.010685707 0.023508571 0.74800014 6.0021397e-39
-0.0092609571 0.023508571 0.74800014 6.1851002e-39
-0.0078257201 0.023477145 0.7470001 6.092913e-39
-0.0064028548 0.023477137 0.74700016 5.9096035e-39
-0.0049799997 0.023477145 0.7470001 6.0936361e-39
-0.0035571451 0.023477145 0.7470001 6.1861904e-39
-0.0021285727 0.023414291 0.74500012 7.0141462e-39
-0.00070952962 0.023414306 0.74500006 7.7452345e-39
0.00070952333 0.023414284 0.74500012 4.5202231e-39
0.0021285661 0.023414284 0.74500012 1.301292e-39
0.0035476098 0.023414284 0.74500012 1.5756957e-39
0.004953336 0.023351453 0.74300009 1.8508504e-39
0.0063685752 0.023351446 0.74300003 1.577146e-39
0.007773323 0.023320004 0.7420001 1.3001976e-39
0.0091866609 0.023320012 0.7420001 1.0246855e-39
0.010614294 0.023351438 0.74300009 7.4883288e-40
0.012029533 0.023351446 0.74300009 9.3359408e-40
0.013444764 0.023351438 0.74300009 1.1161791e-39
0.014860001 0.023351453 0.74300009 8.3958517e-40
0.016275242 0.023351446 0.74300003 5.6264936e-40
0.017738095 0.023414284 0.74500012 9.2892215e-40
0.019208575 0.023477137 0.7470001 1.2980648e-39
0.020659052 0.023508571 0.74800014 1.6661313e-39
0.022142865 0.023571439 0.75000012 1.9416167e-39
0.023571437 0.023571439 0.75000012 1.1122064e-39
0.025066659 0.0236343 0.75200003 2.8606948e-40
0.02653428 0.023665719 0.75300008 5.0744549e-39
0.027968561 0.023665726 0.75300002 9.7724271e-39
0.029480966 0.023728579 0.75500011 1.0145523e-38
0.030960014 0.023759991 0.7560001 1.0420316e-38
0.03248572 0.023822859 0.75800008 1.0328127e-38
0.033840001 0.023759998 0.7560001 1.0144462e-38
0.035373338 0.023822859 0.75800008 1.0052632e-38
-0.026886661 0.025433332 0.76300007 1.4817064e-39
-0.025433328 0.025433339 0.76300007 2.7724396e-39
-0.024105718 0.025566667 0.76700008 4.1557159e-39
-0.022526667 0.025433339 0.76300007 4.61705e-39
-0.021018095 0.025366679 0.7610001 5.0769506e-39
-0.019491427 0.02526667 0.75800008 5.1687903e-39
-0.017928572 0.0251 0.75300008 5.2609859e-39
-0.016494296 0.025100015 0.75300002 5.3535389e-39
-0.015040008 0.025066666 0.75200009 5.3542619e-39
-0.013607618 0.025066674 0.75200009 5.0794785e-39
-0.012142855 0.025000013 0.75000012 4.8054056e-39
-0.010685715 0.024933338 0.74800014 5.3571346e-39
-0.009260959 0.024933338 0.74800009 5.909951e-39
-0.0078361938 0.024933353 0.74800009 5.6333768e-39
-0.0064028585 0.024899997 0.74700016 5.3578731e-39
-0.0049800039 0.024900004 0.7470001 5.8174121e-39
-0.0035571491 0.024900019 0.7470001 6.2769539e-39
-0.0021285843 0.024833344 0.74500006 6.5539009e-39
-0.00070953101 0.024833329 0.74500012 6.8304738e-39
0.00070951169 0.024833336 0.74500012 4.1543189e-39
0.0021285615 0.024833336 0.74500006 1.483898e-39
0.0035476126 0.024833344 0.74500006 1.576074e-39
0.0049666655 0.024833344 0.74500012 1.6686214e-39
0.0063685728 0.024766676 0.74300009 1.4853035e-39
0.0077838115 0.024766676 0.74300009 1.2094327e-39
0.0091990484 0.024766691 0.74300009 1.1172328e-39
0.010614289 0.024766684 0.74300003 9.3358007e-40
0.01202953 0.024766669 0.74300009 1.0250751e-39
0.013444767 0.024766669 0.74300009 1.1161763e-39
0.014899991 0.024833351 0.74500006 7.480986e-40
0.016362857 0.024900004 0.7470001 4.7116699e-40
0.017785715 0.024899997 0.74700016 8.3851878e-40
0.019208569 0.024900012 0.7470001 1.2080174e-39
0.020659039 0.024933338 0.74800009 1.5757223e-39
0.022142855 0.025000028 0.75000012 2.0359634e-39
0.023634287 0.025066666 0.75200009 1.204409e-39
0.025099991 0.025100015 0.75300002 3.7217086e-40
0.026534276 0.025100015 0.75300002 4.7989498e-39
0.028042862 0.025166675 0.75500011 9.223921e-39
0.029520007 0.025200002 0.7560001 1.0145153e-38
0.031041907 0.025266662 0.75800008 1.1062799e-38
0.03248572 0.02526667 0.75800008 1.0694389e-38
0.033929523 0.02526667 0.75800008 1.0327766e-38
0.035373326 0.025266685 0.75800002 1.0052259e-38
-0.024042858 0.026957169 0.7650001 3.7872964e-39
-0.022526657 0.026886672 0.76300007 4.4330175e-39
-0.020990487 0.026780978 0.76000005 5.0769492e-39
-0.01949143 0.026710488 0.75800008 5.261346e-39
-0.017928576 0.026534289 0.75300008 5.3531815e-39
-0.016494302 0.026534304 0.75300002 5.2620635e-39
-0.015040009 0.026499055 0.75200009 5.1705909e-39
-0.013607618 0.026499055 0.75200003 4.5270292e-39
-0.012142854 0.026428588 0.75000012 3.7926998e-39
-0.01071429 0.02642858 0.75000012 4.7103331e-39
-0.0092609664 0.026358098 0.74800009 5.5397336e-39
-0.0078362003 0.026358113 0.74800009 5.1724028e-39
-0.0064028623 0.026322857 0.74700016 4.7143057e-39
-0.0049800072 0.026322857 0.7470001 5.5411881e-39
-0.0035571523 0.026322857 0.7470001 6.2769483e-39
-0.0021285713 0.026252382 0.74500012 6.0939948e-39
-0.00070952822 0.026252382 0.74500012 5.9074483e-39
0.00070951448 0.026252389 0.74500006 3.7830294e-39
0.0021285685 0.026252374 0.74500012 1.577167e-39
0.0035476186 0.026252382 0.74500012 1.5764341e-39
0.0049666609 0.026252382 0.74500012 1.4853105e-39
0.0063685789 0.026181906 0.74300009 1.301994e-39
0.0077838171 0.026181906 0.74300009 1.1176028e-39
0.009199054 0.026181914 0.74300009 1.1168839e-39
0.010614286 0.026181914 0.74300009 1.1168937e-39
0.012029524 0.026181914 0.74300009 1.1169049e-39
0.013444762 0.026181929 0.74300003 1.1168923e-39
0.014899998 0.026252389 0.74500012 7.4953913e-40
0.016319042 0.026252389 0.74500012 2.8893373e-40
0.017785719 0.026322857 0.7470001 7.4596582e-40
0.019234275 0.026358105 0.74800009 1.1158231e-39
0.020659043 0.026358105 0.74800009 1.5764384e-39
0.022142855 0.02642858 0.75000012 2.0345284e-39
0.023634283 0.026499063 0.75200009 1.2047678e-39
0.025099985 0.026534297 0.75300002 3.7790778e-40
0.026604766 0.026604787 0.75500011 4.5245139e-39
0.028042866 0.026604772 0.75500011 8.6718669e-39
0.029520012 0.026639998 0.7560001 1.0240651e-38
0.031041916 0.02671048 0.75800008 1.1713199e-38
0.032485709 0.026710488 0.75800008 1.1058822e-38
0.033929523 0.026710488 0.75800002 1.0416346e-38
-0.024042856 0.028414302 0.7650001 3.7876537e-39
-0.022467623 0.028265722 0.7610001 4.7085212e-39
-0.020990487 0.028228581 0.76000011 5.7194389e-39
-0.019491421 0.028154291 0.75800008 5.5364952e-39
-0.017928582 0.027968585 0.75300002 5.3531829e-39
-0.016494295 0.027968585 0.75300008 5.3542577e-39
-0.01504001 0.027931429 0.75200003 5.3549794e-39
-0.013607635 0.027931444 0.75200003 4.9869228e-39
-0.012142863 0.027857162 0.75000012 4.7096156e-39
-0.010685724 0.027782865 0.74800009 5.1709371e-39
-0.009260959 0.027782857 0.74800009 5.7226815e-39
-0.0078361928 0.027782872 0.74800009 5.632295e-39
-0.0064028511 0.027745709 0.7470001 5.449347e-39
-0.0049799965 0.027745724 0.7470001 6.2765896e-39
-0.0035571309 0.027745709 0.74700016 7.0112679e-39
-0.0021285829 0.027671434 0.74500012 6.7368306e-39
-0.00070954033 0.027671434 0.74500006 6.4624004e-39
0.00070952799 0.027671419 0.74500012 5.1688099e-39
0.0021285713 0.027671434 0.74500012 3.8726957e-39
0.003547614 0.027671434 0.74500006 2.5873435e-39
0.0049666576 0.027671434 0.74500006 1.2101656e-39
0.0063685728 0.027597152 0.74300009 1.3016367e-39
0.007783812 0.027597144 0.74300003 1.3016381e-39
0.0091990614 0.027597152 0.74300009 1.2094453e-39
0.010614292 0.027597144 0.74300009 1.0250596e-39
0.01202953 0.027597137 0.74300009 1.4845987e-39
0.013444769 0.027597152 0.74300009 2.035606e-39
0.014899994 0.027671441 0.74500012 1.3005563e-39
0.016362848 0.027745716 0.7470001 6.5771345e-40
0.017785715 0.027745716 0.7470001 8.3923625e-40
0.019234285 0.027782865 0.74800009 1.0239862e-39
0.020659043 0.027782857 0.74800009 1.483884e-39
0.022142865 0.027857155 0.75000012 2.0348858e-39
0.023634283 0.027931444 0.75200003 1.1111386e-39
0.025099998 0.027968578 0.75300008 2.7674243e-40
0.026534274 0.027968578 0.75300002 5.2573986e-39
0.02804287 0.028042868 0.75500011 1.0331398e-38
0.029520012 0.028079994 0.7560001 1.162902e-38
0.031041907 0.028154291 0.75800008 1.2929677e-38
0.032485709 0.028154299 0.75800002 1.1898933e-38
0.033929527 0.028154291 0.75800008 1.0870116e-38
0.035466656 0.028228581 0.76000011 1.050854e-38
-0.02397999 0.02979333 0.76300007 3.7872922e-39
-0.022467623 0.029715255 0.7610001 5.076938e-39
-0.021018103 0.029715262 0.7610001 6.2718826e-39
-0.019542871 0.029676206 0.76000005 5.8123548e-39
-0.017976182 0.029480971 0.75500011 5.3535389e-39
-0.016538085 0.029480964 0.75500011 5.4468135e-39
-0.015040001 0.029363818 0.75200009 5.5390105e-39
-0.013607626 0.029363811 0.75200009 5.5393735e-39
-0.012142862 0.029285736 0.75000012 5.5393693e-39
-0.010685717 0.029207624 0.74800009 5.7241137e-39
-0.0092609655 0.029207624 0.74800009 5.9077945e-39
-0.0078361994 0.029207632 0.74800009 6.0921927e-39
-0.0064028548 0.029168569 0.7470001 6.1851156e-39
-0.0049800002 0.029168576 0.7470001 7.0127225e-39
-0.0035571347 0.029168576 0.74700016 7.7470379e-39
-0.0021285801 0.029090486 0.74500006 7.3796861e-39
-0.00070952636 0.029090472 0.74500012 6.9223037e-39
0.00070951635 0.029090479 0.74500012 6.5567582e-39
0.0021228609 0.029012404 0.74300003 6.1782745e-39
0.0035476093 0.029090486 0.74500006 3.5978927e-39
0.0049533402 0.029012382 0.74300009 9.3394301e-40
0.0063685793 0.029012382 0.74300009 1.2087292e-39
0.0077838171 0.029012389 0.74300009 1.4849462e-39
0.0091990484 0.029012389 0.74300009 1.2097914e-39
0.010642852 0.029090486 0.74500012 9.339318e-40
0.012061893 0.029090486 0.74500012 1.9448439e-39
0.013480945 0.029090479 0.74500006 2.8624828e-39
0.014939997 0.029168569 0.7470001 1.9434104e-39
0.016362863 0.029168569 0.74700016 9.3214654e-40
0.017809518 0.029207632 0.74800009 9.2927948e-40
0.019234275 0.029207624 0.74800009 9.3143889e-40
0.020659043 0.029207624 0.74800009 1.4842525e-39
0.022142855 0.029285729 0.75000012 1.9423356e-39
0.023634285 0.029363804 0.75200009 1.0203751e-39
0.025099995 0.029402867 0.75300008 9.9891561e-41
0.026604772 0.029480964 0.75500011 6.0799846e-39
0.028042873 0.029480956 0.75500011 1.198552e-38
0.029520001 0.029520005 0.7560001 1.3105565e-38
0.031041905 0.029598102 0.75800008 1.4121433e-38
0.032485716 0.029598102 0.75800008 1.2737021e-38
0.033929527 0.029598102 0.75800002 1.1250776e-38
-0.023979995 0.03124667 0.76300007 2.8685771e-39
-0.022467632 0.031164773 0.7610001 3.9720394e-39
-0.021018097 0.031164788 0.7610001 5.1720049e-39
-0.019542869 0.031123832 0.76000011 5.0755114e-39
-0.017976193 0.030919075 0.75500011 4.8940013e-39
-0.016538097 0.03091906 0.75500011 5.2620677e-39
-0.015060005 0.030837148 0.75300008 5.5397308e-39
-0.013607627 0.030796207 0.75200009 5.3560626e-39
-0.012175252 0.0307962 0.75200003 5.1741867e-39
-0.010714282 0.030714296 0.75000012 5.1734692e-39
-0.0092609581 0.030632377 0.74800009 5.2653117e-39
-0.0078361919 0.030632392 0.74800009 5.2649586e-39
-0.0064114253 0.030632384 0.74800009 5.359322e-39
-0.0049800035 0.030591428 0.7470001 5.8177975e-39
-0.0035571384 0.030591421 0.74700016 6.3702328e-39
-0.0021285815 0.030509524 0.74500012 6.0936361e-39
-0.00070952403 0.030509524 0.74500012 5.8206463e-39
0.00070951914 0.030509524 0.74500006 5.175651e-39
0.0021285727 0.030509524 0.74500012 4.5331347e-39
0.0035476163 0.030509524 0.74500012 2.497659e-39
0.0049666585 0.030509524 0.74500012 5.6552623e-40
0.0063857087 0.030509531 0.74500006 6.5592679e-40
0.0078047621 0.030509517 0.74500012 8.4137603e-40
0.0092238048 0.030509524 0.74500012 6.551785e-40
0.010642855 0.030509539 0.74500012 5.655024e-40
0.012061898 0.030509539 0.74500006 1.4842231e-39
0.013480951 0.030509517 0.74500012 2.4036627e-39
0.014939995 0.030591428 0.7470001 1.9426985e-39
0.016362861 0.030591428 0.74700016 1.575358e-39
0.017809518 0.030632399 0.74800009 1.2976991e-39
0.019234285 0.030632392 0.74800009 1.02328e-39
0.020659044 0.030632377 0.74800009 1.4835449e-39
0.022142865 0.030714303 0.75000012 1.9437733e-39
0.023634283 0.030796193 0.75200009 1.0192933e-39
0.025099996 0.030837148 0.75300002 9.3079849e-41
0.026604768 0.030919053 0.75500011 5.3532054e-39
0.028080003 0.030959994 0.7560001 1.0526923e-38
0.029598098 0.031041913 0.75800008 1.1911348e-38
0.031041903 0.031041905 0.75800008 1.3397557e-38
0.03257142 0.031123824 0.76000011 1.2183587e-38
0.033929523 0.031041905 0.75800008 1.1071097e-38
-0.023979997 0.032700002 0.76300007 1.8522882e-39
-0.02246763 0.032614306 0.7610001 2.9543183e-39
-0.021018086 0.032614291 0.76100016 4.0599288e-39
-0.019542864 0.032571442 0.76000011 4.240367e-39
-0.017976191 0.032357156 0.75500011 4.4297945e-39
-0.016538093 0.032357156 0.75500011 4.9836928e-39
-0.015060009 0.032271445 0.75300008 5.5375756e-39
-0.013607628 0.032228582 0.75200003 5.1709511e-39
-0.012175242 0.032228582 0.75200009 4.7121281e-39
-0.010714292 0.032142863 0.75000012 4.6217234e-39
-0.0092857135 0.032142878 0.75000012 4.5273851e-39
-0.0078361994 0.032057151 0.74800009 4.5270348e-39
-0.0064114323 0.032057136 0.74800009 4.4341329e-39
-0.0049866661 0.032057136 0.74800009 4.7125205e-39
-0.0035571421 0.032014281 0.74700016 4.8958257e-39
-0.0021285787 0.031928577 0.74500012 4.8039818e-39
-0.00070953567 0.031928584 0.74500006 4.6195962e-39
0.00070951774 0.031928577 0.74500012 3.699449e-39
0.0021285689 0.031928577 0.74500012 2.7774829e-39
0.0035476116 0.031928577 0.74500012 1.4770541e-39
0.0049666543 0.031928577 0.74500006 1.0490401e-40
0.0063857157 0.031928562 0.74500012 9.9524421e-41
0.0078047584 0.031928577 0.74500012 1.0346627e-40
0.0092237992 0.031928577 0.74500012 9.5212625e-41
0.01064285 0.031928591 0.74500006 1.0848993e-40
0.012061904 0.031928577 0.74500012 1.0232618e-39
0.013517142 0.032014288 0.7470001 1.8590943e-39
0.014959994 0.032057151 0.74800009 2.0319907e-39
0.01638476 0.032057151 0.74800009 2.2167505e-39
0.01780952 0.032057144 0.74800009 1.6625215e-39
0.019234285 0.032057144 0.74800009 1.1136721e-39
0.020659044 0.032057144 0.74800009 1.5746531e-39
0.022142854 0.03214287 0.75000006 1.9419783e-39
0.023634274 0.032228589 0.75200003 1.0200178e-39
0.025099993 0.032271445 0.75300002 1.0312436e-40
0.026604773 0.032357156 0.75500011 4.6213842e-39
0.028080011 0.03239999 0.7560001 9.0456745e-39
0.029598089 0.032485723 0.75800008 1.0798843e-38
0.0310419 0.032485731 0.75800002 1.2546218e-38
0.032571416 0.03257145 0.76000005 1.1712512e-38
0.034019034 0.032571442 0.76000011 1.0791977e-38
-0.022467626 0.034063831 0.7610001 4.0592169e-39
-0.020935243 0.033929534 0.75800008 5.1580017e-39
-0.019491423 0.033929542 0.75800008 5.4388765e-39
-0.018000003 0.033840008 0.7560001 5.7133321e-39
-0.016538089 0.033795245 0.75500011 6.2719022e-39
-0.015039994 0.033660948 0.75200009 6.9143878e-39
-0.013607619 0.033660956 0.75200009 5.1687917e-39
-0.012175244 0.033660956 0.75200009 3.3302797e-39
-0.010742868 0.033660971 0.75200009 2.8678638e-39
-0.0092857126 0.03357143 0.75000012 2.3175795e-39
-0.0078571355 0.033571444 0.75000012 5.1662834e-39
-0.006428571 0.033571437 0.75000012 8.004221e-39
-0.0049866582 0.033481896 0.74800014 8.200812e-39
-0.0035571461 0.033437148 0.74700016 8.4720123e-39
-0.0021285759 0.033347629 0.74500006 8.294437e-39
-0.00070952217 0.033347622 0.74500012 8.1943492e-39
0.00070761878 0.033258103 0.74300009 8.0182102e-39
0.0021228576 0.033258103 0.74300009 7.8280624e-39
0.0035476061 0.033347629 0.74500006 7.3731687e-39
0.0049666674 0.033347614 0.74500012 6.9093305e-39
0.0063857101 0.033347622 0.74500012 7.0980251e-39
0.0078047528 0.033347629 0.74500006 7.2752474e-39
0.0092238029 0.033347629 0.74500006 7.2845828e-39
0.010642857 0.033347614 0.74500012 7.3818007e-39
0.012094292 0.033437133 0.74700016 8.0296728e-39
0.013517139 0.033437148 0.7470001 8.6807385e-39
0.014959994 0.033481911 0.74800009 5.1723005e-39
0.01638476 0.033481918 0.74800009 1.6678689e-39
0.017809518 0.033481918 0.74800009 1.4784834e-39
0.019234285 0.033481911 0.74800009 1.3880926e-39
0.020714285 0.033571444 0.75000012 1.6664788e-39
0.022142855 0.033571444 0.75000012 2.035606e-39
0.023634285 0.033660956 0.75200009 1.112219e-39
0.025099987 0.033705734 0.75300002 2.7997943e-40
0.026604777 0.033795252 0.75500011 4.8929377e-39
0.02808 0.033840001 0.7560001 9.5926993e-39
0.029598104 0.033929534 0.75800008 1.0515009e-38
0.031041913 0.033929534 0.75800008 1.1428697e-38
0.032571409 0.034019068 0.76000005 1.0972746e-38
0.034019034 0.03401906 0.76000011 1.0605051e-38
-0.023885716 0.035466686 0.76000011 4.1524789e-39
-0.022438107 0.035466678 0.76000005 5.1709231e-39
-0.020935236 0.035373338 0.75800008 6.1803989e-39
-0.019491425 0.035373345 0.75800008 6.551331e-39
-0.01799999 0.035280012 0.7560001 6.9179779e-39
-0.016538085 0.035233349 0.75500011 7.6594988e-39
-0.015060003 0.03514003 0.75300002 8.2973138e-39
-0.01360762 0.03509333 0.75200009 5.1670022e-39
-0.012175245 0.035093345 0.75200003 1.9466432e-39
-0.01074287 0.035093345 0.75200003 1.0178682e-39
-0.0092857117 0.035000004 0.75000012 1.0850955e-40
-0.0078571336 0.035000019 0.75000012 5.9074469e-39
-0.00642857 0.035000004 0.75000012 1.1608801e-38
-0.0049866759 0.034906685 0.74800009 1.179859e-38
-0.0035619098 0.034906678 0.74800009 1.1982971e-38
-0.0021285769 0.034766674 0.74500012 1.189113e-38
-0.00070953381 0.034766674 0.74500012 1.1799289e-38
0.00070950936 0.034766681 0.74500006 1.2351015e-38
0.0021285694 0.034766667 0.74500012 1.2904899e-38
0.0035476126 0.034766667 0.74500012 1.327834e-38
0.0049666627 0.034766667 0.74500012 1.3641737e-38
0.0063857054 0.034766674 0.74500006 1.4108091e-38
0.0078257201 0.034859993 0.74700016 1.4469341e-38
0.0092485668 0.034859993 0.7470001 1.4570154e-38
0.010671422 0.034860015 0.7470001 1.4566568e-38
0.01211047 0.034906685 0.74800009 1.5033281e-38
0.013535234 0.03490667 0.74800009 1.5484527e-38
0.014959994 0.03490667 0.74800009 8.309124e-39
0.01638476 0.03490667 0.74800009 1.1172441e-39
0.017809527 0.034906678 0.74800009 1.3791075e-39
0.019285716 0.035000011 0.75000012 1.5703231e-39
0.020714294 0.035000019 0.75000012 1.8505057e-39
0.022142863 0.035000011 0.75000012 2.0341683e-39
0.023665708 0.035140008 0.75300002 1.204772e-39
0.025100002 0.035140015 0.75300008 3.7863365e-40
0.026604773 0.035233334 0.75500011 5.260644e-39
0.028080007 0.035279997 0.7560001 1.0141927e-38
0.029676184 0.035466671 0.76000011 1.0239871e-38
0.0311238 0.035466686 0.76000011 1.0237357e-38
0.032614283 0.035513341 0.7610001 1.0328472e-38
0.034063809 0.035513334 0.7610001 1.0421029e-38
-0.023885723 0.036914296 0.76000011 4.2464668e-39
-0.0224381 0.036914311 0.76000005 5.4482162e-39
-0.020935237 0.036817148 0.75800008 6.6474783e-39
-0.019491427 0.036817148 0.75800002 6.8290151e-39
-0.017999988 0.036720008 0.7560001 7.1052586e-39
-0.016538082 0.03667143 0.75500011 7.2911002e-39
-0.015060009 0.036574312 0.75300002 7.5701744e-39
-0.01360762 0.036525734 0.75200003 4.8929349e-39
-0.012175235 0.036525711 0.75200009 2.3118286e-39
-0.010742861 0.036525711 0.75200009 1.2036775e-39
-0.009285721 0.036428586 0.75000012 1.9138094e-40
-0.0078571429 0.036428578 0.75000012 6.2805511e-39
-0.0064285793 0.036428586 0.75000012 1.2368274e-38
-0.0050000013 0.036428586 0.75000012 1.2548031e-38
-0.0035714232 0.036428593 0.75000012 1.2738867e-38
-0.0021342835 0.03628286 0.7470001 1.3007905e-38
-0.0007114188 0.03628286 0.74700016 1.3291655e-38
0.00070952193 0.036185712 0.74500012 1.3377025e-38
0.0021285648 0.036185704 0.74500012 1.3386374e-38
0.0035476158 0.036185719 0.74500012 1.3470339e-38
0.0049666585 0.036185719 0.74500006 1.3567197e-38
0.006402852 0.03628286 0.7470001 1.3930592e-38
0.0078257173 0.03628286 0.74700016 1.4393366e-38
0.0092485715 0.03628286 0.7470001 1.4113561e-38
0.010671427 0.03628286 0.7470001 1.3842363e-38
0.012110468 0.03633143 0.74800009 1.4484495e-38
0.013535234 0.036331438 0.74800009 1.5221648e-38
0.014959994 0.03633143 0.74800009 8.121214e-39
0.01638476 0.036331445 0.74800009 1.1025655e-39
0.017809518 0.036331438 0.74800009 1.1053863e-39
0.019285714 0.036428593 0.75000012 1.203693e-39
0.020714285 0.036428601 0.75000012 1.7583073e-39
0.022201899 0.036525734 0.75200009 2.311467e-39
0.023634283 0.036525719 0.75200003 1.3880842e-39
0.025099996 0.036574304 0.75300008 4.6293857e-40
0.026604777 0.036671437 0.75500017 5.4439619e-39
0.028080007 0.036719993 0.7560001 1.042318e-38
0.029520007 0.036720008 0.7560001 1.0331357e-38
0.031123796 0.036914296 0.76000005 1.0329561e-38
0.032614283 0.036962874 0.7610001 1.0421751e-38
0.034153335 0.037059993 0.76300007 1.0605067e-38
0.035606667 0.037059993 0.76300007 1.0697266e-38
-0.023885718 0.038361926 0.76000011 4.2489794e-39
-0.022438111 0.038361929 0.76000005 5.6358403e-39
-0.020935228 0.038260948 0.75800008 7.0119518e-39
-0.019491432 0.038260967 0.75800008 7.1034426e-39
-0.017999988 0.03816 0.7560001 7.1952865e-39
-0.01655999 0.03816 0.7560001 7.0134189e-39
-0.015060002 0.038008571 0.75300008 6.7335908e-39
-0.013607627 0.037958097 0.75200009 4.7056597e-39
-0.012175237 0.037958112 0.75200009 2.5862519e-39
-0.010742862 0.037958097 0.75200009 1.3851989e-39
-0.0092857052 0.03785716 0.75000012 2.0035345e-40
-0.007857142 0.037857149 0.75000012 6.6550747e-39
-0.0064285635 0.037857164 0.75000012 1.3005021e-38
-0.0049999999 0.037857156 0.75000012 1.3285934e-38
-0.0035714223 0.037857167 0.75000012 1.3468517e-38
-0.0021342877 0.037705719 0.7470001 1.4109562e-38
-0.00071142206 0.037705701 0.74700016 1.4754203e-38
0.00071143254 0.037705723 0.7470001 1.4295024e-38
0.0021342807 0.037705719 0.7470001 1.3835492e-38
0.0035571456 0.037705708 0.74700016 1.3649314e-38
0.0049800007 0.037705701 0.7470001 1.3468514e-38
0.0064114314 0.037756186 0.74800014 1.3836935e-38
0.0078257136 0.037705712 0.74700016 1.4201412e-38
0.0092609441 0.037756201 0.74800009 1.3648611e-38
0.010685711 0.037756197 0.74800009 1.3100473e-38
0.01211047 0.037756205 0.74800009 1.4023499e-38
0.013535236 0.037756193 0.74800009 1.4845675e-38
0.015000002 0.037857156 0.75000012 7.94291e-39
0.016384762 0.03775619 0.74800009 1.0221968e-39
0.017857144 0.037857145 0.75000012 9.1955167e-40
0.019285714 0.03785716 0.75000012 7.4379521e-40
0.020769516 0.037958108 0.75200003 1.6679109e-39
0.022231424 0.038008586 0.75300008 2.494066e-39
0.023665708 0.038008586 0.75300002 1.572837e-39
0.025166681 0.03810953 0.75500011 5.6338224e-40
0.02660477 0.038109548 0.75500011 5.6294209e-39
0.028080009 0.038159989 0.7560001 1.0604337e-38
0.029598098 0.038260967 0.75800008 1.0515747e-38
0.034242854 0.038614295 0.7650001 1.0789452e-38
-0.02391714 0.039861921 0.76100016 3.2369966e-39
-0.022467623 0.039861914 0.76100016 3.5132276e-39
-0.020990485 0.039809547 0.76000005 3.702288e-39
-0.019542867 0.039809536 0.76000011 3.8809451e-39
-0.018047614 0.039704774 0.75800008 3.9770854e-39
-0.016559988 0.039599996 0.7560001 3.8798689e-39
-0.015100001 0.039547637 0.75500011 3.6958252e-39
-0.013625731 0.039442871 0.75300002 2.8635506e-39
-0.012191444 0.039442874 0.75300002 2.1259898e-39
-0.010742863 0.039390501 0.75200003 1.479547e-39
-0.0093104877 0.039390486 0.75200003 9.2607471e-40
-0.0078571513 0.039285727 0.75000012 6.6486245e-39
-0.0064285728 0.039285727 0.75000006 1.24558e-38
-0.0050000092 0.039285742 0.75000012 1.2454381e-38
-0.0035714314 0.039285731 0.75000006 1.2454012e-38
-0.0021371497 0.039180961 0.74800009 1.2728072e-38
-0.00071238412 0.039180961 0.74800009 1.3004661e-38
0.00071238203 0.039180957 0.74800009 1.2727365e-38
0.0021371404 0.039180957 0.74800014 1.2450052e-38
0.003561907 0.039180953 0.74800014 1.2634426e-38
0.0049866647 0.039180953 0.74800014 1.2820613e-38
0.0064114211 0.039180975 0.74800009 1.3095406e-38
0.0078361863 0.039180968 0.74800009 1.3273699e-38
0.009260946 0.039180957 0.74800009 1.2999989e-38
0.010685713 0.039180957 0.74800009 1.2723416e-38
0.01211047 0.039180968 0.74800009 1.3742943e-38
0.013535236 0.039180957 0.74800009 1.4664496e-38
0.015000003 0.039285723 0.75000012 7.9350025e-39
0.016384764 0.039180961 0.74800009 1.2862112e-39
0.017857144 0.039285719 0.75000012 1.1971993e-39
0.019285724 0.039285719 0.75000012 1.2047622e-39
0.020769525 0.039390486 0.75200009 1.6668389e-39
0.022290483 0.03954763 0.75500011 2.1278059e-39
0.023728587 0.039547633 0.75500011 1.7550773e-39
0.025166677 0.03954763 0.75500017 1.291609e-39
0.026640007 0.0396 0.7560001 5.9110188e-39
0.028079998 0.039600004 0.7560001 1.0522545e-38
0.034332372 0.040176205 0.76700002 9.5955846e-39
-0.023917137 0.041311428 0.76100016 2.2174763e-39
-0.022526655 0.041420005 0.76300013 1.2944621e-39
-0.021018097 0.041311443 0.76100016 3.7933149e-40
-0.01954286 0.041257158 0.76000011 5.565425e-40
-0.018047616 0.041148588 0.75800002 7.4559588e-40
-0.016559988 0.041039992 0.7560001 7.4165123e-40
-0.015099999 0.040985733 0.75500011 6.5412052e-40
-0.013625724 0.040877149 0.75300008 1.1104267e-39
-0.012175244 0.040822864 0.75200009 1.5717482e-39
-0.010742853 0.040822864 0.75200009 1.5724559e-39
-0.0093104783 0.040822856 0.75200009 1.582918e-39
-0.0078571355 0.040714301 0.75000012 6.7415502e-39
-0.0064285719 0.040714301 0.75000012 1.1896894e-38
-0.0049999938 0.040714309 0.75000012 1.1712864e-38
-0.0035714305 0.040714297 0.75000012 1.1437715e-38
-0.0021371422 0.040605709 0.74800009 1.1344086e-38
-0.00071237667 0.040605709 0.74800009 1.1254041e-38
0.00071237457 0.040605713 0.74800009 1.1159693e-38
0.0021371413 0.040605705 0.74800014 1.1067853e-38
0.0035619079 0.040605716 0.74800014 1.1617786e-38
0.0049866629 0.040605728 0.74800009 1.2173818e-38
0.006411422 0.040605716 0.74800009 1.2266726e-38
0.0078361873 0.040605709 0.74800009 1.2356054e-38
0.0092609441 0.04060572 0.74800009 1.2354624e-38
0.010685711 0.04060572 0.74800009 1.2357869e-38
0.012110477 0.040605724 0.74800009 1.3468881e-38
0.013535236 0.040605716 0.74800009 1.4474017e-38
0.014959994 0.040605713 0.74800009 8.0304337e-39
0.016384762 0.040605709 0.74800014 1.4813743e-39
0.017857144 0.040714309 0.75000012 1.5620498e-39
0.019337142 0.040822875 0.75200009 1.6621572e-39
0.020769525 0.04082286 0.75200009 1.7590359e-39
0.022231421 0.040877152 0.75300002 1.7579541e-39
0.023665715 0.040877156 0.75300008 1.9362385e-39
0.025166672 0.04098573 0.75500011 2.0445799e-39
0.026640004 0.041039996 0.7560001 6.2008578e-39
0.028080005 0.041039996 0.7560001 1.0333116e-38
0.029793337 0.041420013 0.76300007 9.1292297e-39
0.034377139 0.041691426 0.76800013 8.3030465e-39
-0.023979986 0.042873342 0.76300007 2.2117338e-39
-0.02252667 0.042873338 0.76300007 1.3852158e-39
-0.021073325 0.042873353 0.76300007 6.4764652e-40
-0.019568576 0.042760972 0.76100016 7.4018266e-40
-0.018095249 0.042704783 0.76000011 8.2986997e-40
-0.016603811 0.042592399 0.75800008 8.3274263e-40
-0.015119989 0.042480003 0.7560001 8.3311538e-40
-0.013625714 0.04231143 0.75300008 9.2603968e-40
-0.012191438 0.042311449 0.75300002 1.0182227e-39
-0.010742855 0.042255238 0.75200009 2.5912531e-39
-0.0093104793 0.042255253 0.75200009 4.2551213e-39
-0.0078781042 0.042255245 0.75200003 7.9386529e-39
-0.0064285705 0.042142868 0.75000012 1.1717883e-38
-0.0049999929 0.042142861 0.75000012 1.1528457e-38
-0.0035714295 0.042142872 0.75000012 1.1249373e-38
-0.0021371492 0.042030483 0.74800009 1.134337e-38
-0.00071238365 0.04203048 0.74800014 1.1344437e-38
0.00071238249 0.042030476 0.74800014 1.1066769e-38
0.0021371413 0.042030469 0.74800014 1.0696921e-38
0.0035618977 0.042030483 0.74800009 1.1434122e-38
0.0049866629 0.042030483 0.74800009 1.2081981e-38
0.006411422 0.042030495 0.74800009 1.2264924e-38
0.0078361873 0.042030487 0.74800009 1.235533e-38
0.009260946 0.042030476 0.74800009 1.2170587e-38
0.010685713 0.042030476 0.74800009 1.1895107e-38
0.01211047 0.042030487 0.74800009 1.337311e-38
0.013535236 0.04203048 0.74800009 1.475312e-38
0.015000003 0.042142868 0.75000012 9.4061795e-39
0.016384764 0.042030483 0.74800014 4.0459663e-39
0.017857144 0.042142875 0.75000012 2.5765647e-39
0.019337142 0.042255249 0.75200003 1.2047846e-39
0.020797139 0.042311441 0.75300008 1.6668445e-39
0.022290481 0.042423815 0.75500011 2.1274499e-39
0.023728587 0.042423807 0.75500011 2.3143425e-39
0.025166668 0.042423822 0.75500011 2.514511e-39
0.026640015 0.042479999 0.7560001 7.0262843e-39
0.028080007 0.042479992 0.7560001 1.1622383e-38
0.029715236 0.042760972 0.7610001 1.1523392e-38
0.03132857 0.042985726 0.7650001 1.1513325e-38
0.034377147 0.043154277 0.76800013 1.1977517e-38
-0.02397999 0.044326663 0.76300007 2.2131632e-39
-0.022526661 0.044326678 0.76300007 1.5710307e-39
-0.021073326 0.04432667 0.76300007 8.345419e-40
-0.019568574 0.044210494 0.7610001 8.3417056e-40
-0.018095244 0.044152394 0.76000011 8.3309996e-40
-0.016603803 0.044036206 0.75800008 9.2565853e-40
-0.015120001 0.04392001 0.7560001 9.2602427e-40
-0.013625719 0.04374573 0.75300002 7.4200295e-40
-0.012191433 0.043745734 0.75300008 4.7116559e-40
-0.010742871 0.043687627 0.75200003 3.7022754e-39
-0.0093104811 0.043687642 0.75200003 6.8297508e-39
-0.0078780958 0.043687627 0.75200009 9.2239785e-39
-0.0064457199 0.043687619 0.75200009 1.1526671e-38
-0.0050000018 0.043571446 0.75000012 1.1341912e-38
-0.0035714239 0.04357145 0.75000012 1.106713e-38
-0.0021371418 0.043455232 0.74800009 1.1251886e-38
-0.0007123762 0.043455228 0.74800014 1.1435191e-38
