# .PCD v0.7 - Point Cloud Data file format
VERSION 0.7
FIELDS x y z rgb
SIZE 4 4 4 4
TYPE F F F F
COUNT 1 1 1 1
WIDTH 952
HEIGHT 1
VIEWPOINT 0 0 0 1 0 0 0
POINTS 952
DATA ascii
-0.013607601 -0.025066666 0.75199997 3.7503371e-40
-0.012175214 -0.025066666 0.75199997 3.7789937e-40
-0.010714284 -0.025000028 0.75 5.6407728e-40
-0.0092857173 -0.025000028 0.75000006 7.4739935e-40
-0.0078361835 -0.024933346 0.74799997 8.4103832e-40
-0.0064114328 -0.024933331 0.74800003 8.3925587e-40
-0.0049799778 -0.024900004 0.74699998 1.0268841e-39
-0.0035571265 -0.024900027 0.74699998 1.2076909e-39
-0.0021342426 -0.024900019 0.74699998 1.304913e-39
-0.00070952397 -0.024833336 0.74500006 1.2998851e-39
0.00070950988 -0.024833359 0.74500006 1.3034654e-39
0.0021285736 -0.024833351 0.745 1.2062405e-39
0.0035380772 -0.024766684 0.74300003 1.2094607e-39
0.0049533225 -0.024766684 0.74299997 1.1143966e-39
0.006368563 -0.024766676 0.74300003 1.2105369e-39
0.0077733663 -0.02473335 0.74199998 1.2995067e-39
0.0091867149 -0.024733327 0.74199998 1.2094677e-39
0.010600034 -0.024733335 0.74199998 1.116556e-39
0.012029512 -0.024766684 0.74299997 1.1176308e-39
0.013444753 -0.024766676 0.74300003 1.1161889e-39
0.014899995 -0.024833344 0.74500006 9.3107735e-40
0.016319061 -0.024833351 0.745 7.4957136e-40
0.017785737 -0.024900027 0.74699998 9.346913e-40
0.019234307 -0.024933331 0.74799997 1.1198e-39
0.020659057 -0.024933346 0.74800003 1.4885797e-39
0.022083806 -0.024933338 0.74800003 1.7637261e-39
0.023508584 -0.024933338 0.74799997 1.3034724e-39
0.024999982 -0.025000028 0.75000006 7.5350901e-40
0.026428552 -0.025000013 0.75000006 4.2486122e-39
0.027931469 -0.025066666 0.75199997 7.7368841e-39
0.029363856 -0.025066666 0.75199997 6.7266516e-39
0.030919051 -0.025166683 0.755 5.6228264e-39
0.032400008 -0.025200002 0.75599998 5.438075e-39
0.034019049 -0.025333367 0.76000005 5.1614839e-39
0.035513315 -0.025366671 0.76099998 5.3440703e-39
-0.025433337 -0.023980029 0.76300001 5.1630071e-39
-0.023885714 -0.023885734 0.76000005 5.3391419e-39
-0.022438079 -0.023885742 0.76000005 5.4345605e-39
-0.020880003 -0.023760028 0.75599998 5.5167089e-39
-0.019440005 -0.023760006 0.75599998 5.5242408e-39
-0.018000009 -0.023760021 0.75599998 5.6049612e-39
-0.016560011 -0.023760021 0.75600004 2.9489107e-39
-0.015059995 -0.023665734 0.75299996 2.8103041e-40
-0.013607602 -0.023634292 0.75199997 2.8463034e-40
-0.012175214 -0.023634285 0.75199997 3.782567e-40
-0.010742855 -0.023634285 0.75199997 4.7116559e-40
-0.0092857368 -0.023571469 0.75000006 6.5520512e-40
-0.007836164 -0.023508586 0.74799997 7.4740916e-40
-0.0064114141 -0.023508586 0.74799997 9.3072983e-40
-0.0049799825 -0.023477152 0.74699998 9.336081e-40
-0.0035571014 -0.023477159 0.74699998 1.0268869e-39
-0.0021342491 -0.023477167 0.74699998 1.1194483e-39
-0.00070954819 -0.023414306 0.74500006 1.3027564e-39
0.00071146101 -0.023477145 0.74699998 1.118005e-39
0.0021285503 -0.023414306 0.74500006 1.0243688e-39
0.0035380912 -0.023351438 0.74299997 1.0254366e-39
0.0049533076 -0.023351431 0.74300003 1.1179895e-39
0.0063685789 -0.023351423 0.74299997 1.1183469e-39
0.0077837952 -0.023351431 0.74300003 1.209825e-39
0.0091990652 -0.023351431 0.74299997 1.2091076e-39
0.010614281 -0.023351423 0.74299997 1.1165518e-39
0.012029496 -0.023351431 0.74300003 1.0257897e-39
0.013444767 -0.023351446 0.74299997 1.0264974e-39
0.014859983 -0.023351453 0.74300003 8.410229e-40
0.016319038 -0.023414306 0.74500006 7.4992029e-40
0.017785734 -0.023477159 0.74699998 9.3504162e-40
0.019208616 -0.023477167 0.74699998 1.2116299e-39
0.020659076 -0.023508593 0.74799997 1.4878595e-39
0.022083825 -0.023508593 0.74800003 1.7630128e-39
0.023508573 -0.023508586 0.74800003 2.8668381e-39
0.024999963 -0.023571439 0.75000006 4.0574401e-39
0.026428564 -0.023571439 0.75 6.5484471e-39
0.02785713 -0.023571439 0.75 9.0336906e-39
0.02936383 -0.023634292 0.75199997 7.0939698e-39
0.030919036 -0.023728594 0.75500005 5.2540369e-39
0.032357138 -0.023728587 0.75500005 5.2540411e-39
0.034019072 -0.023885712 0.76000005 5.161107e-39
0.03551333 -0.023917153 0.76099998 5.345473e-39
0.036962859 -0.023917153 0.76099998 5.5291524e-39
-0.02543333 -0.022526674 0.76299995 9.9625482e-39
-0.023885723 -0.022438116 0.76000005 1.0597503e-38
-0.022438115 -0.022438116 0.76000005 1.0786914e-38
-0.020879993 -0.022320017 0.75599998 1.0873724e-38
-0.019439995 -0.022320017 0.75599998 1.1065645e-38
-0.017999997 -0.022320025 0.75599998 1.1144912e-38
-0.016559999 -0.022320017 0.75599998 5.7215829e-39
-0.015099997 -0.022290476 0.755 2.9000993e-40
-0.01362569 -0.022231445 0.75299996 2.8713446e-40
-0.012175216 -0.022201903 0.75199997 2.8713446e-40
-0.010742855 -0.022201911 0.75199997 3.7861263e-40
-0.0092857257 -0.022142872 0.75 4.7081667e-40
-0.0078571578 -0.022142887 0.75000006 7.4633296e-40
-0.0064285896 -0.02214288 0.75000006 9.3216336e-40
-0.0049866461 -0.022083819 0.74799997 9.3396403e-40
-0.0035618967 -0.022083826 0.74800003 8.428516e-40
-0.0021342528 -0.0220543 0.74699998 1.0268883e-39
-0.00070951466 -0.021995246 0.745 1.2101978e-39
0.0007095192 -0.021995246 0.74500006 1.0254478e-39
0.002128554 -0.021995246 0.74500006 8.417684e-40
0.0035380772 -0.021936215 0.74300003 9.3395562e-40
0.0049533225 -0.021936193 0.74299997 1.0261526e-39
0.006368564 -0.021936186 0.74300003 1.1187098e-39
0.0077838101 -0.021936186 0.74299997 1.1176308e-39
0.0091990242 -0.021936193 0.74299997 1.1169119e-39
0.010614295 -0.021936193 0.74299997 1.1172693e-39
0.012029512 -0.021936186 0.74299997 1.0261498e-39
0.013444728 -0.021936193 0.74300003 8.4211311e-40
0.01486 -0.021936186 0.74299997 8.4067118e-40
0.016319042 -0.021995246 0.74500006 7.4956296e-40
0.017785758 -0.022054315 0.74699998 1.0268743e-39
0.01923429 -0.022083834 0.74799997 1.2119872e-39
0.020659065 -0.022083826 0.74800003 1.4878609e-39
0.022142837 -0.02214288 0.75000006 1.7647967e-39
0.023571433 -0.022142865 0.75 4.5273893e-39
0.025000002 -0.022142857 0.75 7.2849485e-39
0.02649908 -0.022201896 0.75199997 8.7621918e-39
0.027931469 -0.022201911 0.75199997 1.0221091e-38
0.029480921 -0.022290491 0.75500005 7.5455985e-39
0.030960003 -0.02232001 0.75600004 4.8848886e-39
0.03261428 -0.022467628 0.76099998 5.0703617e-39
0.034063812 -0.022467628 0.76099998 5.1625545e-39
0.035513345 -0.022467643 0.76099998 5.3476576e-39
-0.025433332 -0.021073349 0.76300001 6.2823727e-39
-0.023885705 -0.020990491 0.76000005 6.7505199e-39
-0.022438098 -0.020990491 0.76000005 7.3897825e-39
-0.020879984 -0.020879999 0.75599998 8.0444663e-39
-0.019491417 -0.020935252 0.75799996 8.5886606e-39
-0.01799999 -0.020880014 0.75599998 9.14646e-39
-0.016559992 -0.020880021 0.75599998 4.7128554e-39
-0.015119995 -0.020880029 0.75599998 2.8858621e-40
-0.013661934 -0.020852394 0.75500005 3.7860422e-40
-0.012191439 -0.020797171 0.75300002 5.6335561e-40
-0.010742826 -0.020769522 0.75199997 5.6264095e-40
-0.0093104402 -0.020769522 0.75199997 5.6229203e-40
-0.0078571755 -0.02071432 0.75000006 6.5557226e-40
-0.0064114076 -0.020659059 0.74800003 8.4175999e-40
-0.0049866573 -0.020659067 0.74800003 8.4212433e-40
-0.0035618781 -0.020659044 0.74799997 8.4284599e-40
-0.0021342584 -0.02063144 0.74699998 9.3468569e-40
-0.00071140524 -0.020631455 0.74700004 1.0261611e-39
0.00070949591 -0.020576201 0.74500006 9.3396543e-40
0.0021285606 -0.020576209 0.745 8.4176419e-40
0.0035475944 -0.020576201 0.74500006 9.3287522e-40
0.0049666581 -0.020576194 0.745 1.1169119e-39
0.0063685789 -0.02052097 0.74299997 1.3013074e-39
0.0077837934 -0.020520963 0.74300003 1.5760922e-39
0.0091990391 -0.020520963 0.74299997 1.2087446e-39
0.010614281 -0.020520963 0.74300003 8.4140406e-40
0.012029526 -0.020520963 0.74299997 8.4212152e-40
0.013444742 -0.02052097 0.74299997 9.3359408e-40
0.014899982 -0.020576201 0.74500006 7.4884129e-40
0.016319048 -0.020576209 0.745 5.6445844e-40
0.017785752 -0.020631433 0.74699998 8.4284039e-40
0.019234279 -0.020659059 0.74800003 1.2134222e-39
0.020659059 -0.020659052 0.74799997 1.4846337e-39
0.022142848 -0.020714298 0.75 1.8516001e-39
0.023571415 -0.020714305 0.75 6.1857882e-39
0.025066694 -0.020769529 0.75199997 1.0415599e-38
0.02649908 -0.020769522 0.75199997 1.0038209e-38
0.027968571 -0.020797171 0.75300002 9.664691e-39
0.029520018 -0.020880006 0.75599998 7.3626281e-39
0.031123808 -0.020990498 0.76000005 5.0667533e-39
0.032614265 -0.02101811 0.76100004 5.1607538e-39
0.034063797 -0.021018125 0.76100004 5.345878e-39
0.035513327 -0.021018103 0.76100004 5.437373e-39
0.036962833 -0.021018103 0.76100004 5.5291902e-39
-0.02549999 -0.019671433 0.76500005 2.682437e-39
-0.024042848 -0.019671433 0.76500005 2.7803737e-39
-0.022438107 -0.019542873 0.76000005 3.9767505e-39
-0.020880004 -0.019440018 0.75600004 5.0845148e-39
-0.019491419 -0.019491449 0.75800002 6.097215e-39
-0.01800001 -0.019440025 0.75600004 7.1027293e-39
-0.016559983 -0.019440025 0.75599998 3.6951176e-39
-0.015100025 -0.019414298 0.75500005 1.9530457e-40
-0.013661922 -0.019414313 0.75500005 5.5939835e-40
-0.012191417 -0.019362867 0.75300002 8.3742297e-40
-0.010742827 -0.019337147 0.75199997 7.4667068e-40
-0.0093104402 -0.019337155 0.75199997 5.6300949e-40
-0.0078571383 -0.019285724 0.75 6.55931e-40
-0.0064114123 -0.019234292 0.74799997 6.570142e-40
-0.0049866387 -0.0192343 0.74800003 7.499343e-40
-0.0035618893 -0.019234307 0.74800003 7.5065737e-40
-0.002134263 -0.019208588 0.74699998 7.5138044e-40
-0.0007113801 -0.01920858 0.74699998 7.5065597e-40
0.00070952944 -0.019157156 0.74500006 8.4212713e-40
0.0021285634 -0.019157149 0.74500006 8.4068519e-40
0.0035476279 -0.019157141 0.745 1.0229156e-39
0.0049666609 -0.019157149 0.74500006 1.1169063e-39
0.0063856957 -0.019157156 0.74500006 1.5768055e-39
0.0078047602 -0.019157156 0.745 1.9434244e-39
0.0091990251 -0.019105725 0.74300003 1.208016e-39
0.010614297 -0.01910571 0.74299997 4.744138e-40
0.012061891 -0.019157149 0.745 7.5064196e-40
0.013480927 -0.019157156 0.74500006 9.3394721e-40
0.014900017 -0.019157156 0.745 6.5700019e-40
0.016319051 -0.019157149 0.74500006 2.9038407e-40
0.017785747 -0.019208588 0.74699998 7.5064616e-40
0.019234298 -0.019234307 0.74800003 1.1154798e-39
0.020659048 -0.019234307 0.74800003 1.5692777e-39
0.022142855 -0.019285731 0.75000006 1.9567269e-39
0.023571424 -0.019285738 0.75000006 7.7649815e-39
0.025066694 -0.019337147 0.75199997 1.3534066e-38
0.02649908 -0.01933714 0.75199997 1.1310593e-38
0.028042845 -0.019414298 0.75500005 9.0125043e-39
0.029520025 -0.01944001 0.75599998 7.08104e-39
0.030960023 -0.019440018 0.75599998 5.1571553e-39
0.03261428 -0.019568577 0.76100004 5.343336e-39
0.034063809 -0.019568577 0.76100004 5.4359016e-39
0.035513315 -0.019568585 0.76099998 5.5270336e-39
0.036914315 -0.019542873 0.76000005 5.5281028e-39
-0.025500022 -0.018214293 0.76500005 2.67377e-39
-0.024042854 -0.0182143 0.76500005 1.7529109e-39
-0.018047603 -0.018047638 0.75800002 7.4510262e-39
-0.016560003 -0.018000022 0.75600004 3.7758183e-39
-0.015120006 -0.018000022 0.75600004 1.8704252e-40
-0.013625706 -0.017928593 0.75300002 4.6611951e-40
-0.012191421 -0.0179286 0.75300002 8.3741876e-40
-0.010742827 -0.017904773 0.75199997 6.5447645e-40
-0.0092857257 -0.017857157 0.75 5.619333e-40
-0.0078571588 -0.017857164 0.75000006 6.5557226e-40
-0.0064285905 -0.017857164 0.75000006 7.477763e-40
-0.0049866741 -0.01780954 0.74800003 8.4105513e-40
-0.0035618697 -0.017809533 0.74800003 8.4213834e-40
-0.0021342686 -0.017785735 0.74699998 8.4250408e-40
-0.00071138568 -0.017785728 0.74699998 8.417768e-40
0.00071144145 -0.017785713 0.74699998 9.3324236e-40
0.0021285708 -0.017738096 0.745 1.1154728e-39
0.0035476056 -0.017738104 0.745 1.0243478e-39
0.0049666394 -0.017738119 0.74500006 1.0261428e-39
0.0063857292 -0.017738096 0.74500006 1.2094551e-39
0.0078047626 -0.017738104 0.74500006 1.4838784e-39
0.0092237974 -0.017738119 0.74500006 1.1172455e-39
0.010642861 -0.017738111 0.74500006 7.5063075e-40
0.012061894 -0.017738119 0.74500006 8.4247465e-40
0.013480959 -0.017738096 0.745 9.3466047e-40
0.014899993 -0.017738104 0.74500006 7.4954614e-40
0.016319029 -0.017738119 0.74500006 5.6624649e-40
0.017785743 -0.017785728 0.74699998 6.5558207e-40
0.019208595 -0.017785735 0.74699998 7.4490084e-40
0.020659067 -0.017809547 0.74800003 3.8812913e-39
0.022142837 -0.017857172 0.75000006 7.0181007e-39
0.023571433 -0.017857164 0.75 9.7739349e-39
0.025066694 -0.017904766 0.75199997 1.2614642e-38
0.02649908 -0.017904758 0.75199997 1.084994e-38
0.028042831 -0.017976202 0.75500005 9.0035248e-39
0.029519981 -0.018000022 0.75600004 7.2650865e-39
0.031041913 -0.018047638 0.75800002 5.4337408e-39
0.032614294 -0.018119052 0.76099998 5.5266343e-39
0.034063797 -0.01811906 0.76099998 5.7106724e-39
0.03551333 -0.018119052 0.76099998 5.6195628e-39
-0.018047631 -0.016603813 0.75800002 7.7398128e-39
-0.016559992 -0.016560018 0.75600004 3.9540649e-39
-0.015059991 -0.016494296 0.75299996 9.5907669e-41
-0.013625707 -0.016494304 0.75299996 4.6469439e-40
-0.012191425 -0.016494311 0.75300002 7.4415535e-40
-0.010742827 -0.016472392 0.75199997 6.5484079e-40
-0.0093104672 -0.016472399 0.75199997 5.630137e-40
-0.0078571765 -0.016428597 0.75000006 7.4812803e-40
-0.0064285784 -0.01642859 0.75 8.3996913e-40
-0.0049866545 -0.01638478 0.74800003 9.3252769e-40
-0.0035619061 -0.01638478 0.74800003 9.336109e-40
-0.0021342426 -0.016362868 0.74699998 9.3397664e-40
-0.00071139034 -0.016362876 0.74699998 9.336081e-40
0.00071143772 -0.016362883 0.74699998 1.1169119e-39
0.0021343199 -0.016362868 0.74699998 1.2994969e-39
0.0035571721 -0.016362868 0.74699998 1.1161749e-39
0.004966672 -0.016319051 0.745 8.4174738e-40
0.0063857059 -0.016319059 0.74500006 9.3430454e-40
0.0078047402 -0.016319066 0.74500006 1.0254212e-39
0.0092238029 -0.016319066 0.745 1.0257771e-39
0.010642838 -0.016319051 0.74500006 1.0257827e-39
0.012061902 -0.016319051 0.745 9.3359268e-40
0.013480937 -0.016319059 0.74500006 8.4175158e-40
0.01489997 -0.016319066 0.74500006 8.4067118e-40
0.016362885 -0.016362868 0.74699998 7.4776649e-40
0.017785739 -0.016362876 0.74699998 5.6087391e-40
0.019234307 -0.01638478 0.74800003 3.8474331e-40
0.020659057 -0.016384773 0.74800003 6.192628e-39
0.022142848 -0.01642859 0.75 1.1979356e-38
0.023571415 -0.016428597 0.75000006 1.188072e-38
0.025066694 -0.016472392 0.75199997 1.1683336e-38
0.026534302 -0.016494304 0.75299996 1.0378903e-38
0.028042847 -0.016538113 0.755 9.0053101e-39
0.029519988 -0.016560011 0.75599998 7.3576437e-39
0.031123837 -0.016647629 0.76000005 5.7085382e-39
0.03261428 -0.016669534 0.76099998 5.8021548e-39
0.034063812 -0.016669534 0.76099998 5.8947077e-39
0.035513345 -0.016669527 0.76099998 5.8039498e-39
-0.015059996 -0.015060022 0.75300002 8.280623e-40
-0.013625714 -0.01506003 0.75300002 6.4765633e-40
-0.012175216 -0.01504001 0.75199997 4.69016e-40
-0.010742855 -0.01504001 0.75199997 5.619347e-40
-0.009310469 -0.015040018 0.75199997 5.619417e-40
-0.0078571392 -0.015000023 0.75 7.4741196e-40
-0.006428597 -0.01500003 0.75000006 8.3925026e-40
-0.0050000283 -0.015000015 0.75000006 8.4068799e-40
-0.0035714307 -0.015000015 0.75 9.3432416e-40
-0.002137138 -0.014960013 0.74800003 9.3397103e-40
-0.00071139407 -0.014940023 0.74699998 9.3288783e-40
0.00071143213 -0.014940016 0.74699998 1.0239975e-39
0.0021343143 -0.014940009 0.74699998 1.1151029e-39
0.0035571684 -0.014940016 0.74699998 1.0239708e-39
0.0049800207 -0.014940023 0.74699998 9.3250107e-40
0.0064029028 -0.014940023 0.74699998 1.0254198e-39
0.0078047737 -0.014900021 0.74500006 1.209095e-39
0.0092238076 -0.014900014 0.74500006 1.0257855e-39
0.01064287 -0.014900006 0.745 9.3431015e-40
0.012061905 -0.014900014 0.74500006 9.3395141e-40
0.013480939 -0.014900021 0.74500006 9.3359128e-40
0.014900004 -0.014900006 0.745 6.5664706e-40
0.016362881 -0.014940009 0.74699998 4.722614e-40
0.017785734 -0.014940016 0.74699998 9.2964662e-40
0.0192343 -0.014960006 0.74799997 1.2955747e-39
0.020659076 -0.014960013 0.74800003 7.2939589e-39
0.022142855 -0.015000015 0.75000006 1.3183248e-38
0.023571396 -0.015000015 0.75000006 1.2519213e-38
0.025100013 -0.015060022 0.75300002 1.1766527e-38
0.026604755 -0.01510001 0.75500005 1.038247e-38
0.028042832 -0.015100017 0.755 9.0978546e-39
0.029519999 -0.015120022 0.75599998 7.2658124e-39
0.03112383 -0.015200011 0.76000005 5.5255931e-39
0.032614294 -0.015219994 0.76099998 5.7106906e-39
0.034063824 -0.015220001 0.76099998 5.8950721e-39
0.03551333 -0.015220001 0.76099998 5.8954238e-39
-0.015039962 -0.013607636 0.75199997 1.5731733e-39
-0.013607602 -0.013607621 0.75199997 9.2099921e-40
-0.012175216 -0.013607629 0.75199997 1.9170744e-40
-0.010714293 -0.013571449 0.75 3.7754344e-40
-0.0092857247 -0.013571449 0.75000006 5.6265496e-40
-0.0078571569 -0.013571441 0.75000006 7.4776649e-40
-0.0064285896 -0.013571441 0.75000006 8.3996072e-40
-0.004999992 -0.013571449 0.75 8.4067819e-40
-0.0035714502 -0.013571441 0.75 8.4104533e-40
-0.0021371185 -0.013535254 0.74799997 8.4213133e-40
-0.00071237009 -0.013535239 0.74800003 8.4105093e-40
0.00071237929 -0.013535246 0.74800003 9.3144729e-40
0.0021343096 -0.013517156 0.74699998 9.3143748e-40
0.0035571619 -0.013517171 0.74699998 9.3214654e-40
0.0049800458 -0.013517164 0.74699998 9.3322554e-40
0.0064028981 -0.013517156 0.74699998 1.1176182e-39
0.00780475 -0.013480961 0.74500006 1.3009333e-39
0.0092238141 -0.013480954 0.745 1.1169063e-39
0.010642848 -0.013480969 0.74500006 8.4211872e-40
0.012094312 -0.013517164 0.74699998 9.3359829e-40
0.013517196 -0.013517149 0.74699998 9.3323535e-40
0.014940022 -0.013517149 0.74699998 5.6337944e-40
0.016362876 -0.013517156 0.74699998 1.9531859e-40
0.01780954 -0.013535261 0.74800003 1.2055076e-39
0.01923429 -0.013535254 0.74800003 2.2322348e-39
0.020659069 -0.013535239 0.74799997 8.3206749e-39
0.022142837 -0.013571449 0.75000006 1.4367419e-38
0.023634305 -0.013607629 0.75199997 1.315378e-38
0.02510001 -0.013625734 0.75299996 1.1855837e-38
0.026604742 -0.013661921 0.75500005 1.0470724e-38
0.028042844 -0.013661928 0.75500005 9.0985693e-39
0.029520007 -0.013680011 0.75599998 7.2661627e-39
0.031123819 -0.013752401 0.76000005 5.3419235e-39
0.032614276 -0.013770483 0.76100004 5.6203027e-39
0.034063809 -0.013770483 0.76100004 5.8036163e-39
0.035513315 -0.013770483 0.76099998 6.0787641e-39
-0.022526655 -0.012353338 0.76299995 6.6489832e-39
-0.021018084 -0.012320958 0.76099998 6.0025334e-39
-0.019542856 -0.012304783 0.76000005 8.9512998e-39
-0.018095221 -0.012304783 0.76000005 1.1990114e-38
-0.015060007 -0.012191452 0.75300002 2.8531544e-39
-0.013607602 -0.012175247 0.75199997 1.5667049e-39
-0.012175216 -0.012175247 0.75199997 1.9349409e-40
-0.010714287 -0.012142882 0.75000006 3.782567e-40
-0.0092857452 -0.012142874 0.75000006 4.7153273e-40
-0.0078571476 -0.012142867 0.75 5.6445003e-40
-0.0064285793 -0.012142882 0.75 7.4883568e-40
-0.0050000097 -0.012142882 0.75000006 7.4847275e-40
-0.0035714419 -0.012142889 0.75000006 7.4740916e-40
-0.0021371297 -0.012110494 0.74800003 8.4033206e-40
-0.00071235053 -0.012110487 0.74799997 9.3252629e-40
0.00071239792 -0.012110494 0.74799997 8.396132e-40
0.0021371474 -0.012110487 0.74800003 8.3889153e-40
0.0035618967 -0.012110494 0.74800003 8.3996212e-40
0.0049800402 -0.012094289 0.74699998 9.3359128e-40
0.0064028935 -0.012094289 0.74699998 1.3931275e-39
0.0078257201 -0.012094297 0.74699998 1.8523078e-39
0.0092486022 -0.012094297 0.74699998 1.2098194e-39
0.010671456 -0.012094304 0.74699998 6.5952813e-40
0.012094308 -0.012094297 0.74699998 7.510077e-40
0.013517191 -0.012094289 0.74699998 8.4248025e-40
0.014940018 -0.012094297 0.74699998 4.7118661e-40
0.01638478 -0.012110494 0.74800003 1.9280606e-40
0.017809559 -0.012110479 0.74799997 3.1440934e-39
0.019234309 -0.012110487 0.74800003 6.0965101e-39
0.020714281 -0.012142867 0.75 9.868629e-39
0.022142848 -0.012142874 0.75 1.3719546e-38
0.023634305 -0.012175247 0.75199997 1.2780307e-38
0.025100002 -0.012191452 0.75300002 1.1940127e-38
0.026604757 -0.012223817 0.755 1.0564717e-38
0.028079988 -0.012240015 0.75600004 9.1914796e-39
0.029519986 -0.012240022 0.75600004 7.3583472e-39
0.031123839 -0.012304768 0.76000005 5.5266735e-39
0.032614265 -0.012320966 0.76099998 5.6199565e-39
0.034063797 -0.012320966 0.76099998 5.8043534e-39
0.03551333 -0.012320958 0.76099998 5.8032856e-39
-0.02252668 -0.010900013 0.76300001 4.9912668e-39
-0.021018101 -0.010871448 0.76100004 2.3244403e-39
-0.01956857 -0.010871433 0.76100004 6.9244575e-39
-0.018119065 -0.010871433 0.76099998 1.1435148e-38
-0.015039989 -0.010742873 0.75199997 4.1474581e-39
-0.013607603 -0.010742858 0.75199997 2.2066849e-39
-0.012142872 -0.010714307 0.75000006 1.924165e-40
-0.010714305 -0.010714307 0.75000006 2.8713727e-40
-0.009285707 -0.0107143 0.75 3.8005737e-40
-0.0078571402 -0.010714307 0.75000006 4.7297887e-40
-0.006428598 -0.010714307 0.75000006 5.6445283e-40
-0.0050000292 -0.0107143 0.75000006 5.6445143e-40
-0.0035714316 -0.010714293 0.75 5.6374377e-40
-0.0021371101 -0.010685734 0.74800003 7.4706584e-40
-0.00071236171 -0.010685727 0.74800003 9.314501e-40
0.00071238767 -0.010685734 0.74800003 8.3889293e-40
0.002137166 -0.01068572 0.74799997 6.54859e-40
0.0035619163 -0.010685727 0.74800003 8.3888452e-40
0.0049866657 -0.010685734 0.74800003 9.3287381e-40
0.0064028879 -0.010671444 0.74699998 1.6686354e-39
0.0078257443 -0.010671437 0.74699998 2.4033194e-39
0.0092485966 -0.010671444 0.74699998 1.393489e-39
0.010671451 -0.010671437 0.74699998 3.836587e-40
0.012094334 -0.010671437 0.74699998 5.6769123e-40
0.013517185 -0.010671437 0.74699998 7.4883568e-40
0.014959993 -0.010685727 0.74800003 4.6901039e-40
0.016384773 -0.010685727 0.74799997 1.0455788e-40
0.017809547 -0.010685734 0.74800003 4.9894367e-39
0.019234298 -0.010685734 0.74800003 9.8657059e-39
0.020714287 -0.010714307 0.75000006 1.1428721e-38
0.022142854 -0.010714307 0.75000006 1.2972633e-38
0.023634333 -0.010742858 0.75199997 1.2491858e-38
0.025100028 -0.010757163 0.75300002 1.2033023e-38
0.026604742 -0.010785729 0.75500005 1.0656191e-38
0.02808 -0.010800019 0.75599998 9.190402e-39
0.029598096 -0.010828592 0.75800002 7.4494652e-39
0.031164777 -0.01087144 0.76099998 5.6177859e-39
0.03261428 -0.01087144 0.76099998 5.7121424e-39
0.034153339 -0.010900006 0.76299995 5.7117878e-39
0.03560669 -0.010900021 0.76299995 5.6188817e-39
-0.02252665 -0.0094466805 0.76299995 5.4425367e-39
-0.021073326 -0.0094466731 0.76299995 1.3899325e-39
-0.019619977 -0.0094466805 0.76299995 6.8344101e-39
-0.018166682 -0.009446688 0.76300001 1.2265607e-38
-0.016428566 -0.0092857331 0.75 7.2896177e-39
-0.015 -0.0092857406 0.75000006 2.3882316e-39
-0.013571458 -0.0092857182 0.75000006 1.290125e-39
-0.012110476 -0.0092609674 0.74800003 2.8640439e-40
-0.010685697 -0.0092609525 0.74799997 3.7896996e-40
-0.0092857257 -0.0092857331 0.75000006 5.6337103e-40
-0.0078571578 -0.0092857331 0.75000006 5.6374237e-40
-0.0064285598 -0.0092857182 0.75 6.5557787e-40
-0.004999992 -0.0092857257 0.75000006 5.6374097e-40
-0.0035714502 -0.0092857331 0.75000006 3.8007839e-40
-0.0021371474 -0.0092609599 0.74800003 7.4778611e-40
-0.00071236823 -0.0092609599 0.74799997 1.207674e-39
0.0007124063 -0.0092609748 0.74800003 9.3072422e-40
0.0021371557 -0.0092609823 0.74800003 7.4489803e-40
0.003561934 -0.0092609599 0.74799997 7.4704763e-40
0.0049866834 -0.0092609674 0.74800003 8.4139705e-40
0.0064028832 -0.009248592 0.74699998 1.3009347e-39
0.0078257406 -0.0092485845 0.74699998 1.8519476e-39
0.0092485929 -0.009248592 0.74699998 1.301292e-39
0.010671445 -0.0092485845 0.74699998 6.5844493e-40
0.012094328 -0.0092485771 0.74699998 8.4211732e-40
0.01351718 -0.009248592 0.74699998 1.0243282e-39
0.014940008 -0.009248592 0.74699998 6.5014503e-40
0.016384762 -0.0092609599 0.74800003 1.8563141e-40
0.017809542 -0.0092609599 0.74799997 6.0939976e-39
0.01923429 -0.0092609599 0.74799997 1.1988679e-38
0.020714268 -0.0092857406 0.75000006 1.2613938e-38
0.022142867 -0.0092857182 0.75 1.3148738e-38
0.023634307 -0.0093104765 0.75199997 1.2679087e-38
0.025099995 -0.0093228891 0.75300002 1.2216678e-38
0.026604729 -0.0093476251 0.75500005 1.0656547e-38
0.028080007 -0.0093600154 0.75599998 9.0964127e-39
0.0295981 -0.0093847662 0.75799996 7.2657942e-39
0.031164763 -0.0094218999 0.76099998 5.5270224e-39
0.032614294 -0.0094218999 0.76099998 5.5281028e-39
0.034153316 -0.0094466805 0.76300001 5.6202999e-39
0.035606664 -0.009446688 0.76300001 5.5277483e-39
-0.025500001 -0.008014299 0.76500005 8.9609842e-39
-0.02404286 -0.0080142841 0.76500005 1.1145658e-38
-0.022526674 -0.0079933479 0.76300001 5.7980265e-39
-0.02112855 -0.0080142915 0.76499999 4.7982842e-40
-0.019671436 -0.0080143064 0.76500005 6.7580127e-39
-0.018214295 -0.0080143064 0.76500005 1.2995981e-38
-0.016428584 -0.0078571737 0.75000006 6.8318513e-39
-0.015000018 -0.0078571588 0.75000006 6.5303451e-40
-0.013571421 -0.0078571513 0.75 4.6289653e-40
-0.012142853 -0.0078571588 0.75000006 2.8497366e-40
-0.010714311 -0.0078571662 0.75000006 4.7116419e-40
-0.0092857443 -0.0078571737 0.75000006 6.5484359e-40
-0.0078571467 -0.0078571513 0.75 7.4632876e-40
-0.0064285784 -0.0078571588 0.75 7.4669029e-40
-0.0050000106 -0.0078571662 0.75000006 4.7082788e-40
-0.0035714419 -0.0078571737 0.75000006 1.9604306e-40
-0.0021371278 -0.0078362152 0.74800003 8.3925587e-40
-0.00071237941 -0.0078362003 0.74800003 1.390622e-39
0.00071239978 -0.0078362003 0.74799997 1.1151099e-39
0.0021371492 -0.0078362077 0.74799997 8.3852299e-40
0.0035619247 -0.0078362152 0.74800003 7.4704342e-40
0.0049866731 -0.0078362152 0.74800003 6.5628693e-40
0.0064114523 -0.0078362003 0.74799997 1.0250666e-39
0.0078362012 -0.0078362077 0.74800003 1.3005689e-39
0.0092609497 -0.0078362152 0.74800003 1.1168923e-39
0.010685728 -0.0078362077 0.74799997 9.3322834e-40
0.012110504 -0.0078362152 0.74800003 1.1172637e-39
0.013535252 -0.0078362077 0.74800003 1.2973263e-39
0.014960032 -0.0078362003 0.74799997 8.2987698e-40
0.01638478 -0.0078362003 0.74800003 2.9146728e-40
0.017857116 -0.0078571662 0.75000006 7.2125406e-39
0.019285683 -0.0078571662 0.75000006 1.4092622e-38
0.020714279 -0.0078571513 0.75 1.3705502e-38
0.022201946 -0.0078780949 0.75199997 1.3326278e-38
0.023665735 -0.0078885928 0.75299996 1.2859165e-38
0.02516667 -0.0079095215 0.755 1.2400702e-38
0.02660477 -0.0079095289 0.75500005 1.0748378e-38
0.028080018 -0.0079200193 0.75599998 9.0067282e-39
0.029598096 -0.0079409704 0.75800002 7.1739601e-39
0.031164749 -0.0079723895 0.76100004 5.3422724e-39
0.032614276 -0.0079723969 0.76100004 5.4366205e-39
0.034153346 -0.0079933479 0.76299995 5.5280986e-39
0.035606671 -0.0079933479 0.76299995 5.3444304e-39
0.037060019 -0.0079933405 0.76299995 5.1603993e-39
-0.025500007 -0.0065571591 0.76500005 5.5405001e-39
-0.02397999 -0.0065400079 0.76300001 6.3659154e-39
-0.022526667 -0.0065400079 0.76299995 3.5032013e-39
-0.021073317 -0.0065400153 0.76299995 7.3847308e-40
-0.019671412 -0.0065571517 0.76500005 4.8068797e-39
-0.01821427 -0.0065571517 0.76500005 8.8630194e-39
-0.016757159 -0.0065571666 0.76500005 4.6145025e-39
-0.015000006 -0.006428577 0.75 3.6783384e-40
-0.013571439 -0.0064285919 0.75000006 4.6433846e-40
-0.012142872 -0.0064285994 0.75000006 5.6263675e-40
-0.010714304 -0.0064285994 0.75000006 5.6264095e-40
-0.0092857061 -0.006428577 0.75000006 5.6336262e-40
-0.0078780521 -0.0064457208 0.75199997 5.6300809e-40
-0.0064456915 -0.0064457133 0.75199997 5.6265637e-40
-0.0050000292 -0.0064285994 0.75000006 4.7118521e-40
-0.0035809451 -0.0064457208 0.75199997 3.7935111e-40
-0.0021428638 -0.0064285845 0.75000006 7.4705323e-40
-0.00071429607 -0.0064285919 0.75000006 1.0225569e-39
0.00071427174 -0.0064285994 0.75000006 8.3888312e-40
0.002137138 -0.0064114332 0.74800003 6.5484919e-40
0.0035619163 -0.0064114332 0.74799997 6.5484359e-40
0.0049866918 -0.0064114407 0.74800003 7.4632456e-40
0.0064114402 -0.0064114407 0.74800003 1.1154644e-39
0.0078362199 -0.0064114407 0.74799997 1.5760684e-39
0.0092609692 -0.0064114332 0.74800003 1.2083579e-39
0.010685717 -0.0064114407 0.74800003 9.3250387e-40
0.012110497 -0.0064114332 0.74799997 1.2083803e-39
0.013535247 -0.0064114407 0.74799997 1.4827938e-39
0.014960021 -0.0064114481 0.74800003 1.2008119e-39
0.016428553 -0.0064285994 0.75000006 9.2679358e-40
0.017857151 -0.0064285919 0.75 7.6620478e-39
0.019285718 -0.006428577 0.75 1.4280575e-38
0.020769559 -0.0064457208 0.75199997 1.3518542e-38
0.022231447 -0.0064542964 0.75300002 1.2857381e-38
0.023728553 -0.0064714327 0.755 1.2491458e-38
0.025166655 -0.0064714327 0.75500005 1.2217385e-38
0.026640002 -0.0064800158 0.75600004 1.0657256e-38
0.02808 -0.0064800158 0.75600004 9.0992797e-39
0.029598098 -0.0064971372 0.75799996 7.1746776e-39
0.03116476 -0.0065228716 0.76100004 5.2511516e-39
0.032614287 -0.0065228716 0.76100004 5.3440605e-39
0.034153324 -0.0065400228 0.76300001 5.5273755e-39
0.035606675 -0.0065400228 0.76300001 5.2522306e-39
0.037059996 -0.0065400153 0.76300001 4.9767283e-39
-0.026957124 -0.0050999969 0.76500005 2.675942e-39
-0.025499983 -0.0051000044 0.76500005 2.1249836e-39
-0.024042841 -0.0051000044 0.76499999 1.5807726e-39
-0.022585727 -0.0051000118 0.76500005 1.2934125e-39
-0.021128586 -0.0051000118 0.76500005 9.3108856e-40
-0.019671418 -0.0051000044 0.76500005 2.7753291e-39
-0.018214274 -0.0051000044 0.76500005 4.6105732e-39
-0.016757132 -0.0051000118 0.76500005 2.3950125e-39
-0.015000027 -0.0050000176 0.75000006 9.6625134e-41
-0.013571459 -0.005000025 0.75000006 4.63621e-40
-0.012142861 -0.0050000176 0.75 7.4379521e-40
-0.010714294 -0.0050000027 0.75000006 6.5340025e-40
-0.0092857266 -0.0050000176 0.75000006 4.7045233e-40
-0.0078571588 -0.005000025 0.75000006 4.7081667e-40
-0.0064285607 -0.0050000176 0.75 3.7970844e-40
-0.005000019 -0.0050000176 0.75 4.7191248e-40
-0.0035714493 -0.0050000101 0.75000006 5.6374377e-40
-0.0021428824 -0.0050000176 0.75000006 6.5557647e-40
-0.00071428489 -0.0050000176 0.75 6.5557507e-40
0.00071428291 -0.0050000176 0.75 5.6337944e-40
0.0021428508 -0.005000025 0.75000006 3.7934551e-40
0.0035714186 -0.0050000176 0.75000006 5.6337243e-40
0.0049866852 -0.004986681 0.74799997 7.4740496e-40
0.0064114346 -0.0049866736 0.74799997 1.2984221e-39
0.0078362087 -0.004986681 0.74800003 1.7590289e-39
0.0092609879 -0.004986681 0.74799997 1.3916814e-39
0.010685737 -0.0049866885 0.74799997 9.3286821e-40
0.012110486 -0.0049866885 0.74800003 1.3005745e-39
0.013535236 -0.004986681 0.74800003 1.5728384e-39
0.014999966 -0.0050000325 0.75000006 1.5642162e-39
0.016428566 -0.005000025 0.75 1.5836368e-39
0.017857132 -0.0050000101 0.75 8.0448152e-39
0.019285699 -0.0050000176 0.75000006 1.4453843e-38
0.020769557 -0.0050133467 0.75199997 1.3414151e-38
0.022231443 -0.0050200149 0.75299996 1.2308521e-38
0.02372854 -0.0050333515 0.75500005 1.2215951e-38
0.02516664 -0.005033344 0.75500005 1.2035151e-38
0.026640011 -0.0050400198 0.75599998 1.0655468e-38
0.028154278 -0.0050533414 0.75800002 9.1907593e-39
0.029598096 -0.0050533488 0.75800002 7.174679e-39
0.031164749 -0.0050733313 0.76099998 5.1582371e-39
0.032700006 -0.0050866827 0.76300001 5.3444136e-39
0.034153327 -0.0050866827 0.76299995 5.435896e-39
0.035606679 -0.0050866753 0.76299995 5.0689183e-39
0.037060004 -0.0050866753 0.76299995 4.701219e-39
-0.026957156 -0.0036428571 0.76500005 3.8647742e-39
-0.02549999 -0.0036428645 0.76500005 5.1652156e-39
-0.024042848 -0.0036428645 0.76500005 6.4562935e-39
-0.022585705 -0.0036428645 0.76500005 6.2704687e-39
-0.021183811 -0.0036523938 0.76699996 6.1725053e-39
-0.019671421 -0.0036428645 0.76499999 5.7129383e-39
-0.018214282 -0.003642872 0.76500005 5.3276485e-39
-0.016603788 -0.0036095306 0.75799996 2.6676365e-39
-0.015159972 -0.0036095381 0.75799996 9.9130656e-41
-0.013716183 -0.0036095306 0.75799996 3.7501269e-40
-0.012175218 -0.0035809577 0.75199997 6.5303591e-40
-0.010742826 -0.0035809502 0.75199997 5.6120462e-40
-0.0093104411 -0.0035809502 0.75199997 4.6973626e-40
-0.0078780809 -0.0035809651 0.75199997 3.7898397e-40
-0.0064456933 -0.0035809502 0.75199997 3.8007278e-40
-0.0050000115 -0.0035714507 0.75000006 4.7227962e-40
-0.0035809162 -0.0035809502 0.75199997 5.6374938e-40
-0.0021428713 -0.0035714433 0.75 5.6374097e-40
-0.00071430352 -0.0035714433 0.75 6.5557647e-40
0.00071426429 -0.0035714507 0.75000006 5.6338224e-40
0.0021428312 -0.0035714507 0.75000006 5.6266197e-40
0.0035619247 -0.003561914 0.74800003 5.6373537e-40
0.0049866741 -0.0035619214 0.74800003 6.5629113e-40
0.0064114225 -0.0035619289 0.74800003 1.0239946e-39
0.0078362031 -0.0035619214 0.74799997 1.4842469e-39
0.0092609758 -0.003561914 0.74800003 1.1165434e-39
0.010685726 -0.0035619214 0.74800003 7.4884409e-40
0.012110504 -0.0035619214 0.74799997 8.4139705e-40
0.013535255 -0.0035619289 0.74800003 9.3358147e-40
0.015000003 -0.0035714358 0.75 2.1242045e-39
0.016428573 -0.0035714433 0.75000006 3.3295916e-39
0.017857114 -0.0035714507 0.75000006 8.8580616e-39
0.019337172 -0.0035809577 0.75199997 1.4362007e-38
0.020769557 -0.0035809577 0.75199997 1.3327336e-38
0.022231437 -0.0035857409 0.75300002 1.2307086e-38
0.023728581 -0.003595233 0.755 1.2218821e-38
0.025166655 -0.0035952404 0.755 1.2132729e-38
0.02664002 -0.0036000088 0.75599998 1.0657985e-38
0.028080018 -0.0036000088 0.75599998 9.2818801e-39
0.029676201 -0.0036190599 0.76000005 7.174679e-39
0.031164763 -0.0036238134 0.76099998 5.1589532e-39
0.032700013 -0.0036333501 0.76299995 5.3436905e-39
0.034153331 -0.0036333576 0.76300001 5.5277287e-39
0.035606656 -0.0036333501 0.76300001 5.343706e-39
0.037060004 -0.0036333501 0.76300001 5.0674834e-39
-0.02550002 -0.0021857247 0.76500005 8.2144396e-39
-0.024042852 -0.0021857247 0.76500005 1.1334698e-38
-0.022585712 -0.0021857247 0.76500005 1.1343671e-38
-0.021183796 -0.0021914318 0.76699996 1.1331468e-38
-0.019671427 -0.0021857247 0.76500005 8.667876e-39
-0.018214285 -0.0021857247 0.76499999 5.9884588e-39
-0.016603814 -0.0021657273 0.75800002 3.0317429e-39
-0.01516 -0.0021657348 0.75800002 9.6615325e-41
-0.01366192 -0.0021571517 0.755 3.7644902e-40
-0.012223818 -0.0021571442 0.75500005 5.6048295e-40
-0.010757133 -0.0021514446 0.75299996 4.6865166e-40
-0.0093104402 -0.0021485761 0.75199997 3.7789797e-40
-0.0078780809 -0.0021485761 0.75199997 3.782637e-40
-0.0064456942 -0.0021485761 0.75199997 3.7970844e-40
-0.0050133043 -0.0021485686 0.75199997 4.7262995e-40
-0.0035809171 -0.0021485761 0.75199997 4.7190828e-40
-0.0021428638 -0.0021428838 0.75000006 5.6302351e-40
-0.00071429607 -0.0021428764 0.75000006 5.641011e-40
0.00071427546 -0.0021428689 0.75 6.5557927e-40
0.0021428433 -0.0021428764 0.75 6.5557507e-40
0.0035714111 -0.0021428764 0.75000006 6.5628833e-40
0.0049866936 -0.0021371543 0.74799997 5.6481016e-40
0.006411443 -0.0021371469 0.74800003 8.4067538e-40
0.0078361919 -0.0021371543 0.74800003 1.1165392e-39
0.0092609711 -0.0021371469 0.74799997 8.4067258e-40
0.010685719 -0.0021371543 0.74799997 5.6552903e-40
0.012110495 -0.0021371469 0.74800003 4.744152e-40
0.013535272 -0.0021371469 0.74799997 2.8750581e-40
0.014999986 -0.0021428689 0.75000006 2.6698379e-39
0.016428554 -0.0021428764 0.75000006 5.0794883e-39
0.017857151 -0.0021428689 0.75 9.6960605e-39
0.019337172 -0.0021485761 0.75199997 1.4172951e-38
0.020769557 -0.0021485761 0.75199997 1.3226165e-38
0.022290464 -0.0021571591 0.755 1.2216678e-38
0.023760004 -0.0021600127 0.75600004 1.2218818e-38
0.025199976 -0.0021600202 0.75600004 1.2127706e-38
0.02664003 -0.0021600202 0.75599998 1.0745157e-38
0.028154278 -0.0021657348 0.75800002 9.2822389e-39
0.029598095 -0.0021657348 0.75800002 7.1753964e-39
0.031246668 -0.0021800175 0.76300001 5.0660471e-39
0.032699987 -0.002180025 0.76300001 5.3437046e-39
0.034153339 -0.002180025 0.76300001 5.619574e-39
0.035606664 -0.0021800026 0.76299995 5.5270266e-39
0.037060011 -0.0021800101 0.76299995 5.4351897e-39
-0.025499996 -0.00072857738 0.76500005 8.2058286e-39
-0.024042854 -0.00072858483 0.76499999 9.8653332e-39
-0.022585686 -0.00072857738 0.76500005 1.041205e-38
-0.021128573 -0.00072858483 0.76500005 1.0968823e-38
-0.019671431 -0.00072858483 0.76500005 1.023667e-38
-0.018166656 -0.00072667748 0.76299995 9.4983219e-39
-0.016603788 -0.00072192401 0.75799996 4.8842286e-39
-0.015119979 -0.00072000921 0.75599998 3.6853169e-40
-0.013661935 -0.00071904808 0.75500005 5.5617396e-40
-0.012223835 -0.00071906298 0.75500005 7.4343648e-40
-0.010757139 -0.00071717054 0.75300002 5.6084589e-40
-0.0093104662 -0.00071619451 0.75199997 3.782553e-40
-0.00787808 -0.00071620196 0.75199997 4.7045373e-40
-0.0064456644 -0.00071618706 0.75199997 4.711782e-40
-0.0050133034 -0.00071618706 0.75199997 4.7154394e-40
-0.0035809181 -0.00071619451 0.75199997 4.7118661e-40
-0.0021428824 -0.00071430206 0.75000006 5.6373957e-40
-0.00071428489 -0.00071429461 0.75 6.570128e-40
0.00071428198 -0.00071430206 0.75000006 7.477749e-40
0.0021428498 -0.00071430951 0.75000006 8.3888873e-40
0.0035713916 -0.00071431696 0.75000006 5.640941e-40
0.0049866824 -0.00071240216 0.74800003 3.8077763e-40
0.0064114616 -0.00071239471 0.74799997 6.5735471e-40
0.0078571243 -0.00071430206 0.75000006 1.0250554e-39
0.0092609599 -0.00071238726 0.74800003 8.4102571e-40
0.010685707 -0.00071239471 0.74800003 6.5664426e-40
0.012110488 -0.00071238726 0.74799997 4.7298027e-40
0.013571398 -0.00071430206 0.75000006 2.8643101e-40
0.014999967 -0.00071430951 0.75000006 2.8614024e-39
0.016428564 -0.00071430206 0.75 5.5411783e-39
0.017857132 -0.00071431696 0.75000006 9.8682521e-39
0.01933717 -0.00071619451 0.75199997 1.4265141e-38
0.020797146 -0.00071716309 0.75300002 1.3325167e-38
0.02229045 -0.00071904808 0.75500005 1.2307791e-38
0.023728551 -0.00071905553 0.75500005 1.2218096e-38
0.025166651 -0.00071906298 0.75500005 1.212842e-38
0.026639985 -0.00072002411 0.75600004 1.0749819e-38
0.028079981 -0.00072001666 0.75600004 9.4669847e-39
0.029598096 -0.00072192401 0.75800002 6.8988123e-39
0.03116476 -0.00072477758 0.76100004 4.3313701e-39
0.032700021 -0.00072668493 0.76299995 4.607957e-39
0.034153342 -0.00072667748 0.76299995 4.88526e-39
0.035606664 -0.00072668493 0.76300001 4.7912735e-39
0.036962856 -0.00072477758 0.76100004 4.7919881e-39
-0.025500003 0.00072856247 0.76500005 8.1892947e-39
-0.024042862 0.00072855502 0.76500005 8.2818365e-39
-0.02258572 0.00072855502 0.76500005 9.3777514e-39
-0.021128552 0.00072856247 0.76500005 1.0504233e-38
-0.019671408 0.00072856247 0.76500005 1.1811873e-38
-0.01816668 0.00072664768 0.76300001 1.2987744e-38
-0.016603818 0.00072188675 0.75800002 6.8225158e-39
-0.015119999 0.00071997195 0.75600004 5.6083608e-40
-0.01366192 0.00071904808 0.755 7.3660935e-40
-0.012223818 0.00071904808 0.755 8.3311678e-40
-0.010757141 0.00071713328 0.75299996 6.5232405e-40
-0.0093104681 0.00071618706 0.75199997 3.7789797e-40
-0.00787808 0.00071617216 0.75199997 4.7045513e-40
-0.0064456905 0.00071619451 0.75199997 5.630123e-40
-0.0050133043 0.00071619451 0.75199997 4.71181e-40
-0.0035809451 0.00071619451 0.75199997 3.8006577e-40
-0.0021428713 0.00071427971 0.75 5.640983e-40
-0.00071430352 0.00071427226 0.75000006 6.559352e-40
0.00071426429 0.00071426481 0.75000006 8.3960759e-40
0.002142862 0.00071426481 0.75 9.3107735e-40
0.0035714288 0.00071427971 0.75000006 5.6444582e-40
0.0049866759 0.00071235746 0.74799997 1.9746257e-40
0.0064114504 0.00071236491 0.74800003 5.6588075e-40
0.0078362003 0.00071235746 0.74800003 8.4174878e-40
0.0092609776 0.00071236491 0.74799997 8.4139425e-40
0.010685728 0.00071235746 0.74800003 7.4956156e-40
0.012110476 0.00071236491 0.74800003 4.7405787e-40
0.013571437 0.00071426481 0.75 1.9567311e-40
0.015000003 0.00071426481 0.75000006 3.0396966e-39
0.016428571 0.00071425736 0.75000006 5.9095951e-39
0.017857114 0.00071427226 0.75000006 1.0153797e-38
0.019337172 0.00071617961 0.75199997 1.4353028e-38
0.020797169 0.00071712583 0.75299996 1.3409829e-38
0.022290466 0.00071904808 0.755 1.2400705e-38
0.023728566 0.00071904808 0.755 1.2217743e-38
0.025166666 0.00071904063 0.75500005 1.2035507e-38
0.026639992 0.00071998686 0.75599998 1.0842006e-38
0.02807999 0.00071997941 0.75599998 9.5577341e-39
0.029598124 0.00072190911 0.75799996 6.6207821e-39
0.031164747 0.00072475523 0.76099998 3.5927233e-39
0.03261428 0.00072475523 0.76099998 3.8707437e-39
0.034153316 0.00072666258 0.76300001 4.146969e-39
0.035606671 0.00072665513 0.76300001 4.1448195e-39
0.037060019 0.00072665513 0.76300001 4.0533399e-39
0.038513344 0.00072664768 0.76299995 4.3313547e-39
-0.025499979 0.0021857172 0.76500005 8.1889038e-39
-0.024042867 0.0021857023 0.76500005 8.2656403e-39
-0.022585725 0.0021857023 0.76500005 9.3855706e-39
-0.021128584 0.0021857023 0.76500005 1.0500972e-38
-0.019619998 0.0021799877 0.76300001 1.1244725e-38
-0.018166672 0.0021799952 0.76299995 1.2063682e-38
-0.016603788 0.0021657124 0.75800002 7.5594083e-39
-0.015120014 0.0021599904 0.75599998 3.040061e-39
-0.013680016 0.0021599904 0.75599998 1.7500214e-39
-0.012223833 0.0021571368 0.75500005 5.5760749e-40
-0.010785731 0.0021571293 0.75500005 4.6829573e-40
-0.0093228361 0.0021514073 0.75299996 3.782581e-40
-0.0078885546 0.0021514073 0.75299996 5.6264936e-40
-0.0064456915 0.0021485835 0.75199997 6.5484639e-40
-0.0050199875 0.0021514073 0.75300002 5.6337103e-40
-0.0035809441 0.0021485686 0.75199997 4.7297467e-40
-0.0021428638 0.0021428317 0.75000006 5.640969e-40
-0.000714297 0.0021428317 0.75000006 6.548562e-40
0.00071427453 0.0021428317 0.75 7.4705043e-40
0.0021428424 0.0021428466 0.75000006 8.3816005e-40
0.0035619163 0.0021371394 0.74800003 7.4739094e-40
0.0049866657 0.002137132 0.74800003 5.6408429e-40
0.0064114449 0.002137132 0.74799997 1.0250596e-39
0.0078361938 0.0021371245 0.74799997 1.3934862e-39
0.0092609664 0.002137132 0.74800003 9.3395702e-40
0.010685747 0.0021371394 0.74799997 5.673311e-40
0.012110497 0.002137132 0.74800003 3.8222237e-40
0.013571418 0.0021428391 0.75000006 1.9639338e-40
0.014999985 0.0021428466 0.75000006 3.0486677e-39
0.016428554 0.0021428466 0.75000006 5.8217043e-39
0.017857151 0.0021428391 0.75 1.0051194e-38
0.019337144 0.0021485686 0.75199997 1.4164333e-38
0.020797135 0.0021513999 0.75300002 1.3323376e-38
0.022290478 0.0021571368 0.75500005 1.2493262e-38
0.023728551 0.0021571368 0.75500005 1.2218106e-38
0.025200004 0.0021599904 0.75599998 1.1943312e-38
0.026640004 0.0021599829 0.75599998 1.0933474e-38
0.02808 0.0021599904 0.75599998 9.92363e-39
0.029519998 0.0021599904 0.75599998 8.5496723e-39
0.0311238 0.0021714121 0.76000005 7.1699874e-39
0.032700002 0.0021799803 0.76299995 7.4558957e-39
0.034242876 0.0021857172 0.76500005 7.7271002e-39
0.035793338 0.0021914169 0.76699996 7.3622722e-39
0.037060026 0.0021799877 0.76299995 7.0774359e-39
-0.024042845 0.0036428571 0.76500005 8.2814693e-39
-0.022585701 0.0036428496 0.76500005 9.3982145e-39
-0.021128589 0.0036428422 0.76500005 1.0414548e-38
-0.019619992 0.0036333352 0.76299995 1.0786241e-38
-0.018166643 0.0036333278 0.76299995 1.1061731e-38
-0.016603814 0.0036095083 0.75800002 8.3109541e-39
-0.01516 0.0036095083 0.75800002 5.5275073e-39
-0.013680008 0.0035999864 0.75599998 2.8495278e-39
-0.01224001 0.003599979 0.75599998 1.902599e-40
-0.010785718 0.0035952255 0.755 2.842646e-40
-0.0093228696 0.0035856962 0.75300002 3.7789656e-40
-0.0078885863 0.0035856962 0.75300002 5.6300529e-40
-0.0064542736 0.0035856962 0.75299996 7.4668049e-40
-0.0050133052 0.0035809502 0.75199997 6.5485059e-40
-0.003580946 0.0035809427 0.75199997 5.6373537e-40
-0.0021428526 0.0035714135 0.75 5.6373817e-40
-0.00071428489 0.0035714135 0.75 5.6338224e-40
0.00071428291 0.0035714135 0.75000006 6.5522054e-40
0.0021371567 0.0035618842 0.74800003 7.4704763e-40
0.0035619349 0.0035618916 0.74799997 8.3887331e-40
0.0049866843 0.0035618916 0.74800003 9.3178641e-40
0.0064114337 0.0035618991 0.74800003 1.4842357e-39
0.0078362115 0.0035618991 0.74799997 1.9434146e-39
0.0092609609 0.0035618916 0.74799997 1.1168965e-39
0.010685735 0.0035618842 0.74800003 2.9038127e-40
0.012110486 0.0035618916 0.74800003 2.9074421e-40
0.013571399 0.0035714135 0.75000006 1.9746818e-40
0.014999995 0.0035714135 0.75 2.9528848e-39
0.016428566 0.003571406 0.75 5.7277192e-39
0.017857132 0.003571406 0.75000006 9.8808049e-39
0.019337172 0.0035809502 0.75199997 1.3985327e-38
0.02079716 0.0035856962 0.75300002 1.3226514e-38
0.022290463 0.003595233 0.75500005 1.2492544e-38
0.023728536 0.003595233 0.75500005 1.2125915e-38
0.025200015 0.0035999939 0.75599998 1.1759276e-38
0.026640011 0.0035999864 0.75599998 1.1024221e-38
0.028080009 0.0035999864 0.75599998 1.0294223e-38
0.029598122 0.0036095157 0.75800002 1.0484375e-38
0.031164775 0.0036238059 0.76099998 1.0682032e-38
0.032700002 0.0036333054 0.76300001 1.0963634e-38
0.034242868 0.0036428422 0.76500005 1.1238062e-38
0.035793353 0.0036523715 0.76699996 1.0683819e-38
0.037254285 0.0036523789 0.76699996 1.0128853e-38
-0.02404285 0.0050999969 0.76500005 7.7330123e-39
-0.022585707 0.0050999969 0.76500005 7.3728982e-39
-0.021128565 0.0050999969 0.76500005 7.0234831e-39
-0.019620016 0.0050866604 0.76300001 9.0417018e-39
-0.018166665 0.0050866529 0.76300001 1.1065666e-38
-0.016647613 0.0050666556 0.76000005 7.8420908e-39
-0.01516 0.005053319 0.75800002 4.6945264e-39
-0.013716185 0.0050533116 0.75800002 2.3932104e-39
-0.012240001 0.0050399825 0.75599998 1.9133049e-40
-0.010800004 0.0050399825 0.75599998 2.8354434e-40
-0.0093476316 0.0050333366 0.75500005 4.6972926e-40
-0.0079095559 0.0050333291 0.75500005 5.6192629e-40
-0.0064542792 0.0050199702 0.75300002 6.5484499e-40
-0.0050199977 0.0050199851 0.75300002 6.5449326e-40
-0.0035809162 0.0050133392 0.75199997 6.548548e-40
-0.0021428722 0.0049999878 0.75 7.4705043e-40
-0.00071430445 0.0049999878 0.75000006 7.4705603e-40
0.00071426335 0.0049999803 0.75000006 7.4706164e-40
0.0021371492 0.0049866587 0.74799997 8.3888873e-40
0.0035619247 0.0049866512 0.74800003 8.3887892e-40
0.0049867029 0.0049866512 0.74799997 8.3959358e-40
0.0064114532 0.0049866512 0.74799997 1.208009e-39
0.0078571355 0.0049999878 0.75 1.6671822e-39
0.0092609506 0.0049866512 0.74800003 1.1161651e-39
0.010714269 0.0049999729 0.75000006 5.6444582e-40
0.012142838 0.0049999803 0.75000006 6.5700859e-40
0.013571436 0.0049999878 0.75 6.5520933e-40
0.015000003 0.0049999803 0.75000006 2.1277989e-39
0.016472396 0.0050133318 0.75199997 3.7048314e-39
0.017904812 0.0050133392 0.75199997 8.7655129e-39
0.019362871 0.0050199777 0.75300002 1.3894211e-38
0.020852376 0.0050333366 0.755 1.3142207e-38
0.022290478 0.0050333217 0.755 1.2400348e-38
0.023759997 0.0050399825 0.75600004 1.2034082e-38
0.025199993 0.0050399825 0.75600004 1.1760348e-38
0.026639991 0.005039975 0.75600004 1.1026001e-38
0.028154278 0.005053319 0.75800002 1.0387876e-38
0.029598095 0.005053319 0.75800002 1.2156127e-38
0.03116476 0.0050733238 0.76100004 1.3926823e-38
0.032700006 0.0050866455 0.76300001 1.4196224e-38
0.034242835 0.0050999895 0.76500005 1.4567506e-38
0.035700005 0.0050999895 0.76500005 1.4101506e-38
0.0372543 0.005113326 0.76699996 1.3735586e-38
-0.024042852 0.0065571368 0.76499999 7.0937302e-39
-0.022585714 0.0065571368 0.76500005 5.3359568e-39
-0.021128571 0.0065571368 0.76500005 3.5154038e-39
-0.019619983 0.006539993 0.76299995 7.2910778e-39
-0.018119069 0.0065228418 0.76100004 1.0970581e-38
-0.016603788 0.0064971298 0.75799996 7.3886236e-39
-0.015159972 0.0064971298 0.75799996 3.7786672e-39
-0.013716183 0.0064971447 0.75799996 1.9290121e-39
-0.012239992 0.0064799786 0.75599998 9.5546134e-41
-0.010799994 0.0064799935 0.75599998 2.8030874e-40
-0.0093599958 0.006479986 0.75599998 4.6721393e-40
-0.0079199988 0.006479986 0.75599998 4.6829573e-40
-0.0064714379 0.0064714178 0.755 4.700964e-40
-0.0050133034 0.0064457133 0.75199997 6.537758e-40
-0.0035809171 0.0064457133 0.75199997 7.4704763e-40
-0.0021428638 0.0064285547 0.75000006 8.3888452e-40
-0.00071429234 0.0064285621 0.75 9.3072282e-40
0.00071427453 0.0064285472 0.75 9.3000816e-40
0.002137139 0.0064114109 0.74800003 8.3888452e-40
0.0035714102 0.0064285621 0.75000006 7.4632736e-40
0.0050000078 0.0064285696 0.75 6.5520652e-40
0.0064285756 0.0064285547 0.75 1.0243394e-39
0.0078571429 0.0064285472 0.75000006 1.2998445e-39
0.0092856837 0.0064285472 0.75000006 1.1165294e-39
0.010714282 0.0064285696 0.75 8.4067258e-40
0.012142849 0.0064285621 0.75 1.0250694e-39
0.013571416 0.0064285547 0.75000006 1.112233e-39
0.014999985 0.0064285472 0.75000006 1.381634e-39
0.016472425 0.0064457282 0.75199997 1.5886647e-39
0.017904785 0.0064457133 0.75199997 7.7660802e-39
