# .PCD v0.7 - Point Cloud Data file format
VERSION 0.7
FIELDS x y z rgb
SIZE 4 4 4 4
TYPE F F F F
COUNT 1 1 1 1
WIDTH 972
HEIGHT 1
VIEWPOINT 0 0 0 1 0 0 0
POINTS 972
DATA ascii
0.014899991 0.026252396 0.74500006 5.9088875e-39
0.016319059 0.026252396 0.74500006 6.3691439e-39
0.017785693 0.026322849 0.7470001 6.7364873e-39
0.019208577 0.026322849 0.7470001 7.013433e-39
0.020659039 0.02635809 0.74800009 7.1077824e-39
0.022083795 0.02635809 0.74800003 7.1945802e-39
0.023508575 0.026358105 0.74800003 4.4319651e-39
0.024999993 0.02642858 0.75000006 1.5782264e-39
0.026428565 0.02642858 0.75 1.0210912e-39
0.027931411 0.026499048 0.75200003 3.8798171e-40
0.029363776 0.026499033 0.75200009 6.0133192e-39
0.030919034 0.026604757 0.755 1.1620622e-38
0.032399993 0.026640005 0.75600004 1.0506714e-38
0.033839989 0.026639991 0.75600004 9.4061473e-39
0.035279993 0.026640005 0.75600004 9.7756669e-39
-0.022379082 0.028154291 0.75800002 1.2054698e-39
-0.020852387 0.028042853 0.75500005 9.2888712e-40
-0.019362902 0.027968563 0.75300002 6.519443e-40
-0.017928587 0.027968571 0.75300002 4.6755444e-40
-0.016494298 0.027968571 0.75300002 5.5974587e-40
-0.015040023 0.027931422 0.75200003 6.5338063e-40
-0.013607661 0.027931415 0.75200009 7.4450287e-40
-0.012142878 0.02785714 0.75000006 8.3597683e-40
-0.010714305 0.027857162 0.75000006 8.3705022e-40
-0.0092609487 0.027782872 0.74800003 8.3884949e-40
-0.0078361975 0.027782865 0.74800009 1.0228848e-39
-0.0064114407 0.027782857 0.74800003 1.1158007e-39
-0.0049800277 0.027745709 0.7470001 6.5303872e-40
-0.00355717 0.027745701 0.7470001 2.8465557e-40
-0.0021285696 0.027671441 0.74500006 3.8838514e-39
-0.00070763403 0.027597137 0.74300003 7.5655305e-39
0.00070761307 0.027597129 0.74300003 7.3811505e-39
0.002122862 0.027597144 0.74300003 7.1960376e-39
0.0035381091 0.027597144 0.74300003 7.196748e-39
0.0049533565 0.027597137 0.74300003 7.1974641e-39
0.0063685486 0.027597144 0.74300003 7.4736866e-39
0.0077837966 0.027597137 0.74300003 7.7491917e-39
0.0091990437 0.027597144 0.74300003 7.7488316e-39
0.010614292 0.027597137 0.74300003 7.7484729e-39
0.01202954 0.027597144 0.74300003 7.0130714e-39
0.013444757 0.027597129 0.74300009 6.2755106e-39
0.01490001 0.027671449 0.745 6.5531625e-39
0.016319046 0.027671434 0.74500006 6.8297508e-39
0.017785698 0.027745709 0.7470001 7.0134259e-39
0.019208556 0.027745701 0.7470001 7.2900198e-39
0.020659043 0.027782857 0.74800003 6.8304934e-39
0.022083825 0.027782872 0.74800003 6.3720124e-39
0.023508551 0.027782857 0.74800009 3.7884006e-39
0.024999984 0.027857155 0.75000006 1.2987697e-39
0.02642856 0.027857147 0.75000006 3.1315041e-39
0.027931398 0.027931429 0.75200003 4.8775388e-39
0.029402817 0.027968563 0.75300002 9.0478857e-39
0.030919032 0.028042853 0.75500005 1.3205862e-38
0.032400012 0.028080009 0.75600004 1.199146e-38
0.033839986 0.028079994 0.75600004 1.0779711e-38
0.035279989 0.028080009 0.75600004 1.0324888e-38
0.036914263 0.028228574 0.76000005 9.8689289e-39
-0.022379067 0.029598102 0.75800002 1.1132756e-39
-0.020880016 0.029519998 0.75600004 8.3705162e-40
-0.019414306 0.029480956 0.75500005 6.5230303e-40
-0.017928578 0.029402867 0.75300002 4.6755024e-40
-0.016494321 0.029402852 0.75300002 4.671859e-40
-0.015040039 0.029363796 0.75200003 4.6826911e-40
-0.013607647 0.029363811 0.75200003 5.6011161e-40
-0.012142855 0.029285721 0.75 6.530247e-40
-0.010714311 0.029285714 0.75000006 7.44863e-40
-0.0092857378 0.029285721 0.75000006 8.3849776e-40
-0.007836191 0.029207617 0.74800003 1.1147287e-39
-0.0064114099 0.02920761 0.74800003 1.2980424e-39
-0.0049866848 0.029207624 0.74800009 8.3635518e-40
-0.003561904 0.029207617 0.74800003 2.9075402e-40
-0.002128551 0.029090494 0.74500006 3.7966767e-39
-0.00070760981 0.029012382 0.74300003 7.2885835e-39
0.00070761307 0.029012382 0.74300003 7.197111e-39
0.0021228602 0.029012382 0.74300003 7.0130784e-39
0.0035380784 0.029012367 0.74300003 7.104551e-39
0.0049533267 0.02901236 0.74300003 7.1974641e-39
0.0063685738 0.029012382 0.74300003 7.5655235e-39
0.0077838218 0.029012375 0.74300003 7.8421048e-39
0.0091990689 0.029012382 0.74300003 8.1172498e-39
0.010614261 0.029012375 0.74300003 8.3012837e-39
0.012029509 0.029012382 0.74300003 7.7520672e-39
0.013480958 0.029090486 0.74500006 7.1066992e-39
0.014899998 0.029090494 0.74500006 7.1981675e-39
0.016319064 0.029090486 0.74500006 7.1960151e-39
0.017785709 0.029168583 0.74700004 7.380405e-39
0.019208563 0.029168569 0.7470001 7.4708126e-39
0.020659046 0.029207624 0.74800003 6.4606291e-39
0.0220838 0.029207617 0.74800009 5.4468373e-39
0.02350858 0.029207617 0.74800003 3.2341618e-39
0.024999982 0.029285714 0.75 1.0275876e-39
0.02642855 0.029285714 0.75000006 5.2365823e-39
0.027931407 0.029363804 0.75200003 9.3997363e-39
0.029480951 0.029480949 0.75500005 1.2094957e-38
0.030919028 0.029480949 0.75500005 1.4672402e-38
0.032399978 0.029519998 0.75600004 1.3473472e-38
0.033839982 0.029519998 0.75600004 1.2169125e-38
0.035280012 0.029520005 0.75600004 1.0875542e-38
-0.022379084 0.03104192 0.75800002 1.1136343e-39
-0.020880023 0.030960001 0.75600004 9.2888712e-40
-0.019439993 0.030960009 0.75600004 7.437798e-40
-0.017976204 0.030919045 0.75500005 5.5830533e-40
-0.016538126 0.030919045 0.75500005 4.6717749e-40
-0.01506005 0.030837126 0.75300002 4.6754604e-40
-0.013607662 0.030796178 0.75200003 5.6082487e-40
-0.012142861 0.030714288 0.75000006 7.459378e-40
-0.010714288 0.030714288 0.75000006 8.3813903e-40
-0.0092857443 0.030714296 0.75000006 9.30699e-40
-0.007857169 0.030714296 0.75000006 9.3070601e-40
-0.0064285714 0.030714288 0.75000006 1.0225415e-39
-0.004986682 0.030632384 0.74800003 9.2926968e-40
-0.0035619012 0.030632377 0.74800003 9.2858024e-40
-0.0021285641 0.030509524 0.74500006 3.5150689e-39
-0.00070949667 0.030509531 0.74500006 6.0947151e-39
0.00070954463 0.030509524 0.74500006 6.3702229e-39
0.0021228583 0.030427612 0.74300003 6.7379237e-39
0.0035381054 0.030427605 0.74300003 6.9208772e-39
0.0049533276 0.03042762 0.74300003 7.1056272e-39
0.0063685747 0.030427612 0.74300003 7.2907359e-39
0.0077837929 0.030427612 0.74300003 7.4776327e-39
0.0091990409 0.030427612 0.74300003 7.2914478e-39
0.010614288 0.030427627 0.74300003 7.1070663e-39
0.012061909 0.030509546 0.74500006 6.2773253e-39
0.013480976 0.030509539 0.74500006 5.4558182e-39
0.014939971 0.030591421 0.7470001 5.8166932e-39
0.016362857 0.030591428 0.7470001 6.1822374e-39
0.017785715 0.030591421 0.74700004 6.6424868e-39
0.019234266 0.030632384 0.74800009 7.1906342e-39
0.020659048 0.030632377 0.74800003 7.9289096e-39
0.022083804 0.030632392 0.74800003 8.7503999e-39
0.023508586 0.030632384 0.74800003 7.9328417e-39
0.024999974 0.030714281 0.75000006 7.1063278e-39
0.026428575 0.030714296 0.75000006 8.7608059e-39
0.027931394 0.030796185 0.75200009 1.0430391e-38
0.029480923 0.030919038 0.75500005 1.1908414e-38
0.030960003 0.030960009 0.75600004 1.3487194e-38
0.032399975 0.030960001 0.75600004 1.2458346e-38
0.033840004 0.030959994 0.75600004 1.1527038e-38
0.035373319 0.031041905 0.75800002 1.078801e-38
-0.022438116 0.032571428 0.76000011 1.2058313e-39
-0.020879999 0.032399997 0.75600004 9.2960739e-40
-0.019440025 0.03239999 0.75600004 7.4414273e-40
-0.017976204 0.032357134 0.75500005 5.5938854e-40
-0.016538098 0.032357149 0.75500005 5.5974026e-40
-0.015040043 0.032228552 0.75200009 4.6826911e-40
-0.01360765 0.032228559 0.75200003 6.5373936e-40
-0.012142894 0.032142848 0.75000006 7.4629933e-40
-0.010714294 0.032142863 0.75000006 8.3921943e-40
-0.009285721 0.032142878 0.75000006 9.3034167e-40
-0.0078571774 0.032142863 0.75000006 8.3887051e-40
-0.0064286022 0.032142863 0.75000006 6.5556245e-40
-0.0049866512 0.032057151 0.74800003 1.1133106e-39
-0.0035619272 0.032057151 0.74800009 1.5768111e-39
-0.0021285734 0.031928569 0.74500006 3.2402729e-39
-0.00070953392 0.031928577 0.74500006 4.8968977e-39
0.0007095316 0.031928577 0.74500006 5.6348103e-39
0.0021285971 0.031928584 0.74500006 6.3684153e-39
0.0035381054 0.031842865 0.74300003 6.6435602e-39
0.0049533229 0.03184285 0.74300003 6.9187108e-39
0.006368571 0.031842858 0.74300003 7.0137791e-39
0.0077838181 0.03184285 0.74300003 7.1074054e-39
0.00919904 0.03184285 0.74300003 6.5549561e-39
0.010614288 0.031842858 0.74300003 5.9049344e-39
0.012061897 0.031928584 0.74500006 4.7943003e-39
0.013480965 0.031928584 0.74500006 3.6933449e-39
0.014940009 0.032014281 0.74700004 4.4301743e-39
0.016362837 0.032014281 0.7470001 5.0827211e-39
0.017785696 0.032014281 0.74700004 5.9996538e-39
0.019234272 0.032057144 0.74800003 6.8344325e-39
0.020659052 0.032057144 0.74800003 9.4058362e-39
0.022083834 0.032057151 0.74800003 1.1986563e-38
0.02350856 0.032057144 0.74800003 1.263982e-38
0.024933342 0.032057151 0.74800003 1.3184726e-38
0.026428541 0.03214287 0.75000006 1.2361427e-38
0.027931377 0.032228552 0.75200009 1.1439144e-38
0.029480951 0.032357141 0.75500005 1.1805069e-38
0.030959966 0.032400005 0.75600004 1.217635e-38
0.03248566 0.032485723 0.75800008 1.1528833e-38
0.033929512 0.032485723 0.75800002 1.0790185e-38
0.035373308 0.032485723 0.75800002 1.0695461e-38
0.036962826 0.032614291 0.76100004 1.0604695e-38
-0.022438111 0.03401906 0.76000005 1.2061915e-39
-0.020935265 0.033929534 0.75800002 1.0225219e-39
-0.019491443 0.033929534 0.75800002 8.3634117e-40
-0.017976204 0.033795245 0.75500005 7.427078e-40
-0.016538126 0.033795238 0.75500005 5.5903261e-40
-0.015060033 0.033705711 0.75300002 4.6719851e-40
-0.013607664 0.033660956 0.75200009 6.5266457e-40
-0.012142872 0.03357143 0.75000006 8.377803e-40
-0.010714329 0.03357143 0.75000006 8.3778871e-40
-0.0092857294 0.03357143 0.75000006 9.2890954e-40
-0.007857156 0.033571444 0.75000006 9.307046e-40
-0.0064285826 0.033571437 0.75 9.3250948e-40
-0.0050000362 0.033571422 0.75000006 1.2069496e-39
-0.0035618965 0.033481903 0.74800003 1.4839008e-39
-0.0021342805 0.033437148 0.74700004 3.0515712e-39
-0.00070951716 0.033347629 0.745 4.709631e-39
0.00070951856 0.033347636 0.74500006 5.2645872e-39
0.0021285878 0.033347629 0.74500006 5.7223242e-39
0.0035380998 0.033258088 0.74300003 6.4552075e-39
0.004953322 0.033258103 0.74300003 7.1870258e-39
0.00636857 0.033258095 0.74300003 8.2086999e-39
0.0077838171 0.033258095 0.74300003 9.3110846e-39
0.0091990354 0.033258095 0.74300009 7.6544569e-39
0.010614283 0.033258088 0.74300003 6.0817699e-39
0.012061916 0.033347636 0.74500006 3.9595047e-39
0.013480952 0.033347622 0.74500006 1.9301527e-39
0.014939989 0.03343714 0.74700004 5.4446513e-39
0.016362844 0.033437133 0.7470001 9.0445604e-39
0.017809521 0.033481918 0.74800003 1.006016e-38
0.019234302 0.033481911 0.74800003 1.1078615e-38
0.020659028 0.033481911 0.74800009 1.217922e-38
0.022083808 0.033481903 0.74800003 1.320055e-38
0.023508566 0.033481903 0.74800003 1.3102275e-38
0.024999989 0.033571437 0.75000006 1.2916789e-38
0.026428564 0.033571437 0.75 1.1807208e-38
0.027968535 0.033705711 0.75300002 1.0792345e-38
0.029519988 0.033840008 0.75599998 1.1156809e-38
0.030959988 0.033840008 0.75600004 1.1516967e-38
0.032485675 0.033929534 0.75800002 1.0971325e-38
0.033929523 0.033929527 0.75800002 1.0511433e-38
0.035513341 0.034063824 0.76100004 1.0604346e-38
0.036962848 0.034063809 0.76100004 1.0696527e-38
-0.020990493 0.035466678 0.76000005 1.1132784e-39
-0.019542882 0.035466671 0.76000005 1.0192919e-39
-0.018000005 0.035280004 0.75600004 8.3490203e-40
-0.0165381 0.035233341 0.75500005 6.5051217e-40
-0.015060026 0.03514 0.75300002 4.6791878e-40
-0.013625738 0.035139993 0.75300002 6.5231004e-40
-0.01217529 0.035093322 0.75200003 8.3706564e-40
-0.010742897 0.03509333 0.75200003 8.3743278e-40
-0.0092857322 0.035000004 0.75 8.3743558e-40
-0.0078571625 0.035000011 0.75000006 1.022903e-39
-0.0064285891 0.035000004 0.75000006 1.1151043e-39
-0.0050000148 0.035000004 0.75 1.2058706e-39
-0.0035714454 0.035000004 0.75000006 1.2995011e-39
-0.002134301 0.03486 0.74700004 2.9564875e-39
-0.00071143941 0.03486 0.74700004 4.5273964e-39
0.00070953718 0.034766674 0.74500006 4.807586e-39
0.0021286027 0.034766681 0.74500006 5.0816393e-39
0.0035380998 0.034673326 0.74300003 6.2683065e-39
0.0049533471 0.034673333 0.74300003 7.3821917e-39
0.0063685654 0.034673318 0.74300003 9.4140744e-39
0.0077838125 0.034673341 0.74300003 1.14262e-38
0.0091990344 0.034673333 0.74300003 8.8540861e-39
0.010614282 0.034673341 0.74300003 6.1757676e-39
0.012061904 0.034766681 0.74500006 3.1229324e-39
0.01348097 0.034766674 0.74500006 1.056579e-40
0.014939994 0.034859985 0.74700004 6.5571267e-39
0.016362855 0.03486 0.74700004 1.29103e-38
0.017809525 0.034906678 0.74800003 1.4117457e-38
0.019234277 0.034906656 0.74800009 1.5306305e-38
0.020659031 0.034906678 0.74800003 1.4848571e-38
0.022083813 0.034906678 0.74800003 1.4389027e-38
0.023571413 0.035000004 0.75 1.3560348e-38
0.024999984 0.035000004 0.75000006 1.2634446e-38
0.026499012 0.03509333 0.75200003 1.1341562e-38
0.028042844 0.035233319 0.75500005 1.0055143e-38
0.029520011 0.035280012 0.75599998 1.0420327e-38
0.03104187 0.03537333 0.75800002 1.0786587e-38
0.032571416 0.035466686 0.76000005 1.0511793e-38
0.034019027 0.035466664 0.76000005 1.0145171e-38
0.035513345 0.035513349 0.76100004 1.0421399e-38
0.037059981 0.035606667 0.76300001 1.0697253e-38
0.038513284 0.035606652 0.76300007 1.0697602e-38
-0.022585709 0.037157133 0.76500005 1.2980228e-39
-0.021018116 0.036962874 0.76100004 1.2047523e-39
-0.019568579 0.036962867 0.76100004 1.0196464e-39
-0.018047653 0.036817148 0.75800008 8.3490063e-40
-0.016560009 0.036720008 0.75600004 7.4342527e-40
-0.015100021 0.036671437 0.75500005 6.5195131e-40
-0.013625729 0.036574282 0.75300002 6.5231284e-40
-0.012175278 0.036525704 0.75200009 5.6156195e-40
-0.010742885 0.036525704 0.75200003 6.5304712e-40
-0.0092857387 0.036428578 0.75000006 6.5269259e-40
-0.0078571392 0.036428571 0.75000006 7.4632456e-40
-0.0064285956 0.036428586 0.75000006 7.4812242e-40
-0.0050000213 0.036428578 0.75000006 8.3780833e-40
-0.0035714481 0.036428571 0.75000006 8.3672512e-40
-0.0021371341 0.03633143 0.74800003 3.4206662e-39
-0.00071143382 0.03628286 0.74700004 6.0954171e-39
0.00071142591 0.03628286 0.74700004 7.2032248e-39
0.0021285897 0.036185727 0.74500006 8.3041437e-39
0.0035476319 0.036185727 0.74500006 8.4885e-39
0.0049666995 0.036185719 0.74500006 8.7719378e-39
0.0063857101 0.036185719 0.74500006 9.77822e-39
0.0078047756 0.036185712 0.74500006 1.0778719e-38
0.009223816 0.036185734 0.74500006 7.8399762e-39
0.01061428 0.036088571 0.74300009 4.9912416e-39
0.012061892 0.036185712 0.74500006 2.4940646e-39
0.013480959 0.036185719 0.74500006 1.0818865e-40
0.014939976 0.036282852 0.74700004 6.1905485e-39
0.016362861 0.036282845 0.74700004 1.2278972e-38
0.017809527 0.03633143 0.74800003 1.2640589e-38
0.019234281 0.03633143 0.74800003 1.3098335e-38
0.020659063 0.036331438 0.74800003 1.3282007e-38
0.022083787 0.036331423 0.74800009 1.346744e-38
0.023508569 0.036331415 0.74800003 1.2819178e-38
0.024999978 0.036428578 0.75 1.2168074e-38
0.026534263 0.036574297 0.75300002 1.1248998e-38
0.02804284 0.036671422 0.75500005 1.0329924e-38
0.029480947 0.036671437 0.75500005 1.0696906e-38
0.031041883 0.036817148 0.75800002 1.097277e-38
0.032614268 0.036962859 0.76100004 1.0788738e-38
0.034063805 0.036962882 0.76100004 1.0513595e-38
0.035606645 0.037059985 0.76300007 1.0697629e-38
0.037059974 0.037060015 0.76300001 1.0789457e-38
0.038513299 0.03706 0.76300001 1.0698331e-38
0.040071417 0.037157126 0.76500005 1.0699771e-38
0.041528564 0.037157141 0.76500005 9.9629406e-39
-0.022585729 0.038614288 0.76500005 1.2980144e-39
-0.021018116 0.0384124 0.76100004 1.2051055e-39
-0.019568579 0.038412396 0.76100004 1.019645e-39
-0.01804764 0.038260963 0.75800002 7.4414273e-40
-0.016560014 0.038160007 0.75600004 8.356223e-40
-0.015100024 0.038109507 0.75500005 8.3491044e-40
-0.01362575 0.038008563 0.75300002 5.5905223e-40
-0.012191462 0.038008571 0.75300002 2.8570374e-40
-0.010742899 0.037958093 0.75200009 3.7611131e-40
-0.0093105063 0.037958082 0.75200003 4.7081807e-40
-0.0078781145 0.037958078 0.75200003 4.6974327e-40
-0.0064285723 0.03785716 0.75000006 3.793413e-40
-0.0050000278 0.037857145 0.75000006 3.7611131e-40
-0.0035714547 0.037857141 0.75000006 3.8185383e-40
-0.0021371304 0.03775619 0.74800003 3.9777917e-39
-0.00071142637 0.037705701 0.7470001 7.5708961e-39
0.00071143149 0.037705712 0.74700004 9.5134727e-39
0.0021285804 0.037604775 0.74500006 1.1434458e-38
0.0035476207 0.037604768 0.74500006 1.0792659e-38
0.0049666874 0.037604779 0.74500006 1.0054417e-38
0.0063857269 0.037604772 0.74500006 1.005588e-38
0.0078047635 0.037604764 0.74500006 1.0046158e-38
0.00924855 0.037705701 0.7470001 6.9190499e-39
0.010671409 0.037705697 0.7470001 3.6961783e-39
0.012094295 0.037705708 0.74700004 1.9376511e-39
0.013517153 0.037705719 0.74700004 1.0853337e-40
0.014959993 0.037756182 0.74800009 5.8174597e-39
0.016384749 0.037756201 0.74800003 1.1529204e-38
0.017809531 0.037756193 0.74800003 1.1251195e-38
0.019234313 0.037756197 0.74800003 1.08878e-38
0.020714255 0.037857145 0.75000006 1.1713963e-38
0.022142854 0.037857156 0.75000006 1.2542262e-38
0.023634253 0.037958078 0.75200009 1.20802e-38
0.025099983 0.038008578 0.75300002 1.1618858e-38
0.026534241 0.038008563 0.75300002 1.1155723e-38
0.02804284 0.038109526 0.75500005 1.0605067e-38
0.029676175 0.038361907 0.76000011 1.0880931e-38
0.031123789 0.038361903 0.76000005 1.1156795e-38
0.032614268 0.038412396 0.76100004 1.1064958e-38
0.034153309 0.03851334 0.76300007 1.0881287e-38
0.035606641 0.038513344 0.76300001 1.0882005e-38
0.037059966 0.038513333 0.76300007 1.088128e-38
0.038513321 0.038513329 0.76300001 1.0789796e-38
0.040071424 0.038614288 0.76500005 1.0603962e-38
-0.024105713 0.040176202 0.76700002 1.2972927e-39
-0.022585718 0.040071424 0.76500005 1.2061691e-39
-0.02107336 0.039966654 0.76300007 1.2061775e-39
-0.019568583 0.039861914 0.76100004 1.0210785e-39
-0.018095259 0.039809529 0.76000005 9.2888992e-40
-0.016603833 0.039704766 0.75800008 1.3866381e-39
-0.015120019 0.039600007 0.75600004 1.8440317e-39
-0.013661916 0.039547615 0.75500005 2.5866162e-39
-0.012191481 0.03944286 0.75300002 3.3195107e-39
-0.010757167 0.039442856 0.75300002 3.5996849e-39
-0.0093105203 0.039390471 0.75200003 3.8737565e-39
-0.0078781284 0.039390467 0.75200003 3.6922365e-39
-0.0064286068 0.039285716 0.75000006 3.5968081e-39
-0.0050000064 0.039285727 0.75000006 2.6777286e-39
-0.0035714332 0.039285719 0.75 1.7547256e-39
-0.0021371564 0.039180964 0.74800003 3.8834591e-39
-0.00071144872 0.039128564 0.7470001 5.9210984e-39
0.00071140914 0.039128579 0.7470001 6.6561789e-39
0.0021285971 0.039023828 0.74500006 7.3926355e-39
0.0035476384 0.03902382 0.74500006 6.5578442e-39
0.0049666744 0.039023805 0.74500006 5.7299094e-39
0.0063857147 0.039023817 0.74500006 5.6348635e-39
0.0078047831 0.039023817 0.74500006 5.4511253e-39
0.0092485864 0.039128575 0.74700004 4.1563914e-39
0.010671416 0.039128561 0.7470001 2.9564315e-39
0.012094275 0.039128572 0.7470001 2.1248898e-39
0.013517133 0.039128587 0.74700004 1.2948488e-39
0.014959999 0.039180957 0.74800003 6.4635298e-39
0.016384779 0.039180964 0.74800003 1.1626405e-38
0.017809507 0.039180949 0.74800009 1.0977098e-38
0.019234287 0.039180957 0.74800003 1.0333892e-38
0.020714248 0.039285716 0.75000006 1.1529549e-38
0.022142848 0.039285712 0.75000006 1.2723415e-38
0.023634238 0.039390475 0.75200009 1.2172764e-38
0.025099961 0.039442856 0.75300002 1.1713926e-38
0.02653425 0.039442852 0.75300002 1.1065676e-38
0.02804284 0.039547607 0.75500005 1.0420673e-38
0.029598057 0.039704774 0.75800008 1.0329554e-38
0.031123791 0.039809525 0.76000011 1.0147316e-38
0.032614268 0.03986191 0.76100004 9.7756683e-39
0.034153301 0.039966665 0.76300001 9.3189977e-39
0.035606626 0.039966654 0.76300007 9.6838244e-39
0.037059981 0.039966665 0.76300001 1.0054031e-38
0.038513307 0.039966654 0.76300007 1.0143349e-38
-0.024105715 0.041637149 0.76700002 1.2972997e-39
-0.022585738 0.041528579 0.76500005 1.2068949e-39
-0.021128593 0.041528564 0.7650001 1.1136273e-39
-0.019620011 0.041420002 0.76300001 1.1125539e-39
-0.018095253 0.041257147 0.76000005 1.1114805e-39
-0.016603822 0.041148584 0.75800002 1.9376455e-39
-0.015120024 0.041040007 0.75600004 2.771362e-39
-0.013661917 0.040985711 0.75500005 4.5316857e-39
-0.01222384 0.040985715 0.75500005 6.2733386e-39
-0.010757159 0.040877145 0.75300002 6.7371866e-39
-0.0093105119 0.04082286 0.75200009 7.1924194e-39
-0.0078781201 0.040822849 0.75200009 7.0126973e-39
-0.0064285835 0.040714294 0.75 6.7314356e-39
-0.0050000399 0.040714301 0.75000006 4.9829599e-39
-0.0035714398 0.04071429 0.75000006 3.1415934e-39
-0.0021371266 0.040605716 0.74800003 3.6965595e-39
-0.00071240054 0.040605713 0.74800009 4.2540423e-39
0.00071237958 0.040605716 0.74800009 3.7977472e-39
0.0021285599 0.040442869 0.74500006 3.3338936e-39
0.0035571351 0.040551435 0.74700004 2.4076339e-39
0.0049799951 0.040551424 0.74700004 1.3988896e-39
0.0064028492 0.040551424 0.7470001 1.1187308e-39
0.007825708 0.04055142 0.7470001 8.4498858e-40
0.0092485677 0.040551431 0.74700004 1.4820679e-39
0.010671397 0.040551417 0.7470001 2.1263485e-39
0.012094281 0.040551409 0.7470001 2.3103768e-39
0.01351714 0.040551424 0.7470001 2.4133807e-39
0.014960003 0.040605713 0.74800003 7.022781e-39
0.016384756 0.040605713 0.74800009 1.1618143e-38
0.01780951 0.04060572 0.74800003 1.0696918e-38
0.01923429 0.040605713 0.74800003 9.7814388e-39
0.02071427 0.040714294 0.75000006 1.1346237e-38
0.022142842 0.04071429 0.75 1.2816321e-38
0.023634251 0.040822849 0.75200003 1.2264949e-38
0.025099972 0.040877134 0.75300002 1.1712128e-38
0.026534261 0.040877149 0.75300002 1.0972049e-38
0.028042866 0.040985711 0.75500005 1.0236637e-38
0.02959807 0.041148573 0.75800002 9.6856138e-39
0.031123796 0.041257147 0.76000005 9.1299373e-39
0.032614268 0.041311454 0.76100004 8.4799142e-39
0.034153316 0.041420005 0.76300001 7.7513049e-39
0.035606645 0.041419994 0.76300007 8.4795078e-39
0.03706 0.041420009 0.76300001 9.13134e-39
-0.024105716 0.043098096 0.76700002 1.6639326e-39
-0.022585757 0.042985711 0.7650001 1.296585e-39
-0.021128582 0.042985708 0.76500005 9.2816545e-40
-0.019620022 0.04287333 0.76300007 1.0196408e-39
-0.018119045 0.042760968 0.76100004 1.0174898e-39
-0.016603859 0.042592376 0.75800008 2.0309089e-39
-0.01516004 0.042592388 0.75800002 3.0472356e-39
-0.013661918 0.042423803 0.75500005 4.8050622e-39
-0.012223813 0.042423803 0.75500005 6.5564037e-39
-0.010757179 0.042311426 0.75300002 7.1070677e-39
-0.009310496 0.042255238 0.75200003 7.6562912e-39
-0.007878134 0.042255223 0.75200009 8.0272247e-39
-0.0064457413 0.042255234 0.75200003 8.3023501e-39
-0.0050133495 0.04225523 0.75200003 5.7226815e-39
-0.0035714724 0.042142864 0.75000006 3.049765e-39
-0.0021371508 0.042030483 0.74800009 3.0494048e-39
-0.00071239681 0.042030476 0.74800003 3.0490335e-39
0.00071238517 0.04203048 0.74800003 2.6816775e-39
0.0021342819 0.041974273 0.7470001 2.3093104e-39
0.0035571416 0.041974284 0.7470001 1.5764159e-39
0.0049799997 0.04197428 0.74700004 9.3106053e-40
0.0064028287 0.041974265 0.7470001 9.3213953e-40
0.0078256885 0.041974276 0.7470001 9.2963822e-40
0.0092609348 0.04203048 0.74800003 1.0225583e-39
0.010671431 0.041974291 0.74700004 1.2055076e-39
0.012110472 0.042030491 0.74800003 2.6852732e-39
0.013535222 0.042030476 0.74800009 4.1679451e-39
0.014960004 0.042030469 0.74800003 7.9407646e-39
0.01638476 0.042030483 0.74800003 1.1708174e-38
0.01780954 0.042030491 0.74800003 1.1158597e-38
0.01928572 0.042142861 0.75000006 1.0697278e-38
0.020714263 0.042142846 0.75000006 1.1989084e-38
0.022142837 0.042142857 0.75000006 1.3277646e-38
0.023634264 0.042255234 0.75200003 1.2633357e-38
0.02509998 0.042311423 0.75300002 1.2080544e-38
0.026604729 0.042423815 0.75500005 1.097277e-38
0.028042836 0.042423811 0.75500005 9.8685716e-39
0.029598085 0.042592388 0.75800002 1.0785829e-38
0.031123796 0.042704765 0.76000005 1.1788847e-38
0.032614268 0.042760964 0.76100004 1.1703111e-38
0.034153309 0.042873323 0.76300007 1.1614103e-38
0.035606638 0.042873345 0.76300001 1.2074313e-38
-0.024105713 0.044559073 0.76699996 2.0312732e-39
-0.02258572 0.044442851 0.76500005 1.3877031e-39
-0.0211286 0.044442844 0.76500005 7.4521473e-40
-0.019620031 0.044326682 0.76300001 8.3597543e-40
-0.018119073 0.044210482 0.76100004 9.2780812e-40
-0.016647635 0.04415239 0.76000005 2.1216682e-39
-0.015160025 0.044036206 0.75800002 3.2326947e-39
-0.013680034 0.043919999 0.75600004 4.9923079e-39
-0.012240005 0.043920007 0.75600004 6.7393516e-39
-0.010785734 0.0438619 0.75500005 7.4783572e-39
-0.0093228808 0.043745726 0.75300002 8.1219301e-39
-0.007878148 0.043687608 0.75200009 9.0456731e-39
-0.0064457553 0.043687612 0.75200003 9.8671408e-39
-0.0050133634 0.043687623 0.75200003 6.4641758e-39
-0.0035714491 0.043571442 0.75000006 2.9615084e-39
-0.0021371471 0.043455236 0.74800003 2.4022404e-39
-0.00071236514 0.043455243 0.74800003 1.8497868e-39
0.00071236095 0.043455228 0.74800009 1.5710462e-39
0.0021342633 0.043397136 0.7470001 1.2987584e-39
0.0035571221 0.04339714 0.7470001 8.4064736e-40
0.0049866773 0.043455236 0.74800003 3.8111815e-40
0.0064114043 0.043455243 0.74800003 6.5699178e-40
0.0078361845 0.043455236 0.74800003 9.3143188e-40
0.0092609646 0.043455247 0.74800003 5.6445844e-40
0.010685721 0.043455239 0.74800003 1.9890171e-40
0.012110472 0.043455221 0.74800009 3.0569158e-39
0.013535228 0.043455239 0.74800003 5.9131838e-39
0.014960008 0.043455239 0.74800003 8.8634398e-39
0.01638476 0.043455239 0.74800009 1.171249e-38
0.017809516 0.043455232 0.74800003 1.1623164e-38
0.019285684 0.043571435 0.75000006 1.1529902e-38
0.020714285 0.043571431 0.75000006 1.2634806e-38
0.022142829 0.043571431 0.75000006 1.3737913e-38
0.023634247 0.043687616 0.75200003 1.3093992e-38
0.025099961 0.043745719 0.75300002 1.2354984e-38
0.026604755 0.043861903 0.75500005 1.0877345e-38
0.028042834 0.043861892 0.75500005 9.410113e-39
0.029676164 0.044152386 0.76000005 1.1984361e-38
0.03116476 0.04421049 0.76100004 1.4466788e-38
0.032614294 0.044210486 0.76100004 1.5021746e-38
0.034153301 0.04432667 0.76300001 1.5480901e-38
0.035606626 0.044326656 0.76300007 1.5668856e-38
-0.02560002 0.046080004 0.76800001 1.0210813e-39
-0.024137162 0.046079993 0.76800007 1.2980214e-39
-0.022585738 0.045900002 0.7650001 8.3776629e-40
-0.021128589 0.045900006 0.76500005 4.715047e-40
-0.019620012 0.045780003 0.76300001 5.6047314e-40
-0.018119076 0.045660011 0.76100004 5.6190387e-40
-0.016647657 0.045600001 0.76000005 1.7543262e-39
-0.015160041 0.045479998 0.75800002 3.0443531e-39
-0.013680012 0.045359995 0.75600004 4.8950789e-39
-0.012240008 0.04536001 0.75600004 6.7364761e-39
-0.010785736 0.045299996 0.75500005 7.2928925e-39
-0.0093229013 0.04518 0.75300002 7.9404143e-39
-0.0078885891 0.045180008 0.75300002 8.5839901e-39
-0.0064457711 0.045119993 0.75200009 9.3189977e-39
-0.0050133783 0.045119993 0.75200003 6.1861512e-39
-0.0035809868 0.045120001 0.75200003 3.0522579e-39
-0.0021371397 0.04488001 0.74800003 2.4015103e-39
-0.00071238936 0.044880003 0.74800009 1.7547185e-39
0.00071236468 0.044879999 0.74800003 1.4813659e-39
0.0021342987 0.044820007 0.74700004 1.2083551e-39
0.0035571295 0.044819992 0.7470001 9.3283178e-40
0.004986654 0.044880003 0.74800003 6.5697917e-40
0.0064114342 0.044879999 0.74800003 8.410201e-40
0.0078361882 0.044879999 0.74800003 1.0239848e-39
0.0092609413 0.044880003 0.74800009 7.466945e-40
0.010685695 0.044880003 0.74800003 3.7647285e-40
0.012110477 0.04488001 0.74800003 3.1451598e-39
0.013535257 0.044880003 0.74800003 5.9106783e-39
0.014959984 0.044879992 0.74800003 8.9538544e-39
0.016384764 0.044879999 0.74800003 1.1899759e-38
0.01780952 0.04488001 0.74800003 1.1714648e-38
0.019285679 0.045000006 0.75000006 1.1622819e-38
0.020714251 0.045000002 0.75000006 1.2451139e-38
0.022201871 0.045120001 0.75200003 1.3281978e-38
0.023665681 0.045179997 0.75300002 1.272739e-38
0.025099969 0.045179993 0.75300002 1.2266028e-38
0.026604729 0.045299999 0.75500005 1.0972765e-38
0.028042836 0.045299999 0.75500005 9.7774577e-39
0.029676193 0.045600019 0.76000005 1.2448208e-38
0.03116476 0.045660015 0.76100004 1.5122555e-38
0.032699961 0.045779996 0.76300001 1.539447e-38
0.03415329 0.045780003 0.76300007 1.5669975e-38
0.035606641 0.045780003 0.76300001 1.5762527e-38
0.03705997 0.045779988 0.76300007 1.5947631e-38
-0.025600027 0.047542848 0.76800007 2.8639458e-40
-0.024105715 0.047480967 0.76700002 4.7185503e-40
-0.022585729 0.047357146 0.76500005 3.7678814e-40
-0.021073351 0.047233336 0.76300001 1.9061162e-40
-0.019620024 0.047233324 0.76300007 1.8846483e-40
-0.018095266 0.047047615 0.76000005 1.8917249e-40
-0.016603852 0.046923801 0.75800008 1.4734247e-39
-0.015160028 0.046923816 0.75800002 2.7724326e-39
-0.013680017 0.046799999 0.75600004 4.715005e-39
-0.012240013 0.04680001 0.75599998 6.6464343e-39
-0.010800013 0.046799995 0.75600004 7.199971e-39
-0.0093476316 0.046738088 0.75500005 7.7538622e-39
-0.0078885788 0.046614297 0.75300002 8.2144817e-39
-0.0064543197 0.046614282 0.75300002 8.6722088e-39
-0.0050133681 0.046552375 0.75200009 5.9095937e-39
-0.0035809765 0.046552371 0.75200003 3.1455395e-39
-0.0021371397 0.046304762 0.74800009 2.3972027e-39
-0.00071238563 0.046304766 0.74800003 1.6639592e-39
0.00071239634 0.046304774 0.74800003 1.3913282e-39
0.0021371206 0.046304762 0.74800009 1.1168853e-39
0.0035619026 0.046304759 0.74800003 1.0253973e-39
0.0049866568 0.04630477 0.74800003 9.3320732e-40
0.0064114369 0.04630477 0.74800003 1.0254072e-39
0.0078361891 0.046304766 0.74800009 1.1161763e-39
0.0092609441 0.046304762 0.74800003 8.3852859e-40
0.010685726 0.046304762 0.74800003 5.6480736e-40
0.012110451 0.046304762 0.74800009 3.2366393e-39
0.013535233 0.046304774 0.74800009 5.9128307e-39
0.014959987 0.046304774 0.74800003 9.0499947e-39
0.016384767 0.046304766 0.74800003 1.2081635e-38
0.017857129 0.046428572 0.75000006 1.1896882e-38
0.019285701 0.046428584 0.75000006 1.162174e-38
0.020714276 0.046428584 0.75 1.2264953e-38
0.022201883 0.046552371 0.75200003 1.281956e-38
0.023665689 0.046614289 0.75300002 1.2451509e-38
0.025099948 0.046614274 0.75300002 1.2079474e-38
0.026604757 0.046738107 0.75500005 1.1061723e-38
0.028079988 0.046799995 0.75600004 1.005404e-38
0.029676171 0.047047623 0.76000005 1.2908113e-38
0.03116476 0.047109541 0.76100004 1.5761822e-38
0.032699984 0.047233324 0.76300001 1.576325e-38
0.034153309 0.047233332 0.76300007 1.5762532e-38
0.035606664 0.047233332 0.76300001 1.5946562e-38
0.037059959 0.047233339 0.76300001 1.6038761e-38
-0.024105716 0.048941914 0.76700002 4.058456e-39
-0.022585748 0.048814293 0.76500005 3.7800741e-39
-0.021073362 0.048686665 0.76300007 3.4913029e-39
-0.019620007 0.048686665 0.76300001 3.5921137e-39
-0.018119048 0.048559062 0.76100004 3.6753256e-39
-0.016603837 0.048367634 0.75800002 4.5154615e-39
-0.015160016 0.048367634 0.75800002 5.2541406e-39
-0.013680021 0.048240002 0.75600004 5.9992768e-39
-0.012240021 0.048239999 0.75600004 6.6485867e-39
-0.010800017 0.048239999 0.75600004 7.1084844e-39
-0.0093476307 0.048176195 0.75500005 7.568385e-39
-0.0078885993 0.048048563 0.75300002 7.7538552e-39
-0.0064543113 0.048048578 0.75300002 8.0308009e-39
-0.0050133821 0.04798476 0.75200009 5.9103364e-39
-0.0035809905 0.04798476 0.75200003 3.7937802e-39
-0.0021371378 0.047729529 0.74800003 2.7699215e-39
-0.00071238191 0.047729529 0.74800003 1.7550773e-39
0.0007123684 0.047729515 0.74800003 1.3909723e-39
0.0021371504 0.047729526 0.74800003 1.1172525e-39
0.0035619063 0.047729526 0.74800003 9.3357446e-40
0.0049866568 0.047729526 0.74800009 6.5770644e-40
0.0064114137 0.047729522 0.74800003 9.3356886e-40
0.0078361938 0.047729518 0.74800003 1.3012808e-39
0.0092856856 0.04785715 0.75000006 8.4031945e-40
0.010714259 0.047857147 0.75000006 4.7082087e-40
0.012142859 0.047857154 0.75000006 2.9614944e-39
0.013571402 0.047857143 0.75000006 5.4536546e-39
0.014960017 0.047729518 0.74800003 8.6779878e-39
0.016428551 0.047857154 0.75000006 1.1989798e-38
0.017857149 0.047857147 0.75000006 1.171285e-38
0.019285694 0.047857154 0.75000006 1.143699e-38
0.020714268 0.04785715 0.75000006 1.2082354e-38
0.022201866 0.047984757 0.75200003 1.2820268e-38
0.023665668 0.048048567 0.75300002 1.2541176e-38
0.025166646 0.048176188 0.75500005 1.2263134e-38
0.026604751 0.048176188 0.75500005 1.1155343e-38
0.028079985 0.048239999 0.75600004 1.014193e-38
0.029676173 0.048495233 0.76000011 1.2815568e-38
0.03116476 0.04855907 0.76100004 1.5580309e-38
0.032699969 0.048686661 0.76300007 1.5763251e-38
0.034153324 0.048686672 0.76300001 1.5945131e-38
0.035606626 0.048686665 0.76300001 1.6037686e-38
0.037157137 0.048814286 0.76500005 1.612989e-38
-0.024137173 0.05046856 0.76800007 7.5675806e-39
-0.022585714 0.050271433 0.76500005 7.1930584e-39
-0.021128593 0.050271425 0.76500005 6.7335306e-39
-0.019620042 0.050140001 0.76300007 7.0126342e-39
-0.018119048 0.050008588 0.76100004 7.1955835e-39
-0.016647618 0.049942866 0.76000005 7.4746731e-39
-0.015160032 0.049811427 0.75800002 7.7502161e-39
-0.013679999 0.049679998 0.75600004 7.1952935e-39
-0.012240025 0.049680002 0.75600004 6.6467916e-39
-0.010799997 0.049680002 0.75600004 7.016286e-39
-0.0093476316 0.049614277 0.75500005 7.2918051e-39
-0.0078885909 0.049482852 0.75300002 7.3858042e-39
-0.0064543327 0.04948286 0.75300002 7.3840091e-39
-0.0050133681 0.049417142 0.75200003 5.9074665e-39
-0.0035810063 0.049417131 0.75200009 4.3404898e-39
-0.0021428748 0.049285725 0.75000006 3.0418448e-39
-0.00071238191 0.049154285 0.74800003 1.7572339e-39
0.00071237399 0.049154297 0.74800003 1.4842497e-39
0.0021371541 0.049154289 0.74800003 1.1172553e-39
0.0035618802 0.049154282 0.74800003 7.4990207e-40
0.0049999906 0.049285736 0.75000006 3.8219715e-40
0.0064114435 0.049154285 0.74800003 9.3320592e-40
0.0078571336 0.049285717 0.75000006 1.3931121e-39
0.009285708 0.049285717 0.75000006 9.3430314e-40
0.010714253 0.049285717 0.75000006 3.8293003e-40
0.012142826 0.049285728 0.75000006 2.6841956e-39
0.013571426 0.049285725 0.75000006 4.8983397e-39
0.014959993 0.049154289 0.74800003 8.4017666e-39
0.016428543 0.04928571 0.75000006 1.1895452e-38
0.017857118 0.049285721 0.75000006 1.1527741e-38
0.019285716 0.049285732 0.75000006 1.1160046e-38
0.02076949 0.049417142 0.75200003 1.1990158e-38
0.022231391 0.049482863 0.75300008 1.272592e-38
0.023665678 0.04948286 0.75300002 1.2538306e-38
0.025166648 0.04961428 0.75500005 1.2355342e-38
0.026640007 0.049680009 0.75599998 1.1246133e-38
0.028154245 0.049811427 0.75800002 1.0147333e-38
0.029715223 0.050008588 0.76100004 1.2723029e-38
0.03116473 0.050008576 0.76100004 1.5301581e-38
0.032699987 0.050140001 0.76300001 1.5671776e-38
0.034153286 0.050139993 0.76300007 1.6038762e-38
0.035699975 0.050271429 0.76500005 1.6129165e-38
0.037157122 0.050271425 0.76500005 1.622244e-38
-0.02413715 0.051931433 0.76800001 7.6805841e-39
-0.022644777 0.051863816 0.76700002 7.5804922e-39
-0.021128584 0.051728573 0.76500005 7.5844495e-39
-0.019620024 0.051593341 0.76300001 7.7656191e-39
-0.018095253 0.051390488 0.76000005 8.0483073e-39
-0.016603841 0.051255241 0.75800008 8.4109914e-39
-0.015160019 0.051255256 0.75800002 8.7812284e-39
-0.013680004 0.051120002 0.75599998 7.2964588e-39
-0.012240004 0.051120006 0.75600004 5.8181198e-39
-0.0108 0.051120006 0.75600004 6.1854575e-39
-0.0093476614 0.051052373 0.75500005 6.6460882e-39
-0.0078886105 0.050917134 0.75300002 6.5560645e-39
-0.0064543216 0.050917149 0.75300002 6.5582113e-39
-0.005013356 0.050849512 0.75200003 5.1734986e-39
-0.0035809644 0.050849523 0.75200003 3.7919893e-39
-0.0021428505 0.050714292 0.75000006 2.7720823e-39
-0.00071430788 0.050714295 0.75000006 1.7583157e-39
0.00071426644 0.050714292 0.75000006 1.4842553e-39
0.0021428398 0.050714288 0.75 1.2090922e-39
0.0035714086 0.050714292 0.75000006 1.025047e-39
0.0049999841 0.050714288 0.75000006 7.4881887e-40
0.0064114183 0.050579041 0.74800009 1.3009024e-39
0.007857101 0.050714288 0.75000006 1.7611673e-39
0.0092857014 0.050714284 0.75000006 1.1176112e-39
0.010714274 0.050714295 0.75000006 5.6516469e-40
0.012142849 0.050714295 0.75 1.485672e-39
0.013571392 0.050714295 0.75000006 2.5027261e-39
0.014999992 0.050714292 0.75000006 7.109974e-39
0.016428566 0.050714292 0.75000006 1.1713574e-38
0.01785711 0.050714292 0.75000006 1.207911e-38
0.019285684 0.050714292 0.75000006 1.2532195e-38
0.020769501 0.050849523 0.75200003 1.327657e-38
0.022201862 0.050849516 0.75200009 1.4013409e-38
0.023665687 0.050917149 0.75300002 1.3738982e-38
0.025099972 0.050917134 0.75300002 1.3556753e-38
0.026639972 0.051120002 0.75600004 1.1897262e-38
0.02815426 0.051255245 0.75800002 1.0243495e-38
0.029598052 0.051255248 0.75800008 1.2817388e-38
0.031164756 0.051458102 0.76100004 1.5485618e-38
0.032614291 0.051458113 0.76100004 1.5579583e-38
0.034242839 0.051728576 0.76500005 1.5673575e-38
0.035699982 0.051728565 0.7650001 1.5579949e-38
0.037302848 0.051931422 0.76800001 1.5487755e-38
0.03876568 0.051931418 0.76800007 1.5488112e-38
-0.024137184 0.053394277 0.76800007 7.7681149e-39
-0.022644779 0.053324766 0.76700002 8.0472073e-39
-0.021128576 0.053185701 0.76500005 8.3223564e-39
-0.019620007 0.05304667 0.76300001 8.6003754e-39
-0.018095251 0.052838095 0.76000005 8.8769721e-39
-0.016603826 0.052699059 0.75800002 9.3393936e-39
-0.015160033 0.052699048 0.75800008 9.7917664e-39
-0.013680014 0.052559994 0.75600004 7.390783e-39
-0.01224001 0.052560005 0.75600004 4.8968809e-39
-0.010800006 0.052560009 0.75599998 5.4446723e-39
-0.0093476325 0.05249048 0.75500005 5.9067267e-39
-0.0078886021 0.05235143 0.75300002 5.8181282e-39
-0.0064543132 0.052351438 0.75300002 5.725571e-39
-0.0050133718 0.052281898 0.75200003 4.527402e-39
-0.0035809793 0.052281909 0.75200003 3.2359429e-39
-0.0021428859 0.052142866 0.75000006 2.4954968e-39
-0.00071428553 0.052142873 0.75000006 1.759745e-39
0.00071425899 0.052142862 0.75000006 1.57716e-39
0.0021428324 0.052142859 0.75000006 1.3012808e-39
0.0035714067 0.05214287 0.75000006 1.2079977e-39
0.0050000055 0.05214287 0.75 1.1161566e-39
0.0064285509 0.05214287 0.75000006 1.6682402e-39
0.0078571234 0.052142866 0.75000006 2.1277862e-39
0.0092856977 0.052142866 0.75 1.3934708e-39
0.010714268 0.052142866 0.75000006 6.5627431e-40
0.012142841 0.052142862 0.75000006 3.7466797e-40
0.013571415 0.052142873 0.75000006 1.0853757e-40
0.014999958 0.052142866 0.75000006 5.8213988e-39
0.016428558 0.052142859 0.75000006 1.1530626e-38
0.017904732 0.052281912 0.75200003 1.2725924e-38
0.019337093 0.052281901 0.75200009 1.3831546e-38
0.020769486 0.052281898 0.75200003 1.4570544e-38
0.022231407 0.052351445 0.75300002 1.5214468e-38
0.023728564 0.05249048 0.75500005 1.493896e-38
0.025199993 0.052560002 0.75599998 1.4658774e-38
0.026639992 0.052560002 0.75600004 1.254188e-38
0.028154245 0.052699048 0.75800008 1.0331716e-38
0.029715249 0.052907638 0.76100004 1.300139e-38
0.031164756 0.052907623 0.76100004 1.5572055e-38
0.032699969 0.053046662 0.76300007 1.5395908e-38
0.034242842 0.053185709 0.7650001 1.5206859e-38
0.035793338 0.053324766 0.76700002 1.4937812e-38
0.037254304 0.053324781 0.76700002 1.4653332e-38
0.03871524 0.053324778 0.76700002 1.4382842e-38
-0.022644751 0.054785721 0.76700002 7.8610279e-39
-0.021073343 0.054499999 0.76300001 8.1390386e-39
-0.019568585 0.054357156 0.76100004 8.5081672e-39
-0.018095275 0.05428572 0.76000011 8.8766078e-39
-0.016647633 0.054285713 0.76000005 9.6138253e-39
-0.01516002 0.054142866 0.75800002 1.0349944e-38
-0.013680016 0.054000009 0.75600004 7.2063721e-39
-0.012240012 0.054000009 0.75600004 4.1474763e-39
-0.010800014 0.054000013 0.75600004 4.6124089e-39
-0.0093476372 0.053928576 0.75500005 5.0751709e-39
-0.0078885937 0.053785719 0.75300002 4.98692e-39
-0.0064543085 0.053785719 0.75300002 4.8961607e-39
-0.0050133877 0.053714283 0.75200009 3.7880349e-39
-0.0035809951 0.053714283 0.75200003 2.5880609e-39
-0.0021428915 0.053571433 0.75000006 1.9441223e-39
-0.00071431906 0.053571433 0.75000006 1.3913226e-39
0.00071428134 0.053571444 0.75000006 1.3012864e-39
0.0021428557 0.05357144 0.75 1.301994e-39
0.0035713983 0.053571425 0.75000006 1.0250414e-39
0.0049866717 0.053428575 0.74800003 7.4773426e-40
0.0064114276 0.053428572 0.74800003 1.3001752e-39
0.0078361789 0.053428568 0.74800009 1.7597212e-39
0.0092856912 0.053571433 0.75000006 1.3934652e-39
0.010714264 0.053571433 0.75 1.0264792e-39
0.012142834 0.053571433 0.75000006 5.5904662e-40
0.013571408 0.053571429 0.75000006 9.2384805e-41
0.014999982 0.053571444 0.75000006 6.4653151e-39
0.016428525 0.053571429 0.75000006 1.2830678e-38
0.017904716 0.053714283 0.75200003 1.3380629e-38
0.019337134 0.053714275 0.75200003 1.3936318e-38
0.020797126 0.053785719 0.75300002 1.4024579e-38
0.022290459 0.053928576 0.75500005 1.4212909e-38
0.023728536 0.053928565 0.75500005 1.3193027e-38
0.025199985 0.054000005 0.75600004 1.2271049e-38
0.026639989 0.054000005 0.75600004 9.5015981e-39
0.028154256 0.054142866 0.75800002 6.6421281e-39
0.02971522 0.054357156 0.76100004 7.4707845e-39
0.03124663 0.054499988 0.76300007 8.3034039e-39
0.03278568 0.054642852 0.76500005 8.0232338e-39
0.034242857 0.054642867 0.76500005 7.7491651e-39
0.035839979 0.054857135 0.76800001 7.5629858e-39
0.037302837 0.054857139 0.76800007 7.4686293e-39
0.038765673 0.054857135 0.76800007 7.3764239e-39
-0.022585735 0.056099992 0.7650001 7.5848026e-39
-0.021128586 0.056099996 0.76500005 7.9550116e-39
-0.019620026 0.055953331 0.76300001 8.4170548e-39
-0.01811905 0.055806678 0.76100004 8.7851226e-39
-0.016647657 0.055733342 0.76000005 9.7978326e-39
-0.015160006 0.055586677 0.75800002 1.0805159e-38
-0.013716212 0.05558667 0.75800008 7.1209826e-39
-0.012239991 0.055440009 0.75600004 3.424985e-39
-0.010800017 0.055440012 0.75600004 3.7815861e-39
-0.0093476353 0.055366669 0.75500005 4.1560999e-39
-0.0079095578 0.055366654 0.75500005 4.1586068e-39
-0.0064542983 0.055220008 0.75300002 4.0664126e-39
-0.0050200094 0.055220008 0.75300002 3.0490475e-39
-0.003580984 0.055146653 0.75200009 1.9459341e-39
-0.0021428692 0.055000015 0.75000006 1.4845944e-39
-0.00071429485 0.055000011 0.75 9.3358988e-40
0.00071424781 0.055000015 0.75000006 1.117628e-39
0.0021428482 0.055000011 0.75000006 1.2098082e-39
0.0035714225 0.055000007 0.75 8.420935e-40
0.0049999654 0.055000011 0.75000006 3.8219295e-40
0.0064114267 0.054853335 0.74800009 9.3320172e-40
0.0078571383 0.055000018 0.75000006 1.3931009e-39
0.0092856837 0.055000003 0.75000006 1.39454e-39
0.010714258 0.055000003 0.75000006 1.3920247e-39
0.012142857 0.055000015 0.75000006 7.4235608e-40
0.013571401 0.055 0.75000006 1.0888229e-40
0.014999974 0.055000007 0.75000006 7.11605e-39
0.016428549 0.055000011 0.75000006 1.4109915e-38
0.017904727 0.055146653 0.75200003 1.4029936e-38
0.01933712 0.055146664 0.75200003 1.3928418e-38
0.020797107 0.05522 0.75300002 1.3562515e-38
0.022290455 0.055366658 0.75500005 1.3095081e-38
0.023728564 0.055366669 0.75500005 1.153208e-38
0.025199981 0.055440009 0.75600004 9.8682367e-39
0.026640011 0.055440005 0.75600004 6.459878e-39
0.028154271 0.05558667 0.75800002 2.9604126e-39
0.02971522 0.055806685 0.76100004 2.0280376e-39
0.031246649 0.055953331 0.76300001 1.0232141e-39
0.032785717 0.056100007 0.76500005 6.4366123e-40
0.034332372 0.056246676 0.76700002 2.8709663e-40
0.035839971 0.056319993 0.76800007 2.7993739e-40
0.037302833 0.056319997 0.76800001 1.938248e-40
0.038765695 0.056319986 0.76800007 2.7595771e-40
-0.022644779 0.057707638 0.76700002 7.4004127e-39
-0.021128604 0.057557143 0.76500005 7.8631775e-39
-0.019620007 0.057406671 0.76300001 8.2319545e-39
-0.018119052 0.057256203 0.76100004 8.600367e-39
-0.016647628 0.057180956 0.76000005 9.4304668e-39
-0.015160048 0.057030473 0.75800002 1.0258075e-38
-0.013716226 0.057030492 0.75800002 7.6716256e-39
-0.012240027 0.056879997 0.75600004 5.1702126e-39
-0.010800023 0.056880016 0.75600004 5.0748178e-39
-0.0093476381 0.05680475 0.75500005 4.9869242e-39
-0.0079200193 0.056880001 0.75600004 4.98692e-39
-0.0064543197 0.056654274 0.75300008 4.9879962e-39
-0.0050200308 0.056654289 0.75300002 3.972066e-39
-0.003580997 0.056579035 0.75200009 2.8657296e-39
-0.0021428766 0.056428567 0.75000006 2.0370508e-39
-0.0007143023 0.056428578 0.75000006 1.209825e-39
0.00071427203 0.056428578 0.75 1.2098349e-39
0.0021428426 0.056428578 0.75000006 1.209818e-39
0.0035714142 0.056428574 0.75000006 9.339346e-40
0.0049999887 0.05642857 0.75000006 5.6623108e-40
0.0064285314 0.056428578 0.75000006 9.3356886e-40
0.0078571318 0.05642857 0.75000006 1.3931037e-39
0.009285707 0.056428581 0.75000006 1.3941785e-39
0.010714279 0.056428585 0.75 1.4860098e-39
0.012142824 0.05642857 0.75000006 7.4845173e-40
0.013571423 0.056428581 0.75000006 1.0672569e-40
0.014999997 0.056428578 0.75000006 4.4416929e-39
0.01642854 0.056428581 0.75000006 8.6876721e-39
0.017904712 0.056579035 0.75200009 8.6812374e-39
0.019362828 0.056654278 0.75300002 8.7666101e-39
0.020797117 0.056654274 0.75300002 9.4090928e-39
0.022290457 0.056804761 0.75500005 1.0042251e-38
0.023728535 0.05680475 0.75500005 9.2185975e-39
0.025200002 0.056880008 0.75600004 8.2912266e-39
0.026710464 0.057030484 0.75800002 5.7176326e-39
0.028154256 0.057030473 0.75800008 3.0475411e-39
0.029793313 0.057406671 0.76300007 1.8446651e-39
0.031328555 0.057557158 0.76500005 5.5571153e-40
0.032871433 0.05770763 0.76700002 3.7021885e-40
0.034377132 0.057782855 0.76800001 1.8944574e-40
0.035933312 0.057933345 0.77000004 1.8767871e-40
0.037399989 0.057933331 0.7700001 1.8873248e-40
0.038866669 0.057933349 0.77000004 1.8655627e-40
-0.022585742 0.059014291 0.7650001 7.2156669e-39
-0.021128569 0.059014283 0.76500005 7.7702686e-39
-0.019620046 0.058860008 0.76300001 8.1394043e-39
-0.018095234 0.058628574 0.76000005 8.4174135e-39
-0.01664765 0.058628578 0.76000005 9.0649171e-39
-0.015160034 0.058474291 0.75800002 9.6134344e-39
-0.013716212 0.058474302 0.75800002 8.2283825e-39
-0.012240003 0.058319997 0.75600004 6.8314982e-39
-0.010800001 0.058320016 0.75600004 6.3608609e-39
-0.0093600275 0.058320001 0.75600004 5.8130807e-39
-0.007920024 0.058320004 0.75600004 5.9063553e-39
-0.0064714523 0.058242857 0.75500005 5.9059896e-39
-0.0050333748 0.058242846 0.75500005 4.8932824e-39
-0.0035857635 0.058088567 0.75300002 3.785158e-39
-0.0021428561 0.057857148 0.75000006 2.5884267e-39
-0.00071430975 0.057857152 0.75000006 1.3934932e-39
0.00071426271 0.057857148 0.75000006 1.3016633e-39
0.002142837 0.05785716 0.75000006 1.2094565e-39
0.0035714086 0.057857148 0.75000006 1.0254156e-39
0.0049999813 0.057857141 0.75000006 7.4954474e-40
0.0064285556 0.057857156 0.75000006 1.025047e-39
0.007857128 0.057857152 0.75 1.3012682e-39
0.0092856986 0.057857152 0.75000006 1.3941785e-39
0.010714274 0.057857148 0.75000006 1.4860168e-39
0.012142846 0.057857148 0.75 8.4245223e-40
0.013571391 0.057857152 0.75000006 1.0742634e-40
0.014999989 0.057857145 0.75000006 1.6725941e-39
0.016428564 0.05785716 0.75000006 3.2445721e-39
0.017904727 0.058011435 0.75200003 3.4246683e-39
0.019362835 0.058088571 0.75300002 3.518659e-39
0.020797094 0.058088556 0.75300002 5.2649726e-39
0.022290455 0.058242861 0.75500005 7.0101932e-39
0.023728563 0.058242857 0.75500005 6.9169115e-39
0.025199998 0.058320012 0.75600004 6.7292692e-39
0.026710445 0.058474291 0.75800008 4.9800662e-39
0.028154269 0.058474291 0.75800002 3.1325579e-39
0.029793305 0.058860008 0.76300001 1.6552614e-39
0.03124663 0.058859996 0.76300007 9.4754401e-41
0.03278571 0.059014287 0.76500005 9.2222255e-41
0.034332398 0.059168585 0.76700002 9.4745993e-41
0.035933319 0.0594 0.7700001 9.2248879e-41
0.037400004 0.0594 0.77000004 9.4740388e-41
0.038765684 0.059245698 0.76800007 9.2208242e-41
-0.022585731 0.060471434 0.76500005 7.3089388e-39
-0.021128586 0.060471419 0.76500005 7.7713462e-39
-0.019671438 0.060471438 0.76500005 8.0475716e-39
-0.0181667 0.060313325 0.76300007 8.3245032e-39
-0.016669543 0.060155246 0.76100004 9.1549575e-39
-0.015160021 0.059918109 0.75800002 1.0076201e-38
-0.013716229 0.059918098 0.75800002 8.8712352e-39
-0.012272406 0.059918109 0.75800002 7.6580134e-39
-0.010800006 0.059760015 0.75600004 6.6420945e-39
-0.0093600322 0.059760004 0.75600004 5.6311992e-39
-0.0079200016 0.059760004 0.75600004 6.460241e-39
-0.0064714532 0.059680954 0.75500005 7.2853143e-39
-0.0050333459 0.059680954 0.75500005 5.5361225e-39
