# .PCD v0.7 - Point Cloud Data file format
VERSION 0.7
FIELDS x y z rgb
SIZE 4 4 4 4
TYPE F F F F
COUNT 1 1 1 1
WIDTH 971
HEIGHT 1
VIEWPOINT 0 0 0 1 0 0 0
POINTS 971
DATA ascii
-0.0050399844 0.039600007 0.75599998 9.7785409e-39
-0.0036000025 0.039600004 0.75600004 1.0790168e-38
-0.002157137 0.039547622 0.75500005 1.0142657e-38
-0.00071712595 0.039442848 0.75300002 9.5873562e-39
0.00071716297 0.039442852 0.75300002 9.5037884e-39
0.0021486038 0.039390475 0.75200003 9.4158863e-39
0.0035810068 0.039390482 0.75199997 9.5920099e-39
0.0050133718 0.039390482 0.75199997 9.6931907e-39
0.0064457376 0.039390471 0.75200003 8.7640919e-39
0.0078781433 0.039390478 0.75199997 7.841051e-39
0.009285734 0.039285697 0.75000006 8.6643181e-39
0.010742872 0.039390475 0.75200003 9.594884e-39
0.012175276 0.039390478 0.75199997 9.1367967e-39
0.013625722 0.03944286 0.75300002 8.7694603e-39
0.01506001 0.03944286 0.75300002 9.6885383e-39
0.016494298 0.039442856 0.75300002 1.0610816e-38
0.017928589 0.039442856 0.75300002 9.4090382e-39
0.019362876 0.039442856 0.75300002 8.2047791e-39
0.020797163 0.039442863 0.75299996 8.7651233e-39
0.022290487 0.039547622 0.75500005 9.4122583e-39
0.023728583 0.039547618 0.75500005 4.9836872e-39
0.025166681 0.039547622 0.75500005 5.6446264e-40
0.02664005 0.039599992 0.75599998 1.4860448e-39
0.028080031 0.039599992 0.75599998 2.4058249e-39
0.029598141 0.039704759 0.75800002 1.5785781e-39
0.031041931 0.039704747 0.75800002 8.4138304e-40
0.032571465 0.039809518 0.75999999 3.8773354e-39
0.033929527 0.039704762 0.75800002 6.9291014e-39
0.035373356 0.039704762 0.75800002 8.6747213e-39
0.036914334 0.039809518 0.76000005 1.0513225e-38
0.038614329 0.040071424 0.76500005 1.0325965e-38
0.040176231 0.040176187 0.76700002 1.0230873e-38
0.041637152 0.040176194 0.76700002 1.050635e-38
-0.018333299 0.041799996 0.77000004 1.5699405e-39
-0.016822845 0.04169143 0.76800001 2.9456793e-39
-0.015299968 0.041528571 0.76500005 4.3404687e-39
-0.013879021 0.041637134 0.76700002 5.092051e-39
-0.012353338 0.041419998 0.76300001 5.8141401e-39
-0.010871395 0.041311435 0.76099998 5.1439873e-39
-0.0094094817 0.041257143 0.75999999 4.5263047e-39
-0.0079409089 0.041148577 0.75800002 7.1113851e-39
-0.0064971196 0.041148562 0.75800002 9.5927372e-39
-0.0050533144 0.041148566 0.75799996 1.0609386e-38
-0.0035999895 0.04104 0.75600004 1.1617419e-38
-0.0021571333 0.040985722 0.75500005 1.0417813e-38
-0.00071905751 0.040985718 0.75500005 9.2243218e-39
0.00071903865 0.040985715 0.75500005 9.411234e-39
0.0021571356 0.040985715 0.75500005 9.5048519e-39
0.0035952318 0.040985711 0.75500005 9.8739764e-39
0.0050333282 0.040985715 0.75500005 1.0145907e-38
0.0064457292 0.040822852 0.75199997 7.4618835e-39
0.0078781331 0.04082286 0.75199997 4.702497e-39
0.0093104988 0.040822856 0.75199997 5.9698804e-39
0.010785717 0.040985703 0.75500005 7.1996221e-39
0.012191434 0.040877149 0.75299996 7.6720797e-39
0.013625722 0.040877156 0.75299996 8.0318897e-39
0.015060012 0.040877152 0.75299996 8.7579655e-39
0.0164943 0.040877152 0.75299996 9.4105053e-39
0.0179762 0.040985715 0.75500005 1.0059817e-38
0.019362878 0.040877149 0.75299996 1.0606879e-38
0.020797167 0.040877149 0.75299996 1.0516833e-38
0.022231454 0.040877156 0.75299996 1.0325599e-38
0.023728587 0.040985726 0.75500005 5.3499515e-39
0.025166661 0.040985726 0.75500005 3.8294404e-40
0.026640041 0.041040011 0.75599998 1.4864063e-39
0.028080024 0.041040007 0.75599998 2.4976646e-39
0.029598113 0.041148558 0.75800002 1.5785851e-39
0.031041941 0.041148573 0.75800002 6.5519251e-40
0.032571476 0.041257143 0.76000005 3.593913e-39
0.034063838 0.041311432 0.76100004 6.5516995e-39
0.035513334 0.041311428 0.76100004 8.1172456e-39
0.036962919 0.041311432 0.76099998 9.5912658e-39
0.038614329 0.041528579 0.76499999 9.7702635e-39
-0.018380931 0.043379035 0.77199996 1.0189332e-39
-0.016866617 0.043266654 0.77000004 2.6762741e-39
-0.015299969 0.042985711 0.76499999 4.3419233e-39
-0.013879043 0.043098085 0.76700002 5.8235414e-39
-0.012353321 0.042873334 0.76299995 7.2982441e-39
-0.010899992 0.042873342 0.76300001 6.644586e-39
-0.0094218748 0.042760968 0.76099998 6.0129058e-39
-0.007961872 0.042704754 0.76000005 5.8228253e-39
-0.0064971102 0.042592384 0.75800002 5.7299206e-39
-0.0050533209 0.042592376 0.75800002 8.0304786e-39
-0.0036094927 0.042592376 0.75800002 1.0335323e-38
-0.0021571519 0.042423807 0.75500005 9.9651e-39
-0.00071905565 0.042423803 0.75500005 9.6852957e-39
0.00071904238 0.0424238 0.75500005 8.9513362e-39
0.0021571384 0.042423815 0.75500005 8.2162851e-39
0.0035952346 0.042423818 0.75500005 9.6903068e-39
0.0050333329 0.042423815 0.75500005 1.1258692e-38
0.006471429 0.042423811 0.75500005 9.6806336e-39
0.007909527 0.042423811 0.75500005 8.097895e-39
0.0093228817 0.042311426 0.75299996 8.295544e-39
0.010785719 0.042423803 0.75500005 8.5914982e-39
0.012223794 0.0424238 0.75500005 8.3992176e-39
0.013625748 0.042311423 0.75299996 8.3055857e-39
0.015099986 0.042423803 0.75500005 8.8569532e-39
0.016538084 0.0424238 0.75500005 9.4065677e-39
0.017976182 0.0424238 0.75500005 9.323018e-39
0.019414278 0.042423811 0.75500005 9.2379845e-39
0.020797152 0.04231143 0.75300002 8.2180942e-39
0.022290472 0.042423815 0.75500005 7.2993413e-39
0.02372857 0.042423811 0.75500005 3.7873104e-39
0.025166666 0.042423807 0.75500005 3.7576939e-40
0.026640018 0.042479984 0.75600004 1.3931373e-39
0.028080015 0.042479988 0.75599998 2.4987464e-39
0.029520035 0.042480003 0.75599998 1.3909751e-39
0.031041911 0.042592365 0.75800002 3.7250297e-40
0.032571469 0.042704757 0.76000005 4.6098179e-39
0.034063835 0.042760961 0.76099998 8.8518763e-39
0.035513379 0.042760953 0.76100004 1.0880196e-38
0.03706 0.042873338 0.76299995 1.2903427e-38
0.038715262 0.043098092 0.76700002 1.2996319e-38
-0.018380944 0.044849511 0.77200001 3.7752102e-40
-0.016910458 0.044849515 0.77200001 2.3986222e-39
-0.015360001 0.044617154 0.76800001 4.3426394e-39
-0.013879005 0.044559035 0.76700002 6.562163e-39
-0.012385681 0.044442859 0.76499999 8.7625926e-39
-0.010900011 0.044326678 0.76300001 8.1225789e-39
-0.0094218524 0.044210479 0.76099998 7.3800252e-39
-0.0079618823 0.044152364 0.76000005 4.6199619e-39
-0.0064971391 0.04403618 0.75800002 1.8609496e-39
-0.0050533116 0.044036184 0.75799996 5.4471961e-39
-0.0036095206 0.044036191 0.75800002 9.0409969e-39
-0.0021571706 0.043861888 0.75500005 9.6060187e-39
-0.00071907428 0.043861903 0.75500005 1.0055153e-38
0.00071902189 0.0438619 0.75500005 8.4921574e-39
0.0021571217 0.043861896 0.75500005 6.9248485e-39
0.0035952178 0.043861903 0.75500005 9.5959616e-39
0.0050333142 0.0438619 0.75500005 1.2267091e-38
0.0064543057 0.043745715 0.75299996 1.1903704e-38
0.0078885937 0.043745715 0.75299996 1.1429453e-38
0.0093228836 0.043745723 0.75299996 1.0705881e-38
0.010785703 0.043861903 0.75500005 9.9597022e-39
0.012223799 0.043861907 0.75500005 9.2117311e-39
0.013661897 0.043861907 0.75500005 8.4842302e-39
0.015099993 0.043861903 0.75500005 8.9574081e-39
0.016538089 0.0438619 0.75500005 9.4094347e-39
0.017976187 0.043861896 0.75500005 8.6797968e-39
0.019414283 0.043861896 0.75500005 7.8428447e-39
0.020797152 0.043745726 0.75299996 6.0014418e-39
0.022290476 0.043861896 0.75500005 4.1593355e-39
0.023728572 0.043861896 0.75500005 2.3071847e-39
0.025166648 0.043861892 0.75500005 3.7971825e-40
0.026604744 0.043861907 0.75500005 1.3956512e-39
0.028080028 0.043920007 0.75599998 2.4033194e-39
0.029520048 0.043920007 0.75599998 1.2969788e-39
0.031123843 0.044152364 0.76000005 1.0599422e-40
0.03257148 0.044152383 0.76000005 5.6207945e-39
0.034063835 0.044210475 0.76099998 1.115605e-38
0.035513379 0.044210482 0.76100004 1.3739654e-38
0.037060022 0.044326667 0.76300001 1.6217767e-38
0.038614322 0.044442862 0.76499999 1.6219908e-38
-0.018380959 0.046319988 0.77200001 7.4558187e-40
-0.016866645 0.046199996 0.77000004 1.9426789e-39
-0.015399966 0.046199985 0.77000004 3.0580172e-39
-0.013897145 0.046080004 0.76800001 3.7930991e-39
-0.0123857 0.045900002 0.76500005 4.5270418e-39
-0.010899973 0.045780003 0.76299995 4.15573e-39
-0.0094218543 0.045660008 0.76099998 3.785158e-39
-0.0079723336 0.045660004 0.76099998 2.4940787e-39
-0.0065142568 0.045599993 0.75999999 1.1054171e-39
-0.0050533172 0.045479991 0.75800002 2.8642723e-39
-0.0036095113 0.045479994 0.75799996 4.6217514e-39
-0.0021571259 0.045299996 0.75500005 4.901253e-39
-0.00071902957 0.045299999 0.75500005 5.1821362e-39
0.00071906846 0.045299996 0.75500005 4.3423395e-39
0.0021571636 0.045300007 0.75500005 3.5068461e-39
0.0035952597 0.045300007 0.75500005 7.5712773e-39
0.005033358 0.045300007 0.75500005 1.16264e-38
0.0064714542 0.045300003 0.75500005 8.679064e-39
0.0079095503 0.045299999 0.75500005 5.8271385e-39
0.0093476251 0.045300007 0.755 5.4515415e-39
0.010785721 0.045300003 0.755 5.0845288e-39
0.01222378 0.045300003 0.75500005 4.7071115e-39
0.013625734 0.04518 0.75300002 4.4309099e-39
0.015060024 0.04518 0.75300002 4.6192655e-39
0.016538071 0.045299999 0.75500005 4.8998068e-39
0.017976167 0.045299999 0.75500005 4.4334673e-39
0.019414265 0.045299999 0.75500005 4.0535249e-39
0.020797178 0.04518 0.75299996 3.509283e-39
0.022290459 0.045299996 0.75500005 2.8657254e-39
0.023728557 0.045299992 0.75500005 1.5725035e-39
0.025166653 0.045299992 0.75500005 2.8680936e-40
0.026604747 0.045299988 0.75500005 8.3746641e-40
0.028080018 0.045359995 0.75599998 1.3916912e-39
0.029520039 0.045359995 0.75599998 2.9611286e-39
0.031041915 0.045479994 0.75800002 4.6131376e-39
0.032614298 0.04566 0.76100004 8.123379e-39
0.034063857 0.04566 0.76099998 1.1728622e-38
0.035606649 0.045780007 0.76300001 1.3927632e-38
0.037157167 0.045899998 0.76499999 1.6222081e-38
0.038715255 0.046019997 0.76700002 1.6221361e-38
-0.018380951 0.047790457 0.77200001 1.1114861e-39
-0.016866639 0.047666661 0.77000004 1.4770429e-39
-0.015360005 0.047542863 0.76800001 1.7597408e-39
-0.013897134 0.047542855 0.76800001 1.0250736e-39
-0.012418065 0.047480948 0.76700002 2.8930648e-40
-0.010928526 0.047357157 0.76499999 2.7925496e-40
-0.0094466629 0.047233336 0.76300001 1.9315778e-40
-0.0079723345 0.047109529 0.76099998 2.8248215e-40
-0.0065142438 0.047047615 0.76000005 3.7503091e-40
-0.0050533079 0.046923798 0.75800002 2.8319121e-40
-0.0036095178 0.046923801 0.75800002 1.0636136e-40
-0.0021571463 0.046738099 0.75500005 1.9463475e-40
-0.0007190482 0.046738096 0.75500005 2.9077364e-40
0.00071904797 0.046738096 0.75500005 1.8781743e-40
0.0021571431 0.046738096 0.75500005 1.099725e-40
0.0035952411 0.046738092 0.75500005 5.5551717e-39
0.0050333375 0.046738088 0.75500005 1.0878045e-38
0.0064714374 0.046738088 0.75500005 5.5426175e-39
0.0079095336 0.046738088 0.75500005 2.0503939e-40
0.0093476297 0.046738099 0.75500005 1.8889643e-40
0.010785728 0.046738099 0.75500005 1.9748639e-40
0.012223824 0.046738099 0.75500005 2.8499888e-40
0.013625736 0.046614293 0.75299996 2.8751982e-40
0.015100017 0.046738092 0.75500005 2.8035638e-40
0.016538113 0.046738096 0.75500005 2.8969183e-40
0.017928602 0.046614293 0.75299996 2.8467799e-40
0.019362852 0.046614282 0.75300002 2.8896316e-40
0.020797141 0.046614286 0.75300002 9.3322694e-40
0.022290479 0.046738107 0.75500005 1.572128e-39
0.023728576 0.046738103 0.75500005 8.3026794e-40
0.025166672 0.046738099 0.75500005 1.0205376e-40
0.02660477 0.046738103 0.75500005 2.7605299e-40
0.028080033 0.046799995 0.75599998 3.9621714e-40
0.029520014 0.046800002 0.75600004 4.7261075e-39
0.031041946 0.046923812 0.75800002 9.0488442e-39
0.032614321 0.047109529 0.76100004 1.0622975e-38
0.034153324 0.047233332 0.76300001 1.2185254e-38
0.035606667 0.047233336 0.76299995 1.4204202e-38
0.037157167 0.047357138 0.76499999 1.6130597e-38
0.038715236 0.047480945 0.76700002 1.6221358e-38
-0.018380927 0.049260944 0.77199996 1.1107659e-39
-0.016910464 0.049260948 0.77199996 1.2944453e-39
-0.015399955 0.049133334 0.76999998 1.4791868e-39
-0.013897109 0.049005728 0.76800001 1.0207212e-39
-0.012418088 0.048941895 0.76700002 6.5231284e-40
-0.010928567 0.048814289 0.76500005 5.5869349e-40
-0.0094466843 0.048686657 0.76300001 5.5869349e-40
-0.0079933163 0.048686676 0.76300001 5.6048716e-40
-0.0065142531 0.048495229 0.76000005 6.5483518e-40
-0.0050666183 0.048495233 0.75999999 4.6973066e-40
-0.0036095085 0.048367605 0.75800002 2.8498487e-40
-0.0021599701 0.04824001 0.75599998 4.6937333e-40
-0.00071998884 0.048240002 0.75600004 7.412953e-40
0.00072003144 0.048240002 0.75599998 5.5834457e-40
0.0021600153 0.048239995 0.75600004 3.7360439e-40
0.0036000346 0.048239999 0.75599998 3.0544187e-39
0.005040017 0.048239987 0.75600004 5.6344137e-39
0.0064714169 0.048176192 0.75500005 3.1430074e-39
0.0079200333 0.048239999 0.75599998 5.5691104e-40
0.0093600163 0.048239991 0.75599998 5.5906764e-40
0.010800036 0.04824001 0.75599998 5.5834177e-40
0.012223805 0.048176199 0.75500005 6.5339745e-40
0.013661901 0.048176195 0.75500005 7.4559168e-40
0.015099998 0.048176195 0.75500005 7.4415535e-40
0.016538095 0.048176192 0.75500005 8.3599645e-40
0.017976191 0.048176192 0.75500005 9.3106474e-40
0.019414287 0.048176188 0.75500005 1.1186874e-39
0.020852385 0.048176188 0.75500005 1.2994941e-39
0.022290481 0.048176188 0.75500005 1.567456e-39
0.023728577 0.048176199 0.75500005 3.4188628e-39
0.025166677 0.048176199 0.75500005 5.2595426e-39
0.026604773 0.048176199 0.75500005 5.549062e-39
0.028080024 0.048239999 0.75599998 5.7513829e-39
0.029520003 0.048239991 0.75600004 7.7742708e-39
0.031123871 0.048495244 0.75999999 9.7128397e-39
0.032614317 0.048559055 0.76100004 1.0533597e-38
0.034153342 0.048686679 0.76299995 1.1358703e-38
0.035700008 0.048814293 0.76500005 1.3836488e-38
0.037254289 0.048941892 0.76700002 1.6312825e-38
0.038765758 0.049005717 0.76800001 1.6405385e-38
-0.01838094 0.050731421 0.77200001 1.1111218e-39
-0.016910454 0.050731424 0.77200001 1.1111288e-39
-0.015399989 0.050599992 0.77000004 1.1104071e-39
-0.013897123 0.050468575 0.76800001 1.1096855e-39
-0.012434253 0.050468586 0.76800001 1.0189233e-39
-0.010928567 0.050271429 0.76500005 9.2780252e-40
-0.0094466442 0.050140001 0.76300001 8.3597683e-40
-0.0079933386 0.050139997 0.76300001 9.296158e-40
-0.0065228296 0.050008569 0.76100004 9.306948e-40
-0.0050666276 0.049942859 0.75999999 6.5554984e-40
-0.0036189931 0.049942855 0.75999999 3.7933149e-40
-0.0021599794 0.049679991 0.75599998 7.4775388e-40
-0.00071999629 0.049679991 0.75599998 1.1140253e-39
0.00072002399 0.049679991 0.75599998 9.3071862e-40
0.0021600041 0.049679998 0.75600004 6.5414294e-40
0.0036000253 0.049680002 0.75599998 5.6195432e-40
0.0050400058 0.049679991 0.75600004 3.847335e-40
0.0064714216 0.049614288 0.75500005 6.548534e-40
0.0079200473 0.049679998 0.75599998 9.2999975e-40
0.0093600275 0.049679991 0.75599998 9.3143468e-40
0.010785714 0.049614284 0.75500005 9.3070881e-40
0.012223809 0.04961428 0.75500005 1.0250484e-39
0.013661907 0.049614284 0.75500005 1.115449e-39
0.015060013 0.049482867 0.75299996 1.2069258e-39
0.016538098 0.049614277 0.75500005 1.2987683e-39
0.017976198 0.049614277 0.75500005 1.5764327e-39
0.019414295 0.049614277 0.75500005 1.8522994e-39
0.020852366 0.049614277 0.75500005 1.669706e-39
0.022290464 0.049614269 0.75500005 1.4975018e-39
0.023728561 0.049614288 0.75500005 6.0178777e-39
0.025200035 0.049679998 0.75599998 1.0433526e-38
0.026640017 0.049679995 0.75600004 1.0816663e-38
0.028080037 0.049679995 0.75599998 1.1087864e-38
0.0295981 0.049811415 0.75800002 1.072339e-38
0.031164816 0.050008573 0.76099998 1.0353167e-38
0.032614317 0.050008573 0.76099998 1.0439969e-38
0.03415332 0.050140001 0.76299995 1.053111e-38
0.035793342 0.050402846 0.76700002 1.3561345e-38
0.037302878 0.050468575 0.76800001 1.6498302e-38
0.038765743 0.050468564 0.76800001 1.6589076e-38
0.040333375 0.050599996 0.77000004 1.6590502e-38
-0.019877108 0.05226953 0.773 9.2780392e-40
-0.018380955 0.052201897 0.77200001 1.1114791e-39
-0.016910469 0.052201897 0.77200001 1.018929e-39
-0.015399961 0.052066654 0.77000004 1.0174912e-39
-0.013933307 0.052066661 0.77000004 9.2601166e-40
-0.012434267 0.051931433 0.76800001 9.2599624e-40
-0.010971398 0.051931437 0.76800001 8.3522153e-40
-0.0094713951 0.05172858 0.76499999 7.4412312e-40
-0.008014258 0.051728573 0.76499999 7.4557766e-40
-0.0065228324 0.051458098 0.76100004 8.3921243e-40
-0.0050733099 0.051458094 0.76100004 6.5518691e-40
-0.0036190033 0.051390484 0.75999999 5.6371995e-40
-0.0021599645 0.051119994 0.75599998 7.4811682e-40
-0.00071998325 0.051119998 0.75600004 1.0254254e-39
0.00072003703 0.051120006 0.75599998 9.3288082e-40
0.002160019 0.051119998 0.75600004 9.3360389e-40
0.0035952337 0.051052377 0.75500005 8.406978e-40
0.0050333068 0.051052377 0.75500005 7.4849937e-40
0.0064714029 0.051052373 0.75500005 9.3288362e-40
0.007909501 0.051052373 0.75500005 1.0261484e-39
0.00936002 0.051119994 0.75599998 8.4067819e-40
0.01080004 0.051119998 0.75599998 6.5628272e-40
0.012223791 0.05105238 0.75500005 9.32857e-40
0.013661887 0.051052384 0.75500005 1.1172469e-39
0.015099983 0.05105238 0.75500005 1.1165308e-39
0.016538082 0.051052377 0.75500005 1.1168979e-39
0.017976178 0.051052377 0.75500005 1.3924114e-39
0.019414276 0.051052377 0.75500005 1.6668389e-39
0.020852372 0.051052373 0.75500005 1.7669211e-39
0.022290468 0.051052373 0.75500005 1.9699524e-39
0.023728564 0.051052373 0.75500005 6.4878157e-39
0.025200028 0.051120006 0.75599998 1.1007484e-38
0.026640007 0.051119994 0.75599998 1.0818072e-38
0.028080029 0.051119994 0.75599998 1.0723368e-38
0.029598132 0.05125523 0.75799996 1.0446428e-38
0.031041922 0.051255234 0.75800002 1.0168769e-38
0.032614335 0.051458098 0.76099998 1.0532163e-38
0.034153346 0.051593333 0.76300001 1.0804467e-38
0.035700005 0.051728573 0.76499999 1.3284766e-38
0.037254326 0.051863804 0.76700002 1.5765065e-38
0.038715288 0.051863801 0.76700002 1.5580699e-38
0.040228602 0.051931426 0.76800001 1.5490643e-38
0.041800059 0.052066665 0.77000004 1.4845269e-38
0.043266691 0.052066665 0.76999998 1.4207091e-38
-0.019877089 0.053741917 0.77300006 9.2816125e-40
-0.018380946 0.053672366 0.77200001 1.111119e-39
-0.016910482 0.053672373 0.77200001 1.0185702e-39
-0.015399955 0.053533319 0.77000004 8.3417896e-40
-0.013933301 0.053533331 0.76999998 8.3381743e-40
-0.012466623 0.053533334 0.77000004 7.4269099e-40
-0.010971411 0.053394292 0.76800001 7.4268398e-40
-0.0094714118 0.053185713 0.76500005 6.519429e-40
-0.0080142599 0.053185727 0.76499999 6.5303731e-40
-0.0065399893 0.053046666 0.76300001 6.5411351e-40
-0.0050733117 0.052907623 0.76100004 6.5447224e-40
-0.0036189903 0.052838095 0.75999999 6.5555685e-40
-0.0021599738 0.052559998 0.75599998 8.3959498e-40
-0.00071999442 0.05255999 0.75599998 9.3287241e-40
0.00072002772 0.05255999 0.75599998 1.0250751e-39
0.0021600097 0.052560002 0.75600004 1.1179937e-39
0.0035952523 0.052490469 0.75500005 1.1183609e-39
0.0050333487 0.052490469 0.75500005 1.1179952e-39
0.0064714449 0.05249048 0.75500005 1.1187056e-39
0.0079095429 0.05249048 0.75500005 1.1179811e-39
0.009347639 0.052490477 0.75500005 7.4883989e-40
0.010785736 0.052490477 0.75500005 3.8113076e-40
0.012223832 0.052490477 0.75500005 7.4954194e-40
0.01366193 0.052490473 0.75500005 1.1168839e-39
0.015100028 0.052490473 0.75500005 1.024331e-39
0.016538125 0.052490488 0.75500005 8.4102851e-40
0.017976198 0.052490488 0.755 1.1172623e-39
0.019414296 0.052490484 0.755 1.3931233e-39
0.020852393 0.052490488 0.755 1.852298e-39
0.022320038 0.05255999 0.75599998 2.3362224e-39
0.023760019 0.052560002 0.75600004 6.9556154e-39
0.025200039 0.052560005 0.75599998 1.1553127e-38
0.026640022 0.052559994 0.75600004 1.0908841e-38
0.028154314 0.052699048 0.75799996 1.0263836e-38
0.029676227 0.052838095 0.75999999 1.0170561e-38
0.031164777 0.052907623 0.76100004 9.9847448e-39
0.032699995 0.053046666 0.76300001 1.053146e-38
0.034153361 0.053046662 0.76299995 1.1080705e-38
0.035793334 0.053324763 0.76700002 1.3100393e-38
0.037254345 0.053324763 0.76700002 1.5022127e-38
0.038765721 0.05339428 0.76800001 1.4661605e-38
0.04022859 0.053394288 0.76800001 1.4282411e-38
0.041800022 0.053533323 0.77000004 1.2632947e-38
0.043266702 0.053533316 0.77000004 1.0965543e-38
0.044733375 0.053533338 0.76999998 8.0217695e-39
-0.019877095 0.05521429 0.77300006 9.2744098e-40
-0.01838096 0.055142839 0.77200001 1.1107588e-39
-0.016910458 0.055142857 0.77199996 1.1104057e-39
-0.015439973 0.055142846 0.77200001 1.1093267e-39
-0.013933309 0.054999985 0.77000004 8.3417616e-40
-0.012434268 0.054857146 0.76800001 6.5158137e-40
-0.01095713 0.054785706 0.76700002 6.5122123e-40
-0.0094714155 0.054642867 0.76500005 6.5159818e-40
-0.0080142394 0.054642864 0.76499999 6.5304993e-40
-0.0065400088 0.054499995 0.76300001 7.4559728e-40
-0.0050733127 0.054357141 0.76099998 7.4666787e-40
-0.0036189996 0.054285709 0.75999999 7.4775248e-40
-0.0021599608 0.054000009 0.75599998 8.3995512e-40
-0.00071997766 0.054000005 0.75600004 9.3323255e-40
0.00072004076 0.054000005 0.75599998 1.2094621e-39
0.0021600004 0.054000001 0.75599998 1.486056e-39
0.0035952337 0.053928573 0.75500005 1.487142e-39
0.0050333319 0.053928569 0.75500005 1.4856973e-39
0.0064714281 0.053928569 0.75500005 1.3942093e-39
0.0079095243 0.053928569 0.75500005 1.210174e-39
0.0093476223 0.053928576 0.75500005 9.3214934e-40
0.010785718 0.05392858 0.75500005 6.5555825e-40
0.012223815 0.053928576 0.75500005 1.0246855e-39
0.013661912 0.053928573 0.75500005 1.4849378e-39
0.015100008 0.053928573 0.75500005 1.2083537e-39
0.016538106 0.053928573 0.75500005 9.3250107e-40
0.017976202 0.053928569 0.75500005 1.3012906e-39
0.019414298 0.05392858 0.75500005 1.7618988e-39
0.02088001 0.054000005 0.75599998 1.8580349e-39
0.02232003 0.054000009 0.75599998 1.9645812e-39
0.02376001 0.054000001 0.75599998 6.7651411e-39
0.025200032 0.054000005 0.75599998 1.1462738e-38
0.026640013 0.053999998 0.75599998 1.0817014e-38
0.028154306 0.054142859 0.75800002 1.017057e-38
0.029715277 0.054357141 0.76099998 9.9865301e-39
0.031164799 0.054357149 0.76100004 9.802157e-39
0.03270001 0.054500006 0.76299995 9.705672e-39
0.034242883 0.054642856 0.76499999 9.7021099e-39
0.035793398 0.054785714 0.76700002 8.584325e-39
0.037254319 0.05478571 0.76700002 7.561925e-39
0.038765706 0.054857142 0.76800001 7.4661294e-39
0.040228575 0.054857139 0.76800001 7.3645955e-39
0.04180003 0.054999992 0.77000004 6.7217331e-39
0.043266706 0.054999985 0.77000004 6.0616276e-39
-0.019877099 0.05668667 0.773 1.0189191e-39
-0.018380936 0.056613326 0.77199996 1.1107616e-39
-0.016910451 0.05661333 0.77200001 1.2022454e-39
-0.015439989 0.056613337 0.77200001 1.2933592e-39
-0.013933304 0.05646665 0.77000004 9.2565292e-40
-0.012434282 0.056320008 0.76800001 4.6719291e-40
-0.010957114 0.056246664 0.76700002 5.5830954e-40
-0.0094714183 0.056100007 0.76499999 5.5975708e-40
-0.0079933377 0.055953335 0.76300001 7.4559168e-40
-0.0065399921 0.055953339 0.76299995 8.3814324e-40
-0.0050732912 0.055806667 0.76099998 8.3921943e-40
-0.0036189875 0.055733334 0.75999999 7.4775108e-40
-0.0021657024 0.055586658 0.75800002 8.3923765e-40
-0.00071998697 0.05543999 0.75599998 9.3323395e-40
0.00072003144 0.055439994 0.75599998 1.3938562e-39
0.0021600144 0.055440001 0.75600004 1.8552029e-39
0.0036000337 0.055440001 0.75599998 1.8588084e-39
0.0050333347 0.055366669 0.75500005 1.8559217e-39
0.0064714327 0.055366665 0.75500005 1.578246e-39
0.0079095289 0.055366665 0.75500005 1.3009375e-39
0.0093476241 0.055366665 0.75500005 1.1143882e-39
0.010785722 0.055366661 0.75500005 8.3994811e-40
0.012223818 0.055366661 0.75500005 1.2998346e-39
0.013661915 0.055366661 0.75500005 1.7597296e-39
0.01509999 0.055366661 0.75500005 1.3920303e-39
0.016538085 0.055366673 0.75500005 9.328626e-40
0.017976185 0.055366673 0.75500005 1.4853203e-39
0.019414281 0.055366673 0.75500005 2.0370424e-39
0.020880021 0.055439994 0.75599998 1.8530056e-39
0.022320041 0.055439994 0.75599998 1.598314e-39
0.023760024 0.055439997 0.75600004 6.4943023e-39
0.025266683 0.055586655 0.75800002 1.1366956e-38
0.026710488 0.055586662 0.75800002 1.0725892e-38
0.028228631 0.055733331 0.75999999 9.9883307e-39
0.029715277 0.055806674 0.76099998 9.8028591e-39
0.031164797 0.055806678 0.76099998 9.5255687e-39
0.032700013 0.055953328 0.76300001 8.8784267e-39
0.034242928 0.056100003 0.76499999 8.223003e-39
0.035793379 0.056246668 0.76700002 4.1567529e-39
0.0372543 0.056246657 0.76700002 1.0630951e-40
0.038765732 0.056320008 0.76799995 2.7599274e-40
0.040228564 0.056320004 0.76800001 3.7463434e-40
0.041800037 0.056466661 0.76999998 8.2770216e-40
0.043266714 0.05646665 0.77000004 1.1986076e-39
0.044907659 0.056686666 0.77300006 1.0131192e-39
-0.018380951 0.058083802 0.77200001 1.1114819e-39
-0.016910465 0.058083802 0.77200001 1.0185786e-39
-0.015399953 0.057933323 0.77000004 1.0178542e-39
-0.013933298 0.057933331 0.77000004 7.4305813e-40
-0.012434295 0.057782859 0.76800001 4.6791037e-40
-0.010957137 0.057707615 0.76700002 4.6755024e-40
-0.0094713969 0.057557154 0.76500005 4.6755725e-40
-0.0080142822 0.057557151 0.76500005 6.5338624e-40
-0.0065399902 0.057406671 0.76300001 8.3813763e-40
-0.0050866846 0.057406668 0.76300001 8.388579e-40
-0.0036237708 0.057256199 0.76099998 8.4066277e-40
-0.0021656707 0.057030469 0.75799996 9.3214934e-40
-0.00071997393 0.056880008 0.75600004 1.025431e-39
0.00072002399 0.056880012 0.75599998 1.3942191e-39
0.002160005 0.056880005 0.75599998 1.7640974e-39
0.0036000262 0.056880005 0.75599998 1.9492286e-39
0.0050400076 0.056879997 0.75599998 2.1328758e-39
0.0064714141 0.056804765 0.75500005 1.7619226e-39
0.0079200091 0.056879997 0.75600004 1.3924184e-39
0.0093476083 0.056804765 0.75500005 1.1154658e-39
0.010785704 0.056804761 0.75500005 9.3214514e-40
0.012223802 0.056804758 0.75500005 1.1165238e-39
0.013661898 0.056804761 0.75500005 1.3927505e-39
0.015099994 0.056804758 0.75500005 1.2080048e-39
0.016538091 0.056804754 0.75500005 1.1158175e-39
0.017976187 0.056804758 0.75500005 1.392766e-39
0.019440033 0.056880001 0.75599998 1.6700563e-39
0.020880012 0.056880012 0.75599998 1.304138e-39
0.022320034 0.056880012 0.75599998 9.4864823e-40
0.023822865 0.057030465 0.75800002 6.0254433e-39
0.025266692 0.057030462 0.75800002 1.1090732e-38
0.02671052 0.057030473 0.75799996 1.0448587e-38
0.028228642 0.057180956 0.75999999 9.8968526e-39
0.029715259 0.057256188 0.76100004 9.8035765e-39
0.031164819 0.057256203 0.76099998 9.7110292e-39
0.032699991 0.057406664 0.76300001 8.9709698e-39
0.034242891 0.05755714 0.76500005 8.2265384e-39
0.035793357 0.057707615 0.76700002 4.157015e-39
0.037302896 0.05778287 0.76800001 9.4032732e-41
0.038765717 0.05778287 0.76799995 1.8660531e-40
0.040333372 0.057933323 0.77000004 2.8453225e-40
0.041800003 0.057933319 0.77000004 4.6532498e-40
0.043379065 0.058083799 0.77199996 6.5651954e-40
0.044907656 0.058159046 0.77300006 5.5821565e-40
-0.01838094 0.059554271 0.77200001 1.0192821e-39
-0.01691048 0.059554279 0.77200001 8.3490203e-40
-0.015399948 0.059399992 0.76999998 6.5158557e-40
-0.013933293 0.059400003 0.76999998 5.6046333e-40
-0.01243427 0.059245717 0.76800001 4.6791037e-40
-0.010957098 0.059168566 0.76700002 4.6791177e-40
-0.0094713997 0.059014294 0.76499999 3.7715668e-40
-0.0080142627 0.059014287 0.76500005 6.5374357e-40
-0.0065400116 0.058859996 0.76300001 8.3741876e-40
-0.0050733089 0.05870571 0.76100004 9.296186e-40
-0.0036190099 0.058628574 0.75999999 9.3142207e-40
-0.0021599664 0.058319997 0.75599998 1.0236275e-39
-0.00071998325 0.058319993 0.75599998 1.1169091e-39
0.00072003703 0.058319997 0.75599998 1.3938618e-39
0.0021600181 0.058320004 0.75600004 1.5793418e-39
0.0035952243 0.058242857 0.75500005 2.0414032e-39
0.0050400207 0.058319997 0.75600004 2.4058613e-39
0.00648004 0.058320001 0.75599998 1.9438e-39
0.0079199979 0.058319993 0.75599998 1.3916996e-39
0.00936002 0.058319997 0.75599998 1.2069426e-39
0.0108 0.058320008 0.75600004 9.3178501e-40
0.012240021 0.058320008 0.75599998 9.3249406e-40
0.013680004 0.058320004 0.75600004 9.3213673e-40
0.015099975 0.058242857 0.75500005 1.1154504e-39
0.016538072 0.058242857 0.75500005 1.2991242e-39
0.01797617 0.058242854 0.75500005 1.2998431e-39
0.019440046 0.058319997 0.75599998 1.2991102e-39
0.020880029 0.058319993 0.75599998 7.4413433e-40
0.022320047 0.058319997 0.75599998 2.1251672e-40
0.02376003 0.058320004 0.75600004 5.568414e-39
0.025266662 0.058474269 0.75800002 1.0813082e-38
0.026710492 0.058474272 0.75800002 1.0264221e-38
0.028228633 0.058628567 0.75999999 9.7124739e-39
0.029715259 0.058705721 0.76100004 9.8028577e-39
0.031164778 0.05870571 0.76100004 9.8021234e-39
0.03270001 0.058859996 0.76299995 8.9755885e-39
0.034242883 0.059014279 0.76500005 8.1271415e-39
0.035793371 0.059168573 0.76700002 4.151264e-39
0.037254293 0.059168566 0.76700002 9.9398304e-41
0.038866699 0.0594 0.77000004 9.2241873e-41
0.040333375 0.059399992 0.77000004 9.5100522e-41
0.041800007 0.059399985 0.77000004 9.2219452e-41
0.043379053 0.059554286 0.77200001 9.6521438e-41
0.045023821 0.059785716 0.77500004 9.2932713e-41
0.04650002 0.059785724 0.77499998 9.6902591e-41
0.047976173 0.059785713 0.77500004 9.2264293e-41
-0.018380957 0.061024748 0.77200001 9.2780111e-40
-0.016910493 0.061024755 0.77200001 8.3525376e-40
-0.015439969 0.061024752 0.77200001 7.4341826e-40
-0.013933303 0.060866654 0.77000004 6.5122263e-40
-0.012434261 0.060708579 0.76800001 5.5867107e-40
-0.01095712 0.060629517 0.76700002 4.6755444e-40
-0.0094714016 0.060471434 0.76499999 3.7787414e-40
-0.0080142645 0.060471427 0.76499999 7.448588e-40
-0.0065399939 0.060313344 0.76299995 1.1114903e-39
-0.005086666 0.060313333 0.76300001 1.0210968e-39
-0.0036189968 0.060076188 0.75999999 9.3106474e-40
-0.0021599738 0.059760004 0.75599998 9.3143328e-40
-0.00071999256 0.059759993 0.75599998 1.0239989e-39
0.00072002958 0.059759997 0.75599998 1.3009515e-39
0.0021600088 0.059760008 0.75599998 1.5771796e-39
0.003600029 0.059760008 0.75599998 1.7630072e-39
0.0050400114 0.059760004 0.75599998 1.9441629e-39
0.0064800307 0.059760004 0.75599998 1.5760978e-39
0.0079200137 0.059759993 0.75600004 1.2065936e-39
0.0093600331 0.059759997 0.75599998 1.0229114e-39
0.010800015 0.059759989 0.75600004 8.3851458e-40
0.012240035 0.059759993 0.75599998 9.30699e-40
0.013661923 0.05968095 0.75500005 9.2998294e-40
0.015100019 0.059680954 0.75500005 1.022896e-39
0.016538115 0.059680965 0.75500005 1.2065642e-39
0.018000014 0.059760001 0.75599998 1.2069202e-39
0.019440036 0.059760004 0.75599998 1.2061817e-39
0.020880017 0.059759997 0.75599998 6.5407007e-40
0.022320036 0.059760001 0.75599998 2.0102327e-40
0.023822868 0.059918091 0.75800002 5.4693996e-39
0.025266696 0.059918091 0.75800002 1.081919e-38
0.026710525 0.059918087 0.75799996 1.0173484e-38
0.028228624 0.060076196 0.75999999 9.6202895e-39
0.029715279 0.060155239 0.76100004 9.2507657e-39
0.031164777 0.060155243 0.76100004 8.9737878e-39
0.03270001 0.060313333 0.76300001 9.6983895e-39
0.034242883 0.060471434 0.76499999 1.0511608e-38
0.035793349 0.060629521 0.76700002 9.5867662e-39
0.037254307 0.060629535 0.76699996 8.6418791e-39
0.03876574 0.060708579 0.76800001 8.1888141e-39
0.040333383 0.060866658 0.77000004 7.8096199e-39
0.041800059 0.060866661 0.77000004 7.5441439e-39
0.043379039 0.061024748 0.77200001 7.3500753e-39
0.045023836 0.061261911 0.77499998 8.2799153e-39
0.04649999 0.061261911 0.77500004 9.191125e-39
0.048100002 0.061419982 0.77700001 1.0311116e-38
-0.016910447 0.06249522 0.77200001 7.4233506e-40
-0.015439983 0.062495228 0.77200001 7.4233506e-40
-0.013933297 0.062333323 0.77000004 6.5050096e-40
-0.012434274 0.062171444 0.76800001 5.5830954e-40
-0.010957143 0.062090464 0.76700002 4.6540205e-40
-0.0094713829 0.061928574 0.76499999 2.8388485e-40
-0.0080142664 0.061928581 0.76499999 8.3597683e-40
-0.0065399911 0.061766662 0.76300001 1.2951613e-39
-0.0050866632 0.061766669 0.76300001 1.1118575e-39
-0.0036094852 0.061361905 0.75799996 8.3815305e-40
-0.0021656959 0.061361894 0.75800002 9.2999835e-40
-0.00071997766 0.061199997 0.75599998 9.3180182e-40
0.00072004262 0.061199997 0.75599998 1.2083957e-39
0.0021600255 0.061199989 0.75599998 1.4864161e-39
0.0036000439 0.061199993 0.75599998 1.4892902e-39
0.0050400253 0.0612 0.75600004 1.4867749e-39
0.0064800233 0.061200004 0.75599998 1.3020235e-39
0.0079200044 0.0612 0.75599998 1.024352e-39
0.0093600238 0.0612 0.75599998 9.3142767e-40
0.010800006 0.061199993 0.75599998 7.4630774e-40
0.012240026 0.061200012 0.75599998 8.3741036e-40
0.013680008 0.0612 0.75600004 9.2997032e-40
0.0151 0.061119054 0.75500005 1.0225317e-39
0.016560048 0.061200008 0.75599998 1.0225289e-39
0.018000029 0.0612 0.75599998 1.1150805e-39
0.019440049 0.0612 0.75599998 1.1125539e-39
0.020880032 0.061199997 0.75599998 6.4798003e-40
0.022320051 0.061199997 0.75599998 1.1529323e-40
0.023822878 0.061361909 0.75799996 5.4722765e-39
0.025333362 0.06152381 0.76000005 1.0812364e-38
0.026780998 0.061523806 0.75999999 1.0173459e-38
0.028265757 0.061604768 0.76099998 9.4351612e-39
0.029715279 0.061604757 0.76099998 8.7897749e-39
0.031246658 0.061766665 0.76300001 8.0460918e-39
0.032699987 0.061766654 0.76300001 1.0424817e-38
0.03424288 0.061928574 0.76499999 1.2827311e-38
0.035793364 0.062090479 0.76699996 1.5042905e-38
0.037254333 0.062090475 0.76700002 1.7229028e-38
0.038866714 0.062333334 0.76999998 1.6395699e-38
0.04033339 0.062333323 0.76999998 1.5475541e-38
0.041908585 0.062495232 0.77200001 1.5107832e-38
0.043547615 0.062738091 0.77500004 1.4649017e-38
0.045140028 0.062899992 0.77700001 1.6486091e-38
0.046619996 0.062899992 0.77700007 1.8240307e-38
-0.01691046 0.063965708 0.77200001 1.0171157e-39
-0.015439997 0.063965701 0.77200001 7.4089452e-40
-0.013933292 0.063800007 0.76999998 7.4161339e-40
-0.012434285 0.063634291 0.76800001 6.5014223e-40
-0.010957104 0.063551418 0.76700002 6.5014784e-40
-0.0094714221 0.063385725 0.76500005 5.5867388e-40
-0.0079933442 0.063220009 0.76300001 8.3525796e-40
-0.0065400135 0.063220002 0.76300001 1.111133e-39
-0.0050866455 0.063219994 0.76299995 9.2854661e-40
-0.003618994 0.062971421 0.76000005 7.4667768e-40
-0.0021656866 0.062805712 0.75799996 6.5556666e-40
-0.00072378211 0.062971428 0.76000005 6.559352e-40
0.00072193134 0.062805712 0.75800002 1.1169162e-39
0.0021600144 0.062640011 0.75599998 1.5782488e-39
0.0036000328 0.062640011 0.75599998 1.5789677e-39
0.005040016 0.062639996 0.75599998 1.5789649e-39
0.0064800354 0.062640011 0.75599998 1.393496e-39
0.0079200175 0.062639996 0.75600004 1.2087348e-39
0.0093600377 0.062639996 0.75599998 1.1143742e-39
0.01080002 0.062639996 0.75600004 9.2924866e-40
0.012240041 0.062639996 0.75599998 7.4519791e-40
0.013679999 0.062639996 0.75599998 6.5481136e-40
0.015120018 0.062640011 0.75599998 6.5374777e-40
0.016560001 0.062639996 0.75600004 6.5374777e-40
0.018000022 0.062640011 0.75599998 6.5374637e-40
0.01944004 0.062640004 0.75599998 7.4557346e-40
0.020935252 0.062805712 0.75800002 4.682635e-40
0.022379082 0.062805712 0.75800002 2.0032122e-40
0.023885777 0.062971428 0.75999999 5.2846651e-39
0.025333377 0.062971421 0.76000005 1.0447524e-38
0.026816221 0.063054286 0.76100004 9.3415334e-39
0.028265741 0.063054278 0.76100004 8.3309604e-39
0.029715279 0.063054308 0.76099998 8.0428744e-39
0.031246662 0.063219979 0.76300001 7.7612457e-39
0.032785725 0.06338571 0.76500005 1.2829035e-38
0.034332421 0.063551433 0.76699996 1.790059e-38
0.03584002 0.063634291 0.76800007 1.9095323e-38
0.037302844 0.063634291 0.76800001 2.0387119e-38
0.038866676 0.063799992 0.77000004 1.991682e-38
0.040333357 0.063799992 0.77000004 1.9466966e-38
0.04190857 0.063965708 0.77200001 1.9273605e-38
0.04354763 0.064214297 0.77499998 1.9101417e-38
0.045140024 0.064380005 0.77700001 1.9917179e-38
-0.016910475 0.06543617 0.77200001 1.2004083e-39
-0.015399978 0.065266654 0.77000004 7.4051617e-40
-0.013897145 0.065097153 0.76800001 7.4123644e-40
-0.012418073 0.06501238 0.76699996 7.4160218e-40
-0.010957126 0.06501238 0.76700002 8.3380482e-40
-0.0094714258 0.064842865 0.76500005 8.3452929e-40
-0.0080142487 0.064842872 0.76499999 8.345377e-40
-0.0065399725 0.064673327 0.76300001 8.3526217e-40
-0.0050866669 0.064673334 0.76300001 7.4415254e-40
-0.0036190043 0.064419046 0.75999999 6.5483378e-40
-0.0021656922 0.064249523 0.75800002 4.7296205e-40
-0.00072376814 0.064419039 0.76000005 2.8929807e-40
0.00072192575 0.064249516 0.75800002 9.3287241e-40
0.0021600274 0.064079992 0.75599998 1.5767985e-39
0.0036000253 0.064080015 0.75599998 1.6697116e-39
0.0050533488 0.064249516 0.75800002 1.6693486e-39
0.0064971764 0.06424953 0.75800002 1.5760754e-39
0.0079409666 0.064249516 0.75800002 1.3913198e-39
0.0093847942 0.064249516 0.75800002 1.2962473e-39
0.010800011 0.064080015 0.75600004 1.1114889e-39
0.01224003 0.064080015 0.75599998 7.4234347e-40
0.013680013 0.06408 0.75600004 2.8568552e-40
0.015120032 0.064080007 0.75599998 2.831828e-40
0.016560012 0.06408 0.75600004 1.9241369e-40
0.018000035 0.06408 0.75599998 2.8423938e-40
0.019491456 0.064249516 0.75800002 2.8460512e-40
0.020935286 0.064249523 0.75800002 2.7851367e-40
0.02237905 0.064249516 0.75800002 3.0255295e-40
0.023885766 0.064419046 0.75999999 5.2014069e-39
0.025366696 0.064503819 0.76099998 9.9797114e-39
0.026816219 0.064503819 0.76100004 8.5978643e-39
0.028265739 0.064503811 0.76100004 7.2131614e-39
0.029793313 0.064673327 0.76300001 7.2888568e-39
0.031246681 0.064673349 0.76300001 7.4015338e-39
0.032871474 0.06501238 0.76700002 1.5137633e-38
0.034332395 0.06501238 0.76700002 2.2861219e-38
0.035840046 0.065097138 0.76800001 2.3142183e-38
0.03730287 0.065097153 0.76799995 2.341769e-38
0.038866684 0.065266654 0.76999998 2.341769e-38
0.04033336 0.065266661 0.77000004 2.341733e-38
0.041962899 0.065520957 0.77300006 2.3417686e-38
0.043660015 0.065859988 0.77700001 2.3417687e-38
0.045256235 0.066029526 0.77900004 2.341769e-38
-0.016866628 0.06673333 0.77000004 1.0145653e-39
-0.015359966 0.066560015 0.76800001 8.3089712e-40
-0.013897158 0.066560015 0.76800001 1.0156471e-39
-0.01243429 0.06656 0.76800001 1.199688e-39
-0.01095711 0.06647332 0.76699996 1.0167443e-39
-0.0094714053 0.066300012 0.76500005 8.3523834e-40
-0.0080142524 0.066300012 0.76499999 9.2672772e-40
-0.0065399949 0.066126682 0.76300001 1.0185702e-39
-0.0050866641 0.066126674 0.76300001 1.0200108e-39
-0.0036190164 0.065866664 0.75999999 1.1140029e-39
-0.0021713788 0.065866664 0.75999999 1.1150833e-39
-0.00072378118 0.065866664 0.76000005 1.1158063e-39
0.00072385545 0.065866664 0.76000005 1.5753467e-39
0.002171491 0.065866679 0.75999999 2.0345256e-39
0.0036095527 0.065693326 0.75800002 2.1274387e-39
0.00505336 0.065693334 0.75799996 2.21927e-39
0.0064971503 0.065693326 0.75800002 2.4032955e-39
0.0079409778 0.065693326 0.75799996 2.4947709e-39
0.0093847681 0.065693311 0.75800002 2.7688396e-39
0.010828596 0.065693326 0.75800002 2.9471283e-39
0.012272423 0.065693334 0.75799996 3.504597e-39
0.013716214 0.065693334 0.75800002 4.0541793e-39
0.015120023 0.065519989 0.75599998 3.6882764e-39
0.016603809 0.065693334 0.75800002 3.4059358e-39
0.018047636 0.065693334 0.75800002 3.5049263e-39
0.019491464 0.065693334 0.75799996 3.6871848e-39
0.020990506 0.065866657 0.76000005 3.7858586e-39
0.022438142 0.065866664 0.76000005 3.8873589e-39
0.023885779 0.065866664 0.75999999 6.3851902e-39
0.025366718 0.065953352 0.76099998 8.8762266e-39
0.026886653 0.066126682 0.76300001 7.4882882e-39
0.028340021 0.066126682 0.76299995 6.1954474e-39
0.029793352 0.066126674 0.76300001 7.1134745e-39
0.031328604 0.066300005 0.76499999 8.1427716e-39
0.032871451 0.06647332 0.76700002 1.5415446e-38
0.034377165 0.066560015 0.76800001 2.2774842e-38
0.035840031 0.06656 0.76800001 2.3142183e-38
0.037400059 0.06673333 0.77000004 2.341769e-38
0.038967654 0.066906653 0.77200001 2.341769e-38
0.040333364 0.06673333 0.76999998 2.341769e-38
0.041962892 0.066993356 0.77300006 2.341769e-38
0.043660007 0.067339994 0.77700001 2.341769e-38
0.045140013 0.067339987 0.77700001 2.3417689e-38
-0.018500002 0.068819992 0.77700001 8.2907684e-40
-0.017019976 0.068820015 0.77700001 9.216326e-40
-0.015359979 0.068022862 0.76800001 9.2199133e-40
-0.013897111 0.068022862 0.76800001 1.2904109e-39
-0.012466637 0.0682 0.76999998 1.5655685e-39
-0.01095711 0.067934282 0.76700002 1.1982377e-39
-0.009496185 0.06793429 0.76700002 8.3234326e-40
-0.0080142692 0.067757145 0.76500005 1.0181793e-39
-0.0065571154 0.067757145 0.76499999 1.2014957e-39
-0.0050999774 0.067757145 0.76499999 1.3866058e-39
-0.0036237866 0.067402869 0.76100004 1.4795231e-39
-0.0021742501 0.067402869 0.76099998 1.7579051e-39
-0.00072472927 0.067402862 0.76099998 1.9412258e-39
0.00072479143 0.067402855 0.76100004 2.2181756e-39
0.0021743129 0.067402855 0.76100004 2.4007718e-39
0.0036190792 0.067314282 0.76000005 2.5855204e-39
0.005066717 0.067314275 0.76000005 2.7702634e-39
0.006497182 0.067137137 0.75800002 3.230873e-39
0.0079409704 0.067137122 0.75800002 3.5989338e-39
0.0093847997 0.06713713 0.75800002 4.2453724e-39
0.010828566 0.067137122 0.75800002 4.7971057e-39
0.012272395 0.067137122 0.75800002 6.2740098e-39
0.013716223 0.067137137 0.75799996 7.7397974e-39
0.015160014 0.067137137 0.75800002 7.1930962e-39
0.016603841 0.067137137 0.75800002 6.6366841e-39
0.018047631 0.067137137 0.75800002 6.8257192e-39
0.019542921 0.067314275 0.75999999 7.0068777e-39
0.020990495 0.067314267 0.76000005 7.2895588e-39
0.022438131 0.067314282 0.75999999 7.4757241e-39
0.023917157 0.067402847 0.76100004 7.5761524e-39
0.025366679 0.067402855 0.76100004 7.6676333e-39
0.026886694 0.067580014 0.76300001 6.3758408e-39
0.028340001 0.067580007 0.76300001 5.0865551e-39
0.029871449 0.067757137 0.76500005 6.9182427e-39
0.031410504 0.067934282 0.76700002 8.7726455e-39
0.032914281 0.068022862 0.76800001 1.5789566e-38
0.03437715 0.068022862 0.76800001 2.2677248e-38
0.03584002 0.068022877 0.76800001 2.3050348e-38
0.037400022 0.068199985 0.77000004 2.341769e-38
0.038866702 0.068199992 0.77000004 2.341769e-38
0.040438123 0.06837713 0.77200001 2.341769e-38
-0.018499985 0.07029999 0.77700001 6.4359256e-40
-0.017019983 0.070299998 0.77700001 6.4466876e-40
-0.015359992 0.069485724 0.76800001 7.3722172e-40
-0.013879 0.069395237 0.76700002 8.2941455e-40
-0.012418077 0.069395229 0.76700002 9.2018366e-40
-0.010957131 0.069395237 0.76700002 7.3723994e-40
-0.0094961477 0.069395244 0.76700002 6.4505972e-40
-0.0080352249 0.069395237 0.76700002 8.3089572e-40
-0.0065742387 0.069395237 0.76700002 9.2309275e-40
-0.0051133158 0.069395237 0.76700002 9.2452908e-40
-0.0036333373 0.069033332 0.76300001 9.2525355e-40
-0.0021799712 0.069033347 0.76299995 1.2022006e-39
-0.00072666456 0.06903334 0.76299995 1.5706314e-39
0.0007247905 0.068852387 0.76099998 1.7550324e-39
0.002174312 0.06885238 0.76099998 2.0305403e-39
0.0036238327 0.068852372 0.76100004 2.3085579e-39
0.0050733546 0.06885238 0.76100004 2.585498e-39
0.0065143434 0.068761893 0.75999999 2.7706011e-39
0.0079619419 0.068761893 0.76000005 2.9546364e-39
0.0093847699 0.06858094 0.75800002 3.4177656e-39
0.010828597 0.06858094 0.75800002 3.7930067e-39
0.012272427 0.06858094 0.75800002 4.800693e-39
0.013716193 0.06858094 0.75800002 5.9070335e-39
0.015160022 0.06858094 0.75799996 5.6275908e-39
0.016647637 0.068761893 0.76000005 5.3570912e-39
0.018095274 0.068761893 0.75999999 5.5367993e-39
0.019568577 0.068852387 0.76100004 5.72511e-39
0.021018136 0.068852387 0.76099998 5.8183566e-39
0.022467658 0.06885238 0.76099998 5.9148444e-39
0.023980001 0.06903334 0.76300001 6.097428e-39
0.025500018 0.069214299 0.76500005 6.1889145e-39
0.026957193 0.069214292 0.76499999 5.3602511e-39
0.028414309 0.069214284 0.76499999 4.5304708e-39
0.030066714 0.069666661 0.77000004 4.4278397e-39
0.031533368 0.069666654 0.77000004 4.4229548e-39
0.033000045 0.069666646 0.77000004 7.9418983e-39
0.034466721 0.069666669 0.77000004 1.1461818e-38
0.035933353 0.069666669 0.77000004 1.3939262e-38
0.03740003 0.069666654 0.77000004 1.6530028e-38
0.038866706 0.069666654 0.77000004 1.6519266e-38
-0.013879023 0.070856184 0.76700002 3.6915106e-40
-0.012418075 0.070856184 0.76700002 1.8548567e-40
-0.011028575 0.071318083 0.77200001 3.69521e-40
-0.0095581114 0.07131809 0.77200001 4.6136211e-40
-0.0080875885 0.07131809 0.77200001 5.5356334e-40
-0.0066171261 0.07131809 0.77200001 6.461163e-40
-0.0051466404 0.071318097 0.77200001 5.5428221e-40
-0.0036333215 0.07048668 0.76299995 3.7169582e-40
-0.0021799917 0.070486672 0.76300001 7.3868748e-40
-0.00072666269 0.070486665 0.76300001 1.1078357e-39
0.00072666805 0.070486657 0.76300001 1.383715e-39
0.0021800117 0.070486672 0.76299995 1.6617312e-39
0.0036238318 0.070301898 0.76099998 2.0326605e-39
0.0050733536 0.070301913 0.76100004 2.401436e-39
0.0065228762 0.07030192 0.76100004 2.4025122e-39
0.0079619298 0.070209526 0.76000005 2.3096075e-39
0.0094095655 0.070209526 0.76000005 2.5858385e-39
0.010828607 0.070024759 0.75799996 2.7712975e-39
0.012272397 0.070024751 0.75800002 3.4119866e-39
0.013716225 0.070024751 0.75800002 3.9644331e-39
0.015160016 0.070024744 0.75800002 4.0530372e-39
0.016647648 0.070209518 0.76000005 4.0566161e-39
0.018095285 0.070209518 0.76000005 4.2392039e-39
0.0195686 0.070301905 0.76100004 4.4296936e-39
0.021073319 0.07048668 0.76300001 4.4354375e-39
0.02252665 0.070486665 0.76300001 4.3446572e-39
0.023980016 0.070486672 0.76300001 4.5261562e-39
0.025566684 0.070856199 0.76700002 4.714146e-39
0.027027629 0.070856199 0.76700002 4.3457418e-39
0.028488593 0.070856199 0.76700002 3.8804393e-39
0.03014479 0.07131809 0.77200001 2.0236137e-39
0.031533372 0.071133323 0.76999998 9.6571885e-41
0.033085715 0.07131809 0.77200001 9.233576e-41
0.034690499 0.071595237 0.77500004 1.1856246e-40
0.036353339 0.071964756 0.77900004 4.8068755e-39
0.037837148 0.071964763 0.77899998 9.5019793e-39
0.039472435 0.072241902 0.78200001 9.6914054e-39
0.040961914 0.072241902 0.78200001 9.7821661e-39
-0.01102855 0.072788566 0.77200001 4.6062082e-40
-0.0095952153 0.073071435 0.77500004 5.5209618e-40
-0.0080980454 0.072882861 0.773 6.4464774e-40
-0.006625697 0.072882861 0.77300006 6.4464774e-40
-0.0051466543 0.072788551 0.77200001 4.6133548e-40
-0.0036333187 0.071940005 0.76300001 2.7803303e-40
-0.0021800131 0.07193999 0.76300001 5.5390806e-40
-0.00072668318 0.071939997 0.76300001 9.2126546e-40
0.00072668481 0.071940005 0.76300001 1.0149086e-39
0.0021800154 0.071940005 0.76300001 1.2000117e-39
0.003633321 0.071940005 0.76300001 1.478744e-39
0.0050733536 0.071751423 0.76099998 1.7578392e-39
0.0065228734 0.071751431 0.76100004 1.6634926e-39
0.0079619586 0.071657151 0.75999999 1.6624262e-39
0.0094095571 0.071657136 0.76000005 2.0297766e-39
0.010828601 0.071468569 0.75800002 2.4885758e-39
0.012272406 0.071468569 0.75799996 2.3041677e-39
0.013752427 0.071657151 0.76000005 2.1176128e-39
0.01520004 0.071657151 0.75999999 2.6704054e-39
0.016647678 0.071657151 0.75999999 3.2203422e-39
0.018119074 0.071751431 0.76099998 3.8685717e-39
0.019619992 0.071940005 0.76300001 4.5128859e-39
0.02107336 0.071940005 0.76299995 4.2460198e-39
0.022526689 0.071939997 0.76300001 3.9712014e-39
0.024042901 0.072128579 0.76499999 4.4350129e-39
0.025600027 0.072411433 0.76800001 4.9889154e-39
0.027062874 0.07241144 0.76800001 4.6233853e-39
0.028600032 0.072599992 0.77000004 4.2538713e-39
0.030261923 0.073071435 0.77499998 2.4896043e-39
0.031738076 0.073071435 0.77500004 7.3540424e-40
0.033300001 0.073259994 0.77700001 6.4428621e-40
0.034780048 0.073259979 0.77700001 6.4325065e-40
0.03635335 0.073448591 0.77899998 3.4091167e-39
-0.0066256803 0.074355237 0.77300006 6.4428761e-40
-0.0051532928 0.074355245 0.77300006 3.6842239e-40
-0.0036428284 0.073585726 0.76499999 9.3638967e-41
-0.0021856904 0.073585711 0.76500005 3.6986853e-40
-0.0007266422 0.073393345 0.76300001 6.4538202e-40
0.00072666432 0.073393337 0.76300001 6.4574636e-40
0.002179994 0.07339333 0.76300001 6.4718409e-40
0.0036333611 0.07339333 0.76299995 9.2448704e-40
0.0050733751 0.073200949 0.76099998 1.109237e-39
0.0065228958 0.073200956 0.76100004 1.0152533e-39
0.0079619698 0.073104754 0.75999999 9.2341505e-40
0.009384783 0.072912373 0.75800002 1.565902e-39
0.010828611 0.072912388 0.75799996 2.1183541e-39
0.012272401 0.07291238 0.75800002 1.1985684e-39
0.013716228 0.07291238 0.75800002 2.8236444e-40
0.01516002 0.072912365 0.75800002 1.3818793e-39
0.016603826 0.07291238 0.75800002 2.3988941e-39
0.018166665 0.07339333 0.76300001 3.5016473e-39
