# .PCD v0.7 - Point Cloud Data file format
VERSION 0.7
FIELDS x y z rgb
SIZE 4 4 4 4
TYPE F F F F
COUNT 1 1 1 1
WIDTH 949
HEIGHT 1
VIEWPOINT 0 0 0 1 0 0 0
POINTS 949
DATA ascii
0.00070479175 -0.011980966 0.74000001 1.1663868e-38
0.0021143104 -0.011980988 0.74000001 1.1847879e-38
0.0035238047 -0.011980973 0.74000001 1.1939336e-38
0.004926723 -0.011964783 0.73900002 1.2031197e-38
0.0063343192 -0.011964783 0.73900002 1.2122699e-38
0.0077209617 -0.011932418 0.73700011 1.2214509e-38
0.009124795 -0.011932403 0.73700005 1.1847142e-38
0.010528572 -0.011932418 0.73700005 1.1571713e-38
0.011932376 -0.01193241 0.73700011 1.3898168e-38
0.01333621 -0.011932403 0.73700005 1.622249e-38
0.014740014 -0.011932418 0.73700011 1.6230118e-38
0.016143823 -0.011932403 0.73700005 1.6227888e-38
0.017547626 -0.011932403 0.73700005 1.1246094e-38
0.018951431 -0.011932418 0.73700011 6.2629143e-39
0.020410534 -0.011964776 0.73900002 3.5027977e-39
0.021818133 -0.011964776 0.73900002 7.470238e-40
0.023257168 -0.011980981 0.74000001 9.3428913e-40
0.02466666 -0.011980988 0.74000001 1.0290127e-39
0.026146723 -0.012013339 0.74200004 1.4900021e-39
0.027560035 -0.012013346 0.74200004 1.9502529e-39
0.029012399 -0.012029544 0.74300003 2.1332037e-39
0.030427633 -0.012029536 0.74300003 2.3150684e-39
0.031928573 -0.012061946 0.74500012 2.0370367e-39
0.033437159 -0.012094304 0.74700004 1.8501147e-39
0.034906667 -0.012110509 0.74800003 3.1393766e-39
0.036428601 -0.012142874 0.75000006 4.4261021e-39
0.037857164 -0.012142882 0.75000006 4.7944726e-39
0.039390471 -0.012175255 0.75200003 5.2543746e-39
0.040877178 -0.012191452 0.75300002 5.5295293e-39
0.042311456 -0.01219146 0.75300002 5.8050414e-39
-0.01809522 -0.010857165 0.76000011 9.485011e-39
-0.01664759 -0.010857157 0.76000005 9.1011365e-39
-0.015159993 -0.010828584 0.75800008 8.7301651e-39
-0.013716156 -0.010828592 0.75800002 9.0027611e-39
-0.012175243 -0.010742888 0.75200009 9.1850112e-39
-0.010685702 -0.010685742 0.74800003 9.4598156e-39
-0.0092485435 -0.010671444 0.74700004 9.7353361e-39
-0.0078047435 -0.010642886 0.74500012 1.0102332e-38
-0.0063857189 -0.010642894 0.74500012 1.0377812e-38
-0.0049666367 -0.010642886 0.74500006 1.0745127e-38
-0.0035476093 -0.010642886 0.74500006 1.1112487e-38
-0.0021199607 -0.010600008 0.74199998 1.1296177e-38
-0.00070662389 -0.010600016 0.74200004 1.1479855e-38
0.00070668792 -0.010600008 0.74200004 1.1755367e-38
0.0021143085 -0.01057145 0.74000001 1.1939378e-38
0.003523828 -0.010571457 0.74000001 1.2030835e-38
0.0049266969 -0.01055716 0.73900002 1.2123046e-38
0.0063343192 -0.010557167 0.73900002 1.2214539e-38
0.0077419453 -0.010557152 0.73899996 1.2306347e-38
0.0091495672 -0.010557167 0.73900002 1.1938979e-38
0.010528579 -0.010528594 0.73700011 1.1489232e-38
0.011932387 -0.010528602 0.73700005 1.4087635e-38
0.013336192 -0.010528602 0.73700005 1.659201e-38
0.014740026 -0.010528587 0.73700005 1.7065243e-38
0.01614383 -0.010528609 0.73700005 1.7424652e-38
0.017547633 -0.010528602 0.73700011 1.4937161e-38
0.019002883 -0.01055716 0.73900002 1.2435663e-38
0.020410508 -0.01055716 0.73899996 6.2571592e-39
0.021847641 -0.010571465 0.74000001 1.0346767e-40
0.023257164 -0.01057145 0.74000001 5.6623668e-40
0.024733372 -0.010600016 0.74199998 9.3718841e-40
0.026146708 -0.010600008 0.74200004 1.3070639e-39
0.027560022 -0.010600008 0.74200004 1.5829194e-39
0.029012406 -0.010614298 0.74300003 1.8576972e-39
0.03042764 -0.010614313 0.74300003 2.131396e-39
0.031928577 -0.010642879 0.74500006 1.5778579e-39
0.033437148 -0.010671452 0.7470001 9.3426671e-40
0.034906682 -0.010685734 0.74800003 2.5879993e-39
0.036428604 -0.0107143 0.75000006 4.2427926e-39
0.037857193 -0.0107143 0.75000006 4.6115317e-39
0.039442893 -0.010757156 0.75299996 4.8863221e-39
0.040822875 -0.01074288 0.75200003 5.1607538e-39
0.042255256 -0.010742888 0.75200003 5.436982e-39
-0.018095206 -0.0094095394 0.76000005 9.2059031e-39
-0.016647605 -0.0094095469 0.76000005 9.0085176e-39
-0.01519998 -0.0094095469 0.76000005 8.7251148e-39
-0.013716165 -0.0093847886 0.75800008 8.8176636e-39
-0.012272354 -0.0093847886 0.75800008 8.8173189e-39
-0.0106714 -0.009248592 0.74700004 9.276509e-39
-0.0092485547 -0.009248592 0.74700004 9.6431517e-39
-0.0078047733 -0.0092238486 0.74500012 1.0102346e-38
-0.0063856901 -0.0092238486 0.74500006 1.0469647e-38
-0.0049666637 -0.0092238411 0.74500012 1.0836949e-38
-0.003547613 -0.0092238411 0.74500012 1.1112479e-38
-0.0021228339 -0.0091990605 0.74300003 1.1388008e-38
-0.00070663786 -0.0091866776 0.74200004 1.1663534e-38
0.0007067289 -0.0091866776 0.74199998 1.1755389e-38
0.0021200408 -0.0091866851 0.74200004 1.1939042e-38
0.0035333526 -0.0091866776 0.74200004 1.2030858e-38
0.0049333698 -0.0091619268 0.74000001 1.2214895e-38
0.0063428641 -0.0091619268 0.74000001 1.2123066e-38
0.0077419435 -0.0091495365 0.73899996 1.2122679e-38
0.0091495644 -0.0091495439 0.73900002 1.1847502e-38
0.010528591 -0.0091247857 0.73700005 1.1572486e-38
0.011932394 -0.0091247857 0.73700005 1.42771e-38
0.013336198 -0.009124808 0.73700011 1.6971933e-38
0.014740007 -0.0091247931 0.73700005 1.7062367e-38
0.016143812 -0.0091247857 0.73700005 1.7243164e-38
0.017547647 -0.0091247931 0.73700005 1.576877e-38
0.019002881 -0.0091495439 0.73900002 1.4295373e-38
0.020410508 -0.0091495514 0.73900002 8.5720734e-39
0.021847639 -0.0091619343 0.74000001 2.8538788e-39
0.023257159 -0.0091619194 0.74000001 1.7554402e-39
0.024733383 -0.0091866851 0.74200004 6.624106e-40
0.026146693 -0.0091866851 0.74200004 1.2156026e-39
0.027560061 -0.0091866851 0.74199998 1.859509e-39
0.029012384 -0.0091990829 0.74300003 2.0417269e-39
0.030509518 -0.0092238486 0.74500006 2.2239475e-39
0.031928573 -0.0092238411 0.74500012 1.9459145e-39
0.033437166 -0.009248592 0.74700004 1.7611407e-39
0.034906693 -0.0092609823 0.74800003 3.0478872e-39
0.036428608 -0.0092857331 0.75000006 4.4264664e-39
0.037857171 -0.0092857331 0.75000012 4.7019435e-39
0.039442886 -0.0093228817 0.75300002 5.06964e-39
0.040822867 -0.0093104988 0.75200009 5.1611126e-39
0.042311464 -0.0093228742 0.75300002 5.3447892e-39
-0.015199965 -0.0079619214 0.76000005 8.7254736e-39
-0.013716167 -0.0079409704 0.75800002 8.6336254e-39
-0.012110472 -0.0078362152 0.74800009 8.4499699e-39
-0.010685702 -0.0078362077 0.74800003 9.0013584e-39
-0.009248565 -0.0078257397 0.7470001 9.5516595e-39
-0.0078256652 -0.0078257248 0.74700004 1.0102321e-38
-0.006402819 -0.0078257397 0.74700004 1.056183e-38
-0.0049666367 -0.0078047961 0.74500006 1.0836953e-38
-0.0035476102 -0.0078047961 0.74500006 1.1112473e-38
-0.0021228255 -0.0077838227 0.74300003 1.1479829e-38
-0.00070759153 -0.0077838227 0.74300003 1.1755347e-38
0.00070671213 -0.0077733546 0.74200004 1.1847194e-38
0.002120025 -0.0077733397 0.74200004 1.1939381e-38
0.0035333629 -0.0077733621 0.74200004 1.2122688e-38
0.0049467045 -0.0077733397 0.74200004 1.2214889e-38
0.0063600414 -0.0077733397 0.74200004 1.2123062e-38
0.0077524041 -0.0077524111 0.74000001 1.1939025e-38
0.009161924 -0.0077524111 0.74000001 1.1755347e-38
0.010557163 -0.0077419281 0.73900002 1.1599427e-38
0.011964815 -0.0077419207 0.73900002 1.4475873e-38
0.013336211 -0.0077209845 0.73700005 1.7334621e-38
0.014780037 -0.0077419207 0.73899996 1.7152036e-38
0.016143823 -0.0077209771 0.73700005 1.6968008e-38
0.017595258 -0.0077419356 0.73900002 1.6598515e-38
0.019002909 -0.0077419132 0.73899996 1.613031e-38
0.020438112 -0.0077524036 0.74000001 1.0881279e-38
0.021847632 -0.0077524036 0.74000001 5.5307625e-39
0.023320032 -0.0077733397 0.74200004 2.9392572e-39
0.02473337 -0.0077733472 0.74200004 2.9003795e-40
0.026146712 -0.0077733323 0.74199998 1.2170235e-39
0.027560048 -0.0077733472 0.74200004 2.0428143e-39
0.02897336 -0.0077733397 0.74200004 2.1335624e-39
0.030427659 -0.0077838153 0.74300003 2.2228713e-39
0.032014314 -0.0078257248 0.74700004 2.4040158e-39
0.033437159 -0.0078257397 0.74700004 2.4954631e-39
0.034906674 -0.0078362226 0.74800009 3.5988946e-39
0.036331449 -0.0078362226 0.74800003 4.6090514e-39
0.037958104 -0.0078781173 0.75200003 4.8841669e-39
0.039390482 -0.0078781322 0.75200009 5.1607496e-39
0.04082286 -0.0078781247 0.75200009 5.2529439e-39
0.042311449 -0.0078886077 0.75300002 5.2529467e-39
0.043745752 -0.0078885928 0.75300002 4.9767241e-39
-0.013661935 -0.0064714402 0.75500011 8.7250924e-39
-0.01217526 -0.0064457506 0.75200009 8.725112e-39
-0.010714258 -0.006428577 0.75000006 9.1843091e-39
-0.0092609189 -0.0064114556 0.74800003 9.5512868e-39
-0.0078361789 -0.0064114407 0.74800003 1.0010817e-38
-0.0064114104 -0.006411463 0.74800003 1.0470342e-38
-0.0049799536 -0.0064028725 0.74700004 1.0745838e-38
-0.003547614 -0.0063857585 0.74500012 1.1112827e-38
-0.002122846 -0.0063685924 0.74300003 1.1388339e-38
-0.00070758222 -0.0063685849 0.74300003 1.1663489e-38
0.00070670096 -0.0063600242 0.74200004 1.1755685e-38
0.002120011 -0.0063600168 0.74200004 1.1939722e-38
0.0035333787 -0.0063600093 0.74200004 1.2031563e-38
0.0049466914 -0.0063600093 0.74200004 1.2215242e-38
0.0063600293 -0.0063600242 0.74200004 1.1939385e-38
0.0077524022 -0.006342873 0.73999995 1.1755371e-38
0.0091619221 -0.0063428953 0.74000001 1.2694189e-38
0.010557192 -0.0063343048 0.73900002 1.3644957e-38
0.011964789 -0.0063343048 0.73900002 1.5492914e-38
0.01337241 -0.0063343048 0.73900002 1.7248894e-38
0.014780037 -0.0063343048 0.73899996 1.7061261e-38
0.01618766 -0.0063342974 0.73900002 1.6970152e-38
0.017619068 -0.0063428804 0.74000001 1.5771275e-38
0.019028587 -0.0063428804 0.74000001 1.4664192e-38
0.020438137 -0.0063428804 0.74000001 1.1158264e-38
0.02184763 -0.0063428804 0.74000001 7.7441625e-39
0.023320016 -0.0063600093 0.74200004 3.963078e-39
0.024733383 -0.0063600168 0.74199998 2.9074841e-40
0.026181908 -0.0063685775 0.74300003 1.2141396e-39
0.027560031 -0.0063600093 0.74200004 2.2264783e-39
0.029012406 -0.0063685849 0.74300003 2.2243217e-39
0.030427637 -0.0063685924 0.74300003 2.2221539e-39
0.032014303 -0.00640288 0.74700004 2.1285093e-39
0.033481922 -0.0064114481 0.74800003 1.942295e-39
0.03500003 -0.0064285919 0.75000006 3.3223063e-39
0.036525719 -0.0064457357 0.75200009 4.6086843e-39
0.037958097 -0.0064457431 0.75200009 4.8848704e-39
0.039442893 -0.0064543113 0.75300002 5.2525767e-39
0.040877167 -0.0064543113 0.75300002 5.2529397e-39
0.042311471 -0.0064543113 0.75300002 5.3458513e-39
-0.013661901 -0.0050333515 0.75500011 8.9084159e-39
-0.012175236 -0.0050133541 0.75200003 9.0006213e-39
-0.010714256 -0.0050000101 0.75000012 9.2757803e-39
-0.0092609618 -0.0049866885 0.74800009 9.5516427e-39
-0.0078361658 -0.0049866959 0.74800003 1.0011178e-38
-0.0064114234 -0.004986681 0.74800003 1.0378868e-38
-0.0049799657 -0.0049800202 0.74700004 1.0747275e-38
-0.003547613 -0.0049666986 0.74500012 1.1021707e-38
-0.0021228367 -0.0049533471 0.74300003 1.1296858e-38
-0.00070760364 -0.004953362 0.74300003 1.1480173e-38
0.00070671493 -0.0049466714 0.74199998 1.1755325e-38
0.0021200511 -0.0049466863 0.74200004 1.1939364e-38
0.0035333638 -0.0049466789 0.74200004 1.2031568e-38
0.0049467017 -0.0049466789 0.74200004 1.2123039e-38
0.0063600433 -0.0049466789 0.74200004 1.1847169e-38
0.0077733533 -0.0049466714 0.74200004 1.148743e-38
0.0091866916 -0.0049466863 0.74200004 1.3621242e-38
0.010571464 -0.0049333498 0.74000001 1.5668962e-38
0.011980956 -0.0049333647 0.74000001 1.6418431e-38
0.01337241 -0.004926689 0.73900002 1.7152038e-38
0.014800024 -0.0049333498 0.74000001 1.7058048e-38
0.016209545 -0.0049333572 0.74000001 1.6875089e-38
0.017619062 -0.0049333572 0.74000001 1.5035504e-38
0.019028585 -0.0049333647 0.74000001 1.3097242e-38
0.020493377 -0.0049466789 0.74200004 1.1527041e-38
0.021906691 -0.0049466714 0.74200004 9.9514444e-39
0.023320056 -0.0049466789 0.74199998 5.0615209e-39
0.024766682 -0.0049533397 0.74300003 1.9783812e-40
0.026181916 -0.0049533546 0.74300003 1.305615e-39
0.02759715 -0.0049533546 0.74300003 2.3165201e-39
0.029012414 -0.0049533546 0.74300003 2.3154397e-39
0.030427648 -0.0049533546 0.74300003 2.2221539e-39
0.032014322 -0.0049800202 0.74700004 1.8530042e-39
0.033481937 -0.0049866959 0.74800003 1.393077e-39
0.035000034 -0.0050000176 0.75000006 3.0471599e-39
0.036525689 -0.0050133541 0.75200009 4.6097661e-39
0.038008604 -0.0050200298 0.75300002 4.9781506e-39
0.039442908 -0.0050200149 0.75300002 5.2529397e-39
0.040877182 -0.0050200149 0.75300002 5.3444164e-39
0.042423796 -0.0050333515 0.75500011 5.4369638e-39
-0.013625693 -0.0035857484 0.75300002 8.9087844e-39
-0.012175241 -0.0035809726 0.75200003 9.0924582e-39
-0.010714252 -0.0035714433 0.75000006 9.3679675e-39
-0.0092609497 -0.0035619363 0.74800003 9.6431181e-39
-0.0078571318 -0.0035714433 0.75000012 1.001082e-38
-0.0064114104 -0.0035619289 0.74800003 1.0378511e-38
-0.004979976 -0.0035571679 0.7470001 1.0654366e-38
-0.003547614 -0.003547661 0.74500012 1.0929513e-38
-0.0021228264 -0.0035381019 0.74300003 1.1205017e-38
-0.00070759247 -0.0035381168 0.74300003 1.148017e-38
0.00070670096 -0.0035333484 0.74200004 1.1755681e-38
0.002120039 -0.003533341 0.74200004 1.1939366e-38
0.0035333498 -0.0035333559 0.74200004 1.1847544e-38
0.0049533457 -0.0035381243 0.74300003 1.175533e-38
0.0063600293 -0.0035333559 0.74200004 1.2031174e-38
0.0077838437 -0.0035381168 0.74300003 1.221533e-38
0.0091867074 -0.003533341 0.74200004 1.4276015e-38
0.01057143 -0.003523834 0.74000001 1.6327633e-38
0.012013357 -0.0035333484 0.74200004 1.6509178e-38
0.013390498 -0.003523834 0.74000001 1.6780751e-38
0.014800016 -0.0035238415 0.74000001 1.6874034e-38
0.016209567 -0.003523834 0.74000001 1.6966927e-38
0.017666716 -0.0035333335 0.74199998 1.4664563e-38
0.019080026 -0.003533341 0.74200004 1.244793e-38
0.020493364 -0.0035333559 0.74200004 1.1157903e-38
0.021906706 -0.0035333335 0.74199998 9.9625665e-39
0.023320042 -0.0035333484 0.74200004 5.3495858e-39
0.024766693 -0.0035381094 0.74299997 8.3710067e-40
0.026181927 -0.0035381094 0.74300003 1.6708032e-39
0.027597161 -0.0035381168 0.74300003 2.5923839e-39
0.029012395 -0.0035381243 0.74300003 2.4072752e-39
0.030509515 -0.0035476461 0.74500012 2.2217966e-39
0.03201431 -0.0035571605 0.74700004 2.0366752e-39
0.033481892 -0.0035619363 0.74800009 1.759703e-39
0.035000034 -0.0035714433 0.75000006 3.1389968e-39
0.036525711 -0.0035809651 0.75200003 4.5190124e-39
0.038008597 -0.0035857409 0.75300002 4.8859662e-39
0.039547618 -0.0035952479 0.75500005 5.2525851e-39
0.040985715 -0.0035952628 0.75500005 5.528086e-39
0.042423807 -0.0035952479 0.75500005 5.8035841e-39
0.043920022 -0.0036000237 0.75600004 5.2525627e-39
-0.013607628 -0.0021486059 0.75200009 8.9091431e-39
-0.01217525 -0.002148591 0.75200009 9.0928183e-39
-0.010714247 -0.0021428689 0.75000006 9.4598072e-39
-0.0092609357 -0.0021371543 0.74800003 9.7353109e-39
-0.0078361686 -0.0021371692 0.74800003 1.0010456e-38
-0.0064114262 -0.0021371618 0.74800009 1.0286317e-38
-0.0049799564 -0.0021343082 0.74700004 1.0561821e-38
-0.003547614 -0.0021285936 0.74500012 1.0745487e-38
-0.0021228488 -0.0021228865 0.74300003 1.1113185e-38
-0.00070758502 -0.0021228641 0.74300003 1.1480176e-38
0.0007076239 -0.0021228865 0.74300003 1.175569e-38
0.0021228581 -0.0021228716 0.74300003 1.1939361e-38
0.0035333638 -0.0021200031 0.74200004 1.1663498e-38
0.0049467017 -0.002120018 0.74200004 1.1388011e-38
0.0063600144 -0.002120018 0.74200004 1.2214551e-38
0.0077733821 -0.0021200106 0.74200004 1.2979121e-38
0.0091866916 -0.0021200106 0.74200004 1.4939704e-38
0.010600029 -0.002120018 0.74200004 1.6875077e-38
0.012013372 -0.0021200106 0.74199998 1.6693926e-38
0.013390493 -0.0021143109 0.74000001 1.6414844e-38
0.01484002 -0.0021200106 0.74200004 1.6690001e-38
0.016253388 -0.0021200106 0.74200004 1.6966573e-38
0.017666699 -0.0021200106 0.74200004 1.4391938e-38
0.019080035 -0.002120018 0.74200004 1.1712875e-38
0.020493379 -0.0021199957 0.74199998 1.0785144e-38
0.02193623 -0.0021228641 0.74300003 9.8649758e-39
0.023351438 -0.002122879 0.74300003 5.6294027e-39
0.024766671 -0.0021228716 0.74300003 1.39601e-39
0.026181934 -0.0021228567 0.74300003 2.1314198e-39
0.027597168 -0.002122879 0.74300003 2.7753375e-39
0.029012403 -0.0021228716 0.74300003 2.4998254e-39
0.030509545 -0.0021286085 0.74500006 2.2221511e-39
0.032014299 -0.0021343082 0.74700004 2.2203434e-39
0.033481907 -0.0021371692 0.74800003 2.1281183e-39
0.035000041 -0.0021428689 0.75000006 3.3223077e-39
0.036525704 -0.0021485984 0.75200003 4.4257392e-39
0.038008615 -0.0021514595 0.75300002 4.8852473e-39
0.0395476 -0.0021571666 0.75500005 5.2525865e-39
0.040985692 -0.0021571666 0.75500011 5.7117626e-39
0.042423788 -0.0021571666 0.75500011 6.0787557e-39
0.043920022 -0.0021600127 0.75600004 5.4359184e-39
0.045360014 -0.0021600127 0.75600004 4.7012302e-39
-0.013607633 -0.00071623176 0.75200009 8.9091431e-39
-0.012175225 -0.00071620941 0.75200003 9.0928211e-39
-0.010742847 -0.00071622431 0.75200003 9.45981e-39
-0.0092856828 -0.00071430206 0.75000012 9.827145e-39
-0.0078570936 -0.00071429461 0.75000006 1.0102286e-38
-0.0064285337 -0.00071429461 0.75000006 1.0377795e-38
-0.0049799657 -0.00071144849 0.74700004 1.0653303e-38
-0.003547586 -0.00070954859 0.74500006 1.0928805e-38
-0.0021228376 -0.00070763379 0.74300003 1.1204665e-38
-0.00070760457 -0.00070764869 0.74300003 1.1480183e-38
0.00070763414 -0.00070762634 0.74300003 1.1663863e-38
0.0021228665 -0.00070763379 0.74300003 1.1938998e-38
0.0035333759 -0.00070667267 0.74200004 1.1755315e-38
0.0049533644 -0.00070762634 0.74300003 1.1571706e-38
0.0063685984 -0.00070764869 0.74300003 1.3066964e-38
0.0077838325 -0.00070763379 0.74300003 1.4658755e-38
0.0091990698 -0.00070764124 0.74300003 1.5585097e-38
0.010614304 -0.00070763379 0.74300003 1.6507751e-38
0.012029538 -0.00070764869 0.74300003 1.6414834e-38
0.013426696 -0.00070668012 0.74200004 1.641269e-38
0.014840037 -0.00070668757 0.74199998 1.6691075e-38
0.016253375 -0.00070668012 0.74200004 1.7062e-38
0.017666686 -0.00070667267 0.74200004 1.3835555e-38
0.019080054 -0.00070668012 0.74199998 1.0603303e-38
0.020493364 -0.00070667267 0.74200004 1.0231584e-38
0.021936208 -0.00070764869 0.74300003 9.868189e-39
0.023351448 -0.00070763379 0.74300003 5.8152317e-39
0.024766682 -0.00070762634 0.74300003 1.8526805e-39
0.026181912 -0.00070764124 0.74300003 2.2232581e-39
0.027597176 -0.00070763379 0.74300003 2.6842194e-39
0.02901241 -0.00070764124 0.74300003 2.4072682e-39
0.030509515 -0.00070955604 0.74500012 2.2221483e-39
0.032014322 -0.00071144849 0.74700004 2.2203392e-39
0.033481922 -0.00071240962 0.74800003 2.3117865e-39
0.035000015 -0.00071430206 0.75000006 3.1382752e-39
0.0365743 -0.00071717799 0.75300002 3.9662015e-39
0.038008634 -0.00071715564 0.75300002 4.5168264e-39
0.039547637 -0.00071906298 0.75500005 5.0689169e-39
0.041040048 -0.00072002411 0.75600004 5.2518719e-39
0.04248004 -0.00072001666 0.75600004 5.5274078e-39
0.043920029 -0.00072001666 0.75600004 5.3434075e-39
0.045360018 -0.00072003156 0.75600004 5.1607917e-39
-0.015039988 0.00071617216 0.75200003 8.7254651e-39
-0.01360761 0.00071615726 0.75200003 8.9087816e-39
-0.012175231 0.00071616471 0.75200009 9.0928127e-39
-0.010714239 0.00071427971 0.75000006 9.4597974e-39
-0.0092856772 0.00071427226 0.75000006 9.827138e-39
-0.0078571178 0.00071427226 0.75000006 1.0102284e-38
-0.0064113992 0.00071235746 0.74800003 1.0377791e-38
-0.0049799769 0.00071139634 0.7470001 1.0745133e-38
-0.003547614 0.00070948899 0.74500012 1.1020645e-38
-0.0021228301 0.00070759654 0.74300003 1.1296157e-38
-0.00070759619 0.00070759654 0.74300003 1.1479831e-38
0.00070764252 0.00070761144 0.74299997 1.1663505e-38
0.0021228767 0.00070760399 0.74300003 1.1847176e-38
0.0035333619 0.00070665032 0.74200004 1.1755341e-38
0.004953343 0.00070758909 0.74300003 1.16862e-38
0.0063686068 0.00070761144 0.74300003 1.4006935e-38
0.0077838148 0.00070758909 0.74300003 1.6316861e-38
0.0091990484 0.00070760399 0.74300003 1.6233324e-38
0.010614312 0.00070761144 0.74300003 1.60475e-38
0.012029547 0.00070760399 0.74300003 1.622866e-38
0.01342671 0.00070665032 0.74199998 1.6321576e-38
0.014840046 0.00070665777 0.74200004 1.6690716e-38
0.016253358 0.00070664287 0.74200004 1.7058045e-38
0.017666725 0.00070666522 0.74200004 1.3284885e-38
0.019080039 0.00070665777 0.74200004 9.4944599e-39
0.020493349 0.00070665032 0.74200004 9.6694639e-39
0.021936217 0.00070760399 0.74300003 9.7699033e-39
0.023351425 0.00070759654 0.74300003 6.0028501e-39
0.024766689 0.00070760399 0.74300003 2.2275573e-39
0.026181923 0.00070760399 0.74300003 2.4087242e-39
0.027597157 0.00070758909 0.74300003 2.5913077e-39
0.029012419 0.00070760399 0.74300003 2.4069081e-39
0.030509541 0.00070948899 0.74500006 2.1292338e-39
0.032057136 0.00071235001 0.74800009 2.3100209e-39
0.033481933 0.00071235746 0.74800003 2.4000277e-39
0.035000049 0.00071426481 0.75000006 2.9531594e-39
0.036574319 0.00071712583 0.75300002 3.4123075e-39
0.038109522 0.00071903318 0.75500011 4.1473222e-39
0.039547615 0.00071901828 0.75500011 4.7898105e-39
0.041040052 0.00071998686 0.75600004 4.8830809e-39
0.04248004 0.00071997941 0.75600004 4.882739e-39
0.043920033 0.00071997195 0.75600004 5.2497391e-39
-0.015039995 0.0021485463 0.75200003 8.817302e-39
-0.013607615 0.0021485388 0.75200009 9.0009716e-39
-0.012175263 0.0021485463 0.75200009 9.1846398e-39
-0.010714263 0.0021428466 0.75000006 9.4601421e-39
-0.0093104756 0.0021485612 0.75200003 9.8271296e-39
-0.0078571122 0.0021428466 0.75000006 1.010264e-38
-0.0064114123 0.0021371245 0.74800003 1.0378145e-38
-0.0049799574 0.0021342635 0.74700004 1.0653292e-38
-0.003547587 0.0021285489 0.74500006 1.1020649e-38
-0.0021228199 0.0021228418 0.74300003 1.1204694e-38
-0.00070758502 0.0021228492 0.74300003 1.1479838e-38
0.00070762297 0.0021228343 0.74300003 1.1387997e-38
0.0021200092 0.0021199882 0.74200004 1.1388011e-38
0.0035333768 0.0021199882 0.74200004 1.2601616e-38
0.0049466868 0.0021199882 0.74200004 1.3818207e-38
0.0063600247 0.0021199882 0.74200004 1.5119098e-38
0.007783825 0.0021228492 0.74300003 1.6419503e-38
0.0091990586 0.0021228418 0.74300003 1.6232243e-38
0.010614293 0.0021228343 0.74300003 1.6046068e-38
0.012029557 0.0021228492 0.74300003 1.6137551e-38
0.013444791 0.0021228343 0.74300003 1.632158e-38
0.014840033 0.0021199882 0.74200004 1.650812e-38
0.016275262 0.0021228492 0.74300003 1.6693924e-38
0.017690497 0.0021228418 0.74300003 1.0789167e-38
0.019105729 0.0021228418 0.74300003 4.7871719e-39
0.020520963 0.0021228343 0.74300003 7.0973651e-39
0.021936227 0.0021228418 0.74300003 9.4976339e-39
0.023351436 0.0021228418 0.74300003 5.9102986e-39
0.024766671 0.0021228343 0.74300003 2.4108709e-39
0.026181934 0.0021228492 0.74300003 2.5002023e-39
0.027671434 0.0021285489 0.74500006 2.5902315e-39
0.029090486 0.0021285415 0.74500012 2.2221595e-39
0.030591452 0.0021342635 0.74700004 1.9444852e-39
0.032057151 0.0021371171 0.74800003 1.756494e-39
0.033571463 0.0021428391 0.75000006 1.6581635e-39
0.035093337 0.0021485537 0.75200003 4.1445e-39
0.036671408 0.0021571144 0.75500011 6.622594e-39
0.03810953 0.0021571293 0.75500005 6.6261519e-39
0.039600041 0.0021599904 0.75600004 6.6207695e-39
0.041040055 0.0021599829 0.75600004 6.0736998e-39
0.042480044 0.0021599904 0.75600004 5.6148852e-39
0.043920036 0.0021599829 0.75600004 4.9698886e-39
-0.01505996 0.0035856888 0.75300002 8.8172992e-39
-0.013625685 0.0035856888 0.75300002 9.0924456e-39
-0.012175241 0.0035809353 0.75200003 9.2764711e-39
-0.010742861 0.0035809353 0.75200003 9.5519748e-39
-0.0093104821 0.0035809353 0.75200009 9.7356486e-39
-0.0078571104 0.003571406 0.75000006 1.0010799e-38
-0.0064285505 0.0035714135 0.75000012 1.0286303e-38
-0.0049999612 0.0035714209 0.75000006 1.0653285e-38
-0.0035476149 0.0035475865 0.74500012 1.1020999e-38
-0.0021228404 0.0035380721 0.74300003 1.1205043e-38
-0.00070760178 0.0035380796 0.74300003 1.138835e-38
0.00070763135 0.0035380796 0.74300003 1.111248e-38
0.0021200501 0.0035333186 0.74200004 1.0853193e-38
0.0035333629 0.0035333261 0.74200004 1.3444753e-38
0.0049533634 0.0035380796 0.74300003 1.5942681e-38
0.0063685975 0.0035380721 0.74300003 1.6231533e-38
0.0077838036 0.0035380796 0.74300003 1.6415559e-38
0.009199067 0.0035380721 0.74300003 1.623045e-38
0.010614301 0.0035380796 0.74300003 1.5954587e-38
0.012029536 0.0035380721 0.74300003 1.6137902e-38
0.0134448 0.0035380721 0.74300003 1.632337e-38
0.014860008 0.003538087 0.74300003 1.6326244e-38
0.016275242 0.0035380796 0.74300003 1.6314372e-38
0.017690506 0.0035380796 0.74300003 8.2069875e-39
0.01910574 0.0035380721 0.74300003 1.1036767e-40
0.020520972 0.0035380796 0.74300003 4.6192459e-39
0.02193621 0.003538087 0.74299997 9.1277807e-39
0.023351444 0.0035380796 0.74300003 5.9128069e-39
0.024833353 0.003547594 0.74500006 2.5959755e-39
0.02625238 0.0035475865 0.74500006 2.5906029e-39
0.027671432 0.0035475865 0.74500012 2.5902315e-39
0.029168596 0.0035571307 0.74700004 2.1303254e-39
0.030591441 0.0035571158 0.7470001 1.6682612e-39
0.032057162 0.0035618842 0.74800003 1.2965976e-39
0.033571471 0.0035714135 0.75000006 8.3557886e-40
0.035093334 0.0035809278 0.75200009 5.3437228e-39
0.036671419 0.0035952181 0.75500005 9.8529849e-39
0.038109515 0.0035952181 0.75500011 9.1136332e-39
0.039600041 0.0035999864 0.75600004 8.3800072e-39
0.041148607 0.0036095083 0.75800008 7.359038e-39
0.042592417 0.0036095008 0.75800008 6.2623958e-39
-0.015059943 0.0050199851 0.75300002 8.7254623e-39
-0.013679964 0.005039975 0.75600004 9.0009646e-39
-0.012191394 0.0050199851 0.75300002 9.1842741e-39
-0.010757119 0.0050199777 0.75300002 9.4597764e-39
-0.0093104905 0.0050133094 0.75200009 9.735643e-39
-0.0078780809 0.0050133169 0.75200003 1.0011151e-38
-0.0064285449 0.0049999878 0.75000006 1.0378133e-38
-0.0049999855 0.0049999878 0.75000006 1.0561801e-38
-0.0035619051 0.0049866363 0.74800009 1.083732e-38
-0.002122832 0.0049533099 0.74300003 1.0837333e-38
-0.00070762413 0.0049533099 0.74300003 1.0836968e-38
0.00070763973 0.0049533322 0.74300003 1.1771461e-38
0.0021228739 0.0049533099 0.74300003 1.2793629e-38
0.003533347 0.0049466491 0.74200004 1.446869e-38
0.0049533718 0.0049533173 0.74300003 1.6234749e-38
0.0063600256 0.0049466491 0.74200004 1.6323733e-38
0.0077733635 0.0049466491 0.74200004 1.6505244e-38
0.0091990773 0.0049533248 0.74300003 1.6137895e-38
0.010614309 0.0049533248 0.74300003 1.5862748e-38
0.012029544 0.0049533099 0.74300003 1.6230447e-38
0.013444778 0.0049533173 0.74300003 1.6690709e-38
0.014860016 0.0049533099 0.74300003 1.5035883e-38
0.016275251 0.0049533173 0.74300003 1.3468895e-38
0.017690483 0.0049533024 0.74300003 6.72791e-39
0.019105747 0.0049533173 0.74300003 9.2421239e-41
0.020520981 0.0049533248 0.74300003 4.8951153e-39
0.021936191 0.0049533099 0.74300003 9.6856096e-39
0.023414297 0.0049666315 0.74500012 6.0932451e-39
0.024833323 0.0049666315 0.74500012 2.4079983e-39
0.026252406 0.004966639 0.74500006 2.4991261e-39
0.027671434 0.0049666315 0.74500006 2.5905917e-39
0.029168585 0.004979983 0.7470001 2.1303254e-39
0.03059146 0.0049799755 0.74700004 1.6689787e-39
0.032057177 0.0049866363 0.74800003 1.2033258e-39
0.033571444 0.0049999952 0.75000006 7.376351e-40
0.035093352 0.0050133169 0.75200003 7.2865965e-39
0.036671426 0.0050333291 0.75500005 1.3831332e-38
0.038160026 0.0050399676 0.75600004 1.345576e-38
0.039600048 0.0050399974 0.75600004 1.3090179e-38
0.041148607 0.005053319 0.75800002 1.2440124e-38
0.042592414 0.005053319 0.75800002 1.1799428e-38
0.044036221 0.0050533041 0.75800002 1.0869952e-38
-0.013679962 0.0064799711 0.75600004 8.9091445e-39
-0.012191375 0.0064542666 0.75300002 9.0924554e-39
-0.0107571 0.0064542517 0.75300002 9.4594373e-39
-0.0093228249 0.0064542666 0.75300002 9.7352997e-39
-0.0078885499 0.0064542517 0.75300002 1.0103358e-38
-0.006428543 0.0064285547 0.75000012 1.0378138e-38
-0.0049999538 0.0064285547 0.75000006 1.0561801e-38
-0.0035618921 0.0064114109 0.74800009 1.0653669e-38
-0.0021285904 0.0063856691 0.74500012 1.0469673e-38
-0.00070761482 0.0063685626 0.74300003 1.0212857e-38
0.00070761924 0.0063685477 0.74300003 1.2434164e-38
0.0021228823 0.0063685626 0.74300003 1.4651931e-38
0.0035381163 0.0063685477 0.74300003 1.5584719e-38
0.0049533504 0.0063685477 0.74300003 1.650667e-38
0.0063685891 0.00636857 0.74300003 1.6506677e-38
0.0077838232 0.0063685477 0.74300003 1.6505237e-38
0.0091990586 0.0063685626 0.74300003 1.6136815e-38
0.010614322 0.0063685551 0.74300003 1.5678719e-38
0.012029555 0.0063685626 0.74300003 1.6322291e-38
0.013444763 0.0063685477 0.74300003 1.696548e-38
0.014859997 0.0063685551 0.74300003 1.3749068e-38
0.016275261 0.0063685626 0.74300003 1.0501062e-38
0.017690495 0.0063685551 0.74300003 5.3270193e-39
0.019105729 0.0063685551 0.74300003 1.0316079e-40
0.020520993 0.0063685477 0.74300003 5.1835319e-39
0.021936201 0.0063685626 0.74300003 1.0233395e-38
0.023351435 0.0063685402 0.74300003 6.2751294e-39
0.02483335 0.0063856915 0.74500012 2.2257622e-39
0.02625238 0.0063856766 0.74500012 2.4076452e-39
0.02767143 0.006385684 0.74500012 2.5905875e-39
0.029168606 0.0064028427 0.74700004 2.1306827e-39
0.030591449 0.0064028352 0.74700004 1.5760628e-39
0.032057133 0.0064114034 0.74800009 1.1096911e-39
0.033571478 0.0064285547 0.75000006 6.5911755e-40
0.035093322 0.0064456984 0.75200003 9.2338927e-39
0.0365257 0.0064456835 0.75200009 1.7691736e-38
0.0381095 0.0064714104 0.75500011 1.7788244e-38
0.039600018 0.0064799786 0.75600004 1.7783922e-38
0.041040041 0.006479986 0.75600004 1.7512344e-38
0.042480055 0.006479986 0.75600004 1.7230736e-38
-0.015159981 0.0079409331 0.75800008 8.7247687e-39
-0.013716174 0.0079409182 0.75800008 8.9087998e-39
-0.012223811 0.0079095066 0.75500011 9.183949e-39
-0.010757108 0.0078885555 0.75300002 9.4594569e-39
-0.0093228091 0.0078885406 0.75300002 9.7349578e-39
-0.0078781201 0.0078780726 0.75200009 1.0010816e-38
-0.006445711 0.0078780726 0.75200003 1.0377785e-38
-0.0050133322 0.00787808 0.75200003 1.0469607e-38
-0.0035714186 0.007857129 0.75000012 1.0653331e-38
-0.0021285643 0.0078047365 0.74500012 1.1592903e-38
-0.00070953707 0.0078047216 0.74500012 1.2621109e-38
0.00070954522 0.0078047365 0.74500006 1.3828322e-38
0.0021228627 0.0077837855 0.74300003 1.5040148e-38
0.0035381266 0.0077838004 0.74300003 1.5588319e-38
0.0049533607 0.0077838004 0.74300003 1.6139329e-38
0.0063685696 0.0077837855 0.74300003 1.6322637e-38
0.0077838334 0.0077838078 0.74300003 1.650523e-38
0.009199067 0.0077837855 0.74300003 1.6322275e-38
0.010614301 0.0077837929 0.74300003 1.6230092e-38
0.012029564 0.0077837929 0.74300003 1.5404302e-38
0.013426691 0.0077733248 0.74200004 1.4579175e-38
0.014840059 0.0077733174 0.74200004 9.9579422e-39
0.01627527 0.0077837929 0.74300003 5.3270221e-39
0.017690502 0.0077838004 0.74300003 3.1236442e-39
0.019105736 0.0077837855 0.74300003 1.0136012e-39
0.02052097 0.0077837929 0.74300003 5.8202764e-39
0.02193621 0.0077837855 0.74300003 1.0513567e-38
0.023414295 0.0078047365 0.74500012 5.9971188e-39
0.02490003 0.007825695 0.7470001 1.3942219e-39
0.026322905 0.007825695 0.74700004 1.9470271e-39
0.027745752 0.0078257024 0.74700004 2.4983904e-39
0.029207638 0.007836163 0.74800003 2.3139922e-39
0.030632405 0.0078361705 0.74800003 2.129224e-39
0.032142892 0.0078571364 0.75000006 1.4777449e-39
0.033660937 0.0078780726 0.75200003 9.2247338e-40
0.035093319 0.0078780726 0.75200009 9.0431437e-39
0.036671441 0.007909514 0.75500005 1.7148341e-38
0.038160034 0.0079199746 0.75600004 1.6961439e-38
0.039600026 0.0079199821 0.75600004 1.6867807e-38
0.041040044 0.007919997 0.75600004 1.6868162e-38
-0.015159987 0.0093847439 0.75800002 8.7251246e-39
-0.013716179 0.0093847364 0.75800002 9.0002668e-39
-0.012239963 0.0093599856 0.75600004 9.2757831e-39
-0.010785709 0.0093476027 0.75500005 9.5512994e-39
-0.0093228165 0.0093228295 0.75300002 9.7349536e-39
-0.0078885416 0.0093228444 0.75300002 1.0010443e-38
-0.0064457166 0.0093104467 0.75200003 1.0285986e-38
-0.0050133378 0.0093104541 0.75200009 1.0469692e-38
-0.0035713878 0.0092856959 0.75000006 1.0584547e-38
-0.0021342603 0.0092485547 0.74700004 1.2810542e-38
-0.00071138947 0.0092485547 0.74700004 1.5022888e-38
0.00070951635 0.0092237741 0.74500012 1.5217364e-38
0.0021285699 0.0092237741 0.74500012 1.5403916e-38
0.0035476261 0.0092237741 0.74500006 1.5588676e-38
0.0049666786 0.0092237741 0.74500012 1.5771991e-38
0.0063685779 0.0091990381 0.74300003 1.6138977e-38
0.007783812 0.0091990232 0.74300003 1.6415194e-38
0.0091990754 0.0091990307 0.74300003 1.6599934e-38
0.010614309 0.0091990232 0.74300003 1.6688889e-38
0.012029544 0.0091990232 0.74300003 1.4485543e-38
0.013444781 0.0091990381 0.74300003 1.2162342e-38
0.014860015 0.0091990307 0.74300003 6.1764822e-39
0.016275248 0.0091990307 0.74300003 9.8104905e-41
0.017690511 0.0091990232 0.74300003 1.0107061e-39
0.019105745 0.0091990307 0.74300003 1.943437e-39
0.020520953 0.0091990158 0.74300003 6.387082e-39
0.021995243 0.0092237741 0.74500012 1.0784414e-38
0.023414297 0.009223789 0.74500006 5.7133629e-39
0.02483335 0.0092237666 0.74500012 5.6841851e-40
0.026322896 0.0092485473 0.74700004 1.4878469e-39
0.02778288 0.0092609152 0.74800009 2.3147167e-39
0.029207621 0.0092609301 0.74800009 2.4980205e-39
0.030714307 0.0092856884 0.75000012 2.5855274e-39
0.032228552 0.0093104541 0.75200009 1.8418527e-39
0.033705737 0.009322837 0.75300002 1.1201237e-39
0.035140011 0.0093228221 0.75300002 8.8680669e-39
0.036671426 0.0093475953 0.75500011 1.649903e-38
0.038160037 0.0093599856 0.75600004 1.6224966e-38
0.039704803 0.0093847439 0.75800008 1.5948019e-38
0.041148584 0.0093847439 0.75800002 1.613061e-38
-0.015159965 0.010828547 0.75800002 8.8169573e-39
-0.013716158 0.010828562 0.75800002 8.9084201e-39
-0.01223996 0.010799982 0.75600004 9.0921093e-39
-0.01078573 0.010785684 0.75500011 9.2757985e-39
-0.0093228286 0.010757126 0.75300002 9.4594429e-39
-0.0078885239 0.010757118 0.75300002 1.0196611e-38
-0.0064457241 0.010742821 0.75200009 1.1020705e-38
-0.0050133462 0.010742836 0.75200009 1.1963898e-38
-0.0035713823 0.010714285 0.75000006 1.2903844e-38
-0.0021342705 0.010671407 0.74700004 1.4106024e-38
-0.00071139878 0.010671414 0.7470001 1.5217387e-38
0.00071147585 0.010671407 0.74700004 1.5493619e-38
0.0021285708 0.010642827 0.74500006 1.5769839e-38
0.0035476233 0.010642827 0.74500012 1.5955298e-38
0.0049666488 0.010642819 0.74500012 1.6231532e-38
0.0063685863 0.010614276 0.74300003 1.5587975e-38
0.0077838204 0.010614268 0.74300003 1.5038744e-38
0.009199054 0.010614268 0.74300003 1.3562906e-38
0.010614318 0.010614268 0.74300003 1.2092428e-38
0.012029551 0.010614268 0.74300003 9.1274711e-39
0.01344476 0.010614261 0.74300003 6.1535205e-39
0.014860024 0.010614276 0.74300003 3.3122996e-39
0.016275259 0.010614276 0.74300003 4.5967494e-40
0.017690493 0.010614261 0.74300003 1.1954491e-39
0.019105753 0.010614276 0.74300003 2.0255881e-39
0.020576216 0.010642827 0.74500006 6.0993856e-39
0.021995243 0.010642827 0.74500006 1.0146592e-38
0.023414295 0.010642819 0.74500012 5.3506844e-39
0.024900038 0.010671414 0.74700004 4.7407188e-40
0.026322883 0.010671407 0.7470001 1.3038143e-39
0.027782867 0.010685697 0.74800003 2.1317603e-39
0.029207634 0.010685682 0.74800003 2.130317e-39
0.030714311 0.010714285 0.75000006 2.0355864e-39
0.032228574 0.010742836 0.75200003 2.1212982e-39
0.033705752 0.010757118 0.75300002 2.3064406e-39
0.03514003 0.010757118 0.75300002 9.4104535e-39
0.036671434 0.010785699 0.75500005 1.6499025e-38
0.038109526 0.010785699 0.75500005 1.6223537e-38
0.039600033 0.010799967 0.75600004 1.6037348e-38
0.041148607 0.010828547 0.75800002 1.6129893e-38
-0.01515997 0.012272365 0.75800002 8.8169657e-39
-0.01371616 0.012272373 0.75800002 8.9084411e-39
-0.012239954 0.012239993 0.75600004 8.9084509e-39
-0.010785719 0.012223788 0.75500005 9.0002976e-39
-0.009322837 0.0121914 0.75300002 9.102563e-39
-0.0078885378 0.012191407 0.75300002 1.0387929e-38
-0.0064456998 0.012175217 0.75200003 1.1694849e-38
-0.0050133211 0.012175217 0.75200003 1.3461665e-38
-0.0035809432 0.012175202 0.75200009 1.5210166e-38
-0.002137152 0.012110449 0.74800009 1.5308855e-38
-0.00071138015 0.012094274 0.74700004 1.5402128e-38
0.00071146467 0.012094259 0.74700004 1.5770192e-38
0.002128568 0.012061872 0.74500012 1.6046413e-38
0.0035571852 0.012094267 0.74700004 1.6323353e-38
0.0049666776 0.012061879 0.74500012 1.6595261e-38
0.006385704 0.012061864 0.74500012 1.5126601e-38
0.0077838306 0.012029506 0.74300003 1.3646464e-38
0.0092238113 0.012061872 0.74500006 1.0520464e-38
0.010614298 0.012029499 0.74300003 7.3782806e-39
0.012029562 0.012029506 0.74300003 3.7776386e-39
0.01344477 0.012029506 0.74300003 9.5945505e-41
0.014860004 0.012029514 0.74300003 4.5967634e-40
0.016275268 0.012029506 0.74300003 7.359017e-40
0.017690502 0.012029514 0.74300003 1.3780355e-39
0.019157164 0.012061872 0.74500012 2.0420954e-39
0.02057619 0.012061886 0.74500012 5.8375319e-39
0.021995241 0.012061864 0.74500012 9.4962129e-39
0.023414297 0.012061886 0.74500006 4.9765111e-39
0.024900028 0.012094259 0.7470001 3.8438037e-40
0.026322903 0.012094267 0.74700004 1.2137725e-39
0.027782882 0.012110449 0.74800003 1.9477334e-39
0.029207623 0.012110457 0.74800003 1.7633393e-39
0.030714313 0.012142837 0.75000012 1.4831469e-39
0.03222857 0.012175217 0.75200003 2.4854228e-39
0.033705749 0.012191415 0.75300002 3.4195914e-39
0.035140049 0.012191407 0.75300002 9.9679236e-39
0.036671411 0.012223788 0.75500011 1.6404676e-38
0.038160045 0.012239978 0.75600004 1.622389e-38
0.039600037 0.012239978 0.75600004 1.6038414e-38
0.041148603 0.012272373 0.75800002 1.6038043e-38
-0.015159978 0.013716176 0.75800008 9.092482e-39
-0.013716139 0.013716176 0.75800002 9.4670071e-39
-0.012239953 0.013679981 0.75600004 9.9186554e-39
-0.01078571 0.013661891 0.75500005 1.0397925e-38
-0.0093476167 0.013661891 0.75500005 1.0776469e-38
-0.0078885444 0.013625696 0.75300002 1.1612754e-38
-0.0064457064 0.013607591 0.75200003 1.2551947e-38
-0.0050133276 0.013607591 0.75200009 1.3100839e-38
-0.0035713739 0.013571419 0.75000006 1.3656166e-38
-0.002137139 0.013535216 0.74800003 1.3378517e-38
-0.00071139133 0.013517126 0.74700004 1.3199148e-38
0.00071145443 0.013517119 0.7470001 1.2826781e-38
0.0021343301 0.013517126 0.74700004 1.246518e-38
0.003557174 0.013517126 0.74700004 1.0984333e-38
0.0049800198 0.013517119 0.74700004 9.5163706e-39
0.0063857301 0.013480924 0.74500012 8.2141411e-39
0.0077838409 0.013444752 0.74300003 6.9209108e-39
0.0092238104 0.013480924 0.74500012 5.3478678e-39
0.010614307 0.013444744 0.74300003 3.7658018e-39
0.012029544 0.013444752 0.74299997 2.208487e-39
0.013444779 0.013444759 0.74300003 7.3805689e-40
0.014860013 0.013444744 0.74300003 5.5368105e-40
0.016275248 0.013444737 0.74300003 4.6183434e-40
0.017690511 0.013444744 0.74300003 3.0454139e-39
0.019157134 0.013480917 0.74500012 5.6308614e-39
0.020576216 0.013480932 0.74500006 6.5603988e-39
0.021995243 0.013480932 0.74500012 7.3818469e-39
0.023477146 0.013517134 0.7470001 4.1517699e-39
0.024900047 0.013517119 0.74700004 9.3430874e-40
0.026358096 0.013535209 0.74800003 1.3956484e-39
0.027782863 0.013535216 0.74800009 1.8555406e-39
0.029207634 0.013535216 0.74800003 1.8541028e-39
0.030714316 0.013571411 0.75000006 1.8519308e-39
0.032228563 0.013607599 0.75200009 2.4014893e-39
0.033705767 0.013625696 0.75300002 3.0508201e-39
0.035140041 0.013625689 0.75300002 8.4906636e-39
0.036671422 0.013661884 0.75500005 1.3927267e-38
0.038109515 0.013661884 0.75500005 1.3832933e-38
0.039600037 0.013679974 0.75600004 1.3833277e-38
0.041148596 0.013716176 0.75800008 1.456615e-38
-0.015159981 0.015159987 0.75800002 9.2934324e-39
-0.013716173 0.015159972 0.75800008 1.0131444e-38
-0.01223995 0.015119985 0.75600004 1.0960489e-38
-0.010799959 0.015119985 0.75600004 1.1712766e-38
-0.0093476381 0.015099987 0.75500011 1.2445698e-38
-0.0078885267 0.015059978 0.75300002 1.2918551e-38
-0.0064542512 0.015059978 0.75300002 1.3280171e-38
-0.0050133592 0.01503998 0.75200009 1.2733483e-38
-0.0035713981 0.014999978 0.75000006 1.2082021e-38
-0.002137125 0.014959976 0.74800003 1.1532797e-38
-0.00071238505 0.014959984 0.74800003 1.0882414e-38
0.00071147305 0.014939994 0.74700004 9.8718646e-39
0.0021343189 0.014939979 0.74700004 8.7601473e-39
0.0035571647 0.014939986 0.74700004 5.6316378e-39
0.0049800095 0.014939971 0.7470001 2.4112703e-39
0.0063857031 0.014899962 0.74500012 1.292e-39
0.0078047873 0.014899977 0.74500006 1.0207759e-40
0.0092238123 0.014899969 0.74500006 9.2384805e-41
0.010642865 0.014899969 0.74500012 9.379311e-41
0.01206189 0.014899962 0.74500012 7.3661636e-40
0.013444787 0.014859982 0.74300003 1.2897803e-39
0.014860021 0.014859989 0.74300003 7.3804989e-40
0.016275255 0.014859989 0.74300003 1.0058801e-40
0.017738109 0.014899977 0.74500006 4.7113826e-39
0.01915716 0.014899977 0.74500012 9.2221288e-39
0.020576186 0.014899969 0.74500012 7.2993679e-39
0.021995241 0.014899962 0.74500012 5.2599335e-39
0.023477167 0.014939994 0.74700004 3.3148444e-39
0.024900038 0.014939971 0.74700004 1.3920499e-39
0.026322883 0.014939986 0.7470001 1.579318e-39
0.027782878 0.014959969 0.74800009 1.7633463e-39
0.029207619 0.014959976 0.74800009 1.945581e-39
0.030714324 0.014999993 0.75000006 2.127796e-39
0.032228585 0.01503998 0.75200003 2.4011291e-39
0.033705752 0.01505997 0.75300002 2.5948797e-39
0.035233337 0.015099987 0.75500011 7.0170091e-39
0.03667143 0.015099987 0.75500005 1.1343681e-38
0.038160026 0.015119977 0.75600004 1.1530221e-38
0.039600018 0.015119985 0.75600004 1.1621698e-38
0.041148592 0.015159979 0.75800002 1.3183619e-38
0.042760968 0.015219972 0.7610001 1.4655137e-38
-0.015159959 0.01660379 0.75800002 8.0225038e-39
-0.013716152 0.016603783 0.75800008 7.7491665e-39
-0.012239944 0.016559981 0.75600004 7.4873171e-39
-0.010799956 0.016559981 0.75600004 7.0202727e-39
-0.0093476269 0.016538076 0.75500005 6.5682755e-39
-0.007888536 0.016494274 0.75300002 6.6518643e-39
-0.0064542345 0.016494267 0.75300002 6.7426306e-39
-0.0050133369 0.016472362 0.75200003 6.3688371e-39
-0.0035713925 0.016428567 0.75000006 6.0897264e-39
-0.002137112 0.016384736 0.74800003 5.8106144e-39
-0.00071237201 0.016384743 0.74800003 5.5279347e-39
0.00071239506 0.016384743 0.74800009 4.975128e-39
0.0021343096 0.016362831 0.7470001 4.4086797e-39
0.0035619359 0.016384736 0.74800003 2.8553572e-39
0.00498003 0.016362831 0.74700004 1.3780761e-39
0.006385732 0.016319014 0.74500012 1.0132243e-39
0.0078047574 0.016319014 0.74500012 6.4335855e-40
0.0092238095 0.016319022 0.74500012 5.5402016e-40
0.010642866 0.016319014 0.74500006 4.6434127e-40
0.012061917 0.016319022 0.74500012 7.3985196e-40
0.013444769 0.01627522 0.74300003 1.1096911e-39
0.014860031 0.016275235 0.74300003 1.1053709e-39
0.016275266 0.01627522 0.74300003 1.0117669e-39
0.017738106 0.016319029 0.74500012 5.5443747e-39
0.019157132 0.016319014 0.74500012 1.0062996e-38
0.020631466 0.016362838 0.74700004 6.5549785e-39
0.022054311 0.016362846 0.74700004 3.042956e-39
0.023477156 0.016362846 0.74700004 2.3078797e-39
0.024933327 0.016384736 0.74800009 1.5760768e-39
0.026358126 0.016384736 0.74800003 1.7626289e-39
0.027782865 0.016384743 0.74800003 1.9477348e-39
0.02928574 0.01642856 0.75000006 2.1296107e-39
0.030714327 0.016428567 0.75000006 2.3118244e-39
0.032228582 0.016472362 0.75200009 2.6795027e-39
0.033705745 0.016494274 0.75300002 3.1444647e-39
0.035233345 0.016538076 0.75500005 7.014156e-39
0.036671437 0.016538084 0.75500011 1.0879485e-38
0.03816003 0.016559981 0.75600004 1.0421012e-38
0.039600018 0.016559973 0.75600004 1.0051892e-38
0.041148614 0.01660379 0.75800002 1.0880938e-38
-0.015199982 0.018095225 0.76000005 6.7332069e-39
-0.013716155 0.018047616 0.75800002 5.3549654e-39
-0.012272347 0.018047601 0.75800002 3.8809395e-39
-0.010799951 0.017999992 0.75600004 2.3129272e-39
-0.0093476223 0.017976165 0.75500011 6.6204206e-40
-0.0078885481 0.017928541 0.75300002 3.7828753e-40
-0.0064542429 0.017928548 0.75300002 1.0493624e-40
-0.0050133434 0.017904736 0.75200009 9.34582e-41
-0.0035714167 0.017857134 0.75000006 9.9909778e-41
-0.0021371557 0.017809495 0.74800009 9.2372193e-41
-0.00071235804 0.017809503 0.74800003 9.7038517e-41
0.00071240903 0.017809495 0.74800003 9.2377799e-41
0.0021371501 0.01780951 0.74800003 9.4884722e-41
0.0035619172 0.017809495 0.74800009 1.8671742e-40
0.004980017 0.017785683 0.74700004 2.7926197e-40
0.0063857031 0.017738067 0.74500012 7.3879118e-40
0.0078047845 0.017738059 0.74500006 1.1064793e-39
0.0092238104 0.017738067 0.74500012 9.2387187e-40
0.010642864 0.017738052 0.74500012 7.4056662e-40
0.01206192 0.017738074 0.74500006 8.3276926e-40
0.013480972 0.017738059 0.74500006 9.2279708e-40
0.014860012 0.017690457 0.74300003 1.4698514e-39
0.01631905 0.017738067 0.74500012 1.9527543e-39
0.017738108 0.017738067 0.74500006 6.3914008e-39
0.01920861 0.017785706 0.74700004 1.0788363e-38
0.020631457 0.017785691 0.74700004 5.8145184e-39
0.0220543 0.017785691 0.74700004 7.5063355e-40
0.023477172 0.017785683 0.7470001 1.2062069e-39
0.024933338 0.017809495 0.74800003 1.6689899e-39
0.026358107 0.017809495 0.74800009 1.8548315e-39
0.027782878 0.017809503 0.74800003 2.0384983e-39
0.029207645 0.017809503 0.74800003 2.3129244e-39
0.030714331 0.017857134 0.75000006 2.4954996e-39
0.03222857 0.017904736 0.75200009 3.0439818e-39
0.03370576 0.017928548 0.75300002 3.6047184e-39
0.035233323 0.017976172 0.75500011 7.0152252e-39
0.036671448 0.017976172 0.75500005 1.0416716e-38
0.038160037 0.017999977 0.75600004 9.4057984e-39
0.039600026 0.017999984 0.75600004 8.3959792e-39
0.041148607 0.018047601 0.75800002 8.6689886e-39
-0.015199969 0.019542851 0.76000005 6.3590364e-39
-0.013716159 0.019491427 0.75800002 4.1467336e-39
-0.012272351 0.019491412 0.75800002 2.0215902e-39
-0.010799948 0.01943998 0.75600004 1.1993615e-39
-0.009347612 0.019414268 0.75500005 3.6781983e-40
-0.0079095177 0.019414261 0.75500011 3.7140715e-40
-0.006454254 0.01936283 0.75300002 2.7598293e-40
-0.0050133192 0.019337125 0.75200003 1.8557956e-40
-0.0035809404 0.019337118 0.75200003 1.8522783e-40
-0.0021371418 0.01923427 0.74800003 2.7814653e-40
-0.00071237481 0.019234255 0.74800009 4.6110567e-40
0.00071239693 0.019234262 0.74800003 3.7214423e-40
0.0021371651 0.019234262 0.74800003 2.8354153e-40
0.0035619051 0.01923427 0.74800003 4.6542307e-40
0.0049800067 0.019208543 0.7470001 7.4129389e-40
0.0063857292 0.019157119 0.74500012 8.3277486e-40
0.0078047556 0.019157112 0.74500012 1.0171521e-39
0.0092238383 0.019157119 0.74500006 7.4127568e-40
0.010642865 0.019157119 0.74500006 4.6542167e-40
0.012061916 0.019157112 0.74500012 8.3062107e-40
0.013480943 0.019157112 0.74500012 1.1965169e-39
0.01486002 0.019105703 0.74300003 3.9730945e-39
0.016319053 0.019157119 0.74500006 6.7440179e-39
0.017738106 0.019157119 0.74500012 6.6544091e-39
0.019208599 0.019208558 0.74700004 6.5578428e-39
0.020631444 0.01920855 0.74700004 3.8801954e-39
0.02205432 0.019208565 0.74700004 1.2951683e-39
0.023477163 0.019208558 0.74700004 1.2991116e-39
0.024933353 0.019234262 0.74800003 1.303443e-39
0.02635812 0.019234262 0.74800009 1.6708102e-39
0.027782861 0.019234262 0.74800009 2.037785e-39
0.029207634 0.019234262 0.74800003 2.3129244e-39
0.030796191 0.019337125 0.75200003 2.5880567e-39
0.032271449 0.01936283 0.75300002 3.1383354e-39
0.033795241 0.019414276 0.75500005 3.7869544e-39
0.035233334 0.019414261 0.75500005 7.1981717e-39
0.036720049 0.01943998 0.75600004 1.0692577e-38
0.038160037 0.019439988 0.75600004 9.8653332e-39
0.039704796 0.019491404 0.75800008 9.0381074e-39
0.041148577 0.019491419 0.75800008 9.0381173e-39
0.042704787 0.019542851 0.76000005 9.1295884e-39
-0.015219946 0.02101808 0.76100004 5.9005666e-39
-0.01377045 0.02101808 0.76100004 3.0349855e-39
-0.012304755 0.020990454 0.76000005 9.5177593e-41
-0.010828521 0.02093523 0.75800002 9.4823064e-41
-0.0093599549 0.020879991 0.75600004 9.4825867e-41
-0.0079095094 0.02085238 0.75500005 2.7921853e-40
-0.0064542633 0.020797126 0.75300002 4.6217206e-40
-0.0050133248 0.020769507 0.75200003 3.7105543e-40
-0.0035809469 0.020769499 0.75200009 1.8774737e-40
-0.0021371287 0.020659022 0.74800003 4.6541186e-40
-0.00071236177 0.020659022 0.74800009 7.4020509e-40
0.00071238016 0.020659022 0.74800009 6.5088492e-40
0.0021371781 0.020659022 0.74800003 4.6721673e-40
0.0035571815 0.02063141 0.74700004 8.3420419e-40
0.0049800272 0.020631418 0.74700004 1.1097121e-39
0.0063857301 0.020576179 0.74500006 1.0168018e-39
0.0078047835 0.020576164 0.74500006 9.2531661e-40
