# .PCD v0.7 - Point Cloud Data file format
VERSION 0.7
FIELDS x y z rgb
SIZE 4 4 4 4
TYPE F F F F
COUNT 1 1 1 1
WIDTH 984
HEIGHT 1
VIEWPOINT 0 0 0 1 0 0 0
POINTS 984
DATA ascii
0.022290478 0.012223832 0.755 2.853408e-40
0.023760002 0.012240015 0.75600004 4.0469962e-39
0.025200002 0.012240008 0.75600004 7.7491497e-39
0.026710479 0.012272388 0.75800008 1.1996576e-38
0.028228574 0.012304768 0.76000005 1.6219203e-38
0.029676192 0.012304768 0.76000005 1.5849696e-38
0.03124667 0.012353346 0.76299995 1.5482714e-38
0.032700002 0.012353338 0.76299995 1.5667461e-38
-0.028414289 0.013842873 0.76500005 1.4788183e-39
-0.026886668 0.013806671 0.76300001 1.1100358e-39
-0.025366668 0.013770476 0.76100004 7.4197072e-40
-0.023822859 0.013716184 0.75800002 4.6682857e-40
-0.022379048 0.013716199 0.75800002 4.6575658e-40
-0.020880001 0.013680004 0.75600004 4.6611811e-40
-0.019414287 0.013661914 0.75500005 4.6647825e-40
-0.017928572 0.013625711 0.75300002 4.6684258e-40
-0.016472381 0.013607621 0.75200003 5.6011861e-40
-0.015040001 0.013607629 0.75199997 7.4523014e-40
-0.013571429 0.013571456 0.75 5.6192209e-40
-0.012142858 0.013571449 0.75 4.7152853e-40
-0.010714285 0.013571449 0.75 4.711768e-40
-0.0092857145 0.013571449 0.75 5.6372976e-40
-0.007857142 0.013571456 0.75 7.4883568e-40
-0.0064285719 0.013571449 0.75 9.328626e-40
-0.0050000004 0.013571434 0.75000006 6.5627712e-40
-0.0035714288 0.013571434 0.75 4.7116419e-40
-0.0021342856 0.013517149 0.74699998 1.4817064e-39
-0.00071142858 0.013517164 0.74700004 2.4037047e-39
0.00071142864 0.013517164 0.74699998 4.896951e-39
0.0021342859 0.013517156 0.74700004 7.3948216e-39
0.003557143 0.013517164 0.74699998 9.6049873e-39
0.0049800002 0.013517164 0.74699998 1.1905175e-38
0.0064028581 0.013517149 0.74699998 9.9633526e-39
0.0078257136 0.013517156 0.74699998 8.0380442e-39
0.0092485705 0.013517156 0.74700004 7.7539365e-39
0.010685714 0.013535254 0.74800003 7.5727724e-39
0.012110477 0.013535246 0.74800003 7.0131457e-39
0.01353524 0.013535254 0.74800003 6.5482033e-39
0.015000001 0.013571441 0.75000006 5.1638297e-39
0.016428571 0.013571449 0.75 3.7668921e-39
0.017857142 0.013571434 0.75 2.5844764e-39
0.019337144 0.013607636 0.75199997 1.485672e-39
0.020797143 0.013625719 0.75300002 8.410229e-40
0.022290478 0.013661921 0.75500005 2.842646e-40
0.023728574 0.013661928 0.755 3.8740928e-39
0.025200002 0.013680004 0.75600004 7.4779466e-39
0.026710479 0.013716184 0.75800008 1.0703695e-38
0.028228575 0.013752393 0.75999999 1.4015147e-38
0.029676193 0.013752386 0.76000005 1.3552016e-38
0.031246671 0.013806678 0.76300001 1.3185752e-38
0.032699998 0.013806671 0.76300001 1.31836e-38
-0.02536667 0.015219994 0.76100004 8.3488522e-40
-0.023822859 0.015160009 0.75800008 5.579452e-40
-0.022379048 0.015160002 0.75800002 5.5687181e-40
-0.020880003 0.01512 0.75600004 4.6539784e-40
-0.019440001 0.01512 0.75600004 5.5759488e-40
-0.017928572 0.015059993 0.75300002 5.5867528e-40
-0.016494287 0.01506 0.75300002 7.437868e-40
-0.015040001 0.015040018 0.75199997 9.2818227e-40
-0.013571429 0.015000023 0.75 6.5340025e-40
-0.012142858 0.015000015 0.75000006 3.7897556e-40
-0.010742857 0.015040018 0.75200003 4.7045933e-40
-0.0092857145 0.015000015 0.75000006 4.7189707e-40
-0.007857142 0.015000023 0.75 6.5700579e-40
-0.0064285719 0.015000008 0.75000006 8.4067538e-40
-0.0050000004 0.015000008 0.75 8.4067398e-40
-0.0035714288 0.015000001 0.75000006 8.3923905e-40
-0.0021371427 0.014960013 0.74800003 4.6974607e-40
-0.00071238104 0.014960021 0.74800003 9.8844791e-41
0.00071238098 0.014959998 0.74800003 9.2415634e-41
0.0021371429 0.014960006 0.74800003 1.2329465e-40
0.0035619051 0.014960006 0.74800003 4.3603125e-39
0.0049866671 0.014960013 0.74800003 8.4882239e-39
0.0064028576 0.014940023 0.74699998 4.3222407e-39
0.0078257136 0.014940009 0.74700004 1.0678175e-40
0.0092609525 0.014960013 0.74800003 9.2798188e-41
0.010685714 0.014960013 0.74800003 1.0999913e-40
0.012110478 0.014960006 0.74800003 9.3120487e-41
0.01353524 0.014960013 0.74800003 1.0028813e-40
0.015000001 0.015000023 0.75 1.863783e-40
0.016472382 0.015040018 0.75199997 1.9174808e-40
0.017904762 0.015040003 0.75200003 1.0239975e-39
0.019362856 0.015060008 0.75300002 1.7604709e-39
0.020797143 0.01506 0.75300002 1.0265002e-39
0.022290478 0.01510001 0.755 2.885764e-40
0.02376 0.015120007 0.75600004 3.6868387e-39
0.0252 0.015120007 0.75600004 7.1059523e-39
0.026710479 0.015160017 0.75800002 9.4173002e-39
0.028228575 0.015200011 0.76000005 1.1712822e-38
0.029676193 0.015200019 0.75999999 1.1248615e-38
0.031246671 0.015260004 0.76300001 1.0790871e-38
0.032699998 0.015260011 0.76299995 1.0603613e-38
-0.025366668 0.016669534 0.76100004 8.3417056e-40
-0.023885716 0.016647629 0.76000005 7.4089873e-40
-0.02237905 0.016603813 0.75800002 5.568676e-40
-0.020935239 0.016603813 0.75800008 4.6467758e-40
-0.019440001 0.016560011 0.75600004 4.6575658e-40
-0.017976191 0.016538113 0.755 5.5867388e-40
-0.016494287 0.016494296 0.75300002 7.4306654e-40
-0.015040001 0.016472392 0.75200003 9.2782213e-40
-0.013607621 0.016472399 0.75200003 6.5375898e-40
-0.012142858 0.016428597 0.75 3.793357e-40
-0.010714285 0.01642859 0.75000006 4.711768e-40
-0.0093104756 0.016472384 0.75200003 6.5592959e-40
-0.0078780958 0.016472399 0.75199997 7.4812803e-40
-0.0064285719 0.01642859 0.75 9.3215915e-40
-0.0050000004 0.016428575 0.75000006 6.570114e-40
-0.0035714288 0.016428582 0.75 4.7263135e-40
-0.0021371427 0.016384773 0.74800003 1.1083122e-39
-0.00071238092 0.01638478 0.74800003 1.8372564e-39
0.00071238104 0.016384766 0.74800003 4.4290981e-39
0.0021371429 0.016384773 0.74800003 7.1038489e-39
0.0035619051 0.016384766 0.74800003 9.4105403e-39
0.0049866666 0.01638478 0.74800003 1.1803243e-38
0.006411429 0.016384773 0.74800003 7.9217168e-39
0.007836191 0.01638478 0.74800003 4.0445411e-39
0.0092609525 0.016384773 0.74800003 5.4418067e-39
0.010714286 0.016428597 0.75 6.9154472e-39
0.012142858 0.01642859 0.75 3.5964227e-39
0.01357143 0.016428597 0.75 2.7744308e-40
0.015040002 0.016472399 0.75200003 6.4981993e-40
0.016494285 0.016494296 0.75300002 1.0243506e-39
0.017904762 0.016472384 0.75200003 1.4846169e-39
0.019362856 0.016494282 0.75300002 1.9448691e-39
0.020797143 0.016494282 0.75300002 1.2091062e-39
0.022290478 0.016538113 0.755 5.6480876e-40
0.023728574 0.016538106 0.755 3.7858516e-39
0.025200002 0.016560003 0.75600004 7.1070397e-39
0.026710479 0.016603805 0.75800002 9.2282665e-39
0.028228574 0.016647637 0.76000005 1.1435181e-38
0.029676192 0.016647637 0.76000005 1.0973127e-38
0.031164765 0.016669534 0.76100004 1.0605425e-38
0.032614283 0.016669527 0.7610001 1.0327046e-38
-0.025433335 0.018166684 0.76299995 9.2600465e-40
-0.023917144 0.018119052 0.76100004 8.3344889e-40
-0.022438094 0.018095247 0.76000005 6.4905763e-40
-0.020935239 0.018047631 0.75800002 3.7391548e-40
-0.01949143 0.018047623 0.75800002 4.6611671e-40
-0.018000001 0.018000007 0.75600004 4.6683838e-40
-0.016538097 0.01797621 0.755 6.5051358e-40
-0.015060002 0.017928578 0.75300008 8.3634397e-40
-0.013607621 0.017904781 0.75199997 6.5411351e-40
-0.01217524 0.017904781 0.75200003 3.7897276e-40
-0.010714285 0.017857164 0.75 5.6229063e-40
-0.0092857145 0.017857157 0.75000006 7.4704342e-40
-0.0078780958 0.017904773 0.75199997 8.3960339e-40
-0.0064285723 0.017857157 0.75000006 9.3215915e-40
-0.0050000008 0.017857157 0.75 5.6553744e-40
-0.0035714288 0.017857149 0.75000006 9.9531427e-41
-0.0021342859 0.017785728 0.74700004 1.8372186e-39
-0.00071142864 0.017785735 0.74699998 3.5147032e-39
0.00071238098 0.017809518 0.74800003 8.8663265e-39
0.0021371427 0.017809525 0.74800003 1.409881e-38
0.0035619051 0.01780954 0.74800003 1.4558001e-38
0.0049866671 0.017809547 0.74800003 1.5019306e-38
0.006411429 0.017809533 0.74800003 1.1517337e-38
0.0078361891 0.017809533 0.74800003 8.0257968e-39
0.0092609534 0.017809533 0.74800003 1.089817e-38
0.010714286 0.017857164 0.75 1.3635975e-38
0.012142858 0.017857164 0.75 7.0079945e-39
0.01357143 0.017857164 0.75 3.7862104e-40
0.015040002 0.017904781 0.75200003 1.1104365e-39
0.016494285 0.017928578 0.75300002 1.8501568e-39
0.017928571 0.017928585 0.75300002 2.0363543e-39
0.019362856 0.017928571 0.75300002 2.1285429e-39
0.020852381 0.01797621 0.755 1.4838952e-39
0.022290478 0.017976202 0.75500005 7.4883288e-40
0.023760002 0.017999999 0.75600004 3.9680793e-39
0.025200002 0.018000022 0.75600004 7.1045202e-39
0.026780955 0.018095247 0.76000005 9.1374987e-39
0.028228575 0.018095255 0.75999999 1.1065321e-38
0.029676193 0.018095255 0.76000005 1.0694745e-38
0.031164763 0.018119052 0.76100004 1.0327043e-38
0.032614287 0.018119052 0.7610001 1.0138708e-38
-0.025433337 0.019620009 0.76300001 1.0178387e-39
-0.023917146 0.019568577 0.76100004 8.3452228e-40
-0.022438096 0.019542858 0.76000005 6.4977089e-40
-0.020990478 0.019542873 0.76000005 3.7499027e-40
-0.01949143 0.019491427 0.75800008 3.7499868e-40
-0.018000001 0.019440003 0.75600004 4.6719711e-40
-0.016538095 0.019414306 0.75500005 5.5939554e-40
-0.015060002 0.019362859 0.75300008 7.4522314e-40
-0.013607621 0.01933717 0.75199997 5.6227381e-40
-0.01217524 0.019337162 0.75200003 4.7080405e-40
-0.010742858 0.019337162 0.75199997 5.6264516e-40
-0.0092857145 0.019285731 0.75 6.5484639e-40
-0.007857142 0.019285731 0.75000006 8.3924185e-40
-0.0064285723 0.019285738 0.75 1.0243534e-39
-0.0050000004 0.019285724 0.75000006 5.6051658e-40
-0.0035714288 0.019285731 0.75 9.4490957e-41
-0.0021342856 0.019208588 0.74699998 4.4333258e-39
-0.00071142864 0.019208588 0.74700004 8.8648537e-39
0.00071238104 0.0192343 0.74800003 9.8798128e-39
0.0021371429 0.0192343 0.74800003 1.0898239e-38
0.0035619051 0.019234292 0.74800003 1.2084191e-38
0.0049866666 0.0192343 0.74800003 1.3382437e-38
0.0064114286 0.019234292 0.74800003 1.070234e-38
0.0078361891 0.0192343 0.74800003 8.1219805e-39
0.0092857135 0.019285738 0.75 1.0889602e-38
0.010714286 0.019285746 0.75 1.374327e-38
0.012142858 0.019285731 0.75 8.0253848e-39
0.01357143 0.019285731 0.75000006 2.3017995e-39
0.015040002 0.019337155 0.75199997 1.8447646e-39
0.016494287 0.019362867 0.75300002 1.3924198e-39
0.017928572 0.019362867 0.75300002 1.6693767e-39
0.019362858 0.019362852 0.75300002 2.0381452e-39
0.020852383 0.019414291 0.75500005 1.3916996e-39
0.022290478 0.019414298 0.755 8.3492445e-40
0.023760002 0.01944001 0.75600004 3.9673534e-39
0.025200002 0.019440003 0.7560001 7.1949123e-39
0.026710479 0.019491419 0.75800008 9.2260972e-39
0.028228575 0.019542873 0.75999999 1.1248985e-38
0.029676193 0.019542865 0.75999999 1.0972398e-38
0.031123813 0.019542865 0.76000005 1.078801e-38
0.032571428 0.019542888 0.75999999 1.0418515e-38
-0.023917144 0.021018103 0.76100004 8.3309156e-40
-0.022438096 0.020990491 0.75999999 6.4834016e-40
-0.020990478 0.020990491 0.76000005 3.7427561e-40
-0.01949143 0.020935245 0.75800002 3.7535881e-40
-0.018000001 0.020879999 0.75600004 3.7536442e-40
-0.016538095 0.020852402 0.75500005 4.6684539e-40
-0.015060002 0.020797148 0.75300002 5.6119621e-40
-0.013625715 0.020797148 0.75300002 5.6227802e-40
-0.01217524 0.020769536 0.75200003 4.7080686e-40
-0.010742858 0.020769551 0.75199997 5.6300669e-40
-0.0093104756 0.020769544 0.75200003 5.630123e-40
-0.007857142 0.020714313 0.75 8.3780692e-40
-0.0064285723 0.020714305 0.75000006 1.1136679e-39
-0.0050000004 0.020714305 0.75 6.4982414e-40
-0.0035714291 0.02071429 0.75 1.0707462e-40
-0.0021371427 0.020659059 0.74800003 7.1199485e-39
-0.00071238092 0.020659067 0.74800003 1.4104869e-38
0.00071238104 0.020659052 0.74800003 1.0888877e-38
0.0021371427 0.020659059 0.74800003 7.6609954e-39
0.0035619051 0.020659059 0.74800003 9.6813693e-39
0.0049866666 0.020659067 0.74800003 1.1623192e-38
0.006411429 0.020659044 0.74800003 9.8786791e-39
0.0078361901 0.020659052 0.74800003 8.1248308e-39
0.0092609534 0.020659067 0.74800003 1.0978541e-38
0.010714287 0.020714313 0.75 1.3737527e-38
0.012142858 0.020714305 0.75000006 9.0488694e-39
0.01357143 0.020714305 0.75 4.241474e-39
0.015040002 0.020769536 0.75199997 2.5747808e-39
0.016472381 0.020769536 0.75200003 9.3036549e-40
0.017928572 0.020797148 0.75300002 1.3942219e-39
0.019362858 0.020797141 0.75300002 1.853391e-39
0.020797145 0.020797156 0.75300002 1.3927702e-39
0.022290478 0.020852394 0.75500005 8.3887191e-40
0.02376 0.020880006 0.75600004 4.0552513e-39
0.025200002 0.020880006 0.75600004 7.2874723e-39
0.026710479 0.020935237 0.75800002 9.3222445e-39
0.028154287 0.020935245 0.75800002 1.1341188e-38
0.029676192 0.020990498 0.75999999 1.1248992e-38
0.031123811 0.020990491 0.76000005 1.1156075e-38
-0.023980001 0.022526681 0.76300001 7.3982393e-40
-0.022467621 0.022467613 0.76100004 6.487031e-40
-0.020990476 0.022438109 0.75999999 5.5723194e-40
-0.01949143 0.022379056 0.75800002 4.6683698e-40
-0.018000001 0.02232001 0.75600004 4.6684258e-40
-0.016560001 0.02232001 0.75600004 5.5975988e-40
-0.0151 0.022290498 0.755 7.4523014e-40
-0.013625715 0.022231437 0.75300002 5.6228082e-40
-0.01219143 0.022231422 0.75300002 4.7080966e-40
-0.010742858 0.022201903 0.75200003 5.6300809e-40
-0.0093104765 0.022201926 0.75199997 6.5484779e-40
-0.0078780958 0.022201926 0.75200003 8.3888172e-40
-0.0064285723 0.02214288 0.75 1.0236177e-39
-0.0050000004 0.022142865 0.75 5.5725436e-40
-0.0035714288 0.022142872 0.75 9.4189678e-41
-0.0021371427 0.022083819 0.74800003 7.3001064e-39
-0.00071238098 0.022083819 0.74800009 1.4392585e-38
0.00071238098 0.022083811 0.74800003 1.0506775e-38
0.0021371429 0.022083819 0.74800003 6.5226954e-39
0.0035619051 0.022083811 0.74800003 9.0305965e-39
0.0049866671 0.022083819 0.74800003 1.1621017e-38
0.006411429 0.022083811 0.74800003 9.137168e-39
0.007857142 0.022142865 0.75000006 6.7340056e-39
0.0092857135 0.022142887 0.75 1.0055854e-38
0.010714287 0.02214288 0.75000006 1.3464528e-38
0.012142858 0.022142872 0.75 8.8573259e-39
0.01357143 0.022142872 0.75000006 4.2335903e-39
0.015040002 0.022201926 0.75199997 2.4865285e-39
0.016494285 0.022231422 0.75300008 7.4812382e-40
0.017904762 0.022201918 0.75199997 1.2094663e-39
0.019362858 0.022231422 0.75300002 1.7611897e-39
0.020852383 0.022290476 0.75500005 1.2083747e-39
0.02232 0.022320002 0.75600004 6.5340866e-40
0.02376 0.02232001 0.75600004 3.9648591e-39
0.025266668 0.022379048 0.75800002 7.2921428e-39
0.026710479 0.022379048 0.75800002 9.227186e-39
0.028228575 0.022438101 0.75999999 1.115645e-38
0.029676193 0.022438116 0.76000005 1.1064615e-38
0.031123813 0.022438116 0.75999999 1.0972411e-38
0.032571431 0.022438109 0.76000005 1.0513222e-38
-0.024105718 0.02410572 0.76699996 6.4942477e-40
-0.022526668 0.023980021 0.76300001 7.4126026e-40
-0.020990478 0.023885734 0.75999999 7.4198193e-40
-0.01949143 0.023822859 0.75800002 6.5086951e-40
-0.017999999 0.023760013 0.75600004 4.6756145e-40
-0.016559999 0.023760006 0.75600004 6.5231424e-40
-0.015100001 0.023728602 0.755 8.3742437e-40
-0.013661906 0.023728594 0.755 6.5447645e-40
-0.01219143 0.023665711 0.75300002 4.7116699e-40
-0.010742858 0.023634292 0.75200003 5.6336542e-40
-0.0093104765 0.0236343 0.75199997 6.5520652e-40
-0.0078780958 0.023634292 0.75200003 8.3888452e-40
-0.0064457147 0.0236343 0.75199997 9.2891375e-40
-0.0050000004 0.023571447 0.75 5.5259224e-40
-0.0035714288 0.023571439 0.75 1.1068716e-40
-0.0021371427 0.023508579 0.74800003 7.4091512e-39
-0.00071238086 0.023508571 0.74800009 1.4656611e-38
0.00071238104 0.023508571 0.74800003 1.0038637e-38
0.0021371427 0.023508571 0.74800009 5.4364551e-39
0.0035619051 0.023508593 0.74800003 8.4806527e-39
0.0049866666 0.023508579 0.74800009 1.1526305e-38
0.006411429 0.023508579 0.74800003 8.4978999e-39
0.0078361901 0.023508586 0.74800003 5.3643681e-39
0.0092857135 0.023571439 0.75000006 9.2297042e-39
0.010714287 0.023571454 0.75 1.3093964e-38
0.012142858 0.023571447 0.75000006 8.6819086e-39
0.01357143 0.023571454 0.75 4.2396902e-39
0.015040002 0.0236343 0.75199997 2.389312e-39
0.016494285 0.023665726 0.75300002 5.6230044e-40
0.017928572 0.023665719 0.75300002 1.1183469e-39
0.019414287 0.023728594 0.755 1.5778789e-39
0.020880001 0.023760013 0.75600004 1.0265016e-39
0.022320002 0.023759998 0.75600004 3.7683018e-40
0.023822859 0.023822851 0.75800008 3.7672045e-39
0.025266668 0.023822859 0.75800002 7.1949291e-39
0.026780954 0.023885727 0.76000005 9.0463835e-39
0.028228575 0.023885727 0.75999999 1.0881654e-38
0.029676193 0.023885719 0.76000005 1.0789099e-38
0.031164765 0.023917139 0.76100004 1.0696895e-38
-0.025666667 0.025666676 0.77000004 1.0182031e-39
-0.024137145 0.025600009 0.76800001 6.508625e-40
-0.022526668 0.025433332 0.76300001 6.5014503e-40
-0.021018097 0.025366671 0.7610001 6.5122684e-40
-0.01949143 0.025266662 0.75800008 5.5903681e-40
-0.01804762 0.02526667 0.75800002 4.6684679e-40
-0.016560001 0.025200009 0.75600004 6.5267298e-40
-0.015100001 0.025166683 0.75500005 8.3814324e-40
-0.013661907 0.025166675 0.755 6.5483518e-40
-0.01219143 0.025100008 0.75300002 5.6264375e-40
-0.010757143 0.025100008 0.75300002 6.5519952e-40
-0.0093104765 0.025066681 0.75199997 7.4740215e-40
-0.0078780958 0.025066681 0.75200003 8.3960339e-40
-0.0064457152 0.025066689 0.75199997 8.4066838e-40
-0.0050000004 0.025000013 0.75 4.6757406e-40
-0.0035714288 0.025000006 0.75000006 1.0027972e-40
-0.0021371427 0.024933338 0.74800003 6.9302337e-39
-0.00071238092 0.024933331 0.74800003 1.3745431e-38
0.00071238104 0.024933331 0.74800003 1.0969198e-38
0.0021371427 0.024933323 0.74800003 8.1829104e-39
0.0035619051 0.024933346 0.74800003 9.8588956e-39
0.0049866671 0.024933346 0.74800009 1.1628537e-38
0.006411429 0.024933346 0.74800003 1.0242409e-38
0.007857142 0.025000006 0.75000006 8.8426389e-39
0.0092857145 0.025000013 0.75 1.1069654e-38
0.010714287 0.025000021 0.75000006 1.3376652e-38
0.012142858 0.025000021 0.75 7.7492071e-39
0.01357143 0.025000021 0.75000006 2.2046026e-39
0.015000001 0.025000028 0.75 1.6589328e-39
0.016538095 0.025166683 0.75500005 1.1161819e-39
0.017928571 0.025100015 0.75300002 1.3934932e-39
0.019414287 0.025166683 0.75500005 1.6704332e-39
0.020880001 0.025200017 0.7560001 1.0250708e-39
0.022320002 0.025200017 0.75600004 4.6831255e-40
0.023822859 0.02526667 0.75800002 3.6886478e-39
0.025266668 0.02526667 0.75800002 6.9291098e-39
0.026780954 0.025333345 0.76000005 8.8609161e-39
0.028265717 0.025366671 0.76100004 1.069726e-38
0.02971524 0.025366664 0.7610001 1.0789447e-38
0.03124667 0.025433339 0.76300001 1.087984e-38
-0.025666669 0.027133338 0.77000004 1.0196394e-39
-0.024105718 0.027027629 0.76700002 6.5050377e-40
-0.022526668 0.026886679 0.76299995 5.5759347e-40
-0.021018097 0.026816197 0.7610001 4.6647825e-40
-0.019542856 0.02678097 0.76000005 4.6683978e-40
-0.01804762 0.02671048 0.75800002 4.6720412e-40
-0.016560001 0.02664002 0.75600004 6.5303311e-40
-0.015120001 0.026640013 0.75600004 8.3778731e-40
-0.013661905 0.026604764 0.75500005 7.4703501e-40
-0.012223809 0.026604787 0.755 5.6336402e-40
-0.010757143 0.026534282 0.75300008 7.4775388e-40
-0.0093104765 0.026499078 0.75199997 8.3959498e-40
-0.0078780949 0.026499063 0.75200003 8.3996072e-40
-0.0064457152 0.026499063 0.75200003 7.4775808e-40
-0.0050000004 0.02642858 0.75000006 4.6865586e-40
-0.0035714291 0.026428588 0.75 1.0709564e-40
-0.0021371427 0.026358113 0.74800003 6.465671e-39
-0.00071238098 0.026358105 0.74800003 1.2818467e-38
0.00071238098 0.026358105 0.74800003 1.1909085e-38
0.0021371429 0.026358105 0.74800009 1.0876642e-38
0.0035619051 0.026358105 0.74800003 1.1235363e-38
0.0049866666 0.026358098 0.74800009 1.1625318e-38
0.006411429 0.026358098 0.74800003 1.2000206e-38
0.007857142 0.026428588 0.75 1.2360736e-38
0.0092857145 0.02642858 0.75000006 1.3012558e-38
0.010714287 0.026428603 0.75 1.3549542e-38
0.012142858 0.026428595 0.75000006 6.8257809e-39
0.01357143 0.026428603 0.75 1.0205376e-40
0.015000002 0.026428588 0.75 8.3350494e-40
0.016494285 0.026534297 0.75300002 1.5746503e-39
0.017928571 0.026534297 0.75300002 1.6693599e-39
0.019414285 0.026604779 0.755 1.6700745e-39
0.020879999 0.026640013 0.75600004 1.1183399e-39
0.022379048 0.026710488 0.75800002 4.7010481e-40
0.023822859 0.026710473 0.75800002 3.5899949e-39
0.025333337 0.026780955 0.76000005 6.6453455e-39
0.026816193 0.026816204 0.76100004 8.587192e-39
0.028265717 0.026816189 0.76100004 1.0514333e-38
0.029793337 0.026886687 0.76300001 1.0791663e-38
0.031246671 0.026886687 0.76299995 1.1071066e-38
-0.024105716 0.028488576 0.76700002 7.4126447e-40
-0.022585716 0.028414294 0.76500005 6.4943037e-40
-0.021018097 0.028265715 0.76100004 5.5795501e-40
-0.019542858 0.028228581 0.76000005 5.5795501e-40
-0.018047618 0.028154284 0.75800002 6.4979891e-40
-0.016560001 0.028080009 0.7560001 7.4379381e-40
-0.015120002 0.028080016 0.75600004 8.3707264e-40
-0.013661905 0.028042868 0.755 7.4632175e-40
-0.012223809 0.028042868 0.75500005 7.4703782e-40
-0.010757143 0.027968571 0.75300008 8.3994811e-40
-0.0093104765 0.027931437 0.75200003 9.3178921e-40
-0.0078780949 0.027931444 0.75199997 9.3286961e-40
-0.0064457152 0.027931444 0.75200003 9.339416e-40
-0.0050000004 0.027857155 0.75 5.6228923e-40
-0.0035714288 0.027857147 0.75000006 2.8179972e-40
-0.0021371427 0.027782865 0.74800003 3.5172451e-39
-0.00071238092 0.027782865 0.74800003 6.8473679e-39
0.00071238104 0.027782865 0.74800003 9.1461349e-39
0.0021371427 0.027782857 0.74800003 1.1536719e-38
0.0035619051 0.027782865 0.74800003 1.2361077e-38
0.0049866671 0.027782865 0.74800009 1.3289846e-38
0.006411429 0.02778285 0.74800003 1.2738125e-38
0.007836191 0.027782865 0.74800009 1.2280749e-38
0.0092609525 0.027782872 0.74800003 9.8804756e-39
0.010714287 0.02785717 0.75 7.5755512e-39
0.012142858 0.02785717 0.75 4.0616972e-39
0.01357143 0.027857162 0.75000006 6.4551655e-40
0.015000002 0.02785717 0.75 8.3638881e-40
0.016494285 0.027968585 0.75300002 1.0261569e-39
0.017928571 0.027968578 0.75300008 1.302378e-39
0.019414285 0.028042875 0.75500005 1.670792e-39
0.020879999 0.028080016 0.75600004 1.1172623e-39
0.022379048 0.028154299 0.75800002 6.5305693e-40
0.023885716 0.028228588 0.75999999 3.3230952e-39
0.025333336 0.028228588 0.76000005 6.00572e-39
0.026816193 0.02826573 0.76100004 9.0409773e-39
0.028340003 0.028340004 0.76300001 1.207341e-38
0.02987143 0.028414294 0.76500005 1.2454451e-38
0.031328574 0.028414287 0.76500005 1.2929323e-38
0.032785717 0.028414309 0.76499999 1.1624523e-38
-0.022585716 0.029871427 0.76500005 7.405484e-40
-0.021018097 0.02971524 0.76100004 5.5723895e-40
-0.01949143 0.029598095 0.75800002 6.4907865e-40
-0.018047618 0.029598095 0.75800008 7.4199594e-40
-0.016560001 0.029520005 0.75600004 7.4343648e-40
-0.015120002 0.029520012 0.75600004 7.4487701e-40
-0.013661905 0.029480964 0.75500005 8.3779431e-40
-0.012223809 0.029480964 0.755 9.3106474e-40
-0.010757143 0.029402867 0.75300002 9.3250107e-40
-0.0093104765 0.029363818 0.75200003 9.3214794e-40
-0.0078780949 0.029363826 0.75199997 1.0250652e-39
-0.0064457152 0.029363818 0.75200003 1.1161805e-39
-0.0050133341 0.029363811 0.75199997 7.4883568e-40
-0.0035809525 0.029363826 0.75200003 3.7971265e-40
-0.0021371427 0.029207632 0.74800003 5.6590738e-40
-0.00071238092 0.029207624 0.74800003 7.6539343e-40
0.00071238098 0.029207624 0.74800003 6.4750106e-39
0.0021371429 0.029207617 0.74800003 1.2081644e-38
0.0035619051 0.029207624 0.74800003 1.3566443e-38
0.0049866671 0.029207617 0.74800009 1.4937878e-38
0.006411429 0.029207632 0.74800003 1.3565011e-38
0.007836191 0.029207624 0.74800009 1.2080901e-38
0.0092857145 0.029285729 0.75 6.8365597e-39
0.010714287 0.029285736 0.75 1.5843333e-39
0.012142858 0.029285729 0.75 1.3834179e-39
0.01357143 0.029285736 0.75 1.1107967e-39
0.015040001 0.029363811 0.75200003 8.4032926e-40
0.016494285 0.029402867 0.75300002 4.7514388e-40
0.017928571 0.029402874 0.75300002 1.0268799e-39
0.019414287 0.029480979 0.755 1.5778859e-39
0.020879999 0.029520012 0.75600004 1.209818e-39
0.02232 0.029520005 0.75600004 8.3959778e-40
0.023822859 0.029598102 0.75800002 3.0429238e-39
0.025333336 0.029676214 0.75999999 5.2642243e-39
0.026816193 0.029715255 0.76100004 9.4058194e-39
0.028414289 0.029871449 0.76499999 1.3550675e-38
0.029871432 0.029871449 0.76500005 1.4206501e-38
0.031328574 0.029871434 0.76500005 1.4763914e-38
0.032785717 0.029871434 0.76500005 1.2921048e-38
-0.021018097 0.031164765 0.76100004 7.4019528e-40
-0.019542856 0.031123817 0.76000005 7.4127848e-40
-0.01804762 0.031041913 0.75800002 7.4235888e-40
-0.016560001 0.030960009 0.75600004 7.4343788e-40
-0.015120002 0.030960001 0.7560001 7.4523435e-40
-0.013680002 0.030960016 0.75600004 8.3779011e-40
-0.012223809 0.030919053 0.75500005 9.307046e-40
-0.010785715 0.03091906 0.755 1.0229002e-39
-0.0093104765 0.030796207 0.75200003 1.1151015e-39
-0.0078780949 0.030796215 0.75199997 1.0236303e-39
-0.0064457147 0.030796207 0.75200003 1.0225541e-39
-0.0050133336 0.030796207 0.75199997 7.4848256e-40
-0.0035809525 0.030796193 0.75200003 4.7296205e-40
-0.0021428571 0.030714303 0.75 4.7151311e-40
-0.00071428576 0.030714303 0.75000006 4.6833777e-40
0.00071238098 0.030632384 0.74800003 3.236729e-39
0.0021371427 0.030632377 0.74800003 6.0951284e-39
0.0035619051 0.030632399 0.74800003 9.3194335e-39
0.0049999999 0.030714303 0.75 1.2441833e-38
0.0064285719 0.030714303 0.75 1.1983366e-38
0.0078571429 0.030714303 0.75 1.1416138e-38
0.0092857145 0.030714303 0.75 6.3586552e-39
0.010714287 0.030714296 0.75 1.1943631e-39
0.01217524 0.030796207 0.75200003 1.383792e-39
0.013607621 0.030796215 0.75199997 1.4820903e-39
0.015040001 0.0307962 0.75200003 1.1158287e-39
0.016538097 0.030919068 0.755 6.5953373e-40
0.017976191 0.03091906 0.75500005 1.1187238e-39
0.019414287 0.030919068 0.75500005 1.669727e-39
0.020879999 0.030960009 0.75600004 1.2098208e-39
0.02232 0.030960016 0.75600004 8.4067398e-40
0.023885718 0.031123824 0.76000005 3.3238085e-39
0.025366668 0.031164765 0.76100004 5.8166764e-39
0.026816193 0.031164765 0.7610001 8.9505978e-39
0.028414287 0.031328566 0.76500005 1.2180324e-38
0.02987143 0.031328589 0.76499999 1.2828253e-38
0.031410474 0.031410478 0.76700002 1.3487936e-38
0.032871425 0.031410471 0.76700002 1.2182482e-38
0.03433238 0.031410493 0.76700002 1.0885268e-38
-0.019542856 0.032571435 0.76000005 7.4091414e-40
-0.01804762 0.032485716 0.75800002 6.5015905e-40
-0.016603811 0.032485716 0.75800008 6.5088212e-40
-0.015120002 0.032400005 0.75600004 6.5231985e-40
-0.013680002 0.032400012 0.75600004 8.3742857e-40
-0.012240002 0.032400005 0.75600004 9.2926267e-40
-0.010757144 0.03227143 0.75300002 1.1136497e-39
-0.0093104765 0.032228574 0.75200003 1.2984067e-39
-0.0078780949 0.032228597 0.75199997 1.1147455e-39
-0.0064457147 0.032228589 0.75200003 8.3995792e-40
-0.0050133336 0.032228582 0.75200003 7.4956015e-40
-0.0035809528 0.032228589 0.75200003 5.6480035e-40
-0.0021428573 0.03214287 0.75 3.7896435e-40
-0.00071428576 0.032142885 0.75 9.7757383e-41
0.00071428582 0.032142878 0.75 9.2415634e-41
0.0021371429 0.032057151 0.74800003 1.1970732e-40
0.0035619049 0.032057159 0.74800003 5.0824381e-39
0.0049999999 0.032142885 0.75 9.9633414e-39
0.0064285719 0.032142878 0.75 1.0417846e-38
0.0078571429 0.032142863 0.75000006 1.0782639e-38
0.0092857145 0.03214287 0.75 5.8037536e-39
0.010714287 0.032142863 0.75000006 8.4280816e-40
0.01217524 0.032228589 0.75200003 1.3826668e-39
0.013607621 0.032228582 0.75200003 1.8450939e-39
0.015060002 0.032271437 0.75300002 1.389166e-39
0.016538097 0.032357156 0.75500005 8.4103972e-40
0.017976191 0.032357164 0.755 1.3020277e-39
0.019414287 0.032357149 0.75500005 1.6693627e-39
0.020880001 0.032399997 0.75600004 1.3023724e-39
0.022379046 0.032485731 0.75800002 8.4067258e-40
0.023822859 0.032485709 0.75800002 3.5942927e-39
0.025333336 0.032571442 0.76000005 6.274419e-39
0.026816193 0.032614276 0.7610001 8.5832558e-39
0.028340003 0.032700025 0.76299995 1.0793073e-38
0.029871432 0.032785729 0.76499999 1.1437383e-38
0.03132857 0.032785729 0.76499999 1.2085598e-38
0.032871425 0.032871448 0.76700002 1.1435202e-38
-0.019542858 0.03401906 0.75999999 5.5723614e-40
-0.01809524 0.034019053 0.76000005 5.5831935e-40
-0.016603809 0.033929534 0.75800002 6.5052058e-40
-0.015120001 0.033840016 0.75600004 7.4307635e-40
-0.013680001 0.033840001 0.7560001 8.3599084e-40
-0.01222381 0.033795252 0.75500005 9.274634e-40
-0.010785714 0.03379526 0.755 1.0218044e-39
-0.0093228566 0.033705704 0.75300008 1.1158049e-39
-0.0078885704 0.033705726 0.75300002 1.023982e-39
-0.0064542862 0.033705726 0.75300002 9.3215215e-40
-0.0050133336 0.033660963 0.75200003 6.5736733e-40
-0.0035809525 0.033660971 0.75199997 3.814909e-40
-0.0021428571 0.033571444 0.75 1.3848542e-39
-0.00071428576 0.033571459 0.75 2.3900477e-39
0.00071238098 0.033481918 0.74800003 5.079131e-39
0.0021371429 0.033481911 0.74800003 7.7592572e-39
0.0035619051 0.033481911 0.74800003 9.5106239e-39
0.0049999999 0.033571452 0.75 1.1360594e-38
0.0064285719 0.033571437 0.75000006 1.1352329e-38
0.0078571429 0.033571444 0.75 1.1451337e-38
0.0092857145 0.033571437 0.75000006 9.1367925e-39
0.010714287 0.033571444 0.75 6.9294251e-39
0.012175239 0.033660978 0.75199997 4.3392903e-39
0.013607621 0.033660971 0.75200003 1.74892e-39
0.015060001 0.033705719 0.75300002 1.1104127e-39
0.016538095 0.03379526 0.755 5.6444302e-40
0.017976191 0.033795252 0.75500005 1.3931359e-39
0.019414287 0.03379526 0.755 2.3118468e-39
0.020880001 0.033840016 0.75600004 1.5767999e-39
0.022379048 0.033929534 0.75800002 8.3959638e-40
0.023822859 0.033929527 0.75800008 3.5989562e-39
0.025366668 0.034063824 0.76100004 6.3680481e-39
0.026886668 0.03415335 0.76299995 8.6725801e-39
0.028414287 0.034242861 0.76500005 1.0878777e-38
0.02987143 0.034242868 0.76500005 1.1156788e-38
0.031410474 0.034332395 0.76700002 1.1430858e-38
0.032871429 0.034332387 0.76700002 1.0972754e-38
-0.018095238 0.035466678 0.76000005 3.7464976e-40
-0.016603809 0.035373345 0.75800002 6.5016185e-40
-0.015120001 0.035280012 0.75600004 8.3563211e-40
-0.013661907 0.035233364 0.755 8.3599645e-40
-0.01222381 0.035233349 0.755 8.3706984e-40
-0.010800001 0.035280012 0.75600004 8.3850197e-40
-0.0093228566 0.035140015 0.75300002 8.3958517e-40
-0.0078885714 0.035140008 0.75300002 9.3250387e-40
-0.0064542862 0.03514 0.75300008 1.0243422e-39
-0.0050133336 0.035093337 0.75200003 5.6588496e-40
-0.0035809525 0.03509336 0.75199997 1.0061043e-40
-0.0021428571 0.035000011 0.75 2.3882484e-39
-0.00071428571 0.035000026 0.75000006 4.7128778e-39
0.00071428582 0.035000026 0.75 1.0075255e-38
0.0021371427 0.034906685 0.74800003 1.5395269e-38
0.0035619051 0.034906693 0.74800003 1.402313e-38
0.0049866671 0.034906685 0.74800009 1.2632668e-38
0.006411429 0.034906678 0.74800003 1.2362886e-38
0.0078361901 0.03490667 0.74800003 1.1990181e-38
0.0092857145 0.035000019 0.75 1.2546594e-38
0.010714285 0.035000011 0.75000006 1.3001393e-38
0.012175239 0.035093345 0.75199997 7.3875152e-39
0.013607621 0.035093337 0.75200003 1.6671682e-39
0.015060001 0.035140008 0.75300002 9.2279988e-40
0.016538095 0.035233349 0.75500005 1.9567311e-40
0.017976189 0.035233356 0.755 1.5775342e-39
0.019414287 0.035233349 0.75500005 2.9550554e-39
0.020879999 0.035280012 0.75600004 1.8530182e-39
0.022379048 0.035373338 0.75800002 7.4883708e-40
0.023822859 0.035373338 0.75800002 3.5939396e-39
0.025366666 0.035513334 0.76100004 6.4580928e-39
0.026886668 0.035606675 0.76299995 8.7683617e-39
0.028414289 0.035700008 0.76500005 1.0972049e-38
0.029949525 0.035793342 0.76700002 1.0880565e-38
0.031410478 0.035793334 0.76700002 1.0696173e-38
0.032871429 0.035793349 0.76700002 1.0511782e-38
-0.024262859 0.037497133 0.77200001 1.1986483e-39
-0.022792382 0.037497148 0.77200007 9.2349633e-40
-0.021321906 0.037497155 0.77200001 6.4871291e-40
-0.019619999 0.037060007 0.76300001 5.5795921e-40
-0.018119048 0.036962859 0.76100004 4.6720412e-40
-0.016603811 0.036817148 0.75800002 7.4343228e-40
-0.015160001 0.036817148 0.75800002 1.0210996e-39
-0.013716192 0.036817156 0.75800002 1.0214653e-39
-0.012240001 0.036720008 0.7560001 1.0221828e-39
-0.010800001 0.036720015 0.75600004 9.307046e-40
-0.0093476176 0.036671445 0.75500005 9.3106474e-40
-0.0079095233 0.036671452 0.755 9.317836e-40
-0.0064542862 0.036574304 0.75300002 9.3214374e-40
-0.00502 0.036574282 0.75300002 5.608557e-40
-0.0035857146 0.036574297 0.75300008 9.7028708e-41
-0.0021428571 0.036428586 0.75000006 4.7085478e-39
-0.00071428576 0.036428608 0.75 9.3237033e-39
0.00071428576 0.036428593 0.75000006 1.052839e-38
0.0021428573 0.036428593 0.75 1.1815871e-38
0.0035714291 0.036428586 0.75000006 9.0389118e-39
0.0050000004 0.036428593 0.75 6.3552178e-39
0.0064285719 0.036428586 0.75000006 6.179062e-39
0.007857142 0.036428593 0.75 6.0890622e-39
0.0092857145 0.036428586 0.75000006 9.6010931e-39
0.010714285 0.036428593 0.75 1.3110869e-38
0.012175239 0.036525726 0.75199997 8.4006512e-39
0.013625716 0.036574289 0.75300002 3.6811326e-39
0.015060001 0.036574282 0.75300002 1.9351455e-39
0.016538095 0.036671437 0.755 2.8859181e-40
0.017976189 0.036671445 0.75500005 1.3931555e-39
0.019414285 0.036671452 0.755 2.4958807e-39
0.020879999 0.036720015 0.75600004 1.4849532e-39
0.02232 0.036720008 0.75600004 5.6516609e-40
0.023822859 0.036817141 0.75800002 3.5986087e-39
0.025366668 0.036962867 0.76100004 6.735037e-39
0.026816193 0.036962867 0.76100004 8.8573273e-39
0.028340004 0.037060015 0.76299995 1.0973125e-38
0.02987143 0.037157156 0.76500005 1.078909e-38
0.031451426 0.037302867 0.76800001 1.0604696e-38
0.032914285 0.037302867 0.76800001 1.0513572e-38
0.034377143 0.037302859 0.76800001 1.0513941e-38
0.035839997 0.037302874 0.76799995 1.0606145e-38
-0.025733335 0.038967621 0.77200001 2.0244461e-39
-0.024200002 0.038866676 0.77000004 1.1986427e-39
-0.022674287 0.038765721 0.76800001 1.0149689e-39
-0.021128573 0.038614292 0.76499999 8.323797e-40
-0.019671427 0.038614303 0.76500005 7.4198473e-40
-0.018119048 0.038412388 0.76100004 5.5903681e-40
-0.01664762 0.038361926 0.75999999 8.3526637e-40
-0.015160002 0.038260955 0.75800002 1.1125735e-39
-0.01371619 0.038260959 0.75800002 1.1143756e-39
-0.012272381 0.038260967 0.75800002 1.1143728e-39
-0.010799999 0.038160011 0.75600004 1.0225359e-39
-0.0093476176 0.038109548 0.755 9.3106194e-40
-0.0079095233 0.038109541 0.75500005 9.3106614e-40
-0.0064542862 0.038008578 0.75300002 8.3815305e-40
-0.0050200005 0.038008574 0.75300002 4.6399514e-40
-0.0035857148 0.038008593 0.75300002 1.0636976e-40
-0.0021428573 0.037857164 0.75 7.0252725e-39
-0.00071428571 0.037857171 0.75000006 1.3830803e-38
0.00071428576 0.037857171 0.75 1.0990021e-38
0.0021428568 0.03785716 0.75000006 8.1176309e-39
0.0035714288 0.037857167 0.75 4.1453674e-39
0.0050000004 0.03785716 0.75000006 1.010112e-40
0.0064285719 0.037857167 0.75 9.2394614e-41
0.007857142 0.03785716 0.75000006 1.1037187e-40
0.0093104756 0.037958112 0.75199997 6.6576377e-39
0.010742857 0.037958104 0.75200003 1.3188333e-38
0.012191431 0.038008574 0.75300008 9.4234085e-39
0.013625716 0.038008582 0.75300002 5.6200827e-39
0.015100002 0.038109533 0.75500005 3.0314234e-39
0.016538095 0.038109556 0.755 3.7790637e-40
0.017976189 0.038109548 0.755 1.2098334e-39
0.019439999 0.038160015 0.75600004 1.9448663e-39
0.020879999 0.038160022 0.75600004 1.2098138e-39
0.022379046 0.038260963 0.75800002 3.8113917e-40
0.023917144 0.03841237 0.7610001 3.6836283e-39
0.025366668 0.038412388 0.76100004 6.9172745e-39
0.026816193 0.038412385 0.76100004 8.9531131e-39
0.028414289 0.038614295 0.76499999 1.097349e-38
0.029988576 0.038765728 0.76800001 1.0697978e-38
0.031451426 0.038765725 0.76800001 1.0422471e-38
0.033000004 0.038866669 0.77000004 1.0606861e-38
0.034466669 0.038866665 0.77000004 1.0698694e-38
-0.028860005 0.040700007 0.77700001 5.7226493e-39
-0.027203813 0.040438101 0.77200001 3.7854761e-39
-0.025733337 0.040438112 0.77200001 2.4879213e-39
-0.024137147 0.040228583 0.76800001 1.2904726e-39
-0.022674287 0.040228583 0.76799995 9.2348792e-40
-0.021183813 0.040176202 0.76700002 6.487045e-40
-0.019671429 0.040071439 0.76499999 6.497863e-40
-0.018166667 0.03996668 0.76300001 6.5122824e-40
-0.016669523 0.03986191 0.76100004 9.2781653e-40
-0.015200002 0.03980954 0.75999999 1.2044076e-39
-0.013716191 0.039704766 0.75800008 1.2062083e-39
-0.012304763 0.03980954 0.75999999 1.2058468e-39
-0.010828572 0.03970477 0.75800002 1.1140085e-39
-0.0093600005 0.039600007 0.75600004 9.307018e-40
-0.0079095243 0.039547637 0.755 8.3994671e-40
-0.0064714295 0.039547633 0.75500005 7.4918601e-40
-0.0050333338 0.039547637 0.755 3.7394911e-40
-0.0035952383 0.03954763 0.75500005 9.3826741e-41
-0.0021485714 0.039390493 0.75199997 7.2050269e-39
-0.00071428576 0.039285727 0.75 1.4208895e-38
0.00071428576 0.039285723 0.75000006 1.0516078e-38
0.0021428571 0.039285742 0.75 6.8046044e-39
0.0035714291 0.039285738 0.75000006 3.4045093e-39
0.0050000004 0.039285738 0.75 9.664195e-41
0.0064285719 0.039285734 0.75000006 9.3416161e-41
0.0078780949 0.039390489 0.75200003 9.2380601e-41
0.0093104756 0.039390497 0.75199997 6.4645836e-39
0.010757143 0.039442856 0.75300002 1.2816664e-38
0.012223811 0.039547637 0.755 8.581116e-39
0.013661907 0.039547633 0.75500005 4.2321484e-39
0.015100001 0.039547637 0.755 2.2092003e-39
0.016559999 0.0396 0.75600004 2.874974e-40
0.018000001 0.039600022 0.75600004 1.0254352e-39
0.019440001 0.039600015 0.75600004 1.8533882e-39
0.020880001 0.039600011 0.75600004 1.2094621e-39
0.022379048 0.039704766 0.75800002 6.5772606e-40
0.023917144 0.03986191 0.7610001 3.600401e-39
0.025366668 0.039861914 0.76100004 6.4609682e-39
0.02688667 0.03996668 0.76300001 8.1212168e-39
0.028488571 0.04017619 0.76700002 9.78035e-39
0.030066669 0.040333346 0.76999998 9.5019695e-39
0.031533334 0.040333338 0.77000004 9.3204579e-39
0.033000004 0.040333331 0.77000004 9.5016233e-39
0.034466669 0.040333342 0.77000004 9.5966734e-39
-0.030183813 0.041962873 0.773 7.1948871e-39
-0.028711433 0.041962866 0.773 6.0006753e-39
-0.027203813 0.041908581 0.77200001 4.7963854e-39
-0.025666669 0.041800018 0.77000004 3.0349841e-39
-0.024137145 0.041691434 0.76799995 1.2904642e-39
-0.022674287 0.041691441 0.76800001 8.3092515e-40
-0.021183811 0.041637156 0.76700002 3.7319381e-40
-0.019671429 0.041528594 0.76499999 5.5759488e-40
-0.018166669 0.04142002 0.76299995 6.5122964e-40
-0.016669525 0.041311447 0.76100004 1.0196548e-39
-0.015220002 0.041311439 0.76100004 1.2976809e-39
-0.013752382 0.041257162 0.75999999 1.2998417e-39
-0.012304762 0.041257158 0.76000005 1.2987641e-39
-0.010828571 0.041148573 0.75800008 1.1136567e-39
-0.0093847625 0.041148577 0.75800002 9.3142627e-40
-0.0079200007 0.041040011 0.75600004 7.4883568e-40
-0.0064800004 0.041040018 0.75600004 5.6300669e-40
-0.0050399997 0.041040003 0.75600004 3.7287151e-40
-0.0035952383 0.040985733 0.755 1.0745577e-40
-0.0021514285 0.040877149 0.75300002 7.4001717e-39
-0.00071619055 0.040822867 0.75200003 1.4567984e-38
0.00071428576 0.040714316 0.75 1.0061211e-38
0.0021485714 0.040822867 0.75200003 5.4392661e-39
0.0035809525 0.040822875 0.75199997 2.7555525e-39
0.0050133336 0.040822867 0.75200003 9.3400747e-41
0.0064285714 0.040714309 0.75 9.2327352e-41
0.0078780949 0.04082286 0.75199997 1.0528236e-40
0.0093228575 0.040877152 0.75300002 6.2920235e-39
0.010785714 0.040985737 0.75500005 1.2448226e-38
0.012223811 0.04098573 0.75500005 7.6677539e-39
0.013661907 0.040985737 0.755 2.861422e-39
0.015120002 0.041040022 0.75600004 1.4698654e-39
0.016559999 0.041040014 0.75600004 1.0382921e-40
0.01804762 0.041148569 0.75800002 9.3431015e-40
0.01949143 0.041148566 0.75800008 1.6689927e-39
0.020935239 0.041148573 0.75800002 1.3005731e-39
0.022438096 0.041257158 0.75999999 9.3358287e-40
0.023917144 0.041311432 0.7610001 3.5067634e-39
0.025433335 0.041420013 0.76300001 5.9967391e-39
0.026957145 0.041528586 0.76500005 7.2896261e-39
0.028488573 0.041637149 0.76700002 8.4874322e-39
0.030066671 0.041800007 0.76999998 8.392008e-39
0.031533334 0.041800015 0.77000004 8.2101376e-39
0.033000004 0.041800007 0.77000004 8.3902283e-39
0.034466673 0.0418 0.77000004 8.4856497e-39
-0.031738095 0.043547619 0.77500004 6.4584011e-39
-0.030183811 0.043435253 0.77300006 7.6547862e-39
-0.028785719 0.043547623 0.77500004 6.8268445e-39
-0.027203813 0.043379061 0.77200001 5.9970642e-39
-0.025666669 0.043266676 0.77000004 3.4094951e-39
-0.024200002 0.043266669 0.77000004 9.234739e-40
-0.022674287 0.04315431 0.76799995 6.4796181e-40
-0.021183811 0.0430981 0.76700002 4.650265e-40
-0.019671427 0.042985737 0.76499999 5.5831374e-40
-0.018166669 0.042873353 0.76300001 7.4342667e-40
-0.016669525 0.042760972 0.76100004 9.2925706e-40
-0.015200003 0.042704768 0.76000005 1.2076418e-39
-0.013752383 0.042704783 0.75999999 1.2998445e-39
-0.012272383 0.042592388 0.75800008 1.2994871e-39
-0.010828571 0.042592395 0.75800002 9.2963401e-40
-0.0093847625 0.04259238 0.75800002 5.6552623e-40
-0.0079200007 0.042480011 0.75600004 4.7118381e-40
-0.0064800004 0.042479999 0.75600004 3.8113216e-40
-0.0050399997 0.042480018 0.75600004 1.8919911e-40
-0.0036000002 0.042480014 0.75600004 9.310227e-41
-0.0021571431 0.042423829 0.755 6.1862156e-39
-0.00071904768 0.042423818 0.75500005 1.2274967e-38
0.00071619061 0.042255245 0.75199997 1.08863e-38
0.0021571429 0.042423818 0.755 9.4825363e-39
0.0035952383 0.042423829 0.75500005 5.7918538e-39
0.0050200005 0.04231143 0.75300002 2.2045298e-39
0.0064542862 0.042311441 0.75300002 3.4956077e-39
0.0078885714 0.042311426 0.75300008 4.7802719e-39
0.0093476195 0.042423818 0.75500005 9.4101144e-39
0.010785716 0.042423841 0.755 1.4016224e-38
0.012240001 0.042480003 0.75600004 1.0969137e-38
0.013661907 0.042423822 0.75500005 7.8101272e-39
0.015120002 0.042480011 0.7560001 6.6327548e-39
0.016559999 0.042480014 0.75600004 5.4374654e-39
0.018047618 0.042592376 0.75800008 3.3238197e-39
0.019491429 0.04259238 0.75800002 1.210167e-39
0.020935239 0.042592391 0.75800002 1.025417e-39
0.022438096 0.042704776 0.76000005 8.3994531e-40
0.023917142 0.042760957 0.76100004 3.6889897e-39
0.025433335 0.042873356 0.76299995 6.5462877e-39
0.026957147 0.042985726 0.76500005 9.3131851e-39
0.028488573 0.043098107 0.76700002 1.2069328e-38
0.030066671 0.043266684 0.76999998 1.1702346e-38
0.031533334 0.043266676 0.77000004 1.1329631e-38
0.033000004 0.043266665 0.77000004 1.1701644e-38
0.034466669 0.043266661 0.77000004 1.1975371e-38
-0.031738095 0.045023821 0.77500004 6.7342663e-39
-0.030261908 0.04502381 0.77500004 8.021415e-39
-0.028785719 0.045023806 0.77500004 7.5633319e-39
-0.027203813 0.04484953 0.77200001 7.0969447e-39
-0.025666669 0.044733338 0.77000004 3.8665244e-39
-0.024137145 0.044617154 0.76800001 5.5757526e-40
-0.022644766 0.04455905 0.76700002 5.5649766e-40
-0.021183813 0.044559058 0.76700002 4.6574957e-40
-0.019671429 0.044442866 0.76500005 6.5050657e-40
-0.018166667 0.044326678 0.76300001 7.4414273e-40
-0.016669523 0.04421049 0.76100004 9.3033326e-40
-0.015200001 0.044152394 0.75999999 1.1150805e-39
-0.013752383 0.04415239 0.76000005 1.2087096e-39
-0.012304763 0.044152409 0.75999999 1.3005521e-39
-0.010828572 0.044036202 0.75800002 7.3986037e-40
-0.0093847616 0.044036191 0.75800008 1.0526834e-40
-0.0079200007 0.043920007 0.75600004 9.7740568e-41
-0.00648 0.043920003 0.75600004 1.0563548e-40
-0.0050399997 0.043920018 0.75600004 9.3082652e-41
-0.0036000004 0.043920014 0.75600004 1.0674391e-40
-0.0021571431 0.043861918 0.75500005 5.0680425e-39
-0.00071904773 0.043861922 0.755 9.968337e-39
0.00071714295 0.043745715 0.75300008 1.1726494e-38
0.0021571429 0.043861914 0.755 1.3446934e-38
0.0035952383 0.043861926 0.75500005 8.8167331e-39
0.0050333338 0.043861918 0.75500005 4.2454117e-39
0.006471429 0.043861926 0.755 6.8139413e-39
0.0079095233 0.043861922 0.75500005 9.40689e-39
0.0093476195 0.043861926 0.755 1.2551928e-38
0.010799999 0.043920003 0.75600004 1.5582499e-38
0.012240001 0.043919995 0.75600004 1.4198867e-38
0.013680001 0.043920014 0.75600004 1.2811635e-38
0.015120002 0.04392001 0.75600004 1.1813984e-38
0.016559999 0.043920014 0.75600004 1.0778303e-38
0.018047618 0.044036195 0.75800002 5.7136978e-39
0.019491429 0.044036191 0.75800002 6.5987705e-40
0.020935237 0.044036202 0.75800008 7.5135382e-40
0.022467621 0.044210482 0.76100004 7.4667768e-40
0.023917144 0.044210479 0.76100004 3.9551677e-39
0.025366668 0.044210482 0.76100004 7.1019782e-39
0.026886668 0.044326685 0.76300001 1.143978e-38
0.028488573 0.04455905 0.76700002 1.5661342e-38
0.030066669 0.044733357 0.76999998 1.5109969e-38
0.031533334 0.044733353 0.77000004 1.4465327e-38
0.033000004 0.044733342 0.77000004 1.501957e-38
0.034466669 0.044733334 0.77000004 1.5478397e-38
-0.031738095 0.046500001 0.77500004 6.3658467e-39
-0.030261908 0.046500012 0.77500004 7.6533611e-39
-0.028711431 0.04638001 0.773 7.3789532e-39
-0.027203813 0.04632001 0.77200001 7.1948857e-39
-0.025666669 0.046200015 0.77000004 3.7797139e-39
-0.024137145 0.046080008 0.76800001 4.6538944e-40
-0.022644764 0.046019994 0.76700002 5.5758647e-40
-0.021183811 0.046020012 0.76700002 6.5014363e-40
-0.019671427 0.045900013 0.76500005 6.508639e-40
-0.018166669 0.045780011 0.76299995 7.4414273e-40
-0.016669525 0.045660015 0.76100004 7.4522594e-40
-0.015200002 0.045600019 0.75999999 7.4557766e-40
-0.013752382 0.045600016 0.76000005 1.9462466e-39
-0.012304762 0.045600012 0.76000005 3.1472953e-39
-0.010828572 0.045480009 0.75800002 4.3454742e-39
-0.0093847616 0.045480009 0.75800002 5.5379077e-39
-0.0079409527 0.045480002 0.75800002 5.5425768e-39
-0.0064800004 0.045360018 0.75600004 5.5436698e-39
-0.0050400002 0.045360006 0.75600004 5.6376732e-39
-0.0036000002 0.045360014 0.75600004 5.825307e-39
-0.0021571429 0.045300022 0.755 8.127667e-39
-0.00071904768 0.045300011 0.75500005 1.052762e-38
0.00071904768 0.045300018 0.755 1.2280062e-38
0.0021571431 0.045300007 0.75500005 1.4118526e-38
0.0035952386 0.045300014 0.755 1.1991563e-38
0.0050333338 0.045300007 0.75500005 9.9823136e-39
0.006471429 0.045300014 0.75500005 1.1171521e-38
0.0079095233 0.045300022 0.755 1.2471228e-38
0.0093600005 0.045359995 0.75600004 1.3204138e-38
0.0108 0.045360018 0.75600004 1.4032464e-38
0.012240001 0.04536001 0.75600004 1.2276123e-38
0.013680001 0.045360014 0.75600004 1.0535536e-38
0.015120001 0.04536001 0.75600004 8.1291426e-39
0.016559999 0.045360003 0.75600004 5.8220868e-39
0.017999999 0.045360006 0.75600004 3.6036366e-39
0.01949143 0.045479998 0.75800002 1.3009375e-39
0.020935239 0.045480017 0.75800002 9.3359829e-40
0.022438096 0.045600023 0.75999999 6.5484499e-40
0.023917144 0.045660004 0.76100004 3.8715803e-39
0.025433335 0.045780007 0.76300001 7.1095242e-39
0.026957147 0.045900013 0.76499999 1.1530209e-38
0.028488573 0.046020005 0.76700002 1.603696e-38
0.029988576 0.046080012 0.76799995 1.5758938e-38
0.031533334 0.046200011 0.77000004 1.5575261e-38
0.033000004 0.046200018 0.77000004 1.5667807e-38
0.034466669 0.046200007 0.77000004 1.5763234e-38
-0.030261908 0.047976196 0.77500004 7.1941822e-39
-0.02867429 0.047790479 0.77200001 7.2878324e-39
-0.027133334 0.047666676 0.77000004 7.2816975e-39
-0.025666669 0.047666673 0.77000004 3.776128e-39
-0.024137145 0.047542863 0.76800001 2.8314497e-40
-0.022674285 0.04754287 0.76800001 5.5792979e-40
-0.021211429 0.047542874 0.76799995 7.4161199e-40
-0.019671429 0.047357149 0.76500005 7.4234066e-40
-0.018166667 0.047233339 0.76300001 7.437854e-40
-0.016669525 0.047109537 0.76100004 5.6048295e-40
-0.015200003 0.047047623 0.76000005 2.8712465e-40
-0.013752383 0.047047637 0.75999999 2.6830956e-39
-0.012304762 0.047047634 0.76000005 4.9972938e-39
-0.010828571 0.046923812 0.75800008 8.047971e-39
-0.0093847625 0.046923816 0.75800002 1.098455e-38
-0.0079409508 0.046923812 0.75800008 1.0991003e-38
-0.0064971433 0.046923816 0.75800002 1.0989581e-38
-0.0050533335 0.046923824 0.75800002 1.1272635e-38
-0.0036000004 0.04680001 0.75600004 1.1450574e-38
-0.0021571429 0.046738125 0.755 1.1273012e-38
-0.00071904762 0.046738118 0.755 1.099753e-38
0.00071904768 0.046738107 0.75500005 1.283857e-38
0.0021571431 0.04673811 0.755 1.467598e-38
0.0035952386 0.046738122 0.75500005 1.5140521e-38
0.0050333333 0.046738122 0.755 1.5596474e-38
0.006471429 0.046738118 0.75500005 1.5510383e-38
0.0079095243 0.046738114 0.75500005 1.5414954e-38
0.0093600005 0.04680001 0.75600004 1.3944146e-38
0.0108 0.046800017 0.75600004 1.2461526e-38
0.01224 0.046800006 0.75600004 1.0336775e-38
0.013680001 0.046800002 0.75600004 8.1183512e-39
0.015120001 0.04680001 0.75600004 4.5284936e-39
