# .PCD v0.7 - Point Cloud Data file format
VERSION 0.7
FIELDS x y z rgb
SIZE 4 4 4 4
TYPE F F F F
COUNT 1 1 1 1
WIDTH 969
HEIGHT 1
VIEWPOINT 0 0 0 1 0 0 0
POINTS 969
DATA ascii
0.016275246 0.0049533173 0.74300003 8.7704945e-39
0.017690485 0.0049533173 0.74300003 7.8457328e-39
0.019105695 0.0049533248 0.74300003 6.8154015e-39
0.020520933 0.0049533173 0.74300003 3.6836157e-39
0.021906644 0.0049466416 0.7420001 4.7153833e-40
0.023351409 0.0049533173 0.74300009 9.3287942e-40
0.024766667 0.0049533322 0.74300003 1.3935086e-39
0.026181905 0.0049533322 0.74300003 1.6704669e-39
0.0276714 0.0049666539 0.74500012 1.8551959e-39
0.029168563 0.0049799904 0.7470001 1.7611897e-39
0.030632354 0.0049866438 0.74800009 1.6657473e-39
0.032142825 0.0049999952 0.75000006 2.5819303e-39
0.033660941 0.0050133318 0.75200003 3.5963751e-39
0.035093326 0.0050133243 0.75200003 8.8549816e-39
0.036671385 0.0050333217 0.75500011 1.401571e-38
0.038109507 0.0050333217 0.75500005 1.3456809e-38
0.039599996 0.0050399899 0.75600004 1.2816454e-38
0.04104 0.0050399825 0.7560001 1.2347212e-38
0.042480007 0.0050399825 0.7560001 1.198526e-38
0.043919981 0.005039975 0.7560001 1.0870686e-38
0.045360006 0.0050399899 0.75600004 9.7650731e-39
-0.01804764 0.0064971223 0.75800002 8.3584763e-39
-0.016560005 0.006479986 0.7560001 8.633624e-39
-0.015119995 0.0064799935 0.75600004 8.8176538e-39
-0.013661941 0.0064714178 0.75500011 8.9087718e-39
-0.012191442 0.0064542815 0.75300002 9.0006073e-39
-0.010757166 0.0064542815 0.75300008 9.3675891e-39
-0.0093104839 0.0064457059 0.75200003 9.6434782e-39
-0.0078780912 0.0064457133 0.75200003 9.4594723e-39
-0.0064285966 0.0064285547 0.75000012 9.2941359e-39
-0.0049866941 0.0064114109 0.74800009 1.1789878e-38
-0.0035619333 0.0064114109 0.74800003 1.4284583e-38
-0.0021285971 0.0063856915 0.74500012 1.5031185e-38
-0.00070763828 0.0063685626 0.74300009 1.5677982e-38
0.00070759951 0.0063685626 0.74300009 1.5586867e-38
0.0021228727 0.00636857 0.74300003 1.5401764e-38
0.0035380817 0.00636857 0.74300003 1.558472e-38
0.0049533197 0.00636857 0.74300003 1.5677633e-38
0.0063685575 0.0063685775 0.74300003 1.6044619e-38
0.0077733044 0.0063599795 0.74200004 1.6320828e-38
0.0091866376 0.0063599795 0.7420001 1.4025643e-38
0.010599971 0.0063599795 0.7420001 1.1701376e-38
0.012013304 0.0063599795 0.7420001 5.8780337e-39
0.013426637 0.0063599795 0.7420001 9.7042721e-41
0.014860006 0.0063685626 0.74300003 4.6109544e-39
0.016275246 0.00636857 0.74300003 9.0399025e-39
0.017690483 0.0063685551 0.74300009 7.7581909e-39
0.019105693 0.0063685626 0.74300003 6.4498475e-39
0.020520931 0.0063685626 0.74300009 3.4023695e-39
0.021936169 0.0063685626 0.74300009 3.7862384e-40
0.023351427 0.00636857 0.74300003 1.0254296e-39
0.024766665 0.00636857 0.74300003 1.5775286e-39
0.026181903 0.0063685551 0.74300003 1.7626443e-39
0.027671419 0.0063857064 0.74500012 1.9466628e-39
0.029168546 0.0064028576 0.74700004 1.4867581e-39
0.030632377 0.0064114034 0.74800003 1.0228946e-39
0.032142825 0.0064285621 0.75000012 3.1282741e-39
0.033571374 0.0064285472 0.75000012 5.2612942e-39
0.035093345 0.0064456984 0.75200003 1.1536958e-38
0.036525719 0.0064457133 0.75200003 1.769281e-38
0.038109504 0.0064714178 0.75500011 1.7604564e-38
0.039547578 0.0064714178 0.75500011 1.7417298e-38
0.041040011 0.006479986 0.7560001 1.7420877e-38
0.042479984 0.006479986 0.7560001 1.7414415e-38
0.044036172 0.0064971298 0.75800008 1.7047426e-38
-0.018047638 0.0079409331 0.75800002 8.3584805e-39
-0.016560003 0.0079199746 0.75600004 8.5425046e-39
-0.015120001 0.0079199821 0.75600004 8.7265385e-39
-0.01368001 0.007919997 0.7560001 8.7254665e-39
-0.012223835 0.0079095215 0.75500011 8.7247407e-39
-0.010757153 0.007888563 0.75300002 9.3675807e-39
-0.009310483 0.0078780949 0.75200003 1.0102321e-38
-0.0078781107 0.00787808 0.75200009 1.0948268e-38
-0.0064286031 0.007857129 0.75000012 1.1793879e-38
-0.0050000185 0.0078571439 0.75000006 1.3091491e-38
-0.0035714691 0.0078571364 0.75000012 1.4485903e-38
-0.0021285915 0.0078047588 0.74500012 1.4851111e-38
-0.00070954469 0.0078047663 0.74500012 1.5310289e-38
0.00070761814 0.0077838153 0.74300003 1.5402124e-38
0.0021228429 0.0077837929 0.74300003 1.5493239e-38
0.0035380807 0.0077837929 0.74300003 1.5861653e-38
0.0049533187 0.0077838004 0.74300003 1.6230439e-38
0.006368557 0.0077838004 0.74300003 1.5127704e-38
0.0077837948 0.0077837929 0.74300009 1.41164e-38
0.0091990316 0.0077837929 0.74300009 1.0055154e-38
0.010614291 0.0077838078 0.74300003 5.8984814e-39
0.012029529 0.0077838078 0.74300003 3.0364722e-39
0.013426647 0.0077733099 0.7420001 2.7603618e-40
0.01483998 0.0077733099 0.7420001 5.1695133e-39
0.016275216 0.0077838004 0.74300003 1.0152333e-38
0.017690454 0.0077838004 0.74300009 7.569485e-39
0.019105691 0.0077838078 0.74300009 5.0676446e-39
0.02052095 0.0077838004 0.74300003 3.0414833e-39
0.021936188 0.0077838004 0.74300003 1.0236233e-39
0.023351427 0.0077837929 0.74300003 1.208739e-39
0.024766665 0.0077838004 0.74300003 1.486042e-39
0.026252365 0.0078047663 0.74500006 1.670792e-39
0.027671412 0.0078047588 0.74500006 1.9466544e-39
0.029168539 0.007825695 0.7470001 1.4863965e-39
0.030632351 0.0078361779 0.74800003 9.3356606e-40
0.032142818 0.0078571215 0.75000012 3.043965e-39
0.033660971 0.0078780949 0.75200003 5.0787428e-39
0.03509333 0.0078780875 0.75200003 1.1071057e-38
0.036720004 0.0079199821 0.75600004 1.7053281e-38
0.038160011 0.0079199821 0.7560001 1.6960372e-38
0.039704759 0.007940948 0.75800002 1.6776704e-38
-0.017999999 0.0093599856 0.75600004 8.2670135e-39
-0.016559994 0.009359993 0.75600004 8.4510475e-39
-0.015120005 0.0093599856 0.7560001 8.6339912e-39
-0.013661937 0.0093476027 0.75500011 8.5410697e-39
-0.012191452 0.0093228444 0.75300008 8.3577869e-39
-0.010757174 0.009322837 0.75300008 9.4594849e-39
-0.0093104811 0.009310469 0.75200003 1.0582739e-38
-0.007878108 0.009310469 0.75200003 1.2437449e-38
-0.0064286068 0.0092857033 0.75000012 1.4286036e-38
-0.0050000232 0.0092857033 0.75000006 1.4479791e-38
-0.0035714738 0.0092856959 0.75000012 1.4575225e-38
-0.0021343089 0.0092485547 0.7470001 1.4760342e-38
-0.0007095391 0.0092237964 0.74500006 1.4851107e-38
0.00070950779 0.0092238039 0.74500006 1.5217737e-38
0.002122842 0.0091990456 0.74300003 1.5586152e-38
0.0035380798 0.0091990307 0.74300003 1.6138599e-38
0.0049533183 0.0091990381 0.74300009 1.6689233e-38
0.0063685551 0.0091990381 0.74300009 1.430221e-38
0.0077837929 0.0091990307 0.74300009 1.1891126e-38
0.0091990521 0.0091990456 0.74300003 5.9960342e-39
0.01061429 0.0091990456 0.74300003 1.0456209e-40
0.012029528 0.009199053 0.74300003 2.7674384e-40
0.013444766 0.0091990381 0.74300003 3.7719732e-40
0.014860003 0.0091990307 0.74300009 5.8224049e-39
0.016275214 0.0091990307 0.74300009 1.1250037e-38
0.017690452 0.0091990307 0.74300009 7.4826423e-39
0.01910571 0.0091990381 0.74300003 3.5996933e-39
0.020520948 0.0091990456 0.74300003 2.5808653e-39
0.021936188 0.0091990381 0.74300003 1.573916e-39
0.023351423 0.0091990456 0.74300003 1.4835281e-39
0.024833336 0.0092237964 0.74500006 1.3020123e-39
0.026252383 0.0092237964 0.74500006 1.6707906e-39
0.02767143 0.0092238039 0.74500006 1.9466544e-39
0.029207613 0.0092609376 0.74800003 1.3949212e-39
0.030632373 0.009260945 0.74800003 8.3958097e-40
0.032142811 0.0092856884 0.75000012 2.8520459e-39
0.033705693 0.0093228444 0.75300008 4.8947131e-39
0.035233304 0.0093476027 0.75500011 1.0706224e-38
0.036719985 0.0093599781 0.7560001 1.6405761e-38
0.038260944 0.0093847513 0.75800002 1.6314638e-38
0.039704759 0.0093847513 0.75800002 1.6130969e-38
-0.018000005 0.010799982 0.75600004 8.1751893e-39
-0.016560014 0.010799982 0.7560001 8.4499895e-39
-0.015120011 0.010799989 0.7560001 8.7247561e-39
-0.013661953 0.010785699 0.75500011 9.0967378e-39
-0.01219144 0.010757133 0.75300002 9.4609198e-39
-0.010757163 0.010757133 0.75300008 1.0493778e-38
-0.0093104783 0.010742851 0.75200003 1.1525205e-38
-0.007878108 0.010742851 0.75200003 1.3093294e-38
-0.0064457133 0.010742858 0.75200003 1.4667413e-38
-0.0050000278 0.01071427 0.75000012 1.4665261e-38
-0.0035714644 0.01071427 0.75000012 1.4758177e-38
-0.0021342959 0.010671407 0.7470001 1.4850015e-38
-0.00070953445 0.010642849 0.74500006 1.5034056e-38
0.00070951245 0.010642856 0.74500006 1.5034425e-38
0.0021285743 0.010642841 0.74500006 1.503586e-38
0.003538077 0.010614276 0.74300009 1.356362e-38
0.0049533155 0.010614276 0.74300009 1.2187835e-38
0.0063685533 0.010614268 0.74300009 9.1321065e-39
0.0077838125 0.010614276 0.74300003 5.9859757e-39
0.0091990503 0.010614268 0.74300003 3.3173163e-39
0.010614288 0.010614276 0.74300003 5.522279e-40
0.012029525 0.010614276 0.74300009 6.4408442e-40
0.013444764 0.010614276 0.74300009 6.4409283e-40
0.014859973 0.010614276 0.74300009 6.1897441e-39
0.016275212 0.010614268 0.74300009 1.1716015e-38
0.01769047 0.010614283 0.74300003 6.8286423e-39
0.01910571 0.010614276 0.74300003 2.0226875e-39
0.020520946 0.010614283 0.74300003 1.5703091e-39
0.021936184 0.010614276 0.74300003 1.1161707e-39
0.023351423 0.010614283 0.74300009 1.208739e-39
0.024833329 0.010642849 0.74500006 1.3934876e-39
0.026252374 0.010642849 0.74500006 1.6704304e-39
0.027671423 0.010642849 0.74500006 1.9470131e-39
0.029207587 0.010685697 0.74800009 1.3030871e-39
0.030632347 0.010685705 0.74800003 7.491818e-40
0.032142807 0.01071427 0.75000012 3.1343712e-39
0.033705693 0.010757126 0.75300002 5.5339757e-39
0.035233319 0.010785706 0.75500011 1.1068183e-38
0.036719993 0.010799982 0.7560001 1.6497586e-38
0.038160019 0.010799982 0.75600004 1.6313904e-38
0.039704762 0.010828555 0.75800002 1.6128801e-38
-0.018047633 0.012272365 0.75800002 8.0837223e-39
-0.016560005 0.012239978 0.7560001 8.4492762e-39
-0.015119995 0.012239985 0.75600004 8.8277655e-39
-0.013661933 0.012223795 0.75500011 9.6600528e-39
-0.012223848 0.012223795 0.75500011 1.0500253e-38
-0.010757165 0.012191422 0.75300002 1.1529866e-38
-0.0093104634 0.01217524 0.75200003 1.2452206e-38
-0.0078781052 0.012175232 0.75200003 1.3742604e-38
-0.0064457124 0.01217524 0.75199997 1.5031172e-38
-0.0050000334 0.012142837 0.75000012 1.4938979e-38
-0.0035714495 0.012142837 0.75000006 1.4847866e-38
-0.0021343182 0.012094259 0.7470001 1.5030823e-38
-0.00071144832 0.012094267 0.7470001 1.5214485e-38
0.00071140862 0.012094267 0.7470001 1.4850361e-38
0.0021285454 0.012061901 0.74500012 1.4382218e-38
0.0035380761 0.012029499 0.74300009 1.1075067e-38
0.004953335 0.012029514 0.74300003 7.6555808e-39
0.0063685728 0.012029514 0.74300003 3.8691112e-39
0.0077838106 0.012029521 0.74300003 9.9531427e-41
0.0091990484 0.012029506 0.74300003 5.5187337e-40
0.010614286 0.012029514 0.74300009 1.0114166e-39
0.012029524 0.012029514 0.74300009 1.0114236e-39
0.013444735 0.012029514 0.74300009 9.3754715e-40
0.014859973 0.012029514 0.74300009 6.5757682e-39
0.016275233 0.012029529 0.74300003 1.2076558e-38
0.017690469 0.012029521 0.74300003 6.2762014e-39
0.019105706 0.012029514 0.74300003 4.7154254e-40
0.020520946 0.012029506 0.74300003 5.6121583e-40
0.021936184 0.012029506 0.74300009 5.6445143e-40
0.023351422 0.012029506 0.74300009 1.025431e-39
0.024833299 0.012061886 0.74500012 1.4853259e-39
0.026322842 0.012094274 0.7470001 1.6697144e-39
0.027745698 0.012094267 0.7470001 1.8548189e-39
0.029207608 0.012110457 0.74800003 1.3041619e-39
0.030632351 0.012110457 0.74800009 6.5591418e-40
0.032142829 0.01214283 0.75000012 3.4023513e-39
0.033705689 0.012191422 0.75300002 6.1825611e-39
0.035233319 0.012223803 0.75500011 1.1443405e-38
0.036719993 0.012239993 0.75600004 1.6588707e-38
0.038260952 0.012272358 0.75800002 1.6405758e-38
0.039704762 0.012272373 0.75800002 1.6129171e-38
-0.019491466 0.013716169 0.75800008 8.2752966e-39
-0.018047653 0.013716154 0.75800008 9.0967924e-39
-0.016603818 0.013716176 0.75800002 9.5706765e-39
-0.015120001 0.013679989 0.75600004 1.0130019e-38
-0.01366195 0.013661906 0.75500011 1.0599677e-38
-0.012223829 0.013661906 0.75500005 1.1075029e-38
-0.010757152 0.013625711 0.75300002 1.153388e-38
-0.009310483 0.013607614 0.75200003 1.2000957e-38
-0.0078780893 0.013607621 0.75200003 1.1997016e-38
-0.006445731 0.013607606 0.75200003 1.2092082e-38
-0.0050133374 0.013607614 0.75200003 1.1445289e-38
-0.0035714542 0.013571411 0.75000012 1.0806033e-38
-0.0021343061 0.013517134 0.7470001 9.9694735e-39
-0.00071145018 0.013517126 0.74700004 9.1472294e-39
0.00071142073 0.013517126 0.74700004 8.2134181e-39
0.0021342563 0.013517119 0.7470001 7.2918415e-39
0.0035571123 0.013517119 0.7470001 5.5336996e-39
0.0049533322 0.013444752 0.74300003 3.8576514e-39
0.00636857 0.013444759 0.74300003 2.2077892e-39
0.0077838087 0.013444759 0.74300003 5.5224892e-40
0.0091990475 0.013444759 0.74300009 5.5297479e-40
0.010614285 0.013444752 0.74300009 5.5260906e-40
0.012029524 0.013444759 0.74300009 2.4850935e-39
0.013444753 0.013444759 0.74300003 4.5187854e-39
0.014859991 0.013444744 0.74300003 7.5730709e-39
0.016275231 0.013444752 0.74300003 1.0605055e-38
0.017690469 0.013444752 0.74300003 5.4421542e-39
0.019105706 0.013444752 0.74300003 2.8106824e-40
0.020576177 0.013480932 0.74500012 5.6231165e-40
0.021936182 0.013444744 0.74300009 7.488525e-40
0.023414271 0.013480932 0.74500012 1.0254352e-39
0.024899971 0.013517134 0.7470001 1.393852e-39
0.026322827 0.013517134 0.7470001 1.6704332e-39
0.027745711 0.013517141 0.7470001 1.9470131e-39
0.029207584 0.013535224 0.74800003 1.3949198e-39
0.030714247 0.013571404 0.75000012 8.4066417e-40
0.032228552 0.013607606 0.75200003 3.4116839e-39
0.033705696 0.013625696 0.75300008 6.0035508e-39
0.035233289 0.013661891 0.75500011 9.8750161e-39
0.036720004 0.013679981 0.75600004 1.3834005e-38
0.038160011 0.013679974 0.7560001 1.3831152e-38
0.039704736 0.013716184 0.75800002 1.3924773e-38
-0.019491464 0.015159994 0.75800008 8.8453841e-39
-0.018047649 0.015159979 0.75800008 1.0039966e-38
-0.016603835 0.015159979 0.75800008 1.0698243e-38
-0.015120006 0.015119985 0.7560001 1.1336475e-38
-0.013661929 0.015100002 0.75500011 1.153311e-38
-0.012223844 0.015099995 0.75500011 1.1618143e-38
-0.010757174 0.015059985 0.75300008 1.1621744e-38
-0.0093104802 0.015039995 0.75200003 1.1524888e-38
-0.0078780875 0.015039995 0.75200003 1.033605e-38
-0.0064457143 0.015039988 0.75200003 9.041741e-39
-0.0050133364 0.015040003 0.75200003 7.8518228e-39
-0.0035714589 0.014999986 0.75000012 6.6457547e-39
-0.0021371755 0.014959976 0.74800009 4.893337e-39
-0.00071240013 0.014959984 0.74800009 3.0523041e-39
0.00071141234 0.014939994 0.7470001 1.5639051e-39
0.0021342684 0.014939994 0.7470001 1.0279085e-40
0.0035571235 0.014939979 0.7470001 9.3826741e-41
0.0049799797 0.014939986 0.7470001 9.4164454e-41
0.0063685691 0.014859997 0.74300003 5.5224472e-40
0.0077838069 0.014859989 0.74300009 9.2101883e-40
0.0091990456 0.014859982 0.74300009 5.5546911e-40
0.010614255 0.014859982 0.74300009 9.3786104e-41
0.012029513 0.014859997 0.74300003 4.0412831e-39
0.013444752 0.014859997 0.74300003 8.0207311e-39
0.014859989 0.014859997 0.74300003 8.5929387e-39
0.016319027 0.014899984 0.74500012 9.1252738e-39
0.017738074 0.014899991 0.74500012 4.6055804e-39
0.019105705 0.014859997 0.74300009 1.0384883e-40
0.020576168 0.014899991 0.74500012 5.6553884e-40
0.021995215 0.014899991 0.74500012 9.3323395e-40
0.023477126 0.014939986 0.7470001 1.1169007e-39
0.024899982 0.014939994 0.74700004 1.2101754e-39
0.026322819 0.014939986 0.7470001 1.5789565e-39
0.027782844 0.014959976 0.74800003 1.9470131e-39
0.029207606 0.014959984 0.74800003 1.4878314e-39
0.030714244 0.014999986 0.75000012 9.2998574e-40
0.032228567 0.015039995 0.75200003 3.4005604e-39
0.033705693 0.015059978 0.75300008 5.8152233e-39
0.035233311 0.015099995 0.75500011 8.4024364e-39
0.036671381 0.015099987 0.75500011 1.0977065e-38
0.038109481 0.015099987 0.75500011 1.1343693e-38
-0.01949146 0.01660379 0.75800008 6.3666034e-39
-0.018047648 0.016603783 0.75800008 6.1922678e-39
-0.016603835 0.01660379 0.75800008 6.0010705e-39
-0.015120012 0.016559988 0.7560001 5.8217225e-39
-0.013661946 0.016538084 0.75500011 5.8163597e-39
-0.012223847 0.016538084 0.75500011 5.9056813e-39
-0.010757164 0.016494274 0.75300002 5.8102543e-39
-0.0093228864 0.016494274 0.75300008 5.804153e-39
-0.0078780847 0.016472377 0.75200003 5.1627353e-39
-0.0064457133 0.016472377 0.75200003 4.6016708e-39
-0.0050133197 0.016472384 0.75200003 3.9631187e-39
-0.0035809621 0.016472377 0.75200003 3.3984501e-39
-0.0021371671 0.016384758 0.74800003 2.57908e-39
-0.00071239268 0.016384758 0.74800003 1.7468152e-39
0.00071236136 0.016384743 0.74800009 1.1979476e-39
0.0021342805 0.016362853 0.7470001 6.4442493e-40
0.0035571151 0.016362846 0.7470001 5.5510056e-40
0.0049799713 0.016362853 0.7470001 4.6399234e-40
0.0064028278 0.016362846 0.7470001 4.6364202e-40
0.0078047356 0.016319044 0.74500012 5.5474744e-40
0.0092485407 0.016362853 0.7470001 4.61463e-40
0.010614274 0.016275227 0.74300003 3.6785346e-40
0.012029513 0.016275235 0.74300003 5.2616992e-39
0.013480923 0.016319044 0.74500012 1.0153754e-38
0.014899971 0.016319036 0.74500012 7.4794235e-39
0.016319018 0.016319029 0.74500012 4.7993099e-39
0.017738065 0.016319036 0.74500012 2.5873407e-39
0.019157114 0.016319029 0.74500012 3.8078324e-40
0.02057616 0.016319036 0.74500012 7.4992449e-40
0.021995205 0.016319036 0.74500012 1.0257799e-39
0.023477118 0.016362838 0.7470001 1.2094411e-39
0.024899974 0.016362846 0.7470001 1.3938408e-39
0.026358057 0.016384743 0.74800009 1.670792e-39
0.02778282 0.016384743 0.74800003 1.9470131e-39
0.029207608 0.016384751 0.74800003 1.3938436e-39
0.030714236 0.016428553 0.75000012 9.2890814e-40
0.032228556 0.016472369 0.75200003 3.4131118e-39
0.033705693 0.016494274 0.75300002 6.0049997e-39
0.035233308 0.016538076 0.75500011 8.306313e-39
0.0366714 0.016538091 0.75500005 1.0603628e-38
0.0381095 0.016538091 0.75500011 1.0327755e-38
-0.01949146 0.018047601 0.75800008 3.8780388e-39
-0.018047646 0.018047594 0.75800008 2.3132523e-39
-0.016603833 0.018047594 0.75800008 1.2923055e-39
-0.015119996 0.017999984 0.75600004 1.9638637e-40
-0.013680005 0.017999984 0.75600004 1.877852e-40
-0.012223841 0.01797618 0.75500011 1.0061323e-40
-0.010757151 0.017928571 0.75300002 9.2360983e-41
-0.0093228882 0.017928556 0.75300002 9.7027307e-41
-0.0078885965 0.017928556 0.75300008 9.2366588e-41
-0.0064457115 0.017904758 0.75200003 9.5233645e-41
-0.0050133392 0.017904751 0.75200003 9.2362384e-41
-0.0035809453 0.017904751 0.75200003 9.4507772e-41
-0.0021371644 0.017809503 0.74800009 2.7817316e-40
-0.00071240385 0.017809503 0.74800009 3.7287431e-40
0.00071235764 0.017809518 0.74800003 7.4523575e-40
0.0021371173 0.01780951 0.74800003 1.1089918e-39
0.0035571281 0.017785706 0.7470001 9.2675715e-40
0.0049799844 0.017785706 0.7470001 7.4201556e-40
0.0063685658 0.017690465 0.74300009 4.6687341e-40
0.0077838032 0.017690465 0.74300009 9.5219632e-41
0.0091990344 0.01769048 0.74300003 3.6784925e-40
0.010614272 0.01769048 0.74300003 6.6419585e-40
0.012029511 0.017690457 0.74300003 6.4839467e-39
0.013480943 0.017738082 0.74500012 1.2169477e-38
0.01489999 0.017738082 0.74500012 6.2790727e-39
0.016319036 0.017738089 0.74500012 3.8652856e-40
0.017785678 0.017785691 0.7470001 5.6337803e-40
0.019157132 0.017738089 0.74500012 6.5772606e-40
0.020631418 0.017785698 0.7470001 9.3502901e-40
0.022054274 0.017785698 0.7470001 1.1176196e-39
0.02347713 0.017785698 0.7470001 1.3924044e-39
0.02493332 0.01780951 0.74800009 1.5778817e-39
0.026358079 0.017809503 0.74800003 1.7637177e-39
0.027782843 0.01780951 0.74800003 1.9466628e-39
0.029207582 0.017809495 0.74800009 1.3945652e-39
0.030714262 0.017857112 0.75000012 8.3994951e-40
0.03222857 0.017904751 0.75200003 3.5010111e-39
0.033705696 0.017928548 0.75300008 6.1829338e-39
0.035233296 0.01797618 0.75500005 8.2144761e-39
0.0366714 0.01797618 0.75500011 1.014301e-38
0.038109496 0.01797618 0.75500011 9.3157621e-39
0.039600004 0.017999984 0.7560001 8.4878175e-39
0.041148558 0.018047616 0.75800002 8.8544519e-39
-0.019620022 0.019619994 0.76300001 3.8744123e-39
-0.01809526 0.019542843 0.76000005 3.0335463e-39
-0.016647639 0.019542851 0.76000005 1.7489284e-39
-0.015160033 0.019491419 0.75800008 5.5434807e-40
-0.013680008 0.019439995 0.7560001 3.7067567e-40
-0.012240004 0.019439988 0.7560001 2.7704932e-40
-0.010785756 0.019414276 0.75500011 2.7776818e-40
-0.0093228761 0.019362852 0.75300002 3.6889462e-40
-0.0078885984 0.019362837 0.75300008 2.7850246e-40
-0.0064457096 0.01933714 0.75200003 2.7850667e-40
-0.0050133374 0.019337125 0.75200003 1.8739144e-40
-0.0035809444 0.01933714 0.75200003 1.8991518e-40
-0.002137156 0.019234277 0.74800003 3.7323865e-40
-0.0007123964 0.019234262 0.74800003 6.5018007e-40
0.00071235857 0.019234277 0.74800009 8.3492585e-40
0.0021371192 0.019234255 0.74800003 1.0175235e-39
0.0035571402 0.019208565 0.7470001 8.3457133e-40
0.0049533267 0.01910571 0.74300009 7.434561e-40
0.0063685854 0.019105695 0.74300003 3.7181073e-40
0.0077837957 0.019105703 0.74300003 9.3075645e-41
0.0091990335 0.01910571 0.74300003 2.5887756e-39
0.01061427 0.019105703 0.74300003 5.0795051e-39
0.012029509 0.019105703 0.74300003 7.3905098e-39
0.013444747 0.019105695 0.74300009 9.7821199e-39
0.01489998 0.019157134 0.74500012 5.076568e-39
0.016362833 0.01920855 0.7470001 2.8212342e-40
0.017785691 0.019208565 0.7470001 5.6374237e-40
0.019208547 0.019208558 0.7470001 9.3467028e-40
0.020631403 0.01920855 0.7470001 1.0261442e-39
0.022054259 0.019208558 0.74700004 1.1169049e-39
0.023477122 0.01920855 0.7470001 1.3012948e-39
0.024933314 0.019234277 0.74800003 1.5782516e-39
0.026358083 0.01923427 0.74800009 1.7626541e-39
0.02785711 0.019285701 0.75000012 1.9459538e-39
0.029285679 0.019285694 0.75000012 1.3942093e-39
0.03079618 0.019337133 0.75200003 9.3286681e-40
0.032271404 0.019362859 0.75300002 3.5989534e-39
0.033705696 0.019362852 0.75300008 6.2769259e-39
0.035233296 0.019414268 0.75500011 8.3048752e-39
0.036720004 0.01943998 0.75600004 1.0417795e-38
0.038159981 0.019439988 0.7560001 9.682737e-39
0.039599985 0.01943998 0.7560001 9.039541e-39
0.041148536 0.019491404 0.75800008 9.2228644e-39
-0.019620016 0.021073326 0.76300007 3.7883291e-39
-0.018119056 0.02101808 0.7610001 3.6864435e-39
-0.016669529 0.021018088 0.76100004 2.2995798e-39
-0.015200007 0.020990469 0.75999999 9.2132852e-40
-0.013716216 0.020935215 0.75800008 6.4653809e-40
-0.012239989 0.020879991 0.75600004 3.7103721e-40
-0.010785738 0.020852372 0.75500011 4.6431324e-40
-0.0093228854 0.020797141 0.75300008 5.5543828e-40
-0.0078885872 0.020797133 0.75300002 4.6540485e-40
-0.0064457068 0.020769522 0.75200003 3.7249736e-40
-0.0050133355 0.020769514 0.75200003 3.7250157e-40
-0.0035809416 0.020769522 0.75200003 2.8175067e-40
-0.002137169 0.020659029 0.74800009 5.5798163e-40
-0.00071240758 0.020659029 0.74800003 8.3420699e-40
0.00071235298 0.020659037 0.74800003 8.3456712e-40
0.0021371415 0.020659029 0.74800003 8.3456712e-40
0.0035475951 0.020576179 0.74500006 7.4237289e-40
0.0049533462 0.020520948 0.74300003 6.4767174e-40
0.0063685565 0.020520948 0.74300003 3.6786607e-40
0.0077837938 0.020520948 0.74300003 1.0815782e-40
0.0091990316 0.020520948 0.74300003 4.8150997e-39
0.010614269 0.020520948 0.74300003 9.4083361e-39
0.012029508 0.02052094 0.74300009 8.3999659e-39
0.013444746 0.02052094 0.74300009 7.3768107e-39
0.0149 0.020576194 0.74500012 3.7797518e-39
0.016362846 0.020631425 0.7470001 1.956633e-40
0.017785702 0.020631425 0.7470001 6.5771625e-40
0.019208537 0.020631425 0.7470001 1.1176154e-39
0.020631393 0.020631418 0.7470001 1.1176182e-39
0.022054251 0.020631425 0.7470001 1.0257855e-39
0.023508556 0.020659029 0.74800009 1.3009375e-39
0.024933316 0.020659029 0.74800003 1.5778873e-39
0.026358077 0.020659029 0.74800003 1.7626429e-39
0.027857102 0.020714268 0.75000012 1.8541112e-39
0.029285673 0.020714268 0.75000012 1.394568e-39
0.030796196 0.020769507 0.75200003 9.3286681e-40
0.032271408 0.020797126 0.75300008 3.6843332e-39
0.033795197 0.020852365 0.75500011 6.3673279e-39
0.035233296 0.020852365 0.75500011 8.4932125e-39
0.036719985 0.020879984 0.7560001 1.0603979e-38
0.038159993 0.020879984 0.7560001 1.0141917e-38
0.039600015 0.020879991 0.75600004 9.5912714e-39
0.041039992 0.020879991 0.75600004 9.5905624e-39
0.042592354 0.020935215 0.75800008 9.4980094e-39
-0.019620024 0.022526652 0.76300007 3.9738064e-39
-0.018166687 0.022526659 0.76300007 4.3389834e-39
-0.016713351 0.022526659 0.76300001 3.4109286e-39
-0.015220018 0.022467613 0.7610001 2.4810942e-39
-0.013752396 0.022438094 0.76000005 1.3805018e-39
-0.012272416 0.022379018 0.75800008 2.8027931e-40
-0.010785753 0.022290468 0.75500011 4.6359998e-40
-0.0093476465 0.022290476 0.75500005 6.4763671e-40
-0.00788859 0.022231422 0.75300002 5.5616555e-40
-0.0064543122 0.022231415 0.75300002 4.6541186e-40
-0.0050133336 0.022201903 0.75200003 5.5617676e-40
-0.0035809602 0.022201896 0.75200003 6.4873393e-40
-0.0021429013 0.022142835 0.75000012 5.576187e-40
-0.00071240478 0.022083789 0.74800009 4.668622e-40
0.00071426592 0.022142842 0.75000006 4.6578881e-40
0.0021371164 0.022083797 0.74800003 4.6758107e-40
0.0035476147 0.021995224 0.74500006 8.3133293e-40
0.0049666623 0.021995232 0.74500006 1.287649e-39
0.0063857087 0.021995224 0.74500006 3.6000465e-39
0.0078047561 0.021995232 0.74500006 5.9006268e-39
0.0092238029 0.021995232 0.74500006 7.2964826e-39
0.01064285 0.021995224 0.74500006 8.685856e-39
0.012061897 0.021995224 0.74500006 6.1865688e-39
0.013517116 0.022054277 0.7470001 3.7801525e-39
0.01494 0.022054277 0.7470001 2.2171148e-39
0.016384739 0.022083797 0.74800003 6.5519251e-40
0.017809499 0.022083804 0.74800003 8.4137323e-40
0.01920855 0.022054277 0.7470001 1.1179657e-39
0.020631406 0.022054277 0.7470001 1.0261386e-39
0.022083789 0.022083797 0.74800003 1.0261442e-39
0.023508551 0.022083789 0.74800003 1.2094607e-39
0.02499995 0.022142842 0.75000012 1.4860462e-39
0.026428549 0.022142835 0.75000012 1.8537483e-39
0.027857119 0.022142842 0.75000006 2.2214476e-39
0.029363826 0.022201903 0.75200003 1.5778789e-39
0.030796181 0.022201896 0.75200003 9.3322694e-40
0.032271408 0.022231415 0.75300008 3.6925854e-39
0.033795215 0.022290476 0.75500005 6.4641884e-39
0.035233315 0.022290468 0.75500011 8.491779e-39
0.036671385 0.022290468 0.75500011 1.0607569e-38
0.038160019 0.022319987 0.75600004 1.0236984e-38
0.039599996 0.022319987 0.75600004 9.8689303e-39
0.041148543 0.022379018 0.75800008 9.8674996e-39
0.042479977 0.022319995 0.7560001 9.864987e-39
0.043919984 0.022319973 0.7560001 9.2224959e-39
0.045360006 0.022320002 0.75600004 8.6714731e-39
-0.018166695 0.023979984 0.76300007 4.8936033e-39
-0.016713345 0.023979992 0.76300001 4.5244704e-39
-0.015219999 0.023917139 0.76100004 4.054154e-39
-0.013752387 0.023885712 0.76000005 2.1133935e-39
-0.012272413 0.023822844 0.75800008 1.8629002e-40
-0.010785734 0.023728572 0.75500011 4.6144338e-40
-0.0093476474 0.023728572 0.75500011 6.4547731e-40
-0.0078885974 0.023665696 0.75300008 6.4620038e-40
-0.0064542992 0.023665704 0.75300002 5.5436909e-40
-0.0050133318 0.023634277 0.75200003 8.3023851e-40
-0.0035809593 0.023634277 0.75200003 1.0142724e-39
-0.0021428929 0.023571402 0.75000012 5.5689283e-40
-0.00071432331 0.023571417 0.75000012 9.6281816e-41
0.00071426033 0.023571409 0.75000006 9.3413358e-41
0.0021342507 0.023477122 0.7470001 9.6658765e-41
0.0035571067 0.023477122 0.7470001 1.0107258e-39
0.004966653 0.023414284 0.74500006 1.8605838e-39
0.0063856998 0.023414284 0.74500006 6.7519212e-39
0.0078047477 0.023414277 0.74500006 1.1613104e-38
0.0092237936 0.023414284 0.74500006 9.7835688e-39
0.010642841 0.023414291 0.74500006 7.9296243e-39
0.012061888 0.023414291 0.74500006 4.0642672e-39
0.013517108 0.02347713 0.7470001 1.0779208e-40
0.014959979 0.023508556 0.74800009 6.5340866e-40
0.016384741 0.023508556 0.74800009 1.1150959e-39
0.017809501 0.023508564 0.74800003 1.1176056e-39
0.019234262 0.023508564 0.74800003 1.0257771e-39
0.020659029 0.023508549 0.74800009 1.0257827e-39
0.022083793 0.023508556 0.74800009 9.3359268e-40
0.023571396 0.023571409 0.75000006 1.2087446e-39
0.024999974 0.023571402 0.75000012 1.3934974e-39
0.026428543 0.023571409 0.75000012 2.0363501e-39
0.027931433 0.023634285 0.75200003 2.5887896e-39
0.029363792 0.02363427 0.75200003 1.7626219e-39
0.030919021 0.023728564 0.75500011 9.3321994e-40
0.032357112 0.023728572 0.75500011 3.6879149e-39
0.033795211 0.023728557 0.75500011 6.460234e-39
0.035280019 0.023759991 0.75600004 8.5861186e-39
0.036719996 0.023759998 0.75600004 1.0605774e-38
0.038260914 0.023822844 0.75800008 1.0421377e-38
0.03980951 0.023885705 0.76000005 1.0145156e-38
0.041257132 0.023885705 0.76000005 1.0236993e-38
0.042480007 0.023759998 0.75600004 1.0235555e-38
0.04392001 0.023759991 0.75600004 9.8656975e-39
-0.0182143 0.0255 0.76500005 3.4274836e-39
-0.016713355 0.025433317 0.76300007 4.7106876e-39
-0.015220013 0.025366664 0.7610001 6.0867501e-39
-0.013770486 0.025366664 0.7610001 4.7920498e-39
-0.012272411 0.025266647 0.75800008 3.4923665e-39
-0.010799994 0.025199994 0.75600004 3.0382141e-39
-0.0093476633 0.025166653 0.75500011 2.5718647e-39
-0.0078885993 0.025099993 0.75300002 1.9326064e-39
-0.0064543216 0.025099993 0.75300008 1.2861748e-39
-0.0050133299 0.025066666 0.75200003 1.5645539e-39
-0.0035809565 0.025066651 0.75200003 1.7457194e-39
-0.0021428771 0.024999991 0.75000006 2.3925181e-39
-0.00071432797 0.024999976 0.75000012 3.0328555e-39
0.00071140769 0.024899997 0.7470001 4.2378362e-39
0.0021342637 0.024899997 0.7470001 5.4270706e-39
0.0035571198 0.024899982 0.7470001 5.9960552e-39
0.004979976 0.024900004 0.7470001 6.5646797e-39
0.0063856994 0.024833314 0.74500012 6.6569076e-39
0.007825668 0.024899974 0.7470001 6.7512262e-39
0.0092485519 0.024899974 0.7470001 5.4432598e-39
0.010642841 0.024833314 0.74500012 4.0416587e-39
0.012094265 0.024899989 0.7470001 2.4004243e-39
0.013517121 0.024899989 0.7470001 7.4954754e-40
0.014959974 0.024933316 0.74800003 8.4031525e-40
0.016384736 0.024933316 0.74800003 9.3250948e-40
0.017809503 0.024933316 0.74800009 1.208732e-39
0.019234266 0.024933308 0.74800009 1.576437e-39
0.020659026 0.024933316 0.74800003 1.39241e-39
0.022083785 0.024933316 0.74800003 1.1158315e-39
0.023571391 0.024999991 0.75000012 1.2080286e-39
0.024999987 0.024999999 0.75000006 1.3013074e-39
0.026428537 0.024999984 0.75000012 1.6697326e-39
0.027931422 0.025066651 0.75200003 2.1310485e-39
0.02940283 0.025099985 0.75300002 1.5778691e-39
0.03091901 0.025166661 0.75500011 9.3106194e-40
0.032357112 0.025166653 0.75500011 3.783688e-39
0.033795211 0.025166653 0.75500011 6.5509862e-39
0.03528 0.025199987 0.75600004 8.5818054e-39
0.036817133 0.025266647 0.75800008 1.0604337e-38
0.038260918 0.025266655 0.75800008 1.0421022e-38
0.039809503 0.025333337 0.76000005 1.0329187e-38
0.041257128 0.02533333 0.76000005 1.0605768e-38
0.04270475 0.02533333 0.76000005 1.0882704e-38
-0.018214302 0.026957147 0.76500005 1.8569447e-39
-0.016713362 0.026886649 0.76300007 4.9879709e-39
-0.015260014 0.026886664 0.76300007 8.0196101e-39
-0.013770469 0.026816182 0.76100004 7.3835677e-39
-0.01227241 0.026710458 0.75800008 6.7303216e-39
-0.010799999 0.026639983 0.75600004 5.6275852e-39
-0.0093476446 0.026604749 0.75500011 4.5187419e-39
-0.0078885872 0.026534274 0.75300002 3.3173457e-39
-0.0064543104 0.026534274 0.75300008 2.0334466e-39
-0.0050133485 0.026499033 0.75200003 2.3035763e-39
-0.0035809556 0.02649904 0.75200003 2.4944262e-39
-0.0021428817 0.02642855 0.75000006 4.2339238e-39
-0.00071240013 0.026358083 0.74800003 5.9953083e-39
0.0007123744 0.026358083 0.74800003 8.3973875e-39
0.0021342759 0.026322857 0.7470001 1.0783685e-38
0.0035571114 0.026322842 0.7470001 1.0981717e-38
0.0049799676 0.026322849 0.7470001 1.1154636e-38
0.0063856905 0.026252374 0.74500012 6.5600022e-39
0.0078047374 0.026252374 0.74500012 1.8591489e-39
0.009248564 0.026322857 0.7470001 1.0125166e-39
0.010642831 0.026252367 0.74500012 1.8993059e-40
0.012061878 0.026252382 0.74500012 7.4559588e-40
0.013517112 0.026322834 0.7470001 1.2998431e-39
0.014939968 0.026322842 0.7470001 1.0257771e-39
0.016362825 0.026322849 0.7470001 6.5772045e-40
0.017785681 0.026322842 0.7470001 1.3924072e-39
0.019234287 0.026358083 0.74800003 2.1274569e-39
0.020631421 0.026322849 0.7470001 1.7594045e-39
0.022083787 0.026358083 0.74800009 1.2995067e-39
0.023508549 0.02635809 0.74800003 1.2062321e-39
0.024999984 0.026428558 0.75000006 1.1169119e-39
0.026428532 0.026428558 0.75000012 1.3938576e-39
0.027931437 0.02649904 0.75200003 1.6707906e-39
0.029402833 0.026534274 0.75300008 1.3027241e-39
0.03091901 0.026604749 0.75500011 9.3357587e-40
0.03235713 0.026604749 0.75500005 3.780465e-39
0.033795204 0.026604757 0.75500011 6.6431847e-39
0.035280008 0.026639991 0.7560001 8.6768737e-39
0.036817133 0.026710458 0.75800008 1.0605058e-38
0.038361903 0.026780941 0.76000005 1.0513221e-38
0.039861925 0.026816197 0.76100004 1.04221e-38
0.041311432 0.026816174 0.7610001 1.0973828e-38
0.042760961 0.026816189 0.7610001 1.143372e-38
0.044326663 0.026886657 0.76300007 1.0974181e-38
-0.016669516 0.028265707 0.76100004 2.8653345e-39
-0.015200004 0.028228574 0.76000005 4.3440463e-39
-0.013716223 0.028154261 0.75800008 4.7124813e-39
-0.012240008 0.028079994 0.75600004 5.0905936e-39
-0.010785747 0.028042845 0.75500011 5.3603688e-39
-0.0093476595 0.028042845 0.75500011 5.6398171e-39
-0.0079095606 0.028042838 0.75500011 5.4482484e-39
-0.0064542973 0.027968563 0.75300002 5.3596471e-39
-0.0050133467 0.027931415 0.75200003 5.5408112e-39
-0.0035809537 0.027931422 0.75200003 5.8270839e-39
-0.0021428873 0.027857125 0.75000012 6.3734361e-39
-0.00071241223 0.027782843 0.74800009 6.9388152e-39
0.00071236136 0.027782843 0.74800003 7.1160444e-39
0.0021371369 0.027782857 0.74800003 7.3083096e-39
0.0035571235 0.027745701 0.7470001 6.5596196e-39
0.0049799797 0.027745716 0.7470001 5.909944e-39
0.0064028352 0.027745709 0.7470001 3.4181761e-39
0.0078256913 0.027745716 0.7470001 1.0107033e-39
0.0092485277 0.027745701 0.7470001 7.4055681e-40
0.010671412 0.027745694 0.7470001 5.6191788e-40
0.012094268 0.027745686 0.7470001 9.3106334e-40
0.013517125 0.027745709 0.7470001 1.392396e-39
0.01493998 0.027745701 0.7470001 1.1168909e-39
0.01638476 0.027782843 0.74800003 8.4175018e-40
0.017785694 0.027745701 0.74700004 1.2090978e-39
0.019234261 0.027782828 0.74800003 1.6686452e-39
0.020631414 0.027745694 0.7470001 1.4842679e-39
0.02208381 0.027782843 0.74800003 1.2083929e-39
0.023508551 0.027782843 0.74800009 1.2076642e-39
0.024933312 0.027782835 0.74800009 1.1172651e-39
0.026428528 0.027857117 0.75000012 1.486042e-39
0.027968543 0.027968563 0.75300002 1.7633407e-39
0.029480908 0.028042838 0.75500011 1.394561e-39
0.030919028 0.028042845 0.75500011 1.0254156e-39
0.032400008 0.028079987 0.75600004 3.8766095e-39
0.033839986 0.028079979 0.7560001 6.7375355e-39
0.035279989 0.028079979 0.7560001 8.6740067e-39
0.036817133 0.028154261 0.75800008 1.0697256e-38
0.0383619 0.028228581 0.75999999 1.0605419e-38
0.03986191 0.028265715 0.7610001 1.0514297e-38
0.041311439 0.028265715 0.7610001 1.0790515e-38
0.042873323 0.028339989 0.76300001 1.1158933e-38
-0.016647633 0.029676192 0.76000005 8.3419017e-40
-0.015160034 0.029598072 0.75800008 5.6479054e-40
-0.01371622 0.02959808 0.75800008 2.0320145e-39
-0.01224 0.029519975 0.7560001 3.4203201e-39
-0.010785748 0.029480934 0.75500011 5.0826973e-39
-0.0093476428 0.029480942 0.75500005 6.6439021e-39
-0.007909555 0.029480956 0.75500011 7.6591177e-39
-0.0064543197 0.029402837 0.75300008 8.5753258e-39
-0.0050200224 0.029402852 0.75300002 8.8562203e-39
-0.0035857444 0.029402845 0.75300008 9.1299345e-39
-0.002142892 0.029285707 0.75000012 8.4942621e-39
-0.00071430841 0.029285714 0.75000006 7.8417307e-39
0.00071235019 0.029207595 0.74800009 5.8188428e-39
0.0021371108 0.029207602 0.74800003 3.7015944e-39
0.0035618714 0.029207595 0.74800003 2.2221707e-39
0.0049866606 0.029207602 0.74800003 6.6024559e-40
0.0064028264 0.029168554 0.7470001 3.7576659e-40
0.0078256829 0.029168561 0.7470001 9.9168491e-41
0.0092609227 0.029207595 0.74800003 5.6084309e-40
0.010671396 0.029168561 0.7470001 9.3034307e-40
0.012110472 0.02920761 0.74800003 1.2083677e-39
0.013535213 0.02920761 0.74800009 1.3920359e-39
0.014959973 0.029207602 0.74800009 1.2080048e-39
0.016384736 0.02920761 0.74800003 9.3358287e-40
0.017809523 0.02920761 0.74800003 1.1172609e-39
0.019234264 0.029207602 0.74800009 1.2094621e-39
0.020631425 0.029168569 0.7470001 1.2091104e-39
0.022083785 0.029207602 0.74800003 1.1161819e-39
0.023508545 0.02920761 0.74800003 1.1150889e-39
0.024999972 0.029285692 0.75000012 1.1172525e-39
0.026428543 0.029285699 0.75000006 1.4860406e-39
0.027968548 0.029402837 0.75300008 1.8544588e-39
0.029480927 0.029480942 0.75500011 1.4871168e-39
0.030919027 0.029480942 0.75500011 1.0247023e-39
0.03239999 0.02951999 0.7560001 3.8708782e-39
0.033839993 0.02951999 0.7560001 6.7353873e-39
0.035373323 0.029598087 0.75800008 8.7683561e-39
0.036914278 0.029676184 0.76000005 1.0788733e-38
0.0383619 0.029676184 0.76000005 1.0696536e-38
0.039861917 0.029715233 0.76100004 1.0514294e-38
0.041311424 0.029715225 0.7610001 1.0698677e-38
0.042873327 0.029793315 0.76300007 1.079124e-38
-0.016647644 0.03112381 0.76000005 1.0185758e-39
-0.015160032 0.03104189 0.75800008 6.5087651e-40
-0.013716218 0.03104189 0.75800008 1.202607e-39
-0.012240018 0.030959986 0.7560001 1.7507641e-39
-0.010799993 0.030959994 0.75600004 2.5869833e-39
-0.0093600024 0.030959986 0.75600004 3.417816e-39
-0.0079199979 0.030959986 0.75600004 3.8809479e-39
-0.00647147 0.030919023 0.75500011 4.3440799e-39
-0.0050200103 0.030837148 0.75300002 4.5245307e-39
-0.0035857323 0.030837148 0.75300008 4.617441e-39
-0.0021428976 0.030714266 0.75000012 4.3390632e-39
-0.00071431306 0.030714273 0.75000012 3.9613096e-39
0.0007123595 0.030632377 0.74800003 3.2305633e-39
0.0021371332 0.030632377 0.74800003 2.3954286e-39
0.0035618742 0.030632369 0.74800009 1.6657613e-39
0.0049866349 0.030632369 0.74800009 9.2928649e-40
0.0064028385 0.030591413 0.7470001 7.456183e-40
0.007825695 0.030591413 0.7470001 5.619389e-40
0.0092609236 0.030632362 0.74800009 6.5412472e-40
0.010685685 0.030632354 0.74800009 8.3923345e-40
0.012110446 0.030632369 0.74800003 1.207653e-39
0.013535206 0.030632362 0.74800003 1.5753481e-39
0.014959995 0.030632362 0.74800003 1.1165238e-39
0.016384736 0.030632354 0.74800009 7.5062654e-40
0.017809497 0.030632362 0.74800003 9.3430594e-40
0.019234259 0.030632369 0.74800003 1.2098152e-39
0.020659018 0.030632362 0.74800003 1.1172637e-39
0.022083787 0.030632354 0.74800009 1.1161651e-39
0.02357142 0.030714281 0.75000006 1.2079781e-39
0.024999969 0.030714266 0.75000012 1.2090767e-39
0.026499048 0.030796185 0.75200003 1.5778747e-39
0.027968546 0.030837141 0.75300008 1.9470131e-39
0.029480925 0.03091903 0.75500011 1.5775202e-39
0.030919017 0.030919038 0.75500005 1.205509e-39
0.032399997 0.030959979 0.7560001 4.1517727e-39
0.033839993 0.030959979 0.75600004 7.1974403e-39
0.035373323 0.03104189 0.75800008 9.0413529e-39
0.03691427 0.031123802 0.76000005 1.0972046e-38
0.03841237 0.031164765 0.7610001 1.0789087e-38
0.03996665 0.031246655 0.76300001 1.0698322e-38
0.041419968 0.031246647 0.76300007 1.079051e-38
0.042985681 0.031328566 0.76500005 1.0882722e-38
0.044442855 0.031328574 0.76500005 1.0699069e-38
-0.016647637 0.032571428 0.76000005 1.201528e-39
-0.015200014 0.032571435 0.76000005 7.4235328e-40
-0.013752391 0.032571428 0.76000005 4.6792719e-40
-0.012272404 0.032485694 0.75800008 9.9506204e-41
-0.010799998 0.032399997 0.75600004 9.6632141e-41
-0.0093600079 0.032399975 0.75600004 1.0309913e-40
-0.0079200035 0.03239999 0.7560001 1.0203275e-40
-0.0064714653 0.032357134 0.75500011 1.0419355e-40
-0.0050333655 0.032357134 0.75500011 9.6311243e-41
-0.0035857351 0.03227143 0.75300002 1.0313417e-40
-0.0021428892 0.03214284 0.75000012 9.9552447e-41
-0.00071431865 0.03214284 0.75000012 1.0277543e-40
0.00071234646 0.032057121 0.74800009 6.5414294e-40
0.002137108 0.032057121 0.74800003 1.1133176e-39
0.0035618956 0.032057121 0.74800003 1.1154686e-39
0.0049866568 0.032057129 0.74800003 1.1151127e-39
0.0064113969 0.032057121 0.74800009 1.1151141e-39
0.0078361584 0.032057129 0.74800003 1.0214793e-39
0.0092485435 0.032014266 0.7470001 8.3780412e-40
0.0106714 0.032014266 0.7470001 6.5699738e-40
0.012094256 0.032014273 0.7470001 1.2076474e-39
0.013517112 0.032014288 0.7470001 1.7597352e-39
0.01495997 0.032057121 0.74800003 1.1161679e-39
0.016384758 0.032057129 0.74800003 4.7440399e-40
0.01780952 0.032057129 0.74800003 8.4247185e-40
0.019234259 0.032057129 0.74800009 1.1179783e-39
0.02065902 0.032057121 0.74800009 1.1179797e-39
0.022083782 0.032057136 0.74800003 1.1168909e-39
0.023508571 0.032057136 0.74800003 1.2079977e-39
0.024999963 0.03214284 0.75000012 1.3012808e-39
0.026428532 0.032142848 0.75000012 1.6697116e-39
0.027968545 0.032271422 0.75300002 1.9462915e-39
0.029480943 0.032357149 0.75500011 1.669706e-39
0.030919015 0.032357134 0.75500011 1.2998543e-39
0.032400001 0.03239999 0.75600004 4.4244135e-39
0.033840004 0.032399997 0.75600004 7.5629914e-39
0.035373326 0.032485701 0.75800008 9.4115675e-39
0.036914293 0.032571435 0.76000005 1.1156438e-38
0.038412377 0.032614291 0.76100004 1.0973121e-38
0.039966658 0.032699987 0.76300007 1.0789806e-38
0.041419994 0.032699995 0.76300001 1.088164e-38
0.042985708 0.032785706 0.7650001 1.097384e-38
0.044559062 0.032871425 0.76700002 1.0790894e-38
-0.016647629 0.034019031 0.76000005 1.9344155e-39
-0.015200005 0.034019053 0.76000005 9.2494947e-40
-0.013716215 0.033929504 0.75800008 1.3895149e-39
-0.0122724 0.033929519 0.75800008 1.7564772e-39
-0.010800003 0.033839986 0.7560001 1.0192611e-39
-0.0093600135 0.033839986 0.7560001 2.856645e-40
-0.0079200082 0.033839978 0.7560001 1.9204515e-40
-0.0064799972 0.033839986 0.75600004 9.8427204e-41
-0.0050333608 0.033795238 0.75500005 9.8078281e-41
-0.0035952746 0.03379523 0.75500011 9.9527223e-41
-0.0021485749 0.033660948 0.75200003 1.0097617e-40
-0.00071432331 0.033571407 0.75000012 1.0384462e-40
0.00071236974 0.033481896 0.74800003 4.7010761e-40
0.0021371099 0.033481888 0.74800009 8.3960479e-40
0.0035618714 0.033481896 0.74800009 8.3960619e-40
0.0049999626 0.033571407 0.75000006 7.4956576e-40
0.0064285402 0.033571422 0.75000012 6.5450307e-40
0.0078361807 0.033481903 0.74800003 5.6051378e-40
0.0092856595 0.033571422 0.75000012 2.3104077e-39
0.010685681 0.033481888 0.74800003 3.9680989e-39
0.012142827 0.033571422 0.75000006 3.6025394e-39
0.013535231 0.033481903 0.74800003 3.2308954e-39
0.014959971 0.033481881 0.74800009 2.2192714e-39
0.016384732 0.033481896 0.74800009 1.2090894e-39
0.017809493 0.033481881 0.74800003 1.2098138e-39
0.019234283 0.033481888 0.74800003 1.3020081e-39
0.020659044 0.033481881 0.74800003 1.2094537e-39
0.022083784 0.033481881 0.74800009 1.2087362e-39
0.023571409 0.033571415 0.75000012 1.3002116e-39
0.024999958 0.0335714 0.75000012 1.3020095e-39
0.026499031 0.033660941 0.75200003 1.6700717e-39
0.027968571 0.033705696 0.75300002 1.9473649e-39
0.029480916 0.03379523 0.75500011 1.7615331e-39
0.030919015 0.03379523 0.75500011 1.6643236e-39
0.032400008 0.033839978 0.75600004 4.7964232e-39
0.033839986 0.033839986 0.7560001 7.9328487e-39
0.035373326 0.033929504 0.75800008 9.5930889e-39
0.036914267 0.034019023 0.76000005 1.1248277e-38
0.038412392 0.034063794 0.7610001 1.1248273e-38
0.039966635 0.034153335 0.76300007 1.1156439e-38
0.041528553 0.034242868 0.76500005 1.0973128e-38
0.0430981 0.034332372 0.76700002 1.0789094e-38
0.044559028 0.034332365 0.76700008 1.0696895e-38
-0.019748598 0.035839975 0.76800007 4.4369453e-39
-0.018285738 0.035839982 0.76800001 4.2407159e-39
-0.016647639 0.035466664 0.76000005 2.6655205e-39
-0.015200018 0.035466656 0.76000005 1.1136357e-39
-0.013716212 0.035373308 0.75800008 2.3168144e-39
-0.0122724 0.035373315 0.75800008 3.4173942e-39
-0.0108286 0.035373308 0.75800008 1.938688e-39
-0.0093599986 0.035279997 0.75600004 3.764238e-40
-0.0079199933 0.035279997 0.75600004 2.8209259e-40
-0.0064800028 0.035279997 0.75600004 9.9154478e-41
-0.0050333617 0.035233326 0.75500011 9.8451026e-41
-0.0035952746 0.035233326 0.75500011 1.0455228e-40
-0.0021485591 0.03509333 0.75200003 1.0096776e-40
-0.0007143289 0.034999989 0.75000012 1.0348029e-40
0.00071425567 0.034999996 0.75000012 3.7468479e-40
0.0021428189 0.034999982 0.75000012 5.5979491e-40
0.0035713885 0.034999989 0.75000012 4.6939995e-40
0.0049866326 0.034906641 0.74800009 3.8294124e-40
0.0064285356 0.034999982 0.75000012 2.8428562e-40
0.0078361547 0.034906648 0.74800003 1.0600122e-40
0.0092609432 0.034906656 0.74800003 3.691896e-39
0.010685705 0.034906648 0.74800003 7.2810151e-39
0.012110445 0.034906648 0.74800009 6.0028529e-39
0.013535205 0.034906648 0.74800003 4.7074534e-39
0.014959994 0.034906656 0.74800003 3.3205771e-39
0.016384756 0.034906656 0.74800003 1.850863e-39
0.017809495 0.034906641 0.74800009 1.6686396e-39
0.019234257 0.034906656 0.74800009 1.3931303e-39
0.020659016 0.034906656 0.74800003 1.39241e-39
0.022083806 0.034906656 0.74800003 1.2998557e-39
0.023571406 0.034999982 0.75000012 1.2984193e-39
0.024999974 0.034999996 0.75000006 1.3005731e-39
0.026499048 0.035093315 0.75200003 1.6693528e-39
0.027968548 0.035139985 0.75300008 1.9466502e-39
0.029480914 0.035233319 0.75500011 1.947725e-39
0.030919034 0.035233326 0.75500011 1.9473733e-39
0.03239999 0.035279989 0.7560001 5.0715808e-39
0.033839993 0.035279982 0.7560001 8.2101545e-39
0.03537333 0.035373308 0.75800002 9.7799913e-39
0.036914289 0.035466671 0.76000005 1.1340479e-38
0.038412396 0.035513319 0.76100004 1.1431957e-38
0.039966639 0.035606645 0.76300007 1.1524147e-38
0.041528579 0.035700008 0.76500005 1.1064965e-38
0.043098085 0.035793342 0.76700002 1.0605062e-38
0.044617124 0.03583999 0.76800007 1.0695814e-38
-0.021266684 0.037399992 0.77000004 4.4369369e-39
-0.019748596 0.037302844 0.76800007 4.7110141e-39
-0.018214308 0.037157148 0.76500005 5.0790778e-39
-0.016669519 0.036962859 0.76100004 4.6109348e-39
-0.015220013 0.036962844 0.7610001 4.240339e-39
-0.013770486 0.036962844 0.7610001 4.9861184e-39
-0.012272398 0.036817126 0.75800008 5.6375751e-39
-0.010828597 0.036817126 0.75800008 4.7981398e-39
-0.0093600033 0.036719993 0.75600004 3.8661741e-39
-0.0079199979 0.036719985 0.75600004 3.955518e-39
-0.0064714625 0.036671415 0.75500011 4.0498843e-39
-0.005040016 0.036719985 0.7560001 4.5223531e-39
-0.0035952709 0.036671422 0.75500005 5.0787386e-39
-0.0021514564 0.036574267 0.75300008 5.1691294e-39
-0.00071618502 0.036525697 0.75200003 5.3445565e-39
0.00071424915 0.036428563 0.75000012 3.4981665e-39
0.0021428328 0.036428556 0.75000006 1.7486369e-39
0.003571383 0.036428556 0.75000012 3.6958448e-39
0.0049999803 0.036428556 0.75000012 5.6304789e-39
0.006411416 0.036331423 0.74800003 4.9851081e-39
0.0078361565 0.036331393 0.74800009 4.2446984e-39
0.0092609162 0.036331423 0.74800009 5.809143e-39
0.010685678 0.0363314 0.74800003 7.471523e-39
0.012110466 0.036331423 0.74800003 6.5549757e-39
0.013535228 0.036331408 0.74800003 5.7241165e-39
0.014959967 0.036331423 0.74800009 3.4138433e-39
0.016384728 0.0363314 0.74800003 1.1129519e-39
0.017809518 0.0363314 0.74800003 1.2083915e-39
0.019234279 0.036331415 0.74800003 1.3009403e-39
0.020659018 0.0363314 0.74800009 1.2087418e-39
0.02208378 0.036331408 0.74800009 1.1161861e-39
0.023571398 0.036428548 0.75000012 1.2069426e-39
0.024999969 0.036428563 0.75000006 1.2991382e-39
0.026534282 0.036574282 0.75300002 1.9441405e-39
0.028042831 0.036671422 0.75500005 2.5891441e-39
0.02948093 0.036671422 0.75500011 3.0533467e-39
0.030959994 0.036719978 0.7560001 3.51325e-39
0.032399997 0.036719993 0.7560001 6.2765728e-39
0.033839993 0.036719985 0.75600004 9.0460066e-39
0.035466664 0.036914289 0.76000005 9.9640224e-39
0.036914285 0.036914289 0.76000005 1.0881667e-38
0.038513329 0.03706 0.76300007 1.1064985e-38
0.040071402 0.037157133 0.76500005 1.1157169e-38
0.041528575 0.037157156 0.76500005 1.0328846e-38
0.043098085 0.037254274 0.76700008 9.4115577e-39
0.044559039 0.037254289 0.76700002 9.9561023e-39
-0.022733346 0.038866658 0.77000004 2.4090184e-39
-0.021266682 0.03886665 0.77000004 4.2475262e-39
-0.019748602 0.038765695 0.76800007 5.0740499e-39
-0.018261904 0.038715232 0.76700008 5.8134142e-39
-0.016713349 0.038513325 0.76300007 6.6428203e-39
