# .PCD v0.7 - Point Cloud Data file format
VERSION 0.7
FIELDS x y z rgb
SIZE 4 4 4 4
TYPE F F F F
COUNT 1 1 1 1
WIDTH 950
HEIGHT 1
VIEWPOINT 0 0 0 1 0 0 0
POINTS 950
DATA ascii
-0.0035190342 -0.010557145 0.73900002 1.5757237e-39
-0.0021114221 -0.010557137 0.73900008 1.3005773e-39
-0.00070190645 -0.010528557 0.73700011 9.3286681e-40
0.00070191704 -0.010528564 0.73700011 9.3249967e-40
0.0021056866 -0.010528572 0.73700011 9.3322554e-40
0.0035095101 -0.01052855 0.73700011 9.3431155e-40
0.0049133035 -0.010528564 0.73700011 9.3358848e-40
0.0063342988 -0.01055713 0.73900008 8.3995512e-40
0.0077209533 -0.010528557 0.73700011 6.5700859e-40
0.0091247475 -0.010528564 0.73700011 3.8115038e-40
0.010557146 -0.010557137 0.73900002 9.954544e-41
0.011964787 -0.01055713 0.73900002 3.951614e-39
0.013372375 -0.010557145 0.73900008 7.8410412e-39
0.014800017 -0.01057142 0.74000001 9.3348534e-39
0.01620953 -0.01057142 0.74000001 1.0794519e-38
0.01766667 -0.010600001 0.7420001 1.0602221e-38
0.019080026 -0.010600008 0.7420001 1.0330313e-38
0.02052097 -0.010614276 0.74300009 9.8657676e-39
0.021936223 -0.010614268 0.74300003 9.4054676e-39
0.023414331 -0.010642849 0.74500012 6.6428231e-39
0.024899999 -0.010671422 0.7470001 3.8758458e-39
0.026358111 -0.010685727 0.74800009 4.5150327e-39
0.027782874 -0.010685697 0.74800009 5.0689169e-39
0.02920763 -0.010685712 0.74800009 5.1629062e-39
0.03063239 -0.010685712 0.74800009 5.2543914e-39
-0.029715247 -0.0094218925 0.7610001 3.1401319e-39
-0.028265703 -0.0094218925 0.76100004 4.1557089e-39
-0.026710467 -0.0093847439 0.75800002 5.1705727e-39
-0.025266638 -0.0093847364 0.75800002 5.7223116e-39
-0.023759991 -0.0093599856 0.7560001 6.1814961e-39
-0.022290437 -0.0093475878 0.75500005 6.2733372e-39
-0.02076952 -0.009310469 0.75200009 6.365544e-39
-0.019285673 -0.0092856884 0.75000006 6.8268865e-39
-0.017809518 -0.009260945 0.74800009 7.3767896e-39
-0.016362853 -0.0092485547 0.7470001 3.7811811e-39
-0.014899945 -0.0092237964 0.74500006 2.8569813e-40
-0.013444754 -0.0091990307 0.74300009 4.7044953e-40
-0.0120295 -0.0091990381 0.74300009 7.4559308e-40
-0.010600009 -0.0091866702 0.7420001 7.4522874e-40
-0.0091619035 -0.0091618896 0.74000001 6.5232826e-40
-0.007752364 -0.0091618821 0.74000001 5.6014384e-40
-0.0063343034 -0.0091495216 0.73900008 4.7010621e-40
-0.0049266596 -0.0091495216 0.73900008 8.3960339e-40
-0.0035190436 -0.0091495216 0.73900002 1.2998585e-39
-0.0021114314 -0.0091495141 0.73900008 1.1158287e-39
-0.00070190831 -0.0091247559 0.73700011 9.3107455e-40
0.00070189283 -0.0091247559 0.73700011 9.3142627e-40
0.0021056866 -0.0091247633 0.73700011 8.3995231e-40
0.0035190589 -0.0091495216 0.73900002 8.4139004e-40
0.0049133343 -0.0091247484 0.73700011 9.339402e-40
0.0063342894 -0.0091495216 0.73900008 7.4919021e-40
0.0077209533 -0.0091247484 0.73700011 6.5772466e-40
0.0091247782 -0.0091247559 0.73700011 3.7935812e-40
0.010557163 -0.0091495216 0.73900008 9.631825e-41
0.011964778 -0.0091495141 0.73900002 3.871258e-39
0.013372391 -0.0091495216 0.73900008 7.6692e-39
0.014780009 -0.0091495141 0.73900002 9.9719454e-39
0.016209515 -0.0091618821 0.74000001 1.2259574e-38
0.017666703 -0.0091866627 0.7420001 1.1709986e-38
0.019080004 -0.0091866702 0.7420001 1.125189e-38
0.020520996 -0.0091990307 0.74300009 1.032816e-38
0.021936221 -0.0091990381 0.74300009 9.4998101e-39
0.023414297 -0.0092238039 0.74500012 6.4584403e-39
0.024933355 -0.0092609599 0.74800009 3.4145173e-39
0.026428606 -0.0092856809 0.75000006 4.2405996e-39
0.027857181 -0.0092856959 0.75000012 4.9756409e-39
0.029285762 -0.0092856884 0.75000006 5.1611042e-39
0.030714313 -0.0092856959 0.75000012 5.3454996e-39
-0.029715244 -0.0079723671 0.7610001 2.8639107e-39
-0.028265728 -0.0079723746 0.7610001 3.8780557e-39
-0.02678098 -0.007961899 0.76000011 4.8932754e-39
-0.025266651 -0.0079409406 0.75800008 5.5379245e-39
-0.023759993 -0.0079199821 0.7560001 6.1811359e-39
-0.022290463 -0.007909514 0.75500005 6.2722596e-39
-0.020769531 -0.0078780875 0.75200009 6.3658901e-39
-0.019285703 -0.0078571215 0.75000006 7.0123287e-39
-0.017857097 -0.0078571215 0.75000006 7.6501381e-39
-0.016362844 -0.0078257024 0.7470001 3.9637871e-39
-0.014899979 -0.0078047514 0.74500006 1.9530317e-40
-0.013480907 -0.0078047514 0.74500006 3.7897416e-40
-0.012029527 -0.0077837929 0.74300009 5.6228222e-40
-0.010614273 -0.0077837929 0.74300009 6.5411351e-40
-0.009186673 -0.0077733248 0.7420001 7.4416375e-40
-0.007773316 -0.0077733323 0.7420001 5.5978511e-40
-0.0063428408 -0.0077523664 0.74000001 3.7898677e-40
-0.0049333307 -0.0077523813 0.74000007 6.5700859e-40
-0.0035190268 -0.0077418983 0.73900002 9.3251508e-40
-0.0021114408 -0.0077418908 0.73900008 9.3179762e-40
-0.00070379704 -0.0077418908 0.73900008 9.3142908e-40
0.00070382067 -0.0077418983 0.73900002 8.3886631e-40
0.0021114328 -0.0077419132 0.73900008 7.4775388e-40
0.0035190496 -0.0077418983 0.73900002 8.4103131e-40
0.0049266634 -0.0077419057 0.73900008 8.4138864e-40
0.0063428669 -0.0077523738 0.74000007 7.4883568e-40
0.007741922 -0.0077418908 0.73900002 5.6589056e-40
0.0091495104 -0.0077419057 0.73900008 3.8258811e-40
0.010557153 -0.0077419057 0.73900002 9.9188109e-41
0.011964769 -0.0077418908 0.73900002 3.767227e-39
0.013372382 -0.0077418983 0.73900008 7.4765803e-39
0.014800018 -0.0077523664 0.74000001 1.0623441e-38
0.016209556 -0.0077523664 0.74000001 1.3644676e-38
0.017666681 -0.0077733323 0.7420001 1.2909623e-38
0.019080009 -0.0077733323 0.7420001 1.2171688e-38
0.020520968 -0.0077838004 0.74300009 1.0878436e-38
0.021995269 -0.0078047588 0.74500012 9.4972737e-39
0.023477154 -0.0078257024 0.7470001 6.2761748e-39
0.024933364 -0.0078361779 0.74800009 2.9574965e-39
0.026358126 -0.0078361779 0.74800003 3.9654897e-39
0.027857183 -0.0078571215 0.75000006 4.8845439e-39
0.029285731 -0.0078571215 0.75000006 5.1603909e-39
0.030714339 -0.0078571215 0.75000006 5.4366163e-39
-0.029715238 -0.0065228418 0.76100004 3.4149251e-39
-0.02822859 -0.0065142885 0.76000011 4.1550013e-39
-0.026780944 -0.0065142885 0.76000011 4.8947131e-39
-0.025266634 -0.0064971223 0.75800002 5.5382833e-39
-0.023759993 -0.006479986 0.7560001 6.1811359e-39
-0.022290463 -0.0064714253 0.75500011 6.1811387e-39
-0.020769486 -0.006445691 0.75200009 6.180773e-39
-0.019337146 -0.0064456984 0.75200009 6.5513352e-39
-0.017857129 -0.0064285472 0.75000006 7.012665e-39
-0.016362863 -0.0064028427 0.7470001 3.5996849e-39
-0.014899989 -0.0063857138 0.74500012 2.8535201e-40
-0.013480917 -0.0063857138 0.74500012 4.6973486e-40
-0.012029501 -0.0063685551 0.74300009 7.4523855e-40
-0.010614246 -0.0063685626 0.74300009 7.4487561e-40
-0.0091866395 -0.0063599795 0.7420001 7.4344769e-40
-0.0077733123 -0.0063599944 0.7420001 6.5233667e-40
-0.0063599809 -0.0063599944 0.7420001 6.54852e-40
-0.0049333158 -0.0063428432 0.74000001 7.4812663e-40
-0.0035237747 -0.0063428357 0.74000001 9.3359128e-40
-0.0021114482 -0.0063342899 0.73900008 9.3251368e-40
-0.00070380635 -0.006334275 0.73900008 1.0232604e-39
0.00070381135 -0.006334275 0.73900002 8.388593e-40
0.0021114254 -0.0063342899 0.73900008 7.4703361e-40
0.0035190412 -0.006334275 0.73900002 7.4883568e-40
0.0049466877 -0.0063599944 0.7420001 8.4103131e-40
0.0063600163 -0.0063599944 0.7420001 7.4919722e-40
0.0077419127 -0.006334275 0.73900002 6.5772886e-40
0.0091866767 -0.0063600093 0.7420001 5.6374938e-40
0.010600008 -0.0063599944 0.7420001 5.5872572e-40
0.011980954 -0.0063428506 0.74000001 2.3107734e-39
0.013390493 -0.0063428357 0.74000001 4.0815564e-39
0.014800033 -0.0063428432 0.74000001 8.4086652e-39
0.016253328 -0.0063599944 0.7420001 1.2817118e-38
0.017666686 -0.0063600019 0.7420001 1.162468e-38
0.019105718 -0.0063685626 0.74300009 1.0524397e-38
0.020520972 -0.0063685626 0.74300009 7.8456921e-39
0.021995289 -0.0063857064 0.74500006 5.1809816e-39
0.023477137 -0.0064028427 0.7470001 3.6039463e-39
0.02493337 -0.0064114183 0.74800003 2.1223702e-39
0.026428595 -0.0064285621 0.75000012 3.4130782e-39
0.027857177 -0.0064285472 0.75000006 4.7012513e-39
0.029480968 -0.0064714029 0.75500011 4.9767227e-39
-0.029715234 -0.0050733164 0.76100004 3.8776885e-39
-0.028228581 -0.005066663 0.76000011 4.3397443e-39
-0.026710469 -0.0050533265 0.75800002 4.8021574e-39
-0.025266672 -0.005053319 0.75800008 5.4468065e-39
-0.023759995 -0.005039975 0.75600004 6.0896564e-39
-0.022290457 -0.0050333142 0.75500005 5.9988971e-39
-0.020797132 -0.0050199777 0.75300008 5.9063385e-39
-0.019337131 -0.0050133169 0.75200009 6.0917962e-39
-0.017857101 -0.0049999729 0.75000006 6.2715211e-39
-0.016384739 -0.0049866587 0.74800003 3.3198722e-39
-0.014939988 -0.004979983 0.7470001 2.86424e-40
-0.013480925 -0.0049666539 0.74500012 5.6084869e-40
-0.012029498 -0.0049533248 0.74300009 8.3707124e-40
-0.010614274 -0.0049533173 0.74300009 8.3706984e-40
-0.0091990195 -0.0049533248 0.74300009 7.4452529e-40
-0.0077733337 -0.004946664 0.7420001 8.3493286e-40
-0.0063599763 -0.004946664 0.7420001 8.3744819e-40
-0.0049466449 -0.004946664 0.7420001 8.3888592e-40
-0.0035237896 -0.0049333274 0.74000001 8.4032366e-40
-0.0021142515 -0.00493332 0.74000001 9.3252069e-40
-0.00070381566 -0.0049266517 0.73900002 1.0232688e-39
0.00070477248 -0.00493332 0.74000001 8.3851038e-40
0.0021142808 -0.0049333274 0.74000001 6.5591838e-40
0.0035333342 -0.004946664 0.7420001 7.4954894e-40
0.0049466924 -0.0049466714 0.7420001 8.4138864e-40
0.0063599939 -0.004946664 0.7420001 7.4883849e-40
0.0077733523 -0.004946664 0.7420001 6.5665266e-40
0.0091866842 -0.004946664 0.7420001 8.3925447e-40
0.010600011 -0.004946664 0.7420001 9.2857603e-40
0.012013344 -0.0049466565 0.7420001 8.353028e-40
0.013426671 -0.0049466714 0.7420001 6.6998882e-40
0.014840003 -0.004946664 0.7420001 6.2964109e-39
0.016253361 -0.0049466565 0.7420001 1.1894772e-38
0.017690493 -0.0049533397 0.74300009 1.0431128e-38
0.019105745 -0.0049533322 0.74300009 8.8530352e-39
0.020576239 -0.0049666539 0.74500006 4.8908077e-39
0.021995256 -0.0049666613 0.74500012 8.474913e-40
0.023477176 -0.004979983 0.7470001 1.0203569e-39
0.024900014 -0.0049799904 0.7470001 1.2065222e-39
0.026322877 -0.0049799904 0.7470001 2.8627743e-39
0.028079985 -0.0050399974 0.7560001 4.5172173e-39
0.029480999 -0.0050333217 0.75500005 4.8848858e-39
-0.029715259 -0.0036237985 0.7610001 3.7883628e-39
-0.028154282 -0.0036095083 0.75800002 4.2489794e-39
-0.026710453 -0.0036095083 0.75800002 4.7103191e-39
-0.025200004 -0.003599979 0.7560001 5.6290426e-39
-0.023759998 -0.0035999939 0.7560001 6.5477548e-39
-0.022290455 -0.0035952181 0.75500011 6.1814863e-39
-0.020797119 -0.0035856888 0.75300002 5.9052581e-39
-0.019337112 -0.0035809427 0.75200009 5.7230164e-39
-0.017857106 -0.003571406 0.75000012 5.6311823e-39
-0.016384764 -0.0035619065 0.74800009 3.1387096e-39
-0.014940003 -0.0035571307 0.7470001 6.5232826e-40
-0.013480932 -0.0035476089 0.74500006 5.6084309e-40
-0.012061888 -0.0035476089 0.74500012 5.6156195e-40
-0.010642841 -0.0035476089 0.74500006 5.6192209e-40
-0.0091990167 -0.0035380796 0.74300003 6.5376599e-40
-0.0077837934 -0.0035380796 0.74300009 6.526982e-40
-0.0063599986 -0.0035333335 0.7420001 6.5305974e-40
-0.0049466412 -0.0035333335 0.7420001 7.4705043e-40
-0.0035333394 -0.0035333261 0.7420001 9.3216336e-40
-0.0021199819 -0.0035333335 0.7420001 9.3216896e-40
-0.00070664875 -0.0035333335 0.7420001 1.0232772e-39
0.00070667983 -0.0035333335 0.7420001 9.3035568e-40
0.0021200103 -0.0035333261 0.7420001 9.3071021e-40
0.003533338 -0.003533341 0.7420001 9.3213953e-40
0.00494667 -0.0035333335 0.7420001 9.3358007e-40
0.0063600275 -0.0035333261 0.7420001 8.4067398e-40
0.00777333 -0.0035333335 0.7420001 7.4812803e-40
0.0091866879 -0.0035333335 0.7420001 7.477763e-40
0.01059999 -0.0035333261 0.7420001 8.3781393e-40
0.012013348 -0.0035333335 0.7420001 6.5234367e-40
0.013426706 -0.0035333261 0.7420001 3.7401357e-40
0.014840007 -0.0035333484 0.7420001 4.0643387e-39
0.01627524 -0.0035380945 0.74300009 7.6570227e-39
0.017690495 -0.0035380796 0.74300009 9.4061809e-39
0.019105749 -0.003538087 0.74300003 1.1218131e-38
0.020576229 -0.0035476089 0.74500012 8.2897902e-39
0.022054296 -0.0035571381 0.7470001 5.430295e-39
0.023477161 -0.0035571307 0.7470001 3.4102322e-39
0.024933357 -0.0035619065 0.74800009 1.3923428e-39
0.026358115 -0.0035618991 0.74800009 2.9546014e-39
0.02804289 -0.0035952181 0.75500005 4.5179292e-39
0.029480973 -0.003595233 0.75500011 4.7930489e-39
-0.028154263 -0.0021656975 0.75800002 4.1578655e-39
-0.026710464 -0.0021657124 0.75800008 4.6166913e-39
-0.025266636 -0.0021656975 0.75800002 5.8112758e-39
-0.02376 -0.0021599978 0.7560001 6.9158115e-39
-0.02229045 -0.002157107 0.75500005 6.3658733e-39
-0.020797135 -0.0021514148 0.75300008 5.8141387e-39
-0.019337125 -0.0021485612 0.75200009 5.4471512e-39
-0.017857136 -0.0021428466 0.75000012 4.9840277e-39
-0.016384752 -0.0021371394 0.74800009 2.9507324e-39
-0.014939966 -0.0021342635 0.7470001 9.2818927e-40
-0.01351713 -0.002134271 0.7470001 5.6047735e-40
-0.012061867 -0.0021285564 0.74500006 1.9421997e-40
-0.010642851 -0.0021285713 0.74500012 3.7897416e-40
-0.0091990447 -0.0021228418 0.74300009 4.6974047e-40
-0.0077837906 -0.0021228418 0.74300003 4.6866988e-40
-0.0063685668 -0.0021228492 0.74300009 3.7827071e-40
-0.0049533122 -0.0021228567 0.74300009 6.55931e-40
-0.0035333049 -0.0021199882 0.7420001 9.3215915e-40
-0.0021200033 -0.0021200031 0.7420001 9.3288082e-40
-0.00070664502 -0.0021200031 0.7420001 9.3036409e-40
0.00070665748 -0.0021199957 0.7420001 1.0211178e-39
0.0021228713 -0.0021228492 0.74300009 1.1136665e-39
0.0035381259 -0.0021228492 0.74300003 1.0232632e-39
0.0049533504 -0.0021228567 0.74300009 9.3250808e-40
0.006368605 -0.0021228418 0.74300009 8.4067678e-40
0.0077733337 -0.0021200106 0.7420001 7.4884409e-40
0.0091866665 -0.0021200031 0.7420001 7.4884829e-40
0.010614311 -0.0021228418 0.74300003 7.4739935e-40
0.012029536 -0.0021228492 0.74300009 4.7008519e-40
0.013426684 -0.0021200031 0.7420001 9.7045524e-41
0.01484004 -0.0021199957 0.7420001 1.7454616e-39
0.016275268 -0.0021228418 0.74300009 3.4315207e-39
0.017690521 -0.0021228492 0.74300003 8.5018614e-39
0.019105745 -0.0021228567 0.74300009 1.3544197e-38
0.02057622 -0.0021285713 0.74500012 1.1803979e-38
0.022054309 -0.002134271 0.7470001 9.9492737e-39
0.023508601 -0.0021371469 0.74800009 5.7979649e-39
0.025000038 -0.0021428391 0.75000012 1.5735012e-39
0.026604809 -0.0021571144 0.75500005 3.0457068e-39
0.028080007 -0.0021599755 0.7560001 4.4253734e-39
0.029481007 -0.0021571293 0.75500005 4.7934161e-39
0.030919064 -0.0021571368 0.75500005 5.1603951e-39
-0.028154274 -0.0007218942 0.75800008 3.4195985e-39
-0.026710445 -0.00072188675 0.75800002 3.41996e-39
-0.025266673 -0.0007218942 0.75800008 4.8929181e-39
-0.02376 -0.00071997941 0.7560001 6.3662306e-39
-0.022320019 -0.00071998686 0.7560001 5.9063343e-39
-0.020852337 -0.00071902573 0.75500005 5.538272e-39
-0.019362858 -0.00071712583 0.75300008 5.1716447e-39
-0.017904736 -0.00071617961 0.75200009 4.8968557e-39
-0.016384723 -0.00071235746 0.74800009 2.9543183e-39
-0.01495999 -0.00071237236 0.74800009 1.1097037e-39
-0.013517146 -0.00071141124 0.7470001 7.437826e-40
-0.012061878 -0.00070952624 0.74500012 4.6936632e-40
-0.01064283 -0.00070952624 0.74500006 4.6973907e-40
-0.0092237871 -0.00070951879 0.74500012 4.6938454e-40
-0.0077837915 -0.00070761144 0.74300009 5.6086551e-40
-0.006368564 -0.00070760399 0.74300009 6.5305974e-40
-0.0049533094 -0.00070760399 0.74300003 8.3888312e-40
-0.0035380854 -0.00070761144 0.74300009 1.0239918e-39
-0.0021199996 -0.00070667267 0.7420001 9.3072282e-40
-0.00070666551 -0.00070667267 0.7420001 8.363748e-40
0.00070669007 -0.00070665032 0.7420001 9.2892496e-40
0.0021199936 -0.00070666522 0.7420001 1.1125945e-39
0.0035333501 -0.00070666522 0.7420001 1.2062223e-39
0.0049467073 -0.00070667267 0.7420001 1.3909723e-39
0.0063600098 -0.00070665777 0.7420001 1.0239904e-39
0.0077733672 -0.00070666522 0.7420001 7.4884269e-40
0.0091866702 -0.00070667267 0.7420001 8.4067819e-40
0.010600027 -0.00070665777 0.7420001 9.3320873e-40
0.01201336 -0.00070665777 0.7420001 5.590284e-40
0.013426688 -0.00070667267 0.7420001 9.3790308e-41
0.01484002 -0.00070666522 0.7420001 4.6174424e-39
0.01627527 -0.00070760399 0.74300003 9.0464073e-39
0.017690495 -0.00070761144 0.74300009 1.1162264e-38
0.019105749 -0.00070760399 0.74300009 1.3193402e-38
0.02057624 -0.00070951879 0.74500006 1.2635924e-38
0.022054316 -0.00071141869 0.7470001 1.2080531e-38
0.023508608 -0.00071237236 0.74800003 6.8207208e-39
0.025000038 -0.00071425736 0.75000006 1.4755659e-39
0.026604783 -0.00071903318 0.75500005 2.8595121e-39
0.028042896 -0.00071902573 0.75500005 4.2424185e-39
0.029480981 -0.00071903318 0.75500011 4.4253636e-39
0.030919096 -0.00071902573 0.75500005 4.7019463e-39
-0.026780955 0.00072381645 0.76000011 2.134256e-39
-0.025266657 0.00072191656 0.75800002 3.9741988e-39
-0.02376 0.00072002411 0.7560001 5.7219458e-39
-0.022320021 0.00072001666 0.7560001 5.5386378e-39
-0.020852361 0.00071906298 0.75500005 5.2627768e-39
-0.019362845 0.00071716309 0.75300008 4.9879933e-39
-0.017904747 0.00071620941 0.75200009 4.7085324e-39
-0.016384745 0.00071238726 0.74800009 2.9514527e-39
-0.014959981 0.00071239471 0.74800003 1.203337e-39
-0.013517133 0.00071145594 0.7470001 9.2674173e-40
-0.012061857 0.00070952624 0.74500006 6.5267858e-40
-0.010642839 0.00070954114 0.74500012 5.6121023e-40
-0.0092237676 0.00070954114 0.74500012 3.771805e-40
-0.0077837897 0.00070763379 0.74300009 6.5196952e-40
-0.0063685351 0.00070763379 0.74300009 8.3672232e-40
-0.0049533113 0.00070762634 0.74300009 1.0221912e-39
-0.0035380565 0.00070761889 0.74300009 1.1143896e-39
-0.0021199661 0.00070666522 0.7420001 9.2928789e-40
-0.00070666365 0.00070665777 0.7420001 6.5378e-40
0.00070669473 0.00070667267 0.7420001 8.3673353e-40
0.0021200271 0.00070668012 0.7420001 1.0214793e-39
0.0035333538 0.00070666522 0.7420001 1.3891786e-39
0.0049466868 0.00070668012 0.7420001 1.7579584e-39
0.0063600135 0.00070666522 0.7420001 1.2065908e-39
0.0077733458 0.00070666522 0.7420001 6.5665126e-40
0.0091867037 0.00070666522 0.7420001 9.3215635e-40
0.010600006 0.00070667267 0.7420001 1.1136581e-39
0.012029536 0.00070762634 0.74300009 6.4729059e-40
0.013426667 0.00070666522 0.7420001 1.1103609e-40
0.014860045 0.00070763379 0.74300009 7.400529e-39
0.016275242 0.00070761889 0.74300009 1.4650868e-38
0.017738115 0.00070953369 0.74500006 1.3722828e-38
0.01915719 0.00070952624 0.74500006 1.2810589e-38
0.020631434 0.00071144104 0.7470001 1.3557488e-38
0.022083828 0.00071237981 0.74800003 1.4190229e-38
0.023508588 0.00071238726 0.74800009 7.8366566e-39
0.025000034 0.00071430951 0.75000012 1.3894603e-39
0.026534306 0.00071715564 0.75300008 2.6736635e-39
0.028042896 0.00071906298 0.75500005 3.9611513e-39
0.029480984 0.00071907789 0.75500005 4.0547762e-39
0.030960023 0.00072001666 0.7560001 4.1462516e-39
-0.026780976 0.002171427 0.76000011 3.0515278e-39
-0.025266638 0.0021657273 0.75800002 4.2493395e-39
-0.023759976 0.0021600127 0.7560001 5.4467967e-39
-0.022319995 0.0021600053 0.7560001 5.4460876e-39
-0.020852359 0.0021571517 0.75500011 5.5368595e-39
-0.019362831 0.0021514446 0.75300002 5.6305013e-39
-0.01790476 0.0021485761 0.75200009 5.8145156e-39
-0.016384738 0.0021371469 0.74800009 3.2301919e-39
-0.014960005 0.0021371394 0.74800009 7.4308896e-40
-0.013517124 0.0021342933 0.7470001 7.4379381e-40
-0.01206189 0.0021285787 0.74500012 7.4523154e-40
-0.010642819 0.0021285862 0.74500006 5.6084589e-40
-0.009223802 0.0021285787 0.74500012 3.7681196e-40
-0.0077837887 0.0021228716 0.74300003 5.6012002e-40
-0.006368564 0.0021228641 0.74300009 7.4415955e-40
-0.0049533104 0.002122879 0.74300009 8.3779852e-40
-0.0035380863 0.0021228641 0.74300009 1.0225513e-39
-0.0021199866 0.0021200031 0.7420001 8.3888592e-40
-0.00070663012 0.0021199957 0.7420001 6.548576e-40
0.00070667238 0.0021200031 0.7420001 7.4633436e-40
0.0021200299 0.0021199957 0.7420001 9.3036269e-40
0.0035333333 0.0021199957 0.7420001 1.1151085e-39
0.0049466896 0.0021200106 0.7420001 1.3916968e-39
0.0063600228 0.0021200106 0.7420001 9.3252349e-40
0.0077733495 0.0021199957 0.7420001 5.651787e-40
0.0091866814 0.0021199957 0.7420001 5.6445703e-40
0.01060001 0.0021200031 0.7420001 6.5556526e-40
0.01202954 0.0021228641 0.74300009 2.1206172e-39
0.013444792 0.0021228641 0.74300003 3.6894185e-39
0.014860017 0.0021228641 0.74300009 9.2301036e-39
0.016275272 0.0021228716 0.74300009 1.4842417e-38
0.017738106 0.0021285713 0.74500012 1.362913e-38
0.019157177 0.0021285787 0.74500012 1.2422037e-38
0.020631449 0.0021343008 0.7470001 1.2995692e-38
0.022083834 0.0021371469 0.74800009 1.3643873e-38
0.023571452 0.0021428838 0.75000006 7.3677989e-39
0.025066681 0.0021485761 0.75200009 1.1943001e-39
0.026534319 0.0021514446 0.75300008 4.1390601e-39
0.028042873 0.0021571517 0.75500011 7.0781561e-39
0.029480988 0.0021571517 0.75500005 7.2682843e-39
0.030959992 0.0021600053 0.7560001 7.4469316e-39
0.032400001 0.0021600202 0.7560001 7.4548209e-39
-0.028228588 0.0036190599 0.76000011 3.6911449e-39
-0.026710449 0.0036095455 0.75800002 3.8780487e-39
-0.025266649 0.0036095381 0.75800008 4.5244901e-39
-0.023760006 0.0036000013 0.7560001 5.1698553e-39
-0.022319995 0.0036000013 0.7560001 5.4460848e-39
-0.020852353 0.0035952553 0.75500005 5.7215969e-39
-0.019337114 0.0035809726 0.75200009 6.2736931e-39
-0.017904771 0.0035809577 0.75200009 6.8211103e-39
-0.01638473 0.003561914 0.74800003 3.5950228e-39
-0.014959997 0.0035619065 0.74800009 2.8498207e-40
-0.01351714 0.0035571605 0.7470001 5.5939695e-40
-0.012061871 0.0035476461 0.74500006 7.4415114e-40
-0.010642827 0.0035476312 0.74500012 5.6048716e-40
-0.0092237797 0.0035476312 0.74500006 3.7645603e-40
-0.0077837897 0.0035380945 0.74300009 4.668552e-40
-0.006368536 0.0035381168 0.74300009 5.6085149e-40
-0.0049533374 0.0035381019 0.74300009 7.4632315e-40
-0.0035380835 0.0035381019 0.74300009 9.3071582e-40
-0.0021199828 0.0035333335 0.7420001 7.4812522e-40
-0.00070665247 0.0035333335 0.7420001 5.6337803e-40
0.0007066761 0.003533341 0.7420001 7.4669029e-40
0.0021200075 0.0035333335 0.7420001 8.3960059e-40
0.0035333659 0.0035333335 0.7420001 9.3215215e-40
0.0049466672 0.003533341 0.7420001 9.3287381e-40
0.0063600256 0.0035333484 0.7420001 7.4956436e-40
0.0077733272 0.0035333261 0.7420001 4.7369633e-40
0.009186686 0.0035333335 0.7420001 2.8858761e-40
0.010600017 0.003533341 0.7420001 9.9174096e-41
0.012029567 0.0035381019 0.74300009 3.6739397e-39
0.013444765 0.0035381094 0.74300009 7.1938768e-39
0.014860018 0.0035381019 0.74300009 1.108008e-38
0.016319079 0.0035476312 0.74500012 1.4923492e-38
0.017738128 0.0035476312 0.74500006 1.3529413e-38
0.019157169 0.0035476163 0.74500012 1.2065468e-38
0.020631459 0.0035571456 0.7470001 1.2543342e-38
0.022083839 0.003561914 0.74800009 1.2987042e-38
0.02357145 0.0035714507 0.75000012 6.9800162e-39
0.025066702 0.0035809651 0.75200009 9.2489342e-40
0.026534332 0.003585726 0.75300002 5.610579e-39
0.028042903 0.0035952553 0.75500005 1.0217451e-38
0.029480962 0.0035952479 0.75500011 1.0493349e-38
0.030959992 0.0036000162 0.7560001 1.077602e-38
0.032400001 0.0036000162 0.7560001 1.0869641e-38
-0.028228577 0.0050666705 0.76000011 4.5237628e-39
-0.026710462 0.0050533414 0.75800008 4.7045695e-39
-0.025266634 0.0050533488 0.75800002 5.3513697e-39
-0.023760006 0.0050400048 0.7560001 5.9970908e-39
-0.022319995 0.0050400272 0.7560001 5.9056168e-39
-0.020797132 0.0050200075 0.75300008 5.9056168e-39
-0.019337125 0.0050133392 0.75200009 5.9981698e-39
-0.017904757 0.0050133392 0.75200009 6.090364e-39
-0.016428543 0.0050000101 0.75000012 3.4131441e-39
-0.014959963 0.004986681 0.74800009 8.3347971e-40
-0.013517131 0.0049800053 0.7470001 7.4341686e-40
-0.01206188 0.0049666837 0.74500012 6.5266877e-40
-0.010642807 0.0049666762 0.74500006 5.6120322e-40
-0.0092237908 0.0049666762 0.74500012 5.6048856e-40
-0.0077837869 0.0049533397 0.74300009 6.5196672e-40
-0.0063685332 0.0049533471 0.74300003 7.4488402e-40
-0.0049533094 0.0049533397 0.74300009 8.3780132e-40
-0.0035333058 0.0049466714 0.7420001 9.3071582e-40
-0.0021200052 0.0049466565 0.7420001 6.5592819e-40
-0.00070664688 0.004946664 0.7420001 4.7153974e-40
0.00070668355 0.0049466789 0.7420001 6.5556946e-40
0.0021200131 0.0049466714 0.7420001 9.3250948e-40
0.0035333436 0.004946664 0.7420001 1.0247023e-39
0.0049466728 0.0049466714 0.7420001 1.1172581e-39
0.0063600033 0.004946664 0.7420001 9.3322974e-40
0.0077733626 0.0049466714 0.7420001 6.5807919e-40
0.0091866637 0.0049466565 0.7420001 3.7826511e-40
0.010614316 0.0049533397 0.74300009 9.4154645e-41
0.012029538 0.0049533471 0.74300009 3.963448e-39
0.013444792 0.0049533397 0.74300009 7.7606768e-39
0.014900029 0.0049666762 0.74500012 1.1255851e-38
0.016319076 0.0049666837 0.74500006 1.4640097e-38
0.017785739 0.0049800128 0.7470001 1.2981998e-38
0.019208604 0.0049800202 0.7470001 1.1236449e-38
0.020659059 0.0049866661 0.74800009 1.1155776e-38
0.022142895 0.005000025 0.75000012 1.1157875e-38
0.023571474 0.005000025 0.75000006 7.3642256e-39
0.025066689 0.0050133392 0.75200009 3.5981701e-39
0.026534287 0.0050200149 0.75300008 8.3896762e-39
0.028042881 0.0050333515 0.75500011 1.3278903e-38
0.029480992 0.005033344 0.75500005 1.3824956e-38
0.030960018 0.0050400123 0.7560001 1.4293803e-38
0.032400027 0.0050400198 0.7560001 1.4195494e-38
-0.023760008 0.0064800233 0.7560001 6.7321391e-39
-0.022319997 0.0064800233 0.75600004 6.3651558e-39
-0.02079712 0.0064542964 0.75300008 5.9981782e-39
-0.019337138 0.0064457282 0.75200009 5.7233962e-39
-0.017857121 0.0064285919 0.75000006 5.3517438e-39
-0.016428573 0.0064285845 0.75000012 3.317008e-39
-0.014959987 0.0064114332 0.74800009 1.294818e-39
-0.013517118 0.0064028725 0.7470001 9.2781793e-40
-0.012061888 0.0063857138 0.74500012 4.7007958e-40
-0.010642817 0.0063857287 0.74500012 5.6263815e-40
-0.0092237694 0.0063857287 0.74500006 6.5303731e-40
-0.0078047286 0.0063857213 0.74500012 7.4415394e-40
-0.0063685603 0.00636857 0.74300009 8.3707405e-40
-0.0049533066 0.0063685924 0.74300009 8.3779992e-40
-0.0035380817 0.0063685775 0.74300009 8.3887612e-40
-0.0021199698 0.0063600019 0.7420001 6.5628272e-40
-0.00070666923 0.0063599944 0.7420001 3.8005597e-40
0.00070668914 0.0063600019 0.7420001 6.5556105e-40
0.0021199908 0.0063600019 0.7420001 9.3178641e-40
0.0035333473 0.0063600019 0.7420001 1.1161763e-39
0.0049466803 0.0063600168 0.7420001 1.3002074e-39
0.006360007 0.0063600019 0.7420001 1.1161805e-39
0.0077733402 0.0063600019 0.7420001 8.4031805e-40
0.0091866674 0.0063599944 0.7420001 4.722614e-40
0.0106 0.0063600093 0.7420001 9.9899969e-41
0.012029542 0.0063685849 0.74300009 4.2325001e-39
0.013444794 0.0063685849 0.74300003 8.3052354e-39
0.014860019 0.0063685775 0.74300009 1.1358094e-38
0.016319064 0.0063857213 0.74500012 1.4371409e-38
0.017738139 0.0063857213 0.74500006 1.2429911e-38
0.019208588 0.0064028725 0.7470001 1.0412068e-38
0.020659093 0.0064114332 0.74800003 9.8682563e-39
0.022083825 0.0064114183 0.74800009 9.2171177e-39
0.023571445 0.0064285919 0.75000006 7.7200867e-39
0.025066677 0.0064457208 0.75200009 6.1800233e-39
0.026534302 0.0064543039 0.75300002 1.1254985e-38
0.027968591 0.0064543039 0.75300008 1.6311338e-38
0.02948097 0.0064714551 0.75500005 1.7049989e-38
0.030960016 0.0064800158 0.7560001 1.7784308e-38
0.032399993 0.0064800084 0.7560001 1.751023e-38
-0.022231428 0.0078885928 0.75300008 6.0903696e-39
-0.020797107 0.0078885853 0.75300002 5.9989055e-39
-0.019337149 0.0078781024 0.75200009 5.9081574e-39
-0.017857125 0.0078571588 0.75000012 5.9085063e-39
-0.016428545 0.0078571588 0.75000006 3.3227519e-39
-0.014959978 0.0078361928 0.74800009 8.3529019e-40
-0.013535216 0.0078361928 0.74800003 6.5304152e-40
-0.012094274 0.0078257173 0.7470001 4.7152152e-40
-0.010671409 0.0078257248 0.7470001 6.5411351e-40
-0.0092237778 0.0078047663 0.74500012 8.367041e-40
-0.0078047332 0.0078047812 0.74500006 8.366999e-40
-0.0063856891 0.0078047663 0.74500012 8.3706984e-40
-0.0049533336 0.0077838078 0.74300009 8.3779712e-40
-0.0035380798 0.0077838153 0.74300009 7.4703782e-40
-0.0021199922 0.0077733397 0.7420001 7.4667908e-40
-0.00070666551 0.0077733248 0.7420001 7.4631615e-40
0.00070666679 0.0077733397 0.7420001 8.3850477e-40
0.0021200234 0.0077733323 0.7420001 9.307032e-40
0.0035333268 0.0077733323 0.7420001 1.0236191e-39
0.0049466831 0.0077733472 0.7420001 1.2080104e-39
0.0063685826 0.0077838078 0.74300009 1.1154588e-39
0.0077838372 0.0077838227 0.74300009 1.023273e-39
0.0091990624 0.0077838153 0.74300009 5.6302771e-40
0.010614315 0.0077838153 0.74300009 1.920998e-40
0.01202957 0.0077838227 0.74300003 2.865015e-39
0.013444768 0.0077838227 0.74300009 5.6448786e-39
0.01490004 0.0078047663 0.74500012 9.9701615e-39
0.016362872 0.0078257248 0.7470001 1.428137e-38
0.017785706 0.0078257173 0.7470001 1.2712236e-38
0.019234313 0.0078362003 0.74800003 1.1144587e-38
0.020659069 0.0078361928 0.74800009 1.1247194e-38
0.022142891 0.0078571513 0.75000006 1.1428329e-38
0.023571471 0.0078571737 0.75000006 9.4889948e-39
0.025066666 0.0078781024 0.75200009 7.5651452e-39
0.026534282 0.0078885779 0.75300008 1.1712124e-38
0.028042885 0.0079095289 0.75500005 1.5946938e-38
0.029520007 0.0079200119 0.7560001 1.6313181e-38
0.031123802 0.0079619065 0.76000011 1.6680527e-38
-0.023759983 0.0093600154 0.7560001 5.7212284e-39
-0.022290455 0.0093476325 0.75500005 5.8145002e-39
-0.020797124 0.0093228668 0.75300008 5.9074189e-39
-0.019337131 0.0093104988 0.75200003 6.1847247e-39
-0.017857101 0.0092857331 0.75000006 6.4559222e-39
-0.016428551 0.0092857331 0.75000012 3.4131511e-39
-0.014959972 0.0092609599 0.74800003 2.8642961e-40
-0.013535215 0.0092609525 0.74800009 3.771805e-40
-0.012094261 0.0092485845 0.7470001 4.6937053e-40
-0.010671426 0.0092485845 0.7470001 7.4559168e-40
-0.0092485612 0.0092485771 0.7470001 9.2890254e-40
-0.0078047425 0.0092238188 0.74500012 9.285438e-40
-0.0063856705 0.0092238262 0.74500006 8.3743418e-40
-0.0049666534 0.0092238113 0.74500012 7.4596582e-40
-0.0035475793 0.0092238262 0.74500006 6.5412893e-40
-0.0021199903 0.0091866627 0.7420001 8.3708245e-40
-0.0007066562 0.0091866702 0.7420001 1.0214667e-39
0.00070667051 0.0091866702 0.7420001 9.2926827e-40
0.0021228779 0.0091990605 0.74300009 8.3851318e-40
0.0035381324 0.0091990605 0.74300003 1.0236233e-39
0.0049533569 0.0091990605 0.74300009 1.1154588e-39
0.0063686115 0.0091990605 0.74300009 1.1143826e-39
0.0077838083 0.009199053 0.74300009 1.1147413e-39
0.0091990633 0.009199053 0.74300009 7.4847695e-40
0.010614318 0.0091990605 0.74300003 2.8786734e-40
0.012029542 0.0091990605 0.74300009 1.5735671e-39
0.013444796 0.0091990605 0.74300009 2.8794119e-39
0.01494002 0.009248592 0.74700004 8.5040348e-39
0.016362879 0.0092485845 0.7470001 1.4102742e-38
0.017809559 0.0092609599 0.74800009 1.2992436e-38
0.01923429 0.0092609525 0.74800009 1.1804328e-38
0.020714311 0.0092857331 0.75000006 1.2731307e-38
0.022142887 0.0092857257 0.75000012 1.3548108e-38
0.023571467 0.0092857406 0.75000012 1.1241785e-38
0.025066685 0.0093104765 0.75200003 8.8551469e-39
0.026604803 0.0093476325 0.75500005 1.2264907e-38
0.028080026 0.0093600228 0.7560001 1.5575634e-38
0.029520007 0.0093600154 0.7560001 1.5574903e-38
0.031164765 0.0094218999 0.7610001 1.5576342e-38
-0.023728538 0.010785736 0.75500005 5.7201466e-39
-0.022231432 0.010757156 0.75300008 5.8137785e-39
-0.020797111 0.010757148 0.75300008 5.9063329e-39
-0.019337116 0.010742866 0.75200009 5.9081266e-39
-0.017857129 0.010714315 0.75000012 5.9095643e-39
-0.016428551 0.010714307 0.75000006 3.4156594e-39
-0.014999974 0.0107143 0.75000012 9.2748582e-40
-0.013535207 0.010685727 0.74800009 7.4344909e-40
-0.012094278 0.010671444 0.7470001 6.5053319e-40
-0.010671417 0.010671437 0.7470001 6.5232125e-40
-0.00924855 0.010671437 0.7470001 7.4523575e-40
-0.0078047528 0.010642871 0.74500012 6.5268559e-40
-0.0063856789 0.010642864 0.74500012 6.5412752e-40
-0.004966632 0.010642864 0.74500006 5.6229763e-40
-0.0035475895 0.010642864 0.74500012 5.619375e-40
-0.0021199866 0.010599993 0.7420001 6.5448906e-40
-0.00070760242 0.010614298 0.74300009 8.3887471e-40
0.00070670404 0.010600016 0.7420001 7.4596022e-40
0.0021228816 0.010614291 0.74300003 5.6229343e-40
0.0035381063 0.010614298 0.74300009 8.3959778e-40
0.0049533588 0.010614306 0.74300009 1.0243422e-39
0.0063685835 0.010614291 0.74300009 1.2065754e-39
0.0077838381 0.010614283 0.74300009 1.2969704e-39
0.0091990912 0.010614298 0.74300009 9.3105633e-40
0.01061429 0.010614291 0.74300009 4.7367812e-40
0.012029544 0.010614291 0.74300009 1.0246953e-39
0.01348098 0.010642864 0.74500012 1.5811593e-39
0.014940026 0.010671444 0.7470001 5.9175867e-39
0.016362863 0.010671444 0.7470001 1.0347911e-38
0.017809536 0.010685712 0.74800009 1.0893163e-38
0.019234324 0.01068572 0.74800009 1.1542127e-38
0.020714307 0.0107143 0.75000012 1.0431867e-38
0.022142889 0.010714307 0.75000006 9.423791e-39
0.023571437 0.010714307 0.75000012 7.9299914e-39
0.0250667 0.010742866 0.75200009 6.4606081e-39
0.02653431 0.010757171 0.75300002 1.1160345e-38
0.028079996 0.010800011 0.7560001 1.5760723e-38
0.029520005 0.010800011 0.7560001 1.5667806e-38
0.031164771 0.010871425 0.7610001 1.55749e-38
-0.023728563 0.012223817 0.75500011 5.7208654e-39
-0.02229045 0.012223832 0.75500005 5.8137799e-39
-0.020797128 0.012191452 0.75300008 5.8144974e-39
-0.019337127 0.012175255 0.75200009 5.6322613e-39
-0.017857103 0.012142889 0.75000006 5.3531703e-39
-0.016428554 0.012142874 0.75000012 3.5035474e-39
-0.014999974 0.012142874 0.75000006 1.5710476e-39
-0.013535229 0.012110472 0.74800009 1.2019035e-39
-0.012110468 0.012110479 0.74800009 7.4308335e-40
-0.01068568 0.012110494 0.74800003 6.5088632e-40
-0.0092609487 0.012110487 0.74800009 4.6793279e-40
-0.0078257034 0.012094297 0.7470001 4.6649786e-40
-0.0064028674 0.012094297 0.7470001 3.771819e-40
-0.0049666422 0.012061916 0.74500012 3.7898397e-40
-0.0035475681 0.012061924 0.74500006 3.7898677e-40
-0.0021228532 0.012029536 0.74300009 5.6337803e-40
-0.00070759869 0.012029529 0.74300009 6.5484359e-40
0.00070765399 0.012029529 0.74300009 4.7008659e-40
0.0021228788 0.012029536 0.74300009 2.875002e-40
0.0035381333 0.012029536 0.74300009 6.5628693e-40
0.0049533318 0.012029521 0.74300009 9.3214934e-40
0.0063685845 0.012029544 0.74300009 1.2062167e-39
0.007783839 0.012029544 0.74300009 1.4810015e-39
0.0091990642 0.012029529 0.74300009 1.1136553e-39
0.010614319 0.012029529 0.74300009 6.5591838e-40
0.012061926 0.012061924 0.74500012 4.70102e-40
0.013480998 0.012061916 0.74500006 1.98571e-40
0.01494001 0.012094297 0.7470001 3.4207349e-39
0.016384782 0.012110472 0.74800009 6.5614469e-39
0.017809544 0.012110487 0.74800009 8.8738472e-39
0.019234331 0.012110487 0.74800003 1.1158241e-38
0.020659063 0.012110479 0.74800009 8.213753e-39
0.022142883 0.012142874 0.75000012 5.1673708e-39
0.023571461 0.012142882 0.75000006 4.593015e-39
0.025066687 0.012175247 0.75200009 4.0689167e-39
0.026534291 0.012191445 0.75300008 1.0062988e-38
0.028079996 0.01224 0.7560001 1.594368e-38
0.029520005 0.012240022 0.7560001 1.5760719e-38
0.031164775 0.012320958 0.7610001 1.5483425e-38
-0.02382284 0.013716206 0.75800002 5.6319026e-39
-0.022290474 0.013661921 0.75500011 5.9985285e-39
-0.020852359 0.013661928 0.75500005 6.2733176e-39
-0.01936282 0.013625734 0.75300002 5.9996033e-39
-0.017857108 0.013571456 0.75000012 5.724457e-39
-0.016428528 0.013571449 0.75000006 3.3227449e-39
-0.014999978 0.013571441 0.75000012 1.0182381e-39
-0.013571397 0.013571441 0.75000006 8.3491464e-40
-0.012110461 0.013535254 0.74800003 6.5196252e-40
-0.010685703 0.013535246 0.74800009 6.5196252e-40
-0.0092609152 0.013535246 0.74800009 6.5195972e-40
-0.0078361817 0.013535239 0.74800009 5.5976128e-40
-0.0064028283 0.013517171 0.7470001 5.6048996e-40
-0.0049799937 0.013517156 0.7470001 5.619361e-40
-0.0035476026 0.013480969 0.74500012 6.548548e-40
-0.0021228513 0.013444766 0.74300009 6.5557787e-40
-0.00070759683 0.013444766 0.74300003 7.4703642e-40
0.00070762791 0.013444774 0.74300009 6.5446524e-40
0.0021228825 0.013444774 0.74300009 6.5555685e-40
0.0035476477 0.013480961 0.74500012 8.4031805e-40
0.0049666935 0.013480976 0.74500006 1.0247023e-39
0.0063686143 0.013444774 0.74300009 1.2069342e-39
0.0077838111 0.013444774 0.74300009 1.2973319e-39
0.0091990661 0.013444774 0.74300009 1.0232576e-39
0.010642899 0.013480969 0.74500012 8.4138864e-40
0.012061945 0.013480969 0.74500006 4.7046774e-40
0.013480989 0.013480954 0.74500012 1.8885159e-40
0.014940021 0.013517156 0.7470001 2.7677663e-39
0.016362887 0.013517164 0.7470001 5.3485292e-39
0.017809549 0.013535254 0.74800003 8.3041676e-39
0.019234307 0.013535239 0.74800009 1.1227076e-38
0.020659069 0.013535239 0.74800003 8.2893727e-39
0.022142909 0.013571449 0.75000006 5.4187833e-39
0.02357146 0.013571456 0.75000012 4.5072303e-39
0.025066676 0.013607629 0.75200009 3.7001188e-39
0.026534302 0.013625741 0.75300008 8.7701203e-39
0.028079996 0.013680018 0.7560001 1.3833261e-38
0.029598126 0.013716213 0.75800002 1.3461246e-38
0.031164778 0.013770483 0.7610001 1.3185029e-38
0.032614265 0.013770498 0.7610001 1.3092124e-38
-0.023822822 0.015160024 0.75800002 5.5393482e-39
-0.02231998 0.015120015 0.7560001 6.1836302e-39
-0.020879999 0.015120015 0.7560001 6.7342929e-39
-0.019362839 0.015060022 0.75300008 6.3676768e-39
-0.017904753 0.015040018 0.75200009 5.9960244e-39
-0.016472355 0.015040018 0.75200009 3.2283983e-39
-0.014999951 0.015000015 0.75000006 3.7753643e-40
-0.013571403 0.015000015 0.75000012 4.6756425e-40
-0.012142822 0.015000038 0.75000006 5.6048015e-40
-0.010714271 0.015000015 0.75000012 7.4415675e-40
-0.0092609366 0.014959998 0.74800009 8.3563211e-40
-0.0078361752 0.014960013 0.74800009 7.4307915e-40
-0.006402845 0.014940016 0.7470001 6.5268699e-40
-0.0049800104 0.014940016 0.7470001 7.4560709e-40
-0.0035571188 0.014940009 0.7470001 8.3852299e-40
-0.0021285398 0.014899999 0.74500012 8.3996212e-40
-0.000709493 0.014900014 0.74500006 7.4667908e-40
0.0007095483 0.014900006 0.74500012 8.3742717e-40
0.0021285953 0.014900006 0.74500006 9.3070601e-40
0.0035476394 0.014899999 0.74500012 1.024345e-39
0.0049666851 0.014900014 0.74500012 1.1154602e-39
0.0063685863 0.014860004 0.74300009 1.1150987e-39
0.0077838409 0.014860019 0.74300009 1.1147385e-39
0.0092238486 0.014900021 0.74500006 1.0239792e-39
0.010642865 0.014900006 0.74500012 9.328626e-40
0.012061937 0.014900014 0.74500012 5.6516469e-40
0.013517169 0.014940016 0.7470001 9.808809e-41
0.014940003 0.014940009 0.7470001 2.1127223e-39
0.016362868 0.014940009 0.7470001 4.0718202e-39
0.017809529 0.014960013 0.74800009 7.6746286e-39
0.019234316 0.014960006 0.74800009 1.1245056e-38
0.020659048 0.014959991 0.74800009 8.4820624e-39
0.022142878 0.015000015 0.75000012 5.7122559e-39
0.02357146 0.015000015 0.75000006 4.5004256e-39
0.025066664 0.015039995 0.75200009 3.2402407e-39
0.02660479 0.015100025 0.75500005 7.4844458e-39
0.028080018 0.015120022 0.7560001 1.1620619e-38
0.029598089 0.015160002 0.75800008 1.1250039e-38
0.031164786 0.015220009 0.7610001 1.0791942e-38
0.032614298 0.015220016 0.7610001 1.060433e-38
-0.023822859 0.016603827 0.75800008 4.6224282e-39
-0.02232001 0.016560003 0.7560001 4.9876108e-39
-0.020879999 0.016560011 0.7560001 5.2649292e-39
-0.019362826 0.016494304 0.75300008 4.9894395e-39
-0.017904764 0.016472377 0.75200009 4.7149966e-39
-0.016472364 0.016472407 0.75200009 2.7731655e-39
-0.014999983 0.016428597 0.75000006 9.2890394e-40
-0.013571402 0.01642859 0.75000006 8.3633136e-40
-0.012142827 0.016428597 0.75000012 7.4558187e-40
-0.010714246 0.016428597 0.75000006 7.4487281e-40
-0.0092856968 0.01642859 0.75000012 7.4344068e-40
-0.0078361696 0.01638478 0.74800003 6.5160799e-40
-0.0064114123 0.016384758 0.74800009 4.6937753e-40
-0.0049799713 0.016362868 0.7470001 6.5377019e-40
-0.0035571347 0.016362876 0.7470001 9.2927948e-40
-0.0021285194 0.016319066 0.74500006 7.4632736e-40
-0.00070950232 0.016319066 0.74500012 5.6229343e-40
0.00070957065 0.016319059 0.74500006 6.5376459e-40
0.0021285869 0.016319051 0.74500012 7.4560289e-40
0.0035571565 0.016362868 0.7470001 9.3071161e-40
0.0049667056 0.016319066 0.74500006 1.1143826e-39
0.0063685873 0.016275249 0.74300009 1.1140225e-39
0.0078047956 0.016319059 0.74500006 1.1136651e-39
0.0092238383 0.016319059 0.74500012 8.3959358e-40
0.01067145 0.016362861 0.7470001 6.5807218e-40
0.012094317 0.016362891 0.7470001 4.6865726e-40
0.013517152 0.016362876 0.7470001 3.7215685e-40
0.014940018 0.016362876 0.7470001 4.3422456e-39
0.016384775 0.016384766 0.74800009 8.4064021e-39
0.017809562 0.016384766 0.74800009 1.0155658e-38
0.019234294 0.016384773 0.74800009 1.1902656e-38
0.020714324 0.016428597 0.75000012 9.3183181e-39
0.02220194 0.016472399 0.75200009 6.7429249e-39
0.023634309 0.016472399 0.75200009 5.6221916e-39
0.025100036 0.016494311 0.75300002 4.6220933e-39
0.02660479 0.016538113 0.75500011 7.9393395e-39
0.028154306 0.01660382 0.75800002 1.1251146e-38
0.029598106 0.016603813 0.75800002 1.0881998e-38
0.03116479 0.016669534 0.76100004 1.0515735e-38
0.032571413 0.016647622 0.76000011 1.032812e-38
-0.025266672 0.018047623 0.75800008 3.8784116e-39
-0.023822842 0.018047646 0.75800002 3.6961713e-39
-0.022379043 0.018047638 0.75800008 3.7869278e-39
-0.020880001 0.018000014 0.7560001 3.7890928e-39
-0.019414239 0.017976202 0.75500005 3.6093791e-39
-0.017904775 0.017904773 0.75200009 3.3288392e-39
-0.016472375 0.017904766 0.75200009 2.4043745e-39
-0.014999988 0.017857164 0.75000012 1.4809903e-39
-0.013571407 0.017857157 0.75000006 1.2033258e-39
-0.012142828 0.017857179 0.75000006 8.3742157e-40
-0.010714251 0.017857157 0.75000012 7.4594901e-40
-0.0092856698 0.017857164 0.75000006 6.5196392e-40
-0.0078361901 0.017809533 0.74800009 4.668622e-40
-0.006411403 0.017809533 0.74800009 2.8498767e-40
-0.0049866713 0.017809518 0.74800009 6.5376739e-40
-0.0035571523 0.017785728 0.7470001 9.2927668e-40
-0.0021285547 0.017738111 0.74500006 6.53773e-40
-0.00070948183 0.017738111 0.74500006 3.782595e-40
0.00070955948 0.017738096 0.74500012 4.6937193e-40
0.0021286083 0.017738096 0.74500006 4.7081106e-40
0.0035571407 0.017785728 0.7470001 8.3887612e-40
0.0049666972 0.017738104 0.74500006 1.1136623e-39
0.0063857692 0.017738111 0.74500006 1.1129421e-39
0.0078047854 0.017738096 0.74500012 1.113305e-39
0.0092238598 0.017738111 0.74500006 7.4632456e-40
0.010642877 0.017738096 0.74500012 2.8499328e-40
0.012094298 0.017785728 0.7470001 4.6292455e-40
0.013535261 0.01780954 0.74800003 6.6455879e-40
0.014960019 0.017809525 0.74800009 6.6618752e-39
0.016384782 0.017809525 0.74800009 1.2633724e-38
0.017809538 0.017809518 0.74800009 1.2638779e-38
0.019234302 0.017809533 0.74800009 1.254119e-38
0.020714294 0.017857157 0.75000012 1.0145918e-38
0.0221429 0.017857157 0.75000012 7.7477414e-39
0.023634298 0.017904758 0.75200009 6.8063771e-39
0.025100017 0.017928593 0.75300008 5.9063581e-39
0.026640007 0.018000014 0.7560001 8.3999477e-39
0.028154293 0.018047631 0.75800008 1.0880212e-38
0.029598122 0.018047638 0.75800002 1.0602185e-38
0.031164763 0.018119045 0.7610001 1.0235916e-38
0.03257142 0.01809524 0.76000011 1.004758e-38
-0.025333337 0.019542858 0.76000011 3.2330394e-39
-0.023885746 0.019542851 0.76000011 2.7720682e-39
-0.022379026 0.019491449 0.75800008 2.5869623e-39
-0.020935254 0.019491442 0.75800008 2.4954926e-39
-0.019439993 0.019440018 0.7560001 2.3125446e-39
-0.017904757 0.019337162 0.75200003 2.1267114e-39
-0.016472388 0.019337155 0.75200009 1.6653718e-39
-0.014999961 0.019285738 0.75000012 1.20333e-39
-0.01357141 0.019285724 0.75000012 1.0207408e-39
-0.01214283 0.019285738 0.75000012 8.3814464e-40
-0.010714251 0.019285746 0.75000006 7.4559028e-40
-0.0092856996 0.019285738 0.75000006 7.4380082e-40
-0.0078571187 0.019285738 0.75000006 6.5125066e-40
-0.0064114272 0.019234285 0.74800009 5.597753e-40
-0.0049866396 0.0192343 0.74800009 6.5304572e-40
-0.0035571123 0.019208595 0.7470001 8.3707965e-40
-0.0021371201 0.019234285 0.74800009 6.5412893e-40
-0.00071141246 0.019208588 0.7470001 5.6192769e-40
0.00071142305 0.01920858 0.7470001 5.6263815e-40
0.002128599 0.019157164 0.74500012 5.6372135e-40
0.0035571808 0.019208595 0.7470001 8.3851598e-40
0.0049666869 0.019157149 0.74500012 1.1125833e-39
0.0063857348 0.019157149 0.74500006 1.0211024e-39
0.0078048077 0.019157164 0.74500006 1.0207506e-39
0.0092238504 0.019157149 0.74500012 6.5305553e-40
0.010642896 0.019157156 0.74500006 1.9029213e-40
0.012061914 0.019157149 0.74500012 2.2142618e-39
0.013535239 0.019234292 0.74800009 4.2526368e-39
0.014960026 0.019234292 0.74800009 7.8525725e-39
0.016384788 0.019234292 0.74800003 1.1532078e-38
0.017809546 0.019234292 0.74800009 1.1161494e-38
0.019285738 0.019285731 0.75000012 1.0793434e-38
0.020714318 0.019285738 0.75000006 9.4108795e-39
0.022142868 0.019285738 0.75000012 8.0300708e-39
0.023634316 0.019337155 0.75200009 6.9154416e-39
0.025166683 0.019414298 0.75500011 5.7255598e-39
0.026640007 0.01944001 0.7560001 8.3977897e-39
0.028154312 0.019491442 0.75800002 1.1063522e-38
0.029598111 0.019491442 0.75800008 1.0879841e-38
0.031123787 0.019542858 0.76000011 1.0788716e-38
0.032571435 0.019542858 0.76000011 1.0418856e-38
-0.025366671 0.02101811 0.76100004 2.5887588e-39
-0.023917157 0.021018103 0.7610001 1.7579261e-39
-0.022438118 0.020990476 0.76000011 1.4770316e-39
-0.020935236 0.02093526 0.75800008 1.1122078e-39
-0.019439997 0.020880021 0.7560001 1.0189444e-39
-0.017904742 0.020769544 0.75200009 8.3706003e-40
-0.016472401 0.020769536 0.75200009 9.2745359e-40
-0.01499999 0.020714305 0.75000012 9.2818227e-40
-0.013571411 0.020714305 0.75000006 9.2927108e-40
-0.012142834 0.020714305 0.75000012 8.3743138e-40
-0.010714253 0.020714313 0.75000012 8.3742717e-40
-0.0092856744 0.02071432 0.75000006 7.4415675e-40
-0.0078571234 0.020714305 0.75000006 7.4236168e-40
-0.0064114179 0.020659059 0.74800009 7.4380082e-40
-0.0049866303 0.020659059 0.74800003 7.4559868e-40
-0.0035618984 0.020659052 0.74800009 6.5448626e-40
-0.0021371108 0.020659052 0.74800009 6.5484919e-40
-0.00070950045 0.020576194 0.74500012 6.5448486e-40
0.00070954644 0.020576194 0.74500006 6.5519672e-40
0.0021286204 0.020576209 0.74500006 5.6300949e-40
0.0035476366 0.020576201 0.74500012 8.3816285e-40
0.0049667084 0.020576194 0.74500006 1.0214695e-39
0.0063857255 0.020576201 0.74500012 1.0214625e-39
0.0078047975 0.020576209 0.74500012 9.2999275e-40
0.0092238458 0.020576209 0.74500006 5.6265637e-40
0.010642888 0.020576194 0.74500012 9.8458033e-41
0.012094293 0.020631433 0.7470001 3.950528e-39
0.013517158 0.020631447 0.7470001 7.8392434e-39
0.014960034 0.020659059 0.74800003 9.1465203e-39
0.016384766 0.020659059 0.74800009 1.0332104e-38
0.017809553 0.020659059 0.74800003 9.6816944e-39
0.019285765 0.020714305 0.75000006 8.9509635e-39
0.020714317 0.020714305 0.75000012 8.6740291e-39
0.022142895 0.020714313 0.75000006 8.3027032e-39
0.023665747 0.020797163 0.75300008 6.9154486e-39
0.025166713 0.020852394 0.75500005 5.5429664e-39
0.02660477 0.020852402 0.75500011 8.4017344e-39
0.028080011 0.020880029 0.7560001 1.1248269e-38
0.02959813 0.020935252 0.75800008 1.1248979e-38
0.031123823 0.020990491 0.76000011 1.1248265e-38
0.032485731 0.020935267 0.75800002 1.0880565e-38
0.033929557 0.02093526 0.75800002 1.0419953e-38
-0.026957165 0.022585712 0.7650001 3.4192299e-39
-0.025433337 0.022526681 0.76300001 2.4954898e-39
-0.023979975 0.022526681 0.76300001 1.5710223e-39
-0.022467609 0.022467636 0.76100004 1.2944242e-39
-0.020935217 0.022379071 0.75800002 1.1096855e-39
-0.019491417 0.022379063 0.75800008 1.0189332e-39
-0.017928543 0.022231437 0.75300008 9.2745219e-40
-0.016494276 0.022231452 0.75300008 9.2780532e-40
-0.015039987 0.022201918 0.75200009 9.2818367e-40
-0.013607613 0.022201926 0.75200009 9.2891935e-40
-0.012175244 0.022201911 0.75200009 8.3671812e-40
-0.010742846 0.022201911 0.75200009 8.3706984e-40
-0.0092856791 0.022142887 0.75000012 7.4487141e-40
-0.0078570982 0.02214288 0.75000006 6.5195411e-40
-0.0064285477 0.022142887 0.75000012 6.5160379e-40
-0.0049999668 0.022142887 0.75000006 6.5376319e-40
-0.0035714174 0.02214288 0.75000012 6.5520512e-40
-0.002137135 0.022083819 0.74800009 6.5449326e-40
-0.00071141898 0.0220543 0.7470001 6.5448906e-40
0.00071241584 0.022083819 0.74800003 6.5412612e-40
0.002134281 0.0220543 0.7470001 7.4560989e-40
