# .PCD v0.7 - Point Cloud Data file format
VERSION 0.7
FIELDS x y z rgb
SIZE 4 4 4 4
TYPE F F F F
COUNT 1 1 1 1
WIDTH 968
HEIGHT 1
VIEWPOINT 0 0 0 1 0 0 0
POINTS 968
DATA ascii
-0.028488567 0.0094961748 0.76700008 1.1082071e-39
-0.026957143 0.0094714239 0.76500005 8.3343347e-40
-0.025500009 0.0094714314 0.76500005 1.0178387e-39
-0.023917137 0.0094219074 0.76100004 1.1093155e-39
-0.022438107 0.0094095096 0.76000005 8.3273422e-40
-0.020935243 0.0093847662 0.75800002 4.6539504e-40
-0.019440014 0.0093599856 0.75600004 7.40547e-40
-0.017976198 0.0093476102 0.75500005 9.2529699e-40
-0.01649428 0.0093228593 0.75300002 7.4234627e-40
-0.015040014 0.009310469 0.75200003 4.6864185e-40
-0.013607623 0.009310469 0.75200003 4.6865026e-40
-0.012142854 0.0092857108 0.75000012 3.7717349e-40
-0.010714285 0.0092857108 0.75000006 2.8175208e-40
-0.0092857173 0.0092857033 0.75000006 1.0529497e-40
-0.0078571383 0.0092857108 0.75000012 6.3770543e-39
-0.0064285696 0.0092857033 0.75000012 1.2546181e-38
-0.0050000008 0.0092857033 0.75000006 1.3385262e-38
-0.0035714323 0.0092857257 0.75000006 1.4189517e-38
-0.00213428 0.0092485696 0.74700004 9.6730554e-39
-0.00071239262 0.0092609525 0.74800003 5.0805813e-39
0.00071236375 0.0092609525 0.74800003 3.7687151e-39
0.0021371383 0.009260945 0.74800009 2.514965e-39
0.0035619016 0.009260945 0.74800003 8.5894019e-39
0.0049866587 0.0092609525 0.74800003 1.4561227e-38
0.0064114225 0.009260945 0.74800003 1.1806171e-38
0.0078361798 0.0092609525 0.74800003 9.0370635e-39
0.0092609543 0.009260945 0.74800009 8.4655495e-39
0.01068571 0.009260945 0.74800003 7.8291638e-39
0.012110475 0.009260945 0.74800003 4.2429216e-39
0.013535231 0.0092609376 0.74800003 5.6589617e-40
0.015 0.0092857033 0.75000012 7.4775668e-40
0.016428569 0.0092857033 0.75000012 9.3287381e-40
0.017857136 0.0092857182 0.75000006 1.3016633e-39
0.019285707 0.0092857182 0.75000006 1.6700759e-39
0.020769518 0.009310469 0.75200003 1.211253e-39
0.022231437 0.0093228593 0.75300008 7.4703081e-40
0.023665721 0.0093228519 0.75300008 3.3123052e-39
0.02516667 0.0093476251 0.75500005 5.9077734e-39
0.026639996 0.0093599856 0.75600004 1.0890247e-38
0.028228562 0.0094095096 0.76000005 1.5760025e-38
0.029676186 0.0094095021 0.76000011 1.5574906e-38
0.031328566 0.0094714463 0.76500005 1.5391953e-38
-0.028488569 0.010957129 0.76700002 1.1103707e-39
-0.026957141 0.010928571 0.76500005 1.0181877e-39
-0.025433335 0.010899983 0.76300001 1.0181975e-39
-0.02391714 0.010871418 0.7610001 1.0171213e-39
-0.022438092 0.01085712 0.76000011 8.3344889e-40
-0.020935237 0.010828562 0.75800002 5.579466e-40
-0.019439999 0.010799997 0.75600004 7.416218e-40
-0.017976196 0.010785706 0.75500005 8.3417756e-40
-0.016494276 0.010757133 0.75300008 7.437798e-40
-0.015040006 0.010742858 0.75200003 6.5338904e-40
-0.013607627 0.010742858 0.75200003 6.5411491e-40
-0.012142854 0.010714278 0.75000012 6.5519531e-40
-0.010714285 0.010714293 0.75000012 4.668636e-40
-0.0092857163 0.010714293 0.75000006 2.7820259e-40
-0.0078571383 0.010714278 0.75000012 3.4243166e-39
-0.0064285696 0.010714285 0.75000012 6.5697174e-39
-0.0050000008 0.010714293 0.75000012 9.9751978e-39
-0.0035714323 0.010714285 0.75000006 1.3466708e-38
-0.0021371567 0.01068572 0.74800003 1.1800723e-38
-0.00071238563 0.010685712 0.74800003 1.0132608e-38
0.00071238144 0.010685705 0.74800003 9.586968e-39
0.0021342908 0.010671422 0.7470001 9.137175e-39
0.003557144 0.010671429 0.74700004 1.2268966e-38
0.0049800072 0.010671422 0.7470001 1.5483189e-38
0.0064114151 0.010685712 0.74800003 1.3462789e-38
0.0078361891 0.010685705 0.74800009 1.1528489e-38
0.0092609469 0.010685697 0.74800003 1.1158621e-38
0.010685711 0.010685712 0.74800003 1.0893504e-38
0.012110468 0.010685712 0.74800003 5.7266668e-39
0.013535231 0.010685712 0.74800003 6.6096586e-40
0.015000001 0.010714285 0.75000012 9.3284439e-40
0.016428569 0.010714285 0.75000012 1.2998473e-39
0.017857136 0.010714285 0.75000006 1.4856889e-39
0.019337134 0.010742858 0.75200003 1.76191e-39
0.020769516 0.010742858 0.75200003 1.209818e-39
0.022231432 0.010757141 0.75300002 6.5519672e-40
0.023728576 0.010785714 0.75500005 3.3201973e-39
0.025166664 0.010785714 0.75500005 6.0925136e-39
0.026639992 0.010799982 0.75600004 1.1069241e-38
0.028228568 0.01085712 0.76000011 1.6034446e-38
0.029598087 0.01082857 0.75800002 1.5758212e-38
0.031246671 0.010899998 0.76300001 1.5480912e-38
-0.027027614 0.012418084 0.76700002 1.1103833e-39
-0.025500007 0.012385711 0.76500005 1.0189163e-39
-0.02391714 0.012320958 0.76100004 9.2636338e-40
-0.022438105 0.012304753 0.76000005 8.3417056e-40
-0.020935247 0.01227238 0.75800002 6.5014363e-40
-0.019440001 0.012239985 0.75600004 7.4234207e-40
-0.017928572 0.01219143 0.75300002 7.4342107e-40
-0.01647239 0.01217524 0.75200003 7.4521753e-40
-0.015040008 0.01217524 0.75199997 7.4558467e-40
-0.013607632 0.012175232 0.75200003 8.388621e-40
-0.012142854 0.012142852 0.75000012 8.3815024e-40
-0.010714285 0.012142852 0.75000012 6.5233246e-40
-0.0092857163 0.012142852 0.75000006 3.7647845e-40
-0.0078571476 0.012142859 0.75000006 4.7155375e-40
-0.0064285691 0.012142852 0.75000012 5.8316017e-40
-0.0050000004 0.012142844 0.75000012 6.66192e-39
-0.0035714323 0.012142859 0.75000006 1.2635885e-38
-0.0021371397 0.012110472 0.74800009 1.3930902e-38
-0.00071238284 0.012110464 0.74800003 1.5114718e-38
0.00071237353 0.012110472 0.74800003 1.5492462e-38
0.002134287 0.012094282 0.7470001 1.5761899e-38
0.0035618942 0.012110472 0.74800003 1.6049991e-38
0.0049866582 0.012110472 0.74800003 1.6313646e-38
0.0064114253 0.012110464 0.74800003 1.5216989e-38
0.0078361891 0.012110479 0.74800003 1.4014146e-38
0.0092609469 0.012110464 0.74800003 1.3929833e-38
0.010685711 0.012110464 0.74800003 1.3822527e-38
0.012110468 0.012110479 0.74800003 7.2924777e-39
0.013535224 0.012110479 0.74800003 6.5987005e-40
0.015000001 0.012142844 0.75000012 1.1143798e-39
0.016428569 0.012142867 0.75000012 1.5764426e-39
0.017904753 0.01217524 0.75200003 1.7630002e-39
0.019337142 0.012175232 0.75200003 1.85447e-39
0.02079715 0.01219143 0.75300008 1.2105397e-39
0.022231435 0.01219143 0.75300008 4.7152572e-40
0.023665721 0.012191422 0.75300008 3.3119437e-39
0.025200002 0.012239985 0.7560001 6.183989e-39
0.026639992 0.01224 0.75600004 1.1260088e-38
0.028228564 0.012304761 0.76000005 1.6218837e-38
0.029676182 0.012304753 0.76000011 1.5942605e-38
0.031246671 0.012353323 0.76300001 1.5574188e-38
-0.02702762 0.013879046 0.76700008 9.2599764e-40
-0.025500007 0.013842858 0.76500005 9.2672211e-40
-0.02391714 0.013770491 0.76100004 9.2708365e-40
-0.022438092 0.013752379 0.76000011 7.4233926e-40
-0.020935241 0.013716184 0.75800002 6.5014784e-40
-0.019439993 0.013679981 0.7560001 6.5050797e-40
-0.017928569 0.013625719 0.75300008 6.5158837e-40
-0.016494276 0.013625711 0.75300008 7.4414414e-40
-0.015040016 0.013607614 0.75200003 8.3598664e-40
-0.013607634 0.013607614 0.75200003 7.4523294e-40
-0.012142854 0.013571419 0.75000012 7.4631755e-40
-0.010714285 0.013571434 0.75000012 6.5413033e-40
-0.0092857163 0.013571426 0.75000006 6.5448065e-40
-0.0078571476 0.013571426 0.75000006 6.5662324e-40
-0.0064285686 0.013571434 0.75000012 6.5989807e-40
-0.0049999999 0.013571426 0.75000012 3.517964e-39
-0.0035714319 0.013571434 0.75000006 6.3821032e-39
-0.0021371467 0.013535224 0.74800003 8.7741505e-39
-0.00071239029 0.013535231 0.74800003 1.1260172e-38
0.00071236654 0.013535239 0.74800003 9.7843507e-39
0.0021371304 0.013535231 0.74800003 8.4086133e-39
0.0035618942 0.013535246 0.74800003 8.3085284e-39
0.0049866615 0.013535231 0.74800003 8.2191984e-39
0.0064114253 0.013535231 0.74800003 7.6613639e-39
0.0078361817 0.013535224 0.74800003 7.1160823e-39
0.009260946 0.013535239 0.74800003 7.0156274e-39
0.010714286 0.013571419 0.75000012 7.0116071e-39
0.012110468 0.013535231 0.74800003 3.7840173e-39
0.013535235 0.013535231 0.74800003 5.5151184e-40
0.014999991 0.013571441 0.75000006 1.0204073e-39
0.016472368 0.013607629 0.75199997 1.3942205e-39
0.017904751 0.013607606 0.75200003 1.5789803e-39
0.019337131 0.013607614 0.75200003 1.7637177e-39
0.020797145 0.013625719 0.75300002 1.2105425e-39
0.02223143 0.013625704 0.75300002 6.5663164e-40
0.023728563 0.013661906 0.75500005 3.2294324e-39
0.025166661 0.013661914 0.75500005 5.8159295e-39
0.026639991 0.013679981 0.75600004 9.8739455e-39
0.02822857 0.013752371 0.76000011 1.4015147e-38
0.029676184 0.013752371 0.76000005 1.3552016e-38
0.031246673 0.013806656 0.76300001 1.3093916e-38
0.03270001 0.013806649 0.76300007 1.3092483e-38
-0.025500005 0.015299998 0.76500005 7.4233786e-40
-0.023917146 0.015219994 0.7610001 8.3381743e-40
-0.022467621 0.015219994 0.76100004 7.4090854e-40
-0.020935243 0.015160009 0.75800002 6.497891e-40
-0.019491432 0.015160002 0.75800002 5.5759347e-40
-0.018000005 0.015119985 0.7560001 4.6719851e-40
-0.016494283 0.015060008 0.75300002 7.437868e-40
-0.015040008 0.015039988 0.75200003 9.2818087e-40
-0.013607627 0.015040003 0.75200003 7.4343928e-40
-0.012175247 0.015040003 0.75199997 5.6192629e-40
-0.010742871 0.015039995 0.75200003 7.4703782e-40
-0.0092857163 0.015000001 0.75000012 9.3142487e-40
-0.0078571467 0.015000008 0.75000006 8.4066417e-40
-0.0064285686 0.014999986 0.75000012 6.5163882e-40
-0.0049999999 0.014999993 0.75000012 3.6790951e-40
-0.0035714316 0.015000008 0.75000012 1.1969891e-40
-0.0021371541 0.014959991 0.74800003 3.7074139e-39
-0.00071238237 0.014959991 0.74800003 7.2972393e-39
0.00071237399 0.014960006 0.74800003 4.160116e-39
0.0021371308 0.014959998 0.74800003 9.4047586e-40
0.0035619049 0.014959984 0.74800003 5.5625804e-40
0.004986662 0.014959998 0.74800003 1.0926905e-40
0.0064114258 0.014959998 0.74800003 9.2760353e-41
0.0078361817 0.014959984 0.74800003 1.0459852e-40
0.0092609469 0.014960006 0.74800003 9.7063741e-41
0.010714285 0.014999993 0.75000012 1.0456489e-40
0.012110478 0.014959998 0.74800003 2.8067027e-40
0.013571422 0.015000001 0.75000006 4.668636e-40
0.015039995 0.015039995 0.75200003 8.3744399e-40
0.016472369 0.015039995 0.75200003 1.2083873e-39
0.017904742 0.015040003 0.75199997 1.3942261e-39
0.019362858 0.015060008 0.75300008 1.5786076e-39
0.02079715 0.015060008 0.75300008 1.2109012e-39
0.022231435 0.015059993 0.75300008 7.4847415e-40
0.023728577 0.015100002 0.75500005 3.0411119e-39
0.0252 0.015119985 0.7560001 5.3556913e-39
0.026710477 0.015160002 0.75800008 8.5875494e-39
0.02822856 0.015199989 0.76000005 1.1712103e-38
0.029676186 0.015199982 0.76000011 1.1156781e-38
0.031246671 0.015260004 0.76300001 1.060792e-38
0.032700002 0.015259989 0.76300007 1.0421738e-38
-0.025500016 0.016757146 0.76500005 8.3417616e-40
-0.023979986 0.016713321 0.76300007 9.2458093e-40
-0.022467621 0.016669534 0.76100004 8.3310697e-40
-0.020990491 0.016647607 0.76000005 7.4198473e-40
-0.019491442 0.016603798 0.75800002 5.5830814e-40
-0.018000007 0.016559996 0.75600004 3.7536162e-40
-0.016538104 0.016538098 0.75500005 5.6047454e-40
-0.015059986 0.016494282 0.75300008 8.377803e-40
-0.013607634 0.016472377 0.75200003 6.5339605e-40
-0.012175254 0.016472377 0.75200003 5.6192349e-40
-0.010742873 0.016472392 0.75200003 7.4667348e-40
-0.0093104821 0.016472377 0.75200003 9.3178641e-40
-0.0078781014 0.016472377 0.75200003 9.2641243e-40
-0.0064457208 0.016472377 0.75200003 9.2103985e-40
-0.0050133443 0.016472369 0.75200003 3.877362e-39
-0.0035809644 0.016472384 0.75200003 6.9183815e-39
-0.0021371469 0.016384758 0.74800003 8.9524391e-39
-0.00071239029 0.016384758 0.74800003 1.0979613e-38
0.00071237679 0.016384743 0.74800009 8.207307e-39
0.0021371406 0.016384758 0.74800003 5.5142692e-39
0.0035618974 0.016384751 0.74800003 5.9866848e-39
0.0049866615 0.016384773 0.74800003 6.4465713e-39
0.0064114183 0.016384766 0.74800003 4.5155049e-39
0.0078361826 0.016384758 0.74800003 2.6637367e-39
0.009285707 0.016428582 0.75000006 1.3827102e-39
0.010714285 0.016428567 0.75000012 1.9172846e-40
0.012142855 0.01642856 0.75000012 3.7720292e-40
0.013571423 0.016428567 0.75000006 5.6445003e-40
0.015039986 0.016472384 0.75199997 9.3142207e-40
0.016494295 0.016494282 0.75300008 1.2991382e-39
0.017904749 0.016472369 0.75200003 1.484977e-39
0.019362863 0.016494274 0.75300008 1.7615583e-39
0.020797145 0.016494289 0.75300002 1.3016605e-39
0.022290476 0.016538091 0.75500005 8.4031665e-40
0.02376 0.016559988 0.7560001 3.137625e-39
0.025199996 0.016559988 0.7560001 5.4471848e-39
0.02678095 0.016647615 0.76000005 8.4910686e-39
0.028228564 0.016647607 0.76000011 1.1527375e-38
0.029715233 0.016669534 0.76100004 1.0973847e-38
0.031246675 0.016713321 0.76300007 1.0421757e-38
0.03270001 0.016713321 0.76300007 9.8685898e-39
-0.024042856 0.018214293 0.76500005 1.0171353e-39
-0.022526657 0.018166661 0.76300001 9.2459074e-40
-0.020990476 0.018095225 0.76000011 8.3310697e-40
-0.019542867 0.01809524 0.76000011 5.5831234e-40
-0.018000009 0.017999984 0.75600004 1.9205216e-40
-0.016559994 0.017999992 0.7560001 4.6864045e-40
-0.015120004 0.017999992 0.75600004 7.4522874e-40
-0.01366191 0.017976187 0.75500005 6.5375618e-40
-0.012175245 0.017904751 0.75200003 4.7080686e-40
-0.010742865 0.017904766 0.75200003 7.4631895e-40
-0.0093104839 0.017904766 0.75200003 9.2674454e-40
-0.007878108 0.017904751 0.75200003 1.0117487e-39
-0.0064457273 0.017904751 0.75200003 1.1251712e-39
-0.0050133471 0.017904758 0.75200003 7.4862759e-39
-0.0035809565 0.017904758 0.75200003 1.3735047e-38
-0.0021428622 0.017857149 0.75000006 1.4203563e-38
-0.00071238703 0.017809518 0.74800009 1.4657711e-38
0.00071238377 0.017809503 0.74800003 1.2358588e-38
0.0021371411 0.017809525 0.74800003 1.0046175e-38
0.0035618974 0.017809518 0.74800003 1.1430141e-38
0.0049866615 0.017809525 0.74800003 1.2806943e-38
0.0064114183 0.017809533 0.74800003 9.0427528e-39
0.0078361919 0.017809518 0.74800003 5.1634037e-39
0.009285707 0.017857142 0.75000006 2.7613147e-39
0.010714285 0.017857127 0.75000012 2.8427722e-40
0.012142856 0.017857149 0.75000012 4.7226281e-40
0.013571423 0.017857142 0.75000012 6.5664706e-40
0.015039988 0.017904758 0.75200003 1.0243436e-39
0.016494289 0.017928571 0.75300002 1.3002228e-39
0.017928572 0.017928578 0.75300002 1.5771782e-39
0.019362858 0.017928578 0.75300002 1.8530379e-39
0.020852381 0.017976195 0.75500005 1.3938562e-39
0.022290476 0.017976187 0.75500005 8.3924185e-40
0.023759998 0.017999977 0.7560001 3.2219299e-39
0.025266664 0.018047608 0.75800008 5.5383001e-39
0.026780948 0.018095225 0.76000011 8.4017386e-39
0.028265717 0.018119045 0.7610001 1.1249352e-38
0.029715242 0.018119045 0.76100004 1.0697619e-38
0.031246675 0.018166646 0.76300007 1.0144095e-38
0.032700002 0.018166654 0.76300007 9.3114784e-39
0.034153342 0.018166654 0.76300001 8.3967079e-39
-0.024105707 0.019722842 0.76700008 9.2566133e-40
-0.022585724 0.019671433 0.76500005 8.3276085e-40
-0.021073319 0.019619979 0.76300007 7.4020088e-40
-0.019542864 0.019542851 0.76000011 5.5795781e-40
-0.018047629 0.019491434 0.75800002 2.8353172e-40
-0.016559996 0.019439995 0.7560001 4.6864185e-40
-0.015120005 0.019439995 0.75600004 6.5339465e-40
-0.013661908 0.019414291 0.75500005 5.6263955e-40
-0.012223819 0.019414298 0.75500005 5.6336262e-40
-0.010742856 0.01933714 0.75200003 5.6049837e-40
-0.0093104905 0.01933714 0.75200003 5.5723194e-40
-0.0078781098 0.01933714 0.75200003 3.6024721e-39
-0.0064457189 0.01933714 0.75200003 6.7440081e-39
-0.0050133392 0.01933714 0.75200003 9.2380321e-39
-0.0035809586 0.01933714 0.75199997 1.1729406e-38
-0.002142862 0.019285701 0.75000006 1.1805075e-38
-0.00071238005 0.019234277 0.74800003 1.1904812e-38
0.00071237679 0.019234277 0.74800003 1.107579e-38
0.0021371336 0.019234277 0.74800003 1.0238137e-38
0.0035618974 0.019234285 0.74800003 1.1062132e-38
0.0049866545 0.019234285 0.74800003 1.2002713e-38
0.0064114286 0.01923427 0.74800003 1.0429297e-38
0.0078361854 0.019234285 0.74800003 8.8493988e-39
0.009285707 0.019285724 0.75000006 4.5133595e-39
0.010714276 0.019285724 0.75000006 1.9172005e-40
0.012142856 0.019285709 0.75000012 4.7153974e-40
0.013571423 0.019285716 0.75000012 8.4067819e-40
0.015039995 0.019337133 0.75200003 9.3251648e-40
0.016494293 0.019362852 0.75300008 1.1169176e-39
0.017928584 0.019362845 0.75300008 1.3935129e-39
0.019362869 0.019362845 0.75300008 1.7612066e-39
0.020852374 0.019414291 0.75500005 1.3013032e-39
0.022319997 0.019439988 0.75600004 9.3179622e-40
0.023760004 0.019439988 0.7560001 3.2298234e-39
0.025199994 0.019439988 0.75600004 5.633004e-39
0.026780944 0.019542843 0.76000005 8.4899811e-39
0.028265717 0.019568577 0.76100004 1.1340466e-38
0.029715242 0.019568577 0.76100004 1.097312e-38
0.031246677 0.019619979 0.76300007 1.0604704e-38
0.032700002 0.019619994 0.76300007 9.8678709e-39
-0.024105709 0.021183804 0.76700002 8.3381743e-40
-0.022585707 0.021128573 0.76500005 7.4091414e-40
-0.021073325 0.021073319 0.76300007 6.4943037e-40
-0.019542864 0.020990469 0.76000011 5.57948e-40
-0.018047621 0.020935237 0.75800002 3.7572035e-40
-0.016559998 0.020879984 0.7560001 4.6935932e-40
-0.015120007 0.020879991 0.75600004 4.7044112e-40
-0.013680007 0.020879976 0.7560001 5.6335842e-40
-0.012223806 0.02085238 0.75500005 6.5375898e-40
-0.010742873 0.020769522 0.75200003 3.7430644e-40
-0.0093104821 0.020769529 0.75200003 1.0418234e-40
-0.0078781024 0.020769529 0.75200003 6.2801223e-39
-0.0064457217 0.020769529 0.75200003 1.2356395e-38
-0.0050133457 0.020769514 0.75200003 1.0991841e-38
-0.0035809653 0.020769514 0.75200003 9.5884534e-39
-0.0021428615 0.020714283 0.75000012 9.3821556e-39
-0.00071429298 0.02071429 0.75000006 9.1382484e-39
0.000714286 0.020714283 0.75000012 9.8012182e-39
0.0021371336 0.020659044 0.74800003 1.0327808e-38
0.0035714235 0.020714283 0.75000012 1.0668934e-38
0.004999992 0.020714283 0.75000006 1.1069658e-38
0.006428571 0.020714283 0.75000012 1.1821941e-38
0.0078571392 0.020714283 0.75000012 1.2436029e-38
0.009285708 0.020714276 0.75000006 6.2503447e-39
0.010714276 0.020714298 0.75000006 9.9883153e-41
0.012142856 0.020714283 0.75000012 5.6444582e-40
0.013571424 0.020714283 0.75000012 9.3215215e-40
0.015039986 0.020769529 0.75200003 9.3215775e-40
0.016472377 0.020769522 0.75200003 8.4140826e-40
0.01792858 0.020797148 0.75300002 1.2098363e-39
0.019362863 0.020797141 0.75300002 1.57753e-39
0.020852387 0.02085238 0.75500011 1.3020179e-39
0.022319997 0.020880006 0.75600004 9.3179341e-40
0.023822857 0.02093523 0.75800002 3.3159164e-39
0.025266657 0.02093523 0.75800002 5.7226857e-39
0.026780952 0.020990469 0.76000011 8.5846879e-39
0.028265709 0.021018103 0.76100004 1.1341546e-38
0.029793348 0.021073319 0.76300007 1.1157875e-38
0.031246675 0.021073319 0.76300007 1.0973486e-38
0.032700002 0.021073334 0.76300001 1.0513949e-38
-0.025600014 0.022674292 0.76800001 8.3416355e-40
-0.024105715 0.022644758 0.76700008 8.3488522e-40
-0.022585718 0.022585727 0.76500005 8.3417196e-40
-0.02107333 0.022526652 0.76300007 7.4233085e-40
-0.01954286 0.022438087 0.76000005 5.5865426e-40
-0.018047614 0.022379041 0.75800002 4.6683418e-40
-0.016603814 0.022379041 0.75800002 4.6864185e-40
-0.015160002 0.022379056 0.75800002 5.6227661e-40
-0.013680009 0.022319987 0.7560001 6.5411772e-40
-0.012240005 0.022320002 0.75600004 8.3814183e-40
-0.010785716 0.022290476 0.75500005 4.6469579e-40
-0.0093228482 0.02223143 0.75300002 9.3092461e-41
-0.0078781089 0.022201903 0.75200003 6.5571337e-39
-0.0064457282 0.022201903 0.75200003 1.3012176e-38
-0.0050133476 0.022201918 0.75200003 9.7803668e-39
-0.0035809577 0.022201903 0.75200003 6.6181112e-39
-0.0021428613 0.022142865 0.75000012 7.7312285e-39
-0.00071429298 0.022142857 0.75000006 8.9542005e-39
0.00071427622 0.022142857 0.75000006 9.3298466e-39
0.0021428547 0.02214285 0.75000012 9.683872e-39
0.0035714239 0.022142865 0.75000012 9.9453431e-39
0.0049999924 0.022142865 0.75000006 1.0243866e-38
0.0064285714 0.02214285 0.75000012 1.1169452e-38
0.0078571402 0.02214285 0.75000012 1.2169515e-38
0.0092857089 0.022142865 0.75000012 6.0788734e-39
0.010714278 0.022142865 0.75000006 9.7370625e-41
0.012142857 0.022142842 0.75000012 5.6192909e-40
0.013571424 0.02214285 0.75000012 1.0239848e-39
0.015039993 0.022201903 0.75200003 1.0239932e-39
0.016472366 0.022201903 0.75200003 1.0247177e-39
0.017904757 0.022201911 0.75200003 1.301306e-39
0.019414285 0.022290483 0.75500005 1.5782432e-39
0.020879997 0.022319987 0.7560001 1.6686382e-39
0.022319993 0.022319987 0.75600004 1.6664746e-39
0.023822844 0.022379041 0.75800002 3.4138475e-39
0.025333323 0.022438094 0.76000005 5.0809135e-39
0.026816184 0.022467636 0.76100004 8.1226406e-39
0.02826572 0.022467621 0.7610001 1.116075e-38
0.029793339 0.022526659 0.76300007 1.1066764e-38
0.031246677 0.022526659 0.76300007 1.0974207e-38
0.032700006 0.022526652 0.76300001 1.0513591e-38
-0.02566668 0.0242 0.77000004 1.0182059e-39
-0.024105718 0.024105713 0.76700002 8.3489363e-40
-0.022585716 0.024042867 0.76500005 8.3417616e-40
-0.021073323 0.023979984 0.76300007 8.3417196e-40
-0.019568581 0.023917153 0.76100004 6.5049816e-40
-0.018047635 0.023822866 0.75800002 4.6755444e-40
-0.016603824 0.023822859 0.75800002 5.6011721e-40
-0.015159996 0.023822851 0.75800002 6.5339324e-40
-0.01368001 0.023759991 0.7560001 8.3671111e-40
-0.012239996 0.023759983 0.7560001 9.2710747e-40
-0.010785714 0.023728579 0.75500005 5.533041e-40
-0.0093228426 0.023665719 0.75300008 1.0493904e-40
-0.007888576 0.023665719 0.75300002 6.9348972e-39
-0.0064542852 0.023665711 0.75300002 1.3647847e-38
-0.0050133397 0.023634292 0.75200003 8.682982e-39
-0.0035809597 0.023634292 0.75200003 3.6007976e-39
-0.002142861 0.023571432 0.75000012 6.1535149e-39
-0.00071429252 0.023571424 0.75000006 8.7644212e-39
0.00071427622 0.023571432 0.75000006 8.9714617e-39
0.0021428543 0.023571424 0.75000012 9.0352628e-39
0.0035809411 0.023634285 0.75200003 9.1851611e-39
0.0049999924 0.023571424 0.75000006 9.3183209e-39
0.0064285616 0.023571439 0.75000006 1.0625253e-38
0.0078571402 0.023571424 0.75000012 1.179643e-38
0.0092857089 0.023571424 0.75000012 5.9816527e-39
0.010714278 0.023571417 0.75000006 1.0060062e-40
0.012142844 0.023571439 0.75000006 6.5413173e-40
0.013571424 0.023571424 0.75000012 1.114391e-39
0.015039993 0.023634277 0.75200003 1.1143966e-39
0.016494285 0.023665719 0.75300002 1.1161973e-39
0.017928578 0.023665711 0.75300002 1.3927884e-39
0.019414287 0.023728572 0.75500005 1.577167e-39
0.020879995 0.023759991 0.7560001 2.0359746e-39
0.022320002 0.023759983 0.7560001 2.4011543e-39
0.02382285 0.023822859 0.75800002 3.4088253e-39
0.02533333 0.023885705 0.76000011 4.4359084e-39
0.026816195 0.023917139 0.76100004 7.7560104e-39
0.028340001 0.023979992 0.76300001 1.097348e-38
0.029793341 0.023979984 0.76300007 1.0973479e-38
0.03132857 0.02404286 0.7650001 1.0973121e-38
-0.025666676 0.025666669 0.77000004 9.263816e-40
-0.024105709 0.025566652 0.76700008 7.4414273e-40
-0.022585716 0.0255 0.76500005 7.4306233e-40
-0.02107333 0.025433332 0.76300007 6.5014924e-40
-0.019542873 0.025333315 0.76000005 5.590284e-40
-0.018047629 0.025266662 0.75800002 5.5975147e-40
-0.016603816 0.025266677 0.75800002 5.6047454e-40
-0.015160015 0.025266677 0.75800002 6.5410931e-40
-0.013679998 0.025199987 0.7560001 7.4594901e-40
-0.012239998 0.025199987 0.7560001 9.296172e-40
-0.010785712 0.025166668 0.75500005 4.6505593e-40
-0.0093228491 0.025099993 0.75300002 9.3828143e-41
-0.0078885723 0.025099993 0.75300008 6.0958389e-39
-0.0064542806 0.0251 0.75300008 1.2001981e-38
-0.0050133322 0.025066659 0.75200003 1.0152686e-38
-0.0035856976 0.025099993 0.75300008 8.1929157e-39
-0.0021485859 0.025066651 0.75200003 8.3754937e-39
-0.00071619521 0.025066666 0.75200003 8.6819016e-39
0.00071618543 0.025066666 0.75200003 9.7857716e-39
0.0021428552 0.024999991 0.75000012 1.0963789e-38
0.0035714235 0.025000006 0.75000012 1.1423981e-38
0.0049999924 0.024999999 0.75000006 1.181042e-38
0.0064285607 0.025000006 0.75000006 1.0707401e-38
0.0078571402 0.024999991 0.75000012 9.5934518e-39
0.0092857089 0.025000006 0.75000012 4.8846434e-39
0.010714278 0.025000006 0.75000006 9.8090893e-41
0.012142845 0.024999999 0.75000006 5.6194451e-40
0.013571425 0.024999999 0.75000012 1.0225597e-39
0.015039992 0.025066666 0.75200003 9.3144449e-40
0.016494291 0.025099993 0.75300008 8.4033627e-40
0.017928584 0.025100008 0.75300008 1.209123e-39
0.019414281 0.025166675 0.75500005 1.577167e-39
0.020879993 0.025199987 0.7560001 1.7601037e-39
0.02232 0.025199987 0.7560001 1.8504973e-39
0.02382285 0.025266662 0.75800002 3.4142049e-39
0.025366664 0.025366679 0.76100004 4.987636e-39
0.026816187 0.025366671 0.76100004 7.8460467e-39
0.02834001 0.025433317 0.76300007 1.0789798e-38
0.029793339 0.025433324 0.76300007 1.0973103e-38
0.031328566 0.025500007 0.76500005 1.1156065e-38
-0.025666675 0.027133316 0.77000004 8.345405e-40
-0.02413715 0.027062856 0.76800001 6.5122824e-40
-0.022585716 0.026957147 0.76500005 5.5939134e-40
-0.021073323 0.026886657 0.76300001 4.6755444e-40
-0.019568572 0.026816197 0.76100004 5.5938994e-40
-0.018047621 0.02671048 0.75800002 5.5939414e-40
-0.016603811 0.026710473 0.75800008 5.5975848e-40
-0.015160009 0.02671048 0.75800002 5.6191648e-40
-0.01368 0.026640005 0.75600004 7.4631054e-40
-0.012239999 0.026639991 0.7560001 8.3706704e-40
-0.010785725 0.026604757 0.75500005 4.6649506e-40
-0.0093228444 0.026534282 0.75300008 1.0242931e-40
-0.0078885779 0.026534297 0.75300002 5.2603301e-39
-0.0064542862 0.026534289 0.75300002 1.0336032e-38
-0.005013349 0.026499048 0.75200003 1.1640382e-38
-0.0035857034 0.026534289 0.75300002 1.2802655e-38
-0.0021485782 0.026499048 0.75200003 1.06567e-38
-0.00071619754 0.02649904 0.75200003 8.4914385e-39
0.00071617845 0.02649904 0.75200003 1.0708811e-38
0.0021428557 0.026428573 0.75000012 1.2909598e-38
0.0035809397 0.026499048 0.75200003 1.3644246e-38
0.0050133308 0.02649904 0.75200003 1.4291783e-38
0.0064285612 0.02642858 0.75000006 1.0891742e-38
0.0078571402 0.026428565 0.75000012 7.3732331e-39
0.0092857089 0.026428565 0.75000012 3.7729331e-39
0.010714278 0.02642858 0.75000012 1.0203695e-40
0.012142845 0.02642858 0.75000006 4.722614e-40
0.013571425 0.026428565 0.75000012 8.3996492e-40
0.015039993 0.02649904 0.75200003 7.477735e-40
0.016494283 0.026534289 0.75300002 5.6590317e-40
0.017928576 0.026534282 0.75300002 1.1183581e-39
0.019414276 0.026604772 0.75500005 1.5775258e-39
0.020879993 0.026639991 0.7560001 1.4846043e-39
0.02232 0.026639976 0.7560001 1.2998459e-39
0.023822855 0.02671048 0.75800002 3.4102574e-39
0.025366664 0.026816197 0.76100004 5.4457345e-39
0.026816199 0.026816197 0.7610001 8.0347357e-39
0.028340014 0.026886657 0.76300007 1.0606516e-38
0.029793341 0.026886657 0.76300007 1.0973529e-38
0.031328566 0.026957147 0.76500005 1.1254725e-38
0.032700006 0.026886657 0.76300001 1.0051487e-38
-0.025666673 0.028599992 0.77000004 9.2637039e-40
-0.024137145 0.028525718 0.76800001 8.3417896e-40
-0.022585714 0.028414287 0.76500005 6.5158557e-40
-0.02107333 0.028339989 0.76300001 4.6863204e-40
-0.019568561 0.028265715 0.7610001 4.6791458e-40
-0.018095247 0.028228551 0.76000011 4.6720272e-40
-0.016603814 0.028154284 0.75800002 5.6047735e-40
-0.015160004 0.028154276 0.75800002 6.5411211e-40
-0.01368 0.028079987 0.75600004 7.4631194e-40
-0.01224 0.028079979 0.7560001 9.2998294e-40
-0.010785713 0.02804286 0.75500005 5.6048716e-40
-0.00932285 0.027968578 0.75300002 2.8250457e-40
-0.0078885732 0.027968571 0.75300008 2.7778808e-39
-0.006454282 0.027968571 0.75300008 5.2786283e-39
-0.0050199903 0.027968571 0.75300008 8.4093098e-39
-0.0035856988 0.027968571 0.75300008 1.1628195e-38
-0.0021485703 0.027931422 0.75200003 1.1525576e-38
-0.00071620406 0.027931422 0.75200003 1.1449211e-38
0.00071617658 0.027931429 0.75200003 1.2644194e-38
0.0021428459 0.027857147 0.75000006 1.384163e-38
0.0035809397 0.027931429 0.75200003 1.2458704e-38
0.0050133206 0.027931422 0.75200003 1.108616e-38
0.0064285616 0.02785714 0.75000006 7.3807791e-39
0.0078571308 0.027857155 0.75000006 3.7657962e-39
0.0092857089 0.027857147 0.75000012 2.2113709e-39
0.010714279 0.027857147 0.75000012 7.4811401e-40
0.012142846 0.02785714 0.75000006 8.4067959e-40
0.013571426 0.027857147 0.75000012 9.3323535e-40
0.015039993 0.027931422 0.75200003 8.4104392e-40
0.016494296 0.027968578 0.75300008 8.4212433e-40
0.01792858 0.027968563 0.75300008 1.210188e-39
0.019414289 0.028042853 0.75500005 1.6700801e-39
0.020879989 0.028079987 0.75600004 1.6689997e-39
0.022379043 0.028154284 0.75800002 1.6679081e-39
0.023822853 0.028154284 0.75800002 2.8631891e-39
0.025366673 0.028265722 0.76100004 4.0649707e-39
0.026816191 0.028265722 0.76100004 8.0282743e-39
0.028340006 0.028339989 0.76300007 1.1892963e-38
0.029871428 0.028414287 0.76500005 1.2363324e-38
0.031328566 0.028414287 0.76500005 1.2929656e-38
0.03270001 0.028339975 0.76300007 1.1716674e-38
-0.025666684 0.030066662 0.77000004 1.0189262e-39
-0.024105718 0.029949516 0.76700002 9.2744799e-40
-0.022585725 0.029871441 0.76500005 7.4377559e-40
-0.021073338 0.029793315 0.76300001 4.6790897e-40
-0.019568576 0.02971524 0.76100004 4.6790757e-40
-0.018095244 0.029676177 0.76000005 3.7679655e-40
-0.01664762 0.029676177 0.76000011 5.6083468e-40
-0.015160011 0.029598087 0.75800002 7.4594761e-40
-0.013680002 0.02951999 0.75600004 8.3886631e-40
-0.012240002 0.02951999 0.7560001 9.3034447e-40
-0.010785712 0.029480956 0.75500005 7.4667488e-40
-0.0093228463 0.029402852 0.75300008 4.71181e-40
-0.0078885648 0.02940286 0.75300002 2.9039108e-40
-0.0064542876 0.02940286 0.75300002 1.1858628e-40
-0.0050133332 0.029363804 0.75200003 5.2732403e-39
-0.0035857051 0.029402852 0.75300002 1.0425728e-38
-0.0021428599 0.029285714 0.75000012 1.2368637e-38
-0.00071429112 0.029285707 0.75000012 1.4293256e-38
0.00071427715 0.029285707 0.75000006 1.4484838e-38
0.0021428464 0.029285714 0.75000006 1.4659516e-38
0.0035809481 0.029363804 0.75200003 1.1262655e-38
0.0050133211 0.029363804 0.75200003 7.8406713e-39
0.0064285626 0.029285721 0.75000006 3.9627403e-39
0.007878093 0.029363804 0.75200003 1.0025029e-40
0.0093104653 0.029363804 0.75200003 7.4236449e-40
0.010742847 0.029363804 0.75200003 1.2980508e-39
0.01217523 0.029363811 0.75200003 1.2083789e-39
0.01360761 0.029363804 0.75200003 1.0250694e-39
0.015060009 0.029402845 0.75300008 1.0247149e-39
0.016494291 0.02940286 0.75300002 1.0257939e-39
0.017976185 0.029480949 0.75500005 1.3942163e-39
0.019414283 0.029480956 0.75500005 1.7619128e-39
0.020879997 0.02951999 0.75600004 1.9452223e-39
0.022379041 0.029598102 0.75800002 2.0352445e-39
0.023885705 0.029676184 0.76000005 2.4007746e-39
0.025366666 0.02971524 0.76100004 2.6874368e-39
0.026886676 0.029793315 0.76300007 7.9360857e-39
0.028414277 0.029871434 0.76500005 1.3184045e-38
0.029871419 0.029871441 0.76500005 1.384023e-38
0.031410474 0.029949516 0.76700002 1.4489118e-38
0.032785702 0.029871434 0.76500005 1.3472769e-38
0.034242861 0.029871427 0.7650001 1.2353518e-38
-0.024105711 0.031410471 0.76700002 8.3740475e-40
-0.022585722 0.031328581 0.76500005 7.4377139e-40
-0.02107333 0.031246662 0.76300001 5.5866267e-40
-0.019568576 0.031164773 0.76100004 5.5973466e-40
-0.018119039 0.031164758 0.7610001 6.5373376e-40
-0.016647631 0.031123817 0.76000005 7.4522173e-40
-0.015160006 0.031041905 0.75800008 8.3742437e-40
-0.013716204 0.031041913 0.75800002 8.3850757e-40
-0.012240004 0.030959986 0.7560001 9.3070601e-40
-0.010800014 0.030960001 0.75600004 8.3959218e-40
-0.0093476204 0.030919053 0.75500005 8.4065857e-40
-0.0078885602 0.030837148 0.75300008 5.644234e-40
-0.0064542829 0.030837141 0.75300008 2.8500309e-40
-0.0050199917 0.030837134 0.75300008 2.7757144e-39
-0.0035857002 0.030837141 0.75300008 5.2689537e-39
-0.0021485791 0.030796185 0.75200003 8.2141944e-39
-0.00071429065 0.030714288 0.75000012 1.1155796e-38
0.00071427808 0.030714288 0.75000012 1.1711108e-38
0.0021428468 0.030714281 0.75000006 1.2160922e-38
0.0035809383 0.030796178 0.75200003 9.3986447e-39
0.0050133294 0.030796193 0.75200003 6.6126938e-39
0.0064457101 0.030796193 0.75200003 3.4045149e-39
0.0078780828 0.030796185 0.75200003 1.027446e-40
0.0093104737 0.030796178 0.75200003 7.4595461e-40
0.010742848 0.030796185 0.75200003 1.2998459e-39
0.012191428 0.030837141 0.75300002 1.1165406e-39
0.013625721 0.030837141 0.75300002 1.025068e-39
0.015060003 0.030837148 0.75300008 1.1169077e-39
0.016538085 0.030919045 0.75500005 1.2091048e-39
0.017976189 0.030919053 0.75500005 1.4856903e-39
0.019414278 0.030919053 0.75500005 1.7619114e-39
0.020879995 0.030959986 0.75600004 2.0366976e-39
0.022379046 0.031041898 0.75800002 2.21927e-39
0.02388571 0.03112381 0.76000011 2.6784237e-39
0.025366658 0.03116478 0.76100004 3.143743e-39
0.026886677 0.031246647 0.76300007 7.6627372e-39
0.028414279 0.031328574 0.76500005 1.2179241e-38
0.029949525 0.031410463 0.76700002 1.2736773e-38
0.031410482 0.031410463 0.76700008 1.3305711e-38
0.032871425 0.031410463 0.76700002 1.2552361e-38
0.034332383 0.031410463 0.76700008 1.1713595e-38
-0.024262873 0.033085711 0.77200007 7.4413012e-40
-0.022644756 0.032871418 0.76700002 7.4269379e-40
-0.021128589 0.032785721 0.76500005 6.508583e-40
-0.01961999 0.032699987 0.76300007 7.4233506e-40
-0.018119054 0.032614291 0.76100004 8.3633136e-40
-0.01666953 0.032614298 0.76100004 8.3741596e-40
-0.015160009 0.032485723 0.75800002 8.3813903e-40
-0.013716198 0.032485709 0.75800002 9.30699e-40
-0.012272386 0.032485701 0.75800008 9.3142067e-40
-0.010799991 0.03239999 0.7560001 1.024338e-39
-0.0093600014 0.032399982 0.7560001 1.1168909e-39
-0.0079095298 0.032357149 0.75500005 8.4174317e-40
-0.0064714411 0.032357141 0.75500005 4.6580562e-40
-0.0050199972 0.03227143 0.75300002 2.7605019e-40
-0.0035857058 0.03227143 0.75300002 1.1538292e-40
-0.0021485812 0.032228567 0.75199997 4.0632765e-39
-0.00071620545 0.032228574 0.75200003 8.0322932e-39
0.00071427855 0.032142855 0.75000012 8.8595302e-39
0.0021485656 0.032228574 0.75200003 9.685307e-39
0.0035809458 0.032228574 0.75200003 7.5579972e-39
0.0050133201 0.032228567 0.75200003 5.4370969e-39
0.006445711 0.032228567 0.75200003 2.7554965e-39
0.0078780837 0.032228567 0.75200003 9.9843917e-41
0.0093104653 0.032228574 0.75200003 7.4703922e-40
0.010742854 0.032228567 0.75200003 1.2991326e-39
0.012175228 0.032228559 0.75200003 1.1168993e-39
0.013625724 0.03227143 0.75300008 9.3358988e-40
0.015060017 0.032271422 0.75300008 1.1169049e-39
0.016538087 0.032357149 0.75500005 1.3013004e-39
0.017976183 0.032357141 0.75500005 1.5775314e-39
0.01941428 0.032357149 0.75500005 1.7611968e-39
0.020879993 0.03239999 0.75600004 2.1278171e-39
0.02232 0.03239999 0.7560001 2.4011543e-39
0.023822853 0.032485716 0.75800002 3.0418336e-39
0.025366668 0.032614298 0.76100004 3.6086686e-39
0.026886677 0.032699987 0.76300007 7.3922572e-39
0.028414279 0.032785714 0.76500005 1.1160771e-38
0.029949529 0.032871418 0.76700008 1.1621414e-38
0.031410474 0.032871425 0.76700002 1.2087041e-38
0.032871436 0.03287141 0.76700008 1.1624988e-38
-0.02429428 0.034600943 0.77300012 8.3560268e-40
-0.0226743 0.034377143 0.76800001 7.4340985e-40
-0.021128574 0.034242861 0.76500005 6.508611e-40
-0.019619998 0.034153327 0.76300007 6.5050517e-40
-0.018119056 0.034063816 0.76100004 7.4413993e-40
-0.01666953 0.034063816 0.76100004 8.3705723e-40
-0.015200005 0.034019031 0.76000005 9.3069059e-40
-0.013716191 0.033929512 0.75800002 9.306948e-40
-0.01227239 0.033929527 0.75800002 9.3105913e-40
-0.010799993 0.033839978 0.7560001 1.1154532e-39
-0.0093600024 0.033840001 0.7560001 1.3927646e-39
-0.0079200026 0.033839986 0.7560001 1.294123e-39
-0.0064714393 0.033795245 0.75500005 1.2873042e-39
-0.0050199926 0.033705696 0.75300008 4.3401128e-39
-0.0035857018 0.033705711 0.75300008 7.475116e-39
-0.0021428692 0.033571444 0.75000006 9.0460444e-39
-0.00071429065 0.033571422 0.75000012 1.0714157e-38
0.00071427855 0.03357143 0.75000012 1.0891377e-38
0.0021428468 0.03357143 0.75000006 1.0989296e-38
0.0035809365 0.033660963 0.75199997 1.0337464e-38
0.0050133276 0.033660948 0.75200003 9.6898373e-39
0.0064457008 0.033660956 0.75200003 7.190075e-39
0.0078885835 0.033705704 0.75300008 4.6912278e-39
0.0093228687 0.033705711 0.75300008 2.6734407e-39
0.010785715 0.03379523 0.75500005 7.4704763e-40
0.012191433 0.033705711 0.75300002 8.4031665e-40
0.013625719 0.033705719 0.75300002 9.3394721e-40
0.015100004 0.033795238 0.75500005 1.0250666e-39
0.0165381 0.03379523 0.75500005 1.2101838e-39
0.017976189 0.033795252 0.75500005 1.393866e-39
0.019439993 0.033839993 0.7560001 1.6690067e-39
0.020880001 0.033839993 0.7560001 2.0352641e-39
0.022379033 0.033929527 0.75800002 2.3993677e-39
0.023822853 0.033929512 0.75800002 3.046151e-39
0.02536666 0.034063816 0.76100004 3.7040999e-39
0.02688667 0.03415332 0.76300007 7.2946862e-39
0.028414277 0.034242861 0.76500005 1.0970256e-38
0.029949518 0.03433238 0.76700002 1.1064241e-38
0.031410471 0.034332365 0.76700008 1.1244324e-38
0.032871425 0.034332372 0.76700002 1.0881286e-38
0.034377135 0.034377143 0.76800007 1.0602914e-38
-0.027379995 0.036259994 0.77700001 1.2015041e-39
-0.025899997 0.036259994 0.77700001 1.1110994e-39
-0.024200011 0.035933331 0.7700001 9.2779131e-40
-0.022733342 0.035933331 0.7700001 7.4376578e-40
-0.02118382 0.035793334 0.76700002 5.5866547e-40
-0.019671438 0.035700008 0.76500005 6.4835417e-40
-0.018166669 0.03560666 0.76300001 6.5087091e-40
-0.016669521 0.035513341 0.76100004 8.3526497e-40
-0.015200006 0.035466656 0.76000011 9.2889833e-40
-0.013716186 0.035373323 0.75800008 9.306962e-40
-0.012272384 0.03537333 0.75800002 8.3850057e-40
-0.010799995 0.035279989 0.7560001 1.204765e-39
-0.0093600042 0.035279982 0.75600004 1.5692455e-39
-0.0079200044 0.035279989 0.7560001 1.8386619e-39
-0.0064714267 0.035233319 0.75500005 2.1360875e-39
-0.0050199986 0.035140015 0.75300002 8.5050591e-39
-0.0035857072 0.035140015 0.75300002 1.4749532e-38
-0.0021485803 0.03509333 0.75200003 1.4114593e-38
-0.00071428972 0.034999989 0.75000012 1.3369136e-38
0.00071618031 0.035093345 0.75199997 1.2818828e-38
0.0021485642 0.03509333 0.75200003 1.2267837e-38
0.0035809379 0.035093322 0.75200003 1.3112314e-38
0.0050200028 0.035140008 0.75300002 1.3832583e-38
0.0064457092 0.035093337 0.75200003 1.1532323e-38
0.0078885788 0.035140015 0.75300002 9.2116821e-39
0.0093228621 0.03514 0.75300008 4.6916524e-39
0.010785709 0.035233341 0.75500005 1.9387245e-40
0.012191439 0.03514 0.75300008 5.6373256e-40
0.013625724 0.035139993 0.75300008 8.4031385e-40
0.015099998 0.035233326 0.75500005 9.3071301e-40
0.016538093 0.035233341 0.75500005 1.0250708e-39
0.018000003 0.035279974 0.7560001 1.3016661e-39
0.019439993 0.035279989 0.7560001 1.577167e-39
0.020880001 0.035279989 0.7560001 2.0363403e-39
0.022438088 0.035466649 0.76000011 2.4000838e-39
0.023917137 0.035513334 0.76100004 3.1311692e-39
0.025366673 0.035513319 0.7610001 3.7919921e-39
0.02688667 0.035606645 0.76300007 7.2950505e-39
0.028414277 0.035700008 0.76500005 1.0696195e-38
0.029949529 0.035793327 0.76700008 1.0512526e-38
0.031451415 0.035840005 0.76800001 1.0328127e-38
0.032914273 0.035840005 0.76800001 1.0236282e-38
0.034377128 0.035840005 0.76800001 1.0053333e-38
-0.030183818 0.037545711 0.77300006 1.3905687e-39
-0.02878572 0.037642859 0.77500004 1.2951417e-39
-0.027309528 0.037642863 0.77500004 1.2929795e-39
-0.025833338 0.03764287 0.77500004 1.111091e-39
-0.024294291 0.037545711 0.77300012 1.0206974e-39
-0.02273334 0.0374 0.77000004 8.3559848e-40
-0.021211443 0.037302859 0.76800001 6.5050096e-40
-0.019671438 0.037157148 0.76500005 7.4198473e-40
-0.018166659 0.037059993 0.76300001 7.4234907e-40
-0.016713329 0.037059985 0.76300007 7.4343087e-40
-0.015220011 0.036962859 0.76100004 7.4343508e-40
-0.013752379 0.036914267 0.76000011 8.3742577e-40
-0.012272393 0.036817141 0.75800002 8.3885229e-40
-0.010828592 0.036817148 0.75800002 8.3597403e-40
-0.0093600061 0.036719993 0.75600004 8.3024131e-40
-0.0079200063 0.03672 0.7560001 3.8730166e-39
-0.0064714248 0.036671422 0.75500005 6.9237541e-39
-0.0050333361 0.03667143 0.75500005 9.9744901e-39
-0.0035952332 0.036671422 0.75500005 1.2923266e-38
-0.0021514113 0.036574282 0.75300008 9.8736765e-39
-0.00071619148 0.036525704 0.75200003 6.7365322e-39
0.00071617425 0.036525719 0.75200003 6.4574075e-39
0.0021485554 0.036525719 0.75199997 6.1819599e-39
0.003585723 0.036574274 0.75300002 8.7659669e-39
0.005020007 0.036574297 0.75300008 1.1352409e-38
0.0064542918 0.036574289 0.75300008 1.1444944e-38
0.0078885825 0.036574282 0.75300008 1.1615256e-38
0.0093228668 0.036574282 0.75300008 5.8959002e-39
0.010785703 0.03667143 0.75500005 1.9063404e-40
0.012191433 0.036574297 0.75300002 5.630123e-40
0.013625717 0.036574289 0.75300002 9.3250247e-40
0.015060009 0.036574282 0.75300008 9.3213953e-40
0.016538087 0.036671437 0.75500005 1.0243464e-39
0.017976185 0.03667143 0.75500005 1.3013004e-39
0.019439992 0.036719993 0.75600004 1.577523e-39
0.020935226 0.036817148 0.75800002 2.1274583e-39
0.022379046 0.036817148 0.75800002 2.5844722e-39
0.02391714 0.036962852 0.76100004 3.2294605e-39
0.025366666 0.036962859 0.76100004 3.7919935e-39
0.02688667 0.03706 0.76300007 7.3850979e-39
0.028340006 0.037059993 0.76300001 1.0975658e-38
0.029949525 0.037254274 0.76700002 1.0698364e-38
0.031451415 0.037302859 0.76800001 1.0421403e-38
0.03291427 0.037302867 0.76800001 1.0421743e-38
0.034377128 0.037302859 0.76800001 1.0422107e-38
-0.033085722 0.038967628 0.77200001 5.5367923e-39
-0.031615257 0.038967635 0.77200001 3.6003561e-39
-0.030183811 0.039018091 0.77300012 1.5749516e-39
-0.028785717 0.03911905 0.77500004 1.4795288e-39
-0.027309528 0.039119057 0.77500004 1.2944172e-39
-0.02583334 0.03911905 0.7750001 1.2032936e-39
-0.024294285 0.039018083 0.77300012 1.1114637e-39
-0.02273334 0.038866673 0.77000004 9.2708085e-40
-0.021211447 0.038765728 0.76800001 7.4305533e-40
-0.019722857 0.038715225 0.76700008 8.3417756e-40
-0.018166667 0.038513336 0.76300001 8.3490063e-40
-0.016713321 0.038513321 0.76300007 7.4378821e-40
-0.015219999 0.038412377 0.76100004 5.6083888e-40
-0.01375239 0.038361903 0.76000005 7.4523154e-40
-0.012304766 0.038361896 0.76000011 8.3849636e-40
-0.010828584 0.03826097 0.75800002 4.6971244e-40
-0.0093600079 0.03816 0.75600004 1.0204396e-40
-0.0079200082 0.038159985 0.7560001 5.8988317e-39
-0.0064800037 0.038159989 0.75600004 1.1709265e-38
-0.0050333343 0.038109522 0.75500005 1.1453894e-38
-0.0035952453 0.038109522 0.75500005 1.1067862e-38
-0.0021514171 0.038008578 0.75300008 5.6276483e-39
-0.00071714004 0.038008567 0.75300008 1.078159e-40
0.00071715121 0.038008559 0.75300008 9.2373595e-41
0.0021514355 0.038008578 0.75300008 1.0137413e-40
0.0035857267 0.038008567 0.75300008 4.4162412e-39
0.005020001 0.038008578 0.75300002 8.7691324e-39
0.0064542857 0.038008571 0.75300002 1.1371052e-38
0.0078885769 0.038008563 0.75300002 1.3912942e-38
0.0093476195 0.038109515 0.75500011 6.9943403e-39
0.010785717 0.038109511 0.75500005 1.0274741e-40
0.012223803 0.038109522 0.75500005 5.651703e-40
0.013661898 0.03810953 0.75500005 9.3250808e-40
0.015099993 0.038109522 0.75500005 1.0243394e-39
0.016538091 0.038109526 0.75500005 1.0243478e-39
0.018000001 0.038159993 0.7560001 1.3012976e-39
0.019491415 0.038260952 0.75800002 1.5768027e-39
0.020935226 0.038260952 0.75800002 2.2189337e-39
0.022467615 0.038412388 0.76100004 2.7688551e-39
0.02391714 0.038412385 0.76100004 3.3184191e-39
0.025433343 0.038513321 0.76300007 3.7887635e-39
0.026886672 0.038513325 0.76300001 7.4769376e-39
0.028414281 0.038614288 0.76500005 1.1157175e-38
0.029988561 0.038765725 0.76800001 1.0791271e-38
0.031451419 0.038765728 0.76800001 1.0422478e-38
0.032914281 0.038765721 0.76800001 1.0606851e-38
0.034377139 0.038765728 0.76800001 1.0698688e-38
-0.03308573 0.040438101 0.77200001 5.5410985e-39
-0.031615246 0.040438101 0.77200001 3.6939769e-39
-0.030183803 0.040490471 0.77300012 1.8493777e-39
-0.02871144 0.040490475 0.77300006 1.5710027e-39
-0.027239047 0.040490471 0.77300012 1.2940613e-39
-0.025766669 0.040490471 0.77300012 1.1114665e-39
-0.024294289 0.040490478 0.77300006 1.0196352e-39
-0.022792397 0.040438093 0.77200001 9.2780252e-40
-0.021266682 0.040333338 0.77000004 9.2780392e-40
-0.01972286 0.040176187 0.76700002 1.0196394e-39
-0.018214289 0.040071428 0.76500005 1.1114819e-39
-0.016713327 0.039966658 0.76300007 7.4522173e-40
-0.01522 0.03986191 0.76100004 4.7043832e-40
-0.013770476 0.039861917 0.76100004 8.388607e-40
-0.012304767 0.039809503 0.76000011 1.2076334e-39
-0.010828579 0.039704766 0.75800002 6.5267017e-40
-0.0093847672 0.039704762 0.75800002 9.6690995e-41
-0.0079199951 0.039599989 0.7560001 5.9996888e-39
-0.0064800051 0.039599996 0.75600004 1.181619e-38
-0.0050400048 0.039599989 0.7560001 1.1075422e-38
-0.0036000011 0.0396 0.75600004 1.0316994e-38
-0.0021514127 0.039442856 0.75300008 5.1587135e-39
-0.00071714609 0.039442867 0.75300002 9.6277612e-41
0.00071714562 0.03944286 0.75300002 9.4121014e-41
0.0021514304 0.03944286 0.75300002 9.233576e-41
0.0035857211 0.039442848 0.75300008 4.0527499e-39
0.0050333338 0.039547618 0.75500005 8.120142e-39
0.0064714295 0.039547615 0.75500005 1.0618078e-38
0.0079095261 0.03954763 0.75500005 1.3089655e-38
0.0093476139 0.039547622 0.75500005 6.6316632e-39
0.010785711 0.039547615 0.75500005 9.9881752e-41
0.012223806 0.039547618 0.75500005 3.7791618e-40
0.013661902 0.039547611 0.75500005 6.5700579e-40
0.015099999 0.039547615 0.75500005 7.4811962e-40
0.016538095 0.039547618 0.75500011 8.3924185e-40
0.017999997 0.039599981 0.7560001 1.2087404e-39
0.019491419 0.039704755 0.75800002 1.6689955e-39
0.020935232 0.03970477 0.75800002 2.2189323e-39
0.022438088 0.039809514 0.76000005 2.7692096e-39
0.02391715 0.039861903 0.7610001 3.0443391e-39
0.025433343 0.039966654 0.76300007 3.4138854e-39
0.026886672 0.039966654 0.76300001 6.737593e-39
0.028488571 0.040176187 0.76700002 1.0149494e-38
0.029988566 0.040228572 0.76800001 9.5019793e-39
0.031451412 0.040228568 0.76800001 8.8598385e-39
0.032914277 0.040228575 0.76800001 9.1338988e-39
0.034377132 0.040228568 0.76800001 9.4137073e-39
-0.030144772 0.041908577 0.77200001 2.0355682e-39
-0.028711433 0.041962855 0.77300012 1.6606928e-39
-0.027203824 0.041908585 0.77200001 1.2022314e-39
-0.025766673 0.041962858 0.77300006 1.0203527e-39
-0.024262879 0.041908573 0.77200001 8.3668589e-40
-0.022792388 0.041908562 0.77200001 1.0196436e-39
-0.02126668 0.041800007 0.77000004 1.1118364e-39
-0.019748578 0.041691437 0.76800001 1.2051069e-39
-0.018214287 0.041528586 0.76500005 1.2969424e-39
-0.016713334 0.041419983 0.76300007 8.3848235e-40
-0.015220001 0.041311435 0.76100004 3.7930627e-40
-0.013752386 0.041257136 0.76000005 9.3175558e-40
-0.012304762 0.041257147 0.76000011 1.4813322e-39
-0.010828573 0.041148566 0.75800002 8.3632996e-40
-0.0093847718 0.041148569 0.75800002 1.0421176e-40
-0.007919997 0.04104 0.7560001 6.0029034e-39
-0.0064799967 0.041039988 0.7560001 1.1899769e-38
-0.0050400067 0.041039988 0.7560001 1.0713821e-38
-0.0035999927 0.041039985 0.7560001 9.4922655e-39
-0.0021571533 0.04098573 0.75500005 4.7780929e-39
-0.00071714097 0.040877141 0.75300008 9.483988e-41
0.000719039 0.040985722 0.75500005 9.5557345e-41
0.0021571352 0.040985718 0.75500005 9.3428773e-41
0.0035952313 0.040985718 0.75500005 3.7657976e-39
0.0050333277 0.040985715 0.75500005 7.3868986e-39
0.0064714244 0.040985718 0.75500005 9.8912656e-39
0.0079095196 0.040985722 0.75500005 1.2253073e-38
0.0093476167 0.040985715 0.75500005 6.1592e-39
0.010785712 0.040985715 0.75500005 9.7360816e-41
0.012223808 0.040985722 0.75500005 1.8957466e-40
0.013661905 0.040985718 0.75500005 2.8714427e-40
0.0151 0.040985718 0.75500005 4.7116979e-40
0.01655999 0.041039996 0.75600004 6.5592399e-40
0.017999997 0.041039992 0.7560001 1.2083789e-39
0.019491427 0.041148577 0.75800002 1.668634e-39
0.020935237 0.041148566 0.75800008 2.2189309e-39
0.022438094 0.041257136 0.76000011 2.677007e-39
0.023917142 0.041311435 0.76100004 2.8595765e-39
0.025433343 0.041419983 0.76300007 2.9582672e-39
0.026886672 0.041419987 0.76300001 6.0014334e-39
0.02848858 0.04163713 0.76700008 9.0384592e-39
0.02998857 0.041691434 0.76800007 8.1147204e-39
0.031451412 0.041691449 0.76800001 7.1992325e-39
0.032914277 0.041691445 0.76800001 7.65518e-39
0.034377132 0.041691441 0.76800001 8.120093e-39
-0.030144775 0.043379057 0.77200001 3.1433437e-39
-0.028674293 0.043379061 0.77200001 2.2145813e-39
-0.027203828 0.043379061 0.77200001 1.2926376e-39
-0.025766669 0.043435235 0.77300012 1.0196394e-39
