# .PCD v0.7 - Point Cloud Data file format
VERSION 0.7
FIELDS x y z rgb
SIZE 4 4 4 4
TYPE F F F F
COUNT 1 1 1 1
WIDTH 949
HEIGHT 1
VIEWPOINT 0 0 0 1 0 0 0
POINTS 949
DATA ascii
-0.0021228835 -0.038919076 0.74300009 1.9433067e-40
-0.00070192321 -0.038604766 0.73700005 1.0502592e-40
0.00070381089 -0.038709521 0.73900002 9.2491304e-41
0.0021057026 -0.038604766 0.73700005 1.1008461e-40
0.0035095103 -0.038604781 0.73700011 9.2522132e-41
0.0049133282 -0.038604781 0.73700005 1.1189508e-40
0.006317121 -0.038604766 0.73700011 9.2524935e-41
0.0077209389 -0.038604766 0.73700005 1.2264585e-40
0.0091247465 -0.038604766 0.73700011 2.8794904e-39
0.010528564 -0.038604766 0.73700005 5.6384915e-39
0.011932372 -0.038604781 0.73700011 2.871936e-39
0.013336175 -0.038604766 0.73700005 1.1650395e-40
0.014739982 -0.038604781 0.73700011 7.4714712e-40
0.016143803 -0.038604766 0.73700005 1.3935759e-39
0.017595232 -0.038709536 0.73900002 1.944942e-39
0.018951427 -0.038604781 0.73700005 2.4059061e-39
0.02041048 -0.038709536 0.73900002 2.0392746e-39
0.021818094 -0.038709521 0.73900002 1.5793685e-39
0.023257121 -0.038761914 0.74000007 1.4868029e-39
0.024666652 -0.038761914 0.74000007 1.3942317e-39
0.02614666 -0.038866699 0.74200004 1.9452265e-39
0.027560003 -0.038866699 0.7420001 2.49621e-39
0.029012371 -0.038919061 0.74300003 3.6007191e-39
0.030509513 -0.039023831 0.74500012 4.6108759e-39
0.032057129 -0.039180979 0.74800009 5.5295574e-39
0.033481888 -0.039180979 0.74800009 6.3549922e-39
0.034999989 -0.039285734 0.75000012 6.07912e-39
0.03642856 -0.039285734 0.75000012 5.8043282e-39
-0.014960021 -0.037756205 0.74800009 9.3326478e-40
-0.013517165 -0.037705734 0.7470001 8.4216356e-40
-0.01209431 -0.037705734 0.7470001 7.528434e-40
-0.010671447 -0.037705734 0.7470001 7.5212873e-40
-0.0092238141 -0.037604764 0.74500012 7.5178121e-40
-0.007804771 -0.037604779 0.74500006 9.3797314e-40
-0.0063857199 -0.037604779 0.74500006 1.2127622e-39
-0.0049533499 -0.037503824 0.74300003 1.1230777e-39
-0.0035381208 -0.037503839 0.74300009 1.032352e-39
-0.002122889 -0.037503824 0.74300009 3.4258482e-39
-0.00070381985 -0.037301913 0.73900008 5.9047018e-39
0.00070380996 -0.037301913 0.73900002 7.8461742e-39
0.0021114259 -0.037301928 0.73900002 9.8740885e-39
0.0035095019 -0.037200972 0.73700011 1.0242864e-38
0.0049133198 -0.037200958 0.73700005 1.0617389e-38
0.0063171275 -0.037200972 0.73700011 1.0892903e-38
0.0077209454 -0.037200958 0.73700005 1.1096307e-38
0.0091495244 -0.037301913 0.73900002 1.2469894e-38
0.010557144 -0.037301928 0.73900008 1.3955047e-38
0.01196476 -0.037301913 0.73900002 1.1086622e-38
0.013336182 -0.037200972 0.73700005 8.2339709e-39
0.014739989 -0.037200972 0.73700011 5.0024968e-39
0.016143793 -0.037200958 0.73700005 1.7799938e-39
0.0175476 -0.037200958 0.73700011 2.2319868e-39
0.01895142 -0.037200958 0.73700005 2.6882776e-39
0.020355226 -0.037200958 0.73700011 2.1343765e-39
0.021818094 -0.037301913 0.73900002 1.5829782e-39
0.02322571 -0.037301898 0.73900002 1.3967695e-39
0.024666652 -0.037352383 0.74000007 1.3034864e-39
0.026076168 -0.037352398 0.74000007 1.393873e-39
0.027559994 -0.037453353 0.74200004 1.4835323e-39
0.028973322 -0.037453339 0.7420001 2.5887616e-39
0.030427594 -0.037503824 0.74300009 3.7840257e-39
0.031842835 -0.037503839 0.74300009 4.8853006e-39
0.033437129 -0.037705734 0.7470001 6.0784109e-39
0.034859993 -0.037705734 0.7470001 5.8954224e-39
0.036331419 -0.037756205 0.74800003 5.8025191e-39
0.037756182 -0.037756205 0.74800009 5.7117668e-39
-0.016472392 -0.036525726 0.75200009 8.4034888e-40
-0.015000024 -0.036428601 0.75000012 7.4996233e-40
-0.013535253 -0.036331445 0.74800003 9.3472353e-40
-0.012094297 -0.036282882 0.74700004 1.121284e-39
-0.01064287 -0.036185727 0.74500012 1.2138566e-39
-0.0092238197 -0.036185727 0.74500012 1.3100151e-39
-0.0078047691 -0.036185727 0.74500012 1.8682209e-39
-0.0063685942 -0.036088571 0.74300009 2.3256047e-39
-0.0049533471 -0.036088571 0.74300003 2.1458798e-39
-0.0035381189 -0.036088571 0.74300009 1.8775648e-39
-0.0021228797 -0.036088601 0.74300009 6.7549074e-39
-0.00070192554 -0.035797149 0.73700011 1.1635109e-38
0.00070189283 -0.035797149 0.73700005 1.5697043e-38
0.0021057001 -0.035797149 0.73700011 1.9639869e-38
0.003509518 -0.035797164 0.73700005 2.0387109e-38
0.0049133259 -0.035797149 0.73700011 2.1113187e-38
0.0063171294 -0.035797149 0.73700005 2.1580979e-38
0.007720937 -0.035797149 0.73700011 2.203621e-38
0.0091247447 -0.035797164 0.73700011 2.2131993e-38
0.010528562 -0.035797164 0.73700011 2.2131276e-38
0.011932355 -0.035797149 0.73700011 1.9285093e-38
0.013336173 -0.035797164 0.73700005 1.6332002e-38
0.01473998 -0.035797164 0.73700011 9.2484662e-39
0.016143799 -0.035797164 0.73700005 2.0662776e-39
0.017547607 -0.035797149 0.73700011 2.5146875e-39
0.01895141 -0.035797149 0.73700005 2.8766205e-39
0.020355217 -0.035797149 0.73700011 2.2269295e-39
0.021818094 -0.035894305 0.73900008 1.583344e-39
0.023225708 -0.03589429 0.73900002 1.3978597e-39
0.024666637 -0.035942867 0.74000007 1.1205455e-39
0.026076179 -0.035942882 0.74000001 7.5175459e-40
0.027559999 -0.036040023 0.74200004 3.8367272e-40
0.028973328 -0.036040008 0.7420001 1.6697074e-39
0.030427588 -0.036088601 0.74300009 2.8638925e-39
0.031928569 -0.036185727 0.74500012 4.3328681e-39
0.033347622 -0.036185727 0.74500012 5.7121606e-39
0.034859996 -0.036282867 0.74700004 5.7128444e-39
0.036331419 -0.03633146 0.74800009 5.7121241e-39
0.037857145 -0.036428586 0.75000006 5.8025219e-39
-0.016472392 -0.035093352 0.75200009 6.5705063e-40
-0.015040009 -0.035093352 0.75200009 5.6737734e-40
-0.013535255 -0.0349067 0.74800009 7.5249307e-40
-0.012094305 -0.034860015 0.7470001 1.0319821e-39
-0.010642868 -0.034766689 0.74500012 1.217123e-39
-0.0091990698 -0.034673333 0.74300009 1.4976784e-39
-0.0077838311 -0.034673363 0.74300009 2.2359763e-39
-0.0063685919 -0.034673363 0.74300003 2.9735301e-39
-0.0049533634 -0.034673363 0.74300009 2.7970338e-39
-0.0035333463 -0.034626693 0.7420001 2.7191888e-39
-0.002120001 -0.034626678 0.74200004 7.5061141e-39
-0.00070191856 -0.03439337 0.73700011 1.239743e-38
0.00070189935 -0.03439334 0.73700005 1.6344922e-38
0.0021056922 -0.034393355 0.73700011 2.0203448e-38
0.0035095103 -0.03439334 0.73700005 2.0846296e-38
0.0049133175 -0.03439334 0.73700011 2.1397309e-38
0.0063171354 -0.03439334 0.73700005 2.1397309e-38
0.0077209431 -0.03439334 0.73700011 2.1305474e-38
0.0091247465 -0.034393325 0.73700005 2.1488786e-38
0.010528554 -0.034393355 0.73700011 2.158098e-38
0.011932372 -0.034393355 0.73700005 2.0019777e-38
0.013336179 -0.03439334 0.73700011 1.8458573e-38
0.014739997 -0.03439334 0.73700005 1.0816138e-38
0.016143791 -0.03439334 0.73700011 3.1701141e-39
0.017547609 -0.034393355 0.73700005 2.793801e-39
0.018951416 -0.03439334 0.73700011 2.4231926e-39
0.020355234 -0.03439334 0.73700005 1.9550089e-39
0.021759043 -0.034393355 0.73700011 1.5844258e-39
0.023225706 -0.034486696 0.73900008 1.398231e-39
0.024633337 -0.034486681 0.73900002 1.2123936e-39
0.026076168 -0.034533352 0.74000007 1.0279898e-39
0.027485697 -0.034533352 0.74000007 8.4358308e-40
0.028973334 -0.034626693 0.74200004 1.6693655e-39
0.03038666 -0.034626693 0.7420001 2.4951324e-39
0.031928565 -0.034766674 0.74500006 4.5204992e-39
0.033347618 -0.034766674 0.74500006 6.5404891e-39
0.034859993 -0.03486003 0.7470001 6.0805619e-39
0.036331426 -0.03490667 0.74800009 5.6220879e-39
0.037857134 -0.035000011 0.75000012 5.7128332e-39
0.039285693 -0.035000011 0.75000012 5.7135437e-39
-0.017904764 -0.033660978 0.75200003 6.5596042e-40
-0.016428594 -0.033571437 0.75000012 4.7230204e-40
-0.01496002 -0.033481926 0.74800009 2.9151072e-40
-0.013517155 -0.033437148 0.74700004 5.6810321e-40
-0.012094297 -0.033437148 0.74700004 8.4723066e-40
-0.010642875 -0.033347622 0.74500012 1.2167573e-39
-0.0092238244 -0.033347636 0.74500012 1.5891523e-39
-0.0077838297 -0.03325811 0.74300009 2.6047532e-39
-0.0063685905 -0.033258095 0.74300003 3.6196072e-39
-0.0049466765 -0.033213362 0.74200004 3.5331527e-39
-0.0035238357 -0.033123821 0.74000007 3.4545903e-39
-0.002114313 -0.033123806 0.74000007 8.3369383e-39
-0.00070192741 -0.032989547 0.73700011 1.3126375e-38
0.00070189097 -0.032989532 0.73700005 1.6989205e-38
0.0021056982 -0.032989562 0.73700011 2.0754459e-38
0.0035095166 -0.032989517 0.73700005 2.1212918e-38
0.0049133236 -0.032989547 0.73700011 2.1672454e-38
0.006317127 -0.032989532 0.73700005 2.1121082e-38
0.0077209342 -0.032989532 0.73700011 2.0570069e-38
0.0091247531 -0.032989517 0.73700005 2.0844858e-38
0.01052856 -0.032989532 0.73700011 2.1029607e-38
0.011932379 -0.032989547 0.73700005 2.0846296e-38
0.013336171 -0.032989532 0.73700011 2.0568278e-38
0.014739989 -0.032989547 0.73700005 1.2387386e-38
0.016143799 -0.032989532 0.73700011 4.1828129e-39
0.017547615 -0.032989532 0.73700005 3.0671523e-39
0.018951423 -0.032989532 0.73700011 1.8678762e-39
0.020355226 -0.032989547 0.73700005 1.7691912e-39
0.021759033 -0.032989532 0.73700011 1.5847859e-39
0.023225715 -0.033079058 0.73900002 1.4904238e-39
0.02463332 -0.033079073 0.73900008 1.3053053e-39
0.026040951 -0.033079058 0.73900002 1.3035004e-39
0.027485697 -0.033123806 0.74000001 1.2112894e-39
0.028895227 -0.033123806 0.74000007 1.6682991e-39
0.030386666 -0.033213347 0.74200004 2.039929e-39
0.031928569 -0.033347622 0.74500012 4.713905e-39
0.033347618 -0.033347636 0.74500006 7.2809296e-39
0.03476667 -0.033347636 0.74500006 6.4464536e-39
0.036331411 -0.033481941 0.74800009 5.5291706e-39
0.037857138 -0.033571452 0.75000012 5.6210019e-39
0.039285693 -0.033571452 0.75000012 5.6217138e-39
-0.01790477 -0.032228589 0.75200003 6.5631775e-40
-0.016428592 -0.032142892 0.75000012 6.5740656e-40
-0.015000022 -0.032142878 0.75000012 5.6773327e-40
-0.013517159 -0.032014295 0.7470001 7.52849e-40
-0.012061913 -0.031928584 0.74500006 9.3942068e-40
-0.010614305 -0.031842873 0.74300009 1.3085858e-39
-0.009199067 -0.031842873 0.74300009 1.6795487e-39
-0.0077733444 -0.031800032 0.7420001 2.5129177e-39
-0.0063685994 -0.031842873 0.74300009 3.2547763e-39
-0.0049466714 -0.031800032 0.74200004 2.7995449e-39
-0.0035238301 -0.03171429 0.74000001 2.3511294e-39
-0.0021142999 -0.03171429 0.74000007 7.8766847e-39
-0.00070192042 -0.031585738 0.73700011 1.3404034e-38
0.00070189749 -0.031585723 0.73700005 1.7172159e-38
0.0021056903 -0.031585738 0.73700011 2.1029964e-38
0.0035095082 -0.031585738 0.73700005 2.1305109e-38
0.0049133156 -0.031585723 0.73700011 2.1488421e-38
0.0063171335 -0.031585723 0.73700005 2.1121078e-38
0.0077209412 -0.031585723 0.73700011 2.0661185e-38
0.0091247438 -0.031585723 0.73700005 2.0661902e-38
0.010528552 -0.031585738 0.73700011 2.075374e-38
0.01193237 -0.031585723 0.73700005 2.0111612e-38
0.013336177 -0.031585723 0.73700011 1.9560599e-38
0.014739995 -0.031585723 0.73700005 1.2009641e-38
0.01614379 -0.031585738 0.73700011 4.3506982e-39
0.017547607 -0.031585708 0.73700005 2.9710078e-39
0.018951416 -0.031585723 0.73700011 1.6816941e-39
0.020355232 -0.031585738 0.73700005 1.863542e-39
0.021759041 -0.031585738 0.73700011 2.0461172e-39
0.023162844 -0.031585723 0.73700005 1.8595567e-39
0.02456665 -0.031585723 0.73700011 1.7652017e-39
0.026040949 -0.03167145 0.73900008 1.6729976e-39
0.02744858 -0.03167145 0.73900002 1.5811495e-39
0.028895225 -0.031714305 0.74000001 2.0378019e-39
0.030386671 -0.031800002 0.74200004 2.4040718e-39
0.031928569 -0.031928599 0.74500012 5.3585962e-39
0.033437125 -0.03201431 0.7470001 8.3001052e-39
0.034859989 -0.032014281 0.7470001 7.0946662e-39
0.036331415 -0.032057166 0.74800009 5.896507e-39
0.037857138 -0.032142892 0.75000012 5.7132003e-39
0.039285693 -0.032142878 0.75000012 5.5298853e-39
0.040714283 -0.032142878 0.75000006 5.622434e-39
-0.017928598 -0.030837163 0.75300008 6.5666808e-40
-0.01642859 -0.030714303 0.75000012 7.4995112e-40
-0.015000021 -0.030714318 0.75000012 8.4251809e-40
-0.013517155 -0.030591443 0.74700004 9.354438e-40
-0.012061912 -0.030509531 0.74500012 9.3797875e-40
-0.010642868 -0.030509546 0.74500012 1.3989723e-39
-0.0091990717 -0.030427635 0.74300003 1.7717289e-39
-0.0077733393 -0.030386701 0.74200004 2.328874e-39
-0.0063600107 -0.030386701 0.7420001 2.8838386e-39
-0.0049466724 -0.030386686 0.74200004 2.0594771e-39
-0.0035238352 -0.03030479 0.74000007 1.1547554e-39
-0.0021143116 -0.030304775 0.74000007 7.4142786e-39
-0.00070191856 -0.030181915 0.73700005 1.3584476e-38
0.0007018891 -0.030181915 0.73700011 1.7448383e-38
0.0021057071 -0.030181915 0.73700005 2.1305472e-38
0.0035095145 -0.030181915 0.73700011 2.1305471e-38
0.0049133175 -0.030181915 0.73700005 2.1305471e-38
0.0063171252 -0.030181915 0.73700011 2.1029964e-38
0.0077209431 -0.030181915 0.73700005 2.0754099e-38
0.0091247512 -0.030181915 0.73700011 2.0570787e-38
0.010528558 -0.030181929 0.73700011 2.0387117e-38
0.011932362 -0.030181929 0.73700005 1.9468764e-38
0.01333617 -0.030181915 0.73700011 1.8546463e-38
0.014739987 -0.030181915 0.73700011 1.1555485e-38
0.016143795 -0.030181915 0.73700011 4.5436935e-39
0.017547615 -0.030181915 0.73700011 2.9674135e-39
0.018951407 -0.030181915 0.73700011 1.4065421e-39
0.020355225 -0.030181929 0.73700005 1.9564509e-39
0.021759033 -0.030181929 0.73700011 2.414178e-39
0.023162849 -0.030181929 0.73700005 2.320532e-39
0.024566658 -0.030181929 0.73700011 2.1350562e-39
0.025970461 -0.030181915 0.73700005 2.0421333e-39
0.027448563 -0.030263826 0.73900008 1.9492118e-39
0.028895227 -0.030304775 0.74000007 2.4055096e-39
0.030386653 -0.030386686 0.7420001 2.7818241e-39
0.031842835 -0.030427635 0.74300009 6.1072791e-39
0.033437133 -0.030591443 0.74700004 9.3092377e-39
0.034859993 -0.030591428 0.74700004 7.7357505e-39
0.036331426 -0.030632406 0.74800003 6.1727534e-39
0.037857141 -0.030714303 0.75000012 5.8050512e-39
0.039285693 -0.030714303 0.75000006 5.3469374e-39
0.040822852 -0.03079623 0.75200009 5.6231487e-39
0.042255238 -0.03079623 0.75200009 5.8061134e-39
-0.019414291 -0.029480964 0.75500011 9.3072142e-40
-0.017928591 -0.029402882 0.75300008 7.4706164e-40
-0.016472384 -0.029363826 0.75200003 7.4850638e-40
-0.015040004 -0.029363826 0.75200003 6.577667e-40
-0.013517161 -0.029168591 0.7470001 7.5105534e-40
-0.012094305 -0.029168591 0.7470001 9.3689554e-40
-0.010642867 -0.029090494 0.74500012 1.1223756e-39
-0.0091990707 -0.029012397 0.74300003 1.3114612e-39
-0.0077733402 -0.028973341 0.74200004 1.681348e-39
-0.0063428767 -0.028895229 0.74000001 1.9640403e-39
-0.004933354 -0.028895259 0.74000001 1.4155497e-39
-0.0035190547 -0.028856203 0.73900008 8.756602e-40
-0.0021114314 -0.028856218 0.73900002 5.666893e-39
-0.0007019125 -0.028778106 0.73700005 1.0560721e-38
0.00070189516 -0.028778106 0.73700011 1.3864287e-38
0.0021056987 -0.028778121 0.73700005 1.7172876e-38
0.0035095061 -0.028778091 0.73700011 1.7264712e-38
0.0049133236 -0.028778106 0.73700005 1.7448383e-38
0.0063171312 -0.028778106 0.73700011 1.7448383e-38
0.0077104522 -0.028739065 0.73600012 1.7448383e-38
0.0091123581 -0.02873908 0.73600012 1.7448383e-38
0.01052856 -0.028778106 0.73700005 1.7448383e-38
0.011916173 -0.028739065 0.73600012 1.6069415e-38
0.01331808 -0.02873905 0.73600012 1.4693318e-38
0.014719976 -0.02873908 0.73600018 8.5109236e-39
0.016121883 -0.028739065 0.73600018 2.3313865e-39
0.017523792 -0.02873908 0.73600012 2.1430394e-39
0.018925697 -0.02873908 0.73600012 1.9589844e-39
0.02035523 -0.028778121 0.73700011 2.1404778e-39
0.021759033 -0.028778091 0.73700005 2.3234187e-39
0.023162842 -0.028778106 0.73700011 2.1375827e-39
0.02456666 -0.028778106 0.73700005 2.0446584e-39
0.025970468 -0.028778106 0.73700011 1.9517327e-39
0.027448572 -0.028856203 0.73900002 1.9517257e-39
0.028856192 -0.028856203 0.73900008 2.2254315e-39
0.030386658 -0.028973341 0.7420001 2.597444e-39
0.031842846 -0.029012397 0.74300009 4.991271e-39
0.03334761 -0.029090494 0.74500012 7.4718299e-39
0.034859989 -0.029168576 0.7470001 6.7277418e-39
0.036282852 -0.029168591 0.7470001 5.9876699e-39
0.037756182 -0.029207632 0.74800009 5.8054254e-39
0.039285697 -0.029285714 0.75000006 5.6231669e-39
0.040822856 -0.029363826 0.75200003 5.7146213e-39
0.04225523 -0.029363841 0.75200009 5.8061008e-39
-0.022290489 -0.028042868 0.75500011 1.1132952e-39
-0.020852391 -0.028042868 0.75500011 1.0218254e-39
-0.019414302 -0.028042883 0.75500011 9.2927948e-40
-0.017928593 -0.027968585 0.75300008 8.3852719e-40
-0.016472392 -0.027931437 0.75200003 6.559408e-40
-0.01504001 -0.027931452 0.75200003 4.7299288e-40
-0.013535256 -0.027782902 0.74800009 6.5810581e-40
-0.012094301 -0.027745709 0.74700004 8.4178801e-40
-0.010614307 -0.027597144 0.74300009 8.4179922e-40
-0.0091866804 -0.027560025 0.7420001 8.4505024e-40
-0.0077524041 -0.027485728 0.74000007 9.3762562e-40
-0.0063428814 -0.027485713 0.74000007 1.0334226e-39
-0.0049333572 -0.027485728 0.74000007 8.5514659e-40
-0.0035190519 -0.02744858 0.73900002 5.8468618e-40
-0.0021114403 -0.027448595 0.73900008 4.0002012e-39
-0.00070192089 -0.027374297 0.73700005 7.408885e-39
0.00070188678 -0.027374312 0.73700011 1.0275525e-38
0.0021057047 -0.027374297 0.73700005 1.3024852e-38
0.0035047347 -0.027337164 0.73600012 1.3315785e-38
0.0049133156 -0.027374282 0.73700005 1.3485825e-38
0.0063171233 -0.027374297 0.73700011 1.3866797e-38
0.007710455 -0.027337164 0.73600012 1.4131543e-38
0.0091123618 -0.027337164 0.73600012 1.4325976e-38
0.010514269 -0.027337164 0.73600012 1.4496731e-38
0.011916175 -0.027337164 0.73600012 1.2667553e-38
0.013318081 -0.027337164 0.73600006 1.0800336e-38
0.014719979 -0.027337179 0.73600018 5.4627407e-39
0.016121872 -0.027337164 0.73600012 1.211983e-40
0.017523794 -0.027337164 0.73600012 1.3143255e-39
0.018925685 -0.027337179 0.73600012 2.4138249e-39
0.020355223 -0.027374312 0.73700011 2.3226928e-39
0.021759041 -0.027374297 0.73700005 2.136861e-39
0.023162849 -0.027374312 0.73700011 2.0450171e-39
0.024566667 -0.027374282 0.73700005 1.9513796e-39
0.025970459 -0.027374312 0.73700011 1.9513698e-39
0.02744857 -0.027448595 0.73900002 1.8577322e-39
0.028856188 -0.02744858 0.73900002 2.1303604e-39
0.030386662 -0.027560025 0.7420001 2.3168929e-39
0.031842839 -0.027597159 0.74300009 3.9713583e-39
0.033347622 -0.027671427 0.74500006 5.6261405e-39
0.034859993 -0.027745724 0.74700004 5.7150557e-39
0.036331419 -0.027782887 0.74800009 5.7139626e-39
0.037756164 -0.027782887 0.74800009 5.8057813e-39
0.039285701 -0.027857184 0.75000012 5.8979545e-39
0.040822849 -0.027931452 0.75200003 5.806098e-39
0.042255249 -0.027931452 0.75200003 5.7139052e-39
-0.022290491 -0.026604772 0.75500011 1.1132882e-39
-0.020852394 -0.026604787 0.75500011 1.1129365e-39
-0.019414295 -0.026604772 0.75500011 1.021824e-39
-0.017928597 -0.026534304 0.75300008 9.3035288e-40
-0.01647239 -0.026499063 0.75200009 7.4668609e-40
-0.015000022 -0.026428595 0.75000012 5.6300949e-40
-0.013517161 -0.026322871 0.7470001 5.6371995e-40
-0.012061921 -0.026252404 0.74500012 6.5412752e-40
-0.010614306 -0.026181921 0.74300003 6.5556806e-40
-0.0091866748 -0.026146695 0.7420001 6.5665687e-40
-0.0077524092 -0.026076198 0.74000007 7.4850357e-40
-0.0063428758 -0.026076183 0.74000001 8.360525e-40
-0.0049266662 -0.026040956 0.73900002 6.5634578e-40
-0.0035190533 -0.026040971 0.73900008 4.6446878e-40
-0.002111431 -0.026040956 0.73900002 2.1336941e-39
-0.00070191437 -0.025970489 0.73700005 3.7881876e-39
0.00070092379 -0.025935262 0.73600012 5.1797288e-39
0.0021028307 -0.025935262 0.73600012 6.5590577e-39
0.0035047373 -0.025935262 0.73600012 6.6544833e-39
0.0049066441 -0.025935262 0.73600012 6.8327719e-39
0.0063085505 -0.025935262 0.73600012 6.9321394e-39
0.0077104578 -0.025935262 0.73600012 7.1193991e-39
0.0091123646 -0.025935262 0.73600012 7.2098011e-39
0.010514271 -0.025935248 0.73600012 7.3005576e-39
0.011916178 -0.025935248 0.73600012 6.3700029e-39
0.013318085 -0.025935248 0.73600006 5.4189725e-39
0.014719966 -0.025935277 0.73600018 3.0459268e-39
0.016121875 -0.025935262 0.73600012 5.6024894e-40
0.01752378 -0.025935277 0.73600012 1.2120433e-39
0.018925687 -0.025935262 0.73600012 1.7634108e-39
0.020355228 -0.025970504 0.73700011 1.5815293e-39
0.021759046 -0.025970474 0.73700005 1.4893322e-39
0.02316284 -0.025970504 0.73700011 1.581881e-39
0.024566658 -0.025970489 0.73700005 1.7648303e-39
0.025970465 -0.025970489 0.73700011 1.7651834e-39
0.027374282 -0.025970474 0.73700005 1.8562917e-39
0.028856186 -0.026040971 0.73900002 2.2225476e-39
0.03038667 -0.02614668 0.74200004 2.5884309e-39
0.03184285 -0.026181921 0.74300003 3.8769739e-39
0.033347622 -0.026252404 0.74500012 5.2548412e-39
0.034766674 -0.026252374 0.74500012 5.4388457e-39
0.036282849 -0.026322871 0.7470001 5.6224915e-39
0.037756175 -0.026358113 0.74800009 5.713943e-39
0.039285704 -0.026428595 0.75000012 5.8050414e-39
0.04082286 -0.026499063 0.75200003 5.8057379e-39
0.042255245 -0.026499063 0.75200003 5.8057407e-39
0.043687627 -0.026499063 0.75200003 5.805026e-39
-0.017904773 -0.025066674 0.75200009 1.021101e-39
-0.016428588 -0.025000021 0.75000006 8.3743418e-40
-0.015000022 -0.025000021 0.75000012 5.6227661e-40
-0.013517167 -0.024900012 0.7470001 4.7150891e-40
-0.012061909 -0.024833344 0.74500006 3.7789096e-40
-0.010614305 -0.024766684 0.74300003 4.700964e-40
-0.0091866767 -0.02473335 0.74200004 4.7082227e-40
-0.0077524036 -0.02466666 0.74000007 5.6338504e-40
-0.0063428809 -0.024666682 0.74000007 5.6159839e-40
-0.0049266741 -0.024633355 0.73900002 4.6941256e-40
-0.0035190515 -0.024633341 0.73900002 2.836172e-40
-0.0021114394 -0.024633348 0.73900008 1.9001607e-40
-0.00070098072 -0.024533369 0.73600012 1.0214485e-40
0.00070092612 -0.024533361 0.73600012 9.534715e-41
0.0021028335 -0.024533354 0.73600012 1.0395112e-40
0.0035047398 -0.024533354 0.73600012 9.3184947e-41
0.0049066469 -0.024533361 0.73600012 1.0394131e-40
0.0063085533 -0.024533354 0.73600012 9.2456271e-41
0.0077104601 -0.024533369 0.73600012 1.0428743e-40
0.0091123665 -0.024533361 0.73600012 9.2442258e-41
0.010514259 -0.024533361 0.73600012 1.039245e-40
0.011916166 -0.024533354 0.73600012 9.3165328e-41
0.013318072 -0.024533346 0.73600006 9.6379907e-41
0.01471997 -0.024533369 0.73600018 5.5769577e-40
0.016121875 -0.024533346 0.73600012 1.0222458e-39
0.017523784 -0.024533376 0.73600012 1.118019e-39
0.018925691 -0.024533369 0.73600012 1.118735e-39
0.020327598 -0.024533361 0.73600012 9.3470391e-40
0.021729503 -0.024533361 0.73600012 7.5175459e-40
0.023131412 -0.024533354 0.73600012 1.2120125e-39
0.024566665 -0.024566688 0.73700005 1.5793517e-39
0.025970455 -0.024566673 0.73700011 1.6715431e-39
0.027374275 -0.02456668 0.73700005 1.7637289e-39
0.028856194 -0.024633348 0.73900002 2.3143761e-39
0.030304745 -0.024666674 0.74000007 2.7731739e-39
0.031800002 -0.02473335 0.74200004 3.7847796e-39
0.033258073 -0.024766676 0.74300009 4.7956623e-39
0.034766674 -0.024833344 0.74500012 5.1629791e-39
0.036282856 -0.024900012 0.74700004 5.5299399e-39
0.037756182 -0.024933361 0.74800003 5.621753e-39
0.039285704 -0.025000021 0.75000012 5.7132144e-39
0.040822852 -0.025066689 0.75200009 5.8053918e-39
0.042255238 -0.025066689 0.75200003 5.8968699e-39
-0.017857157 -0.023571439 0.75000012 6.5123805e-40
-0.016428597 -0.023571461 0.75000012 5.5976409e-40
-0.01500002 -0.023571432 0.75000012 3.7679795e-40
-0.013535256 -0.023508593 0.74800009 2.8351491e-40
-0.012094299 -0.023477145 0.7470001 2.8317299e-40
-0.010642864 -0.023414299 0.74500012 2.8354714e-40
-0.0091990726 -0.023351446 0.74300009 2.8534781e-40
-0.007773343 -0.023320027 0.74200004 2.8499608e-40
-0.0063428748 -0.023257151 0.74000001 3.7754624e-40
-0.0049266759 -0.023225732 0.73900008 2.8534781e-40
-0.0035190524 -0.023225732 0.73900002 1.9460112e-40
-0.00211143 -0.023225725 0.73900002 4.6868389e-40
-0.00070097792 -0.023131467 0.73600012 7.4277367e-40
0.00070092891 -0.02313146 0.73600012 7.4315061e-40
0.0021028358 -0.02313146 0.73600012 7.3990941e-40
0.0035047426 -0.023131453 0.73600012 6.5164723e-40
0.0049066492 -0.02313146 0.73600012 6.5235488e-40
0.0063085561 -0.023131445 0.73600012 5.5871591e-40
0.0077104629 -0.023131453 0.73600012 5.5152585e-40
0.0091123553 -0.023131445 0.73600012 6.4729199e-40
0.010514262 -0.02313146 0.73600012 6.4407181e-40
0.011916169 -0.023131453 0.73600012 9.2568515e-40
0.013318065 -0.02313146 0.73600018 1.203707e-39
0.014679982 -0.023068577 0.73400003 1.1140267e-39
0.016078079 -0.02306857 0.73400003 1.1176196e-39
0.017476188 -0.023068577 0.73400003 1.1179825e-39
0.018874284 -0.02306857 0.73400003 1.1172665e-39
0.020272367 -0.023068577 0.73400009 9.3395562e-40
0.021729507 -0.02313146 0.73600012 8.4033907e-40
0.023131415 -0.02313146 0.73600012 1.1180092e-39
0.02453332 -0.023131467 0.73600012 1.4857099e-39
0.025970472 -0.023162857 0.73700005 1.6711731e-39
0.027374281 -0.023162864 0.73700011 1.855556e-39
0.028856194 -0.023225717 0.73900002 2.2221735e-39
0.030304743 -0.023257151 0.74000001 2.5884225e-39
0.031799994 -0.023320027 0.74200004 3.7844195e-39
0.033213336 -0.023320019 0.74200004 4.9800494e-39
0.034766663 -0.023414299 0.74500012 5.4384828e-39
0.036185715 -0.023414277 0.74500012 5.8965658e-39
0.037705697 -0.023477159 0.7470001 5.896905e-39
0.039180938 -0.023508586 0.74800009 5.8046995e-39
0.040605702 -0.023508593 0.74800009 5.9887166e-39
0.042255241 -0.023634307 0.75200009 6.0798347e-39
-0.017857159 -0.022142865 0.75000006 2.8604565e-40
-0.016428595 -0.022142887 0.75000012 2.8137793e-40
-0.015000019 -0.02214288 0.75000012 1.9527655e-40
-0.013535258 -0.022083849 0.74800009 1.8558517e-40
-0.012094305 -0.0220543 0.7470001 1.0201032e-40
-0.01064287 -0.021995239 0.74500012 9.4846887e-41
-0.0091990717 -0.021936208 0.74300009 1.0058941e-40
-0.0077733379 -0.021906674 0.74200004 9.6644752e-41
-0.0063600102 -0.021906681 0.7420001 9.8794344e-41
-0.0049333563 -0.021847636 0.74000007 9.9509007e-41
-0.0035190533 -0.021818124 0.73900008 1.0167962e-40
-0.002111431 -0.021818101 0.73900002 7.4705743e-40
-0.00070097559 -0.021729551 0.73600012 1.2984347e-39
0.00070093171 -0.021729551 0.73600012 1.3027437e-39
0.0021028386 -0.021729544 0.73600012 1.2998753e-39
0.0035047452 -0.021729551 0.73600012 1.213062e-39
0.0049066371 -0.021729566 0.73600012 1.1183497e-39
0.006308544 -0.021729544 0.73600012 1.1215713e-39
0.0077104508 -0.021729559 0.73600012 1.0225457e-39
0.0090876091 -0.021670476 0.73400003 1.1172342e-39
0.010514264 -0.021729544 0.73600012 1.206567e-39
0.011916171 -0.021729536 0.73600006 1.7622533e-39
0.013318068 -0.021729544 0.73600018 2.219277e-39
0.014679994 -0.021670468 0.73400003 1.760817e-39
0.016078088 -0.021670483 0.73400003 1.2098096e-39
0.017476173 -0.021670483 0.73400009 1.1186986e-39
0.018874269 -0.021670498 0.73400009 1.0257841e-39
0.020327589 -0.021729551 0.73600012 9.3466467e-40
0.02172951 -0.021729544 0.73600012 8.4140686e-40
0.023131402 -0.021729544 0.73600012 1.1172861e-39
0.024566662 -0.021759048 0.73700011 1.3942261e-39
0.025970465 -0.021759056 0.73700005 1.6711675e-39
0.027448572 -0.021818094 0.73900002 1.9470271e-39
0.028856179 -0.021818109 0.73900008 2.221812e-39
0.030304745 -0.021847636 0.74000007 2.4054661e-39
0.031714261 -0.021847621 0.74000007 3.7847754e-39
0.03321334 -0.021906689 0.74200004 5.0718807e-39
0.034673315 -0.021936201 0.74300009 5.7147011e-39
0.0361857 -0.021995254 0.74500012 6.2646211e-39
0.037705716 -0.022054285 0.74700004 6.0802158e-39
0.039128564 -0.0220543 0.74700004 5.8965322e-39
0.040714279 -0.022142865 0.75000006 6.0809081e-39
0.042255234 -0.022201926 0.75200009 6.263863e-39
0.043687619 -0.022201926 0.75200003 5.4366289e-39
-0.016428595 -0.020714305 0.75000012 5.3502556e-39
-0.015000018 -0.020714305 0.75000012 5.6311445e-39
-0.013517156 -0.020631433 0.74700004 5.7176004e-39
-0.012061919 -0.020576201 0.74500012 5.8133876e-39
-0.010614316 -0.020520978 0.74300009 5.8083709e-39
-0.0091990782 -0.020520978 0.74300009 5.8951814e-39
-0.0077838311 -0.02052097 0.74300009 5.8033431e-39
-0.0063600047 -0.020493351 0.74200004 5.6989491e-39
-0.0049333512 -0.020438097 0.74000001 3.8694111e-39
-0.0035190519 -0.020410493 0.73900002 2.0280628e-39
-0.0021114398 -0.020410493 0.73900008 1.3877507e-39
-0.0007009728 -0.020327657 0.73600012 8.4031665e-40
0.00070093403 -0.02032765 0.73600012 8.3994951e-40
0.0021028265 -0.020327643 0.73600012 8.4211732e-40
0.0035047336 -0.020327643 0.73600012 8.428488e-40
0.0049066404 -0.02032765 0.73600012 8.4284459e-40
0.0063085468 -0.020327628 0.73600012 9.3467588e-40
0.0077104541 -0.020327657 0.73600012 1.0243422e-39
0.0091123609 -0.02032765 0.73600012 1.1179545e-39
0.010514268 -0.02032765 0.73600012 1.2105173e-39
0.011916175 -0.020327643 0.73600012 1.5789439e-39
0.01331807 -0.02032765 0.73600018 2.0373997e-39
0.014679988 -0.020272367 0.73400003 1.5774991e-39
0.016078088 -0.020272389 0.73400009 1.1176126e-39
0.017476182 -0.020272397 0.73400009 1.1179783e-39
0.018874278 -0.020272382 0.73400003 1.1165378e-39
0.02032759 -0.020327657 0.73600012 8.4138444e-40
0.021729497 -0.02032765 0.73600012 6.570114e-40
0.023162846 -0.020355247 0.73700005 1.0254436e-39
0.024566654 -0.020355247 0.73700011 1.3938618e-39
0.026040953 -0.020410478 0.73900002 1.6708032e-39
0.027448572 -0.020410486 0.73900002 1.9470229e-39
0.028856188 -0.020410471 0.73900002 2.2221665e-39
0.030304743 -0.020438112 0.74000007 2.4965814e-39
0.031799994 -0.020493366 0.7420001 3.6932959e-39
0.033258084 -0.02052097 0.74300009 4.8889229e-39
0.034766667 -0.020576216 0.74500012 5.4388303e-39
0.0361857 -0.020576209 0.74500012 5.9887517e-39
0.037604749 -0.020576209 0.74500012 5.896542e-39
0.039285704 -0.020714298 0.75000006 5.8958119e-39
0.04087713 -0.020797163 0.75300008 5.9883523e-39
0.0423114 -0.020797148 0.75300008 6.0809095e-39
-0.014960014 -0.019234307 0.74800009 1.1053039e-38
-0.013517163 -0.019208595 0.7470001 1.1332135e-38
-0.012061917 -0.019157156 0.74500012 1.1513665e-38
-0.010614314 -0.019105725 0.74300009 1.1613763e-38
-0.0091990754 -0.019105725 0.74300009 1.160732e-38
-0.0077838292 -0.019105718 0.74300009 1.1523031e-38
-0.006360007 -0.019080013 0.74200004 1.1327518e-38
-0.0049333554 -0.019028574 0.74000007 7.6512241e-39
-0.0035190529 -0.01900287 0.73900002 3.9705862e-39
-0.0021114305 -0.019002855 0.73900002 2.1187661e-39
-0.00070098444 -0.018925726 0.73600012 2.8711204e-40
0.00070092286 -0.018925749 0.73600012 2.8248355e-40
0.0021028297 -0.018925749 0.73600012 2.8643942e-40
0.0035047363 -0.018925741 0.73600012 3.8151332e-40
0.0049066432 -0.018925741 0.73600012 4.7478094e-40
0.0063085495 -0.018925734 0.73600012 7.4992589e-40
0.0077104564 -0.018925741 0.73600012 1.0257799e-39
0.0091123627 -0.018925719 0.73600012 1.1190391e-39
0.01051427 -0.018925734 0.73600012 1.2115963e-39
0.011916176 -0.018925741 0.73600012 1.4889006e-39
0.013318074 -0.018925749 0.73600018 1.7626135e-39
0.014679988 -0.018874295 0.73400009 1.3934764e-39
0.016078085 -0.01887428 0.73400003 9.3430454e-40
0.01752378 -0.018925749 0.73600012 1.0265044e-39
0.018925685 -0.018925741 0.73600012 1.1172595e-39
0.020327594 -0.018925741 0.73600012 7.4883708e-40
0.021729501 -0.018925734 0.73600012 3.8186504e-40
0.023162853 -0.018951446 0.73700011 8.417712e-40
0.024566658 -0.018951453 0.73700011 1.3023836e-39
0.026040951 -0.01900287 0.73900002 1.5796852e-39
0.027448582 -0.019002862 0.73900002 1.8555462e-39
0.028895216 -0.019028582 0.74000007 2.2225238e-39
0.030304747 -0.019028582 0.74000007 2.4980149e-39
0.031799998 -0.01908002 0.7420001 3.6021778e-39
0.033258077 -0.019105732 0.74300009 4.6126976e-39
0.034673318 -0.019105732 0.74300009 5.1629637e-39
0.036282845 -0.019208588 0.7470001 5.7132368e-39
0.037705705 -0.01920858 0.7470001 5.8046911e-39
0.039180957 -0.0192343 0.74800003 5.804324e-39
0.040605705 -0.019234307 0.74800009 5.8961511e-39
-0.014960015 -0.017809547 0.74800009 9.9477968e-39
-0.013517158 -0.017785728 0.74700004 1.0126091e-38
-0.012061912 -0.017738104 0.74500006 1.0407713e-38
-0.010642862 -0.017738096 0.74500006 1.0589607e-38
-0.009223829 -0.017738104 0.74500012 1.0876982e-38
-0.0077838348 -0.017690502 0.74300009 1.1058532e-38
-0.0063685882 -0.017690495 0.74300009 1.1344795e-38
-0.0049333503 -0.017619044 0.74000007 1.0048687e-38
-0.003519051 -0.017595246 0.73900002 8.7682594e-39
-0.0021114389 -0.017595239 0.73900002 7.7450425e-39
-0.00070190971 -0.01754763 0.73700005 6.7223735e-39
0.00070188305 -0.01754763 0.73700011 4.5148113e-39
0.0021028325 -0.017523833 0.73600012 2.3943496e-39
0.0035047389 -0.017523825 0.73600012 1.2959166e-39
0.004906646 -0.01752384 0.73600012 2.9146448e-40
0.0063085523 -0.017523833 0.73600012 6.5844493e-40
0.0077104592 -0.017523848 0.73600012 9.3466467e-40
0.0091123655 -0.01752384 0.73600012 1.1190475e-39
0.010514272 -0.017523833 0.73600012 1.3952715e-39
0.01191618 -0.017523833 0.73600012 1.671494e-39
0.013318061 -0.017523833 0.73600018 2.0388402e-39
0.014679983 -0.017476194 0.73400003 1.5778719e-39
0.016121875 -0.01752384 0.73600012 1.0261442e-39
0.017523782 -0.017523855 0.73600012 1.2101768e-39
0.018925689 -0.017523848 0.73600012 1.3934876e-39
0.020355232 -0.017547637 0.73700011 1.0250666e-39
0.021759037 -0.017547622 0.73700005 6.570142e-40
0.023162846 -0.01754763 0.73700011 1.0254394e-39
0.024566662 -0.017547615 0.73700005 1.3020249e-39
0.026040951 -0.017595246 0.73900008 1.5796852e-39
0.027485698 -0.017619058 0.74000001 1.8562622e-39
0.028895229 -0.017619058 0.74000001 2.1303282e-39
0.030386675 -0.017666683 0.74200004 2.4965786e-39
0.031800002 -0.017666675 0.74200004 3.508906e-39
0.033258073 -0.017690495 0.74300009 4.5212194e-39
0.034766667 -0.017738111 0.74500012 5.0707666e-39
0.036185715 -0.017738104 0.74500012 5.6206754e-39
0.037705712 -0.017785721 0.74700004 5.7124815e-39
0.039285697 -0.017857172 0.75000012 5.8046715e-39
0.040877126 -0.017928593 0.75300008 5.8043086e-39
-0.01647239 -0.016472399 0.75200003 8.6329738e-39
-0.015000027 -0.016428597 0.75000012 8.8238237e-39
-0.01353525 -0.016384773 0.74800009 9.0003228e-39
-0.012094309 -0.016362868 0.7470001 9.1915398e-39
-0.010642867 -0.016319059 0.74500006 9.6431979e-39
-0.009223816 -0.016319059 0.74500006 1.0025277e-38
-0.0077838325 -0.016275249 0.74300009 1.0672103e-38
-0.0063685942 -0.016275249 0.74300003 1.1229578e-38
-0.0049466779 -0.01625336 0.7420001 1.2430622e-38
-0.0035333394 -0.016253345 0.74200004 1.3539793e-38
-0.002114305 -0.016209528 0.74000001 1.3370799e-38
-0.00070191809 -0.016143814 0.73700005 1.307775e-38
0.0007018891 -0.016143836 0.73700011 8.7511117e-39
0.0021057075 -0.016143821 0.73700005 4.4276365e-39
0.0035095001 -0.016143821 0.73700011 2.2992449e-39
0.0049066483 -0.016121924 0.73600012 1.0203134e-40
0.0063085547 -0.016121931 0.73600012 4.744194e-40
0.007710462 -0.016121939 0.73600012 8.4247185e-40
0.0091123534 -0.016121931 0.73600012 1.210167e-39
0.01051426 -0.016121931 0.73600012 1.4871098e-39
0.011916167 -0.016121931 0.73600006 1.9470047e-39
0.013318065 -0.016121939 0.73600012 2.3136278e-39
0.014719971 -0.016121931 0.73600012 1.7608184e-39
0.016121879 -0.016121924 0.73600012 1.1183371e-39
0.017523786 -0.016121946 0.73600012 1.3942107e-39
0.018925693 -0.016121939 0.73600012 1.5771544e-39
0.020355225 -0.016143829 0.73700011 1.3005619e-39
0.021759043 -0.016143821 0.73700005 9.3358988e-40
0.023162851 -0.016143821 0.73700011 1.1172735e-39
0.024633329 -0.016187631 0.73900002 1.3027451e-39
0.026076172 -0.016209528 0.74000007 1.5811285e-39
0.0274857 -0.016209535 0.74000007 1.855549e-39
0.028895216 -0.016209535 0.74000007 2.1299709e-39
0.030386657 -0.01625336 0.7420001 2.4054577e-39
0.031842828 -0.016275257 0.74300009 3.41563e-39
0.033258084 -0.016275249 0.74300009 4.3353918e-39
0.034766667 -0.016319066 0.74500012 4.9774962e-39
0.036282841 -0.016362876 0.7470001 5.5284826e-39
0.037604768 -0.016319066 0.74500012 5.7117682e-39
0.039390471 -0.016472399 0.75200003 5.8039638e-39
0.040985711 -0.016538098 0.75500011 5.8039652e-39
-0.016472388 -0.015040018 0.75200009 8.6329108e-39
-0.015000018 -0.015000023 0.75000012 8.9084201e-39
-0.013535259 -0.014960036 0.74800009 9.0920925e-39
-0.012094296 -0.014940001 0.74700004 9.3676088e-39
-0.010642866 -0.014900006 0.74500012 9.6431237e-39
-0.0092238141 -0.014900006 0.74500012 9.9186596e-39
-0.0077838311 -0.014860004 0.74300009 1.0291053e-38
-0.0063685928 -0.014860027 0.74300003 1.0745946e-38
-0.0049466798 -0.014840022 0.7420001 1.1586834e-38
-0.0035333342 -0.014840007 0.74200004 1.2333767e-38
-0.0021143102 -0.014800005 0.74000007 1.2431394e-38
-0.00070380868 -0.014780007 0.73900002 1.2629764e-38
0.00070188119 -0.014740013 0.73700011 1.1153931e-38
0.0021056992 -0.014740005 0.73700011 9.6834166e-39
0.0035095068 -0.01474002 0.73700011 6.8199445e-39
0.0049133245 -0.01474002 0.73700005 3.9544376e-39
0.0063171322 -0.01474002 0.73700011 2.2142744e-39
0.0077104499 -0.014720023 0.73600012 4.744152e-40
0.0091123562 -0.014720023 0.73600012 1.0257799e-39
0.010514263 -0.014720023 0.73600012 1.5789481e-39
0.011916171 -0.014720023 0.73600006 1.7629792e-39
0.013318066 -0.01472003 0.73600018 2.03812e-39
0.014719973 -0.014720023 0.73600012 1.5785753e-39
0.016121881 -0.01472003 0.73600012 1.1186944e-39
0.017547606 -0.01474002 0.73700011 1.2105425e-39
0.018951423 -0.014740005 0.73700005 1.3931205e-39
0.020355217 -0.014740013 0.73700011 1.2094313e-39
0.021759035 -0.014740005 0.73700005 1.026496e-39
0.023162842 -0.014740005 0.73700011 1.209825e-39
0.024633329 -0.014780015 0.73900008 1.3023892e-39
0.026076172 -0.014800005 0.74000007 1.4875063e-39
0.027485698 -0.014800005 0.74000001 1.7630002e-39
0.028895229 -0.014800012 0.74000001 2.1303296e-39
0.030386664 -0.014840007 0.7420001 2.4980093e-39
0.031842839 -0.014860027 0.74300009 3.4167006e-39
0.033258077 -0.014860019 0.74300009 4.4272245e-39
0.03476667 -0.014900014 0.74500012 5.25336e-39
0.036185704 -0.014900006 0.74500012 6.0798557e-39
0.037604757 -0.014900006 0.74500012 5.8958021e-39
0.039390482 -0.015040025 0.75200009 5.8039736e-39
0.040822864 -0.015040018 0.75200003 5.7125039e-39
-0.016472388 -0.013607644 0.75200009 8.6332835e-39
-0.015000017 -0.013571441 0.75000012 8.908783e-39
-0.013535258 -0.013535261 0.74800009 9.1842839e-39
-0.012094303 -0.013517149 0.7470001 9.4594429e-39
-0.010642872 -0.013480969 0.74500012 9.6431265e-39
-0.0092238197 -0.013480969 0.74500012 9.7349774e-39
-0.0077838297 -0.013444781 0.74300003 1.0010501e-38
-0.0063686008 -0.013444789 0.74300009 1.0286383e-38
-0.0049466747 -0.013426691 0.7420001 1.074522e-38
-0.0035238278 -0.013390481 0.74000001 1.1120106e-38
-0.0021143046 -0.013390481 0.74000001 1.1574631e-38
-0.00070191995 -0.013336204 0.73700011 1.2056817e-38
0.00070189795 -0.013336197 0.73700005 1.3551705e-38
0.0021057057 -0.013336204 0.73700011 1.4928494e-38
0.0035095087 -0.013336189 0.73700005 1.1434771e-38
0.0049133161 -0.013336204 0.73700011 7.8319944e-39
0.006317134 -0.013336189 0.73700005 3.9529957e-39
0.0077104522 -0.013318121 0.73600012 1.0129987e-40
0.009112359 -0.013318121 0.73600012 8.399439e-40
0.010514266 -0.013318114 0.73600012 1.5782208e-39
0.011916173 -0.013318114 0.73600006 1.6714968e-39
0.01331807 -0.013318114 0.73600018 1.6711353e-39
0.014719976 -0.013318121 0.73600012 1.3959833e-39
0.016121883 -0.013318121 0.73600012 1.1194105e-39
0.017547611 -0.013336204 0.73700011 1.1190601e-39
0.018951416 -0.013336204 0.73700005 1.1179755e-39
0.020355223 -0.013336219 0.73700011 1.1179657e-39
0.021759041 -0.013336204 0.73700005 1.1179783e-39
0.023225708 -0.013372391 0.73900008 1.209825e-39
0.024633337 -0.013372384 0.73900002 1.3023864e-39
0.026040945 -0.013372399 0.73900008 1.4871434e-39
0.027485687 -0.013390481 0.74000007 1.5789705e-39
0.028895218 -0.013390481 0.74000007 2.0377808e-39
0.030386668 -0.013426684 0.74200004 2.4983722e-39
0.031842846 -0.013444781 0.74300009 3.5092591e-39
0.033258088 -0.013444774 0.74300009 4.4279462e-39
0.03476667 -0.013480976 0.74500012 5.5292295e-39
0.036185708 -0.013480976 0.74500012 6.5386758e-39
0.037604757 -0.013480976 0.74500012 6.1709485e-39
0.039180949 -0.013535254 0.74800009 5.7124871e-39
0.040605702 -0.013535261 0.74800009 5.6217278e-39
-0.016472394 -0.012175269 0.75200009 8.6336549e-39
-0.015000015 -0.012142867 0.75000012 8.9087886e-39
-0.013571446 -0.012142874 0.75000012 9.1842797e-39
-0.012094296 -0.012094297 0.74700004 9.4594429e-39
-0.01064287 -0.012061909 0.74500012 9.6431293e-39
-0.0092238253 -0.012061916 0.74500012 9.8268031e-39
-0.0077838278 -0.012029536 0.74300003 1.0194505e-38
-0.0063685989 -0.012029536 0.74300009 1.0561863e-38
-0.0049466691 -0.012013353 0.74200004 1.074519e-38
-0.003523832 -0.011980958 0.74000007 1.1020667e-38
-0.0021143083 -0.011980966 0.74000007 1.1205385e-38
-0.0007019139 -0.011932388 0.73700011 1.1389165e-38
0.00070188957 -0.011932388 0.73700005 1.3541309e-38
0.0021056973 -0.011932395 0.73700011 1.5769053e-38
0.003509515 -0.011932395 0.73700005 1.4017378e-38
0.0049133226 -0.011932395 0.73700011 1.2353477e-38
0.0063171405 -0.011932388 0.73700005 7.8304782e-39
0.0077209333 -0.011932388 0.73700011 3.3112024e-39
0.0091123618 -0.011916213 0.73600012 2.2153099e-39
0.010514269 -0.011916213 0.73600006 1.2119452e-39
0.011916176 -0.011916205 0.73600012 1.395626e-39
0.013318072 -0.01191622 0.73600012 1.6711339e-39
0.014739987 -0.011932395 0.73700005 1.3952687e-39
0.016143795 -0.011932395 0.73700011 1.2108858e-39
0.017547615 -0.01193238 0.73700005 1.1183371e-39
0.018951422 -0.011932388 0.73700011 1.0254254e-39
0.020355225 -0.01193238 0.73700005 9.3394721e-40
0.021759033 -0.011932388 0.73700011 9.3431295e-40
0.023225717 -0.011964768 0.73900002 1.1179895e-39
0.024633337 -0.011964776 0.73900008 1.302385e-39
0.026076183 -0.011980966 0.74000001 1.5786146e-39
0.027485698 -0.011980958 0.74000001 1.8548343e-39
0.028895216 -0.011980966 0.74000001 2.2221721e-39
0.030386658 -0.012013353 0.74200004 2.5905707e-39
0.031842839 -0.012029536 0.74300009 3.5096221e-39
0.03325808 -0.012029529 0.74300009 4.4293853e-39
0.034859996 -0.012094289 0.74700004 5.2537258e-39
0.03628286 -0.012094289 0.74700004 6.0780634e-39
0.037756171 -0.012110502 0.74800009 5.8036037e-39
0.039285701 -0.012142882 0.75000012 5.6202844e-39
-0.018000022 -0.010800011 0.7560001 8.4503258e-39
-0.016472396 -0.010742888 0.75200009 8.6336451e-39
-0.015000015 -0.010714307 0.75000012 8.8169447e-39
-0.013571444 -0.0107143 0.75000006 9.0924386e-39
-0.012094303 -0.010671452 0.7470001 9.3679577e-39
-0.010642874 -0.010642879 0.74500012 9.6434768e-39
-0.0092238253 -0.010642871 0.74500012 9.9189903e-39
-0.0077838358 -0.010614298 0.74300009 1.0378175e-38
-0.0063685975 -0.010614291 0.74300009 1.0745527e-38
-0.0049466705 -0.010600016 0.74200004 1.0837015e-38
-0.0035238268 -0.010571435 0.74000001 1.0928822e-38
-0.0021143032 -0.010571428 0.74000007 1.0836958e-38
-0.00070381566 -0.010557152 0.73900002 1.0670993e-38
0.0007038039 -0.01055716 0.73900008 1.3639274e-38
0.0021114189 -0.010557152 0.73900002 1.6503407e-38
0.0035190489 -0.010557145 0.73900002 1.6694984e-38
0.0049133142 -0.010528594 0.73700011 1.6771682e-38
0.0063171322 -0.010528587 0.73700005 1.1612681e-38
0.0077209398 -0.010528587 0.73700011 6.4533704e-39
0.0091247577 -0.010528587 0.73700005 3.5892312e-39
0.01052855 -0.010528587 0.73700011 7.4737553e-40
0.011932368 -0.010528579 0.73700005 1.211239e-39
0.013318075 -0.010514311 0.73600012 1.5785795e-39
0.014739994 -0.010528579 0.73700005 1.3945498e-39
0.016143803 -0.010528587 0.73700011 1.2105257e-39
0.017547606 -0.010528587 0.73700005 1.1183371e-39
0.018951412 -0.010528579 0.73700011 9.3394861e-40
0.020355232 -0.010528579 0.73700005 8.4103832e-40
0.021759039 -0.010528587 0.73700011 6.5844773e-40
0.023225717 -0.01055716 0.73900002 1.0254366e-39
0.024633333 -0.010557152 0.73900002 1.3023822e-39
0.026076172 -0.010571443 0.74000007 1.6700871e-39
0.027485702 -0.010571443 0.74000007 2.0381424e-39
0.028973326 -0.010600016 0.7420001 2.4054802e-39
0.030427597 -0.010614306 0.74300009 2.6816845e-39
0.031842835 -0.010614298 0.74300009 3.5089018e-39
0.033258073 -0.010614298 0.74300003 4.3368296e-39
0.03476667 -0.010642864 0.74500012 4.9785752e-39
0.036282837 -0.010671437 0.7470001 5.528484e-39
0.03785713 -0.0107143 0.75000012 5.528456e-39
0.039390471 -0.01074288 0.75200009 5.4369694e-39
0.040822856 -0.010742888 0.75200009 5.5287951e-39
-0.019440027 -0.0093600228 0.7560001 8.1748011e-39
-0.0179762 -0.0093476325 0.75500005 8.4499573e-39
-0.016494306 -0.0093228668 0.75300008 8.725112e-39
-0.015040011 -0.0093104988 0.75200009 8.9084145e-39
-0.013571453 -0.009285748 0.75000012 9.1842685e-39
-0.012110495 -0.0092609823 0.74800009 9.4601435e-39
-0.010671443 -0.0092485771 0.74700004 9.6434642e-39
-0.0092238123 -0.0092238262 0.74500006 9.8271478e-39
-0.0078047686 -0.0092238188 0.74500006 1.0286338e-38
-0.0063685956 -0.009199068 0.74300009 1.0653327e-38
-0.0049466752 -0.0091866925 0.7420001 1.0561495e-38
-0.003523832 -0.0091619119 0.74000007 1.0469633e-38
-0.0021143083 -0.0091619119 0.74000007 1.1117836e-38
-0.00070381659 -0.009149529 0.73900002 1.1868812e-38
0.00070474826 -0.0091619045 0.74000001 1.4193905e-38
0.0021142641 -0.0091619194 0.74000001 1.6512046e-38
0.003519048 -0.009149529 0.73900002 1.669286e-38
0.0049133203 -0.0091247782 0.73700011 1.6966172e-38
0.006334282 -0.0091495365 0.73900002 1.3831168e-38
0.0077209314 -0.0091247708 0.73700011 1.0697566e-38
0.0091247493 -0.0091247633 0.73700005 5.6253726e-39
0.010514274 -0.0091123953 0.73600012 5.5867107e-40
0.011916156 -0.0091124102 0.73600018 1.2065754e-39
0.013318063 -0.0091124028 0.73600012 1.8533686e-39
0.01471997 -0.0091124028 0.73600012 1.5778607e-39
0.016143793 -0.0091247708 0.73700011 1.3016437e-39
0.017547611 -0.0091247708 0.73700005 1.3942023e-39
0.01895142 -0.0091247708 0.73700011 1.4856805e-39
0.020410482 -0.0091495365 0.73900002 1.0261456e-39
0.021818098 -0.009149529 0.73900002 6.5916659e-40
0.023257129 -0.0091619194 0.74000007 1.0265128e-39
0.024666645 -0.0091619119 0.74000007 1.4864091e-39
0.026076172 -0.009161897 0.74000001 1.670799e-39
0.027560003 -0.0091866851 0.74200004 1.8551832e-39
0.028973332 -0.0091866776 0.7420001 2.3136391e-39
0.030427607 -0.0091990605 0.74300009 2.7720809e-39
0.031842846 -0.009199053 0.74300009 3.6932875e-39
0.033347618 -0.0092238337 0.74500012 4.6141269e-39
0.034859996 -0.0092485771 0.74700004 5.1626007e-39
0.036331404 -0.0092609748 0.74800009 5.7121536e-39
0.037756179 -0.0092609823 0.74800009 5.4366205e-39
0.039285704 -0.0092857331 0.75000006 5.2532956e-39
0.040714275 -0.0092857331 0.75000012 5.2536417e-39
-0.019440023 -0.0079200193 0.7560001 8.1744578e-39
-0.017928593 -0.0078885779 0.75300002 8.4499741e-39
-0.01649431 -0.0078885779 0.75300008 8.7251316e-39
-0.015040018 -0.0078781173 0.75200009 9.0006213e-39
-0.013571451 -0.0078571513 0.75000012 9.2757509e-39
-0.012110493 -0.0078362077 0.74800009 9.5516245e-39
-0.010671449 -0.0078257322 0.7470001 9.6434698e-39
-0.0092485854 -0.0078257248 0.7470001 9.7353109e-39
-0.0078047672 -0.0078047588 0.74500012 1.0194495e-38
-0.0063857236 -0.0078047663 0.74500006 1.0561835e-38
-0.0049533551 -0.0077838153 0.74300009 1.0285967e-38
-0.0035381161 -0.0077838227 0.74300009 9.9186512e-39
-0.0021200043 -0.0077733546 0.74200004 1.1480241e-38
-0.00070477958 -0.0077523887 0.74000007 1.2984156e-38
0.00070473662 -0.0077523887 0.74000007 1.4755325e-38
0.0021142673 -0.0077523962 0.74000007 1.6506308e-38
0.0035190319 -0.0077419281 0.73900008 1.6781824e-38
0.0049266615 -0.0077419132 0.73900002 1.7057667e-38
0.0063342913 -0.0077419132 0.73900002 1.5955619e-38
0.0077209477 -0.0077209547 0.73700005 1.4837748e-38
0.0091247549 -0.0077209622 0.73700011 7.5647472e-39
0.010514262 -0.0077105016 0.73600006 2.9503498e-40
0.011916159 -0.0077105016 0.73600018 1.2033454e-39
0.013318066 -0.0077105016 0.73600012 2.1267241e-39
0.014719971 -0.0077105016 0.73600012 1.7611785e-39
0.016143786 -0.0077209771 0.73700011 1.3942009e-39
0.017547604 -0.0077209622 0.73700005 1.6707892e-39
0.01895141 -0.0077209771 0.73700011 1.945581e-39
0.020355228 -0.0077209622 0.73700005 1.3027367e-39
0.021818096 -0.0077419207 0.73900008 6.5881207e-40
0.02322571 -0.0077419132 0.73900002 1.1179895e-39
0.024666656 -0.0077523887 0.74000001 1.5778845e-39
0.026076172 -0.0077523962 0.74000007 1.6707962e-39
0.027559996 -0.0077733472 0.74200004 1.6711493e-39
0.028973337 -0.0077733546 0.74200004 2.2214392e-39
0.030386666 -0.0077733546 0.7420001 2.7731528e-39
0.031842839 -0.0077838153 0.74300009 3.7854789e-39
0.033347607 -0.0078047737 0.74500012 4.7956427e-39
0.034859989 -0.0078257322 0.7470001 5.3459116e-39
0.036331411 -0.0078362077 0.74800009 5.8958218e-39
0.037756186 -0.0078362077 0.74800003 5.4362603e-39
