# .PCD v0.7 - Point Cloud Data file format
VERSION 0.7
FIELDS x y z rgb
SIZE 4 4 4 4
TYPE F F F F
COUNT 1 1 1 1
WIDTH 967
HEIGHT 1
VIEWPOINT 0 0 0 1 0 0 0
POINTS 967
DATA ascii
-0.029676162 0.002171427 0.76000005 4.7967539e-39
-0.028228549 0.0021714345 0.76000005 4.1517629e-39
-0.026780957 0.0021714419 0.76000005 3.5993178e-39
-0.025266686 0.0021657199 0.75800002 3.2301835e-39
-0.023759995 0.0021599978 0.75600004 2.861764e-39
-0.022320021 0.0021600053 0.75600004 2.4011487e-39
-0.020852398 0.0021571442 0.75500005 1.9426719e-39
-0.019362856 0.0021514446 0.75299996 2.491873e-39
-0.017904773 0.0021485761 0.75199997 3.0432601e-39
-0.016384775 0.0021371394 0.74800003 3.7808294e-39
-0.01493998 0.0021342784 0.74700004 4.6106013e-39
-0.01348097 0.0021285713 0.74500006 5.6312188e-39
-0.012061937 0.0021285787 0.74500006 6.7371908e-39
-0.010614282 0.0021228418 0.74300003 7.0123385e-39
-0.0091990586 0.0021228567 0.74300003 7.195648e-39
-0.0077838339 0.0021228641 0.74300003 7.749528e-39
-0.0063686091 0.0021228641 0.74300003 8.302692e-39
-0.0049533248 0.0021228641 0.74300003 4.5248796e-39
-0.0035333249 0.0021199957 0.74200004 8.4427952e-40
-0.0021114524 0.0021114349 0.73899996 8.4176139e-40
-0.00070384413 0.0021114424 0.73899996 8.3888452e-40
0.0007037624 0.0021114424 0.73899996 6.5377019e-40
0.0021142878 0.0021142811 0.74000001 4.6972926e-40
0.0035238203 0.0021142736 0.74000001 6.5302891e-40
0.0049333489 0.0021142811 0.74000001 8.3635938e-40
0.0063428441 0.0021142885 0.74000001 8.3673633e-40
0.0077523971 0.0021142885 0.74000001 9.2928649e-40
0.0091619277 0.0021142811 0.74000001 9.3035848e-40
0.010599998 0.0021200031 0.74200004 9.3108296e-40
0.012013338 0.0021199957 0.74200004 8.3925447e-40
0.013426638 0.0021200106 0.74200004 6.5522054e-40
0.014839977 0.0021200031 0.74200004 7.4741056e-40
0.016275236 0.0021228641 0.74300003 8.3996492e-40
0.017690461 0.0021228492 0.74300003 7.4884689e-40
0.019105686 0.0021228492 0.74300003 5.6626751e-40
0.020576183 0.0021285713 0.74500006 4.6188815e-39
0.021995215 0.0021285787 0.74500006 8.5774908e-39
0.023477161 0.002134271 0.74700004 9.3103783e-39
0.024933323 0.002137132 0.74800003 1.0132887e-38
0.026428554 0.002142854 0.75 8.5612148e-39
0.027931424 0.0021485761 0.75199997 7.0803492e-39
0.029402856 0.0021514446 0.75299996 7.2697403e-39
0.030960003 0.0021600053 0.75600004 7.4444317e-39
-0.029598143 0.0036095306 0.75800002 4.7067093e-39
-0.02815434 0.0036095232 0.75800002 4.1496077e-39
-0.026710533 0.0036095306 0.75799996 3.5989548e-39
-0.025266692 0.0036095306 0.75800002 3.2287458e-39
-0.023760019 0.0036000088 0.75599998 2.7688439e-39
-0.022319984 0.0036000013 0.75600004 2.765967e-39
-0.020852393 0.0035952404 0.755 2.7659572e-39
-0.019362854 0.0035857186 0.75300002 3.1322146e-39
-0.01790476 0.0035809577 0.75200003 3.5006524e-39
-0.016384767 0.0035619065 0.74800003 4.0538373e-39
-0.014940024 0.0035571456 0.74700004 4.5209196e-39
-0.013517147 0.0035571456 0.74700004 5.7255556e-39
-0.012061941 0.0035476312 0.74500006 6.9204988e-39
-0.01064287 0.0035476089 0.74500006 7.1045342e-39
-0.0091990437 0.003538087 0.74300003 7.2892772e-39
-0.0077838209 0.0035380945 0.74300003 8.0268268e-39
-0.0063685961 0.0035381019 0.74300003 8.6668054e-39
-0.0049533332 0.003538087 0.74300003 4.7982365e-39
-0.0035333398 0.003533341 0.74200004 9.3647515e-40
-0.0021114617 0.0035190508 0.73899996 1.0261526e-39
-0.0007038553 0.0035190508 0.73899996 1.0221982e-39
0.00070377544 0.0035190508 0.73899996 8.3600766e-40
0.0021114231 0.0035190433 0.73900002 5.6121163e-40
0.003523824 0.0035238042 0.74000001 7.4523435e-40
0.0049333544 0.0035238042 0.74000001 9.2819908e-40
0.0063428478 0.0035238191 0.74000001 1.0200444e-39
0.0077523785 0.0035238117 0.74000001 1.1125959e-39
0.0091866599 0.0035333261 0.74200004 1.0218352e-39
0.010599985 0.003533341 0.74199998 9.3108015e-40
0.012013324 0.003533341 0.74200004 6.5629533e-40
0.013426663 0.003533341 0.74200004 3.7970424e-40
0.014859967 0.0035380945 0.74300003 5.6193189e-40
0.016275253 0.0035380945 0.74300003 6.5628552e-40
0.017690478 0.0035380945 0.74300003 5.651759e-40
0.019105703 0.0035380945 0.74300003 3.8582651e-40
0.020576181 0.0035476312 0.74500006 4.8997746e-39
0.022054298 0.0035571381 0.74700004 9.3114615e-39
0.023477139 0.0035571456 0.74700004 9.3111e-39
0.02500001 0.0035714209 0.75000006 9.3056602e-39
0.026499014 0.0035809651 0.75199997 9.5750093e-39
0.027931394 0.0035809577 0.75199997 9.8540905e-39
0.029363776 0.0035809651 0.75199997 1.0314333e-38
0.030959979 0.0036000088 0.75599998 1.0683826e-38
0.032400012 0.0035999939 0.75600004 1.1144796e-38
-0.029598124 0.0050533339 0.75800002 5.3552947e-39
-0.028228553 0.0050666705 0.76000005 5.0751345e-39
-0.026710538 0.0050533488 0.75799996 4.7949659e-39
-0.025266694 0.0050533339 0.75800002 4.6120138e-39
-0.023760006 0.0050399974 0.75600004 4.5140686e-39
-0.022320008 0.0050400048 0.75600004 4.424733e-39
-0.020852368 0.0050333291 0.75500005 4.4171982e-39
-0.01936285 0.0050200075 0.75300002 4.8817553e-39
-0.017904788 0.0050133467 0.75199997 5.4266951e-39
-0.016428586 0.0050000027 0.75000006 5.2520162e-39
-0.014959995 0.0049866661 0.74800003 5.163052e-39
-0.013517166 0.0049800128 0.74700004 6.090734e-39
-0.012061943 0.0049666837 0.745 7.0126889e-39
-0.010642873 0.0049666613 0.74500006 7.1970885e-39
-0.0092238402 0.0049666688 0.74500006 7.3807539e-39
-0.007783805 0.0049533248 0.74300003 7.843153e-39
-0.0063685812 0.0049533322 0.74300003 8.3966799e-39
-0.0049533565 0.0049533397 0.74300003 4.6163606e-39
-0.0035333398 0.004946664 0.74200004 8.417726e-40
-0.0021143078 0.0049333349 0.74000001 9.3252629e-40
-0.00070384413 0.0049266666 0.73899996 1.0207647e-39
0.00070376426 0.0049266666 0.73899996 7.4488963e-40
0.0021113951 0.0049266741 0.73899996 4.6866427e-40
0.0035238035 0.0049333498 0.74000001 6.5269259e-40
0.0049333563 0.0049333274 0.74000001 9.2784315e-40
0.0063428869 0.0049333274 0.74000001 1.0200402e-39
0.0077523803 0.0049333349 0.74000001 1.0200402e-39
0.009186645 0.0049466714 0.74200004 9.2928089e-40
0.010599984 0.0049466714 0.74200004 8.3888172e-40
0.012013323 0.004946664 0.74200004 5.6337663e-40
0.013426648 0.0049466789 0.74199998 3.7969303e-40
0.014859981 0.0049533248 0.74300003 5.6335141e-40
0.016275207 0.0049533322 0.74300003 7.4919021e-40
0.017690493 0.0049533322 0.74300003 5.6481577e-40
0.019105716 0.0049533397 0.74300003 3.7937213e-40
0.020576155 0.0049666762 0.74500006 4.7121618e-39
0.022054277 0.0049800128 0.74700004 9.0388305e-39
0.02357143 0.0050000101 0.75000006 8.9448384e-39
0.025 0.0049999952 0.75000006 8.7539409e-39
0.026499026 0.0050133392 0.75199997 1.0966549e-38
0.027931405 0.0050133392 0.75199997 1.3181716e-38
0.029363787 0.0050133467 0.75199997 1.34565e-38
0.030959992 0.0050400123 0.75600004 1.3739191e-38
0.032399986 0.0050400048 0.75599998 1.4103314e-38
-0.028228575 0.0065142885 0.76000005 6.0006641e-39
-0.026780924 0.0065142885 0.76000005 5.997797e-39
-0.025266699 0.0064971447 0.75800002 6.0932213e-39
-0.023759991 0.0064799935 0.75600004 6.1811135e-39
-0.022290496 0.0064714327 0.755 6.0939443e-39
-0.020797113 0.006454289 0.75300002 5.9960062e-39
-0.019362848 0.0064542964 0.75300002 6.6427951e-39
-0.017857168 0.006428577 0.75 7.2802752e-39
-0.016428597 0.0064285696 0.75 6.5477562e-39
-0.014959986 0.0064114258 0.74800003 5.8137968e-39
-0.013535223 0.0064114183 0.74800003 6.4613158e-39
-0.012094308 0.0064028576 0.74700004 7.0134175e-39
-0.010642877 0.0063857138 0.74500006 7.1978186e-39
-0.0092238439 0.0063857138 0.745 7.3822015e-39
-0.0078047747 0.0063857213 0.74500006 7.7513329e-39
-0.0063685654 0.0063685626 0.74300003 8.0236024e-39
-0.0049533425 0.00636857 0.74300003 4.3361836e-39
-0.0035381194 0.0063685775 0.74299997 6.591736e-40
-0.002114265 0.0063428432 0.74000001 8.4140546e-40
-0.00070476986 0.0063428581 0.74000001 9.3036129e-40
0.00070475892 0.0063428581 0.74000001 6.5376879e-40
0.0021143139 0.0063428581 0.74000001 2.8499328e-40
0.0035238073 0.0063428581 0.74000001 6.5233526e-40
0.0049333377 0.0063428581 0.74000001 9.2820189e-40
0.0063428702 0.0063428506 0.74000001 9.2856202e-40
0.0077523841 0.0063428655 0.74000001 9.2820329e-40
0.0091866702 0.0063600019 0.74200004 8.3600906e-40
0.010600009 0.0063600019 0.74200004 6.5413313e-40
0.01201331 0.0063600093 0.74200004 5.6265917e-40
0.013426648 0.0063600019 0.74200004 3.7898117e-40
0.014840011 0.0063600019 0.74200004 6.5376459e-40
0.016275223 0.0063685626 0.74300003 8.3995932e-40
0.017690444 0.00636857 0.74300003 5.6482417e-40
0.019157117 0.0063857213 0.74500006 2.9291902e-40
0.020631453 0.0064028576 0.74700004 4.5302802e-39
0.022054294 0.0064028502 0.74700004 8.7626094e-39
0.023508584 0.0064114183 0.74800003 8.4910545e-39
0.024933347 0.0064114183 0.74800003 8.2133592e-39
0.026428541 0.006428577 0.75000006 1.2355606e-38
0.027857112 0.0064285621 0.75000006 1.6492511e-38
0.029363798 0.0064457208 0.75199997 1.6682284e-38
0.030919058 0.0064714253 0.75500005 1.6773402e-38
0.032357126 0.0064714178 0.755 1.7052139e-38
0.033795241 0.0064714178 0.75500005 1.7234728e-38
0.035233352 0.0064714327 0.75500005 1.732871e-38
-0.028228557 0.0079619065 0.76000005 5.4474987e-39
-0.026780946 0.0079619065 0.76000005 5.4496539e-39
-0.025333332 0.0079619214 0.75999999 5.2638333e-39
-0.023822898 0.007940948 0.75800002 5.175602e-39
-0.022320019 0.0079200119 0.75599998 5.0812722e-39
-0.0208524 0.0079095215 0.755 5.0852098e-39
-0.019362845 0.0078885779 0.75300002 5.6319096e-39
-0.017904766 0.0078781024 0.75199997 6.1875875e-39
-0.016428567 0.0078571364 0.75000006 5.908135e-39
-0.014960016 0.0078361928 0.74799997 5.634076e-39
-0.013517131 0.0078257099 0.74700004 6.2780133e-39
-0.01209429 0.0078257173 0.74700004 7.0137875e-39
-0.010642902 0.0078047588 0.74500006 7.19819e-39
-0.0092238467 0.0078047737 0.745 7.3822155e-39
-0.0078047765 0.0078047663 0.74500006 7.8431824e-39
-0.0063857445 0.0078047663 0.745 8.3034179e-39
-0.0049533499 0.0077838078 0.74300003 4.5234349e-39
-0.0035381026 0.0077838078 0.74300003 6.5773307e-40
-0.0021199908 0.0077733397 0.74200004 8.4068519e-40
-0.00070668838 0.0077733397 0.74200004 1.0218352e-39
0.0007066495 0.0077733323 0.74200004 7.4452529e-40
0.0021200117 0.0077733323 0.74200004 4.6686921e-40
0.0035333124 0.0077733546 0.74200004 7.434547e-40
0.0049466519 0.0077733472 0.74200004 9.2784315e-40
0.0063599898 0.0077733323 0.74200004 9.2820048e-40
0.0077733295 0.0077733248 0.74200004 9.2784175e-40
0.0091866301 0.0077733397 0.74200004 7.4524696e-40
0.010599994 0.0077733472 0.74200004 6.5413173e-40
0.012013333 0.0077733397 0.74200004 4.71181e-40
0.013426672 0.0077733397 0.74200004 3.7898818e-40
0.014860012 0.0077838078 0.74300003 5.6337663e-40
0.016275236 0.0077838153 0.74300003 7.4849236e-40
0.017690459 0.0077838078 0.74300003 8.4033767e-40
0.019157114 0.0078047737 0.745 9.3146411e-40
0.020576147 0.0078047812 0.745 3.8816864e-39
0.022054313 0.0078257099 0.74700004 6.7451025e-39
0.023571387 0.0078571513 0.75 7.9404129e-39
0.024999958 0.0078571513 0.75 9.130666e-39
0.026499009 0.0078781024 0.75199997 1.2446409e-38
0.027931428 0.0078781024 0.75200003 1.5761109e-38
0.029363809 0.0078781024 0.75200003 1.6037345e-38
0.030837165 0.0078885853 0.75300002 1.6405396e-38
0.032357149 0.007909514 0.75500005 1.6497941e-38
-0.026780929 0.0094095245 0.76000005 4.89326e-39
-0.025333317 0.0094095245 0.76000005 4.5208985e-39
-0.023822902 0.0093847737 0.75800002 4.0638692e-39
-0.022320004 0.0093600079 0.75600004 4.1535481e-39
-0.020852378 0.0093476176 0.75500005 4.1553516e-39
-0.019414265 0.0093476102 0.75500005 4.6113117e-39
-0.017904794 0.0093104839 0.75199997 4.9840403e-39
-0.016428577 0.0092857108 0.75000006 5.1705867e-39
-0.014960009 0.0092609599 0.74800003 5.3546221e-39
-0.013517153 0.0092485845 0.74700004 6.1865295e-39
-0.012094273 0.0092485696 0.74700004 7.0141378e-39
-0.010671432 0.0092485696 0.74700004 7.1981801e-39
-0.0092238346 0.0092238039 0.74500006 7.3829273e-39
-0.0078048017 0.0092238039 0.74500006 8.0279282e-39
-0.0063857483 0.0092238262 0.745 8.5749769e-39
-0.0049666762 0.0092238188 0.74500006 4.6127593e-39
-0.0035381101 0.0091990605 0.74300003 6.5952673e-40
-0.0021200057 0.0091866627 0.74200004 9.3359688e-40
-0.00070666603 0.0091866702 0.74200004 1.1136721e-39
0.00070667558 0.0091866702 0.74200004 9.2676415e-40
0.0021199763 0.0091866702 0.74200004 6.5126047e-40
0.0035333142 0.0091866776 0.74200004 8.35293e-40
0.0049466761 0.0091866851 0.74200004 9.2784175e-40
0.0063600158 0.0091866627 0.74200004 9.2855641e-40
0.0077733165 0.0091866702 0.74200004 8.3743278e-40
0.0091866553 0.0091866702 0.74200004 7.4595041e-40
0.010599995 0.0091866702 0.74200004 6.5520512e-40
0.012029517 0.0091990456 0.74300003 4.7226421e-40
0.013444739 0.0091990456 0.74300003 2.8823168e-40
0.014859963 0.009199053 0.74300003 4.7154114e-40
0.016275227 0.0091990381 0.74300003 6.570128e-40
0.017738059 0.0092238113 0.74500006 1.1169162e-39
0.019157114 0.0092238262 0.745 1.5753804e-39
0.020631427 0.0092485696 0.74700004 3.1365866e-39
0.022054268 0.0092485771 0.74700004 4.7153932e-39
0.023508562 0.0092609525 0.74799997 7.3947893e-39
0.024999985 0.0092857182 0.75000006 9.9604211e-39
0.026499022 0.0093104914 0.75199997 1.2446057e-38
0.027931402 0.0093104839 0.75199997 1.4930995e-38
0.029363781 0.0093104839 0.75199997 1.548416e-38
0.030837171 0.0093228593 0.75300002 1.5943695e-38
-0.02678095 0.010857143 0.76000005 4.8907502e-39
-0.02536667 0.010871425 0.76100004 4.6134515e-39
-0.023822907 0.010828577 0.75800002 4.3343325e-39
-0.02232003 0.010800011 0.75599998 4.151711e-39
-0.020879995 0.010799997 0.75600004 4.0573938e-39
-0.019414281 0.010785714 0.75500005 4.1510524e-39
-0.017904783 0.010742873 0.75199997 4.3340172e-39
-0.016428584 0.010714293 0.75 4.6124033e-39
-0.015000015 0.010714285 0.75 4.8868336e-39
-0.013535235 0.01068572 0.74800003 5.907786e-39
-0.012094295 0.010671437 0.74700004 7.0144867e-39
-0.010671414 0.010671429 0.74700004 7.1063334e-39
-0.0092485752 0.010671437 0.74700004 7.2900086e-39
-0.0078048045 0.010642864 0.74500006 7.7513427e-39
-0.0063857343 0.010642864 0.74500006 8.2126558e-39
-0.0049667014 0.010642864 0.74500006 4.4319581e-39
-0.0035476449 0.010642864 0.745 7.4992729e-40
-0.0021200038 0.010600001 0.74200004 9.3252069e-40
-0.00070668093 0.010600016 0.74199998 1.1125973e-39
0.00070665882 0.010600008 0.74200004 9.2784315e-40
0.0021199968 0.010600008 0.74200004 8.3565173e-40
0.0035333384 0.010600001 0.74200004 7.4417777e-40
0.0049466388 0.010600001 0.74200004 7.4452949e-40
0.0063600009 0.010600008 0.74200004 7.4595742e-40
0.0077733388 0.010600001 0.74200004 8.388593e-40
0.0091990205 0.010614283 0.74300003 8.3848936e-40
0.010614269 0.010614291 0.74299997 8.3958938e-40
0.01202953 0.010614291 0.74300003 6.5630094e-40
0.013444755 0.010614283 0.74300003 4.7262294e-40
0.01485998 0.010614283 0.74300003 6.5628693e-40
0.016275205 0.010614291 0.74299997 8.4175859e-40
0.017738055 0.010642864 0.745 1.2094649e-39
0.019157125 0.010642856 0.74500006 1.5760894e-39
0.020631446 0.010671422 0.74700004 2.3129244e-39
0.022054287 0.010671437 0.74700004 2.9626238e-39
0.023571407 0.010714293 0.75000006 5.0795388e-39
0.024999978 0.010714278 0.75000006 7.2878731e-39
0.026499033 0.010742858 0.75199997 1.124969e-38
0.027931415 0.010742866 0.75199997 1.5297973e-38
0.029363794 0.010742873 0.75199997 1.5483064e-38
0.030837173 0.010757148 0.75300002 1.5758219e-38
-0.025366664 0.012320943 0.76100004 4.7070863e-39
-0.023822887 0.012272388 0.75800002 4.5212461e-39
-0.022379106 0.012272388 0.75800002 4.2450067e-39
-0.020880017 0.01224 0.75600004 3.9687981e-39
-0.019362839 0.012191437 0.75300002 3.7847852e-39
-0.017904771 0.01217524 0.75199997 3.6000409e-39
-0.016428579 0.012142844 0.75000006 3.9663094e-39
-0.015000046 0.012142859 0.75 4.3386835e-39
-0.01353525 0.012110472 0.74800003 5.6351536e-39
-0.012094277 0.012094289 0.74700004 6.9222925e-39
-0.010671436 0.012094304 0.74700004 7.0137749e-39
-0.0092485575 0.012094282 0.74700004 7.1063348e-39
-0.0078048082 0.012061916 0.745 7.47476e-39
-0.006385738 0.012061916 0.74500006 7.7470211e-39
-0.0049667051 0.012061909 0.74500006 4.2439823e-39
-0.0035476729 0.012061909 0.745 7.5028743e-40
-0.0021200187 0.012013339 0.74200004 9.3323955e-40
-0.00070668093 0.012013339 0.74200004 1.1136749e-39
0.00070665882 0.012013339 0.74200004 1.0193213e-39
0.0021199819 0.012013346 0.74199998 9.2820329e-40
0.0035333217 0.012013331 0.74200004 7.4524836e-40
0.0049466593 0.012013339 0.74200004 4.6973767e-40
0.0063599991 0.012013331 0.74200004 6.5483938e-40
0.0077733016 0.012013339 0.74200004 8.3814464e-40
0.0091866637 0.012013339 0.74200004 9.2961299e-40
0.01061426 0.012029529 0.74300003 9.3142347e-40
0.012029484 0.012029536 0.74300003 7.4884409e-40
0.013444769 0.012029529 0.74300003 5.6445143e-40
0.014859994 0.012029536 0.74300003 7.4740075e-40
0.016319018 0.012061901 0.745 9.3323115e-40
0.017738052 0.012061916 0.745 1.3023752e-39
0.019208582 0.012094289 0.74700004 1.5767985e-39
0.020631423 0.012094297 0.74700004 1.3924044e-39
0.022054302 0.012094282 0.74700004 1.2073251e-39
0.023508579 0.012110464 0.74800003 2.8564446e-39
0.024999967 0.012142859 0.75000006 4.5306446e-39
0.026499042 0.012175255 0.75199997 1.0057989e-38
0.027931422 0.01217524 0.75199997 1.5572767e-38
0.029363802 0.01217524 0.75199997 1.5575623e-38
0.030960009 0.01224 0.75600004 1.5482716e-38
-0.026957173 0.013842858 0.76499999 5.1662749e-39
-0.025433356 0.013806678 0.76300001 4.9829557e-39
-0.023885692 0.013752379 0.76000005 4.7989204e-39
-0.022379087 0.013716206 0.75799996 4.4308539e-39
-0.020880004 0.013679996 0.75600004 4.1546341e-39
-0.019414274 0.013661899 0.75500005 3.6018303e-39
-0.017904758 0.013607636 0.75199997 3.1412123e-39
-0.01642859 0.013571426 0.75000006 3.4159957e-39
-0.015000018 0.013571426 0.75000006 3.6929596e-39
-0.013535242 0.013535231 0.74800003 5.4493344e-39
-0.012094283 0.013517134 0.74700004 7.2914267e-39
-0.010671419 0.013517141 0.74700004 7.290352e-39
-0.0092485407 0.013517141 0.74700004 7.3814798e-39
-0.0078047737 0.013480961 0.74500006 7.6587883e-39
-0.0063857408 0.013480969 0.74500006 7.9342794e-39
-0.0049667079 0.013480954 0.745 4.2461347e-39
-0.0035476394 0.013480954 0.74500006 6.5558207e-40
-0.0021199945 0.013426669 0.74200004 8.396118e-40
-0.00070665486 0.013426669 0.74200004 9.2964662e-40
0.00070664578 0.013426676 0.74200004 9.2856342e-40
0.0021199856 0.013426676 0.74200004 8.3672372e-40
0.0035380919 0.013444752 0.74300003 7.4452529e-40
0.0049533146 0.013444759 0.74300003 5.6049416e-40
0.0063685635 0.013444766 0.74300003 7.4559868e-40
0.0077733258 0.013426669 0.74200004 8.3778871e-40
0.0091866637 0.013426676 0.74200004 8.388593e-40
0.010614274 0.013444759 0.74300003 9.3249687e-40
0.012029499 0.013444766 0.74300003 7.4811682e-40
0.013444723 0.013444766 0.74300003 5.6372696e-40
0.014860008 0.013444766 0.74300003 7.4775528e-40
0.016319016 0.013480961 0.745 1.0254226e-39
0.017738087 0.013480954 0.74500006 1.4853259e-39
0.019208563 0.013517149 0.74699998 1.8530154e-39
0.020631442 0.013517141 0.74700004 2.3071594e-39
0.022054283 0.013517149 0.74700004 2.6684212e-39
0.023508564 0.013535224 0.74800003 4.9815446e-39
0.024999999 0.013571426 0.75000006 7.3793274e-39
0.026428571 0.013571426 0.75000006 1.042211e-38
0.027931396 0.013607629 0.75199997 1.3553828e-38
0.029402874 0.013625719 0.75300002 1.3368348e-38
0.030960022 0.013679996 0.75600004 1.3093562e-38
-0.026886689 0.015260011 0.76300001 5.3513725e-39
-0.025366662 0.015219994 0.76100004 5.1669854e-39
-0.023885714 0.015199997 0.76000005 4.9840277e-39
-0.022379089 0.015160002 0.75799996 4.6166815e-39
-0.020880029 0.015120007 0.75600004 4.2475472e-39
-0.019414289 0.015100002 0.75500005 3.4188768e-39
-0.017904786 0.01504001 0.75199997 2.5916385e-39
-0.016428599 0.015000001 0.75000006 2.8631975e-39
-0.015000026 0.015000001 0.75000006 3.0529837e-39
-0.013571455 0.014999986 0.75000006 5.361445e-39
-0.012094303 0.014940001 0.74700004 7.565857e-39
-0.010671425 0.014939994 0.74700004 7.6576939e-39
-0.0092485836 0.014940001 0.74700004 7.6587827e-39
-0.0078047765 0.014900014 0.74500006 7.8439013e-39
-0.0063857445 0.014900014 0.745 8.0221703e-39
-0.0049666725 0.014899999 0.74500006 4.3343801e-39
-0.0035476412 0.014900006 0.74500006 5.6589617e-40
-0.0021228872 0.014860004 0.74300003 6.55938e-40
-0.0007076253 0.014859989 0.74300003 7.4597283e-40
0.0007076218 0.014860004 0.74300003 7.4417356e-40
0.0021228467 0.014860012 0.74300003 7.4381203e-40
0.0035380695 0.014860012 0.74299997 7.4309176e-40
0.0049533313 0.014859997 0.74300003 6.5232826e-40
0.0063685561 0.014859997 0.74300003 7.4559588e-40
0.0077733481 0.014840007 0.74200004 8.3778871e-40
0.009199027 0.014860004 0.74299997 8.3850337e-40
0.01061429 0.014860012 0.74300003 8.3958797e-40
0.012029515 0.014859989 0.74300003 6.5556526e-40
0.013444739 0.014859997 0.74300003 4.7153693e-40
0.01486 0.014859989 0.74300003 8.3816285e-40
0.016319027 0.014899999 0.74500006 1.1161875e-39
0.017785741 0.014939994 0.74700004 1.6686424e-39
0.019208582 0.014940001 0.74700004 2.1249444e-39
0.020631459 0.014940001 0.74700004 3.1315433e-39
0.0220543 0.014940009 0.74700004 4.1546692e-39
0.023508573 0.014959998 0.74800003 7.2057107e-39
0.024999987 0.015000001 0.75000006 1.0142657e-38
0.026428562 0.014999993 0.75000006 1.0880574e-38
0.027857134 0.015000001 0.75000006 1.1526998e-38
0.029363787 0.01504001 0.75199997 1.1158212e-38
0.030959999 0.015120007 0.75599998 1.0700473e-38
-0.026780939 0.016647629 0.76000005 5.3524417e-39
-0.025333326 0.016647622 0.76000005 5.4439254e-39
-0.023885714 0.016647629 0.76000005 5.6286712e-39
-0.022379095 0.01660382 0.75799996 5.1691336e-39
-0.02093529 0.016603827 0.75799996 4.7085198e-39
-0.01944002 0.016560011 0.75600004 4.7081597e-39
-0.017928567 0.016494296 0.75300002 4.7999994e-39
-0.016472418 0.016472384 0.75199997 4.4294316e-39
-0.015000037 0.01642856 0.75 4.0588736e-39
-0.013571464 0.016428575 0.75000006 5.6319278e-39
-0.012142893 0.016428575 0.75000006 7.2896317e-39
-0.010671445 0.016362868 0.74700004 7.3814686e-39
-0.0092485659 0.016362853 0.74700004 7.5676675e-39
-0.0078257248 0.016362853 0.74700004 7.7520728e-39
-0.0063857697 0.016319066 0.74500006 8.0268366e-39
-0.0049666753 0.016319051 0.74500006 4.3386821e-39
-0.0035571659 0.016362868 0.74700004 5.6589337e-40
-0.0021228741 0.016275249 0.74300003 7.4848676e-40
-0.00070764951 0.016275235 0.74300003 9.2964242e-40
0.00070761063 0.016275227 0.74300003 7.4453089e-40
0.0021228597 0.016275235 0.74300003 5.5942357e-40
0.0035380826 0.016275249 0.74300003 5.5942077e-40
0.0049666269 0.016319059 0.74500006 5.6049276e-40
0.006368571 0.016275235 0.74300003 6.5339885e-40
0.0077837938 0.016275235 0.74300003 7.4559448e-40
0.0091990195 0.016275242 0.74300003 7.4667068e-40
0.010614282 0.016275235 0.74300003 8.3958938e-40
0.012029529 0.016275249 0.74300003 7.4740215e-40
0.01348092 0.016319066 0.74500006 5.6337663e-40
0.014899954 0.016319044 0.745 7.4705043e-40
0.016319025 0.016319051 0.74500006 1.0239989e-39
0.017785696 0.016362868 0.74700004 1.206958e-39
0.019208599 0.016362861 0.74700004 1.479596e-39
0.020631438 0.016362868 0.74700004 3.6933337e-39
0.022083817 0.016384758 0.74800003 6.0010859e-39
0.023508582 0.016384758 0.74800003 7.6613247e-39
0.02499998 0.01642856 0.75000006 9.4115745e-39
0.026428552 0.016428575 0.75000006 1.0146969e-38
0.02793142 0.016472392 0.75199997 1.0882366e-38
0.02940288 0.016494289 0.75300002 1.0697972e-38
0.030960012 0.016560003 0.75600004 1.0424263e-38
0.032571457 0.016647622 0.76000005 1.0236651e-38
-0.026780959 0.018095247 0.76000005 5.2606062e-39
-0.025333347 0.018095255 0.76000005 5.8112674e-39
-0.023885695 0.01809524 0.76000005 6.271884e-39
-0.022438083 0.01809524 0.76000005 5.7219514e-39
-0.020935293 0.018047623 0.75799996 5.078024e-39
-0.019440005 0.017999999 0.75600004 6.0889305e-39
-0.017904764 0.017904766 0.75199997 7.0062065e-39
-0.016472409 0.017904773 0.75200003 5.9956559e-39
-0.015000007 0.017857142 0.75000006 4.9854738e-39
-0.013571435 0.017857142 0.75000006 6.0014138e-39
-0.012142864 0.017857142 0.75000006 6.919417e-39
-0.010714291 0.017857127 0.75000006 7.1949305e-39
-0.0092485873 0.017785721 0.74700004 7.3811183e-39
-0.0078257071 0.017785713 0.74700004 7.7538482e-39
-0.0064028678 0.017785706 0.74700004 8.0221661e-39
-0.0049799886 0.017785713 0.74700004 4.3361766e-39
-0.0035571491 0.017785713 0.74700004 5.6661223e-40
-0.0021285757 0.017738104 0.74500006 8.4175438e-40
-0.00070954382 0.017738111 0.74500006 1.0225541e-39
0.00070948817 0.017738096 0.745 7.4525116e-40
0.0021285594 0.017738096 0.74500006 3.7611411e-40
0.0035475914 0.017738104 0.74500006 4.6687201e-40
0.0049533239 0.017690487 0.74299997 4.6866147e-40
0.0063685486 0.017690487 0.74299997 5.6121023e-40
0.0077838106 0.017690472 0.74300003 5.6228782e-40
0.0091990354 0.017690472 0.74300003 7.4632035e-40
0.010614258 0.01769048 0.74300003 8.3851878e-40
0.01202952 0.017690472 0.74300003 7.4704622e-40
0.013480917 0.017738104 0.745 6.5521353e-40
0.014899989 0.017738089 0.74500006 7.456169e-40
0.016362874 0.017785706 0.74700004 8.3889573e-40
0.017785715 0.017785721 0.74700004 8.3926287e-40
0.019208556 0.017785713 0.74700004 8.4213133e-40
0.020659063 0.017809525 0.74800003 4.3440757e-39
0.022083828 0.017809525 0.74800003 7.747391e-39
0.023571398 0.017857134 0.75 8.2098195e-39
0.025000008 0.017857134 0.75000006 8.6725759e-39
0.026499052 0.017904758 0.75199997 9.5044666e-39
0.027968578 0.017928578 0.75300002 1.0238076e-38
0.029402882 0.017928578 0.75300002 1.0234849e-38
0.03095999 0.018000007 0.75599998 1.014481e-38
0.032571431 0.018095247 0.76000005 1.0050466e-38
-0.02678092 0.019542851 0.76000005 5.1694881e-39
-0.025366655 0.01956857 0.76100004 5.4453604e-39
-0.023917142 0.01956857 0.76100004 5.7212354e-39
-0.022438068 0.019542858 0.76000005 5.2620677e-39
-0.020935297 0.019491442 0.75799996 4.8947229e-39
-0.019440029 0.01944001 0.75600004 5.1702252e-39
-0.017904792 0.019337147 0.75199997 5.5379189e-39
-0.016472435 0.019337147 0.75199997 4.4322972e-39
-0.015000016 0.019285716 0.75000006 3.4260584e-39
-0.013571445 0.019285716 0.75000006 3.5143122e-39
-0.012142872 0.019285716 0.75000006 3.6101064e-39
-0.010714301 0.019285709 0.75000006 3.7902027e-39
-0.0092857284 0.019285716 0.75000006 3.8849038e-39
-0.0078361891 0.019234285 0.74800003 4.1611236e-39
-0.0064028511 0.019208565 0.74700004 4.3490979e-39
-0.00498001 0.019208573 0.74700004 2.4983961e-39
-0.0035571314 0.019208573 0.74700004 6.5450307e-40
-0.0021286018 0.019157141 0.74500006 7.4776369e-40
-0.00070762157 0.019105718 0.74300003 9.3071862e-40
0.00070952356 0.019157141 0.74500006 7.4489523e-40
0.0021285557 0.019157149 0.74500006 4.6687621e-40
0.0035475914 0.019157149 0.745 5.5942777e-40
0.0049666604 0.019157149 0.74500006 5.608599e-40
0.0063856924 0.019157141 0.74500006 5.6157316e-40
0.0077838255 0.019105725 0.74300003 5.6265356e-40
0.0091990503 0.01910571 0.74300003 6.5449326e-40
0.010642827 0.019157141 0.74500006 8.3780692e-40
0.012061861 0.019157156 0.74500006 7.4704763e-40
0.013480953 0.019157134 0.74500006 6.559324e-40
0.01494001 0.019208573 0.74700004 6.5449887e-40
0.016362851 0.01920858 0.74700004 5.6231585e-40
0.01778573 0.019208565 0.74700004 6.5487862e-40
0.019234305 0.019234277 0.74800003 7.4671131e-40
0.02065907 0.019234277 0.74800003 4.4355524e-39
0.022083797 0.019234292 0.74799997 8.2097943e-39
0.023571428 0.019285701 0.75000006 8.2998544e-39
0.025066642 0.019337147 0.75199997 8.3902437e-39
0.026499024 0.019337147 0.75199997 9.6848964e-39
0.02796858 0.019362859 0.75300002 1.0973472e-38
0.02940288 0.019362867 0.75300002 1.0696537e-38
0.031041855 0.019491434 0.75799996 1.0420315e-38
0.03269998 0.019620001 0.76300001 1.0235926e-38
0.034153324 0.019620001 0.76300001 1.0051173e-38
-0.026780942 0.020990483 0.76000005 5.0772925e-39
-0.02533333 0.020990483 0.75999999 5.1705699e-39
-0.02391715 0.021018103 0.76099998 5.1698525e-39
-0.022438088 0.020990483 0.76000005 4.8936285e-39
-0.020935303 0.020935252 0.75799996 4.6177661e-39
-0.019439992 0.020880014 0.75600004 4.3422638e-39
-0.017904805 0.020769536 0.75199997 4.0646035e-39
-0.016472423 0.020769536 0.75199997 2.9528904e-39
-0.015040045 0.020769544 0.75199997 1.7601065e-39
-0.013607663 0.020769529 0.75199997 1.0189668e-39
-0.012142882 0.020714283 0.75000006 2.9038548e-40
-0.010714309 0.02071429 0.75000006 3.7827912e-40
-0.0092857368 0.02071429 0.75000006 3.8329997e-40
-0.0078571653 0.02071429 0.75000006 5.640983e-40
-0.0064028343 0.020631425 0.74700004 6.6024419e-40
-0.0049799932 0.020631433 0.74700004 6.5414995e-40
-0.0035571519 0.02063144 0.74700004 6.5557787e-40
-0.0021286036 0.020576201 0.74500006 7.4812382e-40
-0.00070762902 0.020520948 0.74300003 8.3816566e-40
0.00070761808 0.020520955 0.74300003 7.4489383e-40
0.0021228429 0.020520963 0.74300003 5.5978651e-40
0.0035381049 0.020520948 0.74300003 6.5090314e-40
0.0049666567 0.020576201 0.74500006 6.5233526e-40
0.0063685523 0.020520948 0.74300003 5.6121443e-40
0.0077837771 0.020520963 0.74300003 4.711768e-40
0.0091990391 0.020520955 0.74300003 6.5521213e-40
0.010614286 0.020520963 0.74300003 8.3852859e-40
0.012061858 0.020576201 0.745 7.4705603e-40
0.013480928 0.020576186 0.74500006 6.5521213e-40
0.014939989 0.02063144 0.74700004 4.7081526e-40
0.016362868 0.020631425 0.74700004 2.8715548e-40
0.017785709 0.020631433 0.74700004 4.7083909e-40
0.019234277 0.020659044 0.74799997 6.5990087e-40
0.020659039 0.020659044 0.74799997 4.6246226e-39
0.022083804 0.020659052 0.74799997 8.57643e-39
0.023571419 0.02071429 0.75000006 8.2980649e-39
0.025066653 0.020769536 0.75199997 8.0257744e-39
0.026499033 0.020769536 0.75199997 9.8718002e-39
0.027931416 0.020769529 0.75199997 1.1616684e-38
0.029402886 0.020797148 0.75300002 1.1157518e-38
0.031164777 0.021018095 0.76100004 1.0605783e-38
0.032614309 0.021018088 0.76100004 1.042211e-38
-0.026780965 0.022438101 0.76000005 4.8925439e-39
-0.025333313 0.022438101 0.76000005 4.8932684e-39
-0.023917142 0.022467628 0.76100004 4.8932586e-39
-0.022438109 0.022438101 0.76000005 4.8010545e-39
-0.020935304 0.022379056 0.75799996 4.6163171e-39
-0.019440016 0.022320017 0.75599998 4.3426141e-39
-0.017928557 0.022231437 0.75300002 4.1593075e-39
-0.016472412 0.022201903 0.75199997 2.955047e-39
-0.015040033 0.022201918 0.75199997 1.754727e-39
-0.013571463 0.022142857 0.75 1.0203989e-39
-0.012175272 0.022201911 0.75199997 3.7862244e-40
-0.010714319 0.022142865 0.75 4.7152993e-40
-0.0092857089 0.022142842 0.75000006 6.5484219e-40
-0.0078361733 0.022083797 0.74800003 7.4775388e-40
-0.0064028529 0.022054285 0.74700004 8.3888312e-40
-0.0049799746 0.022054277 0.74700004 8.3997053e-40
-0.0035571351 0.022054285 0.74700004 8.4068379e-40
-0.0021286074 0.021995246 0.745 8.3924326e-40
-0.00070765137 0.021936193 0.74299997 8.3744819e-40
0.00070949562 0.021995239 0.74500006 7.4489243e-40
0.0021285277 0.021995239 0.74500006 7.4417356e-40
0.003547597 0.021995239 0.74500006 7.434547e-40
0.0049666306 0.021995239 0.74500006 7.4417076e-40
0.0063856849 0.021995246 0.745 5.6229063e-40
0.007783792 0.021936193 0.74300003 4.7297186e-40
0.009223789 0.021995246 0.74500006 6.5557086e-40
0.010642822 0.021995246 0.745 8.3889153e-40
0.012061892 0.021995246 0.74500006 9.3073403e-40
0.013517166 0.022054277 0.74700004 1.0225513e-39
0.014940008 0.022054285 0.74700004 7.4630774e-40
0.016362887 0.022054277 0.74700004 4.71174e-40
0.017809499 0.022083819 0.74800003 4.7118661e-40
0.019234264 0.022083811 0.74800003 4.7013563e-40
0.020659028 0.022083797 0.74800003 4.4366651e-39
0.022142837 0.022142865 0.75 8.3981513e-39
0.023571411 0.022142872 0.75 8.6715096e-39
0.025066664 0.022201896 0.75199997 9.0330992e-39
0.026499046 0.022201911 0.75199997 1.0052604e-38
0.02804284 0.022290483 0.75500005 1.1066396e-38
0.029519996 0.022319995 0.75600004 1.0789827e-38
0.03095999 0.02232001 0.75600004 1.0606148e-38
0.03261428 0.022467613 0.76100004 1.0238439e-38
0.034153331 0.022526674 0.76300001 9.9629406e-39
0.035606649 0.022526659 0.76300001 1.0054067e-38
-0.032571394 0.023885719 0.76000005 1.1139496e-39
-0.031123802 0.023885705 0.76000005 3.1437038e-39
-0.029676188 0.023885727 0.76000005 5.1644505e-39
-0.02826572 0.023917146 0.76100004 4.9807865e-39
-0.026780946 0.023885727 0.76000005 4.707438e-39
-0.025333334 0.023885712 0.76000005 4.7085198e-39
-0.023917135 0.023917139 0.76100004 4.6170388e-39
-0.022438094 0.023885712 0.76000005 4.6173947e-39
-0.020935247 0.023822859 0.75800002 4.6177633e-39
-0.019440003 0.023759991 0.75600004 4.4366132e-39
-0.017928554 0.023665711 0.75300002 4.1567992e-39
-0.016472401 0.023634292 0.75200003 2.9528904e-39
-0.015040022 0.023634277 0.75200003 1.6646781e-39
-0.013571434 0.023571424 0.75000006 1.0214681e-39
-0.012142863 0.023571424 0.75000006 3.804119e-40
-0.01071429 0.023571432 0.75000006 6.5771205e-40
-0.0092857191 0.023571432 0.75000006 9.3249967e-40
-0.0078361649 0.023508556 0.74800003 9.3321573e-40
-0.0064028362 0.023477137 0.74700004 9.3286681e-40
-0.0049799951 0.023477152 0.74700004 9.3359408e-40
-0.0035571184 0.023477145 0.74700004 9.3251368e-40
-0.0021286111 0.023414306 0.745 8.3888172e-40
-0.00070954196 0.023414284 0.74500006 7.4560849e-40
0.0007094919 0.023414284 0.745 8.3636639e-40
0.002128524 0.023414291 0.745 8.3564892e-40
0.0035475933 0.023414291 0.74500006 8.3457133e-40
0.0049666269 0.023414299 0.74500006 8.3636359e-40
0.0063856589 0.023414284 0.745 6.5448626e-40
0.00780473 0.023414277 0.74500006 3.7969863e-40
0.0092237853 0.023414291 0.745 6.5484919e-40
0.010642856 0.023414291 0.74500006 8.3852439e-40
0.012094283 0.02347713 0.74700004 1.1143952e-39
0.013517123 0.023477145 0.74700004 1.2973375e-39
0.014940002 0.023477145 0.74700004 1.0207436e-39
0.016384745 0.023508571 0.74800003 6.5484639e-40
0.017809508 0.023508579 0.74800003 4.7190267e-40
0.019234272 0.023508571 0.74800003 2.914869e-40
0.020659037 0.023508556 0.74800003 4.2529955e-39
0.022142867 0.023571432 0.75000006 8.2137684e-39
0.023571439 0.023571424 0.75000006 9.1396652e-39
0.025066638 0.0236343 0.75199997 9.9615057e-39
0.026499016 0.023634292 0.75199997 1.0238792e-38
0.028042862 0.023728557 0.75500005 1.0513942e-38
0.029519992 0.023760013 0.75599998 1.0513228e-38
0.031164777 0.023917139 0.76100004 1.051287e-38
0.032699976 0.023979999 0.76300001 1.0145889e-38
0.034153316 0.023979999 0.76300001 9.6863551e-39
-0.033929564 0.025266677 0.75799996 5.8865045e-39
-0.032571416 0.025333337 0.76000005 1.2072326e-39
-0.031123823 0.025333345 0.76000005 3.0497159e-39
-0.029676171 0.02533333 0.76000005 4.8885866e-39
-0.028265713 0.025366664 0.76100004 4.7978343e-39
-0.026780969 0.025333337 0.76000005 4.7063618e-39
-0.025333319 0.025333345 0.76000005 4.6156067e-39
-0.023980049 0.025433339 0.76299995 4.6166857e-39
-0.022438092 0.025333345 0.76000005 4.6163284e-39
-0.020935291 0.02526667 0.75799996 4.7092499e-39
-0.019439988 0.025200017 0.75600004 4.3426352e-39
-0.017928552 0.025100008 0.75300002 4.0681951e-39
-0.016472427 0.025066674 0.75199997 2.9557546e-39
-0.01504005 0.025066681 0.75199997 1.847626e-39
-0.013571444 0.024999999 0.75000006 1.2062069e-39
-0.012142872 0.025000006 0.75000006 6.5699178e-40
-0.010685706 0.024933316 0.74800003 8.4102431e-40
-0.0092609804 0.024933331 0.74800003 1.0243338e-39
-0.0078362171 0.024933331 0.74800003 9.3321153e-40
-0.0064028809 0.024900004 0.74700004 9.3358007e-40
-0.0049800007 0.024899997 0.74700004 9.3394721e-40
-0.003557137 0.024900012 0.74700004 9.3358567e-40
-0.0021285962 0.024833344 0.74500006 8.3995371e-40
-0.00070954382 0.024833329 0.745 7.4560569e-40
0.00070949004 0.024833336 0.745 7.4452809e-40
0.0021285613 0.024833336 0.74500006 8.3564612e-40
0.0035475933 0.024833344 0.74500006 9.2748162e-40
0.004966625 0.024833344 0.745 1.0200346e-39
0.0063856961 0.024833322 0.74500006 7.4524556e-40
0.00780473 0.024833336 0.74500006 5.6229203e-40
0.009223761 0.024833336 0.745 6.5448486e-40
0.010671422 0.024899997 0.74700004 8.3815865e-40
0.012094301 0.024899997 0.74700004 9.3035568e-40
0.013517141 0.024899997 0.74700004 1.1136651e-39
0.014939982 0.024900012 0.74700004 8.3815445e-40
0.016384752 0.024933331 0.74800003 6.5520652e-40
0.017809518 0.024933338 0.74800003 7.4704763e-40
0.019234281 0.024933338 0.74800003 8.3747762e-40
0.020659046 0.024933323 0.74800003 3.5143669e-39
0.022142857 0.024999999 0.75000006 6.196263e-39
0.023571428 0.024999999 0.75000006 8.034419e-39
0.02506665 0.025066666 0.75199997 9.8736232e-39
0.026604734 0.025166661 0.75500005 1.0146243e-38
0.028080011 0.025200002 0.75600004 1.0420666e-38
0.029598057 0.025266677 0.75799996 1.0604688e-38
0.031164786 0.025366664 0.76100004 1.07855e-38
0.032614283 0.025366671 0.76099998 1.0327409e-38
-0.033929568 0.026710488 0.75799996 6.1534112e-39
-0.032571398 0.026780963 0.76000005 1.2979989e-39
-0.031123808 0.026780948 0.76000005 2.9586035e-39
-0.029676193 0.026780955 0.76000005 4.5219705e-39
-0.028265705 0.026816182 0.76100004 4.6148948e-39
-0.026780929 0.026780955 0.76000005 4.7070863e-39
-0.025333339 0.026780955 0.76000005 4.6145305e-39
-0.02398002 0.026886649 0.76300001 4.5237726e-39
-0.022467623 0.026816197 0.76100004 4.6141746e-39
-0.020935256 0.02671048 0.75800002 4.7078093e-39
-0.019440014 0.026640005 0.75600004 4.3404743e-39
-0.01792855 0.026534289 0.75300002 3.8798577e-39
-0.016494285 0.026534304 0.75300002 2.9546813e-39
-0.015040037 0.02649904 0.75199997 1.9423286e-39
-0.013571453 0.02642858 0.75 1.3905869e-39
-0.01214288 0.026428573 0.75 8.4065717e-40
-0.010714309 0.02642858 0.75 9.3321573e-40
-0.009260972 0.02635809 0.74800003 1.0250512e-39
-0.0078362087 0.02635809 0.74800003 9.3321573e-40
-0.0064028632 0.026322864 0.74700004 8.4210331e-40
-0.0049800221 0.026322849 0.74700004 9.3430454e-40
-0.0035571426 0.026322849 0.74700004 9.3394721e-40
-0.0021285999 0.026252389 0.74500006 8.4103692e-40
-0.00070956803 0.026252389 0.74500006 7.4704342e-40
0.00070950307 0.026252382 0.74500006 7.4452809e-40
0.0021285575 0.026252382 0.74500006 7.4452809e-40
0.0035475914 0.026252389 0.745 9.2784035e-40
0.0049666604 0.026252389 0.74500006 1.1115099e-39
0.0063856924 0.026252382 0.74500006 9.2819768e-40
0.0078047263 0.026252382 0.745 6.5376739e-40
0.0092237955 0.026252382 0.74500006 7.4667908e-40
0.010671439 0.026322864 0.74700004 8.3851738e-40
0.01209428 0.026322864 0.74700004 8.3887892e-40
0.013517158 0.026322864 0.74700004 8.3887471e-40
0.014939999 0.026322857 0.74700004 7.4703501e-40
0.016384762 0.02635809 0.74800003 5.6408849e-40
0.017809527 0.026358098 0.74800003 1.0236331e-39
0.01923429 0.026358105 0.74800003 1.391715e-39
0.020714276 0.026428573 0.75 2.7710635e-39
0.022201901 0.026499048 0.75199997 4.1618662e-39
0.023665717 0.026534289 0.75300002 6.928049e-39
0.02516667 0.026604764 0.75500005 9.6827538e-39
0.026604757 0.026604757 0.75500005 1.0051172e-38
0.028079985 0.026640005 0.75599998 1.0328864e-38
0.029598054 0.026710488 0.75799996 1.069911e-38
0.031164754 0.026816197 0.76100004 1.1070706e-38
0.032614287 0.026816204 0.76100004 1.0600358e-38
0.034063824 0.026816197 0.76100004 1.0141559e-38
-0.023980007 0.028339997 0.76300001 4.7999951e-39
-0.022467591 0.028265707 0.76100004 5.0755016e-39
-0.020935299 0.028154291 0.75799996 5.3513711e-39
-0.019440001 0.028080001 0.75600004 4.8918377e-39
-0.017928548 0.027968578 0.75300002 4.4315854e-39
-0.016494283 0.027968585 0.75300002 3.6940315e-39
-0.015040027 0.027931429 0.75199997 3.0454279e-39
-0.013607646 0.027931437 0.75199997 2.12598e-39
-0.012142851 0.027857147 0.75000006 1.299829e-39
-0.01071428 0.027857147 0.75000006 1.2087194e-39
-0.0092609636 0.02778285 0.74800003 1.2094397e-39
-0.0078361994 0.02778285 0.74800003 1.117607e-39
-0.006411436 0.02778285 0.74800003 1.0264932e-39
-0.0049800044 0.027745716 0.74700004 1.1186916e-39
-0.0035571258 0.027745716 0.74700004 1.2105327e-39
-0.0021286036 0.027671449 0.74500006 1.1172665e-39
-0.00070957176 0.027671434 0.745 1.1158245e-39
0.00070949935 0.027671427 0.74500006 9.2963401e-40
0.0021285315 0.027671441 0.74500006 7.4488682e-40
0.0035475635 0.027671441 0.745 7.4380922e-40
0.0049800174 0.027745724 0.74700004 6.5125486e-40
0.0063856887 0.027671427 0.745 7.4416515e-40
0.0078047225 0.027671434 0.745 7.4560149e-40
0.009248578 0.027745724 0.74700004 8.3779712e-40
0.010671455 0.027745716 0.74700004 9.3035288e-40
0.012110479 0.02778285 0.74800003 8.3887892e-40
0.013517137 0.027745724 0.74700004 8.3887331e-40
0.014960006 0.02778285 0.74800003 6.5555545e-40
0.016384771 0.02778285 0.74800003 4.7261173e-40
0.017809534 0.02778285 0.74800003 1.0250694e-39
0.019234298 0.027782865 0.74800003 1.5775342e-39
0.020714281 0.027857125 0.75000006 2.0363697e-39
0.022201873 0.027931437 0.75199997 2.588082e-39
0.023665721 0.027968578 0.75300002 5.8134268e-39
0.025100024 0.027968578 0.75300002 9.0309132e-39
0.026604742 0.028042853 0.75500005 1.0049011e-38
0.028154247 0.028154299 0.75800002 1.1154341e-38
0.029715247 0.028265715 0.76100004 1.1904525e-38
0.031246647 0.028340004 0.76299995 1.2657035e-38
0.032614294 0.028265715 0.76100004 1.1625569e-38
0.034063831 0.028265722 0.76100004 1.0688243e-38
-0.023980016 0.02979333 0.76300001 4.9840305e-39
-0.022438081 0.029676184 0.76000005 5.5361225e-39
-0.020935263 0.029598109 0.75800002 5.9945839e-39
-0.019440025 0.029519998 0.75599998 5.5357665e-39
-0.017976195 0.029480956 0.755 4.9847521e-39
-0.01649428 0.029402874 0.75300002 4.5277257e-39
-0.015040015 0.029363804 0.75200003 4.0610064e-39
-0.013607634 0.029363811 0.75200003 2.9521575e-39
-0.012142861 0.029285721 0.75000006 1.7582989e-39
-0.010714289 0.029285707 0.75000006 1.5753467e-39
-0.0092609562 0.02920761 0.74800003 1.3009193e-39
-0.007836191 0.02920761 0.74800003 1.2094453e-39
-0.0064028651 0.029168569 0.74700004 1.1183301e-39
-0.0049799876 0.029168583 0.74700004 1.3027227e-39
-0.0035571463 0.029168583 0.74700004 1.3941995e-39
-0.0021286074 0.029090494 0.745 1.3931233e-39
-0.00070953823 0.029090472 0.74500006 1.3913254e-39
0.00070949562 0.029090486 0.74500006 1.1136637e-39
0.0021285277 0.029090486 0.745 7.4452669e-40
0.003547597 0.029090479 0.74500006 4.6686781e-40
0.0049800118 0.029168561 0.7470001 1.9208299e-40
0.0063856626 0.029090479 0.74500006 5.5942777e-40
0.0078257164 0.029168591 0.74700004 8.3636779e-40
0.0092485948 0.029168583 0.74700004 9.2856062e-40
0.010685722 0.02920761 0.74800003 9.2999975e-40
0.012110487 0.029207617 0.74800003 9.3108015e-40
0.013535252 0.029207624 0.74800003 8.3959638e-40
0.014960014 0.02920761 0.74800003 5.6408429e-40
0.016384779 0.02920761 0.74800003 2.896596e-40
0.017809544 0.029207617 0.74800003 1.0261428e-39
0.019285699 0.029285699 0.75000006 1.6690025e-39
0.02071427 0.029285721 0.75000006 1.2998795e-39
0.022142842 0.029285721 0.75000006 9.3576329e-40
0.023665724 0.029402867 0.75300002 4.7067556e-39
0.025099989 0.029402874 0.75300002 8.3938226e-39
0.026639977 0.029519998 0.75599998 1.0143735e-38
0.028228607 0.029676192 0.76000005 1.189872e-38
0.029715257 0.029715247 0.76100004 1.3015521e-38
0.031246636 0.029793344 0.76299995 1.4124293e-38
0.032614265 0.029715247 0.76100004 1.2648756e-38
0.034063801 0.029715233 0.76099998 1.1159296e-38
-0.023980027 0.03124667 0.76300001 4.3386779e-39
-0.022438079 0.03112381 0.76000005 4.3397583e-39
-0.020880006 0.030960009 0.75600004 4.43267e-39
-0.01944001 0.030959994 0.75600004 4.0642504e-39
-0.017928543 0.030837156 0.75300002 3.6983391e-39
-0.01649428 0.030837148 0.75300002 3.3302755e-39
-0.015040043 0.0307962 0.75199997 3.0551291e-39
-0.013607662 0.0307962 0.75199997 1.9427013e-39
-0.01214287 0.030714296 0.75 9.3035428e-40
-0.010714299 0.030714288 0.75 8.3815445e-40
-0.0092609469 0.030632369 0.74800003 7.4990908e-40
-0.0078361826 0.030632369 0.74800003 6.5664145e-40
-0.0064114193 0.030632377 0.74800003 6.5915538e-40
-0.0049800081 0.030591428 0.74700004 7.4991608e-40
-0.0035618905 0.030632384 0.74800003 8.442585e-40
-0.0021342884 0.030591436 0.74700004 1.3002018e-39
-0.00071141019 0.030591428 0.74700004 1.7590219e-39
0.00071143091 0.030591436 0.74700004 1.2973333e-39
0.0021342721 0.030591436 0.74700004 8.3636219e-40
0.0035571505 0.030591428 0.74700004 6.51615e-40
0.0049866522 0.030632377 0.74800003 4.6866988e-40
0.0064028697 0.030591428 0.74700004 6.5270801e-40
0.0078257108 0.030591421 0.74700004 7.4489803e-40
0.009260946 0.030632369 0.74800003 8.3744539e-40
0.010685708 0.030632377 0.74800003 8.3852719e-40
0.012110473 0.030632377 0.74800003 8.3960899e-40
0.013535259 0.030632384 0.74800003 9.3287241e-40
0.014960024 0.030632369 0.74800003 6.5628272e-40
0.016384786 0.030632369 0.74800003 3.814951e-40
0.017809551 0.030632377 0.74800003 1.1179741e-39
0.01928569 0.030714288 0.75000006 1.8537427e-39
0.020714263 0.030714296 0.75000006 2.402969e-39
0.022201896 0.030796193 0.75199997 3.0458301e-39
0.023665728 0.030837156 0.75300002 5.8195617e-39
0.025099991 0.030837148 0.75300002 8.6829792e-39
0.026639992 0.030960009 0.75600004 1.0150926e-38
0.028228587 0.03112381 0.76000005 1.1628604e-38
0.029715227 0.031164758 0.76099998 1.2370161e-38
0.031164763 0.031164765 0.76100004 1.3124187e-38
0.032699969 0.031246677 0.76299995 1.1908772e-38
0.03415329 0.031246662 0.76300001 1.0790917e-38
-0.022467606 0.032614268 0.76100004 3.2348555e-39
-0.020935271 0.032485716 0.75800002 2.7778318e-39
-0.019440034 0.032400012 0.75599998 2.5894987e-39
-0.017976187 0.032357141 0.75500005 2.3172152e-39
-0.016538076 0.032357141 0.75500005 2.132105e-39
-0.015059974 0.03227143 0.75300002 1.9469963e-39
-0.013607651 0.032228574 0.75199997 1.0164402e-39
-0.01217527 0.032228582 0.75199997 1.0095375e-40
-0.010742891 0.032228567 0.75199997 9.7004886e-41
-0.0092857582 0.032142863 0.75 1.0310614e-40
-0.0078361742 0.032057129 0.74800003 9.9880351e-41
-0.0064114099 0.032057136 0.74800003 1.0311174e-40
-0.0049866466 0.032057136 0.74800003 1.9279905e-40
-0.0035619203 0.032057151 0.74799997 2.9001133e-40
-0.0021342717 0.032014295 0.74700004 1.2037e-39
-0.00071239367 0.032057144 0.74800003 2.1242101e-39
0.00071144768 0.032014281 0.74700004 1.4802897e-39
0.0021342889 0.032014288 0.74700004 8.3636219e-40
0.0035618984 0.032057144 0.74800003 8.3492445e-40
0.0049866615 0.032057136 0.74800003 7.4416936e-40
0.0064028492 0.032014303 0.74700004 7.4560989e-40
0.0078361891 0.032057136 0.74800003 6.5376739e-40
0.0092485677 0.032014281 0.74700004 7.4559728e-40
0.010685718 0.032057136 0.74800003 7.4740075e-40
0.01211048 0.032057136 0.74800003 8.3996352e-40
0.013535244 0.032057136 0.74800003 9.3142908e-40
0.014960009 0.032057129 0.74800003 7.4631335e-40
0.016384758 0.032057144 0.74799997 4.7332779e-40
0.01780952 0.032057144 0.74799997 1.2098152e-39
0.019285681 0.03214287 0.75000006 1.9430755e-39
0.020714253 0.032142855 0.75 3.5957669e-39
0.022201909 0.032228574 0.75200003 5.1720413e-39
0.023665728 0.032271437 0.75300002 7.0256158e-39
0.025099993 0.032271437 0.75300002 8.859823e-39
0.026639968 0.032399997 0.75599998 1.0056205e-38
0.028228562 0.032571442 0.76000005 1.1252607e-38
0.029715233 0.032614283 0.76100004 1.1712173e-38
0.031246638 0.032700002 0.76299995 1.2086674e-38
0.032699957 0.032700002 0.76299995 1.1254042e-38
0.034153305 0.03270001 0.76299995 1.0330647e-38
-0.022467613 0.034063809 0.76099998 6.6431651e-39
-0.020935252 0.033929534 0.75800002 7.282429e-39
-0.019491471 0.033929527 0.75800002 7.0080015e-39
-0.017976204 0.033795245 0.755 6.8182279e-39
-0.016538091 0.033795245 0.75500005 6.8232445e-39
-0.015059971 0.033705719 0.75300002 6.8189313e-39
-0.013607639 0.033660941 0.75199997 6.3583105e-39
-0.012175259 0.033660956 0.75199997 5.8898074e-39
-0.010742879 0.033660956 0.75199997 5.989535e-39
-0.0092857294 0.03357143 0.75000006 6.0781447e-39
-0.0078361658 0.033481896 0.74800003 5.8980638e-39
-0.0064114407 0.033481903 0.74799997 5.7965468e-39
-0.0049866764 0.033481903 0.74799997 6.0838956e-39
-0.0035714412 0.03357143 0.75000006 6.2657716e-39
-0.0021371476 0.033481903 0.74800003 4.9807907e-39
-0.00071141392 0.03343714 0.74700004 3.7779665e-39
0.00071142719 0.033437155 0.74700004 2.1224221e-39
0.0021343057 0.033437148 0.74700004 5.608543e-40
0.0035619058 0.033481903 0.74800003 6.5196672e-40
0.0049866708 0.033481896 0.74800003 7.4416235e-40
0.006402866 0.033437148 0.74700004 6.5376319e-40
0.0078257052 0.033437148 0.74700004 6.5483238e-40
0.0092485845 0.03343714 0.74700004 7.4737693e-40
0.010671426 0.03343714 0.74700004 7.4882587e-40
0.01211049 0.033481896 0.74800003 1.0239876e-39
0.013535215 0.033481903 0.74800003 1.2062097e-39
