# .PCD v0.7 - Point Cloud Data file format
VERSION 0.7
FIELDS x y z rgb
SIZE 4 4 4 4
TYPE F F F F
COUNT 1 1 1 1
WIDTH 976
HEIGHT 1
VIEWPOINT 0 0 0 1 0 0 0
POINTS 976
DATA ascii
-0.00071903411 0.022290498 0.755 1.2991494e-39
0.00071907416 0.022290498 0.755 1.2076811e-39
0.002157158 0.022290498 0.75500005 1.2080342e-39
0.0035952516 0.022290498 0.755 1.0243562e-39
0.0050333603 0.022290491 0.755 9.3143889e-40
0.0064714444 0.022290483 0.75500005 1.0221926e-39
0.0079095382 0.022290483 0.75500005 1.1151085e-39
0.0093476465 0.022290483 0.755 1.2998599e-39
0.01078574 0.022290491 0.755 1.5764384e-39
0.012223824 0.022290491 0.75500005 1.2987753e-39
0.013625719 0.02223143 0.75300002 1.0196688e-39
0.015060016 0.022231437 0.75300002 1.3920191e-39
0.016538121 0.022290498 0.755 1.6733213e-39
0.017976204 0.022290491 0.75500005 4.0740132e-39
0.019414313 0.022290483 0.755 6.3846101e-39
0.020852407 0.022290491 0.755 7.4812564e-39
0.022320013 0.022320017 0.75599998 8.5903954e-39
0.023822872 0.022379063 0.75800002 7.8416592e-39
0.025266688 0.022379056 0.75799996 7.1026901e-39
0.026710495 0.022379056 0.75799996 6.088213e-39
0.02822859 0.022438094 0.76000005 5.0805435e-39
0.029676203 0.022438101 0.76000005 6.6442679e-39
0.031328592 0.022585735 0.76499999 8.3134666e-39
0.032785747 0.022585727 0.76499999 9.2286084e-39
0.034332402 0.022644758 0.76700002 1.0144449e-38
0.035793349 0.022644781 0.76699996 1.0236641e-38
0.037302867 0.022674285 0.76800001 1.0421748e-38
0.038765728 0.022674292 0.76800001 1.0144089e-38
0.04022859 0.0226743 0.76800001 9.9604169e-39
0.041691426 0.022674285 0.76800001 9.8675024e-39
-0.018285716 0.024137147 0.76800001 7.4306514e-40
-0.016800938 0.02410572 0.76699996 6.5122123e-40
-0.01529998 0.024042867 0.76499999 4.6719431e-40
-0.013806658 0.023980007 0.76300001 6.5086951e-40
-0.012353322 0.023980029 0.76299995 8.3418597e-40
-0.010871427 0.023917153 0.7610001 7.4271341e-40
-0.009409517 0.023885712 0.76000005 6.5159678e-40
-0.0079618879 0.023885719 0.76000005 8.3562791e-40
-0.0065142768 0.023885719 0.76000005 9.2782774e-40
-0.0050533232 0.023822859 0.75799996 8.3599925e-40
-0.0036095059 0.023822866 0.75799996 6.5448906e-40
-0.002157121 0.023728587 0.75500005 1.1143924e-39
-0.00072000176 0.023759998 0.75600004 1.5746517e-39
0.00071906671 0.023728594 0.755 1.2991522e-39
0.0021600127 0.023760021 0.75600004 9.3252209e-40
0.0035952586 0.023728579 0.755 9.3287662e-40
0.0050333524 0.023728587 0.755 9.3143748e-40
0.0064714462 0.023728579 0.755 1.0211178e-39
0.0079095447 0.023728579 0.75500005 1.0236289e-39
0.0093476381 0.023728594 0.755 1.3005703e-39
0.010785732 0.023728587 0.755 1.5757139e-39
0.01222383 0.023728587 0.75500005 1.3916814e-39
0.013661925 0.023728579 0.75500005 1.1140197e-39
0.015100019 0.023728587 0.755 1.0196702e-39
0.016538126 0.023728587 0.755 9.3288783e-40
0.01797621 0.023728572 0.75500005 9.3363612e-40
0.019414306 0.023728579 0.755 8.5436607e-40
0.020852398 0.023728579 0.755 5.5498244e-39
0.02232001 0.023760006 0.75599998 1.0236998e-38
0.023760004 0.023760013 0.75600004 1.1260079e-38
0.025266677 0.023822859 0.75799996 1.2165525e-38
0.026780967 0.023885712 0.76000005 1.115857e-38
0.028228581 0.023885719 0.76000005 1.0045401e-38
0.029676199 0.023885705 0.76000005 9.2174246e-39
0.031246684 0.023980021 0.76300001 8.3959554e-39
0.032871448 0.02410572 0.76699996 9.0438556e-39
0.034377158 0.024137147 0.76800001 9.5941511e-39
0.035840005 0.024137147 0.76800001 9.8692988e-39
0.037302867 0.024137147 0.76800001 1.0144805e-38
0.038765721 0.024137139 0.76800001 1.0144448e-38
0.040228583 0.024137139 0.76800001 1.0145164e-38
-0.018285716 0.025600001 0.76800001 9.2744799e-40
-0.01680094 0.025566667 0.76700002 6.5085689e-40
-0.015339985 0.025566675 0.76700002 4.6647404e-40
-0.013842836 0.025500014 0.76499999 5.5867388e-40
-0.01235332 0.025433354 0.76299995 5.5867808e-40
-0.010871425 0.025366671 0.76100004 5.5904102e-40
-0.0094095124 0.025333337 0.76000005 6.5051918e-40
-0.0079618832 0.02533333 0.75999999 8.3526637e-40
-0.0065142722 0.025333345 0.76000005 1.0200206e-39
-0.0050533181 0.025266677 0.75799996 7.4523855e-40
-0.0036095111 0.025266677 0.75799996 5.6265216e-40
-0.0021571298 0.025166675 0.75500005 9.3143748e-40
-0.00071903551 0.025166683 0.755 1.3913366e-39
0.00071907323 0.025166675 0.755 1.2083873e-39
0.0021571566 0.025166668 0.75500005 9.3323535e-40
0.0035952507 0.025166675 0.755 8.4067819e-40
0.0050333589 0.025166675 0.755 7.4812522e-40
0.0064714532 0.025166698 0.755 8.3924185e-40
0.0079095364 0.025166675 0.75500005 9.3358427e-40
0.0093476307 0.025166683 0.755 1.1168923e-39
0.01078574 0.025166683 0.755 1.3916786e-39
0.012223823 0.025166675 0.75500005 1.2080034e-39
0.013661917 0.025166683 0.75500005 1.1161763e-39
0.015100025 0.025166683 0.755 1.0225555e-39
0.016538119 0.025166675 0.755 9.3072562e-40
0.017976202 0.025166668 0.75500005 8.3817827e-40
0.019414311 0.025166683 0.75500005 7.4241633e-40
0.02088001 0.025200017 0.75599998 2.9594008e-39
0.022320019 0.025200009 0.75600004 5.1699239e-39
0.023822872 0.025266662 0.75800002 5.8196009e-39
0.025266688 0.02526667 0.75799996 6.4678248e-39
0.026780972 0.025333337 0.76000005 6.1862128e-39
0.028228587 0.025333337 0.76000005 5.9092182e-39
0.029715246 0.025366664 0.76100004 6.4547955e-39
0.031246673 0.025433347 0.76300001 7.1001957e-39
0.032871451 0.025566667 0.76700002 8.4878133e-39
0.034377158 0.025600001 0.76800001 9.8692946e-39
0.035840012 0.025599986 0.76800001 9.9607742e-39
0.037302874 0.025599994 0.76800001 1.0052252e-38
0.038765717 0.025600001 0.76800001 1.0144807e-38
0.040228579 0.025600001 0.76800001 1.0237358e-38
-0.01833332 0.027133331 0.77000004 1.0189276e-39
-0.016822854 0.027062856 0.76800001 7.4198333e-40
-0.015339991 0.027027622 0.76700002 4.6683698e-40
-0.013842843 0.026957139 0.76499999 3.7500428e-40
-0.012353325 0.026886679 0.76300001 2.8353453e-40
-0.010871424 0.026816204 0.76100004 4.6721253e-40
-0.0094219018 0.026816212 0.76100004 5.5868649e-40
-0.0079618953 0.026780948 0.76000005 8.3455031e-40
-0.006514274 0.026780963 0.76000005 1.1118575e-39
-0.0050533223 0.02671048 0.75799996 7.4524135e-40
-0.0036095153 0.026710473 0.75800002 3.7970564e-40
-0.0021571224 0.026604772 0.75500005 8.4033066e-40
-0.00071902853 0.026604772 0.755 1.2083887e-39
0.00071906531 0.026604772 0.755 1.1172693e-39
0.0021571633 0.026604764 0.75500005 9.3323535e-40
0.0035952572 0.026604779 0.75500005 7.4884269e-40
0.005033351 0.026604779 0.755 5.640913e-40
0.0064714453 0.026604779 0.755 6.5412893e-40
0.0079095438 0.026604764 0.75500005 7.4883288e-40
0.0093476381 0.026604772 0.75500005 9.3358007e-40
0.010785731 0.026604779 0.755 1.1165364e-39
0.01222384 0.026604779 0.755 1.1158217e-39
0.013661923 0.026604779 0.75500005 1.1158231e-39
0.015100017 0.026604779 0.755 1.0236317e-39
0.016538111 0.026604787 0.755 9.3108296e-40
0.01797621 0.026604772 0.75500005 8.3817547e-40
0.019414304 0.026604779 0.75500005 6.5236469e-40
0.020880006 0.026639998 0.75600004 3.7471982e-40
0.022320015 0.026640013 0.75600004 1.0710685e-40
0.023822872 0.026710495 0.75799996 3.8046374e-40
0.025266677 0.02671048 0.75799996 6.6349661e-40
0.026780963 0.026780948 0.76000005 1.2084055e-39
0.028228592 0.026780955 0.75999999 1.6689899e-39
0.029715238 0.026816197 0.76100004 3.6843219e-39
0.0313286 0.026957154 0.76499999 5.722313e-39
0.032871444 0.027027614 0.76700002 7.9382353e-39
0.03437715 0.027062848 0.76800001 1.0144084e-38
0.035840005 0.027062863 0.76800001 1.0052252e-38
0.037302855 0.027062863 0.76800001 9.9611357e-39
0.038866688 0.027133338 0.77000004 1.0145526e-38
0.040333346 0.027133331 0.77000004 1.0238079e-38
-0.01833332 0.028599992 0.77000004 1.0182143e-39
-0.016822847 0.028525718 0.76800001 7.4234907e-40
-0.015339987 0.028488576 0.76700002 4.6684258e-40
-0.013842838 0.028414294 0.76499999 4.6719991e-40
-0.012353324 0.028340004 0.76300001 4.6828592e-40
-0.01087143 0.028265722 0.76100004 4.6757686e-40
-0.0094095087 0.028228566 0.75999999 5.5833196e-40
-0.0079618897 0.028228581 0.76000005 6.5195691e-40
-0.0064971331 0.028154291 0.75799996 8.3707124e-40
-0.0050533162 0.028154299 0.75799996 6.5448345e-40
-0.0036095092 0.028154291 0.75799996 4.7190688e-40
-0.0021571307 0.028042875 0.75500005 7.4850638e-40
-0.00071903691 0.028042875 0.755 1.0247233e-39
0.00071907183 0.028042883 0.755 1.0254324e-39
0.0021571654 0.028042875 0.755 1.0250708e-39
0.0035952493 0.028042875 0.75500005 8.4103692e-40
0.005033358 0.028042868 0.755 6.5628132e-40
0.0064714518 0.028042868 0.755 7.4774968e-40
0.0079095354 0.028042868 0.75500005 8.4138164e-40
0.0093476437 0.02804286 0.75500005 9.3321994e-40
0.010785738 0.028042883 0.755 1.025424e-39
0.012223832 0.028042875 0.755 1.0247149e-39
0.013661915 0.028042868 0.75500005 1.0236345e-39
0.015100025 0.028042875 0.75500005 8.3995932e-40
0.016538117 0.028042875 0.755 6.5557366e-40
0.017976211 0.028042883 0.755 9.3036549e-40
0.019414309 0.02804286 0.75500005 1.2966397e-39
0.020880001 0.028080009 0.75600004 9.2966344e-40
0.022320012 0.028080001 0.75600004 5.6482417e-40
0.023822874 0.028154291 0.75800002 5.651745e-40
0.025333354 0.028228566 0.76000005 5.6624369e-40
0.026780969 0.028228574 0.76000005 7.4703782e-40
0.028265718 0.028265715 0.76100004 9.2461036e-40
0.029871453 0.028414302 0.76499999 4.0549079e-39
0.031410493 0.028488576 0.76700002 7.2885471e-39
0.03287144 0.028488576 0.76700002 9.4104731e-39
0.03437715 0.02852571 0.76800001 1.1521976e-38
0.035840012 0.028525718 0.76800001 1.0786936e-38
0.03730287 0.028525718 0.76800001 1.0145167e-38
0.038866691 0.028600007 0.76999998 1.0237721e-38
0.04033336 0.028600007 0.76999998 1.0330274e-38
-0.01833332 0.030066662 0.77000004 9.263774e-40
-0.016822848 0.029988572 0.76800001 7.4234767e-40
-0.015360003 0.029988579 0.76800001 4.6683838e-40
-0.013879031 0.029949531 0.76700002 5.5867247e-40
-0.012353323 0.029793352 0.76300001 5.5975568e-40
-0.010871422 0.029715255 0.76100004 5.6048015e-40
-0.0094218981 0.029715255 0.76100004 5.5976268e-40
-0.0079618916 0.029676199 0.76000005 5.6083888e-40
-0.0064971279 0.029598109 0.75799996 4.7008659e-40
-0.0050533214 0.029598109 0.75799996 4.7117119e-40
-0.0036095143 0.029598102 0.75800002 4.7190407e-40
-0.0021571238 0.029480964 0.75500005 6.5738414e-40
-0.00071902992 0.029480964 0.75500005 8.4140826e-40
0.00071906392 0.029480971 0.755 1.0257925e-39
0.0021571722 0.029480979 0.755 1.1172693e-39
0.0035952558 0.029480956 0.75500005 9.3359969e-40
0.0050333496 0.029480964 0.755 7.4848256e-40
0.0064714439 0.029480964 0.755 8.3923205e-40
0.0079095522 0.029480979 0.755 8.4030824e-40
0.0093476363 0.029480971 0.75500005 9.328612e-40
0.010785731 0.029480964 0.755 9.3358567e-40
0.012223838 0.029480971 0.755 9.3359268e-40
0.013661922 0.029480964 0.75500005 9.3286961e-40
0.015100015 0.029480964 0.75500005 6.5735752e-40
0.01653811 0.029480964 0.755 2.8858481e-40
0.017976219 0.029480964 0.755 1.1140323e-39
0.019414302 0.029480949 0.75500005 1.8480058e-39
0.020880012 0.029520005 0.75600004 1.3899115e-39
0.022320015 0.029520012 0.75599998 9.3072843e-40
0.023822872 0.029598102 0.75799996 7.4956296e-40
0.025266677 0.029598109 0.75799996 4.7405647e-40
0.026816197 0.029715255 0.76100004 2.8931068e-40
0.028265728 0.029715247 0.76100004 1.0026571e-40
0.029793335 0.029793337 0.76300001 4.4133138e-39
0.031410493 0.029949531 0.76700002 8.7615164e-39
0.032871444 0.029949524 0.76700002 1.0800557e-38
0.034377147 0.029988572 0.76800001 1.2810537e-38
0.035840012 0.029988579 0.76800001 1.1612017e-38
0.03730287 0.029988572 0.76800001 1.0328119e-38
0.038866684 0.030066684 0.76999998 1.0421036e-38
0.04033336 0.030066676 0.76999998 1.0421754e-38
-0.018380933 0.03161525 0.77200001 1.0182115e-39
-0.016910462 0.03161525 0.77200001 7.427036e-40
-0.015360003 0.031451434 0.76800001 5.5867107e-40
-0.013879037 0.031410478 0.76700002 4.6719011e-40
-0.012385695 0.031328596 0.76499999 4.6719571e-40
-0.010899995 0.031246677 0.76300001 5.5975428e-40
-0.0094218971 0.031164773 0.76100004 6.5159398e-40
-0.0079618869 0.031123824 0.75999999 6.5267298e-40
-0.0065142764 0.03112381 0.76000005 6.5375758e-40
-0.0050533153 0.03104192 0.75799996 5.6228923e-40
-0.0036095083 0.031041913 0.75799996 5.6230324e-40
-0.0021571321 0.03091906 0.75500005 6.5594501e-40
-0.0007190383 0.03091906 0.75500005 8.406894e-40
0.00071907043 0.03091906 0.755 9.3323955e-40
0.0021571645 0.03091906 0.755 1.0250807e-39
0.0035952479 0.030919045 0.75500005 8.406964e-40
0.0050333566 0.030919068 0.75500005 6.5629673e-40
0.0064714504 0.030919068 0.755 7.4740215e-40
0.0079095438 0.030919075 0.755 9.3142908e-40
0.0093476279 0.03091906 0.75500005 9.3250247e-40
0.010800019 0.030960023 0.75599998 1.0254184e-39
0.012240013 0.030960016 0.75600004 9.3322834e-40
0.013661925 0.03091906 0.755 8.4138724e-40
0.015100023 0.03091906 0.75500005 5.6264516e-40
0.016538117 0.03091906 0.755 3.804147e-40
0.018000018 0.030960009 0.75600004 1.1165378e-39
0.019440012 0.030960001 0.75600004 1.846924e-39
0.020880017 0.030960023 0.75599998 1.2015714e-39
0.022320012 0.030960023 0.75600004 5.5872012e-40
0.023822872 0.03104192 0.75800002 2.7728123e-39
0.02526669 0.03104192 0.75799996 4.9743615e-39
0.026780969 0.03112381 0.76000005 4.3336738e-39
0.02826572 0.031164765 0.76100004 3.6815151e-39
0.029793346 0.031246692 0.76299995 6.6382045e-39
0.031328589 0.031328589 0.76499999 9.5134335e-39
0.03287144 0.031410486 0.76700002 1.0704412e-38
0.03437715 0.031451426 0.76800001 1.1981144e-38
0.035840008 0.031451434 0.76800001 1.1246104e-38
0.03730287 0.031451434 0.76800001 1.0512147e-38
0.038866691 0.031533323 0.76999998 1.0605067e-38
0.040333349 0.031533346 0.76999998 1.0605069e-38
0.041800022 0.031533338 0.76999998 1.07891e-38
-0.018380942 0.033085719 0.77200001 1.1104071e-39
-0.016910464 0.033085726 0.77200001 8.3489923e-40
-0.01529998 0.032785729 0.76499999 5.5903541e-40
-0.013842839 0.032785729 0.76499999 4.6756145e-40
-0.012353318 0.032700017 0.76299995 2.8424919e-40
-0.010899991 0.032700017 0.76299995 5.6011581e-40
-0.0094219036 0.032614306 0.76100004 7.4414554e-40
-0.0079723727 0.032614306 0.76100004 8.3598243e-40
-0.0065142708 0.032571435 0.76000005 8.3670971e-40
-0.0050533204 0.032485716 0.75799996 7.4560149e-40
-0.0036095134 0.032485731 0.75800002 5.6265777e-40
-0.0021599978 0.032400005 0.75600004 6.5522054e-40
-0.00071903132 0.032357164 0.75500005 7.4813223e-40
0.00071906298 0.032357141 0.755 8.4140266e-40
0.0021571708 0.032357164 0.755 9.3251648e-40
0.0035952548 0.032357164 0.75500005 7.4776509e-40
0.0050333482 0.032357156 0.75500005 5.6373256e-40
0.0064714425 0.032357164 0.755 7.4668469e-40
0.0079095513 0.032357156 0.755 9.3071441e-40
0.0093476344 0.032357149 0.75500005 1.0239848e-39
0.010800015 0.032400005 0.75600004 1.1158231e-39
0.012240009 0.032400005 0.75600004 9.3179622e-40
0.013680004 0.032400012 0.75600004 6.5268419e-40
0.015120009 0.032400005 0.75599998 5.5544949e-40
0.016560003 0.032400012 0.75600004 3.8543975e-40
0.018000012 0.032400005 0.75600004 1.1251754e-39
0.019440018 0.032400012 0.75599998 1.7640568e-39
0.020880012 0.032400012 0.75600004 9.1886083e-40
0.022320006 0.032400005 0.75600004 1.0815081e-40
0.023822872 0.032485723 0.75799996 4.8079293e-39
0.025266681 0.032485723 0.75799996 9.4911795e-39
0.0268162 0.032614291 0.76100004 8.3891535e-39
0.028265731 0.032614306 0.76100004 7.2835472e-39
0.029793348 0.03270001 0.76299995 8.7608143e-39
0.0314105 0.03287144 0.76699996 1.0239862e-38
0.032871448 0.032871433 0.76700002 1.0706209e-38
0.034377165 0.032914296 0.76800001 1.1065664e-38
0.035933349 0.033 0.77000004 1.0879486e-38
0.037400022 0.033000007 0.77000004 1.0696541e-38
0.038967635 0.033085719 0.77200007 1.0789461e-38
0.040438108 0.033085719 0.77200007 1.078946e-38
0.041908599 0.033085726 0.77200001 1.0972771e-38
-0.015259995 0.03415335 0.76300001 5.5832495e-40
-0.01380665 0.034153357 0.76299995 4.6721533e-40
-0.012353323 0.034153342 0.76299995 4.6864605e-40
-0.010871423 0.034063824 0.76100004 5.6011721e-40
-0.0094218943 0.034063824 0.76100004 7.44863e-40
-0.0079723718 0.034063838 0.76100004 6.5230864e-40
-0.0065142652 0.034019053 0.75999999 6.5267858e-40
-0.0050666537 0.034019046 0.76000005 6.5304852e-40
-0.0036095083 0.033929534 0.75799996 6.5413173e-40
-0.0021599922 0.033840001 0.75599998 7.4633156e-40
-0.00071903924 0.033795252 0.75500005 7.4705183e-40
0.00071906904 0.03379526 0.75500005 9.3180042e-40
0.0021571631 0.03379526 0.755 1.1151001e-39
0.0035952572 0.03379526 0.755 8.3957957e-40
0.0050333552 0.033795245 0.75500005 5.6336402e-40
0.0064714495 0.033795245 0.755 7.4668329e-40
0.0079095429 0.033795245 0.755 9.2928089e-40
0.0093600154 0.033840016 0.75600004 1.0229128e-39
0.01080001 0.033840016 0.75600004 1.1143924e-39
0.012240005 0.033840008 0.75600004 9.2821169e-40
0.01368001 0.033840016 0.75599998 7.4056382e-40
0.015120005 0.033840016 0.75600004 3.2355169e-39
0.016560014 0.033840001 0.75600004 5.8177274e-39
0.018000009 0.033840001 0.75600004 5.9142811e-39
0.019440014 0.033840023 0.75599998 6.0125233e-39
0.020880008 0.033840001 0.75600004 5.6297054e-39
0.022320002 0.033840016 0.75600004 5.2591894e-39
0.023822874 0.033929534 0.75800002 7.6609562e-39
0.025333351 0.034019038 0.76000005 1.0057996e-38
0.026816195 0.034063824 0.76100004 9.04062e-39
0.028265722 0.034063824 0.76100004 8.119035e-39
0.029871451 0.034242883 0.76499999 8.8519225e-39
0.031410486 0.034332387 0.76700002 9.6834656e-39
0.032871448 0.034332395 0.76699996 1.0146589e-38
0.03437715 0.03437715 0.76800001 1.0696174e-38
0.035933357 0.034466676 0.77000004 1.0604704e-38
0.037400015 0.034466669 0.77000004 1.0605072e-38
0.039018117 0.034600973 0.77300006 1.069799e-38
0.040490501 0.034600981 0.773 1.0881657e-38
-0.01828571 0.035840012 0.76800001 1.1075317e-39
-0.01680094 0.035793334 0.76700002 8.3166363e-40
-0.015299973 0.035700016 0.76499999 5.5795781e-40
-0.013806658 0.035606675 0.76299995 5.5832495e-40
-0.012353323 0.035606682 0.76300001 5.5939835e-40
-0.010871422 0.035513341 0.76100004 6.5051498e-40
-0.0094218999 0.035513341 0.76100004 6.5195131e-40
-0.0079723699 0.035513356 0.76100004 5.5975848e-40
-0.0065142764 0.035466656 0.76000005 4.6864886e-40
-0.0050733252 0.035513341 0.76100004 6.5196952e-40
-0.0036190366 0.035466671 0.76000005 7.4488963e-40
-0.002159982 0.035280012 0.75599998 7.456141e-40
-0.00071903272 0.035233341 0.75500005 7.466959e-40
0.00071906159 0.035233349 0.75500005 1.0236443e-39
0.0021571547 0.035233349 0.755 1.2987809e-39
0.0035952637 0.035233349 0.755 9.3142767e-40
0.0050333478 0.035233341 0.75500005 4.72253e-40
0.0064714411 0.035233356 0.75500005 6.54852e-40
0.0079200156 0.035280012 0.75599998 8.3924045e-40
0.0093600107 0.035280019 0.75600004 1.0243478e-39
0.010800006 0.035280012 0.75600004 1.1140295e-39
0.01224001 0.035280019 0.75599998 1.0171703e-39
0.013680005 0.035280019 0.75600004 8.4391098e-40
0.015120015 0.035280012 0.75600004 6.0118198e-39
0.016560011 0.035280004 0.75600004 1.1156058e-38
0.018000014 0.035280012 0.75599998 1.0701559e-38
0.01944001 0.035280019 0.75600004 1.0143714e-38
0.02093525 0.035373345 0.75799996 1.0327727e-38
0.022379056 0.035373345 0.75800002 1.0419236e-38
0.023822872 0.035373352 0.75799996 1.0518997e-38
0.025333356 0.035466671 0.76000005 1.0517191e-38
0.026816204 0.035513341 0.76100004 9.6885075e-39
0.02834001 0.035606675 0.76300001 8.8540777e-39
0.029949546 0.035793349 0.76699996 9.0284035e-39
0.031451441 0.035839997 0.76800001 9.1284982e-39
0.032914303 0.035840012 0.76800001 9.6838244e-39
0.034377165 0.035840012 0.76800001 1.0236998e-38
0.036026686 0.036026672 0.77200001 1.0421754e-38
0.037400026 0.035933338 0.77000004 1.0513954e-38
0.03911908 0.036166675 0.77500004 1.0698705e-38
0.040490489 0.036073357 0.77300006 1.0882016e-38
-0.019928556 0.037642878 0.77500004 2.0283921e-39
-0.01838094 0.037497155 0.77200001 1.1082421e-39
-0.016866654 0.037400007 0.77000004 8.3309156e-40
-0.01529998 0.037157156 0.76499999 5.5830954e-40
-0.01384284 0.037157148 0.76500005 6.5122684e-40
-0.012353328 0.037060015 0.76300001 7.4413993e-40
-0.010899995 0.037060007 0.76300001 8.3525796e-40
-0.0094466601 0.037060015 0.76300001 9.274564e-40
-0.007972369 0.036962874 0.76100004 7.4378961e-40
-0.0065228469 0.036962874 0.76100004 6.5267858e-40
-0.0050733248 0.036962874 0.76100004 7.4451968e-40
-0.003619031 0.036914289 0.76000005 8.3600626e-40
-0.0021599862 0.036720008 0.75600004 8.3744959e-40
-0.00071999151 0.036720008 0.75600004 8.3781813e-40
0.00071906764 0.036671437 0.75500005 1.0225751e-39
0.0021571617 0.036671437 0.755 1.114761e-39
0.0036000027 0.03672 0.75600004 9.3143889e-40
0.0050333538 0.036671445 0.75500005 6.5700859e-40
0.0064800172 0.036720015 0.75599998 7.4812522e-40
0.0079200119 0.036720008 0.75600004 9.3143748e-40
0.0093600061 0.036720008 0.75600004 1.1161833e-39
0.010800001 0.036720008 0.75600004 1.3924016e-39
0.012240006 0.036720015 0.75599998 1.3877325e-39
0.013680015 0.036720008 0.75600004 1.4832044e-39
0.015120011 0.036720015 0.75600004 6.0108151e-39
0.016560014 0.036720023 0.75599998 1.0521493e-38
0.01800001 0.036720015 0.75600004 7.9314208e-39
0.019440005 0.036720015 0.75600004 5.2674921e-39
0.020880014 0.036720008 0.75600004 8.2170068e-39
0.022320019 0.036720008 0.75599998 1.1163287e-38
0.023822876 0.036817148 0.75799996 1.0887075e-38
0.02533336 0.036914289 0.76000005 1.0609762e-38
0.026816187 0.036962867 0.7610001 9.8704017e-39
0.028340012 0.037060022 0.76300001 9.2232134e-39
0.029949548 0.037254281 0.76700002 9.1273968e-39
0.031451441 0.037302859 0.76800001 9.1277723e-39
0.032914292 0.037302852 0.76800001 9.9600469e-39
0.034466684 0.0374 0.77000004 1.0789447e-38
0.035933357 0.037400007 0.77000004 1.0697981e-38
0.037497155 0.037497148 0.77200007 1.0606148e-38
0.038967624 0.03749714 0.77200007 1.0697985e-38
0.040490504 0.037545741 0.773 1.0789461e-38
0.041962877 0.037545729 0.77300006 1.0053701e-38
-0.021404753 0.039119061 0.77500004 3.1358201e-39
-0.019928569 0.039119057 0.7750001 2.1195214e-39
-0.018404745 0.039018113 0.773 1.1093267e-39
-0.016866652 0.038866665 0.77000004 8.3345589e-40
-0.01533999 0.038715243 0.76700002 4.6683698e-40
-0.013879028 0.038715251 0.76699996 6.5158837e-40
-0.0123857 0.03861431 0.76499999 8.356167e-40
-0.010899994 0.03851334 0.76300001 1.0192863e-39
-0.0094466591 0.038513336 0.76300001 1.1111274e-39
-0.0079723783 0.038412396 0.7610001 1.0189388e-39
-0.0065228557 0.038412385 0.7610001 8.3635098e-40
-0.0050733229 0.038412392 0.76100004 9.2891094e-40
-0.0036190338 0.038361914 0.76000005 9.2927668e-40
-0.0021599908 0.038160019 0.75600004 9.2964382e-40
-0.00071999617 0.038160011 0.75600004 9.3036829e-40
0.00071906019 0.038109537 0.75500005 9.3073403e-40
0.0021571538 0.038109545 0.755 9.3072843e-40
0.0035952621 0.038109541 0.755 9.3000676e-40
0.0050333459 0.038109537 0.75500005 8.4032085e-40
0.0064714397 0.038109541 0.75500005 9.3287101e-40
0.0079200072 0.038160011 0.75600004 9.3215215e-40
0.0093600024 0.038160011 0.75600004 1.2994927e-39
0.010828588 0.038260955 0.75799996 1.5731985e-39
0.012272405 0.038260978 0.75799996 1.8411661e-39
0.013680011 0.038160011 0.75600004 2.1375337e-39
0.015160019 0.038260952 0.75800002 6.0262476e-39
0.016560011 0.038160004 0.75600004 9.8667863e-39
0.018047627 0.038260955 0.75799996 5.1433077e-39
0.019491449 0.038260952 0.75800002 3.9839476e-40
0.02093525 0.038260955 0.75799996 6.109098e-39
0.022320015 0.038160011 0.75600004 1.1803989e-38
0.023822874 0.038260967 0.75799996 1.1256577e-38
0.025266681 0.038260963 0.75799996 1.0701241e-38
0.02678097 0.038361911 0.76000005 1.0144112e-38
0.028265711 0.038412396 0.76100004 9.4987255e-39
0.029871456 0.038614295 0.76499999 9.3135915e-39
0.031451426 0.038765699 0.76800001 9.1306562e-39
0.033000015 0.038866669 0.77000004 1.0238439e-38
0.034466676 0.038866665 0.77000004 1.1340829e-38
0.035933349 0.038866669 0.77000004 1.0974211e-38
0.037497167 0.038967632 0.77200001 1.0605786e-38
0.039018121 0.039018109 0.773 1.0696897e-38
-0.021459982 0.040700022 0.77700001 3.4959762e-39
-0.019928563 0.040595256 0.77500004 2.4868746e-39
-0.018380938 0.040438097 0.77200001 1.5692301e-39
-0.016822862 0.040228572 0.76800001 1.0174912e-39
-0.015339985 0.040176205 0.76700002 5.5867668e-40
-0.013879034 0.04017619 0.76700002 5.5903821e-40
-0.012385698 0.04007145 0.76500005 6.5158837e-40
-0.010899999 0.039966669 0.76300001 7.437784e-40
-0.0094466545 0.039966691 0.76299995 9.2817386e-40
-0.00799332 0.039966688 0.76300001 8.3598524e-40
-0.0065228543 0.039861903 0.76100004 7.4451688e-40
-0.0050866599 0.039966688 0.76300001 7.4560149e-40
-0.0036238097 0.039861917 0.7610001 7.4632456e-40
-0.0021656998 0.03970477 0.75800002 8.3852439e-40
-0.00071999058 0.039600007 0.75599998 9.3108296e-40
0.00072000409 0.039600015 0.75600004 8.3889293e-40
0.0021600139 0.039600007 0.75600004 7.4705603e-40
0.0035952544 0.039547641 0.755 7.477721e-40
0.0050333631 0.039547641 0.755 8.4067959e-40
0.0064714467 0.039547626 0.75500005 9.3250948e-40
0.0079200026 0.039600007 0.75600004 1.0243436e-39
0.0093600079 0.039600015 0.75599998 1.3920415e-39
0.010828586 0.039704777 0.75799996 1.6671822e-39
0.012272393 0.03970477 0.75799996 2.2167533e-39
0.013716199 0.039704766 0.75800002 2.7814583e-39
0.015160017 0.039704774 0.75799996 6.8452393e-39
0.016603824 0.039704785 0.75800002 1.0980272e-38
0.01804764 0.039704785 0.75799996 8.302259e-39
0.019491447 0.03970477 0.75799996 5.7359532e-39
0.020935252 0.039704766 0.75800002 6.6532978e-39
0.02232001 0.0396 0.75600004 7.5745395e-39
0.023822876 0.03970477 0.75799996 8.2188397e-39
0.025266694 0.03970477 0.75799996 8.9581634e-39
0.026816189 0.039861917 0.76100004 8.1219343e-39
0.028340014 0.039966676 0.76300001 7.3857958e-39
0.02994954 0.040176198 0.76700002 7.8410076e-39
0.031451426 0.040228572 0.76800001 8.3941926e-39
0.032914292 0.040228575 0.76800001 9.0406466e-39
0.03437715 0.040228568 0.76800001 9.7796368e-39
0.035933349 0.040333338 0.76999998 9.5927386e-39
0.037400026 0.040333342 0.76999998 9.5026813e-39
-0.02140476 0.042071436 0.77500004 3.7818874e-39
-0.019877134 0.041962877 0.77300006 2.8545389e-39
-0.018380947 0.041908577 0.77200007 1.9383503e-39
-0.016866654 0.0418 0.77000004 1.2915698e-39
-0.01533998 0.041637149 0.76699996 6.4907724e-40
-0.013879031 0.041637141 0.76700002 5.5724035e-40
-0.012385692 0.041528594 0.76499999 3.7500569e-40
-0.010899987 0.041420024 0.76299995 5.5903681e-40
-0.0094466545 0.041420013 0.76300001 6.5195271e-40
-0.00799332 0.041420016 0.76300001 6.5195691e-40
-0.0065399925 0.041420013 0.76300001 5.6120602e-40
-0.005086659 0.041420009 0.76300001 5.6193189e-40
-0.0036238078 0.041311435 0.76100004 4.7081807e-40
-0.0021657012 0.041148577 0.75799996 7.4704763e-40
-0.00071999477 0.041040018 0.75600004 9.3143889e-40
0.0007200148 0.041040003 0.75600004 7.4705323e-40
0.0021600095 0.041040003 0.75600004 5.6373957e-40
0.0036000144 0.041040026 0.75599998 6.5664986e-40
0.005040009 0.041040018 0.75600004 7.4883849e-40
0.0064800037 0.041040018 0.75600004 9.3250527e-40
0.0079200091 0.041040018 0.75599998 1.116535e-39
0.0093600182 0.041040011 0.75600004 1.4853133e-39
0.010828589 0.041148581 0.75799996 1.7575814e-39
0.012272406 0.041148584 0.75799996 2.5765577e-39
0.013716213 0.041148588 0.75799996 3.3364188e-39
0.015160019 0.041148584 0.75800002 7.6850375e-39
0.016603837 0.041148592 0.75799996 1.1994805e-38
0.018047642 0.041148588 0.75799996 1.1533075e-38
0.019542871 0.04125715 0.76000005 1.1060637e-38
0.0209905 0.041257158 0.75999999 7.1931565e-39
0.022379057 0.041148569 0.75799996 3.3350007e-39
0.023917157 0.041311435 0.76100004 5.269297e-39
0.025366671 0.041311435 0.76100004 7.104558e-39
0.026886674 0.041420005 0.76300001 6.182959e-39
0.028414315 0.041528594 0.76499999 5.1716756e-39
0.029988581 0.04169143 0.76800001 6.4541285e-39
0.03145143 0.041691434 0.76800001 7.6537353e-39
0.033000026 0.041800015 0.76999998 7.9335536e-39
0.034466699 0.041800011 0.76999998 8.1201028e-39
0.03593336 0.041800011 0.76999998 8.2062084e-39
0.037497163 0.041908588 0.77200001 8.3041325e-39
-0.021404753 0.043547634 0.77500004 6.095354e-39
-0.019928558 0.043547638 0.77500004 4.7073539e-39
-0.018380936 0.043379065 0.77200001 3.3234007e-39
-0.01686666 0.043266665 0.77000004 2.120606e-39
-0.015359998 0.043154281 0.76800001 1.0153444e-39
-0.013897137 0.043154292 0.76800001 6.4907164e-40
-0.012385702 0.042985734 0.76500005 3.7500709e-40
-0.010928551 0.042985741 0.76499999 4.6828312e-40
-0.0094466601 0.042873345 0.76300001 6.5267438e-40
-0.0079933256 0.042873342 0.76300001 5.6084028e-40
-0.0065399916 0.042873338 0.76300001 5.6192489e-40
-0.0050866641 0.042873349 0.76300001 5.6229063e-40
-0.0036238064 0.042760968 0.76100004 6.5449046e-40
-0.0021714135 0.042704776 0.75999999 7.4776509e-40
-0.00072188163 0.042592403 0.75799996 8.4067819e-40
0.0007219254 0.042592391 0.75799996 7.4776649e-40
0.0021600151 0.042480014 0.75599998 7.4704763e-40
0.0036095486 0.042592391 0.75799996 8.3995652e-40
0.0050400048 0.042480007 0.75600004 8.4066978e-40
0.0064799995 0.042479992 0.75600004 8.3958938e-40
0.0079200193 0.042479999 0.75599998 9.3214514e-40
0.0093600135 0.042480022 0.75600004 1.3002074e-39
0.010828588 0.042592399 0.75799996 1.6678969e-39
0.012240013 0.042480022 0.75599998 2.3096566e-39
0.013680008 0.042480014 0.75600004 2.9658482e-39
0.015160017 0.042592391 0.75799996 7.029639e-39
0.016603824 0.042592388 0.75799996 1.0984654e-38
0.018095249 0.042704768 0.76000005 8.3077815e-39
0.019542877 0.042704768 0.76000005 5.6380557e-39
0.020990482 0.042704761 0.76000005 3.9691933e-39
0.022467621 0.042760976 0.76100004 2.3028883e-39
0.02391715 0.042760972 0.76100004 3.2327283e-39
0.025433348 0.042873345 0.76300001 4.1503602e-39
0.026957171 0.042985737 0.76499999 3.6944057e-39
0.028488588 0.043098107 0.76700002 3.3270511e-39
0.029988583 0.043154292 0.76800001 5.6240007e-39
0.031451445 0.043154288 0.76800001 7.924546e-39
0.033000018 0.043266669 0.76999998 9.9571168e-39
0.034466691 0.04326668 0.76999998 1.2071144e-38
0.035933349 0.043266676 0.76999998 1.2073313e-38
-0.022939986 0.045140013 0.77700001 8.492467e-39
-0.021404754 0.045023818 0.77500004 8.2994298e-39
-0.01992856 0.045023818 0.77500004 6.464833e-39
-0.018380946 0.044849545 0.77200001 4.6123445e-39
-0.01686665 0.044733342 0.76999998 2.9438856e-39
-0.015359998 0.04461715 0.76800001 1.2911998e-39
-0.013897137 0.04461715 0.76800001 8.3273422e-40
-0.012385696 0.044442888 0.76499999 3.7608328e-40
-0.01092855 0.044442877 0.76499999 4.7044672e-40
-0.0094466582 0.044326689 0.76300001 5.6120322e-40
-0.0079933237 0.044326667 0.76300001 5.6048435e-40
-0.0065399967 0.044326682 0.76300001 4.6973066e-40
-0.005086652 0.044326689 0.76299995 6.5484359e-40
-0.0036333185 0.044326685 0.76299995 7.4704202e-40
-0.0021714186 0.044152372 0.76000005 7.4812242e-40
-0.00072378991 0.04415239 0.76000005 6.5592959e-40
0.0007219133 0.044036198 0.75800002 8.3924466e-40
0.0021657299 0.044036217 0.75799996 9.3107595e-40
0.0036095364 0.044036195 0.75799996 9.3107175e-40
0.005053353 0.04403621 0.75799996 9.3034868e-40
0.00648002 0.043920018 0.75599998 8.3599505e-40
0.0079200147 0.04392001 0.75600004 6.5484079e-40
0.0093600098 0.043920003 0.75600004 1.1150987e-39
0.01082859 0.044036198 0.75799996 1.5731901e-39
0.012240009 0.043920025 0.75600004 2.1198885e-39
0.013752403 0.044152383 0.76000005 2.5995782e-39
0.015200022 0.044152379 0.76000005 6.2996101e-39
0.016647635 0.044152394 0.75999999 9.9590044e-39
0.018095255 0.044152372 0.76000005 5.0755437e-39
0.019568585 0.044210497 0.76100004 1.0995849e-40
0.021018114 0.04421049 0.76100004 7.4203518e-40
0.022438116 0.04415239 0.75999999 1.2966397e-39
0.023917142 0.04421049 0.76100004 1.2087559e-39
0.02543336 0.044326693 0.76299995 1.1179937e-39
0.026957162 0.044442862 0.76500005 1.3009459e-39
0.028414311 0.044442866 0.76499999 1.3920457e-39
0.029988583 0.04461715 0.76800001 4.7906597e-39
0.031451445 0.044617146 0.76800001 8.1143281e-39
0.033000026 0.044733334 0.76999998 1.208228e-38
0.034466684 0.044733331 0.76999998 1.5939013e-38
0.036026672 0.044849534 0.77200001 1.5941167e-38
0.037545741 0.044907637 0.77300006 1.5941166e-38
0.039018124 0.044907637 0.773 1.6035868e-38
-0.022939987 0.046620004 0.77700001 5.8159646e-39
-0.021404749 0.046500016 0.77500004 4.4301659e-39
-0.019928565 0.046500001 0.7750001 3.6954665e-39
-0.018380936 0.046320017 0.77200001 2.8696407e-39
-0.016910465 0.046320014 0.77200001 1.9387062e-39
-0.015399984 0.046200007 0.76999998 1.107519e-39
-0.013897139 0.046080008 0.76800001 7.4196652e-40
-0.012418087 0.046020005 0.76700002 4.6863765e-40
-0.010928555 0.045900013 0.76500005 5.608571e-40
-0.0094714062 0.045900021 0.76499999 6.5232826e-40
-0.0079933293 0.045780014 0.76300001 6.5196392e-40
-0.0065399855 0.045780018 0.76299995 6.5232686e-40
-0.0050866511 0.045780018 0.76299995 5.6193049e-40
-0.0036333241 0.045780014 0.76300001 5.6265216e-40
-0.002171413 0.045600008 0.76000005 6.5556666e-40
-0.00072378479 0.045600008 0.75999999 8.3888312e-40
0.00072192587 0.045480005 0.75799996 8.3924606e-40
0.0021657324 0.045480013 0.75800002 9.3071722e-40
0.0036095495 0.045480017 0.75799996 1.0225457e-39
0.0050533409 0.045480013 0.75799996 1.0218198e-39
0.0064800153 0.045360006 0.75600004 8.3742297e-40
0.0079409648 0.045480009 0.75799996 5.6228222e-40
0.0093847718 0.045480002 0.75799996 9.3106614e-40
0.01085715 0.045599997 0.76000005 1.3898765e-39
0.012272395 0.045480017 0.75799996 1.574974e-39
0.013752397 0.045599993 0.76000005 1.7683924e-39
0.015200011 0.045600012 0.76000005 3.4283075e-39
0.016647629 0.045600004 0.76000005 5.1702518e-39
0.018119063 0.045660015 0.76100004 2.8642583e-39
0.019568577 0.045660015 0.76100004 5.5583344e-40
0.021018106 0.045660008 0.76100004 8.3673773e-40
0.022467623 0.045660023 0.76100004 1.1161945e-39
0.023917152 0.045660019 0.76100004 1.3013046e-39
0.025433347 0.045780025 0.76299995 1.3935002e-39
0.026886672 0.045780018 0.76300001 1.1154826e-39
0.028414305 0.045900006 0.76499999 8.331392e-40
0.029871445 0.045900017 0.76500005 4.4243869e-39
0.031451441 0.046080004 0.76800001 8.0264512e-39
0.033000018 0.046200007 0.77000004 1.2173071e-38
0.034466691 0.0462 0.77000004 1.6313906e-38
0.035933353 0.046199996 0.77000004 1.6221339e-38
0.037400026 0.046200007 0.77000004 1.603982e-38
0.039119054 0.046500009 0.77500004 1.6129502e-38
-0.022999052 0.048223805 0.77900004 3.1361956e-39
-0.021459991 0.048100013 0.77700001 5.6300949e-40
-0.019928567 0.0479762 0.77500004 8.3277766e-40
-0.018380944 0.047790475 0.77200001 1.1125679e-39
-0.016866652 0.047666684 0.76999998 1.0171255e-39
-0.015399985 0.047666676 0.76999998 8.3381322e-40
-0.01389714 0.047542851 0.76800001 7.4305252e-40
-0.012418082 0.047480948 0.76700002 5.5975568e-40
-0.010928552 0.047357164 0.76499999 6.5232265e-40
-0.0094466629 0.047233347 0.76300001 7.4379942e-40
-0.0079933181 0.047233351 0.76299995 7.4308335e-40
-0.0065399911 0.047233347 0.76299995 7.4452108e-40
-0.0050866571 0.047233347 0.76300001 5.6085289e-40
-0.0036333227 0.047233339 0.76300001 2.87503e-40
-0.0021714084 0.047047626 0.76000005 6.5628412e-40
-0.00072380435 0.047047623 0.76000005 9.3108015e-40
0.00072191376 0.046923816 0.75800002 9.3144589e-40
0.0021714435 0.047047615 0.76000005 9.3107875e-40
0.0036190574 0.047047623 0.76000005 1.0229072e-39
0.005040016 0.04680001 0.75600004 1.1136595e-39
0.0064800112 0.04680001 0.75600004 8.3778871e-40
0.0079200063 0.046800002 0.75600004 4.7153133e-40
0.0093847848 0.046923824 0.75799996 8.4067398e-40
0.010857156 0.047047619 0.76000005 1.1147315e-39
0.012304785 0.047047619 0.76000005 1.0210898e-39
0.013752388 0.04704763 0.76000005 8.4211452e-40
0.015200017 0.047047615 0.75999999 5.6664026e-40
0.016647635 0.047047623 0.76000005 2.9290221e-40
0.018119058 0.047109537 0.76100004 6.5519672e-40
0.019568589 0.047109544 0.76100004 9.2962981e-40
0.021018103 0.047109544 0.76100004 9.3250247e-40
0.02246763 0.047109544 0.76100004 9.3358708e-40
0.023980021 0.047233339 0.76299995 1.3023738e-39
0.025433347 0.047233351 0.76300001 1.6693613e-39
0.026886674 0.047233347 0.76300001 1.0257995e-39
0.028414309 0.047357157 0.76499999 2.8535762e-40
0.029949546 0.047480948 0.76700002 4.139203e-39
0.031451434 0.047542848 0.76800001 7.9313941e-39
0.032914296 0.047542848 0.76800001 1.2360694e-38
0.034466684 0.047666669 0.77000004 1.6680893e-38
0.035840001 0.047542863 0.76800001 1.6406447e-38
0.037302863 0.047542859 0.76800001 1.6130228e-38
0.039119076 0.047976203 0.77500004 1.6221708e-38
-0.024482854 0.049707621 0.77900004 6.6513725e-39
-0.022999035 0.049707633 0.77900004 3.5092381e-39
-0.021459993 0.049580004 0.77700001 3.7321763e-40
-0.019979987 0.049580019 0.77700001 7.4165403e-40
-0.018380944 0.049260955 0.77200007 1.1075457e-39
-0.01686665 0.049133334 0.77000004 9.2529279e-40
-0.015399985 0.049133342 0.77000004 8.3453629e-40
-0.013897141 0.049005713 0.76800001 6.508681e-40
-0.012418079 0.04894191 0.76700002 5.5903681e-40
-0.010928558 0.048814304 0.76500005 6.5159398e-40
-0.009471409 0.048814312 0.76499999 7.4307775e-40
-0.0080142636 0.048814304 0.76499999 7.4380082e-40
-0.0065571251 0.0488143 0.76499999 8.3743278e-40
-0.0050866562 0.048686672 0.76300001 7.4595742e-40
-0.0036333217 0.048686683 0.76300001 6.5520372e-40
-0.0021742852 0.048559062 0.76100004 9.3071441e-40
-0.00072475523 0.048559062 0.76100004 1.2062307e-39
0.00072382996 0.048495244 0.75999999 1.0225681e-39
0.0021714482 0.048495248 0.76000005 9.3072422e-40
0.0036190627 0.048495237 0.75999999 9.3071441e-40
0.0050666812 0.048495244 0.76000005 1.0214709e-39
0.0064971489 0.048367631 0.75800002 9.2998994e-40
0.0079409657 0.048367634 0.75799996 8.3852159e-40
0.0093847727 0.048367627 0.75799996 1.0232772e-39
0.010857161 0.048495237 0.76000005 1.2072887e-39
0.012304779 0.048495244 0.76000005 1.0228806e-39
0.013752393 0.048495248 0.76000005 8.3921383e-40
0.015200012 0.048495241 0.76000005 5.6478774e-40
0.016669527 0.048559058 0.76100004 3.8076783e-40
0.018119056 0.048559058 0.76100004 6.5592539e-40
0.019568572 0.048559055 0.76100004 1.0232562e-39
0.021018101 0.048559066 0.7610001 1.1154378e-39
0.022467626 0.048559073 0.76100004 1.209081e-39
0.023980007 0.048686683 0.76300001 1.4860364e-39
0.025433347 0.048686679 0.76300001 1.76191e-39
0.026957165 0.048814315 0.76499999 1.0250807e-39
0.028414303 0.048814308 0.76499999 2.8572055e-40
0.029949542 0.04894191 0.76700002 4.146026e-39
0.031451434 0.049005706 0.76800001 7.9331934e-39
0.033000018 0.049133338 0.77000004 1.235747e-38
0.034466691 0.049133338 0.77000004 1.6775244e-38
0.035933349 0.049133331 0.77000004 1.6497568e-38
0.037400011 0.049133345 0.77000004 1.6219918e-38
0.039119061 0.049452387 0.77500004 1.6404673e-38
0.04059526 0.049452387 0.77500004 1.6495786e-38
-0.024514269 0.051257141 0.78000003 7.5693827e-39
-0.022999046 0.051191434 0.77900004 3.8762256e-39
-0.021459986 0.05106001 0.77699995 1.9528355e-40
-0.019979989 0.05106001 0.77700001 6.5339605e-40
-0.018380942 0.050731447 0.77200001 1.0185716e-39
-0.016910464 0.050731443 0.77200001 9.2600465e-40
-0.015399984 0.050599996 0.77000004 8.3453209e-40
-0.01393332 0.050600007 0.77000004 6.508639e-40
-0.012418075 0.050402869 0.76699996 4.6755725e-40
-0.010957125 0.050402861 0.76700002 5.6011581e-40
-0.009471409 0.050271448 0.76499999 6.5195691e-40
-0.0080142701 0.050271444 0.76499999 7.4379801e-40
-0.0065571195 0.050271448 0.76499999 8.3707124e-40
-0.0050999741 0.050271459 0.76499999 9.2962841e-40
-0.0036333282 0.050140008 0.76300001 9.2963401e-40
-0.0021742759 0.050008599 0.76100004 1.204786e-39
-0.00072476128 0.050008591 0.76100004 1.3891814e-39
0.00072382484 0.049942866 0.76000005 1.205516e-39
0.0021714389 0.049942873 0.76000005 9.3072142e-40
0.0036190578 0.049942862 0.76000005 9.3143188e-40
0.0050666868 0.049942866 0.76000005 8.3887331e-40
0.0064971619 0.049811438 0.75799996 1.0221814e-39
0.0079409685 0.04981143 0.75800002 1.1143812e-39
0.0094095375 0.049942851 0.76000005 1.2069398e-39
0.010857167 0.04994287 0.76000005 1.2991228e-39
0.01230477 0.049942866 0.76000005 1.1150819e-39
0.013752399 0.04994287 0.76000005 8.3957817e-40
0.015200018 0.049942859 0.76000005 6.5591138e-40
0.016669521 0.050008576 0.76100004 3.804133e-40
0.01811905 0.050008588 0.76100004 7.4776369e-40
0.019568581 0.050008584 0.76100004 1.1147399e-39
0.021018095 0.05000858 0.76100004 1.2973291e-39
0.022467624 0.05000858 0.76100004 1.3924016e-39
0.023980008 0.050140016 0.76300001 1.6700689e-39
0.02543335 0.050140005 0.76300001 1.8537441e-39
0.02695716 0.050271451 0.76499999 1.1183483e-39
0.028488578 0.050402865 0.76700002 2.8392409e-40
0.029949538 0.050402869 0.76700002 4.1338277e-39
0.031451434 0.050468579 0.76800001 7.931041e-39
0.033000011 0.050599989 0.77000004 1.2361058e-38
0.034466684 0.050600003 0.77000004 1.677381e-38
0.035933353 0.0506 0.77000004 1.6588688e-38
0.037400015 0.050599996 0.77000004 1.6313913e-38
0.039119072 0.050928582 0.77500004 1.6589432e-38
0.040700018 0.051060013 0.77700001 1.6774168e-38
-0.024514265 0.052742869 0.77999997 7.3939766e-39
-0.02299905 0.052675236 0.77900004 3.7904913e-39
-0.021459978 0.052540015 0.77699995 2.8568132e-40
-0.019979989 0.052540001 0.77700001 6.5302751e-40
-0.018404739 0.052269548 0.773 1.0196408e-39
-0.016910471 0.052201904 0.77200001 9.2671651e-40
-0.015439993 0.052201916 0.77200007 8.3488522e-40
-0.01393332 0.052066673 0.77000004 6.5121843e-40
-0.012434278 0.051931441 0.76800001 5.5903121e-40
-0.010971424 0.051931441 0.76800001 5.6047314e-40
-0.0094961766 0.051863816 0.76700002 5.6119481e-40
-0.0080142654 0.051728595 0.76499999 6.5303451e-40
-0.0065571191 0.051728584 0.76499999 8.3706984e-40
-0.0050999806 0.051728599 0.76499999 8.3707545e-40
-0.0036333166 0.051593348 0.76299995 9.2819908e-40
-0.0021742815 0.051458117 0.76100004 1.021115e-39
-0.00072475197 0.051458109 0.76100004 1.2055076e-39
0.00072476268 0.051458109 0.76100004 1.0225569e-39
0.0021714442 0.051390488 0.75999999 8.3888312e-40
0.0036190632 0.051390484 0.76000005 7.4776089e-40
0.0050666919 0.051390488 0.75999999 6.5591838e-40
0.0065142959 0.051390477 0.76000005 6.5555264e-40
0.0079409666 0.051255256 0.75799996 7.4703221e-40
0.0093847737 0.051255248 0.75799996 1.1154532e-39
0.010857157 0.05139048 0.75999999 1.4835098e-39
0.012304775 0.051390484 0.76000005 1.2072817e-39
0.013752394 0.051390477 0.76000005 9.317794e-40
0.015200024 0.051390484 0.76000005 6.5627571e-40
0.016647628 0.051390473 0.76000005 4.72253e-40
0.01811906 0.051458105 0.76100004 8.3960059e-40
0.019568574 0.051458102 0.76100004 1.1143896e-39
0.021018103 0.051458098 0.76100004 1.2076586e-39
0.022467619 0.051458113 0.76100004 1.3016493e-39
0.02391715 0.051458105 0.76100004 1.5782348e-39
0.025433352 0.051593348 0.76300001 1.8544616e-39
0.026886689 0.051593356 0.76299995 1.1161931e-39
0.028414316 0.051728599 0.76499999 3.7288692e-40
0.029949538 0.051863819 0.76700002 4.1478154e-39
0.031451434 0.051931437 0.76800001 8.0300512e-39
0.032914296 0.051931437 0.76800001 1.2084836e-38
0.034466688 0.052066684 0.76999998 1.6226745e-38
0.035933349 0.052066669 0.77000004 1.594871e-38
0.037400033 0.052066676 0.76999998 1.5582104e-38
0.038866684 0.052066661 0.77000004 1.5581046e-38
0.040333353 0.052066684 0.76999998 1.5676093e-38
-0.022999041 0.054159053 0.77900004 3.697588e-39
-0.021459982 0.054020025 0.77699995 2.8855538e-40
-0.019979982 0.054020021 0.77699995 6.5302891e-40
-0.018404752 0.053741924 0.77300006 1.0196422e-39
-0.016910462 0.053672396 0.77200001 9.2636198e-40
-0.015439991 0.053672392 0.77200001 8.3524675e-40
-0.013933321 0.053533342 0.77000004 7.4377419e-40
-0.012434278 0.053394295 0.76800001 5.6011021e-40
-0.010928549 0.053185742 0.76499999 4.6935791e-40
-0.0094714109 0.053185735 0.76499999 3.7752662e-40
-0.0080142645 0.053185731 0.76499999 5.6120322e-40
-0.0065571261 0.053185727 0.76500005 7.4523855e-40
-0.0050999764 0.053185731 0.76499999 8.3636219e-40
-0.003642838 0.053185724 0.76499999 8.3708385e-40
-0.0021742727 0.052907631 0.76100004 9.2964102e-40
-0.00072475756 0.052907642 0.76100004 1.0232744e-39
0.00072477199 0.052907642 0.76100004 8.4068379e-40
0.0021743013 0.052907635 0.76100004 6.5629113e-40
0.0036190685 0.052838102 0.76000005 5.6481016e-40
0.0050666723 0.052838095 0.76000005 4.7296766e-40
0.0064971629 0.052699059 0.75799996 3.8076642e-40
0.0079409685 0.052699052 0.75800002 2.885722e-40
0.0094095487 0.052838095 0.76000005 9.3249827e-40
0.010857152 0.052838102 0.76000005 1.5749866e-39
0.012304781 0.052838106 0.76000005 1.2987627e-39
0.013752399 0.052838095 0.76000005 9.3214234e-40
0.015200013 0.052838102 0.76000005 7.4883288e-40
0.016669523 0.052907638 0.76100004 5.6480876e-40
0.018119054 0.052907638 0.76100004 8.3996212e-40
0.019568583 0.052907631 0.76100004 1.1154686e-39
0.021018097 0.052907631 0.76100004 1.1165434e-39
0.022467628 0.052907631 0.76100004 1.1179825e-39
0.02398001 0.053046685 0.76300001 1.4864049e-39
0.025500018 0.053185731 0.76499999 1.8537469e-39
0.026957171 0.053185724 0.76499999 1.1183455e-39
0.028488599 0.053324774 0.76700002 3.7970004e-40
0.029988587 0.05339428 0.76800001 4.2378531e-39
0.031451434 0.053394295 0.76800001 8.0268086e-39
0.033000022 0.053533342 0.76999998 1.1904371e-38
0.034466691 0.053533349 0.76999998 1.566711e-38
0.035933353 0.053533349 0.76999998 1.5305862e-38
0.037400022 0.053533345 0.76999998 1.4838079e-38
0.038866699 0.053533353 0.76999998 1.4659434e-38
-0.022999043 0.055642854 0.77900004 3.5106955e-39
-0.021515232 0.055642866 0.77900004 7.4235608e-40
-0.019979984 0.055500012 0.77699995 8.356251e-40
-0.018404746 0.055214312 0.773 9.2852699e-40
-0.016910471 0.055142868 0.77200001 9.2744098e-40
-0.01543999 0.055142868 0.77200001 8.3524955e-40
-0.013933321 0.054999996 0.77000004 7.4305813e-40
-0.01243428 0.054857153 0.76800001 6.5158837e-40
-0.010928556 0.054642878 0.76499999 5.6083608e-40
-0.009471409 0.054642875 0.76500005 4.6900619e-40
-0.0080142608 0.054642878 0.76499999 5.6156475e-40
-0.0065571219 0.054642875 0.76499999 6.5376459e-40
-0.0050999834 0.054642867 0.76499999 6.5377019e-40
-0.003642845 0.05464286 0.76500005 7.4560989e-40
-0.002174289 0.054357152 0.76100004 8.3888312e-40
-0.00072475988 0.054357149 0.7610001 1.0247121e-39
0.00072475569 0.054357145 0.7610001 8.4068799e-40
0.0021742953 0.054357156 0.76100004 6.5665266e-40
0.0036190739 0.054285727 0.75999999 5.6552903e-40
0.0050666779 0.054285713 0.76000005 5.6552202e-40
0.0065143062 0.05428572 0.75999999 5.6408009e-40
0.0079409676 0.054142877 0.75799996 6.5555545e-40
0.0094095394 0.054285731 0.75999999 1.0232548e-39
0.010857157 0.054285705 0.76000005 1.3905996e-39
0.012304775 0.054285713 0.76000005 1.1158133e-39
0.013752405 0.05428572 0.76000005 9.3250527e-40
0.015200009 0.054285705 0.76000005 8.4067258e-40
0.016647637 0.054285713 0.76000005 7.4920142e-40
0.018119048 0.05435716 0.76100004 1.1158301e-39
0.019568577 0.054357152 0.76100004 1.4831721e-39
0.021018106 0.054357152 0.76100004 1.391694e-39
0.022526672 0.054500014 0.76300001 1.301299e-39
0.023980023 0.054500021 0.76299995 1.5775272e-39
0.025500027 0.054642871 0.76500005 1.8533896e-39
0.026957177 0.054642875 0.76499999 1.6689983e-39
0.028488595 0.054785732 0.76699996 1.4835168e-39
0.029988583 0.054857153 0.76800001 4.0620686e-39
0.031451434 0.054857153 0.76800001 6.7403801e-39
0.033000026 0.055000007 0.76999998 7.4747194e-39
0.034466684 0.055000003 0.76999998 8.3033983e-39
0.03593336 0.055000015 0.76999998 7.9303236e-39
0.037497155 0.055142865 0.77200001 7.5604606e-39
0.038967624 0.055142861 0.77200001 7.5593746e-39
-0.022999045 0.057126671 0.7790001 3.2272997e-39
-0.021459986 0.056980006 0.77699995 1.1114903e-39
-0.019928563 0.056833345 0.77500004 1.0189318e-39
-0.018404752 0.056686684 0.77300006 8.3525516e-40
-0.016910467 0.056613334 0.77200007 8.3524955e-40
-0.015439987 0.056613341 0.77200001 8.3452929e-40
-0.01393332 0.056466676 0.76999998 7.4197493e-40
-0.01243429 0.05632 0.76800001 6.5158417e-40
-0.010957127 0.056246672 0.76700002 5.6119481e-40
-0.0094714053 0.056100022 0.76499999 4.6900619e-40
-0.0080142654 0.056100018 0.76499999 4.6972926e-40
-0.0065571279 0.056100011 0.76499999 4.7045093e-40
-0.0050999792 0.056100018 0.76499999 5.6336682e-40
-0.0036428324 0.056100011 0.76499999 6.5484779e-40
-0.0021742801 0.055806685 0.76100004 8.3888172e-40
-0.00072476501 0.055806685 0.76100004 9.3179762e-40
0.00072476408 0.055806682 0.76100004 7.488497e-40
0.0021742794 0.055806682 0.76100004 5.651745e-40
0.0036190539 0.055733331 0.76000005 6.5808199e-40
0.0050666831 0.055733349 0.76000005 6.5628132e-40
