# .PCD v0.7 - Point Cloud Data file format
VERSION 0.7
FIELDS x y z rgb
SIZE 4 4 4 4
TYPE F F F F
COUNT 1 1 1 1
WIDTH 956
HEIGHT 1
VIEWPOINT 0 0 0 1 0 0 0
POINTS 956
DATA ascii
-0.010742882 -0.0035809651 0.75200003 9.2390831e-40
-0.0093104979 -0.0035809726 0.75200003 8.3816285e-40
-0.0078781145 -0.0035809726 0.75200009 5.6264796e-40
-0.0064457534 -0.0035809651 0.75200003 3.7970144e-40
-0.0050000325 -0.0035714433 0.75000012 3.8006577e-40
-0.0035714554 -0.0035714433 0.75000012 3.8150211e-40
-0.0021371813 -0.0035619289 0.74800009 4.73339e-40
-0.00071241241 -0.0035619289 0.74800009 5.6445703e-40
0.0007123556 -0.0035619363 0.74800009 6.5629253e-40
0.0021371003 -0.0035619214 0.74800003 6.559338e-40
0.0035618674 -0.0035619363 0.74800003 8.3996352e-40
0.0049866345 -0.0035619214 0.74800003 9.3287662e-40
0.0064028129 -0.0035571754 0.7470001 9.3287662e-40
0.0078256959 -0.0035571605 0.74700004 9.3287381e-40
0.0092609385 -0.0035619214 0.74800003 9.3215355e-40
0.010685707 -0.0035619289 0.74800003 8.3959358e-40
0.012061852 -0.0035476387 0.74500012 7.4810981e-40
0.01348095 -0.0035476312 0.74500006 6.5664286e-40
0.014999965 -0.0035714507 0.75000012 5.6373957e-40
0.016428541 -0.0035714433 0.75000012 5.6194591e-40
0.017857116 -0.0035714433 0.75000012 2.3107664e-39
0.019285692 -0.0035714358 0.75000012 4.0714559e-39
0.020714246 -0.0035714433 0.75000012 8.9498887e-39
0.022201871 -0.00358098 0.75200009 1.3806327e-38
0.023665709 -0.0035857335 0.75300008 1.2683053e-38
0.025099957 -0.0035857335 0.75300008 1.1482015e-38
0.026604738 -0.0035952479 0.75500005 9.3723087e-39
0.028079962 -0.0036000237 0.7560001 7.2643649e-39
0.029715192 -0.0036238357 0.7610001 6.7172657e-39
0.031246599 -0.003633365 0.76300007 6.1691422e-39
0.032785717 -0.0036428943 0.7650001 5.8025359e-39
0.034242827 -0.0036428794 0.7650001 5.4362715e-39
0.035699982 -0.0036428869 0.7650001 5.2526005e-39
-0.026957175 -0.0021857321 0.7650001 9.9502e-41
-0.025500041 -0.0021857396 0.7650001 7.3841843e-40
-0.024042908 -0.002185747 0.7650001 1.3023724e-39
-0.022526711 -0.0021800324 0.76300007 6.2783762e-39
-0.021073384 -0.0021800101 0.76300007 1.1242155e-38
-0.019620059 -0.002180025 0.76300007 1.1347261e-38
-0.018119065 -0.0021743029 0.7610001 1.1426181e-38
-0.016560052 -0.0021600276 0.7560001 9.7745753e-39
-0.015100041 -0.0021571517 0.75500005 8.0178262e-39
-0.013625741 -0.0021514446 0.75300008 4.0451871e-39
-0.012175269 -0.002148591 0.75200003 9.4852492e-41
-0.010742884 -0.0021485835 0.75200009 4.6401476e-40
-0.009310523 -0.0021485835 0.75200009 8.3637199e-40
-0.0078781405 -0.0021485984 0.75200009 6.5520372e-40
-0.0064457553 -0.0021485835 0.75200009 3.8006157e-40
-0.0050000139 -0.0021428764 0.75000012 3.7934971e-40
-0.0035714395 -0.0021428615 0.75000012 3.8078604e-40
-0.0021371646 -0.0021371618 0.74800003 3.8186364e-40
-0.00071239751 -0.0021371543 0.74800003 3.8114477e-40
0.00071236957 -0.0021371618 0.74800003 5.6445703e-40
0.0021370994 -0.0021371767 0.74800009 6.5629253e-40
0.0035618665 -0.0021371618 0.74800009 8.4032366e-40
0.0049866335 -0.0021371692 0.74800009 9.3216055e-40
0.0064028185 -0.0021343008 0.74700004 9.3252209e-40
0.0078256624 -0.0021343008 0.7470001 9.3180182e-40
0.0092485454 -0.0021343082 0.74700004 9.3144029e-40
0.010685683 -0.0021371543 0.74800003 9.3143328e-40
0.01211045 -0.0021371618 0.74800003 7.4703922e-40
0.013517117 -0.0021342933 0.74700004 5.6373256e-40
0.014959986 -0.0021371618 0.74800003 3.7934971e-40
0.016428558 -0.0021428764 0.75000012 1.013349e-40
0.01785711 -0.0021428689 0.75000012 2.5791024e-39
0.019285686 -0.0021428689 0.75000012 4.990171e-39
0.020769497 -0.0021485835 0.75200003 9.6020628e-39
0.022201883 -0.002148591 0.75200003 1.4170429e-38
0.023728531 -0.0021571591 0.75500005 1.2950646e-38
0.025166644 -0.0021571591 0.75500005 1.166603e-38
0.026639957 -0.0021600202 0.7560001 9.5552538e-39
0.02815425 -0.0021657199 0.75800002 7.3572808e-39
0.02967619 -0.0021714419 0.76000011 6.8109117e-39
0.031246621 -0.0021800399 0.76300007 6.1691506e-39
0.032700006 -0.0021800101 0.76300007 5.8940127e-39
0.034242827 -0.0021857545 0.7650001 5.5273882e-39
0.035699975 -0.0021857321 0.7650001 5.3429983e-39
-0.026957177 -0.00072861463 0.7650001 2.8174087e-40
-0.025500005 -0.00072859973 0.7650001 2.95467e-39
-0.024042893 -0.00072859228 0.7650001 5.6258448e-39
-0.022526693 -0.00072669238 0.76300007 8.0272514e-39
-0.021073366 -0.00072668493 0.76300007 1.0522218e-38
-0.01962004 -0.00072669983 0.76300007 1.0511438e-38
-0.018119087 -0.00072478503 0.7610001 1.0610462e-38
-0.016560042 -0.00072001666 0.7560001 1.0977101e-38
-0.015100054 -0.00071907043 0.75500011 1.1346504e-38
-0.01362576 -0.00071717054 0.75300008 7.647882e-39
-0.012191451 -0.00071716309 0.75300008 3.8597225e-39
-0.010742912 -0.00071619451 0.75200009 2.2088906e-39
-0.0093104886 -0.00071620196 0.75200003 4.6903141e-40
-0.0078781052 -0.00071620941 0.75200003 4.7081807e-40
-0.0064457422 -0.00071620196 0.75200003 4.7297467e-40
-0.0050133597 -0.00071621686 0.75200009 4.7190267e-40
-0.0035809753 -0.00071619451 0.75200009 4.7190407e-40
-0.0021428689 -0.00071430206 0.75000006 4.7226421e-40
-0.00071239844 -0.00071240216 0.74800003 5.640983e-40
0.00071236771 -0.00071240962 0.74800003 6.559324e-40
0.0021371348 -0.00071239471 0.74800003 8.3924606e-40
0.0035618814 -0.00071240216 0.74800003 9.3108296e-40
0.0049866484 -0.00071239471 0.74800003 1.0225639e-39
0.0064028082 -0.00071144849 0.7470001 1.2065965e-39
0.0078256922 -0.00071144849 0.74700004 1.3899059e-39
0.0092485361 -0.00071144849 0.7470001 1.0236373e-39
0.010685681 -0.00071240962 0.74800009 6.5664986e-40
0.012094264 -0.00071144849 0.74700004 5.6445003e-40
0.013517108 -0.00071144104 0.7470001 5.640941e-40
0.014959985 -0.00071240962 0.74800009 2.8571915e-40
0.016428553 -0.00071430206 0.75000012 9.846644e-41
0.017857127 -0.00071429461 0.75000012 2.7721047e-39
0.019285703 -0.00071430206 0.75000012 5.4529372e-39
0.020769494 -0.00071620941 0.75200009 9.5916582e-39
0.022290438 -0.00071906298 0.75500005 1.3802717e-38
0.023728553 -0.00071907043 0.75500005 1.2681935e-38
0.025199989 -0.00072001666 0.75600004 1.1665298e-38
0.026639968 -0.00072002411 0.75600004 9.556679e-39
0.028079968 -0.00072003901 0.7560001 7.4509141e-39
0.029676136 -0.00072383881 0.76000011 6.5332696e-39
0.03124664 -0.00072669238 0.76300007 5.6185048e-39
0.032785706 -0.00072859228 0.7650001 5.250088e-39
0.034242816 -0.00072859973 0.7650001 4.884897e-39
0.035699975 -0.00072860718 0.7650001 4.6994296e-39
-0.028154321 0.00072188675 0.75800008 1.2011412e-39
-0.026886711 0.00072664768 0.76300007 3.7931608e-40
-0.025500029 0.00072854757 0.7650001 5.1727279e-39
-0.024042895 0.00072854012 0.7650001 9.8595766e-39
-0.022526696 0.00072664022 0.76300007 9.7738494e-39
-0.021073371 0.00072664768 0.76300007 9.6701379e-39
-0.019620046 0.00072664022 0.76300007 9.7490226e-39
-0.018119071 0.00072475523 0.76100004 9.7645125e-39
-0.016560048 0.0007199645 0.7560001 1.2267813e-38
-0.015100054 0.00071903318 0.75500011 1.4651554e-38
-0.013625713 0.00071712583 0.75300002 1.1157105e-38
-0.01217526 0.00071617961 0.75200003 7.6443942e-39
-0.010742876 0.00071617961 0.75200009 3.8583296e-39
-0.0093105147 0.00071617961 0.75200003 9.7733561e-41
-0.0078781312 0.00071617216 0.75200009 3.771833e-40
-0.006428618 0.00071426481 0.75000012 5.6337103e-40
-0.0050000409 0.00071427226 0.75000012 5.6337803e-40
-0.0035714647 0.00071426481 0.75000012 5.6338084e-40
-0.0021371907 0.00071235746 0.74800003 6.5521914e-40
-0.00071242265 0.00071237236 0.74800003 6.5557647e-40
0.00071234442 0.00071235746 0.74800003 8.3960339e-40
0.0021371134 0.00071235001 0.74800003 9.3108155e-40
0.0035618804 0.00071235746 0.74800003 1.0225597e-39
0.0049866484 0.00071235746 0.74800003 1.0225667e-39
0.0064028371 0.00071141124 0.74700004 1.4810337e-39
0.0078256587 0.00071140379 0.74700004 1.8498037e-39
0.0092485417 0.00071141124 0.74700004 1.1158301e-39
0.010671386 0.00071141124 0.74700004 3.815007e-40
0.01209423 0.00071141124 0.7470001 4.7369073e-40
0.013535194 0.00071236491 0.74800009 4.7153553e-40
0.014959961 0.00071235746 0.74800009 2.8499328e-40
0.016428569 0.00071427971 0.75000012 1.0277263e-40
0.017857123 0.00071427971 0.75000006 3.0501335e-39
0.019337108 0.00071617216 0.75200009 5.9106811e-39
0.020769469 0.00071617961 0.75200009 9.6928123e-39
0.022231435 0.00071713328 0.75300002 1.3342816e-38
0.023728516 0.00071902573 0.75500011 1.2492164e-38
0.025199961 0.00071997195 0.7560001 1.1574176e-38
0.026639961 0.00071997941 0.7560001 9.5552384e-39
0.028079977 0.00071997941 0.75600004 7.4451632e-39
0.029676165 0.00072378665 0.76000011 6.2530828e-39
0.03124661 0.00072664768 0.76300007 5.0628101e-39
0.032785702 0.00072854757 0.7650001 4.694752e-39
0.034242816 0.00072854012 0.7650001 4.2362906e-39
0.035699964 0.00072854757 0.76500005 4.1448124e-39
0.037059952 0.00072664022 0.76300001 4.0551223e-39
-0.028080042 0.0021599755 0.7560001 8.3234747e-40
-0.026886715 0.0021799803 0.76300007 3.717813e-40
-0.025433388 0.0021799728 0.76300007 5.1713084e-39
-0.023980023 0.0021799803 0.76300001 9.9574826e-39
-0.022526698 0.0021799877 0.76300007 9.4796174e-39
-0.021073373 0.0021799803 0.76300007 9.0031647e-39
-0.019568587 0.0021742657 0.7610001 9.4640798e-39
-0.018095277 0.0021714121 0.76000005 9.920145e-39
-0.016560039 0.0021599755 0.7560001 1.1793919e-38
-0.01510003 0.0021571144 0.75500011 1.3640693e-38
-0.013661938 0.0021571219 0.75500005 1.1802925e-38
-0.012191462 0.0021513999 0.75300008 1.004974e-38
-0.010742901 0.0021485612 0.75200009 5.0661676e-39
-0.0093105184 0.0021485537 0.75200009 9.4136428e-41
-0.0078781331 0.0021485388 0.75200009 2.842646e-40
-0.0064457338 0.0021485686 0.75200003 5.6372696e-40
-0.005000025 0.0021428466 0.75000012 5.6373537e-40
-0.0035714703 0.0021428391 0.75000012 6.5521633e-40
-0.0021371543 0.0021371245 0.74800003 6.5522054e-40
-0.00071242452 0.0021371171 0.74800009 6.5521773e-40
0.00071234349 0.0021371022 0.74800009 7.4705043e-40
0.0021371124 0.0021371245 0.74800009 9.3072282e-40
0.0035618795 0.0021371096 0.74800009 9.3036549e-40
0.0049866242 0.0021371245 0.74800003 8.3925867e-40
0.0064028036 0.0021342561 0.7470001 1.1151337e-39
0.0078361603 0.002137132 0.74800003 1.3917052e-39
0.0092609273 0.002137132 0.74800003 9.3215775e-40
0.010685696 0.0021371171 0.74800003 5.651717e-40
0.012110463 0.0021371245 0.74800003 5.6480876e-40
0.01353523 0.0021371171 0.74800003 5.6372556e-40
0.014999948 0.0021428391 0.75000012 3.771777e-40
0.016428525 0.0021428466 0.75000012 9.9902771e-41
0.017857101 0.0021428317 0.75000012 2.7710495e-39
0.01933712 0.0021485612 0.75200003 5.4472003e-39
0.020769503 0.0021485612 0.75200009 9.4987297e-39
0.022231419 0.0021514073 0.75300002 1.3618677e-38
0.023759954 0.002159968 0.7560001 1.2497902e-38
0.025199993 0.0021599829 0.75600004 1.1298308e-38
0.026710456 0.002165705 0.75800002 1.0012617e-38
0.028154241 0.0021656975 0.75800002 8.6332737e-39
0.029676158 0.0021713972 0.76000011 8.2770342e-39
0.031246629 0.0021799728 0.76300007 7.908616e-39
0.032699931 0.0021799877 0.76300007 7.730326e-39
0.03424285 0.0021856874 0.7650001 7.6291635e-39
0.035699964 0.0021856874 0.7650001 7.2704311e-39
0.03705997 0.0021799803 0.76300007 6.9931309e-39
-0.029480996 0.003595233 0.75500005 4.6428661e-40
-0.028080031 0.0035999715 0.75600004 4.6429642e-40
-0.026640031 0.0035999864 0.7560001 3.8182721e-40
-0.025500041 0.0036428273 0.7650001 5.1827822e-39
-0.024042906 0.0036428198 0.7650001 9.9488786e-39
-0.022585735 0.0036428347 0.7650001 9.0922032e-39
-0.021073379 0.0036333129 0.76300007 8.266383e-39
-0.019568609 0.0036237836 0.7610001 9.1840008e-39
-0.018119093 0.0036237761 0.7610001 1.0035709e-38
-0.016560044 0.0035999715 0.7560001 1.1346594e-38
-0.015120028 0.0035999864 0.75600004 1.2632305e-38
-0.013661975 0.0035952106 0.75500011 1.2547658e-38
-0.012191441 0.0035857037 0.75300002 1.2346703e-38
-0.010757172 0.0035856888 0.75300008 6.2618199e-39
-0.0093105054 0.0035809427 0.75200003 1.0095515e-40
-0.0078781219 0.0035809353 0.75200003 2.8535061e-40
-0.0064457376 0.0035809427 0.75200009 4.711796e-40
-0.0050000306 0.0035714135 0.75000012 5.6445563e-40
-0.0035714544 0.0035714209 0.75000012 6.5522194e-40
-0.0021371534 0.0035618767 0.74800003 6.5451288e-40
-0.00071241055 0.0035618991 0.74800003 5.6302911e-40
0.00071235839 0.0035618842 0.74800003 7.466931e-40
0.0021371255 0.0035618842 0.74800003 9.2964242e-40
0.0035714041 0.0035714209 0.75000012 8.3636919e-40
0.0049866224 0.0035618767 0.74800009 6.5450027e-40
0.0064113913 0.0035618842 0.74800009 8.396146e-40
0.0078361584 0.0035618767 0.74800009 9.3180182e-40
0.0092609255 0.0035618767 0.74800009 8.3924185e-40
0.010685694 0.0035618767 0.74800009 6.55931e-40
0.012110439 0.0035618842 0.74800003 6.559338e-40
0.013535208 0.0035618916 0.74800003 6.548534e-40
0.014999966 0.0035714135 0.75000012 3.7683158e-40
0.016428541 0.0035714135 0.75000012 1.0062304e-40
0.017857095 0.0035714209 0.75000012 2.486209e-39
0.019337118 0.0035809427 0.75200009 4.8965446e-39
0.020797117 0.0035856888 0.75300008 9.4190967e-39
0.022290448 0.0035952181 0.75500011 1.3895626e-38
0.02372854 0.0035952255 0.75500005 1.2491097e-38
0.025199965 0.0035999715 0.7560001 1.1021738e-38
0.026639942 0.0035999864 0.7560001 1.0471093e-38
0.028154254 0.0036094934 0.75800008 9.8407894e-39
0.029676143 0.0036190227 0.76000011 1.031323e-38
0.031246651 0.0036333054 0.76300007 1.0685959e-38
0.032785695 0.0036428273 0.7650001 1.0872507e-38
0.034242805 0.0036428273 0.7650001 1.0960753e-38
0.035839964 0.0036571249 0.76800007 1.0406153e-38
0.037302826 0.0036571324 0.76800007 9.8551345e-39
-0.029480971 0.0050333217 0.75500005 1.0145877e-39
-0.028080039 0.0050399676 0.7560001 6.4869189e-40
-0.026640022 0.0050399825 0.75600004 2.8353593e-40
-0.025566697 0.005113326 0.76700002 5.0808966e-39
-0.024042893 0.0050999746 0.7650001 9.8688869e-39
-0.022585759 0.0050999671 0.7650001 9.203427e-39
-0.02107336 0.0050866455 0.76300007 8.541584e-39
-0.019568592 0.0050733164 0.76100004 8.9286744e-39
-0.018095279 0.0050666481 0.76000011 9.3243955e-39
-0.016560035 0.0050399825 0.7560001 9.6838832e-39
-0.015120034 0.0050399676 0.7560001 1.0147733e-38
-0.013661951 0.0050333142 0.75500011 1.1072912e-38
-0.012223858 0.0050333142 0.75500005 1.1894701e-38
-0.010757152 0.0050199926 0.75300002 5.9913315e-39
-0.0093228826 0.0050199777 0.75300008 9.9165688e-41
-0.0078781238 0.0050133094 0.75200009 2.8392549e-40
-0.0064457627 0.0050133243 0.75200009 3.7863225e-40
-0.0050133793 0.0050133094 0.75200009 5.630221e-40
-0.0035809567 0.0050133243 0.75200003 7.4706304e-40
-0.0021428838 0.0049999878 0.75000012 7.4671552e-40
-0.00071430672 0.0049999878 0.75000012 6.5487021e-40
0.00071426854 0.0049999878 0.75000012 7.466945e-40
0.0021428457 0.0049999952 0.75000012 9.2928089e-40
0.0035713986 0.0049999952 0.75000012 8.3707685e-40
0.0049999738 0.0049999878 0.75000012 7.4524836e-40
0.00642855 0.0049999878 0.75000012 8.3888452e-40
0.0078571253 0.0049999803 0.75000012 9.3143468e-40
0.0092609031 0.0049866438 0.74800009 8.3923625e-40
0.01068567 0.0049866363 0.74800009 7.4705043e-40
0.012110437 0.0049866512 0.74800009 7.477763e-40
0.013571408 0.0049999878 0.75000012 7.4705743e-40
0.014999961 0.0049999878 0.75000012 6.5378421e-40
0.016428536 0.0049999878 0.75000012 5.6195432e-40
0.017857112 0.0049999878 0.75000012 1.942721e-39
0.019337129 0.0050133318 0.75200003 3.3353398e-39
0.0207971 0.0050199777 0.75300008 8.3981499e-39
0.022290448 0.0050333142 0.75500005 1.3440762e-38
0.023728527 0.0050333142 0.75500011 1.2222775e-38
0.025199974 0.0050399899 0.75600004 1.1020676e-38
0.026639974 0.005039975 0.7560001 1.0754509e-38
0.028154243 0.0050533265 0.75800008 1.0588053e-38
0.029676173 0.0050666481 0.76000011 1.234799e-38
0.031164762 0.0050733089 0.7610001 1.4108302e-38
0.032699969 0.0050866455 0.76300007 1.4287322e-38
0.034153271 0.0050866455 0.76300007 1.4475297e-38
0.035839986 0.0051199719 0.76800007 1.4101496e-38
0.037302852 0.0051199794 0.76800007 1.3829926e-38
-0.025566682 0.0065742731 0.76700008 4.9876332e-39
-0.024042893 0.0065571144 0.7650001 9.7702551e-39
-0.022585722 0.0065571144 0.7650001 9.3107217e-39
-0.021073364 0.0065399781 0.76300007 8.8418388e-39
-0.019568592 0.0065228418 0.7610001 8.664248e-39
-0.018095287 0.0065142661 0.76000011 8.4759443e-39
-0.016603831 0.0064971372 0.75800002 8.1003823e-39
-0.015120024 0.0064799711 0.75600004 7.661682e-39
-0.013680046 0.0064799711 0.7560001 9.6099872e-39
-0.012223837 0.0064714178 0.75500005 1.1429411e-38
-0.010757146 0.0064542666 0.75300008 5.8019095e-39
-0.0093228994 0.0064542592 0.75300008 9.9158682e-41
-0.0078885918 0.0064542666 0.75300008 1.8921873e-40
-0.0064457282 0.0064456984 0.75200003 2.8536182e-40
-0.0050133672 0.0064456984 0.75200003 5.6194731e-40
-0.0035809819 0.0064457059 0.75200009 8.38537e-40
-0.0021428671 0.0064285621 0.75000012 8.3890274e-40
-0.00071428996 0.0064285621 0.75000012 7.4742037e-40
0.00071426295 0.0064285547 0.75000012 8.3925026e-40
0.0021428401 0.0064285696 0.75000012 8.3852579e-40
0.0035714153 0.0064285547 0.75000012 8.3780132e-40
0.0049999915 0.0064285696 0.75000012 8.3816426e-40
0.0064285444 0.0064285621 0.75000012 9.3108015e-40
0.0078571197 0.0064285547 0.75000012 9.3107875e-40
0.0092609394 0.0064114034 0.74800003 8.3924045e-40
0.010714271 0.0064285547 0.75000012 7.4776929e-40
0.012142824 0.006428577 0.75000012 7.4920843e-40
0.0135714 0.0064285621 0.75000012 7.4705463e-40
0.014999977 0.0064285547 0.75000012 8.3709506e-40
0.016428553 0.0064285547 0.75000012 9.2857323e-40
0.01790474 0.0064457059 0.75200003 1.2948418e-39
0.019337125 0.0064457059 0.75200009 1.680147e-39
0.020797143 0.0064542741 0.75300002 7.3047391e-39
0.022290412 0.0064714029 0.75500011 1.2887975e-38
0.023728525 0.0064714104 0.75500011 1.1939052e-38
0.025199968 0.0064799711 0.7560001 1.0931016e-38
0.026639948 0.0064799637 0.7560001 1.1121508e-38
0.028154232 0.0064971298 0.75800008 1.1328167e-38
0.029676165 0.0065142587 0.76000011 1.4473921e-38
0.031164717 0.0065228418 0.7610001 1.7507717e-38
0.032614257 0.0065228343 0.7610001 1.7785373e-38
0.034153294 0.0065399781 0.76300007 1.7967977e-38
0.035606634 0.0065399781 0.76300001 1.7878304e-38
0.037059981 0.0065399855 0.76300001 1.7692469e-38
0.038513284 0.0065399781 0.76300001 1.7787522e-38
-0.02556669 0.0080352277 0.76700008 3.8784382e-39
-0.02404288 0.0080142692 0.7650001 6.7407809e-39
-0.022585746 0.0080142617 0.7650001 8.2112405e-39
-0.021073369 0.0079933107 0.76300001 9.676965e-39
-0.019568615 0.0079723597 0.7610001 8.842496e-39
-0.018095279 0.0079618916 0.76000011 8.0895405e-39
-0.016603842 0.0079409406 0.75800002 8.9336603e-39
-0.015160056 0.0079409406 0.75800008 9.8599592e-39
-0.013680014 0.0079199746 0.75600004 1.0517566e-38
-0.012240035 0.0079199821 0.7560001 1.1155685e-38
-0.010785758 0.0079094991 0.75500011 7.4603168e-39
-0.0093476651 0.007909514 0.75500011 3.8575911e-39
-0.0078886086 0.0078885555 0.75300008 3.7790525e-39
-0.006454302 0.0078885481 0.75300008 3.7772631e-39
-0.0050200168 0.007888563 0.75300002 2.1245871e-39
-0.0035809875 0.00787808 0.75200009 5.6338644e-40
-0.0021428727 0.0078571364 0.75000006 7.4813643e-40
-0.00071429648 0.0078571364 0.75000006 8.4068799e-40
0.00071428064 0.0078571439 0.75000012 8.396104e-40
0.002142855 0.007857129 0.75000012 8.3888873e-40
0.0035714097 0.007857129 0.75000006 8.3888312e-40
0.0049999859 0.0078571364 0.75000012 8.3888592e-40
0.0064285612 0.007857129 0.75000012 1.0225583e-39
0.0078571374 0.0078571439 0.75000012 1.2980648e-39
0.0092856903 0.007857129 0.75000006 1.1147511e-39
0.010714266 0.007857129 0.75000012 9.3144029e-40
0.012142842 0.0078571364 0.75000012 7.4741196e-40
0.013571417 0.007857129 0.75000012 5.6230604e-40
0.014999993 0.0078571215 0.75000012 5.6194591e-40
0.016472355 0.0078780875 0.75200009 5.6158577e-40
0.017904716 0.00787808 0.75200009 7.4704763e-40
0.019362841 0.0078885555 0.75300008 1.0301211e-39
0.02085232 0.0079095066 0.75500011 6.9269981e-39
0.022290433 0.007909514 0.75500011 1.2806203e-38
0.023759963 0.0079199746 0.7560001 1.1770122e-38
0.02519998 0.0079199821 0.75600004 1.0837054e-38
0.026639977 0.0079199746 0.7560001 1.1127979e-38
0.028154245 0.0079409331 0.75800008 1.1425431e-38
0.029676147 0.0079618916 0.76000011 1.410379e-38
0.031164754 0.0079723671 0.7610001 1.6775968e-38
0.032699961 0.0079933181 0.76300007 1.6865273e-38
0.034153312 0.0079933032 0.76300007 1.6956772e-38
0.035606612 0.0079933181 0.76300007 1.6864958e-38
0.03706 0.0079933107 0.76300007 1.6865663e-38
-0.025500037 0.0094713941 0.7650001 2.7684977e-39
-0.024042904 0.0094714016 0.7650001 3.610828e-39
-0.022585731 0.009471409 0.7650001 7.116029e-39
-0.021073349 0.0094466433 0.76300007 1.0507822e-38
-0.019620046 0.0094466433 0.76300001 9.1227319e-39
-0.018095272 0.009409517 0.76000011 7.6544625e-39
-0.016603854 0.0093847588 0.75800002 9.8685814e-39
-0.015160045 0.0093847364 0.75800008 1.2079826e-38
-0.013680044 0.0093599781 0.7560001 1.1535649e-38
-0.012240043 0.0093599707 0.7560001 1.0882352e-38
-0.010800026 0.0093599781 0.75600004 9.210257e-39
-0.0093476409 0.0093476027 0.75500005 7.5615438e-39
-0.0079095876 0.0093475953 0.75500011 7.3832763e-39
-0.0064714709 0.0093476027 0.75500011 7.1873901e-39
-0.0050333785 0.0093475953 0.75500011 3.7790567e-39
-0.0035857419 0.0093228295 0.75300008 2.8859181e-40
-0.0021485919 0.0093104616 0.75200009 6.570114e-40
-0.0007143179 0.0092856884 0.75000012 9.3216055e-40
0.00071423687 0.0092857108 0.75000012 8.3960899e-40
0.0021428121 0.0092856959 0.75000012 7.4741056e-40
0.0035713883 0.0092857033 0.75000012 7.4776649e-40
0.0049999636 0.0092856884 0.75000012 7.4705463e-40
0.0064285556 0.0092856959 0.75000006 1.205879e-39
0.0078571318 0.0092857108 0.75000006 1.5739314e-39
0.009285707 0.0092857033 0.75000006 1.2987767e-39
0.010714283 0.0092857108 0.75000012 1.023273e-39
0.012142858 0.0092857033 0.75000012 7.4633296e-40
0.013571411 0.0092857033 0.75000006 3.7898677e-40
0.015039966 0.0093104541 0.75200009 2.8678974e-40
0.016472328 0.0093104616 0.75200009 1.9459692e-40
0.017928578 0.009322837 0.75300002 2.8464155e-40
0.019414227 0.0093476027 0.75500011 2.9793567e-40
0.020852342 0.0093475878 0.75500011 6.4749714e-39
0.022290435 0.0093476102 0.75500005 1.2618939e-38
0.02375997 0.0093599856 0.75600004 1.1681172e-38
0.025199972 0.0093599781 0.7560001 1.0756357e-38
0.026710447 0.0093847513 0.75800002 1.1128e-38
0.028154235 0.0093847439 0.75800008 1.1518344e-38
0.029676178 0.0094095021 0.76000011 1.3738943e-38
0.031164756 0.0094218776 0.7610001 1.5944417e-38
0.032699984 0.0094466433 0.76300007 1.594261e-38
0.034153286 0.0094466433 0.76300007 1.5852224e-38
0.035606634 0.0094466433 0.76300007 1.5942996e-38
-0.027133349 0.010999985 0.77000004 1.5728118e-39
-0.025566701 0.010957129 0.76700008 2.1259856e-39
-0.024042889 0.010928534 0.7650001 2.5927343e-39
-0.022585755 0.010928549 0.7650001 4.8054322e-39
-0.021128623 0.010928541 0.7650001 7.1160388e-39
-0.019620027 0.010899968 0.76300007 7.4790858e-39
-0.01811908 0.010871403 0.7610001 7.8525473e-39
-0.016647648 0.010857128 0.76000011 9.3251648e-39
-0.015160054 0.010828562 0.75800008 1.0809946e-38
-0.01371623 0.010828562 0.75800002 1.08024e-38
-0.012240032 0.010799982 0.7560001 1.0892419e-38
-0.010800054 0.010799974 0.7560001 1.0243448e-38
-0.0093600154 0.010799974 0.75600004 9.6106654e-39
-0.0079200389 0.010799989 0.75600004 8.6786982e-39
-0.0064800382 0.010799974 0.7560001 7.7484658e-39
-0.0050333571 0.010785691 0.75500005 4.0581449e-39
-0.0035857204 0.010757133 0.75300002 2.8714988e-40
-0.002148618 0.010742843 0.75200009 6.5628552e-40
-0.00071623269 0.010742828 0.75200009 1.0232744e-39
0.00071425363 0.010714263 0.75000012 8.3960759e-40
0.0021428298 0.010714278 0.75000012 6.5557507e-40
0.0035713827 0.010714278 0.75000012 7.4704903e-40
0.004999958 0.010714263 0.75000012 7.4705884e-40
0.0064456807 0.010742843 0.75200009 9.314571e-40
0.0078780651 0.010742851 0.75200009 1.2076684e-39
0.0092856856 0.010714278 0.75000012 1.0239834e-39
0.010714239 0.010714278 0.75000012 8.4067398e-40
0.012175194 0.010742836 0.75200009 7.4812382e-40
0.013607595 0.010742851 0.75200003 5.6336963e-40
0.015039979 0.010742843 0.75200003 4.7116839e-40
0.016472364 0.010742843 0.75200009 4.7153413e-40
0.017928559 0.010757118 0.75300002 3.8006437e-40
0.01941425 0.010785691 0.75500011 2.8967362e-40
0.020852342 0.010785691 0.75500005 5.6347949e-39
0.022319965 0.010799982 0.75600004 1.0973071e-38
0.023759967 0.010799974 0.7560001 1.1143448e-38
0.025199983 0.010799989 0.75600004 1.1307388e-38
0.026710436 0.010828555 0.75800002 1.0676377e-38
0.028154245 0.010828555 0.75800008 1.0056512e-38
0.029676169 0.01085712 0.76000011 1.3001729e-38
0.031164709 0.010871395 0.7610001 1.5942613e-38
0.032699954 0.010899983 0.76300001 1.5942608e-38
0.034153301 0.010899968 0.76300007 1.5943331e-38
0.035606604 0.010899983 0.76300007 1.6127723e-38
-0.027133327 0.012466654 0.77000004 1.2958676e-39
-0.025566708 0.012418076 0.76700008 1.4784736e-39
-0.024042891 0.012385681 0.7650001 1.5721167e-39
-0.022644788 0.012418084 0.76700008 2.5801688e-39
-0.021128608 0.012385689 0.7650001 3.6086672e-39
-0.019671476 0.012385689 0.7650001 5.8249301e-39
-0.018119065 0.012320928 0.76100004 8.0272093e-39
-0.016647678 0.012304746 0.76000011 8.769805e-39
-0.015160065 0.012272365 0.75800008 9.5037743e-39
-0.013716219 0.012272365 0.75800002 1.0154518e-38
-0.012240062 0.01223997 0.7560001 1.0791617e-38
-0.010800023 0.012239985 0.75600004 1.1168277e-38
-0.0093600424 0.012239978 0.7560001 1.1530252e-38
-0.0079200435 0.01223997 0.7560001 9.9726502e-39
-0.006480027 0.01223997 0.75600004 8.2915895e-39
-0.0050400263 0.012239978 0.7560001 4.3257621e-39
-0.0035952767 0.01222378 0.75500011 2.8823448e-40
-0.0021514697 0.012191415 0.75300008 6.580932e-40
-0.00071622059 0.012175225 0.75200003 1.0243562e-39
0.00071616285 0.012175232 0.75200009 8.3996492e-40
0.0021428233 0.012142844 0.75000012 5.6337523e-40
0.0035713995 0.012142844 0.75000012 6.5448626e-40
0.0049999747 0.012142852 0.75000012 7.4776649e-40
0.006445678 0.012175217 0.75200009 7.488539e-40
0.007878039 0.012175232 0.75200009 7.4920422e-40
0.0093104606 0.012175232 0.75200003 7.4883849e-40
0.010742845 0.012175217 0.75200009 6.5736312e-40
0.012175206 0.012175232 0.75200003 7.4955875e-40
0.013607591 0.012175225 0.75200009 7.4812102e-40
0.015059952 0.012191407 0.75300008 7.4704202e-40
0.016494259 0.0121914 0.75300008 6.5629113e-40
0.017928567 0.012191415 0.75300008 4.7442221e-40
0.019414252 0.012223795 0.75500005 2.0036046e-40
0.02087996 0.012239978 0.7560001 4.8011148e-39
0.022319959 0.012239963 0.7560001 9.3161223e-39
0.023759976 0.012239978 0.75600004 1.0612224e-38
0.025199978 0.012239978 0.7560001 1.1785249e-38
0.026710449 0.012272365 0.75800008 1.0121778e-38
0.028228523 0.012304746 0.76000011 8.486342e-39
0.029676154 0.012304753 0.76000005 1.2177006e-38
0.03124667 0.012353316 0.76300007 1.5850063e-38
0.032699972 0.012353308 0.76300007 1.5942255e-38
0.034153275 0.012353308 0.76300001 1.5943341e-38
-0.027133346 0.013933323 0.77000004 1.4788183e-39
-0.025566692 0.013879031 0.76700008 1.752185e-39
-0.024105774 0.013879023 0.76700008 2.025172e-39
-0.022644794 0.013879038 0.76700008 4.2396173e-39
-0.021128612 0.013842836 0.7650001 6.5355215e-39
-0.01967144 0.013842829 0.7650001 7.4686013e-39
-0.018119086 0.013770454 0.7610001 8.4669732e-39
-0.016647672 0.013752364 0.76000011 6.6320766e-39
-0.015160052 0.013716176 0.75800008 4.8821981e-39
-0.01368003 0.013679981 0.75600004 5.1688421e-39
-0.012240029 0.013679989 0.7560001 5.4411256e-39
-0.010800051 0.013679974 0.7560001 5.6301818e-39
-0.0093600117 0.013679974 0.75600004 5.818166e-39
-0.0079200352 0.013679989 0.7560001 4.9834041e-39
-0.0064800344 0.013679981 0.7560001 4.2321764e-39
-0.0050400179 0.013679974 0.75600004 2.398653e-39
-0.0035952758 0.013661899 0.75500011 5.6518291e-40
-0.0021514259 0.013625704 0.75300002 7.4922384e-40
-0.00071717985 0.013625689 0.75300008 1.0243618e-39
0.00071616098 0.013607606 0.75200009 8.3924466e-40
0.0021485211 0.013607599 0.75200009 7.4596302e-40
0.0035809446 0.013607599 0.75200003 7.4702801e-40
0.005013329 0.013607606 0.75200003 7.4847415e-40
0.006445691 0.013607606 0.75200003 8.4103832e-40
0.0078780726 0.013607614 0.75200009 9.3358988e-40
0.0093104346 0.013607606 0.75200003 8.4103411e-40
0.010742819 0.013607599 0.75200009 8.4139285e-40
0.012175203 0.013607614 0.75200009 7.4919862e-40
0.013607564 0.013607599 0.75200009 7.4884269e-40
0.015059996 0.013625696 0.75300002 6.559324e-40
0.016494241 0.013625696 0.75300008 5.6482417e-40
0.017928548 0.013625696 0.75300008 6.5595202e-40
0.019414235 0.013661876 0.75500011 8.3784056e-40
0.020852329 0.013661884 0.75500011 3.4218013e-39
0.022319969 0.013679981 0.75600004 6.0104396e-39
0.023759969 0.013679974 0.7560001 8.0344316e-39
0.025199987 0.013679989 0.75600004 1.0047938e-38
0.0267809 0.013752364 0.76000011 8.9300687e-39
0.028228553 0.013752371 0.76000011 7.8348853e-39
0.029715212 0.013770461 0.7610001 1.0698313e-38
0.031246644 0.013806649 0.76300001 1.3460192e-38
0.032699991 0.013806641 0.76300007 1.3275442e-38
0.034153294 0.013806641 0.76300007 1.3001745e-38
0.035606641 0.013806641 0.76300007 1.3184353e-38
-0.025666691 0.015399985 0.77000004 2.0255349e-39
-0.024137186 0.015359975 0.76800007 2.40402e-39
-0.02267432 0.015359983 0.76800007 6.0006935e-39
-0.021183858 0.015339978 0.76700008 9.4958304e-39
-0.019671462 0.015299968 0.7650001 9.2307341e-39
-0.018166691 0.015259981 0.76300007 8.8418444e-39
-0.016669568 0.015219964 0.7610001 4.500441e-39
-0.015160065 0.015159987 0.75800008 1.9891151e-40
-0.013680035 0.015119985 0.7560001 1.9714728e-40
-0.012240057 0.015119977 0.7560001 1.0494044e-40
-0.010800017 0.01511997 0.7560001 9.2372193e-41
-0.0093600396 0.015119985 0.7560001 1.0135031e-40
-0.0079200407 0.015119962 0.7560001 9.3826741e-41
-0.0064800242 0.015119977 0.75600004 9.9912581e-41
-0.0050400458 0.015119985 0.7560001 4.7082928e-40
-0.0035952739 0.015099987 0.75500005 8.3997053e-40
-0.0021514427 0.015059978 0.75300002 9.325305e-40
-0.00071717426 0.015059985 0.75300008 9.3216336e-40
0.00071617309 0.015039988 0.75200003 9.3072142e-40
0.0021485575 0.01503998 0.75200009 8.3887752e-40
0.0035809185 0.01503998 0.75200003 8.3851178e-40
0.0050133029 0.015039988 0.75200009 7.4847975e-40
0.0064456873 0.01503998 0.75200009 9.3287802e-40
0.0078780483 0.015039988 0.75200009 1.1161861e-39
0.0093104308 0.01503998 0.75200009 1.023989e-39
0.010742854 0.015039988 0.75200003 9.3215775e-40
0.012175216 0.015039995 0.75200003 8.4032786e-40
0.0136076 0.015039988 0.75200003 6.5557507e-40
0.015059979 0.015059993 0.75300002 5.6229903e-40
0.016494285 0.015059978 0.75300002 3.7971265e-40
0.017928554 0.01505997 0.75300008 9.3073543e-40
0.019414237 0.015099972 0.75500011 1.4835463e-39
0.020852353 0.015099987 0.75500011 2.1292702e-39
0.022319963 0.015119962 0.7560001 2.6950234e-39
0.02375998 0.015119985 0.75600004 5.4673397e-39
0.025266642 0.015159987 0.75800002 8.2040462e-39
0.026780928 0.015199974 0.76000011 7.7153896e-39
0.028228521 0.015199982 0.76000011 7.1909593e-39
0.029715212 0.015219972 0.7610001 9.137119e-39
0.031246662 0.015259981 0.76300001 1.1067098e-38
0.032699965 0.015259974 0.76300001 1.0605051e-38
0.034153312 0.015259966 0.76300007 1.0055478e-38
-0.025666669 0.016866647 0.77000004 3.1383186e-39
-0.024137182 0.016822837 0.76800007 5.0751695e-39
-0.022733346 0.016866654 0.77000004 6.7404586e-39
-0.021183863 0.016800933 0.76700008 8.5014732e-39
-0.019671449 0.016757116 0.7650001 9.136068e-39
-0.018166695 0.016713314 0.76300007 9.7705984e-39
-0.016669553 0.016669512 0.7610001 7.0036281e-39
-0.015200039 0.016647607 0.76000011 4.3476168e-39
-0.013716226 0.016603798 0.75800002 4.8046839e-39
-0.012272442 0.01660379 0.75800008 5.2502001e-39
-0.010800047 0.016559973 0.7560001 2.6708833e-39
-0.0093600079 0.016559973 0.75600004 9.4478345e-41
-0.0079200314 0.016559981 0.7560001 2.821066e-40
-0.0064800531 0.016559988 0.7560001 5.619347e-40
-0.0050400142 0.016559973 0.75600004 7.4705743e-40
-0.0035952907 0.016538076 0.75500011 9.3216476e-40
-0.0021514371 0.016494274 0.75300008 1.0247177e-39
-0.00071715284 0.016494274 0.75300002 1.1169077e-39
0.00071711652 0.016494252 0.75300008 1.0239904e-39
0.0021514017 0.016494267 0.75300002 9.3143468e-40
0.0035857083 0.016494274 0.75300002 8.3959498e-40
0.0050199768 0.016494267 0.75300008 7.4920282e-40
0.006454261 0.016494267 0.75300008 1.0239989e-39
0.0078780819 0.016472369 0.75200003 1.3899017e-39
0.009310443 0.016472377 0.75200003 1.1147497e-39
0.010757123 0.016494267 0.75300008 9.3108856e-40
0.01219143 0.016494267 0.75300002 9.303795e-40
0.013625677 0.016494267 0.75300008 9.2929069e-40
0.015059983 0.016494259 0.75300008 6.5377159e-40
0.016494269 0.016494267 0.75300002 4.7046774e-40
0.017928537 0.016494267 0.75300008 1.0236401e-39
0.019414261 0.016538091 0.75500011 1.5771628e-39
0.020879958 0.016559966 0.7560001 1.6707906e-39
0.022319974 0.016559981 0.7560001 1.8570133e-39
0.02375995 0.016559981 0.7560001 4.7157925e-39
0.025266632 0.016603805 0.75800002 7.6562548e-39
0.026780898 0.016647592 0.76000011 7.9245194e-39
0.028228529 0.016647592 0.76000011 8.3008773e-39
0.029715206 0.016669497 0.76100004 9.4094067e-39
0.031246599 0.016713306 0.76300007 1.0606855e-38
0.032699984 0.016713306 0.76300001 1.0236644e-38
0.034153286 0.016713329 0.76300001 9.9614931e-39
-0.024262872 0.018380933 0.77200007 7.7459337e-39
-0.022733364 0.018333323 0.77000004 7.5673186e-39
-0.021211449 0.018285699 0.76800007 7.3836518e-39
-0.019671476 0.018214263 0.7650001 9.0406424e-39
-0.0181667 0.018166646 0.76300001 1.0598571e-38
-0.016669573 0.01811903 0.7610001 9.5800849e-39
-0.015200047 0.018095218 0.76000011 8.4870706e-39
-0.013716239 0.018047608 0.75800002 9.5152412e-39
-0.012272431 0.018047601 0.75800008 1.0409872e-38
-0.010828606 0.018047616 0.75800002 5.2458715e-39
-0.0093600359 0.017999984 0.7560001 9.9151675e-41
-0.0079200594 0.017999969 0.7560001 5.6193049e-40
-0.0064800205 0.017999969 0.75600004 9.2964242e-40
-0.0050400421 0.017999984 0.7560001 9.3108996e-40
-0.0035952888 0.017976172 0.75500011 9.3181163e-40
-0.0021486012 0.017904744 0.75200009 1.1165644e-39
-0.00071624015 0.017904744 0.75200009 1.2087502e-39
0.00071709882 0.017928548 0.75300008 1.1172665e-39
0.0021514064 0.017928556 0.75300008 1.0236317e-39
0.0035809269 0.017904758 0.75200003 9.3071582e-40
0.0050133113 0.017904751 0.75200003 7.4776509e-40
0.0064456938 0.017904736 0.75200009 1.2076642e-39
0.0078885527 0.017928563 0.75300002 1.5735699e-39
0.0093228202 0.017928548 0.75300008 1.2051489e-39
0.010757105 0.017928548 0.75300008 8.3817266e-40
0.012191413 0.017928556 0.75300002 1.0211318e-39
0.013625683 0.017928541 0.75300008 1.1129589e-39
0.015059967 0.017928548 0.75300008 8.3601046e-40
0.016538054 0.01797618 0.75500011 4.7082788e-40
0.017976169 0.017976165 0.75500011 1.0247177e-39
0.019414261 0.017976165 0.75500005 1.577167e-39
0.020879969 0.017999984 0.7560001 1.3030969e-39
0.022319945 0.017999969 0.7560001 9.379283e-40
0.023759983 0.017999984 0.75600004 4.0653784e-39
0.025266644 0.018047601 0.75800002 7.1009398e-39
0.026780903 0.018095218 0.76000011 8.2093907e-39
0.02826569 0.018119022 0.7610001 9.3146705e-39
0.029715206 0.01811903 0.7610001 9.684909e-39
0.031246614 0.018166639 0.76300007 1.0052611e-38
0.032700002 0.018166639 0.76300007 9.9568324e-39
0.034153305 0.018166654 0.76300001 9.775311e-39
-0.024199994 0.019799985 0.77000004 8.0282575e-39
-0.022733342 0.019799992 0.77000004 5.9049344e-39
-0.021183856 0.019722842 0.76700008 3.8745216e-39
-0.019671438 0.019671403 0.7650001 7.2003409e-39
-0.018166704 0.019619979 0.76300001 1.0604689e-38
-0.016669534 0.019568555 0.7610001 7.7423394e-39
-0.015200039 0.019542843 0.76000011 4.99521e-39
-0.013716226 0.019491419 0.75800008 8.4997104e-39
-0.012304815 0.019542851 0.76000011 1.1984731e-38
-0.010828615 0.019491427 0.75800002 5.9916832e-39
-0.0093848072 0.019491404 0.75800008 9.5932893e-41
-0.0079200258 0.019439973 0.7560001 5.5943058e-40
-0.0064800484 0.01943998 0.7560001 9.292921e-40
-0.0050400095 0.01943998 0.75600004 9.303753e-40
-0.0035952646 0.019414268 0.75500011 1.0229367e-39
-0.0021514501 0.019362822 0.75300008 1.0247387e-39
-0.00071716402 0.019362845 0.75300002 1.1172819e-39
0.00071714353 0.019362845 0.75300002 1.0247191e-39
0.0021513896 0.01936283 0.75300008 9.3144169e-40
0.0035809241 0.019337125 0.75200009 9.3071722e-40
0.0050132852 0.019337125 0.75200009 9.2999975e-40
0.0064456696 0.019337118 0.75200009 1.022194e-39
0.0078885583 0.019362837 0.75300008 1.2055062e-39
0.0093228426 0.019362837 0.75300002 9.2964102e-40
0.010757111 0.019362837 0.75300008 6.5378e-40
0.012191419 0.019362837 0.75300008 7.466945e-40
0.013625703 0.019362837 0.75300002 8.3852719e-40
0.015059972 0.019362837 0.75300008 6.5413453e-40
0.016538076 0.019414268 0.75500011 4.7047055e-40
0.017976131 0.019414261 0.75500011 1.024359e-39
0.019414224 0.019414276 0.75500011 1.5771712e-39
0.020879976 0.019439973 0.75600004 1.5775342e-39
0.022319978 0.019439988 0.7560001 1.5764594e-39
0.023822809 0.019491412 0.75800008 2.5913148e-39
0.025266634 0.019491412 0.75800002 3.6976483e-39
0.026780933 0.019542843 0.76000011 6.4609668e-39
0.028265668 0.019568548 0.7610001 9.2267979e-39
0.029715246 0.019568555 0.7610001 9.9618448e-39
0.031246636 0.019619972 0.76300007 1.060398e-38
0.032699976 0.019619979 0.76300001 1.0327402e-38
0.034153324 0.019619986 0.76300007 9.9589819e-39
-0.024200011 0.021266662 0.77000004 8.2965893e-39
-0.022733338 0.021266654 0.77000004 4.3333291e-39
-0.021211445 0.021211401 0.76800001 2.9795669e-40
-0.019671462 0.021128543 0.7650001 5.4651467e-39
-0.018166685 0.021073312 0.76300001 1.0504947e-38
-0.016669556 0.02101808 0.7610001 5.9734089e-39
-0.015200035 0.020990461 0.76000005 1.5061674e-39
-0.013716237 0.020935223 0.75800008 7.502793e-39
-0.012304785 0.020990469 0.76000011 1.3455537e-38
-0.010828604 0.020935223 0.75800008 6.823948e-39
-0.0093848184 0.020935215 0.75800008 1.0275301e-40
-0.0079200557 0.020879976 0.7560001 5.5907605e-40
-0.0064800167 0.020879969 0.75600004 9.2929069e-40
-0.0050400384 0.020879984 0.7560001 1.0222066e-39
-0.0035953037 0.02085235 0.75500011 1.0236485e-39
-0.0021514669 0.020797126 0.75300008 1.0250919e-39
-0.0007171575 0.020797126 0.75300008 9.3324796e-40
0.00071712676 0.020797133 0.75300002 8.4140406e-40
0.0021513952 0.020797119 0.75300008 7.4812242e-40
0.0035856804 0.020797126 0.75300008 9.2998714e-40
0.005019987 0.020797133 0.75300002 1.0218268e-39
0.0064457031 0.020769514 0.75200003 9.2927808e-40
0.0078780651 0.020769514 0.75200003 7.4632315e-40
0.0093228491 0.020797133 0.75300002 5.6265216e-40
0.010757094 0.020797126 0.75300008 3.7970284e-40
0.012191401 0.020797119 0.75300008 4.7261874e-40
0.013625707 0.020797133 0.75300008 4.7189567e-40
0.015059993 0.020797126 0.75300002 4.7153273e-40
0.016538039 0.020852357 0.75500011 3.8006577e-40
0.017976131 0.02085235 0.75500011 1.024359e-39
0.019414248 0.020852365 0.75500011 1.5768111e-39
0.02085234 0.020852365 0.75500005 1.853398e-39
0.02231995 0.020879976 0.7560001 2.1281884e-39
0.023822799 0.020935215 0.75800008 1.2094775e-39
0.025266623 0.020935223 0.75800002 2.0359045e-40
0.026780903 0.020990461 0.76000011 4.7092695e-39
0.028228536 0.020990454 0.76000011 9.1288625e-39
0.029715201 0.021018073 0.7610001 1.0148031e-38
0.031246606 0.021073304 0.76300007 1.1157506e-38
0.032699957 0.021073304 0.76300007 1.0697612e-38
0.034153298 0.021073319 0.76300001 1.014481e-38
0.035933297 0.021266662 0.77000004 1.0512516e-38
-0.02420003 0.022733308 0.77000004 7.8442278e-39
-0.022733357 0.022733316 0.77000004 5.2595776e-39
-0.021211481 0.022674263 0.76800007 2.7635231e-39
-0.019722888 0.022644743 0.76700008 6.4649283e-39
-0.018214313 0.02258569 0.7650001 1.0241265e-38
-0.016713362 0.022526652 0.76300001 6.2696994e-39
-0.015260038 0.022526652 0.76300007 2.3384154e-39
-0.013770482 0.022467613 0.7610001 7.6774943e-39
-0.012304815 0.022438079 0.76000011 1.3000308e-38
-0.010857182 0.022438087 0.76000011 6.5462947e-39
-0.0093848286 0.022379041 0.75800008 9.5582568e-41
-0.0079409825 0.022379041 0.75800008 6.5127308e-40
-0.006497195 0.022379033 0.75800008 1.1140379e-39
-0.0050400281 0.02231998 0.75600004 1.0229185e-39
-0.0036000274 0.022319965 0.7560001 1.0243604e-39
-0.0021571871 0.022290461 0.75500011 1.0250849e-39
-0.0007190723 0.022290461 0.75500011 1.0250793e-39
0.00071902107 0.022290461 0.75500005 8.4104252e-40
0.0021570977 0.022290461 0.75500011 7.4811401e-40
0.003595192 0.022290461 0.75500011 8.3921523e-40
0.0050199693 0.022231407 0.75300002 1.0228946e-39
0.0064542769 0.022231407 0.75300002 9.3106614e-40
0.0078885462 0.022231407 0.75300008 8.3923064e-40
0.0093228305 0.022231407 0.75300002 7.4775248e-40
0.010757138 0.022231407 0.75300002 6.5627992e-40
0.012191383 0.022231407 0.75300008 5.6444863e-40
0.013625691 0.0222314 0.75300008 4.7189006e-40
0.015099946 0.022290453 0.75500011 3.7933149e-40
0.016538039 0.022290453 0.75500011 3.8006297e-40
0.017976156 0.022290461 0.75500011 9.3252349e-40
0.019439965 0.022319973 0.7560001 1.3931401e-39
0.020879943 0.022319965 0.7560001 1.6690081e-39
0.022319982 0.02231998 0.7560001 2.0370704e-39
0.023822811 0.022379033 0.75800008 1.2094761e-39
0.025333278 0.022438087 0.76000011 3.8115879e-40
0.026780911 0.022438079 0.76000011 4.1535846e-39
0.028228527 0.022438064 0.76000011 8.0228891e-39
0.029715203 0.022467598 0.7610001 9.5930763e-39
0.031164743 0.022467591 0.7610001 1.1159301e-38
0.032699931 0.022526652 0.76300007 1.0605415e-38
0.034332369 0.022644743 0.76700008 1.0052978e-38
0.035839986 0.02267427 0.76800007 1.0237019e-38
0.037302852 0.022674263 0.76800007 1.0421399e-38
-0.024200009 0.024199992 0.77000004 7.2878338e-39
-0.022733336 0.024199992 0.77000004 6.2812489e-39
-0.021211479 0.024137124 0.76800007 5.1731203e-39
-0.019722896 0.024105705 0.76700008 7.5730359e-39
-0.018214338 0.024042837 0.7650001 9.9528358e-39
-0.016713366 0.023979984 0.76300001 6.525477e-39
-0.015260042 0.023979984 0.76300001 3.1599238e-39
-0.013770504 0.023917124 0.7610001 7.8676449e-39
-0.012320988 0.023917124 0.7610001 1.2535042e-38
-0.010857191 0.023885697 0.76000011 6.3565253e-39
-0.0093847793 0.023822859 0.75800002 1.0096215e-40
-0.0079409936 0.023822844 0.75800002 7.4489944e-40
-0.0064972071 0.023822837 0.75800008 1.2973417e-39
-0.0050400328 0.023759983 0.7560001 1.1143812e-39
-0.0036000572 0.023759976 0.7560001 9.3215635e-40
-0.0021571862 0.023728557 0.75500005 1.0250793e-39
-0.00071910955 0.023728549 0.75500011 1.0250751e-39
0.00071898289 0.023728549 0.75500011 9.3323675e-40
0.0021570986 0.023728549 0.75500011 7.4811822e-40
0.0035951901 0.023728557 0.75500005 8.3886631e-40
0.0050199749 0.023665689 0.75300008 9.317822e-40
0.0064542824 0.023665696 0.75300008 9.3250387e-40
0.0078885294 0.023665689 0.75300008 9.3214514e-40
0.009322837 0.023665689 0.75300008 9.3250527e-40
0.010757121 0.023665704 0.75300002 9.3214794e-40
0.01219139 0.023665689 0.75300008 6.5628552e-40
0.013625696 0.023665704 0.75300008 3.8005877e-40
0.015099948 0.023728549 0.75500011 3.7790357e-40
0.016538065 0.023728549 0.75500011 3.7970704e-40
0.017976157 0.023728564 0.75500005 8.406894e-40
0.019439975 0.023759976 0.75600004 1.2087545e-39
0.020879975 0.023759983 0.7560001 1.5764622e-39
0.022319954 0.023759969 0.7560001 1.8530379e-39
0.023822838 0.023822859 0.75800002 1.210181e-39
0.025333308 0.023885705 0.76000011 4.7298447e-40
0.026816186 0.023917124 0.76100004 3.6850716e-39
0.028265702 0.023917131 0.7610001 6.8265123e-39
0.029793298 0.023979977 0.76300007 9.0424234e-39
0.031328555 0.024042837 0.7650001 1.1156432e-38
0.032871384 0.024105698 0.76700008 1.0512149e-38
0.034377147 0.024137132 0.76800007 9.8693044e-39
0.035839975 0.024137117 0.76800013 9.9615043e-39
-0.024200026 0.025666669 0.77000004 5.0816295e-39
-0.022733353 0.025666662 0.77000004 6.096143e-39
-0.021211453 0.025599971 0.76800007 7.1056034e-39
-0.019748611 0.025599986 0.76800007 9.0420269e-39
-0.018214324 0.02549997 0.7650001 1.1063823e-38
-0.01675719 0.025499955 0.7650001 9.4947065e-39
-0.015300057 0.02549997 0.7650001 8.0304463e-39
-0.013806699 0.025433309 0.76300007 8.9582124e-39
-0.01232101 0.025366634 0.7610001 9.8743351e-39
-0.010857182 0.025333323 0.76000011 4.9789914e-39
-0.0093847886 0.025266662 0.75800002 9.4503568e-41
-0.0079200417 0.02519998 0.75600004 5.5979071e-40
-0.0064971941 0.025266655 0.75800008 1.0218268e-39
-0.0050400244 0.02519998 0.75600004 1.0228904e-39
-0.0036000237 0.025199972 0.7560001 9.3250527e-40
-0.002157202 0.025166653 0.75500011 9.3252069e-40
-0.00071910862 0.025166653 0.75500011 9.3287802e-40
0.00071711838 0.025099978 0.75300008 9.3251789e-40
0.0021514045 0.025099978 0.75300002 1.0232702e-39
0.0035857121 0.025099985 0.75300002 9.3106894e-40
0.0050199572 0.025099985 0.75300008 8.4031104e-40
0.0064542647 0.025099978 0.75300008 1.023982e-39
0.0078885723 0.025099978 0.75300002 1.2076558e-39
0.0093228193 0.025099978 0.75300008 1.024345e-39
0.010757126 0.025099978 0.75300008 8.4067398e-40
0.012223763 0.025166638 0.75500011 6.5664426e-40
0.013661856 0.025166653 0.75500011 5.6480876e-40
0.015099972 0.025166646 0.75500011 4.7153833e-40
0.016538065 0.025166646 0.75500005 3.7899378e-40
0.017999969 0.025199987 0.75600004 8.3997193e-40
0.019439969 0.025199972 0.7560001 1.3002354e-39
0.020879986 0.02519998 0.75600004 1.5771866e-39
0.022379003 0.025266655 0.75800008 1.945588e-39
0.023822827 0.02526667 0.75800002 1.3016451e-39
0.025333317 0.025333323 0.76000011 7.4776229e-40
0.026816163 0.025366649 0.7610001 3.414579e-39
0.028339969 0.025433324 0.76300001 6.0042949e-39
0.029793316 0.025433309 0.76300007 8.7672771e-39
0.031328555 0.02549997 0.7650001 1.1524494e-38
0.032785665 0.02549997 0.7650001 1.0419957e-38
0.034242857 0.025499962 0.7650001 9.3172125e-39
0.035699971 0.025499962 0.7650001 9.6852705e-39
-0.024262847 0.027203783 0.77200001 2.869317e-39
-0.022733333 0.027133316 0.77000004 6.0078962e-39
-0.021211451 0.027062833 0.76800007 9.0399095e-39
-0.019748585 0.027062833 0.76800007 1.060973e-38
-0.018261967 0.027027607 0.76700008 1.2079804e-38
-0.016757153 0.02695711 0.7650001 1.2451082e-38
-0.015300042 0.026957117 0.7650001 1.2814139e-38
-0.013806703 0.026886642 0.76300007 9.9686943e-39
-0.012353377 0.026886635 0.76300007 7.098786e-39
-0.010828624 0.026710466 0.75800008 3.5910515e-39
-0.0093847997 0.026710466 0.75800002 9.9880351e-41
-0.0079200473 0.026639968 0.7560001 4.6938734e-40
-0.0064800307 0.026639983 0.75600004 7.4632315e-40
-0.00504003 0.026639983 0.7560001 8.3958938e-40
-0.0036000535 0.026639968 0.7560001 9.3215074e-40
-0.0021572011 0.026604742 0.75500011 8.3996492e-40
-0.00071908534 0.026604734 0.75500011 7.4884549e-40
0.00071900804 0.026604757 0.75500005 1.0239918e-39
0.0021570846 0.026604742 0.75500011 1.2984165e-39
0.0035951771 0.026604734 0.75500011 1.0211094e-39
0.0050199637 0.026534259 0.75300008 7.4739795e-40
0.0064542703 0.026534259 0.75300008 1.1151001e-39
0.0078885546 0.026534282 0.75300002 1.4831609e-39
0.0093228249 0.026534259 0.75300008 1.1158203e-39
0.010757109 0.026534274 0.75300008 6.5700579e-40
0.012191417 0.026534274 0.75300002 6.5701e-40
0.01366188 0.026604757 0.75500011 6.5664986e-40
0.015099972 0.026604742 0.75500005 5.640941e-40
0.016559962 0.026639976 0.7560001 3.7971265e-40
0.017999964 0.026639968 0.7560001 8.396146e-40
0.01943998 0.026639976 0.75600004 1.3009487e-39
0.020935208 0.026710466 0.75800002 1.6697298e-39
0.022378992 0.026710473 0.75800008 1.9459467e-39
0.023885692 0.026780941 0.76000005 1.4864035e-39
0.025333285 0.026780941 0.76000011 1.0211206e-39
0.026816163 0.026816167 0.7610001 3.1293839e-39
0.028265679 0.026816159 0.7610001 5.1727826e-39
0.029793289 0.026886657 0.76300001 8.5890501e-39
0.031328507 0.026957117 0.7650001 1.1899019e-38
0.032871373 0.0270276 0.76700008 1.0326282e-38
0.034332331 0.027027607 0.76700002 8.7650967e-39
0.035839979 0.027062833 0.76800007 9.5008751e-39
-0.024262849 0.02867426 0.77200001 1.8479946e-39
-0.022733349 0.028599992 0.77000004 3.4203608e-39
-0.021266676 0.028599985 0.77000004 4.9980939e-39
-0.019748583 0.028525703 0.76800007 6.5614764e-39
-0.01828574 0.028525695 0.76800001 8.1330816e-39
-0.016800992 0.028488569 0.76700008 7.7596398e-39
-0.015300044 0.028414249 0.7650001 7.3068761e-39
-0.013806704 0.028339975 0.76300001 5.4446527e-39
-0.012320992 0.028265692 0.7610001 3.6750075e-39
