# .PCD v0.7 - Point Cloud Data file format
VERSION 0.7
FIELDS x y z rgb
SIZE 4 4 4 4
TYPE F F F F
COUNT 1 1 1 1
WIDTH 974
HEIGHT 1
VIEWPOINT 0 0 0 1 0 0 0
POINTS 974
DATA ascii
0.04017619 0.012418106 0.76700002 1.6496516e-38
0.041800003 0.012466677 0.77000004 1.6221371e-38
-0.019722857 0.013879046 0.76700008 1.1104057e-39
-0.018261904 0.013879053 0.76700002 7.4091554e-40
-0.01675714 0.013842881 0.76499999 6.4944298e-40
-0.015260001 0.013806693 0.76299995 6.4979751e-40
-0.013770477 0.013770498 0.76099998 5.5723895e-40
-0.012304762 0.013752393 0.75999999 4.6540906e-40
-0.010857143 0.013752408 0.75999999 4.6577199e-40
-0.0093847625 0.013716213 0.75799996 4.6685379e-40
-0.0079409517 0.013716206 0.75800002 5.5941236e-40
-0.0064800004 0.013680018 0.75600004 6.5161079e-40
-0.0050400002 0.013680026 0.75599998 6.5233246e-40
-0.0036000004 0.013680011 0.75600004 7.4524836e-40
-0.0021514287 0.013625734 0.75299996 7.4632876e-40
-0.00071619055 0.013607629 0.75199997 6.54859e-40
0.00071619055 0.013607629 0.75200003 8.396132e-40
0.0021485714 0.013607621 0.75200003 1.0247149e-39
0.0035809525 0.013607629 0.75200003 5.6266337e-40
0.0049999999 0.013571441 0.75 1.906901e-40
0.0064285719 0.013571449 0.75000006 4.8958566e-39
0.007857142 0.013571434 0.75000006 9.692092e-39
0.0092857145 0.013571456 0.75000006 1.1885005e-38
0.010714286 0.013571441 0.75000006 1.4069259e-38
0.012142858 0.013571441 0.75000006 1.369611e-38
0.013571429 0.013571449 0.75000006 1.331659e-38
0.015000002 0.013571449 0.75000006 1.3243425e-38
0.016472381 0.013607629 0.75200003 1.3249613e-38
0.017904762 0.013607629 0.75199997 1.2714115e-38
0.019362858 0.013625734 0.75300002 1.2189647e-38
0.020797145 0.013625726 0.75300002 1.0156708e-38
0.02223143 0.013625726 0.75300002 8.0448279e-39
0.023728576 0.013661921 0.755 7.0120148e-39
0.02516667 0.013661906 0.75500005 5.9802724e-39
0.026604766 0.013661914 0.75500005 3.685073e-39
0.028080001 0.013680018 0.75600004 1.3780467e-39
0.029520001 0.013680018 0.75599998 1.1968672e-39
0.031041909 0.013716206 0.75800002 9.2210343e-40
0.032571431 0.013752401 0.75999999 6.9208506e-39
0.034019049 0.013752386 0.76000005 1.2820936e-38
0.035513334 0.013770476 0.76100004 1.3187215e-38
0.037060007 0.013806671 0.76299995 1.3555273e-38
0.03851334 0.013806693 0.76299995 1.3738584e-38
0.040071432 0.013842873 0.76500005 1.4017668e-38
0.04169143 0.013897158 0.76800001 1.4566876e-38
-0.019671427 0.015300035 0.76499999 1.0196408e-39
-0.018214285 0.015300021 0.76499999 6.5050937e-40
-0.016757142 0.015300013 0.76499999 6.4907724e-40
-0.015260002 0.015260026 0.76299995 6.497877e-40
-0.013770478 0.015220016 0.76100004 4.6539224e-40
-0.012320953 0.015220031 0.76099998 2.8173106e-40
-0.010857144 0.015200019 0.75999999 3.7249876e-40
-0.0094095245 0.015200011 0.76000005 4.6685099e-40
-0.0079409517 0.015160024 0.75800002 4.6829153e-40
-0.0064971433 0.015160009 0.75800002 4.6865446e-40
-0.0050400002 0.015120022 0.75600004 5.6049556e-40
-0.0036000004 0.015120007 0.75600004 6.5377159e-40
-0.0021514287 0.015060008 0.75300002 6.5449466e-40
-0.00071714289 0.015060015 0.75299996 6.5557787e-40
0.00071714289 0.015060008 0.75300002 8.396132e-40
0.0021485714 0.015040003 0.75200003 9.3288222e-40
0.0035809525 0.015040003 0.75200003 5.662563e-40
0.0049999999 0.015000023 0.75 1.045789e-40
0.0064285714 0.015000015 0.75000006 3.5964928e-39
0.007857142 0.015000023 0.75000006 7.1067104e-39
0.0092857145 0.015000023 0.75 1.1074312e-38
0.010714286 0.015000023 0.75000006 1.4917359e-38
0.012142858 0.015000015 0.75000006 1.444916e-38
0.013571429 0.015000023 0.75000006 1.3993582e-38
0.015040002 0.01504001 0.75200003 1.4009379e-38
0.016494285 0.015060008 0.75300002 1.4001898e-38
0.017928571 0.015060022 0.75300002 1.2083091e-38
0.019362858 0.015060015 0.75300002 1.0140171e-38
0.020797145 0.01506003 0.75299996 5.1742133e-39
0.02223143 0.015060015 0.75300002 2.0611979e-40
0.023728577 0.01510001 0.755 1.863811e-40
0.025166672 0.015099995 0.75500005 9.7760186e-41
0.026604768 0.015100017 0.755 1.011439e-39
0.028080003 0.015120015 0.75599998 1.9337148e-39
0.029520003 0.015120015 0.75600004 1.4745135e-39
0.031041909 0.015160009 0.75800002 1.0225485e-39
0.032571428 0.015200011 0.76000005 6.0032285e-39
0.034063812 0.015220031 0.76099998 1.0881986e-38
0.035513334 0.015220016 0.76100004 1.0607912e-38
0.037060007 0.015260004 0.76300001 1.0333846e-38
0.038614288 0.015300021 0.76500005 1.0884506e-38
0.040071432 0.015300021 0.76499999 1.1436959e-38
0.04169143 0.015360013 0.76800001 1.3000678e-38
-0.019671427 0.016757153 0.76499999 1.1107532e-39
-0.018214285 0.016757168 0.76499999 7.4341406e-40
-0.016757142 0.016757153 0.76500005 7.426994e-40
-0.015260002 0.016713351 0.76299995 7.4304972e-40
-0.013770478 0.016669556 0.76099998 5.5829272e-40
-0.012320954 0.016669542 0.76100004 3.7427701e-40
-0.010857143 0.016647637 0.76000005 4.6612512e-40
-0.0093847625 0.016603813 0.75800002 5.5904242e-40
-0.0079409517 0.016603835 0.75799996 4.6828732e-40
-0.0064800009 0.016560011 0.75600004 4.6901179e-40
-0.0050400007 0.016560011 0.75600004 4.6937613e-40
-0.0036000004 0.016560026 0.75599998 5.6229483e-40
-0.0021514287 0.016494304 0.75300002 6.548548e-40
-0.00071714289 0.016494289 0.75300002 7.4813083e-40
0.00071714283 0.016494304 0.75300002 8.406894e-40
0.0021485714 0.016472392 0.75200003 1.0250793e-39
0.0035809525 0.016472392 0.75200003 7.4921403e-40
0.0050133336 0.016472377 0.75200003 5.6445844e-40
0.0064285719 0.016428605 0.75000006 2.0356116e-39
0.007857142 0.01642859 0.75000006 3.6051262e-39
0.0092857145 0.016428597 0.75000006 8.4904029e-39
0.010742858 0.016472384 0.75199997 1.3372712e-38
0.01217524 0.016472392 0.75200003 1.3001384e-38
0.013607621 0.016472377 0.75200003 1.2638356e-38
0.015040002 0.016472392 0.75200003 9.869666e-39
0.016494287 0.016494311 0.75300002 7.1146179e-39
0.017928572 0.016494296 0.75300002 6.0854301e-39
0.019414289 0.016538113 0.755 5.1437084e-39
0.020852385 0.016538106 0.75500005 2.6716344e-39
0.022290479 0.016538113 0.755 1.8419087e-40
0.023728576 0.016538098 0.75500005 5.5512579e-40
0.025200002 0.016560003 0.75600004 1.0182507e-39
0.026640002 0.016560026 0.75599998 1.5699826e-39
0.028080001 0.016560018 0.75600004 2.1252709e-39
0.029520001 0.016560011 0.75599998 1.8439953e-39
0.031123813 0.016647644 0.76000005 1.5674644e-39
0.032571428 0.016647637 0.75999999 6.0911319e-39
0.034063812 0.016669542 0.76100004 1.0606479e-38
0.035606667 0.016713344 0.76299995 1.0236966e-38
0.037060004 0.016713344 0.76300001 9.9611133e-39
0.038614288 0.016757168 0.76499999 1.0052244e-38
0.040176194 0.016800962 0.76700002 1.0233066e-38
0.04169143 0.016822867 0.76800001 1.1064627e-38
-0.019722857 0.018261917 0.76700002 1.2947928e-39
-0.018214285 0.018214308 0.76500005 8.345405e-40
-0.016757142 0.018214308 0.76499999 8.3525936e-40
-0.015300002 0.018214308 0.76499999 8.3453489e-40
-0.013806667 0.018166669 0.76300001 6.5049816e-40
-0.012353335 0.018166684 0.76299995 4.6683558e-40
-0.010857144 0.018095262 0.75999999 5.5867948e-40
-0.0094095245 0.018095247 0.76000005 6.5087791e-40
-0.0079409517 0.018047638 0.75799996 5.6048155e-40
-0.0064800004 0.017999999 0.75600004 3.7681476e-40
-0.0050400002 0.018000029 0.75599998 4.6865446e-40
-0.0036000006 0.018000014 0.75600004 4.7045513e-40
-0.0021571431 0.017976195 0.755 6.5413453e-40
-0.00071714289 0.017928585 0.75300002 7.4848676e-40
0.00071619061 0.017904766 0.75200003 9.3324096e-40
0.0021485712 0.017904773 0.75200003 1.1169119e-39
0.0035809523 0.017904766 0.75200003 1.0247177e-39
0.0050000004 0.017857149 0.75 9.3143889e-40
0.0064285719 0.017857164 0.75000006 5.6014384e-40
0.007857142 0.017857149 0.75000006 1.0962358e-40
0.0092857135 0.017857164 0.75 5.9089393e-39
0.010714286 0.017857157 0.75000006 1.1713235e-38
0.012142858 0.017857157 0.75000006 1.1544995e-38
0.013571429 0.017857157 0.75000006 1.1250431e-38
0.015040002 0.017904766 0.75200003 5.7162215e-39
0.016494289 0.017928585 0.75300002 1.0852636e-40
0.017928574 0.017928593 0.75300002 9.2393213e-41
0.019414289 0.017976202 0.75500005 9.2726722e-41
0.020852385 0.017976195 0.75500005 9.2701499e-41
0.022290479 0.017976202 0.755 9.5581167e-41
0.023760004 0.017999999 0.75600004 1.015741e-39
0.025200004 0.018000022 0.75599998 1.8462051e-39
0.026640004 0.018000007 0.75600004 2.032746e-39
0.028080003 0.018000014 0.75599998 2.2138862e-39
0.029520003 0.018000022 0.75600004 2.2084856e-39
0.031123815 0.01809527 0.75999999 2.1296037e-39
0.032614283 0.018119067 0.76100004 6.2791021e-39
0.034063809 0.01811906 0.76099998 1.0325237e-38
0.035606667 0.018166669 0.76299995 9.9553736e-39
0.037157141 0.0182143 0.76499999 9.4983541e-39
0.038614284 0.018214323 0.76499999 9.2217784e-39
0.04017619 0.018261924 0.76700002 8.9469936e-39
0.04169143 0.018285729 0.76800001 9.1303115e-39
-0.021128571 0.019671455 0.76499999 1.3862751e-39
-0.019671427 0.019671455 0.76499999 1.0182185e-39
-0.018214285 0.019671455 0.76499999 6.4872412e-40
-0.016757142 0.019671455 0.76499999 6.5051778e-40
-0.015300002 0.019671448 0.76499999 7.4234907e-40
-0.013806668 0.019620024 0.76300001 5.5867388e-40
-0.012353335 0.019620016 0.76299995 3.7500709e-40
-0.010857143 0.01954288 0.75999999 4.6684539e-40
-0.0094095245 0.019542873 0.75999999 5.5832495e-40
-0.0079409517 0.019491456 0.75799996 5.5976268e-40
-0.0064971433 0.019491442 0.75800002 6.5231845e-40
-0.0050400002 0.01944001 0.75600004 5.6191928e-40
-0.0036000002 0.019440025 0.75599998 5.6336402e-40
-0.0021571431 0.019414306 0.755 6.5592539e-40
-0.00071904768 0.019414291 0.75500005 8.4175578e-40
0.00071904762 0.019414306 0.755 9.3359688e-40
0.0021485712 0.019337155 0.75200003 1.1176266e-39
0.0035809523 0.019337147 0.75199997 1.0257897e-39
0.0050133332 0.019337147 0.75200003 9.3358848e-40
0.0064285719 0.019285731 0.75000006 5.619347e-40
0.007857142 0.019285731 0.75000006 2.8180112e-40
0.0092857135 0.019285738 0.75 3.145597e-39
0.010714286 0.019285738 0.75000006 6.1073436e-39
0.012142858 0.019285724 0.75000006 8.6809403e-39
0.013571429 0.019285731 0.75000006 1.1245061e-38
0.015040001 0.019337147 0.75199997 8.0196003e-39
0.016494285 0.019362874 0.75300002 4.8677816e-39
0.017928571 0.019362867 0.75300002 2.4822153e-39
0.019414289 0.019414291 0.75500005 9.341476e-41
0.020852385 0.019414306 0.755 9.4488154e-41
0.022290479 0.019414298 0.75500005 9.9525822e-41
0.023760004 0.019440018 0.75599998 5.5764252e-40
0.025200004 0.019440003 0.75600004 1.0221982e-39
0.026640004 0.019440018 0.75599998 1.1118771e-39
0.028080003 0.01944001 0.75600004 1.2951795e-39
0.029520003 0.019440018 0.75599998 2.7688425e-39
0.031123813 0.01954288 0.75999999 4.2482843e-39
0.032614287 0.019568585 0.76099998 7.4740342e-39
0.034063812 0.019568585 0.76100004 1.0602181e-38
0.035606671 0.019620024 0.76299995 1.0141568e-38
0.037157144 0.019671455 0.76499999 9.6809559e-39
0.038614288 0.019671462 0.76499999 9.498001e-39
0.040071432 0.019671455 0.76499999 9.3146789e-39
0.041637145 0.019722864 0.76700008 9.1309981e-39
-0.021128571 0.02112861 0.76499999 1.1114861e-39
-0.019671427 0.021128595 0.76499999 8.3454891e-40
-0.018214284 0.021128602 0.76499999 4.6720972e-40
-0.01675714 0.021128587 0.76499999 5.5940675e-40
-0.015300002 0.021128602 0.76499999 5.5939835e-40
-0.013842858 0.021128587 0.76499999 4.6683838e-40
-0.012353335 0.021073341 0.76299995 2.8316879e-40
-0.010900001 0.021073349 0.76299995 3.7464695e-40
-0.0094095254 0.020990491 0.75999999 4.6720412e-40
-0.0079409517 0.02093526 0.75799996 6.5195551e-40
-0.0064971433 0.020935252 0.75800002 8.3706564e-40
-0.0050400002 0.020880021 0.75599998 7.4702801e-40
-0.0036000004 0.020880006 0.75600004 6.5520092e-40
-0.0021571431 0.020852394 0.75500005 7.4740496e-40
-0.00071714295 0.020797156 0.75300002 8.4032646e-40
0.00071714295 0.020797156 0.75300002 1.0250835e-39
0.0021485714 0.020769536 0.75200003 1.1179881e-39
0.0035809525 0.020769529 0.75200003 1.0268645e-39
0.0050133332 0.020769536 0.75199997 8.4139004e-40
0.0064457147 0.020769529 0.75200003 6.5555685e-40
0.007857142 0.020714298 0.75000006 4.6903421e-40
0.0092857135 0.020714313 0.75 4.6725877e-40
0.010714285 0.020714298 0.75000006 3.941222e-40
0.012142858 0.020714298 0.75000006 5.8264519e-39
0.01360762 0.020769529 0.75200003 1.1155391e-38
0.015040002 0.020769529 0.75200003 1.0432516e-38
0.016494287 0.020797156 0.75300002 9.6709044e-39
0.017928572 0.020797171 0.75299996 4.8749884e-39
0.019362858 0.020797156 0.75300002 1.0132229e-40
0.020852385 0.020852402 0.755 9.2338562e-41
0.022290479 0.020852387 0.75500005 9.5221033e-41
0.023728576 0.020852394 0.755 1.8491535e-40
0.025200004 0.020880014 0.75599998 1.9029773e-40
0.026640004 0.020880006 0.75600004 2.8105843e-40
0.028080003 0.020880029 0.75599998 2.8822748e-40
0.029520003 0.020880014 0.75600004 3.3227407e-39
0.031164765 0.02101811 0.76100004 6.3666076e-39
0.032614287 0.021018125 0.76099998 8.6747143e-39
0.034153335 0.021073349 0.76299995 1.0878407e-38
0.035699997 0.021128602 0.76499999 1.041959e-38
0.037157141 0.021128587 0.76499999 9.8671422e-39
0.038614284 0.021128595 0.76499999 9.774948e-39
0.040071428 0.021128595 0.76500005 9.6834614e-39
-0.021128571 0.022585742 0.76499999 1.112205e-39
-0.019722858 0.022644773 0.76700002 8.3598384e-40
-0.018261904 0.022644758 0.76700002 5.6120042e-40
-0.016757142 0.022585742 0.76499999 5.6084729e-40
-0.015300002 0.022585742 0.76499999 5.6119621e-40
-0.013842859 0.022585742 0.76499999 4.6755584e-40
-0.012353335 0.022526681 0.76299995 3.7500288e-40
-0.010900001 0.022526674 0.76299995 3.7500148e-40
-0.0094095245 0.022438101 0.76000005 4.6684258e-40
-0.0079409527 0.022379056 0.75800002 6.5159538e-40
-0.0064971433 0.022379056 0.75799996 8.3742437e-40
-0.005053333 0.022379071 0.75800002 6.5447645e-40
-0.0036000004 0.022320017 0.75600004 4.71174e-40
-0.0021571431 0.022290483 0.75500005 6.548534e-40
-0.00071904762 0.022290476 0.755 7.4742037e-40
0.00071904768 0.022290491 0.75500005 1.0250933e-39
0.0021485714 0.022201911 0.75200003 1.3016633e-39
0.0035809525 0.022201911 0.75199997 1.117621e-39
0.0050133327 0.022201911 0.75200003 9.3357867e-40
0.0064457143 0.022201926 0.75200003 6.5626591e-40
0.0078780958 0.022201918 0.75200003 4.7116139e-40
0.0093104765 0.022201903 0.75200003 5.6263815e-40
0.010742858 0.022201926 0.75199997 7.4634838e-40
0.012175239 0.022201911 0.75200003 3.2392177e-39
0.013607621 0.022201911 0.75200003 5.7292186e-39
0.015060001 0.02223143 0.75300002 7.298352e-39
0.016494287 0.022231445 0.75300002 8.957799e-39
0.017928572 0.022231437 0.75300002 7.6566275e-39
0.019414287 0.022290483 0.75500005 6.2726113e-39
0.020852383 0.022290491 0.755 5.9888259e-39
0.022290479 0.022290491 0.75500005 5.6971849e-39
0.023728576 0.022290483 0.755 5.5242843e-39
0.025200004 0.022320002 0.75600004 5.4259972e-39
0.026640004 0.022320025 0.75599998 5.2545287e-39
0.028080003 0.022320017 0.75600004 5.1616184e-39
0.029676193 0.022438101 0.76000005 5.6283293e-39
0.031123813 0.022438116 0.75999999 6.1897609e-39
0.032614283 0.022467628 0.76100004 8.3970568e-39
0.034153335 0.022526674 0.76299995 1.0603264e-38
0.035606667 0.022526674 0.76300001 1.0235565e-38
0.037060004 0.022526681 0.76299995 9.9604169e-39
0.038614284 0.022585727 0.76500005 9.9607756e-39
0.040071428 0.02258575 0.76499999 1.0052961e-38
0.04169143 0.022674307 0.76800001 9.6845348e-39
-0.021183811 0.02410572 0.76700002 1.1125595e-39
-0.019722858 0.024105713 0.76700002 9.2817386e-40
-0.018261906 0.024105713 0.76700008 6.5303031e-40
-0.016757142 0.024042867 0.76499999 6.5303451e-40
-0.015300001 0.024042882 0.76499999 5.5975568e-40
-0.013806668 0.023980021 0.76299995 5.5867107e-40
-0.012353335 0.023980007 0.76300001 4.6647684e-40
-0.010871429 0.023917161 0.76099998 4.6647825e-40
-0.0094095254 0.023885727 0.75999999 3.7500849e-40
-0.0079409517 0.023822866 0.75800002 5.5868649e-40
-0.0064971433 0.023822881 0.75799996 7.4451408e-40
-0.0050400002 0.023760006 0.75600004 5.6228362e-40
-0.0036000004 0.023760028 0.75600004 2.8678414e-40
-0.002151429 0.023665719 0.75300002 4.7010481e-40
-0.00071714289 0.023665734 0.75300002 6.5629533e-40
0.00071714283 0.023665719 0.75300002 1.1179937e-39
0.0021485714 0.023634292 0.75199997 1.4846113e-39
0.0035809525 0.0236343 0.75200003 1.2080216e-39
0.0050133332 0.023634285 0.75200003 9.3322414e-40
0.0064457143 0.023634292 0.75200003 6.5699178e-40
0.0078780949 0.0236343 0.75200003 3.8076783e-40
0.0093104756 0.023634292 0.75199997 7.4882727e-40
0.010742857 0.0236343 0.75200003 1.0232786e-39
0.012175239 0.023634285 0.75200003 6.5524016e-40
0.013607621 0.0236343 0.75199997 2.0648693e-40
0.015060001 0.023665726 0.75300002 4.2569556e-39
0.016494287 0.023665734 0.75299996 8.2126922e-39
0.017928574 0.023665726 0.75300002 1.0337817e-38
0.019414289 0.023728594 0.755 1.2440696e-38
0.020852385 0.023728579 0.75500005 1.1893617e-38
0.022290479 0.023728579 0.75500005 1.1241082e-38
0.023728577 0.023728572 0.755 1.0972032e-38
0.025200002 0.023760006 0.75600004 1.0599315e-38
0.02671048 0.023822874 0.75800002 1.0333501e-38
0.028154289 0.023822889 0.75799996 9.9539429e-39
0.029676193 0.023885727 0.75999999 8.0228667e-39
0.031164765 0.023917153 0.76100004 6.0010621e-39
0.032700002 0.023980007 0.76300001 8.1204643e-39
0.034153335 0.023980021 0.76299995 1.0234481e-38
0.035699997 0.024042875 0.76499999 1.0141935e-38
0.037157141 0.024042875 0.76500005 9.9600637e-39
0.038614284 0.024042882 0.76499999 1.0145893e-38
0.040228572 0.024137147 0.76800001 1.0329911e-38
-0.024262859 0.025733344 0.77200001 1.755408e-39
-0.022733334 0.025666669 0.77000004 1.480256e-39
-0.02121143 0.025599994 0.76800001 1.2040335e-39
-0.019748572 0.025600009 0.76800001 1.0203625e-39
-0.018285716 0.025600016 0.76800001 7.4450007e-40
-0.016800953 0.025566675 0.76700002 6.5159117e-40
-0.015300001 0.025500022 0.76500005 6.4943317e-40
-0.013806667 0.025433347 0.76299995 5.579494e-40
-0.012353335 0.025433339 0.76300001 4.6539925e-40
-0.01087143 0.025366694 0.76099998 4.6647825e-40
-0.0094095245 0.025333345 0.75999999 3.7500989e-40
-0.0079409517 0.025266685 0.75800002 6.5159958e-40
-0.0064971433 0.025266692 0.75799996 9.2818787e-40
-0.0050399997 0.025200024 0.75600004 6.5376179e-40
-0.0036000006 0.025200009 0.75600004 3.7861963e-40
-0.0021514287 0.025100015 0.75300002 5.6337243e-40
-0.00071714289 0.025100015 0.75299996 8.4103692e-40
0.00071714289 0.025100023 0.75300002 1.0254296e-39
0.0021485714 0.025066666 0.75200003 1.3009347e-39
0.0035809525 0.025066681 0.75199997 1.1172623e-39
0.0050133332 0.025066674 0.75200003 1.0254226e-39
0.0064457147 0.025066681 0.75200003 8.4066978e-40
0.0078780949 0.025066681 0.75199997 6.5628132e-40
0.0093104756 0.025066666 0.75200003 8.4066838e-40
0.010742858 0.025066674 0.75200003 1.0243436e-39
0.012175239 0.025066689 0.75200003 8.3995792e-40
0.01360762 0.025066674 0.75200003 5.6194451e-40
0.015060001 0.025100015 0.75300002 2.4065493e-39
0.016494287 0.025100023 0.75300002 4.1550503e-39
0.017928572 0.025100015 0.75300002 5.3593529e-39
0.019362858 0.025100015 0.75300002 6.6561761e-39
0.020852383 0.025166683 0.75500005 7.0224461e-39
0.022320002 0.025200017 0.75600004 7.4016164e-39
0.023760002 0.025200009 0.75600004 7.4851899e-39
0.025200002 0.025200002 0.75600004 7.5838483e-39
0.02671048 0.025266677 0.75800002 7.1142746e-39
0.028228574 0.02533336 0.75999999 6.7468934e-39
0.029676192 0.02533336 0.75999999 5.3517438e-39
0.031246673 0.025433347 0.76299995 3.966685e-39
0.032700002 0.025433354 0.76300001 7.1048817e-39
0.034153339 0.025433354 0.76299995 1.032667e-38
0.035699997 0.025500007 0.76500005 1.0142653e-38
0.037254289 0.025566667 0.76700002 1.0051546e-38
0.03871524 0.025566675 0.76700002 1.0145186e-38
0.040228575 0.025600016 0.76800001 1.0330277e-38
-0.024262859 0.027203828 0.77200001 6.5156595e-40
-0.022674287 0.027062863 0.76800001 1.0214345e-39
-0.021183809 0.027027614 0.76700002 1.2962249e-39
-0.01974857 0.027062871 0.76800001 1.1125567e-39
-0.018285714 0.027062863 0.76800001 8.3597543e-40
-0.016800951 0.027027622 0.76700002 7.427078e-40
-0.015300001 0.026957177 0.76499999 6.4979051e-40
-0.013842858 0.026957177 0.76499999 5.5759207e-40
-0.012353335 0.026886664 0.76300001 4.6611811e-40
-0.010871428 0.026816204 0.76100004 4.6648105e-40
-0.0094095245 0.026780955 0.76000005 3.7608469e-40
-0.0079619037 0.02678097 0.75999999 7.4486721e-40
-0.0064971433 0.026710488 0.75799996 1.1125735e-39
-0.0050400002 0.026640013 0.75600004 8.3743278e-40
-0.0036000002 0.02664002 0.75599998 4.7081526e-40
-0.0021571431 0.026604779 0.755 7.4704622e-40
-0.00071904768 0.026604772 0.75500005 9.3215915e-40
0.00071714289 0.026534297 0.75299996 1.0250779e-39
0.0021514283 0.026534289 0.75300002 1.1172679e-39
0.0035857144 0.026534289 0.75300002 1.1179811e-39
0.0050200005 0.026534304 0.75300002 1.0254226e-39
0.0064542862 0.026534304 0.75300002 1.0243422e-39
0.0079095233 0.026604779 0.755 9.3214654e-40
0.0093228566 0.026534304 0.75300002 1.0250582e-39
0.010742858 0.026499055 0.75200003 1.025061e-39
0.012175239 0.026499063 0.75200003 1.0257799e-39
0.01360762 0.026499063 0.75199997 9.3107875e-40
0.015040002 0.026499063 0.75200003 5.6015365e-40
0.016494287 0.026534304 0.75300002 1.0637257e-40
0.017928572 0.026534304 0.75300002 4.7157757e-40
0.019362858 0.026534304 0.75300002 7.5713277e-40
0.020852385 0.026604772 0.75500005 2.1378994e-39
0.022320002 0.026639998 0.75600004 3.5204555e-39
0.023760002 0.02664002 0.75600004 3.9832203e-39
0.02526667 0.026710495 0.75799996 4.4406069e-39
0.02671048 0.026710495 0.75800002 3.97641e-39
0.028228575 0.02678097 0.75999999 3.4199838e-39
0.029715242 0.026816219 0.76100004 2.6709183e-39
0.031246671 0.026886679 0.76299995 1.9477236e-39
0.032700002 0.026886694 0.76299995 6.1893854e-39
0.034153335 0.026886679 0.76299995 1.0325234e-38
0.035699997 0.026957162 0.76499999 1.0234497e-38
0.037157141 0.026957169 0.76499999 1.0051906e-38
0.038614284 0.026957169 0.76499999 1.0236659e-38
0.040071428 0.026957169 0.76499999 1.032992e-38
-0.024262859 0.028674304 0.77200001 7.4266296e-40
-0.022733334 0.028600007 0.77000004 1.0199953e-39
-0.021266667 0.0286 0.77000004 1.2958648e-39
-0.0198 0.028600007 0.76999998 1.1121966e-39
-0.018333333 0.028600007 0.77000004 8.356167e-40
-0.016800953 0.028488576 0.76700002 7.4234767e-40
-0.015340001 0.028488576 0.76700002 6.4907304e-40
-0.013842858 0.028414316 0.76499999 6.497863e-40
-0.012353335 0.028340027 0.76299995 5.5867247e-40
-0.010871428 0.028265744 0.76099998 5.5903541e-40
-0.0094095236 0.028228588 0.75999999 5.6047314e-40
-0.0079619037 0.028228588 0.76000005 7.4414554e-40
-0.0064971433 0.028154314 0.75799996 9.2890113e-40
-0.0050533335 0.028154306 0.75800002 6.5412052e-40
-0.0036000004 0.028080009 0.75600004 4.7081667e-40
-0.0021571431 0.028042868 0.75500005 6.5521353e-40
-0.00071904768 0.02804286 0.75500005 9.3144589e-40
0.00071714295 0.027968585 0.75300002 1.024366e-39
0.0021514287 0.027968578 0.75300002 1.1161959e-39
0.0035857148 0.027968593 0.75300002 1.0254296e-39
0.0050333333 0.02804286 0.75500005 1.0250652e-39
0.006471429 0.028042868 0.75500005 8.3995371e-40
0.0079095233 0.028042868 0.755 7.4704202e-40
0.0093476186 0.02804286 0.75500005 9.3250667e-40
0.010785714 0.028042875 0.755 1.1172553e-39
0.012223809 0.02804286 0.75500005 1.1172553e-39
0.013625715 0.027968593 0.75300002 1.2083775e-39
0.015060001 0.027968578 0.75300002 8.3960479e-40
0.016494287 0.027968593 0.75300002 5.6445003e-40
0.017928572 0.027968585 0.75300002 5.6336542e-40
0.019362858 0.027968571 0.75300002 6.5090174e-40
0.020852385 0.028042875 0.755 1.6654026e-39
0.022320002 0.028080016 0.75600004 2.6705834e-39
0.023760002 0.028080001 0.75600004 2.5877274e-39
0.025266668 0.028154299 0.75799996 2.5855736e-39
0.026780954 0.028228588 0.75999999 2.4962465e-39
0.028228574 0.028228588 0.76000005 2.3979286e-39
0.029715242 0.028265737 0.76099998 2.3049916e-39
0.031246671 0.028340004 0.76299995 2.2181924e-39
0.032700002 0.028340027 0.76299995 6.5549211e-39
0.034153335 0.028340012 0.76299995 1.0969156e-38
0.035699997 0.028414309 0.76499999 1.0602922e-38
0.037157141 0.028414294 0.76499999 1.023558e-38
0.038614284 0.028414324 0.76499999 1.0328849e-38
0.04017619 0.028488584 0.76700002 1.0422114e-38
-0.024294287 0.030183837 0.77300006 8.348684e-40
-0.02279238 0.030144781 0.77199996 1.1121924e-39
-0.021266665 0.030066676 0.77000004 1.295513e-39
-0.019851428 0.030144773 0.77200001 1.1122092e-39
-0.018380951 0.030144773 0.77200001 8.356195e-40
-0.016866663 0.030066676 0.76999998 7.4198473e-40
-0.015360001 0.029988594 0.76800001 6.5014644e-40
-0.013879049 0.029949531 0.76700002 6.497849e-40
-0.012353335 0.029793352 0.76299995 6.497891e-40
-0.010871429 0.029715262 0.76099998 6.5015344e-40
-0.0094219055 0.029715247 0.76099998 6.5087511e-40
-0.0079619037 0.029676214 0.75999999 7.4235468e-40
-0.0064971433 0.029598109 0.75800002 7.4451408e-40
-0.0050533335 0.029598117 0.75799996 5.6228642e-40
-0.0036000004 0.029520027 0.75599998 3.7862244e-40
-0.0021571431 0.029480956 0.75500005 6.548548e-40
-0.00071904762 0.029480979 0.755 8.3960619e-40
0.00071714289 0.029402867 0.75300002 9.3216476e-40
0.0021514285 0.029402867 0.75300002 1.0247135e-39
0.0035952383 0.029480964 0.755 1.0254268e-39
0.0050333338 0.029480949 0.75500005 9.3286681e-40
0.006471429 0.029480971 0.755 7.4703642e-40
0.0079095224 0.029480956 0.75500005 4.7224879e-40
0.0093476186 0.029480964 0.75500005 8.4066838e-40
0.010785714 0.029480964 0.755 1.1165322e-39
0.012223809 0.029480949 0.75500005 1.3005605e-39
0.013661905 0.029480964 0.755 1.3920457e-39
0.0151 0.029480949 0.75500005 1.2094593e-39
0.016538097 0.029480971 0.755 1.0247051e-39
0.017976191 0.029480956 0.75500005 7.4990908e-40
0.019414289 0.029480964 0.75500005 4.6973626e-40
0.020880001 0.02952002 0.75600004 1.1107883e-39
0.022320002 0.029520005 0.75600004 1.7529361e-39
0.023760002 0.029520012 0.75599998 1.2033749e-39
0.02526667 0.029598109 0.75800002 6.5523035e-40
0.026780955 0.029676199 0.76000005 1.0250821e-39
0.028265718 0.029715262 0.76099998 1.3877423e-39
0.029793337 0.029793344 0.76299995 1.9329973e-39
0.031246673 0.029793359 0.76300001 2.4115716e-39
0.032700002 0.029793352 0.76299995 7.0266892e-39
0.034153335 0.029793337 0.76300001 1.1616682e-38
0.035699997 0.029871449 0.76499999 1.1064246e-38
0.037157141 0.029871449 0.76499999 1.042068e-38
0.038614284 0.029871456 0.76499999 1.0512517e-38
0.040071428 0.029871456 0.76499999 1.0513591e-38
-0.024294285 0.031656198 0.77300006 1.7553884e-39
-0.02279238 0.03161525 0.77200001 1.4791784e-39
-0.021321904 0.031615235 0.77200001 1.2944439e-39
-0.019877143 0.031656206 0.77300006 1.1111442e-39
-0.018380951 0.03161525 0.77200001 9.2781793e-40
-0.016866665 0.031533331 0.77000004 8.3489222e-40
-0.015360002 0.031451449 0.76800001 7.4269659e-40
-0.013842858 0.031328604 0.76500005 7.4161759e-40
-0.012353335 0.031246684 0.76299995 6.4907164e-40
-0.010900001 0.031246677 0.76300001 6.4979471e-40
-0.0094219046 0.031164788 0.76099998 6.5015905e-40
-0.0079619046 0.031123824 0.75999999 6.5123945e-40
-0.0065142866 0.031123824 0.75999999 6.5232265e-40
-0.0050533335 0.031041935 0.75799996 6.5304572e-40
-0.0036095243 0.03104192 0.75800002 6.5305413e-40
-0.0021571433 0.030919045 0.75500005 7.4597283e-40
-0.00071904768 0.030919068 0.755 9.3179762e-40
0.00071904762 0.030919053 0.75500005 9.3215635e-40
0.0021571429 0.03091906 0.755 1.0254254e-39
0.0035952383 0.030919053 0.75500005 9.3287101e-40
0.0050333333 0.030919053 0.75500005 8.4138584e-40
0.0064714286 0.03091906 0.755 6.5662884e-40
0.0079095243 0.030919053 0.75500005 4.7296205e-40
0.0093476195 0.030919068 0.755 7.4847134e-40
0.010785715 0.030919053 0.75500005 1.1161693e-39
0.012223811 0.030919053 0.75500005 9.307004e-40
0.013661907 0.030919053 0.755 7.4811822e-40
0.015100002 0.030919045 0.75500005 6.559352e-40
0.016538097 0.03091906 0.755 5.6481156e-40
0.017976191 0.030919053 0.75500005 4.6974187e-40
0.019414287 0.030919068 0.755 2.8498347e-40
0.020880001 0.030960016 0.75600004 1.2015336e-39
0.022320002 0.030960016 0.75599998 2.2099514e-39
0.023822859 0.031041928 0.75799996 2.1256703e-39
0.025266668 0.031041913 0.75800002 2.1231592e-39
0.026780954 0.031123824 0.75999999 3.3206065e-39
0.028265717 0.031164788 0.76100004 4.6030637e-39
0.029793337 0.031246684 0.76299995 4.8871685e-39
0.031246673 0.031246684 0.76300001 5.2645929e-39
0.032700002 0.031246684 0.76299995 8.4003107e-39
0.034153335 0.03124667 0.76300001 1.1621361e-38
0.035700001 0.031328604 0.76499999 1.1065315e-38
0.037157144 0.031328589 0.76499999 1.0604347e-38
0.038614288 0.031328604 0.76499999 1.0604709e-38
0.040071432 0.031328589 0.76500005 1.0605067e-38
-0.024294285 0.033128597 0.773 2.6759013e-39
-0.02279238 0.033085719 0.77200001 1.9383573e-39
-0.021321904 0.033085726 0.77200001 1.2026042e-39
-0.019851428 0.033085719 0.77200001 1.1104183e-39
-0.018380951 0.033085719 0.77200001 9.2781373e-40
-0.016800951 0.03287144 0.76700002 9.2744518e-40
-0.015340001 0.03287144 0.76700002 8.3453209e-40
-0.013842858 0.032785751 0.76499999 7.4161759e-40
-0.012385715 0.032785743 0.76500005 6.4942897e-40
-0.010900001 0.032700017 0.76300001 6.4979331e-40
-0.0094219046 0.032614298 0.76100004 6.5087511e-40
-0.0079619046 0.032571442 0.76000005 5.5940395e-40
-0.0064971438 0.032485731 0.75800002 4.6865166e-40
-0.0050533335 0.032485746 0.75799996 6.5232966e-40
-0.0036095241 0.032485731 0.75800002 8.3672512e-40
-0.0021571431 0.032357141 0.75500005 9.2820889e-40
-0.00071904773 0.032357156 0.75500005 9.3035989e-40
0.00071904768 0.032357156 0.75500005 9.3143608e-40
0.0021571429 0.032357149 0.755 9.3215495e-40
0.0035952383 0.032357149 0.75500005 8.3960339e-40
0.0050333333 0.032357156 0.755 6.5664145e-40
0.006471429 0.032357149 0.75500005 5.6443882e-40
0.0079095243 0.032357156 0.75500005 3.8077203e-40
0.0093476195 0.032357156 0.755 7.4811822e-40
0.010785715 0.032357141 0.75500005 1.1125847e-39
0.01222381 0.032357156 0.755 6.4981573e-40
0.013661907 0.032357149 0.75500005 1.0454948e-40
0.015100002 0.032357149 0.75500005 1.0097056e-40
0.016538098 0.032357149 0.755 1.0347889e-40
0.017976193 0.032357156 0.75500005 9.4866505e-41
0.019414289 0.032357156 0.755 9.8103504e-41
0.020880003 0.032400012 0.75599998 1.3841676e-39
0.022320004 0.032399997 0.75600004 2.5930972e-39
0.023822861 0.032485738 0.75799996 3.149494e-39
0.025333337 0.032571442 0.76000005 3.6050939e-39
0.026816195 0.032614298 0.76099998 5.7151692e-39
0.028265718 0.032614306 0.76100004 7.7423562e-39
0.029793337 0.032700025 0.76299995 7.9317571e-39
0.031246671 0.032700017 0.76300001 8.1179588e-39
0.032785714 0.032785736 0.76499999 9.8714638e-39
0.034242857 0.032785736 0.76499999 1.1524853e-38
0.035699997 0.032785736 0.76500005 1.1154993e-38
0.037302859 0.032914296 0.76800001 1.0695823e-38
0.038866669 0.033000015 0.77000004 1.0696547e-38
0.040333334 0.033000015 0.77000004 1.0697263e-38
-0.02279238 0.034556203 0.77200001 2.1234632e-39
-0.021321904 0.034556195 0.77200001 1.4777491e-39
-0.019851428 0.034556217 0.77199996 1.2029629e-39
-0.018261904 0.034332387 0.76700002 9.2852699e-40
-0.016800951 0.03433238 0.76700002 8.3525096e-40
-0.015340002 0.034332402 0.76700002 8.3417336e-40
-0.013842858 0.034242883 0.76499999 7.4161759e-40
-0.012353335 0.034153342 0.76299995 6.4906884e-40
-0.010900001 0.034153365 0.76299995 7.4198473e-40
-0.0094219055 0.034063824 0.76099998 8.356209e-40
-0.0079619046 0.034019068 0.75999999 6.5231424e-40
-0.0064971438 0.033929542 0.75800002 4.6972786e-40
-0.0050533339 0.033929542 0.75799996 4.6973626e-40
-0.0036095243 0.033929549 0.75800002 5.619375e-40
-0.0021571429 0.03379526 0.755 7.456141e-40
-0.00071904762 0.033795245 0.75500005 8.3816426e-40
0.00071904768 0.033795245 0.75500005 9.3107315e-40
0.0021571431 0.033795245 0.75500005 9.3215355e-40
0.0035952386 0.033795252 0.75500005 8.4068099e-40
0.0050333333 0.033795245 0.755 7.4883849e-40
0.0064714286 0.033795238 0.75500005 4.7224739e-40
0.0079095233 0.03379526 0.755 2.88582e-40
0.0093476195 0.033795245 0.75500005 8.3637059e-40
0.010785715 0.033795245 0.75500005 1.4770611e-39
0.01222381 0.033795245 0.755 3.6933029e-39
0.013661906 0.033795238 0.75500005 5.9906294e-39
0.015100002 0.033795245 0.755 5.9031029e-39
0.016538097 0.033795252 0.75500005 5.8058864e-39
0.017976191 0.03379526 0.755 4.3300613e-39
0.019414287 0.033795245 0.75500005 2.9450235e-39
0.020880001 0.033840016 0.75600004 4.8933258e-39
0.022320002 0.033840016 0.75599998 6.8423022e-39
0.023822859 0.033929557 0.75799996 6.9262287e-39
0.025333336 0.034019068 0.75999999 7.1059761e-39
0.026816195 0.034063824 0.76100004 7.4736978e-39
0.028265718 0.034063831 0.76099998 7.9436289e-39
0.029793335 0.034153357 0.76299995 7.8420992e-39
0.031246671 0.034153357 0.76299995 7.6595072e-39
0.032785714 0.034242891 0.76499999 9.4097654e-39
0.034242857 0.034242876 0.76500005 1.1247905e-38
0.035699997 0.034242883 0.76499999 1.087984e-38
0.037302859 0.034377143 0.76800001 1.0603268e-38
0.038866669 0.034466669 0.77000004 1.0604714e-38
0.040333334 0.034466676 0.77000004 1.0605429e-38
-0.018261904 0.035793334 0.76700002 8.3525096e-40
-0.016800951 0.035793334 0.76700008 8.3488382e-40
-0.015340001 0.035793342 0.76700002 7.4233226e-40
-0.013842859 0.035700023 0.76499999 6.497821e-40
-0.012353335 0.035606675 0.76299995 5.5759347e-40
-0.010900001 0.03560669 0.76299995 8.3310557e-40
-0.0094219046 0.035513356 0.76099998 1.0185772e-39
-0.0079619046 0.035466678 0.76000005 7.4379521e-40
-0.0064971433 0.035373352 0.75800002 3.7789516e-40
-0.005053333 0.035373345 0.75800002 3.7861963e-40
-0.0036095243 0.035373352 0.75800002 2.8715128e-40
-0.0021600001 0.035280012 0.75599998 5.6266617e-40
-0.00071904768 0.035233349 0.75500005 7.466917e-40
0.00071904773 0.035233349 0.755 8.3852439e-40
0.0021571429 0.035233341 0.75500005 9.3216055e-40
0.0035952383 0.035233349 0.755 9.3360249e-40
0.0050333333 0.035233334 0.75500005 8.4067398e-40
0.006471429 0.035233341 0.75500005 4.7116279e-40
0.0079095233 0.035233349 0.755 1.0095795e-40
0.0093228575 0.035140015 0.75300002 9.2353836e-40
0.010785715 0.035233349 0.755 1.7676623e-39
0.012223811 0.035233356 0.75500005 6.8394491e-39
0.013661907 0.035233341 0.75500005 1.1890036e-38
0.015100002 0.035233334 0.755 1.1715327e-38
0.016538098 0.035233341 0.75500005 1.1424753e-38
0.018000001 0.035280012 0.75599998 8.5667303e-39
0.019414289 0.035233349 0.75500005 5.7248718e-39
0.020880001 0.035280034 0.75599998 8.401754e-39
0.022379048 0.035373345 0.75800002 1.0973851e-38
0.023822861 0.035373367 0.75799996 1.0790526e-38
0.025333336 0.035466686 0.76000005 1.0510719e-38
0.026816195 0.035513364 0.76099998 9.3136336e-39
0.028340004 0.035606682 0.76299995 8.1175931e-39
0.029871432 0.035700023 0.76500005 7.6490633e-39
0.031328574 0.035700031 0.76499999 7.1974473e-39
0.032785717 0.035700016 0.76500005 9.0435123e-39
0.034242861 0.035700023 0.76499999 1.0880574e-38
0.035840001 0.035840005 0.76800001 1.0696178e-38
0.037302859 0.03584002 0.76800001 1.0421039e-38
0.038866669 0.035933346 0.77000004 1.0421765e-38
0.040333334 0.035933331 0.77000004 1.042247e-38
-0.018285714 0.037302867 0.76800001 8.3416915e-40
-0.016800951 0.037254289 0.76700002 7.4268118e-40
-0.015340002 0.037254296 0.76700002 7.4232805e-40
-0.013842858 0.03715717 0.76499999 6.497807e-40
-0.012353335 0.037060015 0.76300001 6.497891e-40
-0.010900001 0.037060015 0.76299995 6.5051358e-40
-0.0094219046 0.036962882 0.76100004 7.4271481e-40
-0.0079723801 0.036962882 0.76099998 6.5232125e-40
-0.0065142862 0.036914296 0.75999999 6.5376179e-40
-0.0050666668 0.036914311 0.75999999 5.6229063e-40
-0.0036095243 0.036817163 0.75799996 4.7154254e-40
-0.0021600001 0.036720008 0.75600004 5.6338784e-40
-0.00072000007 0.036720023 0.75599998 7.4741477e-40
0.00071904768 0.036671437 0.755 9.3179902e-40
0.0021571429 0.036671445 0.75500005 1.116556e-39
0.0035952383 0.036671437 0.755 1.0254478e-39
0.0050333333 0.036671422 0.75500005 9.3286821e-40
0.0064800009 0.036720023 0.75599998 4.6935932e-40
0.0079199998 0.036720015 0.75600004 9.7722351e-41
0.0093476195 0.036671437 0.75500005 2.9582644e-39
0.010785715 0.036671437 0.755 5.8206505e-39
0.01222381 0.03667143 0.75500005 7.3008407e-39
0.013661907 0.036671437 0.755 8.8724319e-39
0.015100002 0.03667143 0.75500005 8.9481077e-39
0.016538097 0.036671437 0.75500005 9.1418203e-39
0.017976191 0.036671437 0.755 9.0431647e-39
0.019414287 0.036671422 0.75500005 8.955648e-39
0.020879999 0.036720015 0.75600004 9.8743743e-39
0.022320002 0.03672 0.75600004 1.0698014e-38
0.023885716 0.036914296 0.76000005 1.0423574e-38
0.025333336 0.036914304 0.75999999 1.0149131e-38
0.026816193 0.036962874 0.76100004 9.7763956e-39
0.028340004 0.03706003 0.76299995 9.4007593e-39
0.029793337 0.037060022 0.76299995 8.4787722e-39
0.031410474 0.037254296 0.76700002 7.5604704e-39
0.032871425 0.037254296 0.76700002 9.2243246e-39
0.034377147 0.037302874 0.76800001 1.0973137e-38
0.035840001 0.037302859 0.76800001 1.0789099e-38
0.037302859 0.037302852 0.76800001 1.0605793e-38
0.038765717 0.037302881 0.76800001 1.0513963e-38
0.040228575 0.037302867 0.76800001 1.0515019e-38
0.04169143 0.037302881 0.76800001 1.0054026e-38
-0.018285714 0.038765717 0.76800001 8.3453349e-40
-0.016800953 0.038715247 0.76700002 7.4269099e-40
-0.015340001 0.03871524 0.76700002 6.5014083e-40
-0.013879049 0.038715243 0.76700002 6.4906744e-40
-0.012385715 0.03861431 0.76499999 6.5015064e-40
-0.010900001 0.038513348 0.76299995 5.5975708e-40
-0.0094466675 0.038513336 0.76300001 4.6792579e-40
-0.0079723811 0.038412407 0.76100004 6.5267718e-40
-0.0065142862 0.038361907 0.76000005 8.3671251e-40
-0.0050666668 0.038361929 0.75999999 7.4560149e-40
-0.0036190478 0.038361922 0.76000005 5.6265637e-40
-0.0021600001 0.038160022 0.75599998 6.5521773e-40
-0.00072000001 0.038160015 0.75600004 6.559324e-40
0.00072000013 0.038160015 0.75600004 9.3251368e-40
0.0021599997 0.038160011 0.75599998 1.209102e-39
0.0035999999 0.038160019 0.75600004 1.1179909e-39
0.0050400002 0.038160019 0.75599998 9.3179061e-40
0.0064800009 0.038160011 0.75600004 5.5940816e-40
0.0079200007 0.038160022 0.75599998 1.0382921e-40
0.0093600005 0.038160015 0.75600004 4.9912121e-39
0.0108 0.038160015 0.75600004 9.867145e-39
0.01224 0.038160015 0.75599998 7.8539794e-39
0.013661906 0.03810953 0.755 5.7205852e-39
0.015120001 0.038160019 0.75599998 6.2457568e-39
0.016560001 0.038160011 0.75600004 6.7400999e-39
0.018000001 0.038160022 0.75599998 9.5080903e-39
0.019440001 0.038160015 0.75600004 1.2172767e-38
0.020880001 0.038160019 0.75600004 1.1349489e-38
0.02237905 0.038260978 0.75800002 1.0425742e-38
0.023885718 0.038361918 0.75999999 1.0056236e-38
0.025366668 0.038412407 0.76099998 9.6892502e-39
0.02688667 0.03851334 0.76300001 1.0241695e-38
0.028414289 0.038614303 0.76499999 1.0692571e-38
0.029871432 0.038614318 0.76499999 9.304228e-39
0.031410474 0.03871524 0.76700002 7.8381293e-39
0.032914285 0.038765725 0.76800001 9.411929e-39
0.034377143 0.038765725 0.76800001 1.0973127e-38
0.035840001 0.038765721 0.76800001 1.0881286e-38
0.037302859 0.038765728 0.76800001 1.0697257e-38
0.038866669 0.038866676 0.77000004 1.0697259e-38
-0.019799998 0.040333342 0.77000004 1.5685126e-39
-0.018285712 0.040228587 0.76800001 8.3418177e-40
-0.016822854 0.040228572 0.76800001 7.4234066e-40
-0.015340002 0.040176202 0.76700002 6.497891e-40
-0.013879049 0.040176198 0.76700002 5.5759488e-40
-0.012385715 0.04007145 0.76500005 5.5831795e-40
-0.010900001 0.039966676 0.76299995 4.6720552e-40
-0.0094466675 0.039966669 0.76300001 4.6756705e-40
-0.0079723801 0.039861929 0.76099998 5.6048015e-40
-0.0065142862 0.039809532 0.75999999 7.4415815e-40
-0.0050666672 0.039809544 0.76000005 7.4523995e-40
-0.0036190478 0.03980954 0.75999999 7.4524696e-40
-0.0021600001 0.039600015 0.75600004 7.4632876e-40
-0.00072000007 0.039600015 0.75600004 6.5521073e-40
0.00072000007 0.039600011 0.75599998 1.1161805e-39
0.0021599999 0.039600011 0.75600004 1.5771558e-39
0.0036000002 0.039600018 0.75599998 1.3016521e-39
0.0050400002 0.039600004 0.75600004 1.0254184e-39
0.0064714295 0.039547648 0.75500005 5.5905503e-40
0.0079199998 0.039600015 0.75600004 9.3435779e-41
0.0093600005 0.039600015 0.75600004 5.2620663e-39
0.0108 0.039600015 0.75599998 1.0516801e-38
0.012240002 0.039600007 0.75600004 9.586989e-39
0.013680002 0.039600018 0.75599998 8.7263802e-39
0.015120002 0.039600018 0.75600004 8.8397298e-39
0.016559999 0.039600022 0.75599998 8.9516796e-39
0.017999999 0.039600015 0.75600004 9.3208404e-39
0.019439999 0.039600015 0.75600004 9.6946508e-39
0.020879999 0.039600015 0.75599998 9.878333e-39
0.02237905 0.039704777 0.75799996 1.0058404e-38
0.023822861 0.039704781 0.75800002 9.5956267e-39
0.02536667 0.039861917 0.76100004 9.1364562e-39
0.02688667 0.039966669 0.76300001 9.1371806e-39
0.028414289 0.040071473 0.76499999 9.1392784e-39
0.029949527 0.040176209 0.76700002 7.0054834e-39
0.031451426 0.040228579 0.76800001 4.9840543e-39
0.032914285 0.04022859 0.76800001 7.5680305e-39
0.034377143 0.040228575 0.76800001 1.0238074e-38
0.035839997 0.040228579 0.76800001 1.0051531e-38
0.037400004 0.040333334 0.77000004 9.870368e-39
-0.0198 0.041800011 0.77000004 2.0269782e-39
-0.018333333 0.041800007 0.77000004 8.3382584e-40
-0.016822856 0.041691434 0.76800001 7.4234066e-40
-0.015340002 0.041637152 0.76700002 6.497891e-40
-0.01387905 0.041637152 0.76700002 5.5616135e-40
-0.012385715 0.041528594 0.76499999 3.7465116e-40
-0.010900001 0.041420009 0.76299995 4.6649506e-40
-0.0094466675 0.041420024 0.76299995 4.6756986e-40
-0.007993334 0.041420009 0.76299995 5.6048015e-40
-0.0065228576 0.041311443 0.76099998 5.6120462e-40
-0.0050733336 0.04131145 0.76100004 7.4524135e-40
-0.003619048 0.041257154 0.76000005 9.2927668e-40
-0.0021657143 0.041148599 0.75800002 8.3744819e-40
-0.00072000007 0.041040011 0.75599998 6.5521213e-40
0.00072000001 0.041040011 0.75600004 1.2994955e-39
0.0021599999 0.041040018 0.75599998 1.9441405e-39
0.0036000002 0.041040003 0.75600004 1.5778789e-39
0.0050399997 0.041040014 0.75599998 1.1154602e-39
0.0064800004 0.041040029 0.75600004 6.5017166e-40
0.0079200007 0.041040014 0.75600004 1.013377e-40
0.0093600005 0.041040011 0.75599998 5.6301496e-39
0.010800001 0.041040011 0.75600004 1.1064971e-38
0.012240001 0.041040018 0.75599998 1.1434851e-38
0.013680001 0.041040018 0.75600004 1.1701024e-38
0.015120001 0.041040014 0.75599998 1.1435197e-38
0.016560001 0.041040014 0.75600004 1.1155388e-38
0.018000001 0.041040014 0.75600004 9.2200296e-39
0.019440001 0.041040011 0.75599998 7.2014536e-39
0.020880001 0.041040014 0.75600004 8.5025886e-39
0.022320002 0.041040018 0.75599998 9.68603e-39
0.023822861 0.041148588 0.75800002 9.1314143e-39
0.025333336 0.041257158 0.75999999 8.5793279e-39
0.02688667 0.041420009 0.76300001 8.0308303e-39
0.028414289 0.041528594 0.76499999 7.4697294e-39
0.029949527 0.041637149 0.76700002 4.7773992e-39
0.03145143 0.041691441 0.76800001 2.1306841e-39
0.032914288 0.04169143 0.76800001 5.8220546e-39
0.034466669 0.041800003 0.77000004 9.4068591e-39
0.035933334 0.041800007 0.76999998 9.2156464e-39
0.037400004 0.041800011 0.77000004 8.9480418e-39
-0.018333331 0.043266676 0.77000004 9.2494667e-40
-0.016866663 0.04326668 0.77000004 8.3381743e-40
-0.015360002 0.043154284 0.76800001 7.4198333e-40
-0.013879049 0.043098111 0.76700002 6.5014924e-40
-0.012385715 0.042985745 0.76499999 4.6792579e-40
-0.010928572 0.042985734 0.76499999 4.67937e-40
-0.0094466675 0.042873353 0.76299995 4.6793139e-40
-0.007993334 0.042873345 0.76299995 5.6047875e-40
-0.006522858 0.042760979 0.76099998 5.6156335e-40
-0.0050733341 0.042760972 0.76100004 6.5340586e-40
-0.003619048 0.04270478 0.75999999 8.3816005e-40
-0.0021657145 0.042592403 0.75799996 7.4633156e-40
-0.0007219048 0.042592395 0.75800002 6.548548e-40
0.00072190474 0.042592406 0.75799996 1.0239904e-39
0.0021657143 0.042592391 0.75800002 1.4846071e-39
0.0036000002 0.042480014 0.75599998 1.2094621e-39
0.0050399997 0.042480014 0.75600004 1.0250596e-39
0.0064800004 0.042480014 0.75600004 5.5797463e-40
0.0079199998 0.042480011 0.75599998 9.2380601e-41
0.0093599996 0.042480011 0.75600004 5.6326831e-39
0.0108 0.042480014 0.75599998 1.1075402e-38
0.012240002 0.042480018 0.75600004 1.0520831e-38
0.013680002 0.042480014 0.75599998 9.8812085e-39
0.015120002 0.042480007 0.75600004 7.9415396e-39
0.016559999 0.042480014 0.75600004 6.0147682e-39
0.017999999 0.042480011 0.75599998 4.7997205e-39
0.019439999 0.042480014 0.75600004 3.6837166e-39
0.020879999 0.042480018 0.75599998 4.3420032e-39
0.02237905 0.042592406 0.75799996 4.9905717e-39
0.023822861 0.042592414 0.75800002 4.8940531e-39
0.02536667 0.042760961 0.76100004 4.895488e-39
0.026816195 0.042760983 0.76099998 5.4486534e-39
0.02841429 0.042985737 0.76499999 6.002504e-39
0.029949527 0.043098103 0.76700002 3.8712426e-39
0.031451426 0.043154296 0.76800001 1.7557975e-39
0.033000004 0.043266661 0.77000004 7.1059313e-39
0.034466669 0.043266676 0.77000004 1.2442779e-38
0.035839997 0.043154303 0.76800001 1.2350571e-38
0.037400004 0.043266669 0.77000004 1.2350593e-38
-0.018380951 0.044849541 0.77200001 9.2673753e-40
-0.016910475 0.044849541 0.77200001 9.2565292e-40
-0.015400002 0.044733342 0.77000004 8.3417616e-40
-0.01387905 0.044559054 0.76700002 7.4305813e-40
-0.012385715 0.044442885 0.76499999 5.5975428e-40
-0.010928572 0.044442885 0.76499999 5.6048155e-40
-0.0094466675 0.044326685 0.76299995 4.6864465e-40
-0.007993334 0.044326678 0.76300001 5.6047875e-40
-0.0065400004 0.044326689 0.76299995 5.6084589e-40
-0.0050733336 0.044210505 0.76099998 6.5232966e-40
-0.0036238099 0.044210494 0.76100004 6.5413313e-40
-0.0021657145 0.044036224 0.75799996 6.548604e-40
-0.0007219048 0.04403621 0.75800002 6.5557507e-40
0.00072190474 0.044036213 0.75799996 8.4067819e-40
0.0021657143 0.044036202 0.75800002 9.3287381e-40
0.0036095239 0.044036217 0.75799996 9.3323535e-40
0.0050533335 0.044036221 0.75800002 9.3071301e-40
0.0064971433 0.044036217 0.75799996 5.5618657e-40
0.0079200007 0.04392001 0.75600004 1.0385724e-40
0.0093600005 0.043920025 0.75599998 5.6409228e-39
0.010828571 0.044036213 0.75800002 1.1068199e-38
0.012240001 0.043920014 0.75599998 9.5999216e-39
0.013680001 0.043920018 0.75600004 8.0232787e-39
0.015120001 0.04392001 0.75600004 4.4352217e-39
0.016560001 0.043920022 0.75599998 7.5533911e-40
0.018000001 0.04392001 0.75600004 4.6440152e-40
0.019440001 0.04392001 0.75599998 9.9936403e-41
0.020880001 0.043920018 0.75600004 1.9070271e-40
0.02237905 0.044036213 0.75799996 2.8898698e-40
0.023822861 0.044036213 0.75800002 7.4277507e-40
0.02526667 0.04403621 0.75800002 1.1194427e-39
0.026816195 0.044210505 0.76099998 2.865752e-39
0.028340004 0.044326674 0.76299995 4.5191245e-39
0.029949525 0.044559047 0.76700002 2.9492863e-39
0.031451426 0.044617154 0.76800001 1.3048667e-39
0.033000004 0.044733338 0.77000004 8.4031147e-39
0.034466669 0.044733349 0.76999998 1.5480904e-38
0.035933334 0.044733342 0.77000004 1.5576326e-38
0.037400004 0.044733342 0.77000004 1.5665658e-38
-0.018380951 0.046320006 0.77200001 1.0185702e-39
-0.016910475 0.046320021 0.77200001 9.2601166e-40
-0.015360002 0.046080004 0.76800001 8.3417476e-40
-0.013897143 0.046080008 0.76800001 7.4269519e-40
-0.012418096 0.046020001 0.76700002 6.5122544e-40
-0.010928572 0.045900021 0.76499999 6.5123104e-40
-0.0094714295 0.045900024 0.76499999 6.5231144e-40
-0.0080142859 0.045900028 0.76500005 7.4379101e-40
-0.0065400004 0.045780018 0.76299995 7.4379942e-40
-0.0050866669 0.045780007 0.76300001 6.5304712e-40
-0.0036238097 0.04566003 0.76099998 5.6265917e-40
-0.0021657145 0.045480032 0.75799996 6.5486601e-40
-0.0007219048 0.04548002 0.75800002 6.559366e-40
0.0007219048 0.045480032 0.75799996 9.3143748e-40
0.0021657143 0.04548002 0.75800002 1.2991382e-39
0.0036095243 0.04548002 0.75799996 1.1158259e-39
0.005053333 0.045480028 0.75800002 1.0239848e-39
0.0064971433 0.045480013 0.75800002 7.4273303e-40
0.0079409517 0.045480028 0.75800002 4.6258684e-40
0.0093847616 0.04548002 0.75800002 3.7012454e-39
0.010828571 0.045480017 0.75799996 6.9355754e-39
0.012240001 0.045360018 0.75600004 5.6326565e-39
0.013680002 0.045360003 0.75600004 4.4118635e-39
0.015120002 0.045360021 0.75599998 2.7659726e-39
0.016560001 0.04536001 0.75600004 1.1064863e-39
0.018000003 0.045360006 0.75599998 9.2676976e-40
0.019440003 0.045360014 0.75600004 7.445351e-40
0.020880003 0.045360029 0.75599998 6.5198214e-40
0.02237905 0.045480024 0.75800002 6.4947381e-40
0.023885718 0.045600016 0.76000005 1.1133176e-39
0.025333337 0.045600019 0.75999999 1.6672005e-39
