# .PCD v0.7 - Point Cloud Data file format
VERSION 0.7
FIELDS x y z rgb
SIZE 4 4 4 4
TYPE F F F F
COUNT 1 1 1 1
WIDTH 968
HEIGHT 1
VIEWPOINT 0 0 0 1 0 0 0
POINTS 968
DATA ascii
0.03269995 0.0094466805 0.76300001 1.585006e-38
0.034242861 0.0094714463 0.76500005 1.5851855e-38
-0.027027676 0.010957167 0.76700008 1.0210912e-39
-0.02556671 0.010957152 0.76700008 8.3597683e-40
-0.024042865 0.010928586 0.76500005 5.5866687e-40
-0.022526708 0.010900021 0.76300001 1.2962109e-39
-0.021073362 0.010900021 0.76300001 2.038141e-39
-0.019620014 0.010900013 0.76300001 4.9012544e-39
-0.018095242 0.010857157 0.76000011 7.8536067e-39
-0.016603798 0.010828592 0.75800008 8.3084639e-39
-0.015159992 0.010828577 0.75800008 8.8623426e-39
-0.013716185 0.010828584 0.75800008 9.6856293e-39
-0.012272392 0.010828592 0.75800002 1.0437901e-38
-0.010800035 0.010800011 0.75600004 1.1902255e-38
-0.0093600135 0.010800004 0.75600004 1.3361944e-38
-0.0079095652 0.010785729 0.75500005 1.1619945e-38
-0.0064714681 0.010785736 0.75500005 9.7843157e-39
-0.0050333552 0.010785729 0.75500011 1.0331746e-38
-0.0035952572 0.010785736 0.75500011 1.0896009e-38
-0.0021428913 0.010714307 0.75000006 6.2812517e-39
-0.0007142945 0.010714307 0.75000006 1.5778873e-39
0.00071424164 0.010714307 0.75000006 1.2962585e-39
0.0021428382 0.010714307 0.75000012 1.0196716e-39
0.0035713967 0.010714322 0.75000006 1.1136539e-39
0.0049999943 0.010714322 0.75000006 1.2069384e-39
0.0064285304 0.010714307 0.75000006 1.1151155e-39
0.007836164 0.010685727 0.74800003 9.3107875e-40
0.0092609534 0.010685727 0.74800003 8.3959358e-40
0.010685704 0.01068572 0.74800003 6.55931e-40
0.012110454 0.010685734 0.74800003 7.4741617e-40
0.013535243 0.01068572 0.74800003 8.3817406e-40
0.014999975 0.010714307 0.75000006 7.466945e-40
0.016428573 0.010714307 0.75000012 6.5630234e-40
0.017904775 0.01074288 0.75200009 1.1169232e-39
0.019362846 0.010757156 0.75300002 1.5782614e-39
0.02085235 0.010785744 0.75500005 1.6701053e-39
0.022290448 0.010785736 0.75500005 1.7608534e-39
0.02375998 0.010800011 0.75600004 5.4457415e-39
0.025199978 0.010799997 0.7560001 9.2138597e-39
0.026710493 0.010828584 0.75800008 1.1150289e-38
0.028154301 0.010828599 0.75800008 1.318216e-38
0.029676169 0.010857157 0.76000011 1.4565802e-38
0.03124666 0.010900021 0.76300001 1.5850781e-38
0.032699969 0.010900028 0.76300001 1.585006e-38
0.034153312 0.010900013 0.76300001 1.5849341e-38
-0.028600017 0.012466684 0.77000004 1.1122008e-39
-0.027062884 0.012434296 0.76800007 9.2888852e-40
-0.025600014 0.012434289 0.76800001 6.530219e-40
-0.024042824 0.012385719 0.7650001 2.8388485e-40
-0.022585707 0.012385741 0.76500005 6.4799684e-40
-0.021073366 0.012353361 0.76300001 1.0211024e-39
-0.0195686 0.012320973 0.76100004 2.3147167e-39
-0.018047625 0.012272388 0.75800008 3.6119141e-39
-0.016603796 0.012272395 0.75800008 7.2089463e-39
-0.015159989 0.012272388 0.75800008 1.0789099e-38
-0.013716198 0.01227241 0.75800002 1.1534906e-38
-0.012240012 0.012240015 0.7560001 1.217382e-38
-0.010800052 0.012240008 0.75600004 1.2271046e-38
-0.0093600312 0.012240015 0.75600004 1.2355356e-38
-0.0079095513 0.012223832 0.75500005 1.2824946e-38
-0.0064714374 0.012223825 0.75500011 1.3274797e-38
-0.0050333394 0.012223832 0.75500005 1.355784e-38
-0.0035952637 0.012223832 0.75500011 1.3735009e-38
-0.0021428922 0.012142889 0.75000006 7.9450232e-39
-0.00071429543 0.012142882 0.75000006 2.1296037e-39
0.00071424164 0.012142882 0.75000006 1.8422507e-39
0.0021428382 0.012142874 0.75000012 1.4795708e-39
0.0035713967 0.012142889 0.75000006 1.2987697e-39
0.0049999943 0.012142889 0.75000012 1.1151057e-39
0.0064285286 0.012142874 0.75000006 1.0236373e-39
0.0078571253 0.012142889 0.75000012 9.3143889e-40
0.0092856865 0.012142882 0.75000006 8.3995792e-40
0.01068572 0.012110494 0.74800003 6.559324e-40
0.012142817 0.012142882 0.75000006 5.6374377e-40
0.013571415 0.012142882 0.75000012 4.7118941e-40
0.014999974 0.012142874 0.75000006 5.6338224e-40
0.016472388 0.012175255 0.75200009 6.5665967e-40
0.017904757 0.012175255 0.75200003 9.3325076e-40
0.019362854 0.012191437 0.75300008 1.2102006e-39
0.02085234 0.01222384 0.75500005 1.1187322e-39
0.022290478 0.012223825 0.75500011 1.0304729e-39
0.023759963 0.012240008 0.75600004 4.9908674e-39
0.025199985 0.012240015 0.75600004 8.8501022e-39
0.026710495 0.012272395 0.75800008 1.0968407e-38
0.02822854 0.012304775 0.76000005 1.2998135e-38
0.029715218 0.012320966 0.7610001 1.4477566e-38
0.031246655 0.012353346 0.76300001 1.594262e-38
0.032699961 0.012353353 0.76300001 1.5942253e-38
0.034153309 0.012353353 0.76300001 1.5850783e-38
-0.028600046 0.013933361 0.77000004 1.0199911e-39
-0.027133329 0.013933361 0.77000004 1.1129098e-39
-0.025666697 0.013933368 0.77000004 9.2888572e-40
-0.024200063 0.013933361 0.77000004 8.366985e-40
-0.022733346 0.013933368 0.77000004 7.4020649e-40
-0.021128578 0.013842881 0.76500005 7.3587928e-40
-0.019620039 0.013806701 0.76300001 2.8545305e-39
-0.018095275 0.013752408 0.76000005 5.0604363e-39
-0.016603792 0.013716213 0.75800008 7.5626537e-39
-0.015160002 0.013716213 0.75800002 1.0131905e-38
-0.013716195 0.013716213 0.75800002 8.1161974e-39
-0.012240031 0.013680011 0.75600004 6.1865884e-39
-0.01080001 0.013680004 0.75600004 6.1844472e-39
-0.0093600489 0.013680018 0.75600004 6.2791638e-39
-0.0079095224 0.013661921 0.75500011 6.4606922e-39
-0.0064714476 0.013661928 0.75500011 6.7379923e-39
-0.0050333478 0.013661928 0.75500005 6.8316201e-39
-0.003595273 0.013661928 0.75500005 6.9294882e-39
-0.0021485565 0.013607636 0.75200009 4.157497e-39
-0.00071621116 0.013607629 0.75200003 1.3780453e-39
0.00071423978 0.013571456 0.75000006 1.2926726e-39
0.0021428363 0.013571449 0.75000012 1.2980578e-39
0.0035713948 0.013571456 0.75000006 1.206944e-39
0.0049999924 0.013571441 0.75000006 1.1151099e-39
0.0064285286 0.013571449 0.75000006 1.0232758e-39
0.0078571253 0.013571456 0.75000012 9.3072282e-40
0.0092856847 0.013571456 0.75000006 8.3960479e-40
0.010714281 0.013571456 0.75000012 7.4812943e-40
0.012142817 0.013571456 0.75000006 5.6338224e-40
0.013571415 0.013571456 0.75000012 4.7047055e-40
0.014999974 0.013571449 0.75000006 5.6374097e-40
0.016472371 0.013607636 0.75200009 7.4849517e-40
0.017904775 0.013607636 0.75200009 1.0254422e-39
0.01936285 0.013625741 0.75300002 1.3027507e-39
0.02085237 0.013661928 0.75500011 1.4867889e-39
0.02229047 0.013661921 0.75500011 1.6697326e-39
0.023759982 0.013679996 0.7560001 3.7905474e-39
0.025199967 0.013680018 0.75600004 5.9106461e-39
0.026710458 0.013716206 0.75800002 8.7639924e-39
0.028228562 0.013752386 0.76000011 1.161917e-38
0.029715216 0.013770498 0.76100004 1.2449304e-38
0.031246651 0.013806678 0.76300001 1.3183972e-38
0.03269998 0.013806686 0.76300001 1.3275434e-38
0.034242854 0.013842873 0.76500005 1.3461631e-38
-0.027133359 0.015400022 0.77000004 1.2962207e-39
-0.025666688 0.01540003 0.7700001 1.295869e-39
-0.024200009 0.01540003 0.77000004 1.2937208e-39
-0.022733377 0.015400022 0.77000004 9.2351314e-40
-0.021128541 0.015300013 0.7650001 4.6147001e-40
-0.019620044 0.015260011 0.76300001 3.4902533e-39
-0.018095251 0.015200011 0.76000011 6.4545068e-39
-0.016603829 0.015160024 0.75800002 7.9407843e-39
-0.015160001 0.015160017 0.75800002 9.4040467e-39
-0.013680008 0.01512 0.75600004 4.7950458e-39
-0.012240048 0.015120007 0.75600004 1.0641741e-40
-0.010800027 0.015120007 0.75600004 9.3148513e-41
-0.0093600275 0.015120007 0.75600004 1.0855859e-40
-0.0079095308 0.015100017 0.75500011 9.2401621e-41
-0.006471456 0.015100017 0.75500011 1.0352933e-40
-0.0050333561 0.015100025 0.75500005 1.0066788e-40
-0.0036000255 0.015120007 0.75600004 1.0924523e-40
-0.0021514567 0.015060022 0.75300002 3.7790357e-40
-0.00071619253 0.01504001 0.75200009 5.5978511e-40
0.00071617414 0.015040025 0.75200003 8.3565453e-40
0.0021428345 0.015000015 0.75000012 1.0218409e-39
0.003571393 0.01500003 0.75000006 1.1151141e-39
0.0049999906 0.01500003 0.75000012 1.1154658e-39
0.0064285491 0.01500003 0.75000006 1.0229072e-39
0.0078571234 0.01500003 0.75000012 9.3108015e-40
0.0092856828 0.015000023 0.75000006 8.3997053e-40
0.010714279 0.01500003 0.75000012 7.477735e-40
0.012142838 0.015000023 0.75000006 6.5521914e-40
0.013571413 0.015000023 0.75000012 4.7118801e-40
0.014999972 0.015000023 0.75000006 6.5557647e-40
0.01649428 0.01506003 0.75300008 7.4849377e-40
0.017928569 0.015060022 0.75300002 1.0257995e-39
0.019362858 0.01506003 0.75300002 1.3027451e-39
0.020852385 0.015100017 0.75500011 1.7637219e-39
0.022290461 0.015100017 0.75500011 2.2221735e-39
0.023759989 0.015120015 0.75600004 2.5905847e-39
0.025199987 0.015120007 0.75600004 2.9672593e-39
0.026710462 0.015160017 0.75800008 6.6496545e-39
0.028154291 0.015160009 0.75800002 1.0237707e-38
0.029676184 0.015200011 0.76000011 1.0332424e-38
0.031328596 0.015300006 0.7650001 1.0424252e-38
0.032785714 0.015300006 0.7650001 1.0697599e-38
0.034242868 0.015300006 0.7650001 1.097311e-38
-0.021183806 0.016800962 0.76700008 3.4917037e-39
-0.019671408 0.016757153 0.7650001 6.1786416e-39
-0.018095244 0.016647637 0.76000011 8.8677376e-39
-0.016647629 0.016647622 0.76000011 9.5995895e-39
-0.015159997 0.016603827 0.75800008 1.0431825e-38
-0.01371619 0.01660382 0.75800008 7.1013294e-39
-0.012240005 0.016560003 0.75600004 3.7694186e-39
-0.010800044 0.016560018 0.75600004 5.2574364e-39
-0.0093600219 0.016560011 0.75600004 6.8264927e-39
-0.007920024 0.016560011 0.75600004 3.7826076e-39
-0.0064800028 0.016560011 0.75600004 7.3734504e-40
-0.0050400412 0.016560003 0.75600004 4.6651888e-40
-0.00360002 0.016560011 0.75600004 1.9137253e-40
-0.0021514241 0.016494304 0.75300002 4.7082647e-40
-0.00071715645 0.016494311 0.75300002 7.4884689e-40
0.00071619276 0.016472392 0.75200009 7.466959e-40
0.0021485602 0.016472399 0.75200003 7.4705743e-40
0.0035809437 0.016472384 0.75200009 9.3180743e-40
0.0049999906 0.016428582 0.75000012 1.1165406e-39
0.0064285491 0.016428597 0.75000006 1.0236135e-39
0.0078571215 0.016428597 0.75000012 9.3071862e-40
0.0092856809 0.01642859 0.75000006 8.3889994e-40
0.010714278 0.016428597 0.75000012 8.3889573e-40
0.012142838 0.016428597 0.75000006 6.5450307e-40
0.013571372 0.016428597 0.75000006 5.6194871e-40
0.015040024 0.016472399 0.75200009 5.6266337e-40
0.016494274 0.016494326 0.75300002 6.559394e-40
0.017928578 0.016494304 0.75300008 1.025438e-39
0.019414278 0.016538113 0.75500011 1.3027409e-39
0.020852376 0.016538113 0.75500011 1.8541141e-39
0.02231995 0.016560011 0.75600004 2.3129272e-39
0.02375997 0.016560018 0.75600004 2.2218036e-39
0.02519997 0.016560011 0.75600004 2.0438961e-39
0.026710488 0.016603835 0.75800002 6.1872792e-39
0.028228551 0.016647629 0.76000005 1.0237364e-38
0.029715205 0.016669549 0.76100004 1.0238436e-38
0.0313286 0.016757146 0.76500005 1.0238079e-38
0.032785755 0.016757153 0.7650001 1.0327762e-38
0.034242868 0.016757146 0.76500005 1.0328113e-38
-0.021183847 0.018261932 0.76700002 6.4534138e-39
-0.019671431 0.018214293 0.7650001 8.8652138e-39
-0.018119063 0.018119067 0.7610001 1.1157525e-38
-0.016647646 0.018095255 0.76000011 1.1341566e-38
-0.015159994 0.018047631 0.75800008 1.1434115e-38
-0.013716164 0.018047623 0.75800008 9.4087089e-39
-0.012272396 0.018047646 0.75800002 7.3804386e-39
-0.010800023 0.018000014 0.75600004 1.0523656e-38
-0.0093600396 0.018000007 0.75600004 1.3539854e-38
-0.0079200417 0.018000022 0.75600004 7.473667e-39
-0.0064800205 0.018000007 0.75600004 1.3038115e-39
-0.0050400207 0.018000014 0.75600004 8.3600766e-40
-0.0036000386 0.018000014 0.75600004 2.8607508e-40
-0.0021514157 0.017928585 0.75300008 6.5629113e-40
-0.00071714714 0.017928593 0.75300008 9.3143748e-40
0.00071714271 0.0179286 0.75300002 7.4669029e-40
0.0021485789 0.017904781 0.75200009 4.7190407e-40
0.0035809232 0.017904781 0.75200003 8.4032646e-40
0.005013328 0.017904766 0.75200009 1.1161819e-39
0.0064285472 0.017857172 0.75000006 1.0239778e-39
0.0078571215 0.017857149 0.75000012 9.3107735e-40
0.0092856809 0.017857172 0.75000006 9.2965503e-40
0.010714278 0.017857172 0.75000012 8.3817406e-40
0.012142836 0.017857172 0.75000006 7.4597703e-40
0.013607599 0.017904788 0.75200003 5.6158437e-40
0.015040004 0.017904781 0.75200009 5.6050257e-40
0.016494283 0.0179286 0.75300002 5.6338084e-40
0.01792855 0.017928593 0.75300002 9.3324236e-40
0.01941427 0.017976217 0.75500011 1.3016619e-39
0.020879971 0.018000014 0.75600004 1.8533924e-39
0.022319993 0.018000022 0.75600004 2.4033222e-39
0.023759991 0.018000014 0.75600004 1.7565206e-39
0.025266683 0.018047638 0.75800002 1.1212307e-39
0.02671049 0.018047638 0.75800008 5.7263053e-39
0.028228536 0.018095255 0.76000005 1.0234849e-38
0.029715218 0.01811906 0.7610001 1.014516e-38
0.031328574 0.0182143 0.76500005 1.0052251e-38
0.032785729 0.018214308 0.7650001 9.8635591e-39
0.034242883 0.018214293 0.7650001 9.6827552e-39
-0.021183826 0.019722879 0.76700002 7.4815577e-39
-0.019671431 0.019671448 0.76500005 7.2046668e-39
-0.018095275 0.019542873 0.76000005 6.9226877e-39
-0.016647639 0.01954288 0.76000005 8.6704151e-39
-0.015160031 0.019491449 0.75800002 1.0421046e-38
-0.0137162 0.019491449 0.75800002 9.0420955e-39
-0.012272393 0.019491449 0.75800008 7.5652054e-39
-0.01080004 0.01944001 0.75600004 9.6824553e-39
-0.0093600191 0.01944001 0.75600004 1.1794666e-38
-0.0079200212 0.01944001 0.7560001 8.7633703e-39
-0.0064800382 0.01944001 0.75600004 5.7183992e-39
-0.0050400384 0.019440018 0.75600004 2.9518044e-39
-0.0036000172 0.01944001 0.75600004 1.9459411e-40
-0.002157147 0.019414306 0.75500005 5.6373677e-40
-0.00071717508 0.019362889 0.75300002 8.3924045e-40
0.00071715296 0.019362874 0.75300008 7.4740075e-40
0.0021485593 0.019337162 0.75200003 5.6373396e-40
0.003580966 0.019337162 0.75200009 1.0239918e-39
0.0050133085 0.019337162 0.75200003 1.5753594e-39
0.0064285453 0.019285746 0.75000006 1.2991312e-39
0.0078571197 0.019285738 0.75000012 1.0229142e-39
0.0092856791 0.019285746 0.75000006 9.3072562e-40
0.010714276 0.019285746 0.75000012 8.3817126e-40
0.012142834 0.019285738 0.75000006 7.4633296e-40
0.013607619 0.019337155 0.75200009 6.53773e-40
0.015039986 0.019337162 0.75200003 6.5376459e-40
0.01653805 0.019414298 0.75500005 6.5449466e-40
0.017976185 0.019414306 0.75500011 1.024359e-39
0.019414285 0.019414306 0.75500005 1.3927772e-39
0.020879954 0.01944001 0.75600004 1.8533882e-39
0.022319974 0.019440025 0.75600004 2.3121985e-39
0.023759974 0.01944001 0.75600004 1.4817246e-39
0.025199994 0.019440018 0.75600004 7.4419879e-40
0.026780944 0.019542865 0.76000011 5.4472073e-39
0.028228559 0.019542873 0.76000011 1.0146596e-38
0.029715216 0.019568592 0.76100004 1.0513572e-38
0.031410452 0.019722871 0.76700002 1.0788366e-38
0.032871414 0.019722871 0.76700008 1.0419233e-38
0.034332376 0.019722871 0.76700008 1.0051175e-38
0.036166649 0.019928604 0.77500004 9.6834755e-39
-0.02121146 0.02121143 0.76800001 8.3952436e-39
-0.019671416 0.021128573 0.7650001 5.5490929e-39
-0.018095229 0.020990491 0.76000011 2.6935675e-39
-0.016647615 0.020990483 0.76000011 6.0875208e-39
-0.015160005 0.02093526 0.75800002 9.4076172e-39
-0.013716198 0.020935252 0.75800002 8.5897368e-39
-0.012272392 0.02093526 0.75800008 7.7502959e-39
-0.010800035 0.020880021 0.75600004 8.8458563e-39
-0.0093600368 0.020880021 0.75600004 9.9622512e-39
-0.0079200165 0.020880014 0.75600004 1.0066661e-38
-0.0064800167 0.020880006 0.75600004 1.0041489e-38
-0.0050400328 0.020880021 0.75600004 5.058637e-39
-0.0036000349 0.020880021 0.75600004 1.0132369e-40
-0.0021571564 0.020852402 0.75500005 4.7226421e-40
-0.00071714341 0.020797178 0.75300002 7.4776789e-40
0.00071712409 0.020797163 0.75300002 7.4812522e-40
0.0021485779 0.020769544 0.75200009 6.55931e-40
0.0035809446 0.020769536 0.75200003 1.2994983e-39
0.005013328 0.020769536 0.75200009 1.9419839e-39
0.0064285463 0.020714313 0.75000006 1.5739202e-39
0.0078571429 0.020714305 0.75000006 1.1147455e-39
0.0092856782 0.020714313 0.75000006 1.0232716e-39
0.010714275 0.020714313 0.75000012 8.3888312e-40
0.012175254 0.020769544 0.75200009 7.4704903e-40
0.013607599 0.020769536 0.75200003 6.5485059e-40
0.015059972 0.020797156 0.75300002 6.5412752e-40
0.016494265 0.020797171 0.75300002 6.5521353e-40
0.017976178 0.020852402 0.75500011 1.024359e-39
0.019414278 0.020852402 0.75500005 1.3934932e-39
0.020879975 0.020880006 0.75600004 1.7629876e-39
0.022319997 0.020880014 0.7560001 2.1281646e-39
0.023759957 0.020880006 0.75600004 1.2062097e-39
0.025266688 0.020935245 0.75800008 2.8967362e-40
0.026710456 0.02093526 0.75800002 5.1716882e-39
0.028228566 0.020990491 0.76000011 1.0050459e-38
0.029715231 0.02101811 0.7610001 1.0790535e-38
0.031410471 0.021183826 0.76700002 1.1524137e-38
0.03287141 0.021183833 0.76700008 1.0973118e-38
0.034377117 0.021211445 0.76800001 1.0420672e-38
0.036166675 0.02140478 0.77500004 1.023808e-38
-0.024200037 0.022733368 0.77000004 2.7959688e-40
-0.022674298 0.022674285 0.76800001 4.0653238e-39
-0.021128556 0.022585727 0.7650001 7.9378541e-39
-0.019671416 0.022585727 0.76500005 6.0964947e-39
-0.018119076 0.022467636 0.76100004 4.3368982e-39
-0.016669577 0.022467636 0.76100004 6.4559165e-39
-0.015220016 0.022467643 0.76100004 8.5836005e-39
-0.013752379 0.022438109 0.76000011 7.2961505e-39
-0.012272366 0.022379056 0.75800008 5.999665e-39
-0.010800015 0.02232001 0.75600004 8.1158008e-39
-0.0093600173 0.02232001 0.7560001 1.0243129e-38
-0.0079200342 0.02232001 0.75600004 1.0152772e-38
-0.0064800344 0.022320017 0.75600004 1.0046518e-38
-0.0050400132 0.02232001 0.75600004 5.0647313e-39
-0.0036000526 0.022320017 0.75600004 9.8453829e-41
-0.0021514241 0.022231445 0.75300008 3.7827912e-40
-0.00071713317 0.022231452 0.75300002 7.4741477e-40
0.00071713433 0.022231445 0.75300008 6.559366e-40
0.0021514241 0.022231452 0.75300002 5.6373957e-40
0.0035809632 0.022201918 0.75200009 1.0236317e-39
0.0050133076 0.022201926 0.75200009 1.5742818e-39
0.0064285444 0.02214288 0.75000006 1.3902478e-39
0.0078781182 0.022201926 0.75200009 1.2065768e-39
0.0093104625 0.022201918 0.75200009 1.0229044e-39
0.010742867 0.022201918 0.75200009 9.2999695e-40
0.012175236 0.022201918 0.75200003 6.5557086e-40
0.013625715 0.022231452 0.75300002 4.7261593e-40
0.015060006 0.022231445 0.75300002 6.5520793e-40
0.016538093 0.022290491 0.75500011 7.4705183e-40
0.017976169 0.022290498 0.75500011 1.1161945e-39
0.019439958 0.022320017 0.75600004 1.4856875e-39
0.02087998 0.022320025 0.75600004 1.7622687e-39
0.022319978 0.02232001 0.75600004 2.1292366e-39
0.02376 0.02232001 0.75600004 1.2051251e-39
0.025266653 0.022379071 0.75800002 2.806955e-40
0.026710482 0.022379063 0.75800002 5.0766115e-39
0.028265705 0.022467636 0.7610001 9.9604211e-39
0.02979332 0.022526681 0.76300001 1.0513972e-38
0.031246629 0.022526689 0.76300001 1.1156089e-38
0.032914277 0.0226743 0.76800001 1.0696178e-38
0.034377124 0.022674292 0.76800001 1.0328481e-38
0.035839975 0.022674315 0.76800001 1.0144812e-38
-0.025733344 0.02426286 0.77200007 7.4233506e-40
-0.02420003 0.02420003 0.77000004 2.8713727e-40
-0.022644775 0.024105728 0.76700008 3.8813123e-39
-0.021128554 0.024042867 0.7650001 7.3825462e-39
-0.019671399 0.02404286 0.7650001 6.6536089e-39
-0.018166721 0.023980021 0.76300001 5.9063483e-39
-0.01666954 0.023917161 0.76100004 6.8160713e-39
-0.015220041 0.023917168 0.76100004 7.6605708e-39
-0.013752394 0.023885719 0.76000011 5.9200446e-39
-0.012272363 0.023822866 0.75800008 4.1636809e-39
-0.010828595 0.023822881 0.75800002 7.2832081e-39
-0.009360035 0.023760006 0.75600004 1.0427159e-38
-0.0079200119 0.023760021 0.7560001 1.0254271e-38
-0.0064714458 0.023728587 0.75500011 1.0040409e-38
-0.0050333459 0.023728594 0.75500011 5.0557657e-39
-0.0035952488 0.023728594 0.75500005 9.9891561e-41
-0.0021514529 0.023665734 0.75300002 3.7899799e-40
-0.00071716297 0.023665741 0.75300002 6.5558207e-40
0.00071714364 0.023665719 0.75300008 5.6374798e-40
0.0021485789 0.023634292 0.75200009 4.7226561e-40
0.0035809455 0.0236343 0.75200003 8.4067959e-40
0.0050133504 0.023634292 0.75200009 1.1151071e-39
0.0064456947 0.023634307 0.75200003 1.2062223e-39
0.0078780996 0.023634292 0.75200009 1.2984095e-39
0.0093105054 0.023634292 0.75200009 1.1150917e-39
0.01074285 0.023634307 0.75200009 9.3107175e-40
0.012191396 0.023665726 0.75300002 6.5665126e-40
0.013625726 0.023665726 0.75300008 2.8858481e-40
0.015099986 0.023728587 0.75500011 5.6336682e-40
0.016538084 0.023728594 0.75500011 8.3924326e-40
0.017976182 0.023728602 0.75500005 1.20803e-39
0.01943998 0.023760006 0.75600004 1.4853287e-39
0.020879963 0.023760021 0.75600004 1.7626275e-39
0.022319961 0.023760013 0.75600004 2.0363319e-39
0.023822848 0.023822866 0.75800002 1.2047832e-39
0.025266653 0.023822874 0.75800008 2.8715548e-40
0.02681618 0.023917168 0.7610001 5.0766017e-39
0.028265679 0.023917168 0.76100004 9.7735117e-39
0.0297933 0.023980029 0.76300001 1.0240249e-38
0.031328604 0.024042867 0.7650001 1.0696184e-38
0.032785721 0.024042867 0.76500005 1.041887e-38
0.034242876 0.024042875 0.76500005 1.0143369e-38
0.035700031 0.024042867 0.7650001 1.0142657e-38
-0.025766667 0.025766686 0.77300012 8.3667888e-40
-0.024200061 0.025666699 0.77000004 6.5341146e-40
-0.022644779 0.025566697 0.76700008 2.6835216e-39
-0.021128578 0.025500014 0.76500005 4.8125984e-39
-0.019671423 0.025500007 0.7650001 6.7425774e-39
-0.018166704 0.025433354 0.76300001 8.6649949e-39
-0.016713357 0.025433354 0.76300001 9.2192071e-39
-0.015260049 0.025433354 0.76300001 9.7810268e-39
-0.013770505 0.025366694 0.76100004 9.0424417e-39
-0.012304773 0.025333345 0.76000011 8.1969178e-39
-0.01082857 0.025266692 0.75800002 1.0237036e-38
-0.0093600294 0.025200017 0.75600004 1.2274991e-38
-0.0079200296 0.025200017 0.75600004 8.7705295e-39
-0.0064800093 0.025200009 0.75600004 5.254191e-39
-0.0050400486 0.025200024 0.75600004 3.0404099e-39
-0.0035952572 0.02516669 0.75500005 8.3601186e-40
-0.0021514408 0.025100023 0.75300008 8.3889433e-40
-0.00071715086 0.025100023 0.75300002 8.406908e-40
0.00071621418 0.025066681 0.75200009 7.4814064e-40
0.0021485584 0.025066674 0.75200009 7.477763e-40
0.0035809642 0.025066689 0.75200009 9.3144029e-40
0.0050133308 0.025066689 0.75200003 1.1151099e-39
0.0064457133 0.025066681 0.75200009 1.2062251e-39
0.00787808 0.025066689 0.75200003 1.3895262e-39
0.0093228491 0.025100023 0.75300008 1.2065614e-39
0.010757138 0.025100015 0.75300002 1.0225471e-39
0.012191429 0.025100037 0.75300002 6.55938e-40
0.013625695 0.02510003 0.75300002 3.7970284e-40
0.0151 0.025166683 0.75500011 5.6336122e-40
0.016538076 0.02516669 0.75500011 7.4704622e-40
0.017976174 0.02516669 0.75500005 1.20803e-39
0.019439962 0.025200009 0.75600004 1.5768055e-39
0.020879982 0.025200009 0.75600004 1.945581e-39
0.022379043 0.025266685 0.75800002 2.2221637e-39
0.02382285 0.025266685 0.75800008 1.2977103e-39
0.025333326 0.025333352 0.76000011 3.7217787e-40
0.026816156 0.025366701 0.76100004 4.70638e-39
0.028339986 0.025433369 0.76300001 9.041329e-39
0.029793296 0.025433362 0.76300001 1.0054415e-38
0.031328581 0.025500014 0.76500005 1.1153558e-38
0.032785736 0.025500007 0.7650001 1.0693292e-38
0.034153294 0.025433347 0.76300001 1.0142646e-38
0.035606664 0.025433339 0.76300001 1.0143012e-38
-0.025733365 0.027203828 0.77200007 9.3031504e-40
-0.024200005 0.027133368 0.77000004 9.2817526e-40
-0.022585694 0.026957162 0.76500005 1.5699616e-39
-0.021128541 0.026957154 0.7650001 2.1375056e-39
-0.019671425 0.026957169 0.76500005 6.7468892e-39
-0.018166708 0.026886694 0.76300001 1.133687e-38
-0.01671336 0.026886679 0.76300001 1.1614888e-38
-0.015260053 0.026886694 0.76300001 1.1897956e-38
-0.01377049 0.026816212 0.7610001 1.2088112e-38
-0.012304788 0.02678097 0.76000005 1.2264963e-38
-0.010828568 0.026710495 0.75800008 1.3192999e-38
-0.0093600079 0.026640005 0.7560001 1.4104868e-38
-0.0079200473 0.02664002 0.75600004 7.2986084e-39
-0.006480027 0.026640005 0.75600004 3.8473911e-40
-0.0050400272 0.02664002 0.75600004 1.0157298e-39
-0.0035952646 0.026604794 0.75500005 1.5721322e-39
-0.0021485761 0.026499055 0.75200009 1.2998627e-39
-0.00071714248 0.026534304 0.75300008 9.3216336e-40
0.00071619556 0.026499063 0.75200009 1.0232828e-39
0.0021485779 0.026499055 0.75200009 1.0229199e-39
0.0035809446 0.026499063 0.75200009 1.0221982e-39
0.0050133495 0.026499063 0.75200009 1.0225583e-39
0.0064456938 0.026499063 0.75200009 1.2062307e-39
0.0078780996 0.026499063 0.75200009 1.3902506e-39
0.0093228584 0.026534304 0.75300008 1.2069272e-39
0.010757149 0.026534304 0.75300008 1.023266e-39
0.012191438 0.026534311 0.75300002 7.4776929e-40
0.013661892 0.026604787 0.75500011 4.722572e-40
0.015099991 0.026604779 0.75500011 5.6336963e-40
0.016538069 0.026604787 0.75500011 6.5628833e-40
0.017976167 0.026604787 0.75500005 1.2087446e-39
0.019439967 0.02664002 0.75600004 1.6689997e-39
0.020879965 0.02664002 0.75600004 2.0374193e-39
0.022379046 0.026710503 0.75800008 2.4047557e-39
0.023822876 0.026710488 0.75800002 1.4838854e-39
0.025333311 0.02678097 0.76000011 4.6937613e-40
0.026816191 0.026816219 0.7610001 4.3354213e-39
0.028339982 0.026886679 0.76300001 8.2112391e-39
0.02979329 0.026886694 0.76300001 9.966591e-39
0.031328596 0.026957154 0.7650001 1.1621722e-38
0.032785736 0.026957154 0.76500005 1.0873703e-38
0.034242891 0.026957147 0.7650001 1.0139762e-38
0.035700008 0.026957154 0.76500005 1.0142657e-38
-0.025733331 0.028674312 0.77200007 1.112198e-39
-0.024200039 0.02860003 0.77000004 1.1103875e-39
-0.022585718 0.028414294 0.76500005 1.2951165e-39
-0.021128563 0.028414309 0.7650001 1.4813603e-39
-0.01967141 0.028414294 0.7650001 3.6998217e-39
-0.018166712 0.028340019 0.76300001 5.9221984e-39
-0.016713344 0.028340012 0.76300001 7.8504145e-39
-0.015260036 0.028340034 0.76300001 9.8826462e-39
-0.013770517 0.028265737 0.76100004 1.015637e-38
-0.012304804 0.028228596 0.76000005 1.0530511e-38
-0.010828565 0.028154306 0.75800008 9.2340356e-39
-0.0093600256 0.028080016 0.75600004 8.0401195e-39
-0.0079095466 0.028042875 0.75500011 4.2489808e-39
-0.0064714476 0.028042883 0.75500011 3.6785906e-40
-0.0050333729 0.028042875 0.75500011 8.3349793e-40
-0.003595273 0.028042875 0.75500005 1.2994969e-39
-0.0021485733 0.027931452 0.75200003 1.0236359e-39
-0.0007161916 0.027931437 0.75200009 7.477707e-40
0.00071617507 0.027931452 0.75200003 8.3924746e-40
0.0021485807 0.027931452 0.75200009 9.3072142e-40
0.0035809632 0.027931444 0.75200009 9.3071862e-40
0.0050133299 0.027931437 0.75200003 9.3072422e-40
0.0064457348 0.027931444 0.75200009 9.3180603e-40
0.007888562 0.027968593 0.75300002 1.0236317e-39
0.0093228528 0.0279686 0.75300002 9.3178641e-40
0.010785673 0.028042875 0.75500005 8.3959638e-40
0.012223808 0.028042875 0.75500011 6.5628833e-40
0.013661885 0.028042875 0.75500011 5.6481156e-40
0.015099984 0.028042883 0.75500011 5.640941e-40
0.016538082 0.028042875 0.75500005 6.5700859e-40
0.017999966 0.028080001 0.75600004 1.0254296e-39
0.019439988 0.028080016 0.75600004 1.4860462e-39
0.020879949 0.028080016 0.75600004 1.8537497e-39
0.022379048 0.028154299 0.75800008 2.2217994e-39
0.023822879 0.028154299 0.75800008 1.2973361e-39
0.025333319 0.028228588 0.76000005 3.6891144e-40
0.026816167 0.028265744 0.76100004 5.256974e-39
0.028339976 0.028340019 0.76300001 1.0235943e-38
0.029871443 0.028414294 0.76500005 1.1629382e-38
0.031328596 0.028414287 0.7650001 1.3023665e-38
0.032785714 0.028414302 0.76500005 1.1807453e-38
0.034242868 0.028414294 0.76500005 1.068574e-38
-0.02576668 0.030183822 0.77300006 1.2036761e-39
-0.0242629 0.030144773 0.77200007 1.2033076e-39
-0.022644782 0.029949546 0.76700002 1.0189093e-39
-0.021183817 0.029949553 0.76700002 8.3418317e-40
-0.019722857 0.029949546 0.76700008 6.4802347e-40
-0.018214256 0.029871441 0.7650001 3.8869777e-40
-0.016713347 0.029793352 0.76300001 4.1651131e-39
-0.01526004 0.029793352 0.76300001 7.8453614e-39
-0.013806692 0.029793359 0.76300001 8.3081388e-39
-0.012320979 0.029715262 0.76100004 8.6689956e-39
-0.010871441 0.029715262 0.7610001 5.3560738e-39
-0.0093476297 0.029480956 0.75500011 1.9495243e-39
-0.0079095326 0.029480979 0.75500011 1.1975945e-39
-0.006471456 0.029480979 0.75500011 3.7287851e-40
-0.005033358 0.029480971 0.75500005 6.5054721e-40
-0.0035952814 0.029480971 0.75500005 9.3036129e-40
-0.0021485556 0.029363833 0.75200009 7.4741196e-40
-0.00071621209 0.029363826 0.75200009 5.640983e-40
0.0007161937 0.029363826 0.75200009 6.5521493e-40
0.0021485621 0.029363826 0.75200003 7.4740636e-40
0.0035809427 0.029363826 0.75200009 7.4704342e-40
0.0050200159 0.029402874 0.75300008 7.4776649e-40
0.0064542824 0.029402882 0.75300008 7.4956436e-40
0.0078885732 0.029402874 0.75300008 6.5664846e-40
0.0093475888 0.029480979 0.75500005 6.5700159e-40
0.010785688 0.029480971 0.75500005 6.5628973e-40
0.012223801 0.029480971 0.75500011 6.559352e-40
0.0136619 0.029480971 0.75500005 5.640969e-40
0.015099974 0.029480979 0.75500011 5.6337663e-40
0.016559988 0.029520005 0.75600004 5.651745e-40
0.017999971 0.029520012 0.75600004 9.3395562e-40
0.019439969 0.029520012 0.75600004 1.3020193e-39
0.020879967 0.029519998 0.75600004 1.6700829e-39
0.022379072 0.029598117 0.75800008 2.0366976e-39
0.023885703 0.029676206 0.76000011 1.1140295e-39
0.025333341 0.029676199 0.76000011 1.9460112e-40
0.026886625 0.029793344 0.76300001 6.2708148e-39
0.028339995 0.029793352 0.76300001 1.2262455e-38
0.02987146 0.029871434 0.7650001 1.329139e-38
0.031328574 0.029871434 0.76500005 1.4307252e-38
0.032785729 0.029871449 0.7650001 1.2739164e-38
0.034242883 0.029871434 0.7650001 1.1158227e-38
-0.025666693 0.031533368 0.77000004 1.2036775e-39
-0.024262864 0.03161525 0.77200001 1.1121994e-39
-0.022644784 0.031410486 0.76700002 8.3417896e-40
-0.02118382 0.031410493 0.76700008 6.4761989e-40
-0.019722896 0.0314105 0.76700002 2.4850291e-39
-0.018214278 0.031328574 0.76500005 4.4107537e-39
-0.016757123 0.031328581 0.7650001 7.097707e-39
-0.015300007 0.031328581 0.76500005 9.7605903e-39
-0.013806676 0.031246677 0.76300001 9.7681363e-39
-0.012353367 0.031246692 0.76300001 9.8387674e-39
-0.010900021 0.031246684 0.76300001 6.8149727e-39
-0.0093847672 0.031041928 0.75800002 3.76575e-39
-0.0079200398 0.030960023 0.75600004 2.0251818e-39
-0.00648004 0.030960009 0.75600004 2.8606247e-40
-0.0050333664 0.030919075 0.75500005 5.6266057e-40
-0.0035952525 0.03091906 0.75500011 8.4067959e-40
-0.0021485733 0.0307962 0.75200003 7.4848676e-40
-0.00071715179 0.030837163 0.75300008 7.4884409e-40
0.00071713806 0.030837171 0.75300002 7.4812382e-40
0.0021485807 0.030796207 0.75200009 7.4776089e-40
0.0035856953 0.030837171 0.75300002 9.3106894e-40
0.005033331 0.030919068 0.75500011 1.0229086e-39
0.0064542769 0.030837171 0.75300002 8.3924185e-40
0.0079095047 0.030919068 0.75500005 7.4704763e-40
0.0093475794 0.030919082 0.75500005 7.4740636e-40
0.010785717 0.030919068 0.75500011 7.477707e-40
0.012223793 0.030919053 0.75500011 6.5558207e-40
0.01366189 0.030919075 0.75500005 4.7154674e-40
0.015099967 0.03091906 0.75500005 5.640941e-40
0.016559971 0.030960001 0.75600004 7.4848816e-40
0.017999992 0.030960016 0.75600004 1.0254338e-39
0.019439952 0.030960009 0.75600004 1.3020221e-39
0.020879975 0.030960016 0.75600004 1.7619226e-39
0.022379039 0.031041935 0.75800002 2.3136447e-39
0.02388571 0.031123817 0.76000011 1.6646879e-39
0.025366655 0.031164773 0.7610001 1.0136208e-39
0.026886646 0.031246684 0.76300001 5.9078393e-39
0.028339952 0.031246684 0.76300001 1.0802446e-38
0.029871436 0.031328581 0.7650001 1.2095378e-38
0.031410482 0.031410493 0.76700008 1.3398983e-38
0.032871407 0.0314105 0.76700002 1.209245e-38
0.034332369 0.0314105 0.76700002 1.0794152e-38
-0.025666684 0.033000022 0.7700001 1.1122022e-39
-0.024262875 0.033085726 0.77200001 9.2781232e-40
-0.022674313 0.032914303 0.76800001 6.4907584e-40
-0.021128571 0.032785721 0.76500005 3.7429102e-40
-0.01974858 0.032914288 0.76800007 4.4179269e-39
-0.018261937 0.032871433 0.76700008 8.3851892e-39
-0.016757121 0.032785729 0.76500005 1.0054413e-38
-0.015299968 0.032785729 0.7650001 1.1708181e-38
-0.013806681 0.032700017 0.76300001 1.1348744e-38
-0.012353373 0.03270001 0.76300001 1.0968461e-38
-0.010900026 0.03270001 0.76300001 8.2998235e-39
-0.0093847662 0.032485731 0.75800008 5.6236209e-39
-0.0079409359 0.032485723 0.75800008 2.8509179e-39
-0.0064800363 0.032400012 0.75600004 1.0092572e-40
-0.0050333748 0.032357164 0.75500005 4.7262154e-40
-0.0035952386 0.032357164 0.75500011 7.4812803e-40
-0.0021514473 0.03227146 0.75300002 8.4032226e-40
-0.00071715831 0.032271452 0.75300002 8.4067819e-40
0.00071714923 0.032271452 0.75300008 8.4067538e-40
0.002151438 0.032271445 0.75300008 7.4740215e-40
0.0035857065 0.032271445 0.75300008 1.0221898e-39
0.0050333217 0.032357164 0.75500005 1.2976991e-39
0.0064713983 0.032357156 0.75500011 1.0214779e-39
0.0079094954 0.032357164 0.75500005 7.4668749e-40
0.009347572 0.032357164 0.75500005 8.3780552e-40
0.010785709 0.032357164 0.75500011 8.3888452e-40
0.012223784 0.032357156 0.75500011 6.5521633e-40
0.013661882 0.032357171 0.75500005 3.8006157e-40
0.015099957 0.032357156 0.75500005 6.5591979e-40
0.016559953 0.032400005 0.75600004 8.4031805e-40
0.017999973 0.032400012 0.75600004 1.1165504e-39
0.019439971 0.032399997 0.75600004 1.3016633e-39
0.020879995 0.032400012 0.7560001 1.9452349e-39
0.022379041 0.032485723 0.75800002 2.4955178e-39
0.023885695 0.032571442 0.76000011 2.2171274e-39
0.02533331 0.032571428 0.76000011 1.8551987e-39
0.02688664 0.032700017 0.76300001 5.6355544e-39
0.028339947 0.032700017 0.76300001 9.3211978e-39
0.029871436 0.032785736 0.76500005 1.0888169e-38
0.031410437 0.032871448 0.76700002 1.2454022e-38
0.032871403 0.032871455 0.76700002 1.143772e-38
0.034332365 0.032871448 0.76700008 1.0423922e-38
0.035793327 0.03287144 0.76700008 1.0146242e-38
-0.025666671 0.034466699 0.77000004 9.2853119e-40
-0.024294268 0.034600966 0.77300006 6.5338343e-40
-0.022733344 0.034466691 0.77000004 1.4759568e-39
-0.021266686 0.034466691 0.77000004 2.3939797e-39
-0.01980003 0.034466706 0.77000004 6.0936122e-39
-0.018261915 0.034332395 0.76700008 9.8818615e-39
-0.016757146 0.034242876 0.76500005 9.231872e-39
-0.015299993 0.034242868 0.76500005 8.5976443e-39
-0.013806722 0.034153357 0.76300001 8.8674223e-39
-0.012353376 0.034153342 0.76300001 9.1518845e-39
-0.01082857 0.033929549 0.75800008 9.1432609e-39
-0.0093847625 0.033929542 0.75800008 9.0473588e-39
-0.0079409331 0.033929534 0.75800008 6.2717243e-39
-0.0064800149 0.033840008 0.75600004 3.5892074e-39
-0.005033344 0.033795252 0.75500011 2.0302405e-39
-0.0036000339 0.033840008 0.75600004 5.6338224e-40
-0.0021571703 0.033795267 0.75500011 6.559338e-40
-0.00071714714 0.033705734 0.75300002 8.4031945e-40
0.00071711943 0.033705734 0.75300002 8.3923905e-40
0.0021485807 0.033660963 0.75200009 9.2928089e-40
0.0035952153 0.033795267 0.75500011 1.3895332e-39
0.0050333133 0.033795267 0.75500005 1.7568779e-39
0.006471388 0.033795252 0.75500005 1.2977019e-39
0.007909487 0.033795267 0.75500005 9.3071722e-40
0.0093476241 0.03379526 0.75500011 9.3071441e-40
0.010785699 0.03379526 0.75500011 9.3107315e-40
0.012223798 0.03379526 0.75500005 7.4704342e-40
0.013661873 0.033795267 0.75500005 5.6336542e-40
0.015119975 0.033840008 0.75600004 6.5555124e-40
0.016559998 0.033840001 0.75600004 8.4031245e-40
0.017999956 0.033840008 0.75600004 1.1169077e-39
0.019439979 0.033840023 0.75600004 1.3931387e-39
0.020935236 0.033929542 0.75800002 1.9448762e-39
0.022438064 0.034019053 0.76000005 2.4040368e-39
0.023885678 0.034019068 0.76000005 2.313618e-39
0.025366666 0.034063824 0.7610001 2.2275559e-39
0.026886659 0.03415335 0.76300001 6.0961584e-39
0.028339965 0.034153365 0.76300001 9.9589833e-39
0.029949512 0.034332395 0.76700008 1.0789442e-38
0.031410437 0.034332402 0.76700002 1.1612018e-38
0.03291427 0.034377158 0.76800001 1.1064235e-38
0.034377094 0.034377158 0.76800001 1.0511793e-38
-0.024294285 0.036073342 0.77300006 2.8245973e-40
-0.022733374 0.03593336 0.77000004 2.3903784e-39
-0.021266678 0.035933346 0.77000004 4.4344749e-39
-0.019800022 0.03593336 0.77000004 7.8636386e-39
-0.018285733 0.035840012 0.76800001 1.1250416e-38
-0.016757131 0.035700008 0.7650001 8.3934569e-39
-0.015300015 0.035700001 0.76500005 5.4514938e-39
-0.013806705 0.035606682 0.76300001 6.3705691e-39
-0.012353358 0.035606682 0.76300001 7.2961379e-39
-0.010828569 0.035373345 0.75800008 9.8901726e-39
-0.0093847383 0.035373352 0.75800008 1.2452165e-38
-0.0079409704 0.035373345 0.75800002 9.7827645e-39
-0.0064800326 0.035280004 0.75600004 7.0036813e-39
-0.0050400114 0.035280012 0.75600004 3.6796851e-39
-0.0036000116 0.035280004 0.75600004 2.8536042e-40
-0.0021571778 0.035233349 0.75500011 5.6373957e-40
-0.00071908056 0.035233364 0.75500005 7.4740636e-40
0.00071713061 0.035140015 0.75300008 9.2963822e-40
0.0021571303 0.035233356 0.75500011 1.1140267e-39
0.0035952292 0.035233356 0.75500005 1.6657585e-39
0.0050333049 0.035233364 0.75500005 2.2167743e-39
0.0064714039 0.035233356 0.75500005 1.6654068e-39
0.0079095187 0.035233364 0.75500011 1.0229142e-39
0.0093476158 0.035233356 0.75500011 1.0232702e-39
0.010785692 0.035233341 0.75500011 1.02291e-39
0.012223789 0.035233364 0.75500005 8.3887892e-40
0.013661866 0.035233364 0.75500005 6.5520372e-40
0.015119956 0.035280012 0.75600004 7.4667628e-40
0.016559979 0.035280012 0.75600004 8.4031525e-40
0.018047601 0.035373345 0.75800002 1.2087432e-39
0.019491432 0.03537336 0.75800002 1.4846183e-39
0.020935239 0.035373345 0.75800008 1.9448832e-39
0.022467602 0.035513349 0.76100004 2.3129244e-39
0.02391714 0.035513356 0.7610001 2.4054591e-39
0.025366642 0.035513356 0.76100004 2.5066497e-39
0.026886653 0.035606697 0.76300001 6.5617903e-39
0.028414274 0.035700008 0.76500005 1.0603981e-38
0.029949494 0.035793364 0.76700002 1.0698683e-38
0.031451412 0.035840005 0.76800001 1.0787654e-38
0.032914259 0.035840027 0.76800001 1.0694748e-38
0.034466654 0.03593336 0.77000004 1.0512159e-38
-0.024294306 0.037545726 0.77300006 2.8067308e-40
-0.022792419 0.037497163 0.77200001 3.0468713e-39
-0.021321915 0.037497152 0.77200007 5.9157076e-39
-0.01980003 0.037400022 0.77000004 7.850046e-39
-0.018285746 0.037302859 0.76800001 9.7706362e-39
-0.016757131 0.037157148 0.76500005 6.2643226e-39
-0.015260017 0.037060022 0.76300001 2.7598587e-39
-0.013806709 0.03706003 0.76300001 3.2276374e-39
-0.012320966 0.036962874 0.7610001 3.6804516e-39
-0.010857162 0.036914296 0.76000011 7.5648985e-39
-0.0093847746 0.036817171 0.75800002 1.1445282e-38
-0.0079409676 0.036817163 0.75800008 1.0337848e-38
-0.0064971372 0.036817171 0.75800002 9.2181967e-39
-0.0050400291 0.036720008 0.75600004 4.6988368e-39
-0.0036000293 0.036720008 0.75600004 1.9208719e-40
-0.0021571638 0.036671452 0.75500005 5.630207e-40
-0.00071908894 0.036671452 0.75500005 9.3107595e-40
0.00071904727 0.036671452 0.75500011 9.3071161e-40
0.0021571238 0.036671452 0.75500011 8.3923765e-40
0.0035952209 0.036671452 0.75500005 1.2984165e-39
0.0050399555 0.03672003 0.75600004 1.6664816e-39
0.0064713964 0.036671452 0.75500005 1.298069e-39
0.0079095094 0.036671445 0.75500011 8.3888873e-40
0.0093476083 0.036671452 0.75500011 9.3107875e-40
0.010799958 0.036720015 0.75600004 1.0232702e-39
0.01223998 0.036720015 0.75600004 8.3887752e-40
0.013679978 0.036720015 0.75600004 6.5484779e-40
0.01512 0.036720015 0.75600004 7.4704202e-40
0.01655996 0.036720015 0.75600004 7.4884129e-40
0.018047625 0.036817163 0.75800002 1.0243534e-39
0.019491434 0.036817163 0.75800008 1.2998739e-39
0.020990456 0.036914289 0.76000011 1.9448888e-39
0.022467617 0.036962882 0.7610001 2.4973185e-39
0.023917116 0.036962874 0.76100004 2.6824062e-39
0.025433302 0.03706003 0.76300001 2.8729169e-39
0.026886649 0.037060007 0.76300001 6.6496755e-39
0.028414313 0.037157156 0.7650001 1.0512145e-38
0.029871427 0.037157148 0.76500005 1.0605412e-38
0.0314514 0.037302874 0.76800001 1.069618e-38
0.032999989 0.037400037 0.77000004 1.0604353e-38
0.034556173 0.037497163 0.77200001 1.060436e-38
0.036026653 0.037497152 0.77200007 1.0605443e-38
-0.02426287 0.038967624 0.77200007 2.842562e-40
-0.022792405 0.038967635 0.77200001 3.783695e-39
-0.021266676 0.038866684 0.77000004 7.2885625e-39
-0.019800022 0.038866684 0.77000004 7.7574776e-39
-0.018285735 0.038765728 0.76800001 8.2000903e-39
-0.016757116 0.038614295 0.7650001 4.133078e-39
-0.015299999 0.038614307 0.76500005 9.6989472e-41
-0.013806715 0.038513355 0.76300001 9.9153077e-41
-0.012353367 0.038513355 0.76300001 9.7762989e-41
-0.010857155 0.038361926 0.76000005 5.242748e-39
-0.0094095375 0.038361914 0.76000011 1.0422148e-38
-0.0079619233 0.038361922 0.76000011 1.099614e-38
-0.0064971345 0.038260974 0.75800008 1.1426559e-38
-0.0050533274 0.038260963 0.75800008 5.7965538e-39
-0.0036095362 0.038260978 0.75800002 1.0168662e-40
-0.0021600258 0.038160007 0.75600004 6.5665547e-40
-0.00072002492 0.038160019 0.75600004 1.1147511e-39
0.00071903982 0.038109548 0.75500011 8.3888172e-40
0.0021599568 0.038160019 0.75600004 5.6337383e-40
0.0035999781 0.038160015 0.75600004 8.3887892e-40
0.0050399769 0.038160019 0.7560001 1.1143896e-39
0.006479959 0.038160015 0.75600004 9.2928789e-40
0.0079199579 0.038160026 0.75600004 6.548562e-40
0.0093599791 0.038160015 0.75600004 8.3924326e-40
0.010799978 0.038160004 0.75600004 9.3107315e-40
0.012239963 0.038160022 0.75600004 8.3887331e-40
0.013679962 0.038160026 0.75600004 6.5484639e-40
0.015119983 0.038160015 0.75600004 6.5449186e-40
0.016559983 0.038160011 0.75600004 6.559324e-40
0.01809521 0.038361918 0.76000005 9.3216336e-40
0.019542824 0.038361929 0.76000005 1.116919e-39
0.021018092 0.0384124 0.7610001 1.9452405e-39
0.022526642 0.038513355 0.76300001 2.6799104e-39
0.023917153 0.0384124 0.7610001 2.9539694e-39
0.025433296 0.038513362 0.76300001 3.1484234e-39
0.026886666 0.038513355 0.76300001 6.7440193e-39
0.028414289 0.038614295 0.76500005 1.0327396e-38
0.029988565 0.038765725 0.76800001 1.04221e-38
0.031451412 0.038765721 0.76800001 1.0513941e-38
0.032999996 0.038866695 0.77000004 1.0605783e-38
0.034466654 0.038866691 0.77000004 1.0697981e-38
-0.024262881 0.040438108 0.77200007 2.7922974e-40
-0.022792418 0.040438108 0.77200007 3.5971416e-39
-0.021321913 0.040438108 0.77200007 6.921924e-39
-0.019800028 0.040333368 0.77000004 7.5694864e-39
-0.018285746 0.040228587 0.76800001 8.2919104e-39
-0.016757138 0.040071435 0.7650001 4.1416707e-39
-0.015299962 0.040071439 0.7650001 9.9503401e-41
-0.013806696 0.039966691 0.76300001 9.6302836e-41
-0.012353349 0.039966676 0.76300001 9.3071441e-41
-0.01085717 0.03980954 0.76000005 5.0697633e-39
-0.0094095534 0.039809544 0.76000005 1.0147689e-38
-0.0079619391 0.039809529 0.76000011 1.0430438e-38
-0.0064971307 0.039704785 0.75800008 1.0787664e-38
-0.0050533405 0.039704788 0.75800002 5.4338697e-39
-0.0036095334 0.039704777 0.75800002 9.8458033e-41
-0.0021600435 0.039600015 0.75600004 3.7648966e-40
-0.0007200212 0.039600018 0.75600004 7.4705603e-40
0.0007190305 0.039547645 0.75500011 7.4633296e-40
0.0021599988 0.039600018 0.75600004 7.4704622e-40
0.0035999594 0.039600015 0.75600004 8.3887752e-40
0.0050399816 0.039600018 0.75600004 1.0225513e-39
0.0064714169 0.039547641 0.75500011 1.022194e-39
0.0079199793 0.0396 0.7560001 1.0218366e-39
0.0093599623 0.039600015 0.75600004 9.3071862e-40
0.01078569 0.039547641 0.75500005 9.3035288e-40
0.012239982 0.039600015 0.75600004 7.4703361e-40
0.013679981 0.0396 0.7560001 6.5520512e-40
0.015119963 0.039600015 0.75600004 6.54852e-40
0.016559986 0.039600011 0.75600004 6.5557647e-40
0.017999986 0.039600015 0.75600004 9.3216616e-40
0.019491462 0.039704785 0.75800008 1.2087516e-39
0.021018067 0.039861925 0.76100004 1.7612024e-39
0.022467628 0.039861932 0.7610001 2.4047613e-39
0.023917129 0.039861932 0.76100004 2.4054703e-39
0.025433315 0.039966676 0.76300001 2.5023463e-39
0.026886623 0.039966688 0.76300001 5.9096049e-39
0.028488545 0.040176217 0.76700002 9.4065284e-39
0.029988552 0.04022859 0.76800007 9.3164866e-39
0.031533334 0.040333353 0.77000004 9.3211543e-39
0.032999989 0.040333364 0.77000004 9.2264518e-39
0.034466624 0.040333357 0.77000004 9.1378449e-39
-0.02429428 0.041962862 0.77300012 2.8532258e-40
-0.022792403 0.041908588 0.77200001 3.4041337e-39
-0.021321902 0.041908592 0.77200007 6.4577214e-39
-0.019800022 0.041800022 0.77000004 7.3980165e-39
-0.018261923 0.041637164 0.76700008 8.2951474e-39
-0.01675714 0.041528579 0.76500005 4.2259855e-39
-0.01526001 0.041420009 0.76300001 9.6985268e-41
-0.013806702 0.041420028 0.76300001 9.3049021e-41
-0.01232098 0.041311447 0.7610001 9.8463638e-41
-0.010857147 0.041257154 0.76000011 4.9790517e-39
-0.0094095329 0.041257143 0.76000011 9.7796396e-39
-0.0079619326 0.041257162 0.76000005 9.9737446e-39
-0.0064971671 0.041148584 0.75800002 1.0134395e-38
-0.0050533367 0.041148599 0.75800002 5.1443656e-39
-0.0036095297 0.041148588 0.75800008 9.5223836e-41
-0.002160022 0.041040018 0.75600004 1.8743348e-40
-0.00072004076 0.041040018 0.75600004 2.8357096e-40
0.0007199609 0.041040003 0.75600004 5.6050958e-40
0.002159982 0.041040018 0.75600004 8.3780412e-40
0.0035999808 0.041040018 0.7560001 9.2999415e-40
0.0050399629 0.041040018 0.75600004 9.3107175e-40
0.0064799618 0.041040011 0.75600004 1.2065796e-39
0.007919983 0.041040018 0.75600004 1.3902534e-39
0.0093599819 0.041040003 0.7560001 1.1154672e-39
0.010799967 0.041040026 0.75600004 8.3959498e-40
0.012239966 0.041040011 0.75600004 7.4775248e-40
0.013679987 0.041040018 0.75600004 6.5520372e-40
0.015119985 0.041040011 0.7560001 6.537744e-40
0.016559968 0.041040011 0.75600004 5.6373957e-40
0.018095216 0.041257158 0.76000011 9.3180603e-40
0.019542856 0.041257158 0.76000011 1.2087474e-39
0.02099047 0.04125715 0.76000011 1.6690025e-39
0.022467604 0.04131145 0.76100004 2.0363361e-39
0.023917142 0.041311447 0.7610001 1.9437747e-39
0.025433309 0.04142002 0.76300001 1.7637023e-39
0.026886618 0.041420016 0.76300001 5.0766087e-39
0.028414303 0.04152859 0.7650001 8.3912961e-39
0.029988565 0.041691434 0.76800001 8.2079824e-39
0.031533305 0.041800033 0.77000004 8.0278988e-39
0.032999996 0.041800015 0.77000004 7.7491651e-39
0.034556162 0.041908585 0.77200001 7.4772445e-39
0.036026668 0.041908592 0.77200007 8.2061888e-39
0.037642833 0.042071454 0.77500004 8.9466041e-39
-0.024419971 0.043660015 0.77700007 4.3404281e-39
-0.022792416 0.043379061 0.77200007 5.7204591e-39
-0.02132191 0.043379053 0.77200007 7.0959036e-39
-0.019800028 0.043266706 0.76999998 8.6743906e-39
-0.018333359 0.043266691 0.77000004 1.0233746e-38
-0.016757123 0.042985726 0.7650001 7.923453e-39
-0.015260053 0.042873356 0.76300001 5.6114128e-39
-0.013806707 0.042873345 0.76300001 5.5217199e-39
-0.012320982 0.042760983 0.76100004 5.3302283e-39
-0.010857163 0.04270478 0.76000011 8.8526918e-39
-0.0094095254 0.042704772 0.76000011 1.2456511e-38
-0.0079619093 0.042704776 0.76000011 1.1161838e-38
-0.006497141 0.042592399 0.75800002 9.9485549e-39
-0.0050533358 0.042592403 0.75800008 7.7318955e-39
-0.0036095288 0.042592391 0.75800008 5.6031956e-39
-0.0021600397 0.042480018 0.75600004 4.5130246e-39
-0.0007200184 0.042480007 0.75600004 3.4967357e-39
0.00071998045 0.042480014 0.7560001 2.0313124e-39
0.0021599652 0.042480014 0.75600004 5.619389e-40
0.0035999632 0.042480018 0.75600004 6.5484359e-40
0.0050399844 0.042480014 0.75600004 8.3995091e-40
0.006479945 0.042480025 0.75600004 1.0232632e-39
0.0079199662 0.042480014 0.75600004 1.2072985e-39
0.0093599651 0.042480011 0.75600004 1.0239918e-39
0.010799986 0.042480011 0.75600004 7.4811962e-40
0.012239947 0.042480025 0.75600004 8.3994811e-40
0.013679969 0.042480022 0.75600004 9.3178641e-40
0.015160022 0.042592403 0.75800008 7.4740075e-40
0.016603792 0.042592399 0.75800002 5.651717e-40
0.018095223 0.042704776 0.76000005 8.4104392e-40
0.019568577 0.042760976 0.7610001 1.2094607e-39
0.021018079 0.042760968 0.76100004 1.57716e-39
0.022467617 0.042760976 0.7610001 2.0363291e-39
0.023917116 0.042760968 0.7610001 1.4831539e-39
0.025433306 0.042873353 0.76300001 9.2927808e-40
0.026886636 0.042873371 0.76300001 5.1666309e-39
0.028488563 0.043098122 0.76700008 9.4965296e-39
0.029988552 0.043154299 0.76800001 1.0601424e-38
0.031533334 0.043266688 0.77000004 1.1791695e-38
0.033085711 0.043379061 0.77200007 1.1703444e-38
0.034556177 0.043379061 0.77200001 1.1702727e-38
0.03616666 0.043547641 0.77500004 1.2071861e-38
-0.024419988 0.045140013 0.77700007 8.403088e-39
-0.022880977 0.045023844 0.77500004 8.0407557e-39
