# .PCD v0.7 - Point Cloud Data file format
VERSION 0.7
FIELDS x y z rgb
SIZE 4 4 4 4
TYPE F F F F
COUNT 1 1 1 1
WIDTH 954
HEIGHT 1
VIEWPOINT 0 0 0 1 0 0 0
POINTS 954
DATA ascii
-0.0020742998 -0.08504574 0.72600001 2.1029725e-38
-0.00069049885 -0.084928572 0.72500002 2.2866381e-38
0.00069045136 -0.084928572 0.72500002 2.3141833e-38
0.0020799697 -0.085280031 0.7280001 2.3417348e-38
0.0034713857 -0.085397154 0.72900009 2.3417358e-38
0.0048599681 -0.085397154 0.72900003 2.3417386e-38
0.0062485505 -0.085397154 0.72900003 2.2315389e-38
0.0076580811 -0.085631445 0.73100001 2.1213368e-38
0.0090504512 -0.085631445 0.73100007 2.2315398e-38
0.010442843 -0.08563143 0.73100007 2.3417403e-38
0.011835213 -0.085631445 0.73100007 2.2866369e-38
0.013227576 -0.08563143 0.73100007 2.2223569e-38
0.014639985 -0.085748583 0.73200005 2.2499125e-38
0.016034281 -0.085748568 0.73200005 2.2774603e-38
0.017523797 -0.08621715 0.73600006 2.3050083e-38
0.018925689 -0.08621715 0.73600006 2.3325569e-38
0.020327583 -0.086217165 0.73600012 2.3417385e-38
0.021759018 -0.086334303 0.73700011 2.3417413e-38
0.023162838 -0.086334303 0.73700011 2.3417442e-38
0.024566635 -0.086334303 0.73700011 2.3417427e-38
0.025970461 -0.086334273 0.73700011 2.3325576e-38
0.027448572 -0.086568579 0.73900002 2.3233744e-38
0.028895214 -0.086685717 0.74000001 2.323375e-38
0.030386642 -0.086920008 0.7420001 2.3141919e-38
0.031799991 -0.086920023 0.74200004 2.3141923e-38
0.033258092 -0.087037161 0.74300003 2.3050068e-38
0.034673315 -0.087037146 0.74300003 2.3233721e-38
0.036185682 -0.087271437 0.74500012 2.3417407e-38
0.037604745 -0.087271437 0.74500006 2.2774574e-38
0.039128549 -0.087505728 0.74700004 2.2039891e-38
0.040551402 -0.087505728 0.7470001 2.2223564e-38
0.04197425 -0.087505728 0.7470001 2.2407277e-38
0.043397121 -0.087505713 0.74700004 2.2958332e-38
0.044879969 -0.087622881 0.74800009 2.3417422e-38
0.046304725 -0.087622896 0.74800009 2.0937777e-38
0.047857113 -0.087857157 0.75000012 1.8366045e-38
0.049285699 -0.087857157 0.75000006 1.928478e-38
0.050849516 -0.088091418 0.75200003 2.0111329e-38
0.052351404 -0.088208571 0.75300002 1.8090979e-38
0.053928562 -0.088442862 0.75500005 1.6047587e-38
0.055366654 -0.088442877 0.75500011 1.078278e-38
0.056804743 -0.088442877 0.75500005 5.5381543e-39
0.058242857 -0.088442847 0.75500005 6.8260443e-39
0.059680942 -0.088442862 0.75500005 8.1120888e-39
0.061119042 -0.088442862 0.75500011 8.0202421e-39
0.062557124 -0.088442862 0.75500011 7.9276751e-39
0.063995242 -0.088442862 0.75500005 8.2957219e-39
-0.036586706 -0.090346694 0.78400004 4.3469666e-39
-0.035093367 -0.090346679 0.78400004 4.5302788e-39
-0.033514317 -0.090116233 0.78200012 4.7125149e-39
-0.031901944 -0.089770496 0.7790001 4.0718188e-39
-0.030340008 -0.08954002 0.77700001 3.4257403e-39
-0.028674327 -0.088963822 0.77200007 3.7948746e-39
-0.02702765 -0.088387638 0.76700002 4.1568426e-39
-0.025500029 -0.088157162 0.76500005 4.1633054e-39
-0.023980001 -0.087926656 0.76300001 4.0710999e-39
-0.022467645 -0.08769618 0.76100004 4.3487476e-39
-0.020990493 -0.087580964 0.76000005 4.716098e-39
-0.019414298 -0.087004781 0.75500005 2.9644147e-39
-0.017928608 -0.08677429 0.75300008 1.204133e-39
-0.016472416 -0.086659059 0.75200009 6.3777886e-39
-0.014900044 -0.085852399 0.74500012 1.1644247e-38
-0.013426708 -0.085506678 0.7420001 1.4411056e-38
-0.011964785 -0.085160956 0.73900008 1.7264387e-38
-0.010514304 -0.084815249 0.73600006 1.6804822e-38
-0.0090628788 -0.084354296 0.73200005 1.6436045e-38
-0.0076581235 -0.084239081 0.73100007 1.7722817e-38
-0.0062400135 -0.083893344 0.7280001 1.9009268e-38
-0.0048533701 -0.083893344 0.7280001 1.8366096e-38
-0.0034666923 -0.083893344 0.7280001 1.7721462e-38
-0.0020743073 -0.083662868 0.72600001 1.8733095e-38
-0.00069145253 -0.083662868 0.72600001 1.9835799e-38
0.00069141528 -0.083662882 0.72600007 2.0018713e-38
0.0020828475 -0.084008574 0.72900003 2.0294955e-38
0.0034714099 -0.084008589 0.72900009 2.0294972e-38
0.004859963 -0.084008574 0.72900003 2.0294951e-38
0.006265677 -0.084239051 0.73100001 1.9743916e-38
0.0076580485 -0.084239051 0.73100007 1.9284763e-38
0.0090504391 -0.084239036 0.73100007 1.9835802e-38
0.01044281 -0.084239051 0.73100007 2.0386791e-38
0.011835201 -0.084239051 0.73100007 2.01109e-38
0.013227572 -0.084239051 0.73100007 1.992763e-38
0.014639963 -0.084354296 0.73200011 2.0019508e-38
0.016078062 -0.084584773 0.73400009 2.0203163e-38
0.017523788 -0.084815234 0.73600006 2.0386819e-38
0.018925682 -0.084815234 0.73600006 2.0478668e-38
0.020355195 -0.084930494 0.73700011 2.0570516e-38
0.02175902 -0.084930509 0.73700011 2.0662388e-38
0.023162818 -0.084930509 0.73700011 2.0570588e-38
0.024566617 -0.084930509 0.73700011 2.0570546e-38
0.025970463 -0.08493048 0.73700011 2.0478667e-38
0.027448542 -0.085160956 0.73900008 2.0478636e-38
0.028856181 -0.085160956 0.73900008 2.0478245e-38
0.030304737 -0.085276201 0.74000007 2.0386808e-38
0.031799968 -0.085506648 0.74200004 2.0386847e-38
0.033258077 -0.085621908 0.74300003 2.0386808e-38
0.034673329 -0.085621908 0.74300003 2.0570438e-38
0.036185689 -0.085852399 0.74500006 2.0754109e-38
0.037604731 -0.085852399 0.74500012 2.0386407e-38
0.039128557 -0.086082891 0.74700004 2.0019477e-38
0.040551405 -0.086082891 0.7470001 2.0203201e-38
0.042030446 -0.086198106 0.74800003 2.0295058e-38
0.043455228 -0.086198106 0.74800009 2.0478748e-38
0.044879954 -0.086198106 0.74800009 2.0662345e-38
0.046304759 -0.086198106 0.74800009 1.9375856e-38
0.047857095 -0.086428583 0.75000012 1.8090201e-38
0.049417142 -0.086659044 0.75200003 1.9192987e-38
0.050917115 -0.086774305 0.75300008 2.0386876e-38
0.052351397 -0.08677429 0.75300002 1.87292e-38
0.053928573 -0.087004781 0.75500005 1.7061385e-38
0.055366639 -0.087004781 0.75500011 1.0967886e-38
0.056804758 -0.087004781 0.75500011 4.9788821e-39
0.058242843 -0.087004766 0.75500005 6.5480099e-39
0.059759989 -0.087120026 0.75600004 8.1124377e-39
0.061119046 -0.087004766 0.75500005 8.0191631e-39
0.062557139 -0.087004781 0.75500011 7.8336704e-39
0.063995227 -0.087004766 0.75500005 8.1105838e-39
-0.035093363 -0.088853344 0.78400004 4.2540465e-39
-0.033514298 -0.088626698 0.78200006 4.345526e-39
-0.031901944 -0.088286683 0.7790001 3.0591144e-39
-0.030261908 -0.08783336 0.77500004 1.6808645e-39
-0.028674319 -0.08749333 0.77200001 2.2297237e-39
-0.027062882 -0.087040022 0.76800001 2.7818185e-39
-0.025566701 -0.086926669 0.76700008 1.9563808e-39
-0.023979995 -0.086473346 0.76300001 1.0376587e-39
-0.022526678 -0.086473331 0.76300001 1.5847186e-39
-0.020990506 -0.086133331 0.76000005 2.0467688e-39
-0.0194143 -0.085566685 0.75500011 1.1233958e-39
-0.017928597 -0.085340023 0.75300002 1.1358785e-40
-0.016472414 -0.085226685 0.75200003 6.0090215e-39
-0.014900037 -0.084433347 0.74500012 1.1916174e-38
-0.013426703 -0.084093347 0.7420001 1.4691593e-38
-0.011964797 -0.083753362 0.73900008 1.7447703e-38
-0.010514333 -0.083413363 0.73600012 1.708033e-38
-0.0090876501 -0.083186671 0.73400003 1.6712628e-38
-0.0076371836 -0.082619995 0.72900009 1.6804464e-38
-0.0062400275 -0.082506672 0.72800004 1.6805198e-38
-0.0048533506 -0.082506672 0.72800004 1.652971e-38
-0.0034666932 -0.082506686 0.7280001 1.6253489e-38
-0.0020742943 -0.08228001 0.72600001 1.6529358e-38
-0.00069049979 -0.082166672 0.72500002 1.6712292e-38
0.00069142925 -0.082279995 0.72600001 1.689415e-38
0.0020742822 -0.082279995 0.72600001 1.7079981e-38
0.0034714048 -0.08262001 0.72900003 1.7172185e-38
0.0048599872 -0.082619995 0.72900003 1.7172533e-38
0.0062485402 -0.082619995 0.72900003 1.7263998e-38
0.0076580634 -0.082846686 0.73100007 1.7264011e-38
0.0090504345 -0.082846686 0.73100007 1.7263665e-38
0.010442826 -0.082846671 0.73100007 1.7264011e-38
0.011835217 -0.082846671 0.73100001 1.7446953e-38
0.013227588 -0.082846701 0.73100007 1.7539527e-38
0.014639989 -0.08296001 0.73200005 1.7631384e-38
0.01607806 -0.083186701 0.73400009 1.7631375e-38
0.017476145 -0.083186686 0.73400009 1.763101e-38
0.0189257 -0.083413348 0.73600006 1.7631374e-38
0.020327594 -0.083413348 0.73600006 1.7722858e-38
0.021759022 -0.083526701 0.73700011 1.7815079e-38
0.023162819 -0.083526686 0.73700011 1.772363e-38
0.024566645 -0.083526686 0.73700011 1.7631416e-38
0.025970444 -0.083526701 0.73700011 1.7722875e-38
0.027448565 -0.083753332 0.73900002 1.7723207e-38
0.028856173 -0.083753347 0.73900002 1.7722104e-38
0.030304719 -0.083866671 0.74000007 1.7631364e-38
0.031799972 -0.084093317 0.74200004 1.7722861e-38
0.033258092 -0.084206656 0.74300003 1.7723198e-38
0.034673322 -0.084206671 0.74300009 1.7906848e-38
0.036185674 -0.084433347 0.74500012 1.8090519e-38
0.037604738 -0.084433347 0.74500012 1.8089802e-38
0.039128534 -0.084660009 0.7470001 1.7998713e-38
0.040551405 -0.084659994 0.74700004 1.8090937e-38
0.042030461 -0.084773347 0.74800009 1.8182789e-38
0.043455217 -0.084773377 0.74800009 1.7999136e-38
0.044879992 -0.084773362 0.74800003 1.7814357e-38
0.046304751 -0.084773362 0.74800009 1.781289e-38
0.047857102 -0.085000038 0.75000012 1.7722887e-38
0.049417127 -0.08522667 0.75200009 1.9193013e-38
0.05091713 -0.085340008 0.75300002 2.0662406e-38
0.052490469 -0.08556667 0.75500011 1.9376736e-38
0.053928558 -0.08556667 0.75500005 1.7974011e-38
0.055366676 -0.08556667 0.75500005 1.1140078e-38
0.056804743 -0.085566685 0.75500011 4.3388881e-39
0.05831999 -0.085680023 0.7560001 6.2746264e-39
0.059759982 -0.085680023 0.75600004 8.1113475e-39
0.061200004 -0.085680023 0.75600004 7.9258941e-39
0.062639967 -0.085680023 0.7560001 7.7425636e-39
0.064079992 -0.085680023 0.75600004 7.9265751e-39
-0.036680024 -0.087582871 0.78600001 4.3462421e-39
-0.035182886 -0.087582856 0.78600001 4.7135743e-39
-0.033600044 -0.08736001 0.7840001 5.0805631e-39
-0.031942889 -0.086914301 0.78000003 4.0700195e-39
-0.030183835 -0.0861343 0.77300012 3.0594704e-39
-0.028674314 -0.086022854 0.77200001 3.1505884e-39
-0.027062887 -0.08557716 0.76800007 3.1513101e-39
-0.025500042 -0.085242867 0.7650001 2.5077483e-39
-0.023980005 -0.085019991 0.76300001 1.9563738e-39
-0.022467628 -0.084797144 0.76100004 2.4151884e-39
-0.020935269 -0.084462866 0.75800002 2.8750819e-39
-0.019362876 -0.083905727 0.75300002 1.4925258e-39
-0.017904785 -0.083794296 0.75200003 1.0677474e-40
-0.016428601 -0.083571419 0.75000006 6.1040939e-39
-0.014900051 -0.083014324 0.74500012 1.2197429e-38
-0.013426699 -0.082680002 0.7420001 1.4872044e-38
-0.011980983 -0.08245714 0.74000001 1.7631737e-38
-0.010557168 -0.082345709 0.73900008 1.7355837e-38
-0.0091124 -0.082011446 0.73600006 1.7171807e-38
-0.0076686 -0.081565723 0.73200011 1.707997e-38
-0.006248591 -0.08123143 0.72900003 1.6988852e-38
-0.0048600235 -0.08123143 0.72900003 1.680518e-38
-0.0034666942 -0.081120029 0.7280001 1.6713344e-38
-0.0020800312 -0.081120014 0.7280001 1.6804821e-38
-0.00069143297 -0.080897152 0.72600001 1.6988133e-38
0.00069142086 -0.080897138 0.72600001 1.7079969e-38
0.0020828187 -0.081231445 0.72900009 1.7264357e-38
0.0034714001 -0.081231445 0.72900003 1.7264357e-38
0.0048599821 -0.081231445 0.72900003 1.7356193e-38
0.0062656882 -0.081454292 0.73100007 1.7356193e-38
0.0076580592 -0.081454307 0.73100007 1.7448028e-38
0.0090504494 -0.081454307 0.73100007 1.7356193e-38
0.010442841 -0.081454307 0.73100001 1.7356193e-38
0.011835212 -0.081454307 0.73100007 1.7447669e-38
0.013245692 -0.081565723 0.73200005 1.7631699e-38
0.014639966 -0.081565723 0.73200011 1.7539864e-38
0.016078059 -0.081788585 0.73400009 1.7539864e-38
0.017523777 -0.082011446 0.73600012 1.763134e-38
0.018925691 -0.082011446 0.73600006 1.7723176e-38
0.020355225 -0.082122877 0.73700011 1.7723176e-38
0.021759022 -0.082122877 0.73700011 1.781503e-38
0.023162819 -0.082122877 0.73700011 1.7631377e-38
0.024566647 -0.082122877 0.73700011 1.7539188e-38
0.02604093 -0.082345724 0.73900008 1.7631387e-38
0.027448568 -0.082345739 0.73900008 1.7815395e-38
0.028895192 -0.08245714 0.74000007 1.7815016e-38
0.030304704 -0.082457155 0.74000007 1.7815374e-38
0.031799976 -0.082680017 0.74200004 1.7723539e-38
0.033258077 -0.082791418 0.74300003 1.7723537e-38
0.034673307 -0.082791418 0.74300003 1.7723535e-38
0.036185678 -0.083014295 0.74500012 1.7723535e-38
0.037604723 -0.083014295 0.74500012 1.7815011e-38
0.039128561 -0.083237141 0.74700004 1.7999048e-38
0.040551413 -0.083237156 0.7470001 1.7999054e-38
0.041974265 -0.083237141 0.7470001 1.8090186e-38
0.043455206 -0.083348602 0.74800009 1.7998723e-38
0.044879984 -0.083348602 0.74800003 1.7905823e-38
0.046304736 -0.083348602 0.74800009 1.7814356e-38
0.047857113 -0.083571434 0.75000006 1.781547e-38
0.049285676 -0.083571449 0.75000012 1.8733861e-38
0.050917126 -0.083905727 0.75300008 1.9652241e-38
0.052351404 -0.083905712 0.75300002 1.9005112e-38
0.053928573 -0.084128588 0.75500011 1.8440375e-38
0.055366661 -0.084128574 0.75500005 1.1888752e-38
0.056804772 -0.084128588 0.75500005 5.2471831e-39
0.058242843 -0.084128588 0.75500011 6.7276746e-39
0.059760008 -0.084240034 0.7560001 8.2035277e-39
0.061199997 -0.084240019 0.75600004 8.0188071e-39
0.062639967 -0.084240019 0.7560001 7.9266045e-39
0.064079985 -0.084240034 0.75600004 8.1106258e-39
0.065520003 -0.084240019 0.75600004 8.2950227e-39
-0.03677335 -0.086304769 0.78800011 4.530276e-39
-0.035182875 -0.086085722 0.78600001 5.1738406e-39
-0.03360004 -0.08586669 0.78400004 5.7244906e-39
-0.032024775 -0.085647628 0.78200012 5.0812806e-39
-0.030183852 -0.084661916 0.77300012 4.4377119e-39
-0.028674308 -0.084552377 0.77200001 3.9774568e-39
-0.027062895 -0.084114283 0.76800007 3.5186464e-39
-0.025566701 -0.084004775 0.76700002 3.1509555e-39
-0.024042889 -0.083785728 0.76500005 2.7839723e-39
-0.022467643 -0.083347619 0.76100004 3.2438686e-39
-0.020935288 -0.083019063 0.75800008 3.6104847e-39
-0.019414283 -0.082690492 0.75500005 1.8645271e-39
-0.017904788 -0.082361907 0.75200003 1.1789264e-40
-0.016428607 -0.082142845 0.75000006 6.2870475e-39
-0.014900043 -0.081595257 0.74500012 1.2377154e-38
-0.013426709 -0.081266671 0.7420001 1.5059662e-38
-0.011980985 -0.081047639 0.74000007 1.7723573e-38
-0.010557168 -0.080938116 0.73900008 1.7631701e-38
-0.0091124168 -0.080609575 0.73600012 1.7539506e-38
-0.0076685878 -0.080171436 0.73200005 1.7355118e-38
-0.0062657534 -0.080061927 0.73100007 1.7080327e-38
-0.0048600142 -0.079842865 0.72900003 1.7080686e-38
-0.0034666951 -0.079733342 0.7280001 1.7080686e-38
-0.0020800321 -0.079733342 0.7280001 1.7172522e-38
-0.00069144042 -0.079514325 0.72600007 1.7264364e-38
0.00069141435 -0.079514325 0.72600007 1.7356208e-38
0.0020828131 -0.07984288 0.72900003 1.7356201e-38
0.0034713955 -0.079842865 0.72900003 1.744803e-38
0.0048599769 -0.079842865 0.72900003 1.7448028e-38
0.0062485593 -0.07984288 0.72900003 1.7539864e-38
0.0076580751 -0.080061927 0.73100007 1.7539864e-38
0.0090504652 -0.080061913 0.73100007 1.7448028e-38
0.010442808 -0.080061913 0.73100007 1.7356214e-38
0.011835199 -0.080061913 0.73100001 1.7539906e-38
0.01322757 -0.080061927 0.73100007 1.763172e-38
0.014639993 -0.080171436 0.73200005 1.7539864e-38
0.016078059 -0.080390483 0.73400009 1.7356194e-38
0.017523769 -0.08060953 0.73600012 1.7539867e-38
0.018925689 -0.08060953 0.73600012 1.7723536e-38
0.020355206 -0.080719069 0.73700011 1.7723535e-38
0.021759003 -0.080719069 0.73700011 1.7723571e-38
0.023162823 -0.080719054 0.73700011 1.7539937e-38
0.024633318 -0.080938101 0.73900002 1.7356253e-38
0.026040953 -0.080938101 0.73900002 1.7631747e-38
0.027485684 -0.081047639 0.74000007 1.7907231e-38
0.028895196 -0.081047639 0.74000007 1.7907208e-38
0.03038663 -0.081266686 0.7420001 1.7907218e-38
0.03179998 -0.081266686 0.7420001 1.7815394e-38
0.033258092 -0.08137618 0.74300003 1.7723563e-38
0.034766626 -0.081595242 0.74500012 1.7539897e-38
0.036185689 -0.081595257 0.74500006 1.7356211e-38
0.037705716 -0.081814319 0.74700004 1.7631701e-38
0.039128542 -0.081814304 0.74700004 1.7907214e-38
0.04055139 -0.081814304 0.7470001 1.790722e-38
0.042030443 -0.081923828 0.74800009 1.7907231e-38
0.043455217 -0.081923813 0.74800003 1.7907244e-38
0.044879973 -0.081923828 0.74800009 1.7906896e-38
0.046304729 -0.081923828 0.74800009 1.7907267e-38
0.047857124 -0.08214286 0.75000006 1.790729e-38
0.049417108 -0.082361907 0.75200009 1.8274653e-38
0.050917115 -0.08247143 0.75300008 1.8550194e-38
0.052351393 -0.082471415 0.75300008 1.8733899e-38
0.053928554 -0.082690492 0.75500011 1.8902828e-38
0.055366669 -0.082690492 0.75500005 1.2543905e-38
0.056804758 -0.082690492 0.75500005 6.1777868e-39
0.058319982 -0.082800001 0.7560001 7.1850556e-39
0.059760001 -0.082800016 0.7560001 8.2010124e-39
0.061199993 -0.082800001 0.75600004 8.2021138e-39
0.062639989 -0.082800016 0.7560001 8.1102741e-39
0.064079985 -0.082800016 0.75600004 8.2939423e-39
-0.036773369 -0.08480382 0.78800011 4.6228332e-39
-0.035272408 -0.08480382 0.78800011 5.6333894e-39
-0.03368574 -0.084588587 0.78600001 6.6432085e-39
-0.03202479 -0.084158123 0.78200012 5.6322866e-39
-0.030261926 -0.083404765 0.7750001 4.7135687e-39
-0.028711464 -0.083189547 0.77300012 4.161834e-39
-0.02706288 -0.082651451 0.76800001 3.6104777e-39
-0.025566705 -0.08254382 0.76700008 3.0598375e-39
-0.024105741 -0.082543835 0.76700008 2.6003055e-39
-0.022526665 -0.082113355 0.76300001 3.1520401e-39
-0.020990489 -0.081790477 0.76000005 3.7955921e-39
-0.019414298 -0.081252396 0.75500005 1.9542046e-39
-0.017928613 -0.081037149 0.75300008 1.1035646e-40
-0.016428597 -0.0807143 0.75000006 6.4739471e-39
-0.014860017 -0.079960957 0.74300003 1.2841355e-38
-0.013426705 -0.079853341 0.7420001 1.533194e-38
-0.011981002 -0.079638124 0.74000007 1.7815408e-38
-0.010557159 -0.079530492 0.73900008 1.7539864e-38
-0.0091124251 -0.079207629 0.73600012 1.7264357e-38
-0.0076686093 -0.078777149 0.73200011 1.7080327e-38
-0.0062657516 -0.078669533 0.73100007 1.6897015e-38
-0.0048733815 -0.078669533 0.73100007 1.6988851e-38
-0.0034714569 -0.078454316 0.72900003 1.6988851e-38
-0.0020800331 -0.078346685 0.7280001 1.7080327e-38
-0.00069335522 -0.078346685 0.7280001 1.7172537e-38
0.00069142645 -0.078131452 0.72600001 1.7172551e-38
0.0020828363 -0.078454316 0.72900003 1.7264373e-38
0.0034713908 -0.078454301 0.72900003 1.7356194e-38
0.0048599727 -0.078454301 0.72900003 1.7356194e-38
0.0062656715 -0.078669533 0.73100007 1.7448028e-38
0.007658063 -0.078669518 0.73100001 1.7631699e-38
0.0090504326 -0.078669533 0.73100007 1.7539864e-38
0.010442824 -0.078669533 0.73100007 1.744807e-38
0.011835194 -0.078669533 0.73100007 1.7539946e-38
0.013245696 -0.078777149 0.73200005 1.7631741e-38
0.014639972 -0.078777149 0.73200011 1.7539864e-38
0.016078057 -0.078992397 0.73400009 1.7539867e-38
0.017523786 -0.079207644 0.73600012 1.7631703e-38
0.018925682 -0.079207644 0.73600012 1.7815373e-38
0.020355206 -0.079315275 0.73700011 1.7723535e-38
0.021759003 -0.079315275 0.73700011 1.7723589e-38
0.023162831 -0.079315275 0.73700011 1.7631807e-38
0.024633318 -0.079530507 0.73900008 1.7539942e-38
0.026076157 -0.079638138 0.74000007 1.7723582e-38
0.027485669 -0.079638124 0.74000007 1.790723e-38
0.028895207 -0.079638124 0.74000007 1.7907206e-38
0.030386634 -0.079853341 0.7420001 1.7907227e-38
0.031799983 -0.079853326 0.7420001 1.7815412e-38
0.033258084 -0.079960957 0.74300009 1.7723589e-38
0.034766633 -0.080176219 0.74500006 1.7631766e-38
0.036185674 -0.080176204 0.74500012 1.7539899e-38
0.037705697 -0.080391437 0.74700004 1.7723537e-38
0.039128546 -0.080391437 0.7470001 1.7907215e-38
0.040605675 -0.080499068 0.74800009 1.7815386e-38
0.042030457 -0.080499083 0.74800009 1.7815395e-38
0.043455206 -0.080499068 0.74800003 1.7815404e-38
0.044879992 -0.080499083 0.74800009 1.7907253e-38
0.046304747 -0.080499083 0.74800009 1.7999103e-38
0.047857102 -0.0807143 0.75000006 1.799911e-38
0.049482822 -0.081037134 0.75300008 1.8274622e-38
0.05091713 -0.081037164 0.75300002 1.8550173e-38
0.052351408 -0.081037149 0.75300002 1.8457305e-38
0.053928569 -0.081252411 0.75500011 1.8362268e-38
0.055366654 -0.081252396 0.75500005 1.2264559e-38
0.056804772 -0.081252411 0.75500005 6.1634908e-39
0.058319978 -0.081360012 0.7560001 7.1843353e-39
0.059759993 -0.081359997 0.7560001 8.2946373e-39
0.061200015 -0.081359997 0.75600004 8.1106314e-39
0.062639982 -0.081360012 0.7560001 8.0180799e-39
-0.035182886 -0.083091423 0.78600001 6.1847499e-39
-0.033600044 -0.082880005 0.78400004 7.5629928e-39
-0.032024793 -0.082668602 0.78200012 6.274419e-39
-0.030340003 -0.082140014 0.77700001 4.8968837e-39
-0.028711462 -0.081717148 0.77300012 4.2540325e-39
-0.027133333 -0.081400007 0.77000004 3.6111938e-39
-0.025600033 -0.081188589 0.76800001 3.0609081e-39
-0.024105737 -0.08108288 0.76700002 2.4173463e-39
-0.022526674 -0.08066 0.76300001 3.1523933e-39
-0.020990502 -0.080342859 0.76000005 3.8863443e-39
-0.019440033 -0.079920024 0.7560001 2.0467505e-39
-0.0179286 -0.079602867 0.75300002 1.1824717e-40
-0.016428601 -0.079285726 0.75000006 6.6572635e-39
-0.014900036 -0.078757167 0.74500012 1.3206543e-38
-0.013426701 -0.078440025 0.7420001 1.5519551e-38
-0.011980985 -0.078228578 0.74000001 1.7815405e-38
-0.010528606 -0.077911451 0.73700011 1.7447669e-38
-0.0090876557 -0.07759428 0.73400009 1.6988851e-38
-0.0076685972 -0.077382863 0.73200005 1.6897015e-38
-0.0062657357 -0.077277139 0.73100001 1.6713344e-38
-0.0048733647 -0.077277154 0.73100007 1.680518e-38
-0.0034714616 -0.077065721 0.72900003 1.6896656e-38
-0.0020828801 -0.077065721 0.72900003 1.6987775e-38
-0.00069335615 -0.076960012 0.7280001 1.6988499e-38
0.00069330679 -0.076960012 0.7280001 1.7080702e-38
0.0020828326 -0.077065721 0.72900003 1.717253e-38
0.0034714141 -0.077065721 0.72900003 1.7264359e-38
0.004859996 -0.077065721 0.72900003 1.7264357e-38
0.0062485295 -0.077065721 0.72900003 1.7448028e-38
0.0076580592 -0.077277169 0.73100007 1.7631699e-38
0.0090504494 -0.077277154 0.73100007 1.7539864e-38
0.01044282 -0.077277154 0.73100007 1.7448055e-38
0.011835211 -0.077277169 0.73100007 1.7539916e-38
0.013227602 -0.077277154 0.73100001 1.7631726e-38
0.014639969 -0.077382848 0.73200005 1.7631699e-38
0.016078074 -0.077594295 0.73400003 1.7631727e-38
0.017523777 -0.077805728 0.73600006 1.7723591e-38
0.018925671 -0.077805743 0.73600012 1.7815398e-38
0.020327592 -0.077805743 0.73600012 1.7723535e-38
0.021759005 -0.077911451 0.73700011 1.7631727e-38
0.023225706 -0.078122884 0.73900002 1.7631754e-38
0.024633314 -0.078122869 0.73900002 1.7631738e-38
0.02607616 -0.078228593 0.74000001 1.7815394e-38
0.027485672 -0.078228578 0.74000001 1.7907218e-38
0.028895192 -0.078228608 0.74000007 1.7907206e-38
0.030386638 -0.078439996 0.7420001 1.7815381e-38
0.031799961 -0.078439981 0.74200004 1.7815391e-38
0.033258069 -0.078545704 0.74300003 1.7723563e-38
0.034766618 -0.078757152 0.74500012 1.7723568e-38
0.036282852 -0.078968599 0.7470001 1.7723553e-38
0.037705675 -0.078968585 0.7470001 1.7815374e-38
0.039128575 -0.078968599 0.74700004 1.7815387e-38
0.04060569 -0.079074293 0.74800009 1.7723566e-38
0.042030472 -0.079074293 0.74800003 1.7631743e-38
0.043455224 -0.079074293 0.74800009 1.7815426e-38
0.044999965 -0.079285741 0.75000012 1.790726e-38
0.04642855 -0.079285726 0.75000006 1.7999096e-38
0.047984742 -0.079497144 0.75200003 1.8090924e-38
0.049482815 -0.079602882 0.75300008 1.8366424e-38
0.050917119 -0.079602882 0.75300008 1.8550128e-38
0.052351397 -0.079602867 0.75300008 1.818282e-38
0.053928573 -0.0798143 0.75500005 1.7797942e-38
0.055366639 -0.079814315 0.75500011 1.1987954e-38
0.056804758 -0.0798143 0.75500005 6.1742514e-39
0.058242846 -0.0798143 0.75500005 7.277268e-39
0.059680957 -0.079814285 0.75500005 8.2928619e-39
0.061200012 -0.079920009 0.75600004 8.1110056e-39
0.062557139 -0.0798143 0.75500005 7.8351291e-39
-0.035182875 -0.081594303 0.78600001 6.0028599e-39
-0.033600036 -0.08138667 0.78400004 7.2006674e-39
-0.031942874 -0.08097142 0.78000003 6.0014236e-39
-0.030340007 -0.08066 0.77700001 4.8968851e-39
-0.028674308 -0.080140963 0.77200001 4.161841e-39
-0.027133347 -0.07993333 0.77000004 3.5186394e-39
-0.025566705 -0.079621896 0.76700008 3.0598263e-39
-0.024042891 -0.079414293 0.7650001 2.6010117e-39
-0.022526668 -0.07920666 0.76300001 3.3353398e-39
-0.021018121 -0.078999057 0.76100004 4.0703671e-39
-0.019491475 -0.078687638 0.75800002 2.0449485e-39
-0.018000018 -0.07848002 0.7560001 1.0784253e-40
-0.016472401 -0.07806477 0.75200003 7.0271208e-39
-0.01490003 -0.077338129 0.74500012 1.3950554e-38
-0.013426711 -0.07702668 0.7420001 1.6527943e-38
-0.011980987 -0.076819062 0.74000007 1.9009264e-38
-0.010514322 -0.076403812 0.73600006 1.8550054e-38
-0.0090876576 -0.076196209 0.73400009 1.8182712e-38
-0.0076686055 -0.075988576 0.73200005 1.7999041e-38
-0.0062657543 -0.075884759 0.73100007 1.7907206e-38
-0.0048733628 -0.075884774 0.73100001 1.781537e-38
-0.0034714523 -0.075677156 0.72900003 1.7723535e-38
-0.0020828838 -0.075677156 0.72900003 1.7447669e-38
-0.00069335708 -0.075573355 0.7280001 1.7264357e-38
0.00069330586 -0.07557337 0.7280001 1.7080686e-38
0.002082827 -0.075677171 0.72900003 1.6897015e-38
0.0034714094 -0.075677156 0.72900003 1.6804821e-38
0.0048599909 -0.075677156 0.72900003 1.6713344e-38
0.0062485528 -0.075677171 0.72900003 1.6988492e-38
0.0076580751 -0.075884759 0.73100007 1.7264357e-38
0.0090504447 -0.075884774 0.73100007 1.7264357e-38
0.010442836 -0.075884774 0.73100007 1.7172533e-38
0.011835227 -0.075884759 0.73100007 1.7264378e-38
0.0132457 -0.075988561 0.73200005 1.7356204e-38
0.014679967 -0.076196209 0.73400009 1.7264357e-38
0.016078074 -0.076196194 0.73400009 1.7264412e-38
0.017523797 -0.076403812 0.73600012 1.7356301e-38
0.018925689 -0.076403812 0.73600012 1.7539918e-38
0.020355208 -0.076507628 0.73700011 1.7448028e-38
0.021759033 -0.076507643 0.73700011 1.7356194e-38
0.023225706 -0.076715276 0.73900008 1.744803e-38
0.024633314 -0.076715261 0.73900008 1.7539865e-38
0.026076145 -0.076819062 0.74000007 1.7631699e-38
0.027485685 -0.076819062 0.74000007 1.7723535e-38
0.028973293 -0.07702668 0.7420001 1.7723535e-38
0.030386643 -0.07702668 0.7420001 1.7723535e-38
0.031799965 -0.07702668 0.7420001 1.7631699e-38
0.033258084 -0.077130482 0.74300003 1.7631699e-38
0.034766655 -0.077338099 0.74500012 1.7631699e-38
0.036282834 -0.077545717 0.7470001 1.7539867e-38
0.037756171 -0.077649519 0.74800009 1.7631703e-38
0.039180927 -0.077649534 0.74800009 1.772356e-38
0.040605702 -0.077649534 0.74800003 1.7631744e-38
0.042030457 -0.077649549 0.74800009 1.7631761e-38
0.043571383 -0.077857152 0.75000012 1.7723612e-38
0.044999946 -0.077857152 0.75000012 1.7907267e-38
0.046428539 -0.077857152 0.75000012 1.8090923e-38
0.047984753 -0.078064784 0.75200009 1.836641e-38
0.049482826 -0.078168586 0.75300002 1.8733731e-38
0.050917134 -0.078168571 0.75300002 1.9101097e-38
0.052351411 -0.078168586 0.75300002 1.7625653e-38
0.053928588 -0.078376189 0.75500005 1.6137689e-38
0.055366654 -0.078376204 0.75500011 1.0963751e-38
0.056804743 -0.078376204 0.75500005 5.7878966e-39
0.058319997 -0.07848002 0.7560001 6.9999889e-39
0.059680942 -0.078376189 0.75500005 8.2028383e-39
0.061200008 -0.07848002 0.75600004 7.8355145e-39
0.062639974 -0.07848002 0.7560001 7.5603443e-39
-0.033600047 -0.079893351 0.78400004 6.7386271e-39
-0.031942882 -0.079485729 0.78000003 5.817038e-39
-0.030261926 -0.078976214 0.7750001 4.8054056e-39
-0.028711462 -0.078772396 0.77300012 4.1611152e-39
-0.027133347 -0.078466684 0.77000004 3.4264396e-39
-0.025600033 -0.07826288 0.76800007 3.059106e-39
-0.02404288 -0.077957168 0.76500005 2.6917682e-39
-0.02252668 -0.07775335 0.76300001 3.4260977e-39
-0.020990491 -0.077447623 0.76000005 4.160769e-39
-0.01949146 -0.077243805 0.75800002 2.1378644e-39
-0.0179762 -0.076938108 0.75500005 1.1680944e-40
-0.016494302 -0.07673429 0.75300002 7.3926636e-39
-0.014840042 -0.075613335 0.7420001 1.4677724e-38
-0.013426707 -0.07561335 0.7420001 1.7448139e-38
-0.012013371 -0.075613335 0.7420001 2.0203183e-38
-0.010514318 -0.07500191 0.73600006 1.9743984e-38
-0.0090876538 -0.074798107 0.73400009 1.928481e-38
-0.0076685934 -0.074594274 0.73200005 1.9192978e-38
-0.0062657376 -0.074492395 0.73100007 1.9009303e-38
-0.0048733675 -0.07449241 0.73100007 1.8733792e-38
-0.0034714579 -0.074288577 0.72900003 1.845828e-38
-0.0020828755 -0.074288577 0.72900003 1.7999097e-38
-0.00069335802 -0.074186713 0.7280001 1.7448074e-38
0.00069330493 -0.074186698 0.7280001 1.7080005e-38
0.0020828224 -0.074288592 0.72900003 1.6620816e-38
0.0034714048 -0.074288577 0.72900003 1.634494e-38
0.0048599662 -0.074288577 0.72900009 1.6069785e-38
0.0062485477 -0.074288577 0.72900003 1.6528597e-38
0.0076580425 -0.07449241 0.73100007 1.6896298e-38
0.0090504326 -0.074492395 0.73100007 1.6896656e-38
0.010457106 -0.074594289 0.73200011 1.6896303e-38
0.011851402 -0.074594304 0.73200005 1.6988144e-38
0.013245678 -0.074594304 0.73200005 1.7080333e-38
0.014679987 -0.074798107 0.73400009 1.6988851e-38
0.016078072 -0.074798107 0.73400009 1.6804489e-38
0.017523788 -0.075001925 0.73600006 1.6988905e-38
0.018925682 -0.075001925 0.73600012 1.717219e-38
0.020355187 -0.075103819 0.73700011 1.7080327e-38
0.021759035 -0.075103819 0.73700011 1.6988133e-38
0.023225702 -0.075307637 0.73900002 1.7172523e-38
0.024666615 -0.075409546 0.74000007 1.7355834e-38
0.026076157 -0.075409546 0.74000007 1.7448028e-38
0.02755997 -0.07561335 0.74200004 1.7539505e-38
0.028973298 -0.07561335 0.7420001 1.7539864e-38
0.030386645 -0.07561335 0.7420001 1.7539505e-38
0.031842846 -0.075715244 0.74300003 1.7539864e-38
0.033258073 -0.075715229 0.74300003 1.7539864e-38
0.034766611 -0.075919077 0.74500012 1.744803e-38
0.036282834 -0.076122865 0.74700004 1.73562e-38
0.03775616 -0.076224789 0.74800009 1.7448042e-38
0.039180916 -0.076224804 0.74800009 1.75399e-38
0.04060569 -0.076224774 0.74800003 1.7539923e-38
0.042142827 -0.076428577 0.75000006 1.7539939e-38
0.043571394 -0.076428592 0.75000006 1.7723627e-38
0.044999957 -0.076428577 0.75000012 1.7907286e-38
0.04642852 -0.076428577 0.75000012 1.8274615e-38
0.047984753 -0.076632395 0.75200003 1.8550116e-38
0.049482819 -0.07673429 0.75300008 1.9101125e-38
0.050917123 -0.07673429 0.75300008 1.9560336e-38
0.052490454 -0.076938093 0.75500005 1.7080811e-38
0.053928573 -0.076938093 0.75500005 1.4478905e-38
0.055366658 -0.076938093 0.75500005 9.9416381e-39
0.056804754 -0.076938093 0.75500011 5.4370184e-39
0.05831999 -0.077040032 0.7560001 6.8238625e-39
0.059759982 -0.077040017 0.7560001 8.1106482e-39
0.061200004 -0.077040032 0.75600004 7.651482e-39
0.062639996 -0.077040017 0.7560001 7.1926478e-39
-0.033600044 -0.078400016 0.78400004 6.1876225e-39
-0.031738117 -0.07750003 0.7750001 5.3585807e-39
-0.030261917 -0.077500015 0.77500004 4.6220905e-39
-0.028711446 -0.077300012 0.77300006 4.0703474e-39
-0.027203828 -0.07720001 0.77200001 3.5179107e-39
-0.025600038 -0.076800019 0.76800007 3.1509387e-39
-0.024042903 -0.076500028 0.7650001 2.7828849e-39
-0.022467647 -0.076100007 0.7610001 3.7019615e-39
-0.020990504 -0.076000005 0.76000011 4.6206654e-39
-0.019440021 -0.075600013 0.7560001 2.3190284e-39
-0.0179762 -0.075500011 0.75500011 1.0353494e-40
-0.016494311 -0.075300008 0.75300008 7.5766863e-39
-0.014940024 -0.074700013 0.74700004 1.5144456e-38
-0.013444782 -0.074299991 0.74300003 1.8181075e-38
-0.012029543 -0.074299991 0.74300003 2.1305266e-38
-0.010514313 -0.073600009 0.73600006 2.0662406e-38
-0.0090628779 -0.073200002 0.73200005 2.0019566e-38
-0.0076686018 -0.073200002 0.73200005 1.9927738e-38
-0.0062657562 -0.073100001 0.73100007 1.9744059e-38
-0.0048733656 -0.073100001 0.73100007 1.974405e-38
-0.0034714467 -0.072899997 0.72900003 1.9652203e-38
-0.0020828792 -0.072900012 0.72900003 1.9652191e-38
-0.00069335895 -0.072800025 0.7280001 1.9652173e-38
0.000693304 -0.072800025 0.7280001 1.9468123e-38
0.0020828475 -0.072900012 0.72900003 1.9375548e-38
0.0034714001 -0.072899997 0.72900003 1.9192213e-38
0.0048599625 -0.072900012 0.72900009 1.9100722e-38
0.0062656878 -0.073100001 0.73100001 1.9192185e-38
0.0076580583 -0.073100016 0.73100007 1.9283303e-38
0.0090628369 -0.073199987 0.73200011 1.9192185e-38
0.010457132 -0.073199973 0.73200005 1.9191109e-38
0.011851408 -0.073199987 0.73200011 1.9099991e-38
0.013281852 -0.073400006 0.73400009 1.9007797e-38
0.014679985 -0.073400006 0.73400009 1.891632e-38
0.016121885 -0.073600009 0.73600006 1.8822691e-38
0.017523779 -0.073599994 0.73600006 1.8916679e-38
0.0189257 -0.073600009 0.73600012 1.9008514e-38
0.020355219 -0.073700011 0.73700011 1.8733008e-38
0.021759016 -0.073700011 0.73700011 1.8456066e-38
0.023225702 -0.073900029 0.73900008 1.8457142e-38
0.024666648 -0.074000016 0.74000007 1.854826e-38
0.02607616 -0.074000001 0.74000007 1.8548978e-38
0.027559973 -0.074200004 0.74200004 1.8640813e-38
0.028973302 -0.074200019 0.7420001 1.8641531e-38
0.030386623 -0.074200019 0.7420001 1.8548978e-38
0.031842832 -0.074299991 0.74300003 1.8641531e-38
0.033347603 -0.074500009 0.74500006 1.8733009e-38
0.034859966 -0.074700013 0.7470001 1.8917039e-38
0.036282841 -0.074700013 0.74700004 1.9100721e-38
0.037756149 -0.074800029 0.74800009 1.9192925e-38
0.039180923 -0.074800014 0.74800003 1.9376621e-38
0.040605683 -0.074800014 0.74800009 1.9284811e-38
0.042142838 -0.075000018 0.75000006 1.9192992e-38
0.043571401 -0.075000033 0.75000006 1.9284845e-38
0.044999968 -0.075000003 0.75000012 1.937667e-38
0.046428531 -0.075000003 0.75000012 1.8733095e-38
0.047984734 -0.075200021 0.75200009 1.818281e-38
0.04948283 -0.075300008 0.75300002 1.8636259e-38
0.050917108 -0.075299993 0.75300002 1.9193057e-38
0.052351415 -0.075300023 0.75300002 1.7255945e-38
0.053928558 -0.075499997 0.75500005 1.5306136e-38
0.055366673 -0.075500011 0.75500005 1.0686999e-38
0.056804758 -0.075499997 0.75500005 5.9905061e-39
0.058242854 -0.075500011 0.75500011 7.0979453e-39
0.059680942 -0.075500011 0.75500005 8.2028467e-39
0.061119054 -0.075500011 0.75500005 7.9273444e-39
0.062557139 -0.075500026 0.75500005 7.6514722e-39
-0.031901941 -0.076416194 0.77900004 4.9912402e-39
-0.030261913 -0.076023817 0.77500004 4.3473071e-39
-0.028711462 -0.075827643 0.77300012 3.9799567e-39
-0.027203843 -0.075729534 0.77200007 3.6111854e-39
-0.02566669 -0.075533345 0.7700001 3.2438504e-39
-0.024105754 -0.075239047 0.76700008 2.8757952e-39
-0.02246763 -0.074650496 0.76100004 3.9785428e-39
-0.020990495 -0.074552402 0.76000005 4.988006e-39
-0.019491477 -0.074356198 0.75800008 2.5981223e-39
-0.01800002 -0.07416001 0.7560001 1.1573744e-40
-0.016538115 -0.074061915 0.75500005 7.8493355e-39
-0.015060041 -0.073865712 0.75300008 1.5502868e-38
-0.013625749 -0.073865727 0.75300008 1.9009453e-38
-0.011883846 -0.072001904 0.73400009 2.2407347e-38
-0.01045716 -0.07180573 0.73200005 2.1580808e-38
-0.0090628853 -0.07180573 0.73200005 2.0754288e-38
-0.0076581328 -0.071707651 0.73100007 2.0662453e-38
-0.0062657422 -0.071707621 0.73100007 2.0478785e-38
-0.0048733647 -0.071707621 0.73100001 2.0662458e-38
-0.0034714513 -0.071511433 0.72900003 2.0846125e-38
-0.0020828689 -0.071511433 0.72900003 2.13053e-38
-0.00069337478 -0.071413353 0.7280001 2.1764483e-38
0.00069330307 -0.071413353 0.7280001 2.1948159e-38
0.0020828419 -0.071511433 0.72900003 2.2039632e-38
0.0034714243 -0.071511433 0.72900003 2.2039988e-38
0.0048733125 -0.071707636 0.73100001 2.2039984e-38
0.0062656831 -0.071707651 0.73100007 2.185631e-38
0.0076580741 -0.071707621 0.73100007 2.167228e-38
0.0090628359 -0.071805716 0.73200005 2.1580803e-38
0.010457112 -0.071805716 0.73200005 2.1396772e-38
0.011883766 -0.072001934 0.73400009 2.1121623e-38
0.01328187 -0.072001919 0.73400009 2.0845758e-38
0.01471996 -0.072198123 0.73600012 2.0846117e-38
0.016121883 -0.072198123 0.73600012 2.0845399e-38
0.017523797 -0.072198093 0.73600006 2.0846118e-38
0.018951394 -0.072296202 0.73700011 2.0846117e-38
0.020355219 -0.072296217 0.73700011 2.0386938e-38
0.02181809 -0.072492376 0.73900002 1.9927018e-38
0.023225676 -0.072492391 0.73900008 1.9835517e-38
0.024666632 -0.0725905 0.74000007 1.9651489e-38
0.026076142 -0.072590485 0.74000007 1.9742968e-38
0.027559979 -0.072786674 0.74200004 1.9743689e-38
0.028973278 -0.072786674 0.7420001 1.9652216e-38
0.030386627 -0.072786659 0.7420001 1.9560019e-38
0.03192855 -0.073080957 0.74500006 1.9744047e-38
0.033347592 -0.073080972 0.74500012 1.983587e-38
0.034859996 -0.073277175 0.74700004 2.0386871e-38
0.036282849 -0.073277175 0.7470001 2.0846052e-38
0.037756167 -0.073375255 0.74800009 2.1029727e-38
0.039180942 -0.07337524 0.74800003 2.1121576e-38
0.040605698 -0.073375255 0.74800009 2.1029751e-38
0.042030454 -0.073375255 0.74800009 2.08461e-38
0.043455228 -0.073375255 0.74800003 2.084612e-38
0.044999976 -0.073571444 0.75000006 2.0843212e-38
0.046428543 -0.073571444 0.75000012 1.9281971e-38
0.048048545 -0.073865727 0.75300008 1.7711094e-38
0.049482826 -0.073865727 0.75300008 1.8252076e-38
0.050917104 -0.073865727 0.75300008 1.8720288e-38
0.052490454 -0.074061915 0.75500011 1.7443627e-38
0.053928565 -0.074061915 0.75500011 1.6130899e-38
0.055366658 -0.074061915 0.75500005 1.1326268e-38
0.056804772 -0.074061915 0.75500005 6.5451176e-39
0.058319978 -0.07416001 0.7560001 7.3745434e-39
0.059760001 -0.074160025 0.7560001 8.2028495e-39
0.061199989 -0.07416001 0.75600004 8.1120846e-39
0.062639989 -0.074160025 0.7560001 8.0202435e-39
-0.031901944 -0.074932396 0.7790001 5.0827183e-39
-0.030418133 -0.074932411 0.7790001 4.3473127e-39
-0.028785732 -0.074547634 0.7750001 3.9792476e-39
-0.02720385 -0.074259043 0.77200001 3.5197128e-39
-0.02566669 -0.074066669 0.7700001 2.967625e-39
-0.024105739 -0.073778108 0.76700002 2.3240633e-39
-0.022467645 -0.073200956 0.76100004 3.4271683e-39
-0.020990493 -0.073104784 0.76000005 4.6224576e-39
-0.019491462 -0.07291238 0.75800002 2.3204634e-39
-0.018000025 -0.072720006 0.7560001 1.0605868e-40
-0.016538115 -0.072623834 0.75500011 8.4021534e-39
-0.015040032 -0.072335258 0.75200003 1.6609595e-38
-0.013607658 -0.072335243 0.75200003 1.974133e-38
-0.011883841 -0.070603833 0.73400003 2.2958414e-38
-0.010485741 -0.070603833 0.73400009 2.249885e-38
-0.0090628732 -0.070411429 0.73200005 2.213186e-38
-0.00765813 -0.070315257 0.73100007 2.2040016e-38
-0.0062657394 -0.070315257 0.73100001 2.1948195e-38
-0.0048733684 -0.070315272 0.73100007 2.2040044e-38
-0.003471443 -0.070122853 0.72900003 2.2131884e-38
-0.0020828745 -0.070122853 0.72900003 2.2407394e-38
-0.00069336174 -0.070026696 0.7280001 2.2591096e-38
0.00069425581 -0.070122868 0.72900003 2.2499292e-38
0.0020828373 -0.070122868 0.72900003 2.2499307e-38
0.0034713992 -0.070122883 0.72900009 2.2591157e-38
0.0048733088 -0.070315257 0.73100007 2.2774835e-38
0.0062656999 -0.070315257 0.73100007 2.2683006e-38
0.0076580425 -0.070315257 0.73100007 2.2591171e-38
0.0090628415 -0.070411444 0.73200011 2.2499335e-38
0.010457138 -0.070411429 0.73200005 2.2407498e-38
0.011883765 -0.070603833 0.73400009 2.231566e-38
0.01328187 -0.070603818 0.73400009 2.2131989e-38
0.01471998 -0.070796207 0.73600012 2.2131989e-38
0.016121874 -0.070796207 0.73600012 2.213199e-38
0.017547576 -0.070892408 0.73700011 2.213199e-38
0.018951423 -0.070892394 0.73700011 2.2131987e-38
0.020355221 -0.070892408 0.73700011 2.1948314e-38
0.021818064 -0.071084782 0.73900008 2.167276e-38
0.023257103 -0.071180984 0.74000007 2.1580875e-38
0.024666615 -0.071180984 0.74000007 2.1580879e-38
0.026076155 -0.071180969 0.74000007 2.1580523e-38
0.027559984 -0.071373329 0.7420001 2.1580889e-38
0.028973304 -0.071373329 0.74200004 2.1580896e-38
0.030386632 -0.071373343 0.7420001 2.1489058e-38
0.031928536 -0.071661934 0.74500012 2.1489053e-38
0.033437122 -0.071854278 0.74700004 2.1397191e-38
0.034906644 -0.071950495 0.74800009 2.0845434e-38
0.0363314 -0.07195051 0.74800009 2.0295137e-38
0.037756175 -0.071950495 0.74800003 2.0195408e-38
0.039180931 -0.071950495 0.74800009 2.0203299e-38
0.040605687 -0.071950495 0.74800009 2.0289035e-38
0.042142827 -0.072142854 0.75000006 2.0386632e-38
0.043571394 -0.072142854 0.75000006 2.0934079e-38
0.044999961 -0.072142854 0.75000006 2.1572198e-38
0.04642855 -0.072142869 0.75000012 1.9453459e-38
0.047984738 -0.072335243 0.75200003 1.7331931e-38
0.049482837 -0.072431445 0.75300002 1.7973001e-38
0.050917115 -0.07243143 0.75300002 1.8705981e-38
0.052490484 -0.072623819 0.75500005 1.7337148e-38
0.05392855 -0.072623819 0.75500011 1.6039817e-38
0.055366643 -0.072623819 0.75500005 1.077634e-38
0.056880001 -0.072719991 0.75600004 5.5302762e-39
0.058319975 -0.072720006 0.7560001 6.6387972e-39
0.059918076 -0.072912395 0.75800008 7.7443937e-39
0.061361879 -0.072912395 0.75800002 7.7440181e-39
0.062805682 -0.07291241 0.75800008 7.8358508e-39
-0.031901944 -0.073448598 0.7790001 5.0823498e-39
-0.030340003 -0.073259994 0.77700001 4.346591e-39
-0.02878572 -0.07307145 0.77500004 3.88598e-39
-0.027203843 -0.072788551 0.77200001 3.426441e-39
-0.02566669 -0.072600007 0.7700001 2.59956e-39
-0.024105741 -0.072317153 0.76700008 1.7734063e-39
-0.022526676 -0.07193999 0.76300001 2.9676335e-39
-0.020990485 -0.071657151 0.76000005 4.1618452e-39
-0.01949146 -0.071468592 0.75800002 2.1389434e-39
-0.018000016 -0.071280032 0.7560001 1.1323052e-40
-0.016494326 -0.070997164 0.75300008 8.9513713e-39
-0.015040028 -0.070902854 0.75200003 1.770552e-38
-0.013517172 -0.070431441 0.74700004 2.0570717e-38
-0.011883844 -0.069205731 0.73400009 2.3416883e-38
-0.010485744 -0.069205731 0.73400009 2.341543e-38
-0.0090628816 -0.069017157 0.73200005 2.3415431e-38
-0.0076581133 -0.068922877 0.73100001 2.3416866e-38
-0.0062657581 -0.068922862 0.73100007 2.3417226e-38
-0.0048600282 -0.068734288 0.72900003 2.3417586e-38
-0.0034714467 -0.068734288 0.72900003 2.3417592e-38
-0.0020828848 -0.068734303 0.72900009 2.3417599e-38
-0.00069337664 -0.068640023 0.7280001 2.3417624e-38
0.00069426512 -0.068734288 0.72900003 2.3142141e-38
0.0020828336 -0.068734273 0.72900003 2.2866641e-38
0.0034713936 -0.068734303 0.72900009 2.3142154e-38
0.0048732967 -0.068922862 0.73100007 2.3417675e-38
0.0062656673 -0.068922877 0.73100007 2.341769e-38
0.0076580583 -0.068922862 0.73100007 2.341769e-38
0.0090628387 -0.069017142 0.73200005 2.341769e-38
0.010457114 -0.069017157 0.73200005 2.3417689e-38
0.011883783 -0.069205716 0.73400009 2.3417689e-38
0.013318078 -0.069394305 0.73600006 2.3417689e-38
0.014719971 -0.06939429 0.73600012 2.3417689e-38
0.016143778 -0.069488585 0.73700011 2.3417689e-38
0.017547578 -0.069488585 0.73700011 2.3417689e-38
0.018951403 -0.0694886 0.73700011 2.3417687e-38
0.020410456 -0.069677159 0.73900008 2.3417686e-38
0.021818064 -0.069677159 0.73900008 2.3417662e-38
0.023257107 -0.069771424 0.74000007 2.3417638e-38
0.024666646 -0.069771439 0.74000007 2.341764e-38
0.026076159 -0.069771439 0.74000001 2.3417641e-38
0.027559984 -0.069959998 0.7420001 2.3417644e-38
0.028973307 -0.069960013 0.74200004 2.3417648e-38
0.030386636 -0.069960013 0.7420001 2.3417621e-38
0.031928543 -0.070242882 0.74500012 2.3233925e-38
0.033437129 -0.070431441 0.7470001 2.2950508e-38
0.034906633 -0.070525721 0.74800009 2.1302475e-38
0.036331389 -0.070525721 0.74800009 1.9630035e-38
0.037756164 -0.070525736 0.74800003 1.9436649e-38
0.039180923 -0.070525736 0.74800009 1.9259089e-38
0.040605675 -0.070525736 0.74800009 1.9628596e-38
0.042030454 -0.070525721 0.74800003 1.9913117e-38
0.043571401 -0.070714295 0.75000006 2.1115277e-38
0.044999968 -0.07071428 0.75000006 2.2209326e-38
0.046428535 -0.07071428 0.75000006 1.9536329e-38
0.047984745 -0.070902854 0.75200009 1.6872034e-38
0.049482826 -0.070997149 0.75300008 1.7786097e-38
0.050917108 -0.070997149 0.75300008 1.8710639e-38
0.052490469 -0.071185708 0.75500005 1.7342163e-38
0.053928588 -0.071185708 0.75500005 1.5849325e-38
0.055439979 -0.071280017 0.7560001 1.0208464e-38
0.056879997 -0.071280003 0.75600004 4.5204347e-39
0.058319997 -0.071280003 0.7560001 5.9062516e-39
0.059759989 -0.071280017 0.7560001 7.1922961e-39
0.061199982 -0.071280003 0.75600004 7.3755985e-39
-0.035182886 -0.072611451 0.78600001 5.3592772e-39
-0.033685748 -0.072611436 0.78600001 5.9106517e-39
-0.031901941 -0.071964771 0.7790001 5.1745342e-39
-0.030261913 -0.071595252 0.77500004 4.5295403e-39
-0.028711461 -0.071410492 0.77300012 3.9774582e-39
-0.027203856 -0.07131809 0.77200007 3.4253634e-39
-0.02566669 -0.071133345 0.7700001 2.9668964e-39
-0.024137177 -0.070948586 0.76800007 2.5088063e-39
-0.022585751 -0.070671439 0.7650001 3.3353356e-39
-0.021018106 -0.070301905 0.76100004 4.1625627e-39
-0.01954286 -0.070209518 0.76000005 2.1324848e-39
-0.018095255 -0.070209518 0.76000005 9.3498837e-41
-0.016494315 -0.069562867 0.75300002 8.9502923e-39
-0.014940032 -0.069008589 0.74700004 1.7711257e-38
-0.01351718 -0.069008589 0.7470001 2.0567485e-38
-0.011964773 -0.068269536 0.73900002 2.341689e-38
-0.010485761 -0.06780763 0.73400009 2.3414013e-38
-0.0090628695 -0.06762287 0.73200005 2.3319317e-38
-0.0076581319 -0.067530498 0.73100007 2.3322913e-38
-0.0062657413 -0.067530483 0.73100007 2.3416172e-38
-0.0048600198 -0.067345724 0.72900003 2.3416877e-38
-0.0034714513 -0.067345709 0.72900003 2.3417605e-38
-0.0020828894 -0.067345709 0.72900003 2.3417613e-38
-0.00069335615 -0.067253351 0.72800004 2.3417631e-38
0.0006933012 -0.067253351 0.7280001 2.3325814e-38
0.0020828559 -0.067345724 0.72900003 2.314214e-38
0.0034713899 -0.067345738 0.72900003 2.3233614e-38
0.0048732911 -0.067530498 0.73100007 2.3325832e-38
0.0062656822 -0.067530513 0.73100007 2.3325854e-38
0.0076580732 -0.067530483 0.73100001 2.341769e-38
0.0090504447 -0.067530483 0.73100007 2.341769e-38
0.010457112 -0.067622855 0.73200005 2.341769e-38
0.011883781 -0.067807615 0.73400009 2.341769e-38
0.013281866 -0.06780763 0.73400009 2.341769e-38
0.014719961 -0.067992389 0.73600006 2.341769e-38
0.016121885 -0.067992389 0.73600012 2.341769e-38
0.017547607 -0.068084776 0.73700011 2.341769e-38
0.018951405 -0.068084776 0.73700011 2.341769e-38
0.020410452 -0.068269551 0.73900008 2.341769e-38
0.021818087 -0.068269551 0.73900008 2.3325854e-38
0.023257092 -0.068361908 0.74000007 2.341769e-38
0.02466663 -0.068361923 0.74000007 2.341769e-38
0.026076142 -0.068361938 0.74000007 2.341769e-38
0.027559962 -0.068546697 0.74200004 2.341769e-38
0.028973311 -0.068546683 0.74200004 2.3049629e-38
0.030427609 -0.06863904 0.74300003 2.2682957e-38
0.031928528 -0.068823829 0.74500012 2.1472545e-38
0.033347592 -0.068823829 0.74500012 2.0357956e-38
0.034859981 -0.069008589 0.74700004 1.9617524e-38
0.036282834 -0.069008589 0.7470001 1.8954529e-38
0.037756156 -0.069100976 0.74800009 1.8871963e-38
0.039180938 -0.069100976 0.74800009 1.8870196e-38
0.040714264 -0.069285735 0.75000012 1.9433791e-38
0.042142831 -0.069285735 0.75000012 2.0083169e-38
0.043571394 -0.069285735 0.75000012 2.1012357e-38
0.044999976 -0.069285721 0.75000006 2.1930252e-38
0.046552379 -0.06947048 0.75200003 1.9260465e-38
0.048048563 -0.069562837 0.75300002 1.6599398e-38
0.049482841 -0.069562852 0.75300002 1.7702867e-38
0.051052369 -0.069747642 0.75500005 1.8803545e-38
0.052490484 -0.069747627 0.75500005 1.7614075e-38
0.053999983 -0.069840029 0.7560001 1.6409302e-38
0.055439997 -0.069840029 0.7560001 1.0683422e-38
0.056879994 -0.069840014 0.75600004 5.0692869e-39
0.05831999 -0.069840044 0.7560001 6.2703496e-39
0.059759986 -0.069840029 0.7560001 7.5596297e-39
0.06136186 -0.070024773 0.75800002 7.835132e-39
0.06280569 -0.070024759 0.75800002 8.1102825e-39
-0.035182875 -0.071114302 0.78600001 5.2674599e-39
-0.033685751 -0.071114302 0.78600001 6.002497e-39
-0.032106716 -0.070933372 0.7840001 5.3585681e-39
-0.030339997 -0.070299998 0.77700001 4.6220961e-39
-0.028711464 -0.069938123 0.77300012 4.0692965e-39
-0.02720385 -0.069847614 0.77200001 3.4260851e-39
-0.02566669 -0.069666684 0.7700001 3.3338866e-39
-0.024137162 -0.069485724 0.76800001 3.1512974e-39
-0.022585755 -0.069214299 0.7650001 3.7026748e-39
-0.021073349 -0.06903334 0.76300001 4.1607634e-39
-0.019542871 -0.0687619 0.76000005 2.1353476e-39
-0.0179762 -0.068309546 0.75500005 1.1143125e-40
-0.016472403 -0.068038106 0.75200003 8.9531607e-39
-0.014900043 -0.067404792 0.74500012 1.7705161e-38
-0.013444786 -0.067223817 0.74300003 2.0570721e-38
-0.011964786 -0.066861928 0.73900008 2.3415823e-38
-0.010514323 -0.066590488 0.73600012 2.3320757e-38
-0.0090628909 -0.066228569 0.73200005 2.3229644e-38
-0.0076685813 -0.066228569 0.73200005 2.3322563e-38
-0.0062657599 -0.066138104 0.73100007 2.3323631e-38
-0.0048733694 -0.066138104 0.73100007 2.3416533e-38
-0.0034809778 -0.066138089 0.73100007 2.3416542e-38
-0.0020886078 -0.066138119 0.73100007 2.3416909e-38
