# .PCD v0.7 - Point Cloud Data file format
VERSION 0.7
FIELDS x y z rgb
SIZE 4 4 4 4
TYPE F F F F
COUNT 1 1 1 1
WIDTH 988
HEIGHT 1
VIEWPOINT 0 0 0 1 0 0 0
POINTS 988
DATA ascii
0.025100017 0.020797156 0.75300002 1.6048232e-38
0.026534298 0.020797163 0.75299996 1.7723884e-38
0.027931437 0.020769529 0.75200003 1.9345696e-38
0.029402865 0.020797171 0.75300002 1.8679513e-38
0.030919058 0.020852402 0.75500005 1.7979646e-38
0.032357149 0.020852409 0.75500005 2.0754461e-38
0.03379526 0.020852402 0.75500005 2.341769e-38
0.035233352 0.020852409 0.755 2.341769e-38
0.03672 0.020880014 0.75600004 2.3416252e-38
0.038160011 0.020880006 0.75600004 2.1948316e-38
0.0396 0.020880014 0.75599998 2.045993e-38
0.041040011 0.020880006 0.75600004 1.5593003e-38
0.042480014 0.020880006 0.75599998 1.070132e-38
0.043920007 0.020880021 0.75600004 5.4465991e-39
0.045480009 0.020935245 0.75800002 1.3162677e-40
0.046923824 0.020935245 0.75800002 3.4423738e-39
0.048495248 0.020990483 0.76000005 6.7494521e-39
0.050008576 0.02101811 0.76100004 8.3034067e-39
0.051458087 0.021018103 0.76100004 9.7651641e-39
0.05290762 0.021018103 0.76100004 6.2455648e-39
0.054357149 0.021018103 0.76100004 2.6840681e-39
0.055806667 0.021018103 0.76100004 3.5052052e-39
0.057406683 0.021073349 0.76300001 4.2474141e-39
0.058860011 0.021073356 0.76300001 4.7955488e-39
-0.02526666 0.022379056 0.75800002 8.6700564e-39
-0.023822855 0.022379041 0.75800002 9.0442634e-39
-0.022379037 0.022379056 0.75800002 8.12201e-39
-0.020935237 0.022379048 0.75800002 7.2076249e-39
-0.01941428 0.022290491 0.75500005 1.4588568e-38
-0.017809523 0.022083826 0.74800003 2.1948315e-38
-0.01638476 0.022083826 0.74800003 1.7798492e-38
-0.014939992 0.022054307 0.74700004 1.3652269e-38
-0.013517141 0.022054292 0.74700004 1.8542875e-38
-0.0120619 0.021995261 0.745 2.3417679e-38
-0.010642861 0.021995246 0.74500006 2.0283421e-38
-0.0092238151 0.021995254 0.74500006 1.7154211e-38
-0.0078047593 0.021995246 0.745 2.029062e-38
-0.0063857129 0.021995254 0.74500006 2.3417686e-38
-0.0049666665 0.021995246 0.74500006 1.9549111e-38
-0.0035476177 0.021995261 0.745 1.5575776e-38
-0.0021285713 0.021995246 0.74500006 1.9169181e-38
-0.00070952479 0.021995239 0.74500006 2.2774822e-38
0.00070952397 0.021995261 0.745 2.2498618e-38
0.0021228613 0.021936208 0.74299997 2.2313136e-38
0.0035571398 0.022054277 0.7470001 2.1656638e-38
0.004986661 0.022083826 0.74800003 2.1119992e-38
0.006402866 0.022054285 0.74700004 2.222347e-38
0.0078361854 0.022083826 0.74800003 2.3417676e-38
0.0092609469 0.022083819 0.74800003 1.8249403e-38
0.010714288 0.02214288 0.75 1.3213891e-38
0.012142861 0.02214288 0.75 1.7996885e-38
0.013571436 0.022142872 0.75000006 2.2866677e-38
0.014999994 0.022142872 0.75000006 2.0202013e-38
0.016428569 0.02214288 0.75000006 1.7630612e-38
0.017904775 0.022201926 0.75199997 1.4393761e-38
0.019285725 0.022142887 0.75 1.1167316e-38
0.0207143 0.02214288 0.75 7.9372824e-39
0.022142872 0.022142872 0.75 4.6843011e-39
0.023665728 0.022231437 0.75300002 1.180012e-38
0.025100024 0.02223146 0.75299996 1.9009576e-38
0.026534306 0.022231452 0.75299996 1.9832877e-38
0.027968593 0.022231437 0.75300002 2.0649339e-38
0.029402874 0.022231452 0.75300002 1.8713247e-38
0.030837156 0.022231445 0.75299996 1.6805522e-38
0.032357149 0.022290491 0.75500005 1.7444437e-38
0.03379526 0.022290483 0.75500005 1.8091231e-38
0.035233352 0.022290491 0.755 1.4953399e-38
0.036671437 0.022290491 0.75500005 1.1840313e-38
0.03810953 0.022290498 0.75500005 1.1079435e-38
0.039600007 0.02232001 0.75600004 1.0319273e-38
0.04104 0.022320017 0.75600004 8.0240928e-39
0.042480003 0.022320017 0.75599998 5.694486e-39
0.043919999 0.022320002 0.75600004 4.1616238e-39
0.045360003 0.022320025 0.75599998 2.6136991e-39
0.046923824 0.022379048 0.75800002 5.8344028e-39
0.048495244 0.022438109 0.76000005 9.1483168e-39
0.049942873 0.022438109 0.75999999 1.2086997e-38
0.051458091 0.022467636 0.76100004 1.5117847e-38
0.05290762 0.022467628 0.76100004 1.3175231e-38
0.054357149 0.022467613 0.76100004 1.1245936e-38
0.055806667 0.022467636 0.76100004 1.0597674e-38
0.057406679 0.022526674 0.76300001 1.0038052e-38
0.058860004 0.022526674 0.76300001 8.9345907e-39
0.060313355 0.022526681 0.76299995 7.9172396e-39
-0.032485712 0.023822859 0.75800002 6.185791e-39
-0.031041905 0.023822859 0.75800002 8.3019745e-39
-0.029598089 0.023822866 0.75800002 1.0416702e-38
-0.028154289 0.023822851 0.75800002 9.221047e-39
-0.026780946 0.023885719 0.76000005 8.0254017e-39
-0.025266666 0.023822859 0.75800002 8.4835128e-39
-0.023885706 0.023885719 0.76000005 8.9477671e-39
-0.022379043 0.023822851 0.75800002 8.4846982e-39
-0.020880003 0.023760006 0.75600004 7.9530764e-39
-0.019414281 0.023728587 0.75500005 1.4693318e-38
-0.01780952 0.023508579 0.74800003 2.1375412e-38
-0.016362853 0.023477145 0.74700004 1.3829105e-38
-0.014939994 0.023477159 0.74700004 6.3122386e-39
-0.013535236 0.023508586 0.74800003 1.4876989e-38
-0.01209428 0.023477159 0.74700004 2.3413733e-38
-0.010642854 0.023414299 0.745 2.0187641e-38
-0.0092238076 0.023414291 0.74500006 1.6975562e-38
-0.0078047696 0.023414299 0.74500006 2.0203448e-38
-0.0063857129 0.023414299 0.745 2.3415894e-38
-0.0049666674 0.023414306 0.74500006 1.9645612e-38
-0.003547621 0.023414299 0.74500006 1.5867791e-38
-0.0021285643 0.023414299 0.745 1.9354662e-38
-0.00070952572 0.023414299 0.74500006 2.2861283e-38
0.0007095277 0.023414291 0.74500006 2.2040158e-38
0.0021285773 0.023414299 0.745 2.1197837e-38
0.0035571465 0.023477137 0.7470001 2.1367861e-38
0.0049866666 0.023508586 0.74799997 2.1481236e-38
0.006411429 0.023508593 0.74799997 2.2499335e-38
0.007836191 0.023508586 0.74799997 2.340512e-38
0.0092609525 0.023508593 0.74799997 1.6203912e-38
0.010714291 0.023571439 0.75000006 9.0647924e-39
0.012142859 0.023571461 0.75 1.5703508e-38
0.013571433 0.023571454 0.75 2.221773e-38
0.015000006 0.023571461 0.75 1.7076018e-38
0.016428581 0.023571447 0.75 1.1908827e-38
0.017857155 0.023571447 0.75 6.0019295e-39
0.019285727 0.023571454 0.75 1.3055618e-40
0.020714287 0.023571447 0.75 1.2661012e-40
0.022142861 0.023571447 0.75 1.2482066e-40
0.023665735 0.023665741 0.75300002 1.1090917e-38
0.025100017 0.023665734 0.75299996 2.1943294e-38
0.026534304 0.023665741 0.75300002 2.1948322e-38
0.027968585 0.023665734 0.75300002 2.1846432e-38
0.029402884 0.023665726 0.75299996 1.8718276e-38
0.030960005 0.023760013 0.75599998 1.5497222e-38
0.032399997 0.023760013 0.75600004 1.4126511e-38
0.033840004 0.023760021 0.75599998 1.2634897e-38
0.035279997 0.023759998 0.75600004 6.3717854e-39
0.036720008 0.023760013 0.75600004 1.3199391e-40
0.038160011 0.023760013 0.75599998 1.1764601e-40
0.039600007 0.023760021 0.75600004 1.2481926e-40
0.041040011 0.023760013 0.75599998 4.8893265e-40
0.042592384 0.023822851 0.75800002 7.6766913e-40
0.044036206 0.023822874 0.75800002 2.9828431e-39
0.045600023 0.023885727 0.75999999 5.1000846e-39
0.04704763 0.023885719 0.76000005 8.3168409e-39
0.048559036 0.023917146 0.76100004 1.145104e-38
0.050008569 0.023917153 0.76100004 1.5961337e-38
0.051458091 0.023917153 0.76100004 2.045728e-38
0.053046692 0.023980014 0.76299995 2.0183876e-38
0.054500017 0.023980007 0.76299995 1.9807543e-38
0.055953346 0.023980014 0.76300001 1.7785346e-38
0.057406671 0.023980007 0.76300001 1.5754154e-38
0.058860008 0.023980021 0.76299995 1.3170874e-38
-0.034019034 0.025333345 0.75999999 8.0174717e-39
-0.032571431 0.025333337 0.76000005 6.9197576e-39
-0.031041902 0.025266677 0.75800002 8.3930786e-39
-0.029676173 0.025333337 0.75999999 9.9567987e-39
-0.028154286 0.025266685 0.75800002 9.1299261e-39
-0.026780941 0.025333345 0.75999999 8.3945345e-39
-0.02526666 0.025266662 0.75800002 8.5789328e-39
-0.023885708 0.025333345 0.76000005 8.7680464e-39
-0.022379037 0.02526667 0.75800002 7.2054683e-39
-0.020935237 0.025266677 0.75800002 5.6510948e-39
-0.019439993 0.025200017 0.75600004 1.1446072e-38
-0.01785714 0.025000021 0.75 1.7214111e-38
-0.016428575 0.025000028 0.75 1.1799742e-38
-0.014960002 0.024933353 0.74800003 6.4001225e-39
-0.013535241 0.024933353 0.74800003 1.4962008e-38
-0.012094274 0.024900004 0.74700004 2.341768e-38
-0.010642864 0.024833344 0.74500006 1.9823888e-38
-0.0092238067 0.024833351 0.745 1.6234781e-38
-0.0078047612 0.024833344 0.74500006 1.9830366e-38
-0.0063857161 0.024833351 0.74500006 2.3417687e-38
-0.0049666669 0.024833344 0.745 2.1575952e-38
-0.0035476205 0.024833336 0.74500006 1.9639153e-38
-0.002128575 0.024833344 0.74500006 2.1204659e-38
-0.00070952525 0.024833351 0.745 2.2774836e-38
0.00070952816 0.024833351 0.74500006 1.7430087e-38
0.0021285666 0.024833336 0.74500006 1.1998146e-38
0.0035571381 0.024900004 0.74700004 1.6965498e-38
0.0049866624 0.024933346 0.74800003 2.1856471e-38
0.0064114244 0.024933346 0.74800003 2.2591171e-38
0.0078362012 0.024933353 0.74799997 2.332584e-38
0.0092609627 0.024933346 0.74800003 1.3927037e-38
0.010714288 0.025000036 0.75 4.637317e-39
0.012142861 0.025000028 0.75 8.3265351e-39
0.013571436 0.025000013 0.75 1.2101835e-38
0.015000009 0.025000021 0.75 9.8866623e-39
0.016472388 0.025066681 0.75199997 7.6610739e-39
0.017904773 0.025066681 0.75200003 5.2722622e-39
0.019337146 0.025066674 0.75200003 2.7876885e-39
0.020769531 0.025066666 0.75200003 1.6874618e-39
0.022201927 0.025066689 0.75199997 4.8463907e-40
0.023665728 0.025100023 0.75299996 7.2216393e-39
0.025100024 0.02510003 0.75299996 1.3958634e-38
0.026604787 0.02516669 0.75500005 1.4038631e-38
0.02804287 0.025166675 0.75500005 1.4222654e-38
0.029480964 0.025166683 0.75500005 1.0984728e-38
0.030960009 0.025200017 0.75600004 7.8382835e-39
0.032400001 0.025200002 0.75600004 7.4781119e-39
0.033840008 0.025200017 0.75599998 7.0820643e-39
0.03528 0.025200009 0.75600004 4.5260889e-39
0.036720008 0.025200009 0.75599998 1.9421478e-39
0.03816 0.025200024 0.75600004 2.6965705e-39
0.039599996 0.025200002 0.75600004 3.4409472e-39
0.04104 0.025200024 0.75599998 3.7204068e-39
0.042592391 0.025266685 0.75800002 4.0063193e-39
0.044036198 0.02526667 0.75800002 4.739211e-39
0.045600012 0.025333345 0.76000005 5.5678829e-39
0.047109522 0.025366671 0.76100004 8.6935183e-39
0.04855904 0.025366679 0.76100004 1.1918489e-38
0.050008565 0.025366664 0.76100004 1.5962086e-38
0.051458083 0.025366664 0.76100004 2.0004979e-38
0.053046685 0.025433347 0.76299995 1.9819133e-38
0.054500014 0.025433347 0.76300001 1.9545408e-38
0.055953339 0.025433347 0.76300001 1.8714212e-38
0.05740669 0.025433347 0.76299995 1.7981585e-38
0.058860015 0.025433354 0.76300001 1.6775071e-38
0.060313344 0.025433339 0.76300001 1.567088e-38
-0.034019038 0.02678097 0.75999999 8.4748527e-39
-0.03257142 0.02678097 0.76000005 7.6547989e-39
-0.031123796 0.02678097 0.75999999 8.5778243e-39
-0.029676186 0.026780955 0.76000005 9.4054242e-39
-0.028154287 0.02671048 0.75800002 9.0391626e-39
-0.026780942 0.026780963 0.75999999 8.6703969e-39
-0.025266664 0.026710473 0.75800002 8.6689746e-39
-0.023885703 0.02678097 0.75999999 8.5815042e-39
-0.022379048 0.026710488 0.75800002 5.9179763e-39
-0.020880001 0.026640013 0.75599998 3.259409e-39
-0.01941427 0.026604787 0.755 8.2260578e-39
-0.017809529 0.02635812 0.74800003 1.3092252e-38
-0.016362855 0.026322849 0.74700004 9.7553116e-39
-0.014939994 0.026322857 0.74700004 6.4897971e-39
-0.013535238 0.026358113 0.74800003 1.4968824e-38
-0.012094276 0.026322864 0.74700004 2.3414097e-38
-0.010642857 0.026252396 0.74500006 1.9454762e-38
-0.0092238113 0.026252389 0.74500006 1.549974e-38
-0.0078047621 0.026252404 0.745 1.9465528e-38
-0.0063857166 0.026252396 0.74500006 2.3416968e-38
-0.0049666702 0.026252382 0.74500006 2.3417687e-38
-0.003547614 0.026252396 0.745 2.3414457e-38
-0.002128575 0.026252389 0.74500006 2.3050342e-38
-0.00070952106 0.026252396 0.74500006 2.2667212e-38
0.0007095277 0.026252396 0.745 1.2723863e-38
0.0021285666 0.026252396 0.74500006 2.7980946e-39
0.0035571454 0.026322864 0.74700004 1.2547365e-38
0.0049866722 0.02635812 0.74800003 2.2215571e-38
0.0064114342 0.026358113 0.74800003 2.2774842e-38
0.0078361966 0.026358128 0.74800003 2.3226476e-38
0.0092857163 0.026428588 0.75 1.1724427e-38
0.010714291 0.026428595 0.75000006 1.2948418e-40
0.012142864 0.026428588 0.75000006 1.047486e-39
0.013571423 0.026428595 0.75000006 1.8858465e-39
0.014999997 0.02642858 0.75000006 2.7073479e-39
0.016472382 0.026499055 0.75200003 3.4431024e-39
0.017904779 0.02649907 0.75199997 4.4543635e-39
0.019337149 0.026499063 0.75200003 5.4620456e-39
0.020769535 0.026499063 0.75200003 3.1675973e-39
0.022231454 0.026534304 0.75299996 8.6776388e-40
0.023665735 0.026534319 0.75299996 3.4438227e-39
0.025100008 0.026534304 0.75300002 5.9362941e-39
0.026604772 0.026604787 0.75500005 6.2082118e-39
0.028042866 0.026604779 0.755 6.482998e-39
0.029480962 0.026604779 0.75500005 3.3426532e-39
0.030959995 0.026640005 0.75600004 1.3020305e-40
0.032400016 0.02664002 0.75599998 8.6524575e-40
0.033839993 0.026640013 0.75600004 1.5974172e-39
0.035280004 0.02664002 0.75600004 2.7076926e-39
0.036720011 0.026640013 0.75599998 3.8064942e-39
0.038160004 0.026640005 0.75600004 5.2851933e-39
0.039704766 0.02671048 0.75800002 6.6670334e-39
0.041148581 0.026710495 0.75800002 6.9454139e-39
0.042592391 0.02671048 0.75800002 7.2237903e-39
0.044152405 0.026780978 0.75999999 6.5830956e-39
0.045659993 0.026816204 0.76100004 5.9388122e-39
0.047109526 0.026816204 0.76100004 9.1541308e-39
0.04855904 0.026816197 0.76100004 1.2285468e-38
0.050008565 0.026816189 0.76100004 1.5963874e-38
0.051593352 0.026886687 0.76299995 1.9543648e-38
0.053046677 0.026886672 0.76300001 1.9449643e-38
0.054500006 0.026886679 0.76300001 1.9267403e-38
0.055953357 0.026886679 0.76299995 1.9727652e-38
0.057406683 0.026886687 0.76299995 2.0093865e-38
0.058860011 0.026886672 0.76300001 2.0461155e-38
0.060313351 0.026886672 0.76300001 2.0731991e-38
-0.034019046 0.028228574 0.76000005 8.204007e-39
-0.032571424 0.028228588 0.75999999 7.4729187e-39
-0.031123793 0.028228588 0.75999999 8.3937932e-39
-0.029676182 0.028228574 0.76000005 9.4054214e-39
-0.028154284 0.028154284 0.75800002 9.038441e-39
-0.026780939 0.028228588 0.75999999 8.7618723e-39
-0.02526666 0.028154299 0.75800002 8.5789314e-39
-0.023885699 0.028228588 0.75999999 8.4918196e-39
-0.022438088 0.028228574 0.76000005 6.558671e-39
-0.020935237 0.028154284 0.75800002 4.7212268e-39
-0.019491429 0.028154284 0.75800002 1.1364215e-38
-0.017690476 0.027597144 0.74300003 1.8091164e-38
-0.016275225 0.027597167 0.74299997 1.6415163e-38
-0.014939995 0.027745724 0.74700004 1.4763236e-38
-0.013517136 0.027745724 0.74700004 1.8728699e-38
-0.012094285 0.027745709 0.7470001 2.2683006e-38
-0.010642858 0.027671441 0.745 1.5222088e-38
-0.0092238113 0.027671449 0.74500006 7.8540775e-39
-0.0078047649 0.027671441 0.74500006 1.1727304e-38
-0.0063857087 0.027671434 0.745 1.5611666e-38
-0.0049666697 0.027671441 0.74500006 1.5879287e-38
-0.0035476242 0.027671427 0.74500006 1.6162686e-38
-0.0021285675 0.027671449 0.745 1.3755591e-38
-0.00070952153 0.027671441 0.74500006 1.1456461e-38
0.00071142527 0.027745716 0.7470001 6.4689893e-39
0.0021342863 0.027745731 0.74700004 1.4740146e-39
0.0035571514 0.027745716 0.74700004 9.695458e-39
0.0049866675 0.027782872 0.74800003 1.790756e-38
0.0064114295 0.02778288 0.74800003 1.7533761e-38
0.0078571439 0.027857162 0.75000006 1.7172869e-38
0.0092857182 0.027857162 0.75000006 8.8653372e-39
0.010714287 0.027857162 0.75 6.4964477e-40
0.012142861 0.02785717 0.75 2.0530017e-39
0.013571435 0.027857162 0.75 3.5334988e-39
0.015000008 0.027857177 0.75 4.1813765e-39
0.016472386 0.027931437 0.75200003 4.9189318e-39
0.017904773 0.027931437 0.75200003 5.4699461e-39
0.019337144 0.027931429 0.75200003 6.1113597e-39
0.02076954 0.027931459 0.75199997 5.0100512e-39
0.022231448 0.027968585 0.75299996 3.9055099e-39
0.023665734 0.027968593 0.75300002 5.0997259e-39
0.025100015 0.027968593 0.75300002 6.2871273e-39
0.026604772 0.028042875 0.75500005 6.2953754e-39
0.028042866 0.028042868 0.75500005 6.2914321e-39
0.029520007 0.028080001 0.75600004 4.8217069e-39
0.030959999 0.028080016 0.75600004 3.3512655e-39
0.032400005 0.028080016 0.75599998 3.8133157e-39
0.033839997 0.028080016 0.75600004 4.366844e-39
0.035280004 0.028080016 0.75599998 5.0129239e-39
0.03672 0.028080009 0.75600004 5.6586422e-39
0.038160007 0.028080009 0.75600004 6.488749e-39
0.03970477 0.028154291 0.75800002 7.3224431e-39
0.041148577 0.028154291 0.75800002 7.4114087e-39
0.042592391 0.028154284 0.75800002 7.5028855e-39
0.044152394 0.028228588 0.76000005 6.9515138e-39
0.045659997 0.028265737 0.76100004 6.3983484e-39
0.047109526 0.02826573 0.76100004 9.0662413e-39
0.048686665 0.028340004 0.76300001 1.1830234e-38
0.050140016 0.028340019 0.76299995 1.5501819e-38
0.051593341 0.028340019 0.76300001 1.9265987e-38
0.053046688 0.028340019 0.76300001 1.9081229e-38
0.054500014 0.028340012 0.76300001 1.8989039e-38
0.05595335 0.028340012 0.76299995 1.9265983e-38
0.057406679 0.028340019 0.76300001 1.9633317e-38
0.058860004 0.028340004 0.76300001 1.9909891e-38
0.060313355 0.028340004 0.76299995 2.0187907e-38
-0.034019038 0.029676199 0.76000005 8.0203402e-39
-0.032571424 0.029676214 0.75999999 7.2896093e-39
-0.031123806 0.029676192 0.76000005 8.3023179e-39
-0.029676184 0.029676192 0.75999999 9.3143048e-39
-0.028154287 0.029598095 0.75800002 9.038441e-39
-0.026780944 0.029676192 0.76000005 8.7622296e-39
-0.025266664 0.029598095 0.75800002 8.5760587e-39
-0.023917152 0.029715255 0.76100004 8.3027705e-39
-0.022438081 0.029676199 0.75999999 7.1950693e-39
-0.020990467 0.029676199 0.75999999 6.1124107e-39
-0.019542849 0.029676199 0.76000005 1.460145e-38
-0.017857146 0.029285736 0.75 2.2958479e-38
-0.016384764 0.029207639 0.74800003 2.2958477e-38
-0.014939995 0.029168591 0.74700004 2.2953115e-38
-0.013517138 0.029168583 0.74700004 2.2499335e-38
-0.012094287 0.029168561 0.7470001 2.193145e-38
-0.01064286 0.029090486 0.74500006 1.1079425e-38
-0.009223802 0.029090494 0.745 1.2624999e-40
-0.0078047649 0.029090486 0.74500006 3.9779612e-39
-0.0064028567 0.029168576 0.74700004 7.7654608e-39
-0.0049666627 0.029090486 0.745 8.3250876e-39
-0.0035476163 0.029090494 0.74500006 8.7717094e-39
-0.0021285773 0.029090479 0.74500006 4.4446777e-39
-0.00070952106 0.029090494 0.745 1.3235124e-40
0.00071143225 0.029168569 0.7470001 1.2911844e-40
0.0021342929 0.029168576 0.74700004 1.2159207e-40
0.0035619016 0.029207624 0.74800003 6.8532141e-39
0.0049866633 0.029207639 0.74800003 1.3470749e-38
0.0064114253 0.029207632 0.74800003 1.2280115e-38
0.007857142 0.029285744 0.75 1.0983296e-38
0.0092857154 0.029285736 0.75 6.0980768e-39
0.01071429 0.029285744 0.75 1.1357328e-39
0.01217524 0.029363818 0.75200003 3.1643659e-39
0.013571437 0.029285729 0.75 5.1018825e-39
0.015040006 0.029363826 0.75199997 5.7493987e-39
0.016472392 0.029363818 0.75199997 6.3926073e-39
0.017904779 0.029363826 0.75200003 6.5791481e-39
0.019337149 0.029363826 0.75200003 6.6695487e-39
0.020769535 0.029363811 0.75200003 6.7631779e-39
0.022201914 0.029363826 0.75199997 6.8532183e-39
0.023665728 0.029402874 0.75300002 6.7617387e-39
0.025166677 0.029480971 0.75500005 6.5748377e-39
0.02660477 0.029480964 0.75500005 6.3032759e-39
0.028042866 0.029480979 0.75500005 6.024901e-39
0.029519994 0.029520012 0.75600004 6.3018438e-39
0.030960014 0.029520005 0.75599998 6.4840812e-39
0.032400008 0.029520012 0.75600004 6.853577e-39
0.033840001 0.029520005 0.75600004 7.1301611e-39
0.035280008 0.029520012 0.75599998 7.3177796e-39
0.03672 0.029520012 0.75600004 7.4099738e-39
0.038160004 0.029520005 0.75599998 7.6883501e-39
0.039704766 0.029598087 0.75800002 7.9649328e-39
0.041148581 0.029598102 0.75800002 7.8741735e-39
0.042704787 0.029676206 0.75999999 7.6890676e-39
0.044152394 0.029676199 0.76000005 7.2298901e-39
0.045659997 0.029715247 0.76100004 6.768919e-39
0.047109526 0.02971524 0.76100004 9.0651651e-39
0.048686683 0.029793352 0.76299995 1.127348e-38
0.050140008 0.029793352 0.76300001 1.5130171e-38
0.051593333 0.029793337 0.76300001 1.8988326e-38
0.053046677 0.02979333 0.76300001 1.8803209e-38
0.054500017 0.029793352 0.76299995 1.8620615e-38
0.056100007 0.029871434 0.76500005 1.8897558e-38
0.057557158 0.029871434 0.76500005 1.9173056e-38
0.059014298 0.029871434 0.76500005 1.9449273e-38
0.060471434 0.029871427 0.76500005 1.9634739e-38
-0.03257142 0.031123817 0.75999999 8.0253722e-39
-0.031123808 0.031123824 0.76000005 8.8554846e-39
-0.023917152 0.031164765 0.76100004 7.9375823e-39
-0.022438085 0.031123817 0.75999999 7.2962388e-39
-0.020990463 0.031123839 0.75999999 6.6566273e-39
-0.019542852 0.031123824 0.76000005 1.2102911e-38
-0.017857132 0.030714311 0.75 1.7632054e-38
-0.016428567 0.030714318 0.75 1.7258972e-38
-0.014939989 0.030591428 0.74700004 1.6989205e-38
-0.013517139 0.030591436 0.74700004 1.4029304e-38
-0.012094286 0.030591421 0.7470001 1.1168391e-38
-0.010671426 0.030591436 0.74700004 5.7303438e-39
-0.0092238141 0.030509524 0.74500006 2.7618612e-40
-0.0078047574 0.030509546 0.745 2.5017704e-39
-0.0064028492 0.030591428 0.74700004 4.7079761e-39
-0.004979989 0.030591443 0.74700004 4.80591e-39
-0.0035571377 0.030591428 0.74700004 4.9598048e-39
-0.0021342873 0.030591421 0.7470001 3.6974241e-39
-0.00071142608 0.030591428 0.74700004 2.4074294e-39
0.00071142433 0.030591421 0.74700004 1.8661078e-39
0.0021342998 0.030591436 0.74700004 1.305409e-39
0.003561897 0.030632406 0.74800003 4.812377e-39
0.0049866587 0.030632399 0.74800003 8.3006895e-39
0.0064285705 0.030714311 0.75 7.6657304e-39
0.0078571439 0.030714303 0.75 7.0049495e-39
0.0092857182 0.030714303 0.75 5.4591744e-39
0.010714292 0.030714311 0.75000006 3.9980643e-39
0.012175243 0.030796207 0.75200003 5.1047593e-39
0.01360763 0.0307962 0.75200003 6.2146774e-39
0.01504 0.0307962 0.75200003 6.0281366e-39
0.016472386 0.030796193 0.75200003 5.8426719e-39
0.017904768 0.030796215 0.75199997 5.9370185e-39
0.019337153 0.030796207 0.75199997 6.1221245e-39
0.020769538 0.0307962 0.75200003 6.3987071e-39
0.022231439 0.030837156 0.75300002 6.5848893e-39
0.023665735 0.030837171 0.75300002 6.3979897e-39
0.025166677 0.030919068 0.75500005 6.3043605e-39
0.026604772 0.030919068 0.75500005 6.2128838e-39
0.028042866 0.030919075 0.75500005 6.212525e-39
0.029519998 0.030960001 0.75600004 6.488749e-39
0.030960003 0.030960016 0.75599998 6.8586021e-39
0.032399997 0.030960001 0.75600004 7.0419143e-39
0.033840001 0.030960023 0.75599998 7.2270203e-39
0.035279997 0.030960009 0.75600004 7.3188558e-39
0.036720015 0.030960016 0.75599998 7.3217256e-39
0.038160007 0.030960016 0.75600004 7.5043204e-39
0.039704774 0.031041913 0.75800002 7.5965146e-39
0.041148577 0.031041898 0.75800002 7.5053966e-39
0.042704776 0.03112381 0.76000005 7.5057553e-39
0.044210471 0.031164773 0.76100004 7.3217256e-39
0.04566 0.031164773 0.76100004 7.1369784e-39
0.047109529 0.031164765 0.76100004 9.0662413e-39
0.048686676 0.031246692 0.76299995 1.1088015e-38
0.050140016 0.031246684 0.76300001 1.4947215e-38
0.051593345 0.03124667 0.76300001 1.8804652e-38
0.053046681 0.031246684 0.76299995 1.8712445e-38
0.054642856 0.031328574 0.76500005 1.8619175e-38
0.056100018 0.031328574 0.76500005 1.898795e-38
0.057557158 0.031328574 0.76500005 1.9446762e-38
0.059168562 0.031410486 0.76700002 1.9447831e-38
0.060708582 0.031451441 0.76800001 1.9448914e-38
0.062333338 0.031533353 0.77000004 1.9724785e-38
-0.016428573 0.032142878 0.75 1.1547942e-38
-0.014939999 0.032014288 0.7470001 1.0895049e-38
-0.013517138 0.032014288 0.74700004 5.6439243e-39
-0.012094288 0.032014273 0.7470001 3.167397e-40
-0.010642854 0.031928584 0.745 3.9780481e-40
-0.0092238151 0.031928584 0.74500006 3.9601676e-40
-0.0078047686 0.031928577 0.74500006 1.045328e-39
-0.006385712 0.031928591 0.745 1.5967011e-39
-0.0049799895 0.032014295 0.74700004 1.4137476e-39
-0.0035571391 0.032014281 0.74700004 1.1342951e-39
-0.0021342807 0.032014288 0.7470001 2.8852679e-39
-0.00071142003 0.032014288 0.74700004 4.6301452e-39
0.0007123836 0.032057151 0.74800003 3.62247e-39
0.002137145 0.032057159 0.74800003 2.5168554e-39
0.0035619067 0.032057151 0.74800003 2.8813275e-39
0.0049866685 0.032057144 0.74800003 3.1665183e-39
0.0064285723 0.032142878 0.75000006 3.0768338e-39
0.0078571569 0.032142878 0.75 2.9839249e-39
0.0092857154 0.032142885 0.75 4.9196478e-39
0.01071429 0.032142878 0.75 6.7613828e-39
0.012175238 0.032228574 0.75200003 7.0411969e-39
0.013607634 0.032228597 0.75199997 7.2245091e-39
0.015040005 0.032228589 0.75200003 6.2132425e-39
0.01647239 0.032228589 0.75200003 5.2048457e-39
0.01790476 0.032228589 0.75200003 5.3874405e-39
0.019337147 0.032228582 0.75200003 5.5739813e-39
0.020769542 0.032228597 0.75199997 5.9413233e-39
0.022201912 0.032228582 0.75200003 6.3108177e-39
0.023665728 0.03227146 0.75299996 6.1246356e-39
0.025100024 0.032271467 0.75299996 5.9406059e-39
0.026604772 0.032357164 0.75500005 6.2143187e-39
0.028042864 0.032357156 0.75500005 6.4001421e-39
0.029520012 0.032400019 0.75599998 6.7649729e-39
0.030960007 0.032400012 0.75600004 7.136261e-39
0.032400008 0.032400027 0.75599998 7.2288125e-39
0.033840004 0.032400005 0.75600004 7.3199306e-39
0.03528 0.032400012 0.75600004 7.3174194e-39
0.036817141 0.032485709 0.75800002 7.2288125e-39
0.038260974 0.032485709 0.75800002 7.2263028e-39
0.039704766 0.032485716 0.75800002 7.2291727e-39
0.041257169 0.03257145 0.75999999 7.2284538e-39
0.042760957 0.032614298 0.76100004 7.2298887e-39
0.044210471 0.032614291 0.76100004 7.4139199e-39
0.045780018 0.032700017 0.76299995 7.5050379e-39
0.047233343 0.03270001 0.76299995 9.1577181e-39
0.048686668 0.032700025 0.76300001 1.0812867e-38
0.050140008 0.032700017 0.76300001 1.4674222e-38
0.051593348 0.032700017 0.76299995 1.8529147e-38
0.053046688 0.032700017 0.76300001 1.8531287e-38
0.054500014 0.03270001 0.76300001 1.8529489e-38
0.056100003 0.032785729 0.76500005 1.9171616e-38
0.057557151 0.032785729 0.76500005 1.9722268e-38
0.059014291 0.032785729 0.76500005 1.953752e-38
0.060629528 0.03287144 0.76699996 1.926381e-38
0.062333334 0.033000015 0.77000004 1.9261303e-38
0.063800022 0.03300003 0.76999998 1.917126e-38
-0.014940001 0.03343714 0.7470001 8.1137872e-39
-0.013480948 0.033347636 0.745 5.8268681e-39
-0.012061901 0.033347629 0.74500006 3.5252465e-39
-0.010642863 0.033347629 0.74500006 3.5324254e-39
-0.0092238057 0.033347636 0.745 3.6296447e-39
-0.0078047612 0.033347629 0.74500006 3.8122423e-39
-0.0064028515 0.033437148 0.74700004 3.9948385e-39
-0.0049800007 0.03343714 0.7470001 3.9058728e-39
-0.0035619065 0.033481918 0.74800003 3.9108965e-39
-0.0021342821 0.033437148 0.74700004 4.9196534e-39
-0.00071238301 0.033481918 0.74800003 6.0231143e-39
0.00071237847 0.033481911 0.74800003 5.3795484e-39
0.0021371404 0.033481911 0.74800003 4.8299689e-39
0.0035619021 0.033481926 0.74800003 5.0122036e-39
0.0050000111 0.033571459 0.75 5.2941673e-39
0.0064285705 0.033571452 0.75 5.1076264e-39
0.0078571448 0.033571444 0.75 5.0154336e-39
0.0092857182 0.033571452 0.75 6.2128838e-39
0.010714292 0.033571444 0.75 7.4128437e-39
0.012142865 0.033571452 0.75000006 7.5943623e-39
0.013571424 0.033571444 0.75 7.8669989e-39
0.01504001 0.033660971 0.75199997 9.2520647e-39
0.016472396 0.033660963 0.75199997 1.0631391e-38
0.017904766 0.033660971 0.75200003 1.0724303e-38
0.019337151 0.033660963 0.75200003 1.0905462e-38
0.020797158 0.033705749 0.75300002 1.0908691e-38
0.022231454 0.033705741 0.75299996 1.0999809e-38
0.023665735 0.033705734 0.75299996 1.0632108e-38
0.025166677 0.033795252 0.75500005 1.0261896e-38
0.02660477 0.03379526 0.75500005 1.0262971e-38
0.028042866 0.03379526 0.75500005 1.0265125e-38
0.029520001 0.033840016 0.75600004 1.099945e-38
0.030959995 0.033840008 0.75600004 1.1732698e-38
0.032400012 0.033840016 0.75599998 1.1641937e-38
0.033839993 0.033840001 0.75600004 1.1547591e-38
0.035280012 0.033840016 0.75599998 1.1457547e-38
0.036720008 0.033840001 0.75600004 1.127352e-38
0.038260959 0.033929527 0.75800002 1.1090927e-38
0.039704774 0.033929549 0.75800002 1.0906537e-38
0.041257158 0.03401906 0.76000005 1.0170417e-38
0.042760957 0.034063816 0.76100004 9.4339406e-39
0.044210475 0.034063816 0.76100004 8.6084974e-39
0.045780025 0.03415335 0.76299995 7.7801856e-39
0.047233351 0.034153342 0.76300001 8.9736884e-39
0.048686676 0.03415335 0.76300001 1.0167868e-38
0.050140016 0.03415335 0.76299995 1.2185338e-38
0.051593341 0.034153357 0.76299995 1.4300412e-38
0.053046681 0.034153342 0.76300001 1.5402783e-38
0.054642849 0.034242854 0.76500005 1.6510181e-38
0.056100015 0.034242876 0.76500005 1.7977747e-38
0.057557151 0.034242868 0.76500005 1.944676e-38
0.059014291 0.034242876 0.7650001 1.9356364e-38
0.060629517 0.03433238 0.76700002 1.9358518e-38
-0.014900004 0.034766681 0.74500006 5.3777449e-39
-0.013480958 0.034766667 0.74500006 6.023822e-39
-0.012029521 0.034673356 0.74300003 6.6641621e-39
-0.010614278 0.034673356 0.74299997 6.7603052e-39
-0.0092238169 0.034766681 0.74500006 6.7606653e-39
-0.0078047612 0.034766681 0.745 6.5784307e-39
-0.0064028525 0.03486 0.74700004 6.301848e-39
-0.0049800011 0.03486 0.7470001 6.4873126e-39
-0.0035619112 0.03490667 0.74800003 6.5795083e-39
-0.0021371492 0.034906678 0.74800003 6.9504376e-39
-0.00071238767 0.034906678 0.74800003 7.3159859e-39
0.00071237382 0.03490667 0.74800003 7.2263028e-39
0.0021371357 0.034906678 0.74800003 7.1330324e-39
0.0035618974 0.03490667 0.74800003 7.2266601e-39
0.0049999985 0.035000019 0.75 7.3184956e-39
0.0064285723 0.035000034 0.75 7.2280951e-39
0.0078571467 0.035000026 0.75000006 7.0426318e-39
0.0092857201 0.035000019 0.75000006 7.5954384e-39
0.010714279 0.035000026 0.75000006 8.0556921e-39
0.012175247 0.035093345 0.75200003 8.2397219e-39
0.013607632 0.03509336 0.75200003 8.4273389e-39
0.015040005 0.035093352 0.75200003 1.2296268e-38
0.0164943 0.035140023 0.75299996 1.6059012e-38
0.017928587 0.035140023 0.75300002 1.6156229e-38
0.019362869 0.03514003 0.75300002 1.6151206e-38
0.020852391 0.035233349 0.75500005 1.5971123e-38
0.0222905 0.035233349 0.75500005 1.5690953e-38
0.023728592 0.035233356 0.755 1.5142092e-38
0.025166677 0.035233349 0.75500005 1.4585698e-38
0.026604772 0.035233364 0.75500005 1.4402745e-38
0.028080007 0.035280004 0.75599998 1.4127956e-38
0.029520003 0.035280012 0.75600004 1.5234286e-38
0.030960009 0.035280019 0.75599998 1.6242683e-38
0.032400001 0.035280019 0.75600004 1.6059011e-38
0.033839997 0.035280012 0.75600004 1.5782069e-38
0.035280015 0.035280004 0.75599998 1.5599116e-38
0.036817145 0.035373345 0.75800002 1.5322174e-38
0.038260959 0.035373338 0.75800002 1.4957704e-38
0.03980954 0.035466671 0.76000005 1.4493863e-38
0.041257154 0.035466664 0.75999999 1.3020189e-38
0.042760961 0.035513334 0.76100004 1.1551179e-38
0.044210475 0.035513341 0.76100004 9.8052301e-39
0.045780018 0.035606682 0.76300001 7.9656503e-39
0.047233343 0.035606675 0.76300001 8.7882237e-39
0.048686672 0.035606682 0.76300001 9.5192783e-39
0.050140023 0.035606682 0.76299995 9.7818284e-39
0.051593348 0.035606667 0.76300001 9.9726614e-39
0.053046674 0.035606675 0.76300001 1.2269614e-38
0.05464286 0.035700008 0.76500005 1.4480127e-38
0.055953339 0.03560669 0.76299995 1.6782117e-38
0.057557162 0.035700016 0.76500005 1.908051e-38
0.059014302 0.035700008 0.76500005 1.926561e-38
0.060629535 0.035793349 0.76699996 1.9448923e-38
-0.016362851 0.036282867 0.74700004 6.6734962e-39
-0.014899997 0.036185719 0.74500006 6.5848893e-39
-0.01348095 0.036185727 0.74500006 6.7656904e-39
-0.012094283 0.036282852 0.74700004 7.0411969e-39
-0.010671422 0.036282875 0.74700004 7.0411969e-39
-0.0092485696 0.036282852 0.74700004 7.0429905e-39
-0.0078257034 0.036282882 0.74700004 6.9507963e-39
-0.0064114295 0.036331452 0.74799997 6.95259e-39
-0.0049866675 0.036331452 0.74799997 6.9500788e-39
-0.003571427 0.036428593 0.75 6.9493614e-39
-0.0021371371 0.036331452 0.74799997 7.318497e-39
-0.00071238208 0.036331445 0.74799997 7.7787507e-39
0.00071236916 0.036331438 0.74800003 7.5028855e-39
0.0021371311 0.036331445 0.74800003 7.2280965e-39
0.003571427 0.036428593 0.75000006 7.2277377e-39
0.0050000008 0.036428586 0.75000006 7.3206494e-39
0.0064285849 0.036428601 0.75 7.2284552e-39
0.0078571448 0.036428593 0.75 7.2288139e-39
0.0092857182 0.036428608 0.75 7.5043204e-39
0.010714292 0.036428601 0.75 7.8723799e-39
0.012142865 0.036428586 0.75 7.9652916e-39
0.013607637 0.036525741 0.75199997 8.1525499e-39
0.015040008 0.036525734 0.75200003 1.0636772e-38
0.016494298 0.036574304 0.75300002 1.3212829e-38
0.01792858 0.036574312 0.75300002 1.3396141e-38
0.019362876 0.036574312 0.75299996 1.3673442e-38
0.020797158 0.036574304 0.75299996 1.4131184e-38
0.022290485 0.036671445 0.75500005 1.4589644e-38
0.023728594 0.036671452 0.755 1.4588927e-38
0.025166677 0.036671437 0.75500005 1.4587133e-38
0.02660477 0.036671445 0.75500005 1.4588209e-38
0.028042864 0.036671437 0.75500005 1.4588927e-38
0.029519992 0.03672 0.75600004 1.5325046e-38
0.03096001 0.036720023 0.75599998 1.6066904e-38
0.032400005 0.036720008 0.75600004 1.5786017e-38
0.033840008 0.036720023 0.75599998 1.5513739e-38
0.035373334 0.036817141 0.75800002 1.5416164e-38
0.036817148 0.036817156 0.75800002 1.5325046e-38
0.038361918 0.036914304 0.75999999 1.5415446e-38
0.039809536 0.036914304 0.76000005 1.5509075e-38
0.04125715 0.036914304 0.75999999 1.5598758e-38
0.042760961 0.036962874 0.76100004 1.5689518e-38
0.044210479 0.036962859 0.76100004 1.4032891e-38
0.045659993 0.036962874 0.76100004 1.2468459e-38
0.047233336 0.03706 0.76300001 1.2375907e-38
0.048686676 0.037060022 0.76299995 1.227757e-38
0.050140016 0.037060007 0.76300001 1.1441679e-38
0.051593341 0.037060015 0.76300001 1.060941e-38
0.053046685 0.037060007 0.76300001 1.1438429e-38
0.05464286 0.037157148 0.76500005 1.2267119e-38
0.056100011 0.037157148 0.76500005 1.4203574e-38
0.057557147 0.037157148 0.76500005 1.6236136e-38
0.059014287 0.037157148 0.76500005 1.7887366e-38
0.060629539 0.037254296 0.76699996 1.9632239e-38
0.062090475 0.037254296 0.76700002 1.9357447e-38
-0.017785713 0.037705723 0.7470001 7.778392e-39
-0.016362853 0.037705727 0.74700004 7.7787507e-39
-0.014900008 0.037604772 0.74500006 7.7791094e-39
-0.013480952 0.037604775 0.745 7.5957972e-39
-0.012061905 0.037604779 0.74500006 7.3192145e-39
-0.010671422 0.037705727 0.74700004 7.3195732e-39
-0.0092485715 0.037705723 0.74700004 7.319932e-39
-0.0078361882 0.037756212 0.74800003 7.4121262e-39
-0.0064114267 0.037756205 0.74800003 7.503603e-39
-0.0049866647 0.037756212 0.74800003 7.41105e-39
-0.0035714321 0.03785716 0.75000006 7.227379e-39
-0.0021371418 0.037756197 0.74799997 7.6872739e-39
-0.00071429223 0.03785716 0.75000006 8.1460927e-39
0.00071429188 0.037857171 0.75 7.6865565e-39
0.0021428657 0.037857179 0.75 7.2277377e-39
0.0035714391 0.037857171 0.75 7.2277377e-39
0.004999998 0.037857179 0.75 7.2284552e-39
0.0064285719 0.037857167 0.75 7.3202907e-39
0.0078571457 0.037857156 0.75 7.3206494e-39
0.0092857201 0.037857164 0.75 7.5043204e-39
0.010714293 0.037857156 0.75 7.5965146e-39
0.012175245 0.037958108 0.75200003 7.6887089e-39
0.013607631 0.037958115 0.75200003 7.783773e-39
0.015040013 0.037958115 0.75199997 9.0683937e-39
0.016538095 0.038109537 0.75500005 1.0267277e-38
0.017976204 0.038109545 0.75500005 1.072502e-38
0.019414296 0.038109541 0.75500005 1.1188861e-38
0.020852393 0.038109533 0.75500005 1.2382005e-38
0.022290485 0.038109552 0.75500005 1.3485825e-38
0.023728594 0.038109545 0.75500005 1.4037196e-38
0.025166687 0.038109556 0.755 1.449745e-38
0.026640005 0.038160015 0.75599998 1.4774391e-38
0.028080001 0.038160015 0.75600004 1.5046309e-38
0.029520005 0.038160019 0.75599998 1.541042e-38
0.030959999 0.038160007 0.75600004 1.5780992e-38
0.032399993 0.038160015 0.75600004 1.5504409e-38
0.033840012 0.038160019 0.75600004 1.5137426e-38
0.035466675 0.038361911 0.76000005 1.5226752e-38
0.036914304 0.038361926 0.75999999 1.5227466e-38
0.038412377 0.038412385 0.76100004 1.5869237e-38
0.039861895 0.038412377 0.76100004 1.6424198e-38
0.041311417 0.038412392 0.76100004 1.8083695e-38
0.042760964 0.038412392 0.76100004 1.9733147e-38
0.044210479 0.0384124 0.76100004 1.8352387e-38
0.045780018 0.03851334 0.76300001 1.6976291e-38
0.047233358 0.038513355 0.76299995 1.6060806e-38
0.048686683 0.038513348 0.76299995 1.5036214e-38
0.050140008 0.03851334 0.76300001 1.3097572e-38
0.051593337 0.038513344 0.76300001 1.1161852e-38
0.053185709 0.038614288 0.76500005 1.060797e-38
0.054642856 0.038614303 0.76500005 1.0059109e-38
0.056100011 0.038614292 0.76500005 1.1711791e-38
0.05770763 0.038715262 0.76699996 1.3284846e-38
0.059245717 0.038765728 0.76800001 1.6507712e-38
0.060708579 0.038765721 0.76800001 1.9725526e-38
-0.017785715 0.039128579 0.7470001 7.7791094e-39
-0.016362855 0.039128575 0.74700004 7.7794682e-39
-0.014999998 0.039285742 0.75 7.6879914e-39
-0.013535241 0.039180975 0.74800003 7.5957972e-39
-0.012094284 0.039128572 0.74700004 7.4117675e-39
-0.010685716 0.039180975 0.74800003 7.4117675e-39
-0.0092609543 0.039180972 0.74800003 7.3206494e-39
-0.0078361928 0.039180979 0.74800003 7.5043204e-39
-0.0064114309 0.039180972 0.74800003 7.6876327e-39
-0.0049999938 0.039285745 0.75 7.503603e-39
-0.003571427 0.039285738 0.75 7.3202907e-39
-0.0021371385 0.039180972 0.74800003 7.5957972e-39
-0.00071427965 0.039285738 0.75 7.8709449e-39
0.0007142942 0.039285745 0.75 7.5032442e-39
0.0021428531 0.039285738 0.75 7.2277377e-39
0.0035714265 0.039285731 0.75 7.2280965e-39
0.0050000004 0.039285738 0.75000006 7.2280965e-39
0.0064285742 0.039285731 0.75000006 7.3202907e-39
0.0078571476 0.039285738 0.75000006 7.5043204e-39
0.0092857173 0.039285742 0.75 7.6883501e-39
0.010714291 0.039285734 0.75 7.8720211e-39
0.012175251 0.039390493 0.75199997 7.966009e-39
0.013607636 0.039390497 0.75200003 8.0614318e-39
0.015040006 0.039390489 0.75200003 8.9783519e-39
0.016538106 0.039547641 0.755 9.8999354e-39
0.017976204 0.039547641 0.75500005 1.0359113e-38
0.019414296 0.039547633 0.75500005 1.0913354e-38
0.020852391 0.03954763 0.75500005 1.146365e-38
0.022290485 0.039547641 0.75500005 1.2108292e-38
0.023728577 0.039547633 0.75500005 1.2474917e-38
0.025166688 0.039547652 0.75500005 1.2846205e-38
0.026604772 0.039547633 0.75500005 1.3944643e-38
0.028080003 0.039600011 0.75600004 1.5043436e-38
0.029520009 0.039600022 0.75600004 1.513455e-38
0.030960005 0.039600015 0.75600004 1.5132041e-38
0.032485723 0.039704762 0.75800002 1.5134194e-38
0.033929542 0.039704777 0.75800002 1.5131685e-38
0.035373334 0.039704762 0.75800002 1.5317867e-38
0.0369143 0.039809536 0.75999999 1.5498306e-38
0.038412381 0.039861906 0.76100004 1.6236573e-38
0.039861895 0.03986191 0.76100004 1.6969108e-38
0.04125715 0.039809536 0.76000005 1.8446728e-38
0.04276095 0.039861921 0.76100004 2.0010445e-38
0.044210479 0.039861914 0.76100004 1.7254664e-38
0.045780018 0.03996668 0.76299995 1.4411353e-38
0.047233351 0.039966673 0.76299995 1.3850655e-38
0.048686676 0.039966676 0.76300001 1.319842e-38
0.050140016 0.039966665 0.76300001 1.2362872e-38
0.051593356 0.039966691 0.76299995 1.1526678e-38
0.053185716 0.040071435 0.76500005 1.0884198e-38
0.054642856 0.040071439 0.76500005 1.0241334e-38
0.056100018 0.040071443 0.76500005 1.0793408e-38
0.057707619 0.040176194 0.76700002 1.1347334e-38
0.059245721 0.040228587 0.76800001 1.4756051e-38
0.060708582 0.040228579 0.76800001 1.8258688e-38
-0.017785715 0.040551431 0.7470001 7.7791094e-39
-0.016472373 0.040822878 0.75199997 7.6879914e-39
-0.015000002 0.040714305 0.75000006 7.5961559e-39
-0.013535237 0.040605724 0.74800003 7.5954384e-39
-0.012110475 0.040605731 0.74800003 7.503603e-39
-0.010685714 0.040605724 0.74800003 7.4117675e-39
-0.0092609515 0.040605735 0.74800003 7.3202907e-39
-0.0078361891 0.040605735 0.74800003 7.5961559e-39
-0.0064285719 0.040714297 0.75 7.7794682e-39
-0.004999999 0.040714312 0.75 7.5957972e-39
-0.0035714246 0.04071432 0.75 7.3202907e-39
-0.0021428587 0.040714312 0.75 7.4121262e-39
-0.00071429223 0.040714301 0.75000006 7.5039617e-39
0.00071428163 0.040714305 0.75000006 7.4117675e-39
0.0021428554 0.040714297 0.75000006 7.2280965e-39
0.0035714395 0.040714316 0.75 7.2280965e-39
0.0050000129 0.040714309 0.75 7.1366197e-39
0.0064285719 0.040714309 0.75 7.4117675e-39
0.0078571457 0.040714316 0.75 7.5957972e-39
0.0093104877 0.040822867 0.75200003 7.8723799e-39
0.010742858 0.040822875 0.75200003 8.0564096e-39
0.012175244 0.040822867 0.75200003 8.2411568e-39
0.013625728 0.040877152 0.75300002 8.333351e-39
0.015060009 0.040877171 0.75300002 8.8832864e-39
0.016538104 0.040985744 0.755 9.4368105e-39
0.017976204 0.040985726 0.75500005 9.9903346e-39
0.019414296 0.04098573 0.75500005 1.054063e-38
0.020852391 0.040985726 0.75500005 1.0633901e-38
0.022290485 0.040985733 0.75500005 1.0725736e-38
0.023728579 0.040985744 0.75500005 1.0999449e-38
0.025166688 0.040985737 0.75500005 1.1185631e-38
0.026604781 0.040985733 0.755 1.3114537e-38
0.028080003 0.041040011 0.75599998 1.5043798e-38
0.029519998 0.041040014 0.75600004 1.4768647e-38
0.030960007 0.041040003 0.75600004 1.4491707e-38
0.032400012 0.041040014 0.75600004 1.4767931e-38
0.033929523 0.041148573 0.75800002 1.5043438e-38
0.035373341 0.041148573 0.75800002 1.541401e-38
0.0369143 0.041257158 0.76000005 1.5688796e-38
0.038412381 0.041311443 0.76100004 1.6608943e-38
0.039861895 0.041311432 0.76100004 1.7435105e-38
0.041311409 0.041311443 0.7610001 1.8907702e-38
0.04276095 0.041311443 0.76100004 2.0285953e-38
0.044326685 0.04142002 0.76299995 1.6060087e-38
0.045780014 0.041420024 0.76299995 1.1829556e-38
0.047233339 0.041420016 0.76300001 1.1639429e-38
0.048686668 0.041420005 0.76300001 1.1359569e-38
0.050140023 0.041420013 0.76299995 1.162857e-38
0.051593348 0.04142002 0.76299995 1.1898692e-38
0.053185716 0.041528571 0.76500005 1.1160776e-38
0.054642864 0.041528579 0.76500005 1.0425359e-38
0.056100003 0.041528586 0.76500005 9.9647329e-39
0.057707623 0.041637156 0.76700002 9.4166178e-39
0.059245717 0.041691434 0.76800007 1.309437e-38
0.060708564 0.04169143 0.76800007 1.6688147e-38
-0.017785715 0.041974284 0.74700004 7.6869152e-39
-0.016362855 0.041974306 0.74700004 7.5957972e-39
-0.014999998 0.042142875 0.75 7.5961559e-39
-0.013535243 0.042030491 0.74800003 7.503603e-39
-0.01211048 0.042030491 0.74800003 7.5032442e-39
-0.010685718 0.042030498 0.74800003 7.5032428e-39
-0.0092609562 0.042030491 0.74800003 7.5032442e-39
-0.0078361947 0.042030483 0.74800003 7.5957972e-39
-0.0064285696 0.042142879 0.75000006 7.6876327e-39
-0.0050000041 0.042142872 0.75000006 7.503603e-39
-0.0035714298 0.042142875 0.75000006 7.4114087e-39
-0.0021428536 0.042142887 0.75 7.5039617e-39
-0.00071427965 0.04214289 0.75 7.5957972e-39
0.0007142942 0.042142883 0.75 7.5039617e-39
0.002142868 0.042142875 0.75 7.4117675e-39
0.0035714265 0.042142883 0.75 7.4121262e-39
0.0050000004 0.042142875 0.75 7.4124849e-39
0.0064285742 0.042142879 0.75 7.4121262e-39
0.0078571476 0.042142879 0.75 7.5032442e-39
0.0093104923 0.042255253 0.75199997 7.6879914e-39
0.010757167 0.042311449 0.75299996 7.8720211e-39
0.012191439 0.04231146 0.75300002 7.9642154e-39
0.013625735 0.042311456 0.75300002 8.0549733e-39
0.015060019 0.042311449 0.75299996 8.3311958e-39
0.016538104 0.042423837 0.75500005 8.6978203e-39
0.017976213 0.042423833 0.755 8.7910908e-39
0.019414296 0.042423818 0.75500005 8.8804151e-39
0.020852391 0.042423811 0.75500005 9.0676734e-39
0.022290485 0.042423829 0.75500005 9.1605851e-39
0.023728579 0.042423837 0.75500005 9.2517018e-39
0.025166687 0.042423833 0.75500005 9.4350168e-39
0.026640002 0.042480018 0.75600004 1.0356602e-38
0.028080007 0.042480018 0.75599998 1.1371097e-38
0.029520003 0.042480007 0.75600004 1.1184197e-38
0.030960007 0.042480022 0.75599998 1.1001603e-38
0.032485727 0.042592388 0.75800002 1.1184197e-38
0.034019053 0.042704776 0.75999999 1.1461498e-38
0.035466682 0.04270478 0.75999999 1.1829557e-38
0.0369143 0.042704765 0.76000005 1.2203715e-38
0.038412385 0.042760957 0.76100004 1.2751499e-38
0.039861895 0.042760972 0.76100004 1.3397935e-38
0.041311409 0.042760964 0.76100004 1.4223018e-38
0.042760953 0.042760964 0.76100004 1.5145321e-38
0.044326682 0.042873349 0.76299995 1.2195464e-38
0.045780022 0.042873353 0.76300001 9.3392367e-39
0.047233347 0.042873345 0.76300001 1.0350861e-38
0.048686683 0.042873364 0.76299995 1.135958e-38
0.050140016 0.042873356 0.76299995 1.2089205e-38
0.051728588 0.042985722 0.76500005 1.2819926e-38
0.053185713 0.042985726 0.76500005 1.2081637e-38
0.054642852 0.042985719 0.76500005 1.1345146e-38
0.056100015 0.042985734 0.76500005 1.070049e-38
0.057707626 0.043098118 0.76699996 1.0055503e-38
0.059168577 0.043098107 0.76700002 1.2173472e-38
-0.017785711 0.043397147 0.74700004 7.5039617e-39
-0.016362848 0.043397158 0.74700004 7.5043204e-39
-0.014999995 0.043571439 0.75 7.5039617e-39
-0.013571428 0.043571446 0.75 7.503603e-39
-0.012110477 0.043455258 0.74800003 7.41105e-39
-0.010685716 0.043455247 0.74800003 7.502168e-39
-0.0092609534 0.043455254 0.74800003 7.5950797e-39
-0.007836191 0.043455247 0.74800003 7.5957972e-39
-0.0064285644 0.043571457 0.75 7.5957972e-39
-0.004999999 0.043571457 0.75 7.503603e-39
-0.0035714246 0.04357145 0.75 7.4117675e-39
-0.0021428512 0.043571442 0.75 7.5039617e-39
-0.00071427779 0.04357145 0.75 7.5957972e-39
0.00071428163 0.04357145 0.75 7.5957972e-39
0.0021428554 0.043571457 0.75 7.5039617e-39
0.0035714286 0.04357145 0.75000006 7.5961559e-39
0.0050133439 0.04368763 0.75200003 7.5965146e-39
0.0064457147 0.043687645 0.75200003 7.5046791e-39
0.0078781014 0.043687634 0.75200003 7.4124849e-39
0.009322878 0.043745741 0.75299996 7.5046791e-39
0.01075716 0.043745738 0.75299996 7.5961559e-39
0.012191446 0.043745738 0.75300002 7.6879914e-39
0.013661917 0.043861926 0.75500005 7.7798255e-39
0.015100011 0.043861926 0.75500005 7.8716596e-39
0.016538106 0.043861933 0.75500005 7.8713009e-39
0.017976198 0.043861929 0.755 7.595437e-39
0.019414296 0.043861911 0.75500005 7.2280951e-39
0.020852391 0.043861922 0.75500005 7.4121248e-39
0.022320006 0.043920022 0.75599998 7.5968706e-39
0.023728577 0.043861926 0.75500005 7.595793e-39
0.025200011 0.043920014 0.75600004 7.5972293e-39
0.02664 0.043920018 0.75599998 7.5975894e-39
0.028080009 0.043920018 0.75600004 7.5986656e-39
0.029520005 0.04392001 0.75600004 7.5039589e-39
0.031041916 0.044036187 0.75800002 7.4142758e-39
0.032485731 0.044036198 0.75800002 7.6890662e-39
0.034019068 0.044152398 0.75999999 7.873812e-39
0.035466671 0.044152386 0.76000005 8.2382827e-39
0.036962852 0.044210486 0.76100004 8.6117232e-39
0.038412385 0.04421049 0.76100004 8.9794253e-39
0.039861895 0.04421049 0.76100004 9.2570842e-39
0.041311413 0.044210479 0.76100004 9.6251436e-39
0.042760953 0.044210482 0.76100004 9.8984977e-39
0.044326674 0.044326674 0.76299995 8.3294021e-39
0.045780014 0.044326685 0.76300001 6.7681987e-39
0.047233343 0.044326678 0.76300001 9.0644463e-39
0.048686679 0.044326678 0.76299995 1.1358501e-38
0.05014002 0.044326685 0.76300001 1.2549096e-38
0.051728588 0.044442862 0.76500005 1.3647519e-38
0.053185713 0.044442851 0.76500005 1.2908157e-38
0.05464286 0.04444287 0.76500005 1.2173106e-38
0.056100015 0.044442855 0.76500005 1.1436619e-38
0.057707626 0.044559069 0.76699996 1.0699425e-38
0.059168581 0.044559054 0.76699996 1.1340124e-38
-0.017809527 0.044880006 0.74800003 6.8611132e-39
-0.016428573 0.045000009 0.75000006 6.95259e-39
-0.014999997 0.045000032 0.75 7.0444255e-39
-0.013571423 0.045000024 0.75 7.3195732e-39
-0.012142849 0.045000017 0.75 7.6865565e-39
-0.010714283 0.045000024 0.75 7.778392e-39
-0.0092857089 0.045000032 0.75 7.8713037e-39
-0.0078571439 0.04500002 0.75 7.8713037e-39
-0.0064285696 0.045000013 0.75 7.8713037e-39
-0.0049999966 0.045000024 0.75 7.4117675e-39
-0.0035714298 0.045000017 0.75 6.95259e-39
-0.0021428564 0.045000024 0.75000006 6.768919e-39
-0.0007142899 0.045000017 0.75000006 6.677801e-39
0.00071428396 0.045000013 0.75000006 6.4930538e-39
0.0021485817 0.045120012 0.75200003 6.3097415e-39
0.0035809525 0.045120016 0.75200003 6.2175473e-39
0.0050133388 0.045120008 0.75200003 6.2189822e-39
0.0064457194 0.045120023 0.75199997 5.9427582e-39
0.0078781061 0.045120019 0.75200003 5.7598047e-39
0.0093228724 0.045180038 0.75299996 5.8505626e-39
0.010785714 0.045300011 0.75500005 5.9427582e-39
0.01219144 0.045180019 0.75300002 5.9420408e-39
0.013661917 0.045300018 0.75500005 5.8512801e-39
0.01510001 0.045300011 0.75500005 5.6665315e-39
