# .PCD v0.7 - Point Cloud Data file format
VERSION 0.7
FIELDS x y z rgb
SIZE 4 4 4 4
TYPE F F F F
COUNT 1 1 1 1
WIDTH 970
HEIGHT 1
VIEWPOINT 0 0 0 1 0 0 0
POINTS 970
DATA ascii
0.040171448 0.011980958 0.74000007 7.0081094e-39
0.042030472 0.012110494 0.74800003 1.8696362e-39
0.043571416 0.012142859 0.75000006 4.6361918e-39
0.045119997 0.01217524 0.75200003 7.3887007e-39
0.046552382 0.012175255 0.75200003 6.2780203e-39
0.047984775 0.01217524 0.75200009 5.1680224e-39
0.051060025 0.012580015 0.77700001 6.0848639e-39
0.052539997 0.012580022 0.77700001 7.0032357e-39
0.054019999 0.012580022 0.77700001 5.9930621e-39
0.055500031 0.012580015 0.77700001 4.8888557e-39
0.056980003 0.012580007 0.77700001 4.7047993e-39
0.058460008 0.012580015 0.77700001 4.5157432e-39
0.05994001 0.012580015 0.77700001 2.2994901e-39
-0.036331434 0.013535239 0.74800003 1.4658406e-38
-0.034906682 0.013535239 0.74800003 1.2090636e-38
-0.033437155 0.013517156 0.74700004 1.4487721e-38
-0.03192858 0.013480954 0.74500012 1.6983803e-38
-0.03050952 0.013480954 0.74500006 1.8081187e-38
-0.029090485 0.013480961 0.74500006 1.918751e-38
-0.027597168 0.013444789 0.74300003 2.0195181e-38
-0.026181921 0.013444774 0.74300003 2.1112459e-38
-0.024766678 0.013444781 0.74300003 2.0837308e-38
-0.023351461 0.013444774 0.74300003 2.0469249e-38
-0.021906687 0.013426691 0.74199998 2.0653278e-38
-0.020493336 0.013426684 0.74200004 2.0745836e-38
-0.019028565 0.013390489 0.74000001 2.0839109e-38
-0.017595218 0.013372384 0.73900008 2.0932368e-38
-0.016187612 0.013372391 0.73900002 1.8810095e-38
-0.014740038 0.013336211 0.73700005 1.6692138e-38
-0.013336194 0.013336211 0.73700005 1.7798826e-38
-0.011932406 0.013336204 0.73700005 1.8902994e-38
-0.010528591 0.013336211 0.73699999 1.8070363e-38
-0.0091247745 0.013336204 0.73700005 1.7241701e-38
-0.0077104964 0.013318107 0.73600006 1.7060192e-38
-0.0062914421 0.013281912 0.73400003 1.6967275e-38
-0.0048933146 0.013281912 0.73400009 1.7244568e-38
-0.0034952408 0.013281912 0.73400003 1.7611549e-38
-0.0020914341 0.013245724 0.73200005 1.7055869e-38
-0.0006961677 0.013227627 0.73100007 1.6507746e-38
0.00069618935 0.013227627 0.73100007 1.8259097e-38
0.0020885745 0.013227634 0.73100001 2.0008276e-38
0.0034809613 0.013227634 0.73100007 2.0008992e-38
0.0048733442 0.013227634 0.73100001 2.0010074e-38
0.0062485817 0.013191424 0.72900009 1.9089212e-38
0.0076371483 0.013191439 0.72900003 1.8080769e-38
0.0090133473 0.013173349 0.72800004 1.5682595e-38
0.010399988 0.013173349 0.72800004 1.3382344e-38
0.011754286 0.013137169 0.72600001 1.1256077e-38
0.013119059 0.013119049 0.72500008 9.1431404e-39
0.014500014 0.013119057 0.72500002 1.0525692e-38
0.01588097 0.013119049 0.72500002 1.1817244e-38
0.01726193 0.013119034 0.72500008 9.611153e-39
0.018591443 0.013082869 0.72300005 7.4038669e-39
0.019968584 0.013082869 0.72300005 8.2307381e-39
0.021345716 0.013082869 0.72300005 9.1490791e-39
0.022691419 0.013064772 0.72200006 1.0892146e-38
0.024066664 0.013064764 0.72200006 1.2734977e-38
0.025371451 0.013028577 0.72000009 1.4763988e-38
0.0267429 0.013028577 0.72000009 1.6880855e-38
0.028192388 0.013064779 0.72200006 1.7338225e-38
0.029608574 0.013082869 0.72300005 1.7810316e-38
0.031071441 0.013119057 0.72500002 1.6606767e-38
0.03249713 0.013137162 0.72600001 1.5505798e-38
0.033973325 0.013173342 0.72800004 1.1711465e-38
0.035505738 0.013227627 0.73100007 7.9343733e-39
0.036898121 0.013227627 0.73100007 1.0888535e-38
0.038552366 0.013318092 0.73600006 1.3734709e-38
0.040551424 0.013517149 0.74700004 9.224717e-39
0.042030465 0.013535231 0.74800003 4.6221844e-39
0.043571416 0.013571456 0.75000006 6.1937939e-39
0.045120008 0.013607621 0.75200009 7.759623e-39
0.046552371 0.013607621 0.75200009 5.5419e-39
0.047857158 0.013571449 0.75000006 3.3244937e-39
0.051060002 0.014060028 0.77700001 3.7825137e-39
0.052540004 0.014060028 0.77700001 4.2499729e-39
0.054020006 0.014060006 0.77700001 3.4163082e-39
0.055500038 0.014060006 0.77700001 2.5922718e-39
0.056980014 0.01406002 0.77700001 2.6783382e-39
0.058460016 0.01406002 0.77700001 2.8648594e-39
-0.036428601 0.015000015 0.75000006 1.4008701e-38
-0.034906693 0.014960006 0.74800003 1.199265e-38
-0.033481941 0.014960013 0.74800003 1.2266029e-38
-0.03192858 0.014900014 0.74500006 1.255482e-38
-0.030509511 0.014900006 0.74500012 1.4853947e-38
-0.029090475 0.014900006 0.74500012 1.7156326e-38
-0.027597141 0.014860012 0.74300003 1.9089211e-38
-0.026181923 0.014860012 0.74300003 2.0929507e-38
-0.02476668 0.014860019 0.74300003 2.0746194e-38
-0.023351463 0.014860019 0.74300003 2.0470328e-38
-0.021906691 0.014840022 0.74200004 2.0561804e-38
-0.02049337 0.014840029 0.74200004 2.0562166e-38
-0.01902855 0.014800005 0.74000007 2.0655439e-38
-0.017595265 0.01478 0.73900002 2.0744392e-38
-0.016187601 0.01478 0.73900002 1.8622119e-38
-0.01474001 0.014740005 0.73700005 1.6510617e-38
-0.013336221 0.014740005 0.73700005 1.8169391e-38
-0.011932379 0.014740005 0.73700005 1.9728437e-38
-0.01052859 0.014740013 0.73700005 1.8436277e-38
-0.0091247763 0.014740027 0.73699999 1.7058752e-38
-0.0077209589 0.014740013 0.73700005 1.6875445e-38
-0.0063085803 0.01472 0.73600006 1.6601009e-38
-0.0049066884 0.01472 0.73600006 1.7153093e-38
-0.003504798 0.014720015 0.736 1.7702309e-38
-0.0020914564 0.014640018 0.73199999 1.7051207e-38
-0.00069714745 0.014640011 0.73200005 1.6415196e-38
0.00069619121 0.014620014 0.73100007 1.8072202e-38
0.0020886061 0.014620014 0.73100007 1.9731695e-38
0.0034809632 0.014620014 0.73100007 1.9917158e-38
0.0048733219 0.014620021 0.73100001 2.0008269e-38
0.0062657348 0.014620014 0.73100007 1.8720414e-38
0.0076371427 0.014580004 0.72900009 1.7336353e-38
0.0090257078 0.014580004 0.72900003 1.3924736e-38
0.010400008 0.014560014 0.72800004 1.0432062e-38
0.011786647 0.014560014 0.72800004 1.0055335e-38
0.013137119 0.014520034 0.72599995 9.6015682e-39
0.014500018 0.0145 0.72500008 1.0801918e-38
0.015880948 0.014500014 0.72500002 1.1906568e-38
0.01726193 0.014500007 0.72500002 9.5186015e-39
0.01864286 0.014500007 0.72500002 7.03832e-39
0.019968577 0.014460005 0.72300005 8.4165657e-39
0.02134571 0.014460027 0.72300005 9.7915716e-39
0.022691438 0.014440008 0.72200006 1.1993456e-38
0.024066683 0.014439993 0.72200006 1.4113944e-38
0.02537143 0.014399998 0.72000003 1.586996e-38
0.026817137 0.014440008 0.72200006 1.7612301e-38
0.028192377 0.014440015 0.722 1.6595988e-38
0.029608566 0.014460005 0.72300005 1.5492892e-38
0.031071445 0.0145 0.72500008 1.3101946e-38
0.032586671 0.014560021 0.72800004 1.0596161e-38
0.034019999 0.014580004 0.72900003 5.3270599e-39
0.035505738 0.014620014 0.73100007 1.1899266e-40
0.036948573 0.014640011 0.73200005 7.7754282e-39
0.038552389 0.014720008 0.73600006 1.5395615e-38
0.040008556 0.014740013 0.73700005 1.1442377e-38
0.042030457 0.014960006 0.74800003 7.3865665e-39
0.04357142 0.015000008 0.75000006 7.7567952e-39
0.045120019 0.01504001 0.75200009 8.1215686e-39
0.046428565 0.015000008 0.75000006 4.8046727e-39
0.047857132 0.015000015 0.75000006 1.4820217e-39
0.05106001 0.015540011 0.77700001 1.4701134e-39
0.052540019 0.015540011 0.77700001 1.3854778e-39
0.054020021 0.015540011 0.77700007 8.2982653e-40
0.055500019 0.015540026 0.77700001 2.8201412e-40
0.056980025 0.015540026 0.77700001 7.3542385e-40
0.058460031 0.015540004 0.77700007 1.1070594e-39
-0.038008597 0.016494282 0.75300002 1.5300488e-38
-0.036525693 0.016472377 0.75200009 1.5211131e-38
-0.035 0.016428582 0.75000006 1.5207201e-38
-0.033481918 0.016384766 0.74800003 1.5303714e-38
-0.032014322 0.016362883 0.74699998 1.5391244e-38
-0.030591438 0.016362876 0.74700004 1.6227091e-38
-0.029090498 0.016319059 0.74500006 1.7148034e-38
-0.027671434 0.016319074 0.74500006 1.9088135e-38
-0.026252367 0.016319066 0.74500012 2.1024573e-38
-0.02476671 0.016275257 0.74300003 2.083911e-38
-0.023351436 0.016275249 0.74300003 2.0562885e-38
-0.021936193 0.016275257 0.74300003 2.0562165e-38
-0.020520974 0.016275257 0.74300003 2.056145e-38
-0.019080026 0.016253352 0.74200004 2.0562886e-38
-0.017619062 0.016209528 0.74000001 2.0655068e-38
-0.016187619 0.016187623 0.73900008 1.862463e-38
-0.014780013 0.016187623 0.73900002 1.6598862e-38
-0.013336196 0.016143821 0.73700005 1.7891009e-38
-0.011964774 0.016187631 0.73900002 1.9272131e-38
-0.010528588 0.016143814 0.73700005 1.8255842e-38
-0.0091247754 0.016143821 0.73700005 1.733462e-38
-0.0077209868 0.016143821 0.73700005 1.7059833e-38
-0.0063171447 0.016143806 0.73700005 1.6876876e-38
-0.0049066921 0.016121924 0.73600006 1.7337841e-38
-0.0035047701 0.016121916 0.73600006 1.7707692e-38
-0.0020971375 0.0160781 0.73400003 1.7058023e-38
-0.00069714 0.01603429 0.73200005 1.6508828e-38
0.0006971393 0.016034298 0.73200005 1.816727e-38
0.0020886061 0.016012385 0.73100007 1.9918956e-38
0.0034809632 0.016012385 0.73100007 2.0192665e-38
0.0048733219 0.016012393 0.73100001 2.0466361e-38
0.0062657348 0.016012393 0.73100007 1.8718598e-38
0.0076371594 0.015968569 0.72900009 1.6966454e-38
0.0090257004 0.015968576 0.72900003 1.3556607e-38
0.010414295 0.015968561 0.72900009 1.005963e-38
0.011786664 0.015946694 0.72800004 1.0058141e-38
0.013137119 0.015902884 0.72599995 9.9670857e-39
0.014519975 0.015902869 0.72600001 1.0616812e-38
0.015880974 0.015880965 0.72500002 1.1263362e-38
0.017261904 0.015880965 0.72500002 9.6100796e-39
0.01864286 0.01588095 0.72500008 7.956319e-39
0.019968569 0.015837155 0.72300005 8.783193e-39
0.021345736 0.015837148 0.72300005 9.6990201e-39
0.022691429 0.015815251 0.72200012 9.9716399e-39
0.024066668 0.015815251 0.72200006 1.0347254e-38
0.025441913 0.015815251 0.72200006 1.2279766e-38
0.026817156 0.015815243 0.72200012 1.4305855e-38
0.028231453 0.015837155 0.72300005 1.1070413e-38
0.029608559 0.015837163 0.72300005 7.8508027e-39
0.031071441 0.015880957 0.72500002 6.5471817e-39
0.032497138 0.015902877 0.72600001 5.3274327e-39
0.034019992 0.015968584 0.72900003 2.7588498e-39
0.035554271 0.016034305 0.73200005 1.020958e-40
0.03694858 0.01603429 0.73200005 7.7614096e-39
0.03860474 0.016143821 0.73700005 1.5405276e-38
0.040279988 0.016253352 0.74200004 1.1992649e-38
0.04203045 0.016384773 0.74800003 8.4796143e-39
0.043455228 0.016384766 0.74800003 7.7517771e-39
0.045179989 0.016494296 0.75300002 7.0227572e-39
0.04655236 0.016472392 0.75200003 4.6177395e-39
0.047984783 0.016472384 0.75200009 2.2984756e-39
0.049417168 0.016472384 0.75200009 2.4835213e-39
0.052675225 0.017063834 0.77900004 2.7565362e-39
0.054159053 0.017063834 0.77900004 2.7622956e-39
0.055500031 0.017020009 0.77700001 2.8483647e-39
0.056980032 0.017020009 0.77700001 3.1295829e-39
-0.039442893 0.017928578 0.75300002 1.3632046e-38
-0.0379581 0.017904781 0.75200003 1.4480099e-38
-0.036525711 0.017904781 0.75200003 1.6419416e-38
-0.034999996 0.017857157 0.75000012 1.834439e-38
-0.033571426 0.017857149 0.75000012 1.8350864e-38
-0.032014303 0.017785735 0.74700004 1.8253996e-38
-0.030591451 0.017785735 0.74699998 1.7699386e-38
-0.02909046 0.017738119 0.74500012 1.7064477e-38
-0.027671425 0.017738096 0.74500006 1.9090288e-38
-0.026252389 0.017738119 0.74500006 2.1113898e-38
-0.024833351 0.017738096 0.74500006 2.0930944e-38
-0.023351438 0.017690495 0.74300003 2.065436e-38
-0.021936219 0.017690502 0.74300003 2.0562165e-38
-0.020520976 0.017690495 0.74300003 2.0470332e-38
-0.01908003 0.017666683 0.74200004 2.0563246e-38
-0.017666683 0.01766669 0.74200004 2.0559288e-38
-0.01620952 0.017619066 0.74000001 1.8622122e-38
-0.014780005 0.017595239 0.73900008 1.6692494e-38
-0.013372398 0.017595239 0.73900002 1.7706625e-38
-0.011964765 0.017595246 0.73900002 1.8717533e-38
-0.010528591 0.017547637 0.73700005 1.816329e-38
-0.0091495225 0.017595239 0.73900002 1.7520086e-38
-0.0077209598 0.01754763 0.73700005 1.73357e-38
-0.0063171727 0.01754763 0.73700005 1.7152022e-38
-0.0049133268 0.01754763 0.73700005 1.7429675e-38
-0.0035095403 0.01754763 0.73700005 1.7704099e-38
-0.0021028819 0.017523818 0.73600006 1.7147699e-38
-0.00069716421 0.017428592 0.73200005 1.6508463e-38
0.00069714489 0.017428577 0.73200005 1.826018e-38
0.002091428 0.017428584 0.73200005 2.0007922e-38
0.003480965 0.01740478 0.73100007 2.0468173e-38
0.0048733237 0.01740478 0.73100001 2.0927695e-38
0.0062657385 0.017404772 0.73100007 1.8813313e-38
0.0076371538 0.017357148 0.72900009 1.6596952e-38
0.0090257209 0.017357148 0.72900003 1.3184219e-38
0.010414315 0.017357148 0.72900009 9.6930085e-39
0.011802856 0.017357141 0.72900003 1.0058889e-38
0.013137126 0.017285742 0.72599995 1.0337677e-38
0.014519982 0.017285734 0.72600001 1.0526784e-38
0.015880948 0.017261907 0.72500002 1.062088e-38
0.017261934 0.0172619 0.72500002 9.7941094e-39
0.018642863 0.017261907 0.72500002 8.8753943e-39
0.020023819 0.0172619 0.72500002 9.2441684e-39
0.021404747 0.017261915 0.72500002 9.5135568e-39
0.02272287 0.017214298 0.72300011 8.0301787e-39
0.024066661 0.017190486 0.72200006 6.5701378e-39
0.025441932 0.017190479 0.72200006 8.7795707e-39
0.026854279 0.017214298 0.72300005 1.0886377e-38
0.028231446 0.017214291 0.72300005 5.5286802e-39
0.029608555 0.017214291 0.72300005 1.1612701e-40
0.031071419 0.017261915 0.72500002 9.2452067e-41
0.032586668 0.017333336 0.72800004 9.4926761e-41
0.034020014 0.017357148 0.72900003 9.5250461e-41
0.035651438 0.017476186 0.73400003 1.074852e-40
0.037150461 0.017523818 0.736 7.762874e-39
0.038604762 0.017547622 0.73700005 1.5398853e-38
0.040117141 0.017595239 0.73900002 1.2551596e-38
0.041749537 0.017690487 0.74300003 9.5924163e-39
0.043455221 0.017809533 0.74800003 7.7481786e-39
0.045179978 0.017928578 0.75300002 5.8220798e-39
0.046614259 0.017928578 0.75300002 4.5284263e-39
0.048048548 0.017928578 0.75300002 3.1371934e-39
0.050928589 0.018452391 0.77500004 3.5923561e-39
0.052675221 0.018547647 0.77900004 4.0565657e-39
0.054159041 0.018547639 0.77900004 4.7973579e-39
0.055500016 0.018500015 0.77700007 5.4358974e-39
0.056979988 0.018500023 0.77700001 5.627099e-39
-0.039390478 0.01933714 0.75200009 1.4016597e-38
-0.037958089 0.019337147 0.75200009 1.4680663e-38
-0.036428567 0.019285731 0.75000006 1.5041957e-38
-0.035000023 0.019285731 0.75000012 1.5410034e-38
-0.033571426 0.019285738 0.75000006 1.7341108e-38
-0.032014288 0.019208588 0.74700004 1.9277884e-38
-0.030591458 0.019208595 0.74700004 1.8906935e-38
-0.029090483 0.019157156 0.74500006 1.8636472e-38
-0.027671445 0.019157149 0.74500006 1.9551978e-38
-0.02625238 0.019157149 0.74500012 2.0379214e-38
-0.024833344 0.019157149 0.74500012 1.9917165e-38
-0.02335144 0.019105732 0.74300003 1.945978e-38
-0.021936221 0.01910574 0.74300003 1.973385e-38
-0.020520948 0.019105732 0.74300003 2.0011154e-38
-0.019105731 0.019105732 0.74300003 2.0010081e-38
-0.017666686 0.019079998 0.74200004 1.9917158e-38
-0.016209505 0.019028574 0.74000007 1.7978198e-38
-0.014800003 0.019028567 0.74000001 1.6046779e-38
-0.013372389 0.019002862 0.73900002 1.7429329e-38
-0.011964782 0.01900287 0.73900002 1.8901207e-38
-0.010528591 0.018951446 0.73700005 1.8716816e-38
-0.0091495141 0.019002862 0.73900002 1.8624266e-38
-0.0077209589 0.018951438 0.73700005 1.807146e-38
-0.0063171717 0.018951438 0.73700005 1.760833e-38
-0.0049133566 0.018951446 0.73699999 1.7796657e-38
-0.0035095385 0.018951446 0.73700005 1.797996e-38
-0.0021028614 0.018925719 0.73600006 1.7516826e-38
-0.00069715676 0.018822856 0.73200005 1.7055167e-38
0.0006971244 0.018822879 0.73200005 1.807292e-38
0.0020914355 0.018822871 0.73200005 1.9179967e-38
0.003480965 0.018797152 0.73100007 2.0194101e-38
0.0048733535 0.018797144 0.73100007 2.120787e-38
0.0062657385 0.018797144 0.73100007 1.8904081e-38
0.0076580974 0.018797167 0.73100001 1.6596945e-38
0.0090257134 0.01874572 0.72900009 1.3188141e-38
0.010414278 0.01874572 0.72900003 9.7855657e-39
0.011802875 0.018745728 0.72900003 9.9688779e-39
0.013173316 0.018720008 0.72800004 1.0246223e-38
0.014519989 0.018668599 0.72600001 1.0343125e-38
0.01588098 0.01864285 0.72500008 1.0439368e-38
0.017261907 0.018642865 0.72500002 9.5193203e-39
0.018642867 0.018642858 0.72500008 8.6910072e-39
0.020023823 0.018642873 0.72500002 9.2445313e-39
0.021404779 0.018642865 0.72500002 9.7951631e-39
0.022722859 0.018591426 0.72300005 8.3078362e-39
0.024099994 0.018591449 0.72300005 6.9288478e-39
0.025477158 0.018591449 0.72300005 1.0891742e-38
0.026854299 0.018591441 0.72300011 1.4931763e-38
0.028231435 0.018591441 0.72300005 1.1615615e-38
0.029690491 0.018642873 0.72500002 8.2980481e-39
0.031071451 0.018642858 0.72500008 7.0012206e-39
0.032720972 0.018797152 0.73100007 5.7933574e-39
0.034253322 0.018874295 0.73400003 3.2172874e-39
0.035748564 0.018925726 0.73600006 5.5160573e-40
0.037150454 0.018925726 0.736 7.2908102e-39
0.038709544 0.019002862 0.73900002 1.4120007e-38
0.040171437 0.019028574 0.74000007 1.227326e-38
0.0416933 0.01908002 0.74200004 1.0507917e-38
0.04357142 0.019285731 0.75000006 7.3758017e-39
0.045179989 0.019362867 0.75300002 4.264105e-39
0.046614248 0.019362874 0.75300002 5.9109922e-39
0.048048533 0.019362867 0.75300002 7.6392865e-39
0.050928559 0.019928589 0.77500004 7.3669301e-39
0.052404772 0.019928575 0.77500004 7.0996745e-39
0.054020021 0.019980021 0.77700001 5.3447555e-39
0.05535714 0.019928589 0.77499998 3.6034894e-39
0.056979999 0.019980006 0.77700001 4.2467163e-39
-0.039390493 0.020769529 0.75200003 1.429063e-38
-0.037958078 0.020769522 0.75200009 1.4758105e-38
-0.036525689 0.020769522 0.75200009 1.3657205e-38
-0.034999993 0.02071429 0.75000012 1.2461587e-38
-0.033571422 0.020714298 0.75000012 1.6325532e-38
-0.032057159 0.020659052 0.74800003 2.0192296e-38
-0.030591443 0.020631433 0.74700004 2.0196947e-38
-0.029168589 0.02063144 0.74700004 2.0193369e-38
-0.027745733 0.020631447 0.74700004 1.991859e-38
-0.026322879 0.020631447 0.74700004 1.9640571e-38
-0.024833338 0.020576209 0.74500006 1.8898354e-38
-0.023414273 0.020576194 0.74500012 1.8164386e-38
-0.021995235 0.020576209 0.74500012 1.8902657e-38
-0.020520976 0.020520978 0.74300003 1.954874e-38
-0.019105732 0.02052097 0.74300003 1.945691e-38
-0.017666666 0.020493336 0.74200004 1.9268196e-38
-0.01620952 0.020438105 0.74000001 1.7326714e-38
-0.014800018 0.020438105 0.74000001 1.5313158e-38
-0.01337238 0.020410478 0.73900002 1.7246736e-38
-0.011964775 0.020410478 0.73900002 1.9086321e-38
-0.010557167 0.020410471 0.73900002 1.9362551e-38
-0.0091495309 0.020410471 0.73900008 1.963698e-38
-0.0077209868 0.020355262 0.73700005 1.8900861e-38
-0.0063171438 0.02035524 0.73700005 1.8073618e-38
-0.0049133548 0.020355254 0.73700005 1.8167961e-38
-0.0035095422 0.020355262 0.73699999 1.8164366e-38
-0.0021028651 0.020327628 0.73600006 1.7883832e-38
-0.0006971549 0.020217173 0.73199999 1.7518656e-38
0.00069619494 0.020189539 0.73100007 1.7979283e-38
0.0020914113 0.020217165 0.73200005 1.8352367e-38
0.003480965 0.020189546 0.73100007 1.9920388e-38
0.0048733535 0.020189531 0.73100007 2.1480501e-38
0.0062657385 0.020189539 0.73100001 1.8998059e-38
0.0076580974 0.020189539 0.73100001 1.6505452e-38
0.0090257339 0.020134278 0.72900009 1.3185968e-38
0.010414273 0.0201343 0.72900003 9.7866348e-39
0.011802871 0.020134293 0.72900009 9.9685262e-39
0.013137117 0.020051442 0.72599995 1.0155112e-38
0.014519997 0.020051457 0.72600001 1.0251657e-38
0.015880957 0.020023823 0.72500002 1.0254265e-38
0.017261939 0.020023808 0.72500008 9.3367256e-39
0.018642867 0.020023815 0.72500002 8.4190881e-39
0.020023827 0.020023808 0.72500008 9.2477599e-39
0.021404782 0.020023823 0.72500002 9.971298e-39
0.022722851 0.019968584 0.72300005 8.5693479e-39
0.024100019 0.019968577 0.72300005 7.210108e-39
0.025477154 0.019968584 0.72300005 1.3110536e-38
0.026854292 0.019968569 0.72300005 1.8896873e-38
0.028231427 0.019968584 0.72300005 1.7703353e-38
0.029690495 0.020023808 0.72500008 1.6403645e-38
0.031071424 0.020023815 0.72500002 1.4005139e-38
0.032720968 0.020189524 0.73100007 1.1510474e-38
0.034253336 0.020272397 0.73400003 6.245321e-39
0.035748564 0.020327628 0.73600006 1.028689e-39
0.037200946 0.020355247 0.73700005 6.9115964e-39
0.038709525 0.020410471 0.73900008 1.2730251e-38
0.040442839 0.020576201 0.74500006 1.2096387e-38
0.041974273 0.020631447 0.74700004 1.1425902e-38
0.04345521 0.020659044 0.74800003 6.9822709e-39
0.045180008 0.020797133 0.75300002 2.6053235e-39
0.046614263 0.020797148 0.75300002 7.3954241e-39
0.048941933 0.021183811 0.76700002 1.2069294e-38
0.050402891 0.021183819 0.76700002 1.104506e-38
0.052404743 0.021404773 0.77500004 1.0037359e-38
0.053880956 0.021404773 0.77500004 5.8778361e-39
0.055357166 0.021404773 0.77500004 1.6727832e-39
0.056980006 0.021460019 0.77700001 2.8605546e-39
-0.039390486 0.022201911 0.75200009 1.3736349e-38
-0.037857134 0.022142865 0.75000012 1.3465551e-38
-0.036428563 0.02214288 0.75000006 1.2542936e-38
-0.035000019 0.022142872 0.75000012 1.1617106e-38
-0.033571448 0.02214288 0.75000006 1.365297e-38
-0.032057144 0.022083811 0.74800003 1.5785629e-38
-0.03063239 0.022083819 0.74800003 1.5775578e-38
-0.029168602 0.022054292 0.74699998 1.5775936e-38
-0.027745718 0.022054292 0.74700004 1.7619102e-38
-0.026322888 0.0220543 0.74700004 1.9550158e-38
-0.024833329 0.021995261 0.74500012 1.7976758e-38
-0.023414291 0.021995254 0.74500012 1.6498423e-38
-0.021995256 0.021995246 0.74500006 1.7333911e-38
-0.020576194 0.021995261 0.74500006 1.8079006e-38
-0.019157128 0.021995239 0.74500012 1.8536038e-38
-0.017690487 0.021936208 0.74300003 1.8901913e-38
-0.016253376 0.021906689 0.74200004 1.7887027e-38
-0.014800003 0.021847621 0.74000007 1.6876502e-38
-0.013390475 0.021847628 0.74000001 1.7890661e-38
-0.011980972 0.021847636 0.74000001 1.8905887e-38
-0.010557159 0.021818109 0.73900002 1.9088137e-38
-0.0091495216 0.021818101 0.73900008 1.9272522e-38
-0.0077419146 0.021818101 0.73900002 1.8810829e-38
-0.0063171717 0.021759063 0.73700005 1.835129e-38
-0.0049133268 0.02175907 0.73700005 1.8350928e-38
-0.0035095403 0.021759048 0.73700005 1.8350567e-38
-0.0021028726 0.021729529 0.73600006 1.8072905e-38
-0.00070097891 0.021729536 0.736 1.7798833e-38
0.0006971393 0.02161143 0.73200011 1.7705562e-38
0.0020914187 0.021611437 0.73200005 1.7614809e-38
0.0034809688 0.021581918 0.73100001 1.8996293e-38
0.0048733572 0.021581911 0.73100007 2.0377752e-38
0.0062657162 0.021581918 0.73100007 1.8351612e-38
0.0076580993 0.021581925 0.73100001 1.6230289e-38
0.0090504866 0.021581918 0.73100007 1.3005504e-38
0.010414293 0.02152285 0.72900003 9.7880628e-39
0.011802856 0.021522872 0.72900003 9.7862971e-39
0.013173345 0.021493345 0.72800004 9.8785376e-39
0.014559986 0.021493345 0.72800004 1.0159111e-38
0.015902856 0.0214343 0.72600001 1.0438658e-38
0.017261917 0.021404766 0.72500002 1.0072127e-38
0.018642871 0.021404758 0.72500008 9.7062199e-39
0.020023827 0.021404758 0.72500002 9.9817264e-39
0.021345735 0.021345712 0.72300005 1.0343661e-38
0.022722844 0.021345735 0.72300005 8.2091749e-39
0.024100011 0.021345727 0.72300005 6.2002903e-39
0.025477147 0.021345742 0.72300005 1.292654e-38
0.026854288 0.021345735 0.72300005 1.9740295e-38
0.028309543 0.021404758 0.72500008 1.9089544e-38
0.029690498 0.021404766 0.72500002 1.8444152e-38
0.031199988 0.02149336 0.72800004 1.6966141e-38
0.032631446 0.021522865 0.72900003 1.5406667e-38
0.034159984 0.021611445 0.73200005 1.2537818e-38
0.035651419 0.021670476 0.73400003 9.6002103e-39
0.037200924 0.02175907 0.73700005 1.2542225e-38
0.038866643 0.021906681 0.74200004 1.5497487e-38
0.040279966 0.021906681 0.74200004 1.3562506e-38
0.041861914 0.021995254 0.74500006 1.1708573e-38
0.043280948 0.021995254 0.74500006 7.9214295e-39
0.044879977 0.022083804 0.74800003 4.1772861e-39
0.046614278 0.02223143 0.75300002 1.0250214e-38
0.048941925 0.022644766 0.76700008 1.622846e-38
0.050402857 0.022644781 0.76700002 1.5759566e-38
0.051931467 0.022674292 0.76800001 1.5299629e-38
0.053672414 0.022792399 0.77200007 1.2715279e-38
0.055142853 0.022792391 0.77200001 1.0144958e-38
0.056613348 0.022792391 0.77200001 1.0044509e-38
-0.039390475 0.023634292 0.75200009 1.3176419e-38
-0.03785716 0.023571439 0.75000006 1.2084435e-38
-0.036428589 0.023571439 0.75000006 1.1431181e-38
-0.035000019 0.023571447 0.75000006 1.070048e-38
-0.033571418 0.023571432 0.75000012 1.097459e-38
-0.032057177 0.023508579 0.74800003 1.1258318e-38
-0.030632399 0.023508586 0.74800003 1.1343308e-38
-0.029168611 0.023477159 0.74700004 1.1357001e-38
-0.027745757 0.023477159 0.74700004 1.5415044e-38
-0.026322871 0.023477152 0.74700004 1.9359297e-38
-0.024900015 0.023477167 0.74700004 1.7143757e-38
-0.023414286 0.023414299 0.74500006 1.4845701e-38
-0.02199522 0.023414291 0.74500012 1.5764039e-38
-0.020576185 0.023414284 0.74500012 1.6598839e-38
-0.019105734 0.023351438 0.74300003 1.7613723e-38
-0.017690491 0.023351446 0.74300003 1.8534212e-38
-0.016253356 0.023320012 0.74200004 1.8443435e-38
-0.014840033 0.023320012 0.74199998 1.8349102e-38
-0.013390461 0.023257151 0.74000007 1.8532789e-38
-0.011980957 0.023257151 0.74000007 1.8626791e-38
-0.01055715 0.02322571 0.73900002 1.8719718e-38
-0.0091495421 0.023225717 0.73900002 1.8811545e-38
-0.0077419081 0.02322571 0.73900008 1.8718266e-38
-0.0063343006 0.023225717 0.73900002 1.8534592e-38
-0.0049266932 0.023225717 0.73900002 1.8533872e-38
-0.0035095385 0.023162864 0.73700005 1.8533516e-38
-0.0021028763 0.023131445 0.73600006 1.8350565e-38
-0.00069904735 0.023068577 0.73400009 1.8073613e-38
0.00069905038 0.02306857 0.73400003 1.7521155e-38
0.0020914243 0.023005724 0.73200005 1.6877958e-38
0.0034857055 0.023005717 0.73200005 1.8072546e-38
0.0048799845 0.023005739 0.73199999 1.927142e-38
0.0062657162 0.022974297 0.73100007 1.7616937e-38
0.0076581291 0.02297429 0.73100007 1.5952997e-38
0.0090504866 0.022974297 0.73100007 1.2817896e-38
0.010442846 0.02297429 0.73100001 9.6951567e-39
0.011802852 0.022911437 0.72900003 9.6015541e-39
0.013173334 0.022880018 0.72800004 9.5119215e-39
0.014560005 0.02288001 0.72800004 1.0068007e-38
0.015902866 0.022817165 0.72600001 1.0529783e-38
0.01728569 0.022817165 0.72600001 1.0715334e-38
0.018642876 0.022785723 0.72500002 1.0900799e-38
0.02002383 0.022785723 0.72500008 1.0812551e-38
0.02140476 0.022785723 0.72500002 1.0609836e-38
0.022722838 0.022722878 0.72300005 7.814921e-39
0.024100004 0.02272287 0.72300005 5.0939581e-39
0.025477171 0.022722863 0.72300005 1.2838297e-38
0.026928585 0.022785723 0.72500002 2.0562156e-38
0.028309545 0.022785716 0.72500002 2.0561789e-38
0.029731417 0.022817157 0.72600001 2.0468147e-38
0.031242847 0.022911444 0.72900003 1.9916762e-38
0.032720976 0.022974297 0.73100007 1.9268857e-38
0.034159992 0.023005724 0.73200005 1.8714939e-38
0.035748553 0.023131445 0.73600006 1.816e-38
0.037200954 0.023162872 0.73700005 1.816002e-38
0.038919035 0.023351453 0.74300003 1.8162179e-38
0.040442854 0.023414306 0.74500006 1.5130899e-38
0.041861892 0.023414306 0.74500006 1.1979055e-38
0.043455221 0.023508571 0.74800003 8.8168074e-39
0.044879969 0.023508579 0.74800003 5.7338443e-39
0.049005751 0.024137147 0.76800007 2.0367222e-38
0.050468579 0.024137147 0.76800001 2.0464418e-38
0.051931441 0.024137139 0.76800001 2.0456504e-38
0.053672399 0.02426289 0.77200001 1.9539204e-38
0.054999985 0.024200015 0.77000004 1.8521455e-38
-0.039285731 0.025000021 0.75000006 1.6044177e-38
-0.037857126 0.025000013 0.75000012 1.559069e-38
-0.03642856 0.025000013 0.75000006 1.484627e-38
-0.035000015 0.025000013 0.75000012 1.4197341e-38
-0.033571444 0.025000021 0.75000006 1.4011534e-38
-0.032057181 0.024933338 0.74800003 1.3908525e-38
-0.030632406 0.024933353 0.74799997 1.2436951e-38
-0.029207624 0.024933331 0.74800003 1.0975241e-38
-0.027745739 0.024900012 0.74700004 1.5129845e-38
-0.026322884 0.024900012 0.74700004 1.9267089e-38
-0.02490003 0.024900019 0.74699998 1.7516098e-38
-0.023414278 0.024833336 0.74500012 1.5761502e-38
-0.02205429 0.024900012 0.74700004 1.5940834e-38
-0.020576205 0.024833344 0.74500006 1.6132091e-38
-0.01915714 0.024833344 0.74500012 1.733605e-38
-0.017690493 0.024766691 0.74300003 1.8443094e-38
-0.016275244 0.024766676 0.74300003 1.8350177e-38
-0.01486 0.024766691 0.74300003 1.8166154e-38
-0.013426691 0.02473335 0.74200004 1.8257278e-38
-0.011980973 0.024666689 0.74000001 1.8348053e-38
-0.010571415 0.024666682 0.74000007 1.8442056e-38
-0.0091495356 0.024633341 0.73900002 1.8534957e-38
-0.0077418988 0.024633341 0.73900008 1.8350197e-38
-0.0063342913 0.024633341 0.73900002 1.8259076e-38
-0.0049266838 0.024633341 0.73900002 1.8165444e-38
-0.0035095422 0.02456668 0.73699999 1.8164735e-38
-0.0021028819 0.024533346 0.73600006 1.798143e-38
-0.00070095842 0.024533339 0.73600006 1.7796663e-38
0.0006990392 0.024466664 0.73400009 1.7520059e-38
0.002091402 0.024400011 0.73200005 1.7242414e-38
0.0034857111 0.024400003 0.73200005 1.8165806e-38
0.0048799901 0.024400003 0.73200005 1.9181736e-38
0.006265718 0.024366669 0.73100007 1.7338569e-38
0.007658131 0.024366684 0.73100007 1.5493828e-38
0.0090504903 0.024366684 0.73100007 1.2637462e-38
0.010442847 0.024366677 0.73100001 9.7869978e-39
0.011802845 0.024300002 0.72900003 9.8770634e-39
0.013191441 0.024300002 0.72900009 9.9685963e-39
0.014559994 0.024266675 0.72800004 1.052684e-38
0.015946664 0.024266675 0.72800004 1.1080444e-38
0.017285693 0.02420003 0.72600001 1.1175588e-38
0.018668571 0.024200022 0.72600001 1.1359259e-38
0.020023836 0.024166673 0.72500002 1.1359618e-38
0.021404793 0.024166666 0.72500008 1.1355278e-38
0.022722861 0.024100013 0.72300011 7.2836299e-39
0.024166679 0.024166659 0.72500008 3.3483662e-39
0.025547633 0.024166681 0.72500002 1.1915643e-38
0.026928592 0.024166681 0.72500008 2.047535e-38
0.028309518 0.024166681 0.72500002 2.0103336e-38
0.029813321 0.02426669 0.72800004 1.9827837e-38
0.031199995 0.024266675 0.72800004 1.9549466e-38
0.032720972 0.024366677 0.73100007 1.9362922e-38
0.034253355 0.024466679 0.73400009 1.92718e-38
0.035748545 0.024533339 0.73600006 1.9184974e-38
0.037453309 0.024733342 0.74200004 1.8809727e-38
0.038919035 0.024766691 0.74300003 1.8441661e-38
0.040442862 0.024833336 0.74500012 1.5586501e-38
0.041861899 0.024833336 0.74500012 1.2810235e-38
0.043397121 0.024900019 0.74700004 9.1152531e-39
0.044819977 0.024900027 0.74699998 5.5573661e-39
0.049005747 0.025600009 0.76800001 1.9729461e-38
0.050468605 0.025599994 0.76800007 1.9819852e-38
0.051931463 0.025599994 0.76800007 1.9910611e-38
0.053672388 0.025733344 0.77200001 1.9542192e-38
0.055500004 0.025900021 0.77700001 1.9178032e-38
0.05698001 0.025900006 0.77700001 1.8713785e-38
-0.039285727 0.026428573 0.75000006 1.881041e-38
-0.037857156 0.026428595 0.75000006 1.8992621e-38
-0.036428586 0.02642858 0.75000006 1.8349388e-38
-0.035000015 0.026428588 0.75000006 1.7700806e-38
-0.033571418 0.02642858 0.75000012 1.7149441e-38
-0.032142844 0.02642858 0.75000012 1.6490734e-38
-0.030632382 0.026358098 0.74800003 1.352143e-38
-0.029168608 0.026322879 0.74699998 1.0522897e-38
-0.027745724 0.026322879 0.74700004 1.4861517e-38
-0.026322868 0.026322879 0.74700004 1.9086304e-38
-0.024900014 0.026322879 0.74700004 1.7892081e-38
-0.023414299 0.026252396 0.74500006 1.6681671e-38
-0.021995233 0.026252396 0.74500012 1.6197693e-38
-0.020576198 0.026252389 0.74500012 1.5670044e-38
-0.019157134 0.026252396 0.74500006 1.7063405e-38
-0.017690465 0.026181914 0.74300003 1.8349104e-38
-0.016275246 0.026181921 0.74300003 1.8163641e-38
-0.014860002 0.026181929 0.74300003 1.798105e-38
-0.013426695 0.026146673 0.74200004 1.807325e-38
-0.011980932 0.026076205 0.74000001 1.8072898e-38
-0.010571431 0.026076198 0.74000001 1.8165101e-38
-0.0091495262 0.026040956 0.73900002 1.8165452e-38
-0.0077419193 0.026040956 0.73900002 1.8072176e-38
-0.0063342829 0.026040949 0.73900002 1.788922e-38
-0.0049266764 0.026040949 0.73900002 1.7795947e-38
-0.0035095403 0.025970496 0.73700005 1.7704473e-38
-0.0021028838 0.025935248 0.73600006 1.7612999e-38
-0.00069904735 0.02586478 0.73400003 1.7428603e-38
0.0006990541 0.025864772 0.73400009 1.7519714e-38
0.0020914355 0.025794297 0.73200005 1.7612633e-38
0.0034856887 0.025794297 0.73200005 1.8350194e-38
0.0048799994 0.02579429 0.73200005 1.8993393e-38
0.006265718 0.025759049 0.73100007 1.6969416e-38
0.007658131 0.025759056 0.73100007 1.4938509e-38
0.0090504903 0.025759064 0.73100007 1.2359818e-38
0.010442877 0.025759041 0.73100007 9.7855502e-39
0.011802867 0.025688581 0.72900003 1.0151454e-38
0.013173338 0.02565334 0.7280001 1.0431346e-38
0.014560008 0.025653355 0.72800004 1.0990331e-38
0.015946683 0.025653347 0.72800004 1.154393e-38
0.017285699 0.025582872 0.72599995 1.1639429e-38
0.018668553 0.025582887 0.72600001 1.1728753e-38
0.02002381 0.025547616 0.72500002 1.1910631e-38
0.021404769 0.025547624 0.72500008 1.2077046e-38
0.022785753 0.025547609 0.72500008 6.8000572e-39
0.024166679 0.025547624 0.72500002 1.5077089e-39
0.025547639 0.025547624 0.72500008 1.1000158e-38
0.026928592 0.025547624 0.72500002 2.037705e-38
0.028348578 0.025582872 0.72600001 1.9732393e-38
0.029813342 0.025653355 0.72800004 1.908776e-38
0.031242862 0.025688574 0.72900003 1.9273594e-38
0.032720976 0.025759049 0.73100007 1.945619e-38
0.034346651 0.025935255 0.73600006 1.9823892e-38
0.035797138 0.025970496 0.73700005 2.0190498e-38
0.037453331 0.02614668 0.74200004 1.9451491e-38
0.038919035 0.026181921 0.74300003 1.8625685e-38
0.040442847 0.026252396 0.74500006 1.6146483e-38
0.041861907 0.026252396 0.74500006 1.3634965e-38
0.043280974 0.026252389 0.74500012 9.4596475e-39
0.044700008 0.026252389 0.74500012 5.2761283e-39
0.054020014 0.027380019 0.77700001 1.9540748e-38
0.055500016 0.027380019 0.77700001 1.9725839e-38
0.057126682 0.027450502 0.77900004 2.0093524e-38
-0.037857126 0.027857162 0.75000012 1.8995203e-38
-0.036428582 0.027857155 0.75000012 1.8719337e-38
-0.035000011 0.027857155 0.75000012 1.8535303e-38
-0.033571441 0.027857155 0.75000012 1.8074327e-38
-0.032142874 0.027857162 0.75000006 1.77094e-38
-0.030632392 0.027782865 0.74800003 1.6040121e-38
-0.029207639 0.027782865 0.74800003 1.4487984e-38
-0.027745737 0.027745731 0.74699998 1.6513843e-38
-0.026322883 0.027745739 0.74699998 1.8630733e-38
-0.024900023 0.027745724 0.74700004 1.7798124e-38
-0.02341429 0.027671427 0.74500012 1.6967241e-38
-0.021995254 0.027671434 0.74500012 1.6126312e-38
-0.020576192 0.027671441 0.74500006 1.5398841e-38
-0.019157156 0.027671441 0.74500006 1.6875421e-38
-0.017690491 0.027597159 0.74300003 1.8348025e-38
-0.016275249 0.027597159 0.74300003 1.8164361e-38
-0.01486003 0.027597167 0.74300003 1.7980694e-38
-0.013426673 0.027560011 0.74200004 1.7981056e-38
-0.011980949 0.027485736 0.74000001 1.7980698e-38
-0.010571446 0.027485721 0.74000001 1.7981057e-38
-0.0091495169 0.02744858 0.73900002 1.8072891e-38
-0.0077419109 0.027448587 0.73900002 1.7980337e-38
-0.0063342736 0.027448572 0.73900008 1.7979975e-38
-0.0049266689 0.027448587 0.73900002 1.7703748e-38
-0.0035095385 0.027374282 0.73700005 1.7519717e-38
-0.0021028875 0.027337156 0.73600006 1.7243849e-38
-0.00069906039 0.027262859 0.73400003 1.7060903e-38
0.00069903734 0.027262859 0.73400003 1.7521521e-38
0.0020914113 0.027188592 0.73199999 1.7981416e-38
0.0034856943 0.027188577 0.73200005 1.8442028e-38
0.0048799752 0.027188584 0.73200005 1.8900473e-38
0.0062742862 0.027188577 0.73200005 1.6044946e-38
0.0076581328 0.027151443 0.73100007 1.3094265e-38
0.0090504922 0.027151451 0.73100007 1.0885083e-38
0.010442879 0.027151436 0.73100007 8.6810019e-39
0.011835262 0.027151443 0.73100007 8.9557601e-39
0.013191424 0.027077161 0.72900003 9.2378275e-39
0.014580021 0.027077153 0.72900003 1.0254579e-38
0.015946671 0.027040005 0.72800004 1.1362775e-38
0.017285706 0.026965737 0.72599995 1.1546517e-38
0.018668562 0.02696573 0.72600001 1.1729471e-38
0.020023836 0.026928581 0.72500002 1.1635124e-38
0.021404766 0.026928581 0.72500002 1.1630065e-38
0.02272285 0.026854306 0.72300005 6.3616834e-39
0.024166683 0.026928574 0.72500008 1.1374956e-39
0.025547635 0.026928574 0.72500002 1.0445199e-38
0.026928594 0.026928574 0.72500008 1.9738858e-38
0.028348582 0.026965737 0.72600001 1.623689e-38
0.029854286 0.027077146 0.72900003 1.2832892e-38
0.031328559 0.027151451 0.73100001 1.3565437e-38
0.032765701 0.027188592 0.73200005 1.4313399e-38
0.034393318 0.027374305 0.73700005 1.6055409e-38
0.035894271 0.027448587 0.73900002 1.7709861e-38
0.037453298 0.027560018 0.74200004 1.7892073e-38
0.038919035 0.027597159 0.74300003 1.816758e-38
0.040334281 0.027597167 0.74300003 1.5496458e-38
0.041861914 0.027671441 0.74500012 1.2817778e-38
0.043397125 0.027745731 0.74700004 9.5827025e-39
0.044819977 0.027745724 0.74700004 6.3878471e-39
0.05125713 0.028971441 0.78000003 1.8987936e-38
0.052742872 0.028971449 0.78000003 1.8987576e-38
0.05415903 0.028934315 0.77900004 1.9171963e-38
0.055642854 0.0289343 0.77900004 1.9356727e-38
0.057126679 0.028934292 0.77900004 1.9632966e-38
0.058610469 0.028934307 0.77900004 1.9908459e-38
-0.037958071 0.029363811 0.75200009 1.8903722e-38
-0.036525708 0.029363811 0.75200009 1.9088827e-38
-0.035093319 0.029363818 0.75200009 1.9271067e-38
-0.033571441 0.029285744 0.75000006 1.908704e-38
-0.032142844 0.029285721 0.75000012 1.8810766e-38
-0.030632399 0.029207632 0.74800003 1.8624891e-38
-0.029207649 0.029207632 0.74800003 1.8440908e-38
-0.027745746 0.029168591 0.74700004 1.8259077e-38
-0.026322892 0.029168598 0.74700004 1.807432e-38
-0.024900038 0.029168591 0.74700004 1.761047e-38
-0.023414286 0.029090494 0.74500006 1.714444e-38
-0.021995218 0.029090486 0.74500012 1.6125603e-38
-0.020576183 0.029090486 0.74500012 1.502863e-38
-0.019105714 0.029012397 0.74300003 1.6691027e-38
-0.017690495 0.029012404 0.74300003 1.834695e-38
-0.016275253 0.029012412 0.74300003 1.8164728e-38
-0.014860004 0.029012397 0.74300003 1.7889577e-38
-0.01342668 0.028973356 0.74199998 1.7889576e-38
-0.012013329 0.028973348 0.74200004 1.7797742e-38
-0.010571431 0.028895237 0.74000001 1.788922e-38
-0.0091619017 0.028895244 0.74000001 1.7980694e-38
-0.0077419016 0.028856196 0.73900002 1.7980334e-38
-0.006334296 0.028856196 0.73900002 1.7979971e-38
-0.0049266596 0.028856188 0.73900002 1.7610472e-38
-0.0035095422 0.028778106 0.73700005 1.7242056e-38
-0.0021028931 0.028739057 0.73600006 1.6964757e-38
-0.00069904735 0.028660953 0.73400003 1.6692849e-38
0.00069902616 0.02866096 0.73400003 1.7523684e-38
0.0020914169 0.028582871 0.73200005 1.825873e-38
0.0034857278 0.028582864 0.73200005 1.8535674e-38
0.0048799808 0.028582871 0.73200005 1.8808291e-38
0.006274262 0.028582871 0.73200005 1.5031895e-38
0.0076581067 0.028543808 0.73100007 1.1256521e-38
0.0090504922 0.028543822 0.73100001 9.4053878e-39
0.010442879 0.028543808 0.73100007 7.574035e-39
0.011835238 0.028543822 0.73100007 7.8452129e-39
0.013191417 0.028465711 0.72900003 8.0407781e-39
0.014580013 0.028465718 0.72900009 9.6106472e-39
0.015946658 0.02842667 0.72800004 1.1084394e-38
0.017333323 0.028426692 0.72800004 1.1362846e-38
0.01866857 0.028348595 0.72600001 1.1636918e-38
0.020023813 0.028309532 0.72500002 1.1453247e-38
0.021404769 0.028309524 0.72500008 1.1157612e-38
0.02272287 0.028231442 0.72300005 5.9710182e-39
0.024166683 0.028309517 0.72500002 7.7157876e-40
0.025547612 0.028309539 0.72500002 9.9045751e-39
0.026928594 0.028309539 0.72500002 1.8994102e-38
0.028426671 0.02842667 0.72800004 1.2827098e-38
0.029854279 0.028465718 0.72900003 6.5639959e-39
0.031328559 0.028543837 0.73100001 7.8421651e-39
0.032765705 0.028582871 0.73200005 9.1422407e-39
0.034346644 0.02873905 0.73600006 1.2190419e-38
0.035894278 0.028856188 0.73900002 1.5218113e-38
0.03745332 0.028973356 0.74200004 1.6423088e-38
0.038919032 0.029012404 0.74300003 1.7609042e-38
0.040334277 0.029012404 0.74300003 1.4762485e-38
0.041749526 0.029012389 0.74300003 1.1889736e-38
0.043280959 0.029090486 0.74500012 9.6659354e-39
0.044700023 0.029090494 0.74500012 7.393381e-39
0.051257152 0.030457154 0.78000003 1.8893951e-38
0.052675225 0.030418113 0.77899998 1.8711353e-38
0.054159049 0.03041812 0.77900004 1.8803188e-38
0.055714305 0.030457154 0.78000003 1.8895753e-38
0.057199996 0.030457146 0.78000003 1.9080513e-38
0.058685739 0.030457154 0.78000003 1.9264887e-38
0.060325727 0.030535243 0.78200012 1.9357069e-38
-0.037958089 0.030796193 0.75200003 1.8536017e-38
-0.036525726 0.0307962 0.75200003 1.8719328e-38
-0.035093341 0.0307962 0.75200003 1.8903369e-38
-0.033571437 0.030714303 0.75000012 1.8903022e-38
-0.03214287 0.030714296 0.75000006 1.8903375e-38
-0.0307143 0.030714303 0.75000006 1.8810099e-38
-0.029207624 0.030632384 0.74800003 1.8809737e-38
-0.027745731 0.030591443 0.74700004 1.8626062e-38
-0.026322875 0.030591443 0.74700004 1.8348374e-38
-0.024900019 0.030591436 0.74700004 1.7331695e-38
-0.023477165 0.030591443 0.74700004 1.63136e-38
-0.021995241 0.030509539 0.74500012 1.5296221e-38
-0.020576203 0.030509539 0.74500006 1.4378967e-38
-0.019105742 0.030427635 0.74300003 1.5858762e-38
-0.017690498 0.030427642 0.74300003 1.733712e-38
-0.016275223 0.030427642 0.74300003 1.7428257e-38
-0.014860006 0.030427642 0.74300003 1.7522597e-38
-0.013426685 0.030386679 0.74200004 1.7706259e-38
-0.012013365 0.030386679 0.74200004 1.7890651e-38
-0.010600043 0.030386679 0.74200004 1.8073606e-38
-0.0091618868 0.030304767 0.74000001 1.8256199e-38
-0.0077419183 0.030263819 0.73900002 1.8256914e-38
-0.0063342876 0.030263826 0.73900002 1.8348744e-38
-0.0049266503 0.030263819 0.73900002 1.7978525e-38
-0.0035095403 0.030181922 0.73700005 1.7699795e-38
-0.0021028707 0.030140981 0.736 1.7518282e-38
-0.00069903245 0.030059062 0.73400003 1.7426462e-38
0.0006990392 0.030059062 0.73400003 1.788996e-38
0.0020914243 0.029977158 0.73200005 1.8350938e-38
0.0034857055 0.029977158 0.73200005 1.8628961e-38
0.0048799883 0.02997715 0.73200005 1.8999509e-38
0.0062742713 0.029977158 0.73200005 1.5310282e-38
0.0076581067 0.029936202 0.73100007 1.1718253e-38
0.0090504922 0.029936209 0.73100001 1.1163252e-38
0.010442879 0.029936202 0.73100007 1.0608635e-38
0.011835238 0.029936202 0.73100007 1.0149798e-38
0.013191439 0.02985429 0.72900003 9.6931402e-39
0.014580002 0.02985429 0.72900003 1.0250259e-38
0.015968572 0.029854298 0.72900003 1.0898568e-38
0.017333344 0.029813342 0.72800004 1.1267782e-38
0.018668577 0.029731452 0.72600001 1.1725883e-38
0.020023843 0.029690482 0.72500008 1.1357824e-38
0.021404773 0.029690482 0.72500002 1.0984341e-38
0.022785729 0.029690474 0.72500008 5.7181063e-39
0.024166659 0.029690489 0.72500002 4.9068147e-40
0.025547642 0.029690482 0.72500002 9.7079758e-39
0.026928572 0.029690482 0.72500002 1.8903316e-38
0.02842666 0.029813342 0.72800004 1.3092519e-38
0.029936204 0.029936202 0.73100007 7.3549532e-39
0.031328592 0.029936194 0.73100007 5.9853115e-39
0.032765713 0.029977158 0.73200011 4.6103434e-39
0.034346666 0.030140966 0.73600006 6.1881018e-39
0.03589429 0.030263826 0.73900002 7.6617815e-39
0.037453316 0.030386686 0.74200004 1.1253776e-38
0.038919032 0.030427642 0.74300003 1.4930394e-38
0.040334277 0.030427635 0.74300003 1.3641079e-38
0.041749522 0.030427642 0.74300003 1.2425323e-38
0.043280963 0.030509539 0.74500006 1.133082e-38
0.0447 0.030509531 0.74500006 1.02428e-38
0.049899057 0.032024771 0.78200006 1.7341026e-38
0.051388595 0.032024756 0.78200006 1.7886632e-38
0.052675221 0.031901941 0.77899998 1.8344014e-38
0.054228548 0.031942882 0.78000003 1.8711353e-38
0.055714298 0.031942859 0.78000003 1.9076551e-38
0.057346683 0.032024778 0.78200006 1.9079071e-38
0.058836222 0.032024756 0.78200006 1.9080495e-38
-0.036525715 0.032228582 0.75200009 1.8348393e-38
-0.035093326 0.032228589 0.75200003 1.8533868e-38
-0.033660963 0.032228589 0.75200009 1.8718625e-38
-0.03214284 0.032142878 0.75000012 1.8902294e-38
-0.030714294 0.032142855 0.75000012 1.9086323e-38
-0.029207632 0.032057144 0.74800003 1.9178157e-38
-0.027782882 0.032057144 0.74800003 1.8903368e-38
-0.026358131 0.032057136 0.74800003 1.8623173e-38
-0.024900002 0.032014295 0.74700004 1.7053694e-38
-0.023477148 0.032014303 0.74700004 1.5487074e-38
-0.02205432 0.032014295 0.74700004 1.4550387e-38
-0.020576168 0.031928577 0.74500012 1.3643172e-38
-0.019157132 0.031928591 0.74500012 1.4935705e-38
-0.01769047 0.031842873 0.74300003 1.6226452e-38
-0.016275253 0.03184288 0.74300003 1.6688167e-38
-0.014860008 0.031842887 0.74300003 1.7150577e-38
-0.013444791 0.03184288 0.74300003 1.7614062e-38
-0.012013342 0.031800017 0.74200004 1.7981051e-38
-0.01060002 0.031800017 0.74200004 1.8258356e-38
-0.0091619026 0.031714298 0.74000001 1.8441309e-38
-0.0077419109 0.031671427 0.73900002 1.8534221e-38
-0.0063343043 0.031671427 0.73900002 1.8626049e-38
-0.0049266708 0.031671442 0.73900002 1.834695e-38
-0.0035095124 0.031585731 0.73700005 1.8071812e-38
-0.0021028763 0.031542875 0.73600006 1.816581e-38
-0.0007009547 0.031542867 0.73600006 1.8165099e-38
0.0006990541 0.031457141 0.73400003 1.8258018e-38
0.002091402 0.031371452 0.73200005 1.8351294e-38
0.0034857111 0.031371444 0.73200005 1.8720794e-38
0.0048799901 0.031371452 0.73200005 1.9085239e-38
0.0062742769 0.031371437 0.73200005 1.5583267e-38
0.0076685562 0.031371444 0.73200005 1.2084169e-38
0.0090504941 0.031328581 0.73100001 1.2920352e-38
0.010442881 0.031328566 0.73100007 1.3643901e-38
0.011835242 0.031328574 0.73100007 1.2451462e-38
0.013191432 0.031242855 0.72900009 1.1255804e-38
0.014579998 0.031242862 0.72900003 1.0982088e-38
0.015946658 0.031200029 0.72800004 1.0712034e-38
0.017333332 0.031200022 0.72800004 1.1267782e-38
0.018668555 0.031114303 0.72600001 1.1726242e-38
0.020023819 0.031071439 0.72500002 1.1267422e-38
0.021404777 0.031071432 0.72500008 1.0789908e-38
0.022722885 0.030985735 0.72300005 5.4261009e-39
0.024099996 0.030985735 0.72300005 1.2763867e-40
0.025477162 0.030985728 0.72300005 9.4417823e-39
0.026928576 0.031071424 0.72500008 1.8714986e-38
0.028426675 0.031200029 0.72800004 1.3467779e-38
0.029936206 0.031328581 0.73100007 8.1022068e-39
0.031371433 0.031371437 0.73200005 4.1331817e-39
0.032765716 0.031371437 0.73200005 1.050007e-40
0.034393318 0.031585738 0.73700005 1.0574338e-40
0.035894293 0.031671427 0.73900002 1.1650816e-40
0.037352379 0.031714305 0.74000001 6.1833948e-39
0.038919061 0.031842873 0.74300003 1.2168832e-38
0.040334277 0.031842873 0.74300003 1.2538314e-38
0.041749522 0.03184288 0.74300003 1.2899905e-38
0.04432667 0.032699995 0.76300007 1.2989579e-38
0.045780018 0.032700002 0.76300007 1.3093263e-38
0.047233343 0.032699995 0.76300007 1.4389016e-38
0.050026689 0.033599995 0.78400004 1.5676509e-38
0.051520046 0.033599995 0.7840001 1.6875039e-38
0.052675236 0.033385739 0.77899998 1.797562e-38
0.054228578 0.03342858 0.78000003 1.8621687e-38
0.055857148 0.033514291 0.78200006 1.9170196e-38
0.057493359 0.033599995 0.7840001 1.8986173e-38
-0.036574326 0.033705719 0.75300002 1.8532775e-38
-0.035140041 0.033705719 0.75300002 1.8440589e-38
-0.033660952 0.033660956 0.75200009 1.8257285e-38
-0.032228563 0.033660971 0.75200009 1.8074334e-38
-0.030714296 0.033571452 0.75000006 1.7797037e-38
-0.029207641 0.033481926 0.74800003 1.7525479e-38
-0.027782889 0.033481911 0.74800003 1.7706282e-38
-0.026358109 0.033481903 0.74800003 1.7891011e-38
-0.024933357 0.033481896 0.74800003 1.7519705e-38
-0.023477158 0.033437155 0.74700004 1.7060468e-38
-0.022054303 0.033437155 0.74700004 1.6498274e-38
-0.020576188 0.033347629 0.74500006 1.5941896e-38
-0.019157153 0.033347636 0.74500006 1.6221721e-38
-0.017738117 0.033347636 0.74500006 1.6495469e-38
-0.016275253 0.033258125 0.74300003 1.6590567e-38
-0.01486001 0.033258125 0.74300003 1.677784e-38
-0.013444763 0.03325811 0.74300003 1.7055872e-38
-0.012013345 0.033213355 0.74200004 1.742681e-38
-0.010600024 0.03321334 0.74200004 1.733534e-38
-0.0091618896 0.033123821 0.74000007 1.7247453e-38
-0.0077419025 0.03307905 0.73900008 1.7613362e-38
-0.006334295 0.033079058 0.73900002 1.7896395e-38
-0.0049266876 0.033079058 0.73900002 1.8351619e-38
-0.003519051 0.03307905 0.73900008 1.8717899e-38
-0.00210288 0.032944769 0.736 1.8626077e-38
-0.00070096029 0.032944769 0.73600006 1.8533882e-38
0.00069904292 0.032855242 0.73400003 1.8442045e-38
0.0020914075 0.032765731 0.73200005 1.8350574e-38
0.0034856868 0.032765739 0.73200005 1.8628238e-38
0.0048799976 0.032765731 0.73200005 1.8904073e-38
0.0062742787 0.032765731 0.73199999 1.3556777e-38
0.0076685618 0.032765724 0.73200005 8.2981154e-39
0.0090504941 0.032720976 0.73100001 8.0251158e-39
0.010442887 0.032720953 0.73100007 7.7585692e-39
0.011835242 0.032720961 0.73100007 8.494321e-39
