# .PCD v0.7 - Point Cloud Data file format
VERSION 0.7
FIELDS x y z rgb
SIZE 4 4 4 4
TYPE F F F F
COUNT 1 1 1 1
WIDTH 981
HEIGHT 1
VIEWPOINT 0 0 0 1 0 0 0
POINTS 981
DATA ascii
-0.035793323 0.019722871 0.76699996 1.0141889e-38
-0.034153331 0.019620016 0.76299995 1.0788681e-38
-0.032357153 0.019414291 0.75500005 1.1435477e-38
-0.030714273 0.019285724 0.75 9.4089989e-39
-0.029285708 0.019285731 0.75000006 7.4761697e-39
-0.027671417 0.019157149 0.745 7.3850727e-39
-0.026181903 0.01910571 0.74300003 7.303356e-39
-0.024766667 0.019105725 0.74300003 7.8630528e-39
-0.023257123 0.019028574 0.73999995 8.4223166e-39
-0.021670463 0.018874288 0.73399997 1.0815062e-38
-0.02021713 0.018822871 0.73199999 1.3200632e-38
-0.018797139 0.018797152 0.73099995 1.3013015e-38
-0.017285697 0.01866857 0.72599995 1.2827188e-38
-0.015902841 0.018668577 0.72600001 8.0395408e-39
-0.014499994 0.01864285 0.72500002 3.3451615e-39
-0.013119059 0.018642858 0.72500002 7.852267e-39
-0.01173809 0.018642858 0.72499996 1.2371232e-38
-0.01035714 0.018642858 0.72500002 1.586422e-38
-0.0089761894 0.018642858 0.72500002 1.9345308e-38
-0.0075952206 0.018642865 0.72499996 1.5291937e-38
-0.0062142853 0.018642873 0.72499996 1.1204935e-38
-0.0048399959 0.018668585 0.72599995 1.1325863e-38
-0.0034571418 0.018668577 0.72599995 1.1421289e-38
-0.0020742656 0.018668592 0.72599995 1.0411819e-38
-0.00069332478 0.018720008 0.72800004 9.2850387e-39
0.00069429557 0.018745728 0.72899997 7.9179067e-39
0.0020828631 0.01874572 0.72899997 6.5210013e-39
0.0034714446 0.01874572 0.72899997 5.2489333e-39
0.0048600137 0.018745728 0.72899997 3.9496046e-39
0.0062485812 0.018745728 0.72899997 2.5824754e-39
0.0076581035 0.018797137 0.73100001 1.1974095e-39
0.0090257293 0.018745728 0.72899997 7.475577e-40
0.010442859 0.018797144 0.73099995 2.7833571e-40
0.011835249 0.018797152 0.73099995 2.9017388e-40
0.013227619 0.018797137 0.73100001 2.926794e-40
0.014680034 0.018874303 0.73399997 4.731162e-40
0.016121907 0.018925719 0.736 5.6928171e-40
0.017523799 0.018925712 0.736 1.0619911e-38
0.018925713 0.018925726 0.736 2.0662625e-38
0.020355251 0.018951431 0.73699999 2.1948322e-38
0.021759076 0.018951438 0.73699999 2.3325845e-38
0.023225738 0.019002855 0.73900002 1.9272157e-38
0.024633342 0.019002847 0.73900002 1.5302402e-38
0.026040971 0.01900287 0.73899996 7.7467577e-39
0.027485723 0.019028589 0.73999995 2.1520161e-40
0.02897332 0.019080013 0.74200004 1.8747272e-39
0.03038667 0.019079998 0.74200004 3.628214e-39
0.03184288 0.019105725 0.74299997 7.3102462e-39
0.033347648 0.019157141 0.745 1.0900081e-38
0.034766678 0.019157156 0.745 1.1912065e-38
0.036185723 0.019157149 0.74500006 1.3015885e-38
0.037705716 0.019208573 0.74699998 1.0166832e-38
0.039180953 0.019234285 0.74800003 7.4110192e-39
0.040605731 0.019234285 0.74800003 8.4064708e-39
0.04203051 0.0192343 0.74799997 9.3053084e-39
0.043455262 0.019234285 0.74800003 9.3030089e-39
0.045000006 0.019285724 0.75 9.199694e-39
0.046428591 0.019285724 0.75 8.7458975e-39
0.047857154 0.019285724 0.75 8.1884273e-39
0.049417142 0.019337147 0.75200003 7.088195e-39
0.050849538 0.01933714 0.75199997 6.0787248e-39
0.052490462 0.019414283 0.75500005 5.0688945e-39
0.054000013 0.01944001 0.75600004 4.0655452e-39
-0.04377237 0.021515235 0.77900004 8.9429775e-39
-0.042180005 0.021460004 0.77699995 9.2213595e-39
-0.040595226 0.021404773 0.77499998 9.4057549e-39
-0.039018095 0.021349527 0.77300006 9.5915825e-39
-0.037497144 0.0213219 0.77200001 1.0052199e-38
-0.035793319 0.021183819 0.76699996 1.0420991e-38
-0.034019049 0.020990483 0.75999999 1.1159638e-38
-0.032399993 0.020879999 0.75600004 1.1801758e-38
-0.030796178 0.020769529 0.75200003 9.5912392e-39
-0.029285712 0.020714298 0.75000006 7.2917827e-39
-0.027745703 0.02063144 0.74699998 7.3811267e-39
-0.026322832 0.020631433 0.74699998 7.3948328e-39
-0.024766663 0.020520955 0.74300003 8.0485175e-39
-0.023257134 0.020438112 0.73999995 8.6067051e-39
-0.021729512 0.020327643 0.736 1.118922e-38
-0.020217145 0.02021715 0.73200005 1.3754156e-38
-0.018797155 0.020189524 0.73100001 1.3194893e-38
-0.017333332 0.020106666 0.72800004 1.2550249e-38
-0.01590284 0.020051442 0.72599995 7.3963378e-39
-0.014499988 0.020023815 0.72499996 2.2377517e-39
-0.01311904 0.020023823 0.72499996 3.8735575e-39
-0.01173809 0.020023808 0.72500002 5.5596152e-39
-0.010357155 0.0200238 0.72500002 1.0894342e-38
-0.0089761838 0.020023815 0.72499996 1.6137907e-38
-0.0075952336 0.020023815 0.72500002 1.5760854e-38
-0.0062142834 0.0200238 0.72500002 1.5293068e-38
-0.0048333276 0.020023823 0.72499996 1.3176191e-38
-0.0034571232 0.020051435 0.72599995 1.1061462e-38
-0.0020742693 0.020051427 0.72599995 6.5281605e-39
-0.00069332292 0.020106673 0.72800004 1.949656e-39
0.00069334003 0.020106666 0.72800004 1.0108519e-39
0.0020828762 0.020134293 0.72899997 1.0396373e-40
0.0034714437 0.0201343 0.72899997 9.2471686e-41
0.0048600128 0.0201343 0.72899997 9.929741e-41
0.0062657176 0.020189531 0.73099995 9.2491304e-41
0.0076581091 0.020189524 0.73099995 9.822822e-41
0.0090504792 0.020189524 0.73100001 2.9086472e-40
0.010442843 0.020189516 0.73100001 4.7131833e-40
0.011851439 0.020217143 0.73199999 4.7922165e-40
0.013245735 0.020217158 0.73199999 4.7706506e-40
0.014680021 0.020272397 0.73399997 2.915948e-40
0.016121915 0.020327635 0.736 1.1404327e-40
0.017523808 0.020327628 0.736 9.3255964e-39
0.018951451 0.02035524 0.73699999 1.8444578e-38
0.020355249 0.020355247 0.73699999 2.0938132e-38
0.021759067 0.020355247 0.73699999 2.3417684e-38
0.023225747 0.020410486 0.73899996 2.1764641e-38
0.024633355 0.020410493 0.73899996 2.0087539e-38
0.026076185 0.020438112 0.73999995 1.0134841e-38
0.027559994 0.020493343 0.74200004 1.2264725e-40
0.028973343 0.020493336 0.74200004 1.8707783e-39
0.030386662 0.020493329 0.74200004 3.5342247e-39
0.031842884 0.020520963 0.74299997 7.5850352e-39
0.033258107 0.020520963 0.74299997 1.1541495e-38
0.034766681 0.020576201 0.74500006 1.2188648e-38
0.036185715 0.020576194 0.74500006 1.2738585e-38
0.037705731 0.02063144 0.74699998 9.8888147e-39
0.039180983 0.020659052 0.74799997 6.9464635e-39
0.040605735 0.020659044 0.74800003 1.0062026e-38
0.042030513 0.020659052 0.74800003 1.3182528e-38
0.043455239 0.020659044 0.74800003 1.3362142e-38
0.045000006 0.02071429 0.75 1.3451463e-38
0.046428587 0.02071429 0.75 1.3170573e-38
0.047857154 0.020714298 0.75 1.2798894e-38
0.049417157 0.020769529 0.75200003 1.0669426e-38
0.050849535 0.020769529 0.75200003 8.4739853e-39
0.052281927 0.020769529 0.75199997 5.5180317e-39
-0.04531429 0.023028575 0.78000003 8.848984e-39
-0.043772381 0.022999063 0.77900004 8.9429705e-39
-0.042179994 0.022939995 0.77699995 9.128445e-39
-0.040595222 0.022880957 0.77500004 9.4061122e-39
-0.039018072 0.022821926 0.773 9.5915769e-39
-0.037497133 0.022792384 0.77200001 9.9599951e-39
-0.035839997 0.022674292 0.76800001 1.0330601e-38
-0.034019023 0.022438109 0.75999999 1.1252218e-38
-0.032400001 0.022320002 0.75600004 1.217342e-38
-0.030796172 0.022201918 0.75199997 9.6841537e-39
-0.029285712 0.022142872 0.75 7.2896317e-39
-0.027745709 0.022054292 0.74699998 6.7425816e-39
-0.026322851 0.022054292 0.74699998 6.202765e-39
-0.024766659 0.021936193 0.74299997 7.9559645e-39
-0.023257149 0.021847628 0.73999995 9.7058612e-39
-0.021729516 0.021729536 0.736 1.2288017e-38
-0.020272369 0.021670483 0.73399997 1.4860128e-38
-0.018797146 0.021581918 0.73100001 1.3568333e-38
-0.017333329 0.021493331 0.72800004 1.2282277e-38
-0.015902843 0.0214343 0.72599995 7.7644014e-39
-0.014519989 0.021434285 0.72599995 3.3358288e-39
-0.013137134 0.021434292 0.72600001 4.1612511e-39
-0.011738081 0.021404773 0.72499996 5.1086844e-39
-0.010371406 0.021434292 0.72599995 1.2378418e-38
-0.0089885499 0.0214343 0.72599995 1.9652435e-38
-0.007605711 0.021434292 0.72599995 1.955199e-38
-0.0062228572 0.021434277 0.72600001 1.9376897e-38
-0.0048399828 0.0214343 0.72599995 1.8351608e-38
-0.0034666599 0.021493345 0.72800004 1.7252448e-38
-0.0020742731 0.021434292 0.72599995 1.4938619e-38
-0.00069429335 0.021522857 0.72900003 1.2739588e-38
0.00069427321 0.021522857 0.72900003 1.1805805e-38
0.0020885796 0.021581911 0.73099995 1.0974241e-38
0.0034809571 0.021581903 0.73099995 1.0231642e-38
0.004873327 0.021581903 0.73100001 9.4869335e-39
0.0062657045 0.021581903 0.73100001 8.288068e-39
0.0076580951 0.021581896 0.73100001 7.1695362e-39
0.0090628639 0.021611437 0.73199999 5.9846375e-39
0.010457159 0.021611437 0.73199999 4.8776131e-39
0.011883851 0.021670491 0.73399997 2.675736e-39
0.013318118 0.021729536 0.736 4.7741958e-40
0.01472001 0.021729521 0.736 2.8513481e-40
0.016121903 0.021729529 0.73600006 9.5742316e-41
0.017547622 0.021759056 0.73699999 4.8084282e-39
0.01895144 0.02175907 0.73699999 9.4439781e-39
0.02035524 0.021759063 0.73699999 1.6432094e-38
0.021759085 0.021759063 0.73699999 2.341769e-38
0.02322574 0.021818101 0.73899996 2.2590453e-38
0.024666674 0.021847636 0.73999995 2.1761033e-38
0.026076186 0.021847628 0.73999995 1.3554638e-38
0.027559986 0.021906674 0.74200004 5.2589764e-39
0.028973335 0.021906674 0.74200004 3.6992332e-39
0.030386658 0.021906666 0.74200004 2.154537e-39
0.031842858 0.021936201 0.74299997 5.470665e-39
0.033347618 0.021995246 0.74500006 8.8800592e-39
0.034766678 0.021995246 0.745 9.5232664e-39
0.036282856 0.0220543 0.74699998 1.0258309e-38
0.037705731 0.0220543 0.74699998 8.5102061e-39
0.039180961 0.022083819 0.74800003 6.7610016e-39
0.040605716 0.022083804 0.74800003 1.0806759e-38
0.042030495 0.022083804 0.74800003 1.4949325e-38
0.043571465 0.022142872 0.75 1.5861863e-38
0.045000006 0.022142865 0.75 1.678703e-38
0.046428595 0.02214285 0.75000006 1.6685145e-38
0.047984783 0.022201903 0.75200003 1.668795e-38
0.049417179 0.022201918 0.75199997 1.5482184e-38
0.051052373 0.022290483 0.755 1.4292988e-38
0.052490462 0.022290491 0.755 1.26256e-38
0.05428572 0.022438109 0.75999999 1.0967533e-38
0.055733357 0.022438101 0.75999999 1.041221e-38
-0.045256171 0.024482861 0.77899998 9.0355305e-39
-0.04366 0.024420001 0.77699995 9.0344543e-39
-0.042071413 0.02435714 0.77500004 9.036971e-39
-0.04059523 0.02435714 0.77500004 9.3146369e-39
-0.039018091 0.02429428 0.77300006 9.590865e-39
-0.037497144 0.024262868 0.77200001 9.8660184e-39
-0.035839982 0.024137139 0.76800001 1.0145484e-38
-0.034153324 0.023980007 0.76299995 1.1345457e-38
-0.032485712 0.023822851 0.75800002 1.2444608e-38
-0.030837135 0.023665726 0.75299996 9.8656765e-39
-0.029363791 0.023634292 0.75199997 7.2914253e-39
-0.027782843 0.023508579 0.74800003 6.1890519e-39
-0.026322857 0.023477152 0.74699998 5.0067483e-39
-0.024833333 0.023414284 0.74500006 7.9588344e-39
-0.023257129 0.023257151 0.73999995 1.0813986e-38
-0.021759035 0.023162872 0.73699999 1.33965e-38
-0.020327615 0.02313143 0.736 1.5870319e-38
-0.018797128 0.022974297 0.73099995 1.3936034e-38
-0.017333327 0.022879995 0.72800004 1.2002825e-38
-0.015902845 0.022817142 0.72599995 8.22609e-39
-0.014519989 0.022817135 0.72599995 4.3485304e-39
-0.013137115 0.022817157 0.72599995 4.4191797e-39
-0.011754276 0.022817157 0.72599995 4.546192e-39
-0.010371421 0.02281715 0.72599995 1.3858189e-38
-0.0089885667 0.02281715 0.72599995 2.3140031e-38
-0.0076057129 0.022817142 0.72600001 2.3325854e-38
-0.0062228385 0.022817157 0.72599995 2.3417675e-38
-0.0048533212 0.022880003 0.72800004 2.3417659e-38
-0.003471432 0.022911429 0.72899997 2.3414786e-38
-0.0020799933 0.022880003 0.72800004 2.3417655e-38
-0.00069429522 0.022911437 0.72899997 2.3411196e-38
0.00069428625 0.022911429 0.72899997 2.2682251e-38
0.0020885647 0.022974283 0.73100001 2.1841371e-38
0.0034809553 0.022974275 0.73100001 2.0372709e-38
0.0048733326 0.022974297 0.73100001 1.8797522e-38
0.0062485719 0.022911437 0.72900003 1.6494468e-38
0.007668565 0.023005724 0.73200005 1.4187438e-38
0.0090504913 0.02297429 0.73099995 1.1784267e-38
0.010485734 0.023068585 0.73399997 9.30435e-39
0.011916185 0.023131453 0.736 4.8679063e-39
0.013318077 0.023131438 0.73600006 3.8769444e-40
0.014720019 0.02313143 0.736 2.7612726e-40
0.016121913 0.023131423 0.73600006 1.0142879e-40
0.017547641 0.023162872 0.73699999 2.7613707e-40
0.01895144 0.023162864 0.73699999 4.1321069e-40
0.02035526 0.023162864 0.73699999 1.19282e-38
0.021818096 0.023225725 0.73900002 2.3415175e-38
0.023225728 0.02322571 0.73900002 2.341769e-38
0.024666695 0.023257151 0.73999995 2.3412291e-38
0.026076207 0.023257144 0.73999995 1.6971591e-38
0.027560009 0.023320004 0.74200004 1.0415047e-38
0.028973332 0.023320004 0.74200004 5.511901e-39
0.030427635 0.023351438 0.74299997 6.7583924e-40
0.031842861 0.023351431 0.74299997 3.4470569e-39
0.03334764 0.023414291 0.745 6.2100139e-39
0.034860004 0.023477145 0.74699998 6.9497201e-39
0.036331434 0.023508571 0.74800003 7.6847628e-39
0.037756193 0.023508564 0.74800003 7.1326736e-39
0.039180968 0.023508571 0.74800003 6.4894538e-39
0.040605742 0.023508571 0.74799997 1.1546492e-38
0.042142879 0.023571439 0.75 1.6601323e-38
0.043571446 0.023571432 0.75000006 1.834936e-38
0.045120008 0.023634277 0.75200003 2.000168e-38
0.046552401 0.0236343 0.75199997 2.027862e-38
0.048048597 0.023665719 0.75299996 2.0459386e-38
0.049614284 0.023728579 0.75500005 2.0278909e-38
0.051120009 0.023760006 0.75600004 1.9998023e-38
0.052838106 0.023885727 0.75999999 1.9724313e-38
0.054357156 0.023917153 0.76099998 1.9348356e-38
-0.045314278 0.026000008 0.77999997 9.3139138e-39
-0.043660004 0.025899999 0.77699995 9.0355361e-39
-0.042180005 0.025899991 0.77699995 8.7621862e-39
-0.040595219 0.025833331 0.77499998 9.1306072e-39
-0.039018087 0.025766678 0.773 9.4079171e-39
-0.037497133 0.025733337 0.77199996 9.682716e-39
-0.035933323 0.025666676 0.76999998 9.8660212e-39
-0.034153335 0.025433339 0.76299995 1.060536e-38
-0.032571431 0.02533333 0.76000005 1.1251451e-38
-0.030919055 0.025166668 0.755 9.5905329e-39
-0.029363809 0.025066674 0.75200003 7.8413607e-39
-0.027782852 0.024933331 0.74800003 6.8340471e-39
-0.02635809 0.024933338 0.74800003 5.8293189e-39
-0.024833323 0.024833336 0.745 8.6935183e-39
-0.023319991 0.02473335 0.74199998 1.1644092e-38
-0.021818083 0.024633341 0.73899996 1.329749e-38
-0.020327603 0.024533339 0.736 1.4951246e-38
-0.018822858 0.024400011 0.73200005 1.412114e-38
-0.017333332 0.024266668 0.72800004 1.3383227e-38
-0.015902847 0.0242 0.72600001 8.9622089e-39
-0.014519973 0.0242 0.72599995 4.5357887e-39
-0.013137134 0.024200015 0.72599995 3.4186736e-39
-0.01175428 0.0242 0.72599995 2.3295844e-39
-0.010371424 0.024200007 0.72600001 1.2189724e-38
-0.0089885499 0.024200007 0.72599995 2.1948322e-38
-0.0076056961 0.024200007 0.72599995 2.2683006e-38
-0.0062228404 0.024200015 0.72599995 2.341769e-38
-0.0048533157 0.024266668 0.72800004 2.341769e-38
-0.003471432 0.024300016 0.72899997 2.341769e-38
-0.0020799877 0.024266668 0.72800004 2.341769e-38
-0.00069428218 0.024300002 0.72899997 2.341769e-38
0.00069428625 0.024299994 0.72899997 2.3050348e-38
0.0020885712 0.024366662 0.73100001 2.2683006e-38
0.0034809627 0.024366669 0.73099995 2.1852899e-38
0.0048733372 0.024366677 0.73099995 2.1121798e-38
0.0062742857 0.024400003 0.73200005 2.0010082e-38
0.0076685809 0.024400003 0.73199999 1.8821921e-38
0.0090876389 0.024466693 0.73399997 1.7611518e-38
0.010485724 0.024466671 0.73399997 1.6330821e-38
0.011916192 0.024533339 0.736 1.4108091e-38
0.013318086 0.024533339 0.73600006 1.1816151e-38
0.01472 0.024533346 0.736 1.0606146e-38
0.016143816 0.024566665 0.73699999 9.4919152e-39
0.017547633 0.02456668 0.73699999 8.5688869e-39
0.018951431 0.024566673 0.73699999 7.7392061e-39
0.020355249 0.024566673 0.73699999 1.5313548e-38
0.021818105 0.024633348 0.73899996 2.2958504e-38
0.023319984 0.024733342 0.74200004 2.3142183e-38
0.024733333 0.024733335 0.74200004 2.3417684e-38
0.026146654 0.024733327 0.74200004 1.9086702e-38
0.027597157 0.024766684 0.74299997 1.474388e-38
0.029012384 0.024766684 0.74299997 7.5616896e-39
0.030509537 0.024833329 0.745 4.0606827e-40
0.03192858 0.024833336 0.74500006 3.1679631e-39
0.033347618 0.024833336 0.74500006 5.9302026e-39
0.03486 0.024900004 0.74699998 6.6706263e-39
0.036331441 0.024933331 0.74800003 7.4085389e-39
0.037756216 0.024933346 0.74799997 6.6727787e-39
0.039180975 0.024933331 0.74800003 6.0270604e-39
0.04060572 0.024933331 0.74799997 1.0993352e-38
0.042142879 0.025000021 0.75 1.5958511e-38
0.043571442 0.025000006 0.75 1.761221e-38
0.045120027 0.025066666 0.75200003 1.926561e-38
0.046614297 0.025100008 0.75299996 1.9449284e-38
0.048176173 0.025166661 0.755 1.963331e-38
0.049614288 0.025166675 0.75500005 1.9541827e-38
0.051119991 0.025200002 0.75600004 1.9542189e-38
0.052838128 0.025333345 0.75999999 1.9450356e-38
0.054357145 0.025366679 0.76099998 1.9453938e-38
-0.045314286 0.027485721 0.77999997 9.5883357e-39
-0.043660007 0.027379997 0.77699995 9.0312145e-39
-0.042071432 0.027309515 0.77500004 8.4845189e-39
-0.040595233 0.027309529 0.77500004 8.8543846e-39
-0.038967613 0.027203813 0.77199996 9.2224497e-39
-0.037497126 0.027203813 0.77199996 9.4064864e-39
-0.03583999 0.027062856 0.76800001 9.5905133e-39
-0.034153339 0.026886679 0.76299995 9.8660184e-39
-0.032485705 0.026710473 0.75800002 1.0050757e-38
-0.030919069 0.026604764 0.75500005 9.2199231e-39
-0.02940286 0.026534297 0.75299996 8.3941519e-39
-0.027857138 0.026428573 0.75000006 7.4761865e-39
-0.026428552 0.026428588 0.75 6.5697468e-39
-0.024999989 0.026428573 0.75 9.5257775e-39
-0.023131421 0.02593524 0.736 1.2375548e-38
-0.021729523 0.02593524 0.73600006 1.3197762e-38
-0.020327613 0.02593524 0.736 1.3936751e-38
-0.018797135 0.025759049 0.73099995 1.4305887e-38
-0.017285721 0.025582857 0.72600001 1.4669642e-38
-0.01590283 0.025582865 0.72599995 9.7029913e-39
-0.014519991 0.025582865 0.72599995 4.7173059e-39
-0.013137136 0.025582857 0.72599995 2.3894703e-39
-0.011754282 0.025582857 0.72599995 1.2229972e-40
-0.010371407 0.025582872 0.72599995 1.0439105e-38
-0.0089885537 0.025582865 0.72599995 2.0745848e-38
-0.007605698 0.025582872 0.72599995 2.2131993e-38
-0.0062399898 0.02565334 0.72800004 2.341769e-38
-0.0048533268 0.025653332 0.72800004 2.341769e-38
-0.0034714302 0.025688581 0.72899997 2.341769e-38
-0.0020799988 0.02565334 0.72800004 2.341769e-38
-0.00069428032 0.025688581 0.72899997 2.341769e-38
0.00069428625 0.025688581 0.72899997 2.341769e-38
0.0020885768 0.025759056 0.73099995 2.341769e-38
0.0034809469 0.025759041 0.73100001 2.341769e-38
0.0048733242 0.025759049 0.73100001 2.3417689e-38
0.0062743016 0.02579429 0.73199999 2.3417686e-38
0.0076685762 0.02579429 0.73200005 2.341659e-38
0.0090876538 0.025864772 0.73399997 2.3417647e-38
0.010485759 0.025864772 0.73399997 2.3321852e-38
0.011916203 0.025935248 0.736 2.3325787e-38
0.013318097 0.025935255 0.73600006 2.3224983e-38
0.01472001 0.025935248 0.736 2.1023803e-38
0.016143832 0.025970481 0.73699999 1.8800732e-38
0.017547632 0.025970489 0.73700005 1.6952539e-38
0.01895145 0.025970481 0.73699999 1.5123036e-38
0.020355247 0.025970489 0.73699999 1.8811197e-38
0.021818098 0.026040964 0.73899996 2.2403907e-38
0.023320006 0.026146673 0.74200004 2.2958513e-38
0.024733327 0.026146665 0.74200004 2.3417687e-38
0.026146675 0.02614668 0.74200004 2.1212915e-38
0.027597163 0.026181914 0.74299997 1.8983724e-38
0.029012388 0.026181914 0.74299997 9.5845494e-39
0.030509515 0.026252382 0.74500006 1.2551851e-40
0.031928577 0.026252389 0.74500006 2.8885021e-39
0.03334764 0.026252389 0.745 5.5596278e-39
0.034860019 0.026322871 0.74699998 6.3022081e-39
0.036282867 0.026322864 0.74699998 7.0394032e-39
0.037756227 0.026358098 0.74800003 6.3057954e-39
0.039180953 0.02635809 0.74800003 5.4792732e-39
0.04071429 0.026428573 0.75 1.0441257e-38
0.042142879 0.026428595 0.75 1.5311711e-38
0.043571439 0.026428588 0.75 1.6966846e-38
0.04518 0.026534289 0.75299996 1.852841e-38
0.046738088 0.026604764 0.75500005 1.8619888e-38
0.048176173 0.026604757 0.75500005 1.8712795e-38
0.049680032 0.026640013 0.75599998 1.8896105e-38
0.051120024 0.026640005 0.75599998 1.8988303e-38
0.052907635 0.026816204 0.76099998 1.926489e-38
0.054357152 0.026816204 0.76099992 1.9451072e-38
0.056100007 0.026957147 0.76500005 1.9727298e-38
-0.043772373 0.0289343 0.77900004 9.3106488e-39
-0.042179991 0.02886001 0.77699995 8.9426118e-39
-0.0407 0.028860018 0.77699995 9.1277387e-39
-0.039018098 0.028711431 0.77300006 9.4039655e-39
-0.037545711 0.028711438 0.773 9.5897916e-39
-0.035793323 0.028488576 0.76699996 9.8660198e-39
-0.034153335 0.028340004 0.76300001 1.0050054e-38
-0.032571431 0.028228581 0.76000005 1.0232259e-38
-0.030959982 0.028080009 0.75599998 9.4975428e-39
-0.029480981 0.028042853 0.75500005 8.671078e-39
-0.028042877 0.02804286 0.75500005 7.75493e-39
-0.026428552 0.027857155 0.75 6.845975e-39
-0.024999989 0.027857147 0.75 9.9824439e-39
-0.023131425 0.027337156 0.736 1.3113819e-38
-0.021729533 0.027337156 0.73600006 1.3476855e-38
-0.020327618 0.027337164 0.736 1.3842405e-38
-0.01879715 0.027151421 0.73100001 1.4305528e-38
-0.017333327 0.027039997 0.72800004 1.4674664e-38
-0.015902849 0.026965715 0.72599995 9.7926744e-39
-0.014519995 0.026965722 0.72599995 4.81237e-39
-0.013137138 0.026965715 0.72599995 2.4988823e-39
-0.011754265 0.026965737 0.72599995 1.1691594e-40
-0.010371411 0.02696573 0.72599995 8.5012252e-39
-0.0089885574 0.026965722 0.72599995 1.6891983e-38
-0.0076057017 0.026965722 0.72600001 2.0202013e-38
-0.006239986 0.027040005 0.72800004 2.341769e-38
-0.0048599988 0.027077161 0.72899997 2.341769e-38
-0.0034714153 0.027077153 0.72899997 2.3325854e-38
-0.0020799951 0.027039997 0.72800004 2.2681571e-38
-0.00069428218 0.027077161 0.72899997 2.2040158e-38
0.00069428625 0.027077153 0.72899997 2.2683006e-38
0.0020885749 0.027151436 0.73100001 2.3325854e-38
0.0034809525 0.027151428 0.73100001 2.3325854e-38
0.0048733428 0.027151443 0.73100001 2.341769e-38
0.0062742969 0.027188584 0.73199999 2.341769e-38
0.0076895375 0.027262859 0.73399997 2.341769e-38
0.0090876417 0.027262874 0.73399997 2.341769e-38
0.010514298 0.027337156 0.736 2.341769e-38
0.011916213 0.027337164 0.736 2.3325854e-38
0.013318105 0.027337149 0.736 2.3325854e-38
0.014740005 0.02737429 0.73699999 2.2222394e-38
0.016143823 0.027374305 0.73699999 2.1121803e-38
0.01754762 0.027374297 0.73699999 2.0194479e-38
0.019002873 0.02744858 0.73900002 1.9285091e-38
0.020410482 0.027448572 0.73900002 2.1024942e-38
0.021847621 0.027485721 0.73999995 2.2866317e-38
0.023257161 0.027485706 0.73999995 2.3142183e-38
0.024733318 0.027559996 0.74200004 2.341769e-38
0.026146667 0.027559996 0.74200004 2.2314588e-38
0.027597167 0.027597144 0.74299997 2.1209646e-38
0.029090475 0.027671434 0.745 1.318583e-38
0.030509537 0.027671441 0.745 5.2550136e-39
0.031928573 0.027671441 0.745 4.2516769e-39
0.033347618 0.027671427 0.74500006 3.2597902e-39
0.034860011 0.027745724 0.74699998 5.1040419e-39
0.036282886 0.027745724 0.74699998 6.947209e-39
0.037756201 0.027782857 0.74800003 6.3972722e-39
0.039180979 0.027782857 0.74799997 5.9380891e-39
0.040605735 0.027782865 0.74800003 1.0623845e-38
0.042142875 0.027857162 0.75 1.5399953e-38
0.04374573 0.027968578 0.75300002 1.7057242e-38
0.045299999 0.028042868 0.75500005 1.871064e-38
0.046738084 0.02804286 0.75500005 1.8711715e-38
0.048176173 0.028042853 0.75500005 1.8712431e-38
0.049680017 0.028080009 0.75599998 1.8803188e-38
0.051255263 0.028154299 0.75800002 1.8801399e-38
0.05290762 0.028265722 0.76099998 1.889611e-38
0.05450001 0.028340019 0.76299995 1.908266e-38
-0.045430474 0.030535243 0.78200006 9.8642079e-39
-0.043940946 0.030535236 0.78200006 9.5879686e-39
-0.04228856 0.030418098 0.77900004 9.3110398e-39
-0.040804762 0.030418091 0.77900004 9.4021704e-39
-0.039220002 0.030340008 0.77699995 9.495438e-39
-0.03764284 0.030261911 0.77500004 9.7745304e-39
-0.035793319 0.029949538 0.76699996 1.0050403e-38
-0.034153327 0.029793344 0.76300001 1.0235158e-38
-0.032571409 0.029676192 0.75999999 1.0418455e-38
-0.030959988 0.029520005 0.75599998 9.6830382e-39
-0.029480977 0.029480949 0.75500005 8.9469502e-39
-0.028042857 0.029480964 0.755 8.0268338e-39
-0.020327611 0.028739072 0.736 1.3752721e-38
-0.018797146 0.028543808 0.73099995 1.4214769e-38
-0.017285705 0.028348573 0.72599995 1.4671794e-38
-0.015902851 0.02834858 0.72599995 9.7962618e-39
-0.014519995 0.02834858 0.72600001 4.9074397e-39
-0.013137119 0.028348587 0.72599995 2.4924363e-39
-0.01173809 0.028309524 0.72499996 1.1835367e-40
-0.010371426 0.02834858 0.72599995 6.5568913e-39
-0.0089885704 0.028348573 0.72599995 1.3017312e-38
-0.0076056961 0.028348587 0.72599995 1.8274902e-38
-0.0062399842 0.02842667 0.72799999 2.341769e-38
-0.0048599858 0.028465725 0.72899997 2.3325854e-38
-0.0034714171 0.028465725 0.72899997 2.3232221e-38
-0.0020799933 0.02842667 0.72800004 2.1942215e-38
-0.00069428218 0.028465725 0.72899997 2.0652215e-38
0.00069430115 0.028465718 0.72899997 2.1948318e-38
0.0020885842 0.028543815 0.73099995 2.3137517e-38
0.0034809608 0.028543815 0.73099995 2.3325853e-38
0.0048733316 0.028543815 0.73100001 2.341769e-38
0.0062742783 0.028582856 0.73200005 2.341769e-38
0.0076895468 0.028660975 0.73399997 2.341769e-38
0.0090876315 0.028660968 0.73399997 2.341769e-38
0.010514279 0.02873905 0.736 2.341769e-38
0.0119162 0.028739057 0.73600006 2.341769e-38
0.013336199 0.028778106 0.73699999 2.341769e-38
0.014740026 0.028778106 0.73699999 2.341769e-38
0.016143844 0.028778121 0.73699999 2.341769e-38
0.017595258 0.028856188 0.73900002 2.341769e-38
0.019002886 0.028856203 0.73899996 2.3416248e-38
0.020410491 0.028856196 0.73899996 2.3320101e-38
0.021847622 0.028895244 0.73999995 2.323186e-38
0.023319991 0.028973341 0.74200004 2.3325854e-38
0.02473334 0.028973326 0.74200004 2.341769e-38
0.026181916 0.029012397 0.74299997 2.341769e-38
0.02759717 0.029012397 0.74299997 2.3320084e-38
0.0290905 0.029090472 0.745 1.6877579e-38
0.030591438 0.029168591 0.74699998 1.0412509e-38
0.031928577 0.029090479 0.74500006 5.6029896e-39
0.033437155 0.029168598 0.74699998 8.6164862e-40
0.034860004 0.029168583 0.74699998 3.8147576e-39
0.036282878 0.029168576 0.74699998 6.7606681e-39
0.037756208 0.029207632 0.74800003 6.5816607e-39
0.039180983 0.029207624 0.74800003 6.3979869e-39
0.04071429 0.029285721 0.75 1.0899e-38
0.042255241 0.029363818 0.75200003 1.5402456e-38
0.043745734 0.029402874 0.75299996 1.7151208e-38
0.045299992 0.029480956 0.755 1.8895742e-38
0.04673811 0.029480971 0.755 1.8803566e-38
0.048240006 0.02952002 0.75599998 1.8712076e-38
0.049680024 0.029520005 0.75599998 1.8710272e-38
-0.045546677 0.032106683 0.78399998 9.5887183e-39
-0.043940939 0.032024771 0.78200006 9.4046759e-39
-0.042342842 0.031942867 0.77999997 9.2195742e-39
-0.040857125 0.031942859 0.77999997 9.3103363e-39
-0.039220005 0.031820007 0.77700001 9.4010886e-39
-0.037642848 0.031738088 0.77500004 9.6798153e-39
-0.035793338 0.031410486 0.76699996 1.004968e-38
-0.034153331 0.031246662 0.76300001 1.0511738e-38
-0.032614276 0.031164788 0.76099992 1.0972711e-38
-0.031041885 0.031041898 0.75800002 9.9596504e-39
-0.029519984 0.030960009 0.75599998 8.9476761e-39
-0.028079975 0.030960009 0.75599998 8.030047e-39
-0.018797157 0.02993618 0.73100001 1.4397722e-38
-0.017285708 0.02973143 0.72599995 1.4766858e-38
-0.015902834 0.029731445 0.72599995 1.043911e-38
-0.014519978 0.02973143 0.72599995 6.1095576e-39
-0.013137123 0.029731423 0.72599995 3.2472205e-39
-0.011754284 0.029731438 0.72599995 3.9852648e-40
-0.010371428 0.02973143 0.72600001 4.1709565e-39
-0.0089885537 0.029731438 0.72599995 7.865194e-39
-0.0076266564 0.029813342 0.72799999 1.5600552e-38
-0.0062485542 0.029854305 0.72899997 2.3234019e-38
-0.0048599858 0.029854298 0.72899997 2.3234019e-38
-0.0034809464 0.029936187 0.73099995 2.3233293e-38
-0.0020828506 0.029854305 0.72899997 1.7982158e-38
-0.00069426914 0.029854298 0.72899997 1.2820722e-38
0.00069617684 0.02993618 0.73100001 1.2177519e-38
0.0020885684 0.029936194 0.73100001 1.1644087e-38
0.0034809459 0.029936187 0.73100001 1.37581e-38
0.0048733363 0.029936202 0.73100001 1.5887178e-38
0.0062742969 0.02997715 0.73199999 1.7074225e-38
0.0076895626 0.030059069 0.73399997 1.8366738e-38
0.0090876464 0.030059062 0.73399997 1.9833236e-38
0.010514286 0.030140966 0.736 2.1305474e-38
0.011916181 0.030140966 0.73600006 2.2131634e-38
0.013336218 0.030181915 0.73699999 2.2958513e-38
0.014740015 0.030181915 0.73699999 2.3142183e-38
0.016143814 0.030181907 0.73699999 2.3325854e-38
0.017595271 0.030263811 0.73899996 2.341769e-38
0.019002875 0.030263819 0.73899996 2.3417677e-38
0.020410484 0.030263811 0.73900002 2.2953106e-38
0.021847643 0.030304775 0.73999995 2.2405335e-38
0.023319984 0.030386671 0.74200004 2.2958154e-38
0.024766697 0.030427635 0.74299997 2.341769e-38
0.026181901 0.03042762 0.74300003 2.341769e-38
0.027671443 0.030509517 0.74500006 2.3417676e-38
0.029168583 0.030591436 0.74699998 1.9268922e-38
0.030591456 0.030591443 0.74699998 1.5199793e-38
0.032014281 0.030591436 0.74699998 8.1133668e-39
0.033437151 0.030591428 0.74699998 1.0539124e-39
0.034860026 0.030591451 0.74699998 3.9065931e-39
0.03633146 0.030632377 0.74800003 6.7599507e-39
0.037756216 0.030632377 0.74800003 6.7628205e-39
0.039180961 0.030632377 0.74800003 6.8568084e-39
0.04071429 0.030714288 0.75 1.0073562e-38
0.042311434 0.030837148 0.75299996 1.3291668e-38
0.043745711 0.030837141 0.75300002 1.4760593e-38
0.045299996 0.030919053 0.755 1.6326137e-38
0.046800029 0.030960009 0.75599998 1.6782123e-38
0.048240021 0.030960009 0.75599998 1.7244149e-38
0.049680009 0.030960001 0.75599998 1.770151e-38
-0.04554667 0.033600003 0.78399998 9.3135691e-39
-0.043940943 0.033514291 0.78200006 9.2217224e-39
-0.042342864 0.033428572 0.77999997 9.128452e-39
-0.040857147 0.033428565 0.78000003 9.2181351e-39
-0.039219987 0.03330002 0.77699995 9.2177693e-39
-0.03774 0.033300005 0.77699995 9.5861805e-39
-0.035933331 0.033 0.76999998 9.9567581e-39
-0.034242835 0.032785721 0.76499999 1.0789742e-38
-0.03261428 0.032614306 0.76099998 1.1523001e-38
-0.031041881 0.032485716 0.75799996 1.0235162e-38
-0.029519986 0.032400012 0.75599998 8.9455251e-39
-0.028079977 0.032400012 0.75599998 8.1175749e-39
-0.018797137 0.031328566 0.73100001 1.4675022e-38
-0.017333332 0.031199999 0.72800004 1.48569e-38
-0.015902836 0.031114295 0.72599995 1.1084111e-38
-0.014519982 0.031114288 0.72599995 7.212664e-39
-0.013137141 0.031114288 0.72599995 3.9887274e-39
-0.011754267 0.031114303 0.72599995 6.7618116e-40
-0.010371411 0.031114295 0.72599995 1.6791858e-39
-0.0089885574 0.031114303 0.72599995 2.7109184e-39
-0.0076371431 0.031242855 0.72900003 1.2935529e-38
-0.0062485766 0.031242862 0.72900003 2.3047119e-38
-0.0048733167 0.031328581 0.73099995 2.3142183e-38
-0.0034809613 0.031328574 0.73100001 2.322719e-38
-0.002082871 0.031242855 0.72900003 1.4116091e-38
-0.00069619325 0.031328574 0.73100001 4.907776e-39
0.00069619919 0.031328574 0.73100001 2.4805799e-39
0.0020885759 0.031328581 0.73099995 1.2336611e-40
0.0034809664 0.031328581 0.73099995 4.1749081e-39
0.0048733437 0.031328589 0.73099995 8.2246397e-39
0.0062742783 0.031371444 0.73200005 1.0808232e-38
0.0076685734 0.031371437 0.73200005 1.3284206e-38
0.0090876548 0.031457156 0.73399997 1.6242315e-38
0.010514296 0.031542867 0.736 1.9085991e-38
0.011916189 0.03154286 0.73600006 2.0753382e-38
0.013336189 0.031585716 0.73699999 2.2401397e-38
0.014740036 0.031585731 0.73699999 2.2866673e-38
0.016187625 0.031671435 0.73899996 2.3231146e-38
0.017595259 0.031671427 0.73900002 2.3325854e-38
0.019002868 0.031671435 0.73900002 2.3413729e-38
0.020438103 0.031714305 0.73999995 2.2485312e-38
0.021847615 0.031714298 0.73999995 2.1574507e-38
0.023320006 0.031800009 0.74200004 2.2499335e-38
0.024733329 0.031800002 0.74200004 2.341769e-38
0.026181905 0.031842858 0.74299997 2.341769e-38
0.027671438 0.031928577 0.74500006 2.3417683e-38
0.029168582 0.032014295 0.74699998 2.1672802e-38
0.030591452 0.032014303 0.74699998 1.9898483e-38
0.032014299 0.032014303 0.74699998 1.0596884e-38
0.033437148 0.032014303 0.74699998 1.2347191e-39
0.034860019 0.032014303 0.74699998 3.9980685e-39
0.036331438 0.032057151 0.74800003 6.665604e-39
0.037756193 0.032057144 0.74800003 6.9450566e-39
0.039285749 0.032142878 0.75 7.2234315e-39
0.040822856 0.032228574 0.75200003 9.154128e-39
0.042311434 0.032271445 0.75299996 1.1081896e-38
0.043861907 0.032357149 0.755 1.2457215e-38
0.045360018 0.032400012 0.75599998 1.3743645e-38
0.04680001 0.032400005 0.75599998 1.4754569e-38
0.048240028 0.032400005 0.75599998 1.5676144e-38
0.049680021 0.032399997 0.75599998 1.6783184e-38
-0.045546677 0.035093337 0.78399998 9.4061207e-39
-0.043940943 0.035003796 0.78200006 9.2220811e-39
-0.042342849 0.034914292 0.77999997 9.129524e-39
-0.040857133 0.0349143 0.77999997 9.0351731e-39
-0.039219994 0.034780018 0.77699995 8.9411796e-39
-0.037642844 0.034690477 0.77500004 9.2166805e-39
-0.035933331 0.034466676 0.76999998 9.5854602e-39
-0.034242857 0.034242868 0.76500005 1.0142214e-38
-0.032699984 0.034153335 0.76299995 1.0696118e-38
-0.0310419 0.033929512 0.75800002 9.5887323e-39
-0.029480966 0.033795245 0.75500005 8.4816855e-39
-0.028042866 0.033795238 0.75500005 7.5651242e-39
-0.018822845 0.032765731 0.73199999 1.421441e-38
-0.017333329 0.032586664 0.72800004 1.4676816e-38
-0.015946662 0.032586657 0.72800004 1.0990123e-38
-0.014519997 0.032497145 0.72599995 7.3001975e-39
-0.013137124 0.032497168 0.72599995 4.9092418e-39
-0.011754269 0.032497153 0.72599995 2.4232038e-39
-0.010371415 0.032497145 0.72599995 1.957188e-39
-0.0089885611 0.032497138 0.72599995 1.4044079e-39
-0.0076371413 0.032631435 0.72900003 1.1635123e-38
-0.0062657241 0.032720938 0.73100001 2.1764651e-38
-0.0048733335 0.032720953 0.73100001 2.2591171e-38
-0.0034809557 0.032720946 0.73100001 2.3325838e-38
-0.0020828561 0.032631435 0.72899997 1.7060917e-38
-0.00069618766 0.032720953 0.73099995 1.0784864e-38
0.00069620291 0.032720946 0.73099995 5.4368503e-39
0.00208856 0.032720938 0.73100001 1.0109668e-40
0.0034809515 0.032720953 0.73100001 2.1329879e-39
0.0048733279 0.032720946 0.73100001 4.1408159e-39
0.0062742941 0.032765724 0.73199999 5.4422985e-39
0.0076685892 0.032765724 0.73199999 6.7089868e-39
0.0090876436 0.03285525 0.73399997 8.1170157e-39
0.010514305 0.032944776 0.736 9.5935653e-39
0.011916197 0.032944769 0.736 1.043193e-38
0.01333621 0.032989524 0.73699999 1.1271721e-38
0.014780008 0.033079043 0.73899996 1.1546149e-38
0.016187616 0.033079058 0.73900002 1.1834216e-38
0.017619053 0.033123814 0.73999995 1.4403462e-38
0.019028593 0.033123821 0.73999995 1.6987033e-38
0.020438105 0.033123821 0.73999995 1.8443467e-38
0.021906653 0.033213347 0.74200004 1.9918594e-38
0.023320002 0.033213332 0.74200004 2.1027097e-38
0.024766682 0.033258103 0.74300003 2.2131993e-38
0.0262524 0.033347629 0.745 2.0657962e-38
0.027671436 0.033347644 0.745 1.9285093e-38
0.029168596 0.033437148 0.74699998 1.7343633e-38
0.030591419 0.033437148 0.74699998 1.5410037e-38
0.032014292 0.033437163 0.74699998 8.0326758e-39
0.033481915 0.033481903 0.74800003 6.7689582e-40
0.034906689 0.033481911 0.74799997 2.7062717e-39
0.036331445 0.033481911 0.74800003 4.6427106e-39
0.037857164 0.03357143 0.75 5.2887891e-39
0.039285731 0.033571437 0.75000006 5.9373745e-39
0.040822875 0.033660971 0.75199997 8.2318241e-39
0.042423796 0.033795238 0.75500005 1.052588e-38
0.043861911 0.033795245 0.75500005 1.1348774e-38
0.045360032 0.033840008 0.75599998 1.226246e-38
0.046800021 0.033840001 0.75599998 1.2726296e-38
0.048240013 0.033840001 0.75599998 1.3279108e-38
0.04981143 0.033929534 0.75800002 1.3741878e-38
0.05125526 0.033929534 0.75800002 1.4294669e-38
-0.045662869 0.036680005 0.78600001 9.408636e-39
-0.044053335 0.03658668 0.78399998 9.3142824e-39
-0.042451415 0.036493346 0.78200006 9.1288051e-39
-0.040961888 0.036493339 0.78200006 8.9433292e-39
-0.039320938 0.036353335 0.77899998 8.6649459e-39
-0.037642859 0.036166668 0.77500004 8.9372182e-39
-0.03602666 0.036026664 0.77200001 9.1252052e-39
-0.034242846 0.035700001 0.76500005 9.4979407e-39
-0.032699987 0.035606675 0.76299995 9.7748962e-39
-0.031123804 0.035466664 0.76000005 8.9422937e-39
-0.029715234 0.035513341 0.76099992 8.021059e-39
-0.028265711 0.035513341 0.76099998 7.0047603e-39
-0.018822866 0.034160011 0.73200005 1.3758102e-38
-0.017357145 0.034019999 0.72899997 1.4490275e-38
-0.015968576 0.034020014 0.72899997 1.0991199e-38
-0.014559997 0.033973336 0.72800004 7.3988503e-39
-0.013173334 0.033973344 0.72800004 5.8326232e-39
-0.011754271 0.03388001 0.72599995 4.1698817e-39
-0.010371417 0.033880018 0.72600001 2.1383632e-39
-0.0089885555 0.033880018 0.72599995 1.2409479e-40
-0.0076371431 0.034020014 0.72899997 1.0343319e-38
-0.0062657166 0.034113333 0.73099995 2.0468188e-38
-0.004873326 0.03411334 0.73099995 2.1948322e-38
-0.0034809483 0.03411334 0.73099995 2.3416964e-38
-0.0020828561 0.034019999 0.72899997 2.0109084e-38
-0.00069428777 0.034020007 0.72899997 1.6678487e-38
0.00069618988 0.034113325 0.73100001 8.3802497e-39
0.0020885675 0.03411334 0.73099995 1.0612033e-40
0.0034809581 0.034113333 0.73100001 1.1548101e-40
0.0048733354 0.034113348 0.73099995 1.1225241e-40
0.0062657259 0.03411334 0.73099995 1.1045875e-40
0.0076685846 0.034160003 0.73199999 1.0902522e-40
0.0090628536 0.034160011 0.73199999 1.0687563e-40
0.010514292 0.034346677 0.73600006 1.1692154e-40
0.011932382 0.03439334 0.73699999 1.086721e-40
0.0133362 0.034393355 0.73699999 1.2589125e-40
0.01478002 0.034486681 0.73899996 2.116269e-40
0.016187629 0.034486689 0.73899996 3.1781589e-40
0.017619057 0.034533352 0.73999995 5.4670651e-39
0.019028569 0.034533344 0.73999995 1.0525182e-38
0.020493325 0.034626663 0.74200004 1.4383339e-38
0.021906672 0.03462667 0.74200004 1.8257663e-38
0.023319995 0.034626663 0.74200004 1.95588e-38
0.024766687 0.034673341 0.74299997 2.0742964e-38
0.026252374 0.034766659 0.74500006 1.7889238e-38
0.027671436 0.034766674 0.74500006 1.5035886e-38
0.029207611 0.03490667 0.74800003 1.2913988e-38
0.030632386 0.03490667 0.74800003 1.0793141e-38
0.032057162 0.03490667 0.74799997 5.4465725e-39
0.033481922 0.034906678 0.74800003 1.2838276e-40
0.034906697 0.03490667 0.74800003 1.4158916e-39
0.036331449 0.034906663 0.74800003 2.6169375e-39
0.037958097 0.035093345 0.75199997 3.630009e-39
0.039285727 0.035000004 0.75 4.5562491e-39
0.040877145 0.03514 0.75300002 7.2183967e-39
0.042423796 0.035233334 0.75500005 9.8790743e-39
0.043861885 0.035233341 0.75500005 1.033283e-38
0.045360014 0.035280012 0.75599998 1.0701247e-38
0.046800006 0.035280012 0.75599998 1.0793081e-38
0.048240028 0.035280012 0.75599998 1.0794873e-38
0.049811434 0.035373338 0.75799996 1.0702679e-38
0.051255263 0.035373338 0.75799996 1.0614067e-38
-0.045662854 0.038177144 0.78599995 9.1363623e-39
-0.044165712 0.038177144 0.78599995 9.0398577e-39
-0.042560011 0.038079999 0.78399998 9.0355347e-39
-0.040961903 0.037982862 0.78200006 8.5741852e-39
-0.039320935 0.037837151 0.77899998 8.2054012e-39
-0.037740007 0.037740014 0.77699995 8.4794644e-39
-0.036166664 0.037642863 0.77500004 8.755352e-39
-0.03433238 0.037254296 0.76699996 9.2217252e-39
-0.032785702 0.037157148 0.76500005 9.6873683e-39
-0.031164763 0.036962859 0.76099998 8.9455181e-39
-0.029715234 0.036962874 0.76099998 8.2987039e-39
-0.028154261 0.036817156 0.75799996 6.9197169e-39
-0.026710479 0.036817141 0.75800002 5.645973e-39
-0.023257146 0.03594286 0.74000001 1.5690235e-38
-0.021847602 0.035942867 0.73999995 1.5221729e-38
-0.020355219 0.035797164 0.73699999 1.4758248e-38
-0.018874252 0.035651438 0.73399997 1.4121498e-38
-0.01740475 0.035505727 0.73099995 1.3483672e-38
-0.015968563 0.035408579 0.72899997 9.9806502e-39
-0.014579996 0.035408579 0.72899997 6.5726924e-39
-0.01319143 0.035408586 0.72899997 5.7411492e-39
-0.011754274 0.03526286 0.72599995 4.9999969e-39
-0.010371415 0.035262868 0.72599995 2.5107415e-39
-0.0090257116 0.035408579 0.72899997 1.1046576e-40
-0.0076580886 0.035505719 0.73099995 8.3125263e-39
-0.0062657185 0.035505712 0.73100001 1.6521051e-38
-0.0048733409 0.035505719 0.73100001 1.9925789e-38
-0.0034809501 0.035505719 0.73100001 2.341769e-38
-0.0020828561 0.035408579 0.72899997 2.1667435e-38
-0.00069618208 0.035505727 0.73100001 2.0001075e-38
0.00069619546 0.035505719 0.73099995 1.1243293e-38
0.0020885861 0.035505712 0.73099995 2.5720497e-39
0.0034857162 0.03555429 0.73199999 2.0411608e-39
0.0048800111 0.03555429 0.73199999 1.5005482e-39
0.0062742913 0.035554297 0.73199999 1.8650176e-39
0.0076685818 0.035554282 0.73200005 2.2345133e-39
0.009062849 0.035554297 0.73200005 1.7710311e-39
0.010514273 0.035748586 0.73600006 1.3118494e-39
0.011916188 0.035748586 0.736 8.5123277e-40
0.013372405 0.035894297 0.73899996 4.8245725e-40
0.014780012 0.03589429 0.73899996 3.9062176e-40
0.016187618 0.035894297 0.73900002 1.9619159e-40
0.017619057 0.035942867 0.74000001 3.0585203e-39
0.019028589 0.035942867 0.73999995 5.9061395e-39
0.020438101 0.035942867 0.73999995 1.0978257e-38
0.021906668 0.036040008 0.74200004 1.6047872e-38
0.023319988 0.036040008 0.74200004 1.7704864e-38
0.024766691 0.036088578 0.74299997 1.9351067e-38
0.026181916 0.036088593 0.74299997 1.8339421e-38
0.02774574 0.036282882 0.74699998 1.7401704e-38
0.029168589 0.036282867 0.74699998 1.6398698e-38
0.030632393 0.036331423 0.74800003 1.5463111e-38
0.03205717 0.03633143 0.74800003 1.26266e-38
0.033481922 0.03633143 0.74800003 9.6882315e-39
0.034906674 0.03633143 0.74800003 9.6882399e-39
0.036428574 0.036428571 0.75 9.6868246e-39
0.037958119 0.036525719 0.75199997 1.0617037e-38
0.039442871 0.036574289 0.75299996 1.1541482e-38
0.040877149 0.036574297 0.75299996 1.2274363e-38
0.042423796 0.036671437 0.75500005 1.3092588e-38
0.043861885 0.03667143 0.75500005 1.1988725e-38
0.045299973 0.036671422 0.75500005 1.097782e-38
0.046800017 0.036720008 0.75599998 1.0885628e-38
0.04824001 0.036720008 0.75599998 1.0884545e-38
0.049680028 0.036720015 0.75599998 1.0884537e-38
0.051255245 0.036817148 0.75800002 1.097566e-38
0.052699074 0.036817141 0.75800002 1.1712861e-38
-0.045662843 0.039674301 0.78599995 8.7618232e-39
-0.04405332 0.039573349 0.78399998 8.8572517e-39
-0.042560007 0.039573334 0.78399998 8.8518539e-39
-0.040961884 0.039472394 0.78200001 8.2958032e-39
-0.039371423 0.039371431 0.77999997 7.6515212e-39
-0.037740011 0.039220005 0.77699995 8.0199408e-39
-0.036166664 0.03911905 0.77500004 8.3887233e-39
-0.034332369 0.038715251 0.76699996 8.9462005e-39
-0.032785706 0.038614288 0.76500005 9.4986568e-39
-0.031164756 0.038412392 0.76099998 9.036978e-39
-0.029715233 0.038412396 0.76099998 8.4812805e-39
-0.02804287 0.038109533 0.755 6.8206886e-39
-0.026604766 0.03810953 0.755 5.1867858e-39
-0.023257127 0.037352391 0.73999995 1.6787956e-38
-0.021847615 0.037352398 0.73999995 1.6693968e-38
-0.020355215 0.037200972 0.73699999 1.6507069e-38
-0.018874252 0.037049539 0.73399997 1.4485612e-38
-0.017404765 0.036898099 0.73100001 1.2464872e-38
-0.016012385 0.036898099 0.73100001 9.0579891e-39
-0.014579998 0.036797158 0.72899997 5.6557709e-39
-0.01319143 0.036797158 0.72899997 5.743303e-39
-0.011802847 0.036797144 0.72899997 5.73935e-39
-0.01041428 0.036797144 0.72899997 2.9778209e-39
-0.0090257116 0.036797151 0.72899997 1.230242e-40
-0.0076581016 0.036898091 0.73100001 6.3664002e-39
-0.006265711 0.036898084 0.73100001 1.2556338e-38
-0.0048799943 0.036948584 0.73199999 1.7999396e-38
-0.003485698 0.036948577 0.73199999 2.3325854e-38
-0.002088567 0.036898106 0.73099995 2.3325854e-38
-0.00069619511 0.036898091 0.73100001 2.3219632e-38
0.00069715473 0.036948569 0.73199999 1.4111021e-38
0.0020914359 0.036948584 0.73199999 4.98633e-39
0.0034952743 0.037049547 0.73399997 3.8846894e-39
0.0048933588 0.037049524 0.73399997 2.7862522e-39
0.0062914491 0.037049532 0.73399997 3.5230913e-39
0.0077104745 0.037150487 0.73600006 4.2559761e-39
0.0091123888 0.037150495 0.736 3.3383344e-39
0.010528574 0.03720095 0.73699999 2.4181801e-39
0.011964789 0.037301913 0.73899996 1.6852842e-39
0.013390467 0.037352383 0.73999995 8.5481589e-40
0.014800007 0.037352391 0.73999995 4.8782983e-40
0.016209539 0.037352398 0.73999995 1.1295727e-40
0.017619049 0.037352391 0.73999995 6.6433178e-40
0.019079993 0.037453331 0.74200004 1.2246592e-39
0.020493342 0.037453324 0.74200004 7.575285e-39
0.021906661 0.037453339 0.74200004 1.3833384e-38
0.023351442 0.037503816 0.74299997 1.5862027e-38
0.024766695 0.037503824 0.74299997 1.7884911e-38
0.026322864 0.037705716 0.74699998 1.8807562e-38
0.027745737 0.037705731 0.74699998 1.9719824e-38
0.029207641 0.037756197 0.74800003 1.9998923e-38
0.030632397 0.037756197 0.74800003 2.017648e-38
0.032142859 0.03785716 0.75 1.972482e-38
0.033481903 0.037756186 0.74800003 1.9253797e-38
0.035000008 0.03785716 0.75 1.7962354e-38
0.036525741 0.0379581 0.75200003 1.6682073e-38
0.037958119 0.037958093 0.75200003 1.760979e-38
0.039442878 0.038008586 0.75299996 1.843487e-38
0.04098573 0.03810953 0.755 1.7336786e-38
0.042423788 0.038109541 0.755 1.6224319e-38
0.043861907 0.038109537 0.755 1.3734678e-38
0.04536001 0.038160011 0.75599998 1.116221e-38
0.046923842 0.038260967 0.75799996 1.1070018e-38
0.04836762 0.038260955 0.75800002 1.0885977e-38
0.049811419 0.038260952 0.75800002 1.1066769e-38
0.051255252 0.038260948 0.75800002 1.1250805e-38
-0.045662846 0.041171439 0.78599995 7.4700068e-39
-0.044165708 0.041171428 0.78600001 6.9186491e-39
-0.04256 0.041066676 0.78400004 6.3712109e-39
-0.040961884 0.040961903 0.78200006 6.1785589e-39
-0.039371412 0.040857147 0.77999997 5.9927454e-39
-0.037740003 0.040700015 0.77699995 6.9132625e-39
-0.036166653 0.040595241 0.77500004 7.8326853e-39
-0.034377128 0.040228575 0.76799995 8.3905058e-39
-0.032785691 0.040071435 0.76499999 9.038745e-39
-0.031164756 0.039861921 0.76099998 8.7610946e-39
-0.029715227 0.039861925 0.76099998 8.4823385e-39
-0.027968552 0.039442863 0.75299996 6.6430964e-39
-0.026534276 0.03944286 0.75299996 4.9048123e-39
-0.025099995 0.039442874 0.75299996 1.0806452e-38
-0.02325714 0.038761906 0.73999995 1.6606438e-38
-0.021847613 0.03876191 0.73999995 1.6970551e-38
-0.020355232 0.038604766 0.73699999 1.7334665e-38
-0.018925717 0.038552392 0.73600006 1.4761118e-38
-0.017428575 0.038342856 0.73200005 1.2280482e-38
-0.01601238 0.038290478 0.73099995 9.1516168e-39
-0.014619987 0.038290486 0.73099995 6.0238304e-39
-0.013227632 0.038290471 0.73100001 6.0223968e-39
-0.01183524 0.038290478 0.73100001 6.1138708e-39
-0.010442864 0.038290478 0.73100001 4.0845188e-39
-0.0090504717 0.038290486 0.73100001 2.1491476e-39
-0.0076580811 0.038290478 0.73099995 4.633001e-39
-0.0062657036 0.038290478 0.73099995 7.134096e-39
-0.004879998 0.038342848 0.73200005 1.266074e-38
-0.0034857166 0.038342863 0.73199999 1.8183067e-38
-0.0020885651 0.038290486 0.73100001 1.7623803e-38
-0.00069712457 0.038342878 0.73199999 1.7073122e-38
0.0006971361 0.038342863 0.73200005 9.7847277e-39
0.0020914304 0.038342863 0.73200005 2.5910849e-39
0.0034952622 0.038447637 0.73399997 2.0472648e-39
0.0049066627 0.038552396 0.73600006 1.5016398e-39
0.0063085891 0.038552392 0.736 1.8650414e-39
0.0077104839 0.038552396 0.736 2.2345259e-39
0.0091123981 0.038552396 0.736 2.0476166e-39
0.010528592 0.038604777 0.73699999 1.8678846e-39
0.01193239 0.038604766 0.73699999 3.0595853e-39
0.013372406 0.038709536 0.73899996 4.2537998e-39
0.014800028 0.038761921 0.73999995 5.0803123e-39
0.016209539 0.038761914 0.73999995 5.9911381e-39
0.017666664 0.038866673 0.74200004 7.1017764e-39
0.019105714 0.038919058 0.74299997 8.2016233e-39
0.020520967 0.03891905 0.74299997 1.1893669e-38
0.021906653 0.038866673 0.74200004 1.5664681e-38
0.023351444 0.038919058 0.74299997 1.7516114e-38
0.024766698 0.038919058 0.74299997 1.9447175e-38
0.026322881 0.039128587 0.74699998 2.0189037e-38
0.027745731 0.039128587 0.74699998 2.101735e-38
0.029207623 0.039180961 0.74800003 2.0282307e-38
0.030714301 0.039285712 0.75000006 1.9641235e-38
0.032142889 0.039285727 0.75 1.9356742e-38
0.033571426 0.039285731 0.75 1.8987226e-38
0.035093341 0.039390475 0.75200003 1.8340409e-38
0.036525734 0.039390497 0.75199997 1.7704427e-38
0.037958108 0.039390486 0.75199997 1.8069308e-38
0.039442882 0.039442867 0.75299996 1.8343022e-38
0.040985707 0.039547641 0.755 1.7336419e-38
0.042423792 0.039547637 0.755 1.632512e-38
0.043919999 0.039600011 0.75599998 1.3923016e-38
0.045360018 0.039600004 0.75600004 1.162139e-38
0.046800014 0.039600015 0.75599998 1.1622825e-38
