# .PCD v0.7 - Point Cloud Data file format
VERSION 0.7
FIELDS x y z rgb
SIZE 4 4 4 4
TYPE F F F F
COUNT 1 1 1 1
WIDTH 951
HEIGHT 1
VIEWPOINT 0 0 0 1 0 0 0
POINTS 951
DATA ascii
0.048037142 -0.077277161 0.73100007 5.4394609e-39
0.049294282 -0.077065744 0.72900003 7.2826532e-39
0.050682854 -0.077065714 0.72900003 7.6514568e-39
0.052071426 -0.077065744 0.72900003 7.9269801e-39
-0.030263821 -0.076715283 0.73900008 1.5605988e-38
-0.028778106 -0.076507635 0.73700005 1.7630301e-38
-0.02737429 -0.076507635 0.73700011 1.7169673e-38
-0.026040951 -0.076715283 0.73900008 1.6708333e-38
-0.024566671 -0.07650765 0.73700011 1.6523935e-38
-0.023162868 -0.076507635 0.73700005 1.6430687e-38
-0.021759052 -0.07650765 0.73700011 1.6431425e-38
-0.020410482 -0.076715253 0.73900002 1.6522527e-38
-0.019002857 -0.076715268 0.73900008 1.6339556e-38
-0.017595245 -0.076715283 0.73900008 1.6155162e-38
-0.016143816 -0.07650765 0.73700011 1.5971486e-38
-0.014740011 -0.076507635 0.73700005 1.5880009e-38
-0.013336197 -0.07650765 0.73700011 1.587965e-38
-0.011932392 -0.076507621 0.73700005 1.5880726e-38
-0.010528577 -0.07650765 0.73700011 1.5881085e-38
-0.0091247745 -0.07650765 0.73700005 1.5881444e-38
-0.0077209594 -0.076507635 0.73700011 1.5972921e-38
-0.0063171554 -0.076507635 0.73700005 1.5972923e-38
-0.0049133408 -0.076507635 0.73700011 1.5973285e-38
-0.0035047766 -0.076403834 0.73600012 1.6065481e-38
-0.0020971673 -0.076196201 0.73400003 1.61566e-38
-0.00069906114 -0.076196201 0.73400003 1.6340627e-38
0.00069903006 -0.076196201 0.73400003 1.615731e-38
0.0021028512 -0.076403834 0.73600012 1.5974724e-38
0.0035047543 -0.076403834 0.73600012 1.6250239e-38
0.0048933197 -0.076196216 0.73400009 1.6617245e-38
0.0062914183 -0.076196201 0.73400009 1.6617624e-38
0.0076895072 -0.076196201 0.73400003 1.6709791e-38
0.0090876054 -0.076196201 0.73400003 1.6617927e-38
0.010485698 -0.076196216 0.73400003 1.6525733e-38
0.011883795 -0.076196216 0.73400003 1.6525733e-38
0.013245718 -0.075988613 0.73200011 1.6617568e-38
0.014640004 -0.075988598 0.73200011 1.6525731e-38
0.016034292 -0.075988598 0.73200011 1.6433934e-38
0.017428579 -0.075988598 0.73200011 1.6618001e-38
0.018822854 -0.075988598 0.73200011 1.6801646e-38
0.020217149 -0.075988613 0.73200011 1.6618664e-38
0.021611435 -0.075988598 0.73200011 1.6435722e-38
0.023005722 -0.075988598 0.73200011 1.6434655e-38
0.0244 -0.075988598 0.73200011 1.643428e-38
0.025759047 -0.075884797 0.73100007 1.6617933e-38
0.027151423 -0.075884782 0.73100007 1.6710131e-38
0.028543806 -0.075884782 0.73100001 1.6710494e-38
0.029936193 -0.075884797 0.73100007 1.680232e-38
0.031328566 -0.075884782 0.73100007 1.6802669e-38
0.03272095 -0.075884782 0.73100007 1.6894511e-38
0.034113329 -0.075884797 0.73100001 1.6802683e-38
0.035505712 -0.075884797 0.73100007 1.6803034e-38
0.036898095 -0.075884782 0.73100007 1.6894504e-38
0.038290475 -0.075884782 0.73100007 1.707821e-38
0.039682861 -0.075884782 0.73100007 1.7814005e-38
0.04107523 -0.075884782 0.73100001 1.8550204e-38
0.04246762 -0.075884782 0.73100007 1.6695995e-38
0.043860003 -0.075884782 0.73100007 1.4730435e-38
0.045252375 -0.075884812 0.73100007 1.0036715e-38
0.046644755 -0.075884782 0.73100007 5.3372712e-39
0.048037142 -0.075884767 0.73100001 6.4510863e-39
0.049294289 -0.075677164 0.72900009 7.5603149e-39
0.050682861 -0.075677179 0.72900009 7.7436552e-39
0.05207143 -0.075677164 0.72900009 7.9269927e-39
-0.027337166 -0.075001948 0.73600006 1.8090889e-38
-0.025970476 -0.075103842 0.73700011 1.7628862e-38
-0.024566688 -0.075103842 0.73700005 1.7441982e-38
-0.023225715 -0.075307645 0.73900002 1.725939e-38
-0.02181809 -0.07530763 0.73900008 1.7257959e-38
-0.02041048 -0.075307645 0.73900008 1.716789e-38
-0.019002862 -0.075307645 0.73900008 1.6707612e-38
-0.017595237 -0.07530766 0.73900008 1.615697e-38
-0.016187619 -0.07530766 0.73900002 1.5878605e-38
-0.014779993 -0.075307645 0.73900008 1.5604518e-38
-0.013336197 -0.075103827 0.73700005 1.560235e-38
-0.011932384 -0.075103827 0.73700011 1.5604502e-38
-0.010528579 -0.075103842 0.73700005 1.5604861e-38
-0.0091247642 -0.075103827 0.73700011 1.5604144e-38
-0.0077209603 -0.075103842 0.73700005 1.5696697e-38
-0.0063171457 -0.075103842 0.73700011 1.5696698e-38
-0.0049133417 -0.075103812 0.73700005 1.5788894e-38
-0.0035047748 -0.075001918 0.73600006 1.5880372e-38
-0.0020971631 -0.074798115 0.73400003 1.6063325e-38
-0.00069905695 -0.0747981 0.73400003 1.6155877e-38
0.00069903425 -0.074798085 0.73400003 1.5881804e-38
0.0021028386 -0.075001933 0.73600006 1.5513749e-38
0.0035047492 -0.075001933 0.73600006 1.5974365e-38
0.004906653 -0.075001918 0.73600006 1.6341717e-38
0.0062914118 -0.0747981 0.73400003 1.6525399e-38
0.0076895109 -0.074798115 0.73400003 1.6709056e-38
0.0090876017 -0.074798115 0.73400003 1.6709042e-38
0.010485701 -0.074798115 0.73400003 1.6617207e-38
0.0118838 -0.0747981 0.73400003 1.6617207e-38
0.013245713 -0.074594297 0.73200011 1.6616848e-38
0.01467998 -0.074798129 0.73400003 1.6617565e-38
0.016034294 -0.074594326 0.73200011 1.6617584e-38
0.017428581 -0.074594311 0.73200011 1.6709439e-38
0.018822867 -0.074594311 0.73200011 1.680126e-38
0.020217145 -0.074594297 0.73200011 1.6709411e-38
0.021611432 -0.074594326 0.73200011 1.6525745e-38
0.023005718 -0.074594311 0.73200011 1.6433557e-38
0.024400013 -0.074594297 0.73200011 1.6341711e-38
0.025759045 -0.074492402 0.73100007 1.6525733e-38
0.027188575 -0.074594326 0.73200011 1.6617934e-38
0.028543815 -0.074492402 0.73100007 1.6617584e-38
0.029977148 -0.074594311 0.73200011 1.6617578e-38
0.03137143 -0.074594297 0.73200011 1.6801962e-38
0.03272095 -0.074492417 0.73100001 1.6893806e-38
0.03411334 -0.074492417 0.73100007 1.698565e-38
0.035554297 -0.074594297 0.73200011 1.6986361e-38
0.036948569 -0.074594297 0.73200011 1.7078549e-38
0.038342863 -0.074594311 0.73200011 1.7170444e-38
0.039682858 -0.074492387 0.73100001 1.809101e-38
0.041131437 -0.074594311 0.73200011 1.8913624e-38
0.042525712 -0.074594311 0.73200011 1.5412077e-38
0.043860003 -0.074492402 0.73100007 1.1795972e-38
0.045252375 -0.074492402 0.73100007 9.4774033e-39
0.046644755 -0.074492373 0.73100001 7.0928894e-39
0.048037149 -0.074492402 0.73100007 7.4677451e-39
0.049429525 -0.074492402 0.73100007 7.8361801e-39
0.050682858 -0.074288599 0.72900003 7.8361969e-39
0.05207143 -0.074288599 0.72900003 7.8354851e-39
-0.027337153 -0.073600031 0.73600012 1.9192548e-38
-0.026040968 -0.073900037 0.73900002 1.8549749e-38
-0.024566678 -0.073700018 0.73700011 1.8456527e-38
-0.023131454 -0.073600031 0.73600006 1.836647e-38
-0.021759057 -0.073700033 0.73700011 1.8273184e-38
-0.020355254 -0.073700033 0.73700005 1.8274586e-38
-0.01895144 -0.073700033 0.73700011 1.8089086e-38
-0.017547635 -0.073700018 0.73700005 1.7997997e-38
-0.016143808 -0.073700018 0.73700011 1.7904039e-38
-0.014740017 -0.073700033 0.73700005 1.790329e-38
-0.013336202 -0.073700033 0.73700011 1.7810707e-38
-0.011932399 -0.073700018 0.73700005 1.7718154e-38
-0.01052857 -0.073700033 0.73700011 1.7625959e-38
-0.0091247801 -0.073700003 0.73700005 1.752946e-38
-0.007720951 -0.073700048 0.73700011 1.7532689e-38
-0.006317161 -0.073700033 0.73700005 1.7440854e-38
-0.0049133324 -0.073700018 0.73700011 1.7073512e-38
-0.0035095285 -0.073700033 0.73700005 1.6705452e-38
-0.0020971594 -0.073399998 0.73400003 1.6798364e-38
-0.00069906813 -0.073400028 0.73400003 1.6889123e-38
0.00069903798 -0.073400013 0.73400009 1.6520346e-38
0.0021028512 -0.073600031 0.73600012 1.624484e-38
0.0035047543 -0.073600031 0.73600012 1.6339545e-38
0.0049066585 -0.073600031 0.73600012 1.6525368e-38
0.006291416 -0.073399998 0.73400003 1.6431739e-38
0.0076895072 -0.073400013 0.73400003 1.6340621e-38
0.0090876063 -0.073400028 0.73400003 1.624771e-38
0.010485705 -0.073400013 0.73400009 1.615695e-38
0.011883804 -0.073400028 0.73400009 1.6155515e-38
0.013245726 -0.073200025 0.73200011 1.6156233e-38
0.014679983 -0.073400013 0.73400003 1.6339904e-38
0.016034288 -0.073200025 0.73200011 1.6525368e-38
0.017428575 -0.07320001 0.73200011 1.6617204e-38
0.018797139 -0.073100023 0.73100001 1.6801234e-38
0.020217139 -0.07320001 0.73200011 1.6984546e-38
0.021611433 -0.07320001 0.73200011 1.7167141e-38
0.02300572 -0.07320004 0.73200011 1.7260052e-38
0.024400007 -0.073200025 0.73200011 1.7350812e-38
0.025794292 -0.07320001 0.73200011 1.7536635e-38
0.027188571 -0.07320001 0.73200011 1.7628482e-38
0.028582865 -0.073200025 0.73200011 1.7628492e-38
0.029977152 -0.073200025 0.73200011 1.7717817e-38
0.031371426 -0.07320001 0.73200011 1.7628493e-38
0.032765713 -0.07320001 0.73200011 1.7628144e-38
0.034160007 -0.073200025 0.73200011 1.7445199e-38
0.035554297 -0.07320004 0.73200011 1.7261522e-38
0.036948573 -0.073200025 0.73200005 1.7257929e-38
0.03834286 -0.073199995 0.73200011 1.7352717e-38
0.039737154 -0.073200025 0.73200011 1.8733202e-38
0.041131441 -0.07320004 0.73200011 2.0111455e-38
0.042525727 -0.07320001 0.73200011 1.5956261e-38
0.043860003 -0.073100023 0.73100007 1.1879526e-38
0.045252379 -0.073100038 0.73100007 9.4863226e-39
0.046644766 -0.073100023 0.73100007 7.1904464e-39
0.048037149 -0.073100023 0.73100007 7.2819329e-39
0.049429521 -0.073100008 0.73100007 7.4699143e-39
0.050682858 -0.07290002 0.72900009 7.7443502e-39
0.05207143 -0.07290002 0.72900009 7.9272883e-39
-0.026040958 -0.072492398 0.73900002 1.9466381e-38
-0.024566678 -0.072296225 0.73700011 1.946712e-38
-0.023162864 -0.072296225 0.73700011 1.9467836e-38
-0.021818103 -0.072492413 0.73900008 1.9376718e-38
-0.020410478 -0.072492413 0.73900008 1.928415e-38
-0.018951442 -0.07229621 0.73700011 1.9560358e-38
-0.017547628 -0.07229621 0.73700011 1.9743696e-38
-0.016143823 -0.07229621 0.73700005 2.0019586e-38
-0.014740007 -0.072296239 0.73700011 2.0202171e-38
-0.013336204 -0.072296225 0.73700011 2.0019568e-38
-0.01193239 -0.072296225 0.73700011 1.9834106e-38
-0.010528585 -0.07229621 0.73700011 1.9650797e-38
-0.0091247708 -0.072296225 0.73700011 1.9464603e-38
-0.0077209668 -0.072296225 0.73700005 1.9372038e-38
-0.0063171517 -0.072296225 0.73700011 1.9188005e-38
-0.0049133478 -0.072296225 0.73700011 1.8358254e-38
-0.0035095336 -0.07229621 0.73700011 1.7534961e-38
-0.0020971552 -0.072001927 0.73400003 1.7627869e-38
-0.00070096803 -0.07219813 0.73600006 1.7625346e-38
0.00069904217 -0.072001927 0.73400009 1.7249742e-38
0.0021028381 -0.07219813 0.73600006 1.68892e-38
0.0035047496 -0.072198115 0.73600006 1.6797708e-38
0.0048933206 -0.072001927 0.73400003 1.6616195e-38
0.0062914123 -0.072001927 0.73400003 1.6244194e-38
0.0076895114 -0.072001912 0.73400003 1.5880078e-38
0.009087611 -0.072001927 0.73400009 1.5783576e-38
0.010485702 -0.072001927 0.73400009 1.5695669e-38
0.01188379 -0.072001912 0.73400003 1.5690991e-38
0.013281889 -0.072001927 0.73400003 1.5695997e-38
0.014679988 -0.072001927 0.73400003 1.6059738e-38
0.016034292 -0.071805738 0.73200011 1.6340983e-38
0.017428579 -0.071805738 0.73200011 1.6616128e-38
0.018822866 -0.071805738 0.73200011 1.6801623e-38
0.020217141 -0.071805738 0.73200005 1.7259755e-38
0.021611428 -0.071805738 0.73200011 1.7720733e-38
0.023068555 -0.072001912 0.73400003 1.8089159e-38
0.024466654 -0.072001927 0.73400003 1.8364671e-38
0.025794288 -0.071805738 0.73200005 1.8549782e-38
0.027262844 -0.072001912 0.73400003 1.8640905e-38
0.028660944 -0.072001927 0.73400009 1.8733103e-38
0.030059036 -0.072001942 0.73400009 1.8732032e-38
0.031457126 -0.072001912 0.73400003 1.8550161e-38
0.03285522 -0.072001897 0.73400003 1.8363576e-38
0.034160014 -0.071805723 0.73200011 1.7996551e-38
0.035651419 -0.072001927 0.73400003 1.7530951e-38
0.036948588 -0.071805753 0.73200011 1.7523096e-38
0.038342863 -0.071805723 0.73200011 1.7436728e-38
0.03973715 -0.071805723 0.73200011 1.9376841e-38
0.041131444 -0.071805738 0.73200011 2.1209223e-38
0.042525724 -0.071805753 0.73200011 1.660487e-38
0.04386 -0.071707629 0.73100001 1.1979992e-38
0.045252379 -0.071707644 0.73100007 9.5817678e-39
0.046644762 -0.071707644 0.73100007 7.1886583e-39
0.048037145 -0.071707629 0.73100007 7.1836291e-39
0.049429521 -0.071707614 0.73100007 7.0986263e-39
0.050821908 -0.071707658 0.73100007 7.5603317e-39
0.052071426 -0.07151144 0.72900003 8.0191547e-39
-0.026076188 -0.071180992 0.74000007 2.0749637e-38
-0.024633339 -0.071084775 0.73900008 2.0842183e-38
-0.023225712 -0.071084805 0.73900008 2.0935828e-38
-0.021818096 -0.071084805 0.73900002 2.0751453e-38
-0.020410484 -0.07108479 0.73900008 2.0475591e-38
-0.019002859 -0.071084805 0.73900008 2.0661417e-38
-0.017595243 -0.07108479 0.73900008 2.0846185e-38
-0.016143823 -0.070892401 0.73700005 2.1121713e-38
-0.014740009 -0.070892401 0.73700011 2.1397233e-38
-0.013336195 -0.070892416 0.73700011 2.1213575e-38
-0.01193239 -0.070892401 0.73700011 2.102991e-38
-0.010528586 -0.070892401 0.73700005 2.1121392e-38
-0.0091247717 -0.070892431 0.73700011 2.1305398e-38
-0.007720957 -0.070892416 0.73700011 2.1304298e-38
-0.0063171531 -0.070892401 0.73700011 2.1305368e-38
-0.004913338 -0.070892416 0.73700011 2.0935867e-38
-0.0035095343 -0.070892401 0.73700011 2.0478836e-38
-0.0021028738 -0.070796229 0.73600006 2.0477755e-38
-0.00070095592 -0.070796214 0.73600012 2.0570644e-38
0.00069903611 -0.07060381 0.73400003 2.0383362e-38
0.0021028516 -0.070796229 0.73600012 2.0203247e-38
0.0035047547 -0.070796229 0.73600012 2.0109587e-38
0.0048933174 -0.070603825 0.73400003 2.0019555e-38
0.006291416 -0.07060381 0.73400003 1.9833383e-38
0.0076895151 -0.070603825 0.73400009 1.9652217e-38
0.0090876147 -0.07060384 0.73400009 1.9648982e-38
0.010485696 -0.070603825 0.73400003 1.9558908e-38
0.011883793 -0.070603825 0.73400003 1.9557082e-38
0.013281894 -0.07060381 0.73400003 1.9560282e-38
0.014679984 -0.07060381 0.73400003 1.9557742e-38
0.016034286 -0.070411451 0.73200011 1.9468413e-38
0.017428573 -0.070411466 0.73200011 1.9650645e-38
0.018822862 -0.070411436 0.73200011 1.9835813e-38
0.020217156 -0.070411451 0.73200011 1.955929e-38
0.021670461 -0.070603825 0.73400003 1.9284874e-38
0.023068558 -0.070603825 0.73400003 1.9008305e-38
0.024466658 -0.070603825 0.73400003 1.8733888e-38
0.02586475 -0.07060381 0.73400003 1.8731747e-38
0.027262848 -0.07060381 0.73400009 1.8733896e-38
0.028660947 -0.07060384 0.73400009 1.8821424e-38
0.03005903 -0.070603825 0.73400003 1.9008335e-38
0.031457122 -0.07060381 0.73400003 1.872961e-38
0.032855224 -0.07060381 0.73400003 1.8544051e-38
0.034253318 -0.07060381 0.73400003 1.7436549e-38
0.035651416 -0.070603825 0.73400003 1.633173e-38
0.037049513 -0.070603825 0.73400009 1.6690898e-38
0.038447604 -0.070603825 0.73400009 1.71473e-38
0.039737143 -0.070411451 0.73200011 1.9370098e-38
0.041131437 -0.070411436 0.73200011 2.1580917e-38
0.042525716 -0.070411466 0.73200011 1.6872862e-38
0.043860003 -0.070315264 0.73100007 1.224153e-38
0.045252379 -0.070315264 0.73100007 9.5735394e-39
0.046644758 -0.070315234 0.73100007 6.9106463e-39
0.048037138 -0.070315249 0.73100001 7.0964459e-39
0.049429525 -0.070315264 0.73100007 7.3748502e-39
0.050821904 -0.070315264 0.73100007 7.6511022e-39
0.052071434 -0.070122875 0.72900009 8.0181093e-39
0.053606667 -0.070315279 0.73100007 7.926655e-39
-0.026146671 -0.06996002 0.74200004 2.1939944e-38
-0.024666673 -0.069771446 0.74000007 2.2216529e-38
-0.023257144 -0.069771461 0.74000007 2.2401279e-38
-0.021847619 -0.069771461 0.74000007 2.2033581e-38
-0.020410478 -0.069677182 0.73900008 2.1667674e-38
-0.019002851 -0.069677182 0.73900008 2.1854575e-38
-0.01759525 -0.069677182 0.73900008 2.1946783e-38
-0.016187623 -0.069677167 0.73900008 2.222338e-38
-0.01474001 -0.069488592 0.73700005 2.2498898e-38
-0.01337238 -0.069677167 0.73900008 2.2407432e-38
-0.011932392 -0.069488607 0.73700005 2.2223405e-38
-0.010528577 -0.069488607 0.73700011 2.2682946e-38
-0.0091247726 -0.069488592 0.73700005 2.3050292e-38
-0.0077209584 -0.069488592 0.73700011 2.3233969e-38
-0.0063171536 -0.069488607 0.73700005 2.3417637e-38
-0.0049133394 -0.069488592 0.73700011 2.3417634e-38
-0.0035095357 -0.069488607 0.73700005 2.3417631e-38
-0.0021028717 -0.069394313 0.73600006 2.3417628e-38
-0.00070096803 -0.069394298 0.73600006 2.3417617e-38
0.00069902447 -0.069205709 0.73400003 2.3417606e-38
0.002097131 -0.069205739 0.73400003 2.341759e-38
0.0034952231 -0.069205739 0.73400003 2.3417575e-38
0.0048933215 -0.069205739 0.73400003 2.3417579e-38
0.0062914202 -0.069205724 0.73400009 2.3417585e-38
0.0076895016 -0.069205709 0.73400003 2.3417581e-38
0.0090875998 -0.069205739 0.73400003 2.3417578e-38
0.010485699 -0.069205724 0.73400003 2.3417201e-38
0.011883797 -0.069205724 0.73400003 2.341754e-38
0.013281898 -0.069205739 0.73400003 2.3417523e-38
0.014679988 -0.069205739 0.73400003 2.3050166e-38
0.016078087 -0.069205739 0.73400009 2.2590963e-38
0.017476177 -0.069205724 0.73400003 2.277461e-38
0.018822864 -0.069017179 0.73200011 2.2865382e-38
0.020272367 -0.069205709 0.73400003 2.1856282e-38
0.021670464 -0.069205754 0.73400003 2.0840378e-38
0.023068557 -0.069205739 0.73400003 1.9925639e-38
0.024466662 -0.069205724 0.73400009 1.8997598e-38
0.025864754 -0.069205739 0.73400009 1.890971e-38
0.02726284 -0.069205724 0.73400003 1.8811052e-38
0.02866094 -0.069205724 0.73400003 1.8993282e-38
0.030059034 -0.069205724 0.73400003 1.9180564e-38
0.031457126 -0.069205724 0.73400003 1.8999069e-38
0.032855228 -0.069205724 0.73400003 1.8716656e-38
0.034253322 -0.069205739 0.73400003 1.6873398e-38
0.035651419 -0.069205739 0.73400009 1.5036339e-38
0.036948577 -0.069017164 0.73200011 1.5944658e-38
0.038342871 -0.06901715 0.73200011 1.6783865e-38
0.03973715 -0.069017164 0.73200011 1.9375481e-38
0.041131437 -0.069017164 0.73200011 2.194324e-38
0.042525724 -0.069017164 0.73200011 1.7247385e-38
0.04386 -0.068922885 0.73100007 1.243129e-38
0.045252379 -0.06892287 0.73100007 9.4680496e-39
0.046644758 -0.068922855 0.73100001 6.5411491e-39
0.048037145 -0.068922885 0.73100007 7.0996927e-39
0.049429521 -0.06892287 0.73100007 7.651084e-39
0.050821904 -0.06892287 0.73100007 7.8344145e-39
0.052214287 -0.068922885 0.73100007 7.9262472e-39
0.053606667 -0.068922885 0.73100001 7.6496631e-39
-0.026076194 -0.068361931 0.74000007 2.2211894e-38
-0.024733333 -0.068546675 0.74200004 2.2305894e-38
-0.023257138 -0.068361945 0.74000007 2.2399156e-38
-0.021847628 -0.068361945 0.74000007 2.2306952e-38
-0.020410484 -0.068269543 0.73900008 2.2306233e-38
-0.019002859 -0.068269558 0.73900008 2.2402372e-38
-0.017595241 -0.068269543 0.73900002 2.2403816e-38
-0.016187616 -0.068269543 0.73900008 2.2496734e-38
-0.01474 -0.068084799 0.73700011 2.2590013e-38
-0.013336211 -0.068084799 0.73700005 2.2496392e-38
-0.011932381 -0.068084799 0.73700011 2.2405276e-38
-0.010528577 -0.068084784 0.73700005 2.2588948e-38
-0.0091247633 -0.068084784 0.73700011 2.2774805e-38
-0.0077209584 -0.068084799 0.73700005 2.2864881e-38
-0.0063171447 -0.068084814 0.73700011 2.2958511e-38
-0.0049133403 -0.068084799 0.73700005 2.3141466e-38
-0.0035095261 -0.068084799 0.73700011 2.3325854e-38
-0.0021028735 -0.067992412 0.73600006 2.3142183e-38
-0.00070097035 -0.067992412 0.73600006 2.2958513e-38
0.00070094765 -0.067992412 0.73600012 2.3140031e-38
0.0020971352 -0.067807622 0.73400003 2.341769e-38
0.0035047547 -0.067992412 0.73600012 2.341769e-38
0.0049066585 -0.067992412 0.73600012 2.341769e-38
0.0063085612 -0.067992397 0.73600012 2.3324778e-38
0.0076895053 -0.067807637 0.73400003 2.3234019e-38
0.0090876045 -0.067807637 0.73400003 2.3142183e-38
0.010485703 -0.067807622 0.73400003 2.3050342e-38
0.011883794 -0.067807637 0.73400003 2.3140379e-38
0.013281894 -0.067807637 0.73400009 2.3234004e-38
0.014679993 -0.067807622 0.73400009 2.2958493e-38
0.016078075 -0.067807637 0.73400003 2.2682942e-38
0.017476181 -0.067807622 0.73400003 2.1390743e-38
0.018822866 -0.067622878 0.73200011 2.0015688e-38
0.02027237 -0.067807637 0.73400003 1.9447781e-38
0.021670468 -0.067807622 0.73400003 1.8804614e-38
0.02306856 -0.067807622 0.73400009 1.8247901e-38
0.02446666 -0.067807637 0.73400009 1.7686833e-38
0.025864746 -0.067807622 0.73400003 1.7783321e-38
0.027262839 -0.067807622 0.73400003 1.7871918e-38
0.028660938 -0.067807637 0.73400003 1.8614843e-38
0.030059038 -0.067807637 0.73400003 1.9446064e-38
0.031457134 -0.067807637 0.73400003 1.9448253e-38
0.032855224 -0.067807637 0.73400009 1.9439198e-38
0.034253325 -0.067807622 0.73400009 1.7513076e-38
0.035651408 -0.067807622 0.73400003 1.5679178e-38
0.037049502 -0.067807637 0.73400003 1.6043232e-38
0.038342863 -0.067622893 0.73200011 1.6505092e-38
0.03973715 -0.067622878 0.73200011 1.9553053e-38
0.041131437 -0.067622878 0.73200011 2.2588961e-38
0.042525724 -0.067622893 0.73200011 1.742245e-38
0.04386 -0.067530505 0.73100007 1.2329402e-38
0.045252375 -0.067530505 0.73100001 9.5699058e-39
0.046708573 -0.067622878 0.73200011 6.8191639e-39
0.048037145 -0.06753049 0.73100007 7.281947e-39
0.049429517 -0.06753049 0.73100007 7.8361983e-39
0.050821904 -0.067530505 0.73100007 7.8354907e-39
0.052214287 -0.06753049 0.73100001 7.8347452e-39
-0.026146676 -0.06713336 0.7420001 2.2397008e-38
-0.024733337 -0.067133375 0.74200004 2.2396307e-38
-0.023257149 -0.066952415 0.74000007 2.2306612e-38
-0.021847622 -0.066952415 0.74000007 2.2672865e-38
-0.020410491 -0.06686192 0.73900008 2.2950164e-38
-0.019002864 -0.06686192 0.73900008 2.2952673e-38
-0.017595237 -0.06686195 0.73900008 2.2861564e-38
-0.016187621 -0.066861935 0.73900008 2.2769378e-38
-0.014740016 -0.06668099 0.73700005 2.2585354e-38
-0.013336202 -0.06668099 0.73700011 2.258285e-38
-0.011932397 -0.066680975 0.73700005 2.2492811e-38
-0.010557141 -0.066861935 0.73900008 2.2492096e-38
-0.0091495253 -0.06686195 0.73900008 2.2493543e-38
-0.0077418992 -0.06686195 0.73900008 2.2491764e-38
-0.0063171601 -0.06668099 0.73700005 2.2494278e-38
-0.0049133459 -0.06668099 0.73700011 2.2864134e-38
-0.0035095415 -0.066680975 0.73700005 2.3231833e-38
-0.0021028612 -0.066590525 0.73600012 2.2866642e-38
-0.00070096803 -0.06659051 0.73600006 2.2402793e-38
0.00070093508 -0.066590495 0.73600006 2.294985e-38
0.0021057103 -0.06668099 0.73700005 2.3412623e-38
0.0035047496 -0.066590495 0.73600006 2.3417654e-38
0.0049066525 -0.066590495 0.73600006 2.3412275e-38
0.0063085561 -0.06659051 0.73600006 2.3228966e-38
0.0076895091 -0.066409521 0.73400003 2.3045648e-38
0.0090876082 -0.066409536 0.73400003 2.2866636e-38
0.010485707 -0.066409551 0.73400009 2.2586103e-38
0.011883798 -0.066409551 0.73400009 2.2859453e-38
0.013281898 -0.066409551 0.73400009 2.3046707e-38
0.014640003 -0.066228576 0.73200011 2.2958455e-38
0.016078079 -0.066409521 0.73400003 2.2761444e-38
0.017476177 -0.066409536 0.73400003 1.9997342e-38
0.018874275 -0.066409536 0.73400003 1.7136807e-38
0.020272367 -0.066409536 0.73400009 1.6930531e-38
0.021670464 -0.066409536 0.73400009 1.6761588e-38
0.023068564 -0.066409551 0.73400009 1.6574348e-38
0.024466652 -0.066409536 0.73400003 1.6301693e-38
0.02586475 -0.066409536 0.73400003 1.6572159e-38
0.027262842 -0.066409521 0.73400003 1.6855953e-38
0.028660942 -0.066409521 0.73400003 1.8331813e-38
0.030059041 -0.066409551 0.73400003 1.9720136e-38
0.03145713 -0.066409551 0.73400009 1.9908139e-38
0.032855228 -0.066409536 0.73400009 2.0084906e-38
0.034253318 -0.066409521 0.73400003 1.8151609e-38
0.035651412 -0.066409536 0.73400003 1.6228044e-38
0.037049506 -0.066409536 0.73400003 1.6228003e-38
0.038342871 -0.066228606 0.73200011 1.6234617e-38
0.039737146 -0.066228591 0.73200011 1.9742101e-38
0.041131441 -0.066228591 0.73200011 2.3136737e-38
0.04252572 -0.066228591 0.73200011 1.7706912e-38
0.04386 -0.066138096 0.73100001 1.2155051e-38
0.045252383 -0.066138126 0.73100007 9.570982e-39
0.046644766 -0.066138126 0.73100007 7.0028265e-39
0.048037145 -0.066138096 0.73100007 7.556359e-39
0.049429517 -0.066138111 0.73100007 8.018426e-39
0.0508219 -0.066138111 0.73100001 7.9284052e-39
0.052214295 -0.066138111 0.73100007 7.7443656e-39
0.05360667 -0.066138126 0.73100007 7.8372689e-39
-0.026146673 -0.065720014 0.74200004 2.2673959e-38
-0.024666673 -0.065542899 0.74000007 2.2582501e-38
-0.023257146 -0.065542884 0.74000007 2.2492085e-38
-0.021847619 -0.065542884 0.74000007 2.2766498e-38
-0.020410484 -0.065454312 0.73900002 2.3042721e-38
-0.019002857 -0.065454312 0.73900008 2.2859407e-38
-0.017595232 -0.065454312 0.73900008 2.2769016e-38
-0.016187629 -0.065454312 0.73900008 2.2676113e-38
-0.014780004 -0.065454327 0.73900008 2.2675041e-38
-0.013372387 -0.065454312 0.73900002 2.2491374e-38
-0.011964761 -0.065454312 0.73900008 2.2307707e-38
-0.010557134 -0.065454312 0.73900008 2.2491741e-38
-0.0091495328 -0.065454312 0.73900008 2.2582854e-38
-0.0077419057 -0.065454327 0.73900008 2.2582129e-38
-0.0063171503 -0.065277167 0.73700011 2.2672534e-38
-0.0049133464 -0.065277167 0.73700011 2.2951989e-38
-0.003509532 -0.065277167 0.73700011 2.3227853e-38
-0.0021028738 -0.065188609 0.73600006 2.2861226e-38
-0.00070097035 -0.065188609 0.73600006 2.258032e-38
0.00070094812 -0.065188594 0.73600006 2.2764691e-38
0.0021028512 -0.065188594 0.73600006 2.2946943e-38
0.0035047547 -0.065188594 0.73600006 2.2948754e-38
0.0049066576 -0.065188609 0.73600012 2.2942302e-38
0.0063085612 -0.065188609 0.73600012 2.2855135e-38
0.0077104652 -0.065188594 0.73600012 2.2853332e-38
0.0091123758 -0.065188594 0.73600012 2.2949463e-38
0.010485704 -0.065011464 0.73400009 2.303735e-38
0.011883792 -0.065011434 0.73400003 2.248992e-38
0.013281891 -0.065011419 0.73400003 2.2032533e-38
0.014679982 -0.065011449 0.73400003 2.1010859e-38
0.016078079 -0.065011449 0.73400003 2.0080216e-38
0.017476181 -0.065011449 0.73400003 1.8878371e-38
0.018874278 -0.065011449 0.73400009 1.7664089e-38
0.02027237 -0.065011434 0.73400009 1.7580531e-38
0.021670459 -0.065011434 0.73400003 1.7400446e-38
0.023068557 -0.065011449 0.73400003 1.7217489e-38
0.024466656 -0.065011449 0.73400003 1.6945186e-38
0.025864748 -0.065011434 0.73400003 1.8052567e-38
0.027262846 -0.065011449 0.73400003 1.9240052e-38
0.028660946 -0.065011449 0.73400003 1.925233e-38
0.030059038 -0.065011449 0.73400009 1.926634e-38
0.031457122 -0.065011434 0.73400003 1.9537919e-38
0.03285522 -0.065011419 0.73400003 1.9810466e-38
0.034253322 -0.065011419 0.73400003 1.751126e-38
0.035651416 -0.065011464 0.73400003 1.522073e-38
0.036948577 -0.064834304 0.73200011 1.5586971e-38
0.038342871 -0.064834319 0.73200011 1.604414e-38
0.03973715 -0.064834319 0.73200011 1.9461568e-38
0.041131433 -0.064834319 0.73200011 2.2958438e-38
0.042525712 -0.064834304 0.73200011 1.7235884e-38
0.043920007 -0.064834304 0.73200011 1.1491749e-38
0.045314301 -0.064834319 0.73200011 9.1979003e-39
0.046708569 -0.064834319 0.73200011 6.8202219e-39
0.048102863 -0.064834304 0.73200011 7.6496112e-39
0.049497154 -0.064834289 0.73200011 8.385761e-39
0.05089144 -0.064834319 0.73200011 7.9273304e-39
0.052285716 -0.064834319 0.73200011 7.3766873e-39
-0.026076196 -0.064133368 0.74000007 2.2950182e-38
-0.024633335 -0.064046688 0.73900008 2.2859074e-38
-0.023225719 -0.064046688 0.73900002 2.2675393e-38
-0.021818092 -0.064046703 0.73900008 2.2858335e-38
-0.02041048 -0.064046703 0.73900008 2.304165e-38
-0.019002864 -0.064046688 0.73900008 2.2857263e-38
-0.017595237 -0.064046703 0.73900008 2.2674674e-38
-0.016187621 -0.064046688 0.73900002 2.2673961e-38
-0.01478001 -0.064046703 0.73900008 2.2674678e-38
-0.013372383 -0.064046718 0.73900008 2.239953e-38
-0.011964767 -0.064046703 0.73900008 2.2124028e-38
-0.010557141 -0.064046688 0.73900008 2.2399897e-38
-0.0091495253 -0.064046703 0.73900002 2.2674672e-38
-0.0077419132 -0.064046688 0.73900008 2.2765419e-38
-0.0063171512 -0.063873358 0.73700011 2.2765788e-38
-0.0049266708 -0.064046703 0.73900008 2.2951262e-38
-0.0035095329 -0.063873358 0.73700011 2.3136371e-38
-0.0021057182 -0.063873373 0.73700011 2.2954138e-38
-0.00070095732 -0.063786708 0.73600012 2.2765791e-38
0.00070094579 -0.063786708 0.73600012 2.2672868e-38
0.0021028386 -0.063786678 0.73600006 2.2488125e-38
0.0035047496 -0.063786678 0.73600006 2.2487772e-38
0.0049066525 -0.063786693 0.73600006 2.2394854e-38
0.0063085565 -0.063786693 0.73600006 2.2487043e-38
0.0077104601 -0.063786693 0.73600006 2.2581029e-38
0.0091123711 -0.063786693 0.73600006 2.3040564e-38
0.010485698 -0.063613348 0.73400003 2.3406101e-38
0.011883795 -0.063613348 0.73400003 2.2213305e-38
0.013281888 -0.063613348 0.73400003 2.0913577e-38
0.014679986 -0.063613348 0.73400003 1.9156105e-38
0.016078085 -0.063613348 0.73400003 1.731759e-38
0.017476184 -0.063613348 0.73400009 1.7771375e-38
0.018874282 -0.063613363 0.73400009 1.823019e-38
0.020272365 -0.063613333 0.73400003 1.8143731e-38
0.021670455 -0.063613348 0.73400003 1.8044003e-38
0.02306856 -0.063613348 0.73400003 1.785818e-38
0.024466654 -0.063613348 0.73400003 1.7594876e-38
0.025864752 -0.063613348 0.73400003 1.9636067e-38
0.027188579 -0.063440032 0.73200011 2.1554603e-38
0.028660942 -0.063613348 0.73400009 2.0171366e-38
0.030059032 -0.063613348 0.73400003 1.8703103e-38
0.031457126 -0.063613348 0.73400003 1.9166254e-38
0.03285522 -0.063613348 0.73400003 1.9529576e-38
0.034253325 -0.063613348 0.73400003 1.6861969e-38
0.035651419 -0.063613348 0.73400003 1.4206955e-38
0.036948573 -0.063440017 0.73200011 1.5038822e-38
0.038342867 -0.063440003 0.73200011 1.5780818e-38
0.039737154 -0.063440032 0.73200011 1.9285055e-38
0.041131429 -0.063440017 0.73200011 2.267826e-38
0.042525716 -0.063440017 0.73200011 1.6786394e-38
0.043859996 -0.063353367 0.73100007 1.0858227e-38
0.045314297 -0.063440032 0.73200011 8.7247323e-39
0.046708569 -0.063440003 0.73200011 6.6326315e-39
0.048102863 -0.063440032 0.73200011 7.7443699e-39
0.049497157 -0.063440017 0.73200011 8.7538498e-39
0.051030461 -0.063613363 0.73400003 7.9259025e-39
0.05228572 -0.063440017 0.73200011 7.007909e-39
-0.026146675 -0.062893368 0.74200004 2.2581762e-38
-0.024666661 -0.062723853 0.74000007 2.2582481e-38
-0.023257136 -0.062723823 0.74000007 2.2584271e-38
-0.021847622 -0.062723838 0.74000007 2.2583547e-38
-0.020438096 -0.062723838 0.74000001 2.2582118e-38
-0.019002857 -0.06263908 0.73900002 2.2581765e-38
-0.017595245 -0.062639065 0.73900008 2.2581766e-38
-0.016187618 -0.06263908 0.73900008 2.2674319e-38
-0.014780002 -0.06263908 0.73900008 2.2766509e-38
-0.013372377 -0.06263908 0.73900008 2.2490997e-38
-0.01196476 -0.062639095 0.73900002 2.2307332e-38
-0.010557149 -0.062639065 0.73900008 2.258356e-38
-0.0091495216 -0.062639065 0.73900008 2.2950164e-38
-0.0077419057 -0.062639065 0.73900008 2.2950143e-38
-0.0063342797 -0.06263908 0.73900008 2.2949083e-38
-0.0049266778 -0.062639065 0.73900002 2.3043804e-38
-0.0035190515 -0.06263908 0.73900008 2.3137083e-38
-0.0021057194 -0.062469564 0.73700011 2.2674684e-38
-0.00070097035 -0.062384777 0.73600006 2.2212991e-38
0.00070093322 -0.062384792 0.73600006 2.2396298e-38
0.0021028512 -0.062384792 0.73600006 2.2487767e-38
0.0035047547 -0.062384777 0.73600006 2.2672147e-38
0.0049066581 -0.062384792 0.73600006 2.294728e-38
0.0063085617 -0.062384792 0.73600012 2.2858297e-38
0.0077104648 -0.062384792 0.73600006 2.2860815e-38
0.0091123758 -0.062384792 0.73600012 2.2027846e-38
0.010485701 -0.062215246 0.73400003 2.1291709e-38
0.011883792 -0.062215246 0.73400003 2.0635209e-38
0.013281892 -0.062215246 0.73400003 2.0068333e-38
0.01467999 -0.062215261 0.73400003 1.9063085e-38
0.016078083 -0.062215246 0.73400009 1.8140135e-38
0.017476181 -0.062215261 0.73400009 1.8050521e-38
0.018874269 -0.062215246 0.73400003 1.8055508e-38
0.020272369 -0.062215246 0.73400003 1.7772073e-38
0.021670459 -0.062215231 0.73400003 1.748796e-38
0.023068558 -0.062215261 0.73400003 1.8596446e-38
0.024466658 -0.062215261 0.73400003 1.9796801e-38
0.025864748 -0.062215261 0.73400009 2.1104774e-38
0.027262853 -0.062215261 0.73400009 2.2487317e-38
0.028660936 -0.062215246 0.73400003 1.9621393e-38
0.030059028 -0.062215246 0.73400003 1.6851658e-38
0.031542849 -0.062384777 0.73600006 1.7591401e-38
0.032855224 -0.062215246 0.73400003 1.8422167e-38
0.034253322 -0.062215246 0.73400003 1.6310251e-38
0.035554286 -0.062045731 0.73200011 1.4298077e-38
0.036948573 -0.062045746 0.73200011 1.5223921e-38
0.03834286 -0.062045731 0.73200011 1.6244289e-38
0.039737154 -0.062045731 0.73200011 1.9649869e-38
0.041075245 -0.061960973 0.73100007 2.3050257e-38
0.042467613 -0.061960973 0.73100007 1.6772762e-38
0.043920007 -0.062045731 0.73200011 1.0562273e-38
0.045314293 -0.062045746 0.73200011 8.6425825e-39
0.04670858 -0.062045746 0.73200011 6.823145e-39
0.048102856 -0.062045731 0.73200011 7.6511527e-39
0.04949715 -0.062045731 0.73200011 8.4790917e-39
0.051030464 -0.062215246 0.73400003 7.9266269e-39
0.052285723 -0.062045731 0.73200011 7.4667278e-39
-0.026146686 -0.061479993 0.74200004 2.2213336e-38
-0.024666673 -0.061314307 0.74000007 2.2304462e-38
-0.023257146 -0.061314307 0.74000007 2.2399521e-38
-0.021847619 -0.061314307 0.74000007 2.2308757e-38
-0.020438107 -0.061314322 0.74000001 2.2123655e-38
-0.019028569 -0.061314322 0.74000007 2.2305897e-38
-0.017619042 -0.061314322 0.74000007 2.2489212e-38
-0.01618761 -0.061231457 0.73900008 2.2674678e-38
-0.014780009 -0.061231472 0.73900008 2.2766511e-38
-0.013372383 -0.061231457 0.73900008 2.2674315e-38
-0.011964767 -0.061231457 0.73900002 2.2491366e-38
-0.01055714 -0.061231457 0.73900008 2.285979e-38
-0.009149529 -0.061231457 0.73900008 2.3135635e-38
-0.0077419123 -0.061231442 0.73900008 2.3136332e-38
-0.0063342862 -0.061231472 0.73900008 2.304415e-38
-0.0049266699 -0.061231457 0.73900002 2.3138151e-38
-0.003519044 -0.061231457 0.73900008 2.3134542e-38
-0.0021057201 -0.061065741 0.73700005 2.2394815e-38
-0.00070095778 -0.06098289 0.73600012 2.1659796e-38
0.00070189853 -0.061065726 0.73700005 2.2120075e-38
0.0021057127 -0.061065741 0.73700011 2.2489204e-38
0.0035095096 -0.061065741 0.73700005 2.2949092e-38
0.004906653 -0.060982876 0.73600006 2.3410399e-38
0.0063085565 -0.060982876 0.73600006 2.3229217e-38
0.0077104592 -0.060982876 0.73600006 2.3036206e-38
0.0091123711 -0.06098289 0.73600006 2.110155e-38
0.010514273 -0.060982876 0.73600006 1.9067897e-38
0.011916177 -0.060982876 0.73600006 1.9150766e-38
0.013281896 -0.06081716 0.73400009 1.9155391e-38
0.014679987 -0.060817145 0.73400009 1.9071053e-38
0.016078087 -0.060817145 0.73400009 1.8881306e-38
0.017476173 -0.060817175 0.73400003 1.8417847e-38
0.018874273 -0.06081716 0.73400003 1.7865715e-38
0.020272365 -0.060817145 0.73400003 1.7401471e-38
0.021670463 -0.06081716 0.73400003 1.69452e-38
0.023068564 -0.060817145 0.73400003 1.942659e-38
0.024466662 -0.06081716 0.73400009 2.1924824e-38
0.025864752 -0.06081716 0.73400009 2.2682846e-38
0.027262839 -0.06081716 0.73400003 2.3401705e-38
0.02866094 -0.060817145 0.73400003 1.9158219e-38
0.030059032 -0.060817175 0.73400003 1.4917673e-38
0.031457126 -0.06081716 0.73400003 1.6109411e-38
0.032855228 -0.060817145 0.73400003 1.7218226e-38
0.034253325 -0.06081716 0.73400009 1.5750626e-38
0.035651427 -0.06081716 0.73400009 1.4293044e-38
0.037049506 -0.060817145 0.73400003 1.5497617e-38
0.038342863 -0.060651444 0.73200011 1.670419e-38
0.03973715 -0.060651444 0.73200011 2.0111585e-38
0.041131448 -0.060651444 0.73200011 2.3412239e-38
0.042525716 -0.060651459 0.73200011 1.6875734e-38
0.04392001 -0.060651459 0.73200011 1.0216821e-38
0.045314297 -0.060651444 0.73200011 8.5518232e-39
0.046836179 -0.060817145 0.73400003 6.9110219e-39
0.048234273 -0.06081716 0.73400003 7.5574983e-39
0.04963237 -0.060817175 0.73400003 8.1102993e-39
0.051030468 -0.06081716 0.73400003 8.0184596e-39
0.052428558 -0.06081716 0.73400003 7.8347844e-39
-0.027671432 -0.060309552 0.74500012 2.2580655e-38
-0.026181912 -0.060147636 0.74300003 2.2304445e-38
-0.024733348 -0.060066693 0.74200004 2.2305177e-38
-0.023319999 -0.060066693 0.7420001 2.2400954e-38
-0.021906676 -0.060066678 0.74200004 2.2400231e-38
-0.020493338 -0.060066678 0.74200004 2.2492072e-38
-0.019028563 -0.059904806 0.74000007 2.2581042e-38
-0.017619036 -0.059904791 0.74000007 2.2577459e-38
-0.016187618 -0.059823833 0.73900008 2.2673961e-38
-0.014780002 -0.059823819 0.73900002 2.2767231e-38
-0.013372375 -0.059823819 0.73900008 2.2583201e-38
-0.011964764 -0.059823848 0.73900008 2.2491371e-38
-0.010557147 -0.059823833 0.73900008 2.2676124e-38
-0.0091495216 -0.059823833 0.73900008 2.2860852e-38
-0.0077419048 -0.059823833 0.73900002 2.2859397e-38
-0.0063342932 -0.059823833 0.73900008 2.2953035e-38
-0.0049266671 -0.059823848 0.73900008 2.3043444e-38
-0.003519051 -0.059823848 0.73900008 2.3133795e-38
-0.002105725 -0.059661947 0.73700011 2.2855369e-38
-0.00070192124 -0.059661932 0.73700005 2.2481983e-38
0.00070189295 -0.059661947 0.73700011 2.2672882e-38
0.0021056973 -0.059661932 0.73700005 2.2858341e-38
0.0035095194 -0.059661932 0.73700011 2.2490274e-38
0.004913324 -0.059661917 0.73700005 2.2127568e-38
0.0063085617 -0.059580959 0.73600006 2.1012241e-38
0.0077104648 -0.059580989 0.73600006 1.9993408e-38
0.0091123683 -0.059580989 0.73600006 1.8873772e-38
0.010514278 -0.059580974 0.73600006 1.7849972e-38
0.011916182 -0.059580989 0.73600012 1.8139132e-38
0.0132819 -0.059419058 0.73400009 1.8515088e-38
0.01467998 -0.059419058 0.73400003 1.8700556e-38
0.016078081 -0.059419058 0.73400003 1.8794163e-38
0.017476179 -0.059419058 0.73400003 1.7957218e-38
0.018874269 -0.059419058 0.73400003 1.7128137e-38
0.020272369 -0.059419043 0.73400003 1.8143658e-38
0.021670466 -0.059419058 0.73400009 1.9249701e-38
0.02306856 -0.059419073 0.73400009 2.091142e-38
0.024466654 -0.059419058 0.73400003 2.2670292e-38
0.025864745 -0.059419043 0.73400003 2.3040868e-38
0.027262844 -0.059419058 0.73400003 2.3308771e-38
0.028660944 -0.059419043 0.73400003 1.9705234e-38
0.030059036 -0.059419058 0.73400003 1.6092463e-38
0.031542849 -0.059580989 0.73600006 1.6655335e-38
0.032855231 -0.059419073 0.73400009 1.7213528e-38
0.034253314 -0.059419043 0.73400003 1.5472604e-38
0.035651412 -0.059419073 0.73400003 1.3829193e-38
0.03704951 -0.059419058 0.73400003 1.6876209e-38
0.0384476 -0.059419043 0.73400003 2.0014219e-38
0.039737146 -0.059257172 0.73200011 2.1671381e-38
0.041131441 -0.059257157 0.73200011 2.3417641e-38
0.042641897 -0.059419058 0.73400009 1.649872e-38
0.044039998 -0.059419073 0.73400009 9.560349e-39
0.045438081 -0.059419058 0.73400003 8.2799041e-39
0.046836175 -0.059419043 0.73400003 7.0067908e-39
0.048234276 -0.059419058 0.73400003 7.5585479e-39
0.049632367 -0.059419058 0.73400003 8.2017621e-39
0.051169515 -0.059580974 0.73600012 8.0184554e-39
0.052428566 -0.059419073 0.73400009 7.7436636e-39
-0.027671438 -0.058890514 0.74500006 2.2673574e-38
-0.026146676 -0.058653347 0.74200004 2.2304807e-38
-0.024733337 -0.058653332 0.74200004 2.2302663e-38
-0.023320012 -0.058653347 0.74200004 2.230661e-38
-0.021818107 -0.058416225 0.73900002 2.2583193e-38
-0.020410478 -0.058416195 0.73900008 2.2857986e-38
-0.019002851 -0.058416225 0.73900008 2.2765079e-38
-0.01759525 -0.05841621 0.73900008 2.2673606e-38
-0.016187625 -0.05841621 0.73900008 2.2676482e-38
-0.014780009 -0.05841621 0.73900002 2.2675761e-38
-0.013372382 -0.05841621 0.73900008 2.2583204e-38
-0.011964756 -0.058416225 0.73900008 2.2491726e-38
-0.010557154 -0.058416225 0.73900002 2.2584276e-38
-0.0091495281 -0.05841621 0.73900008 2.2583187e-38
-0.007741902 -0.058416225 0.73900008 2.2671424e-38
-0.0063342853 -0.058416225 0.73900008 2.2766134e-38
-0.0049266587 -0.058416225 0.73900008 2.2948015e-38
-0.0035190575 -0.058416225 0.73900002 2.3134883e-38
-0.0021057262 -0.058258124 0.73700005 2.3227403e-38
-0.00070191146 -0.058258109 0.73700011 2.3316027e-38
0.00070189248 -0.058258139 0.73700005 2.3230666e-38
0.0021057071 -0.058258124 0.73700011 2.3128788e-38
0.0035095115 -0.058258109 0.73700005 2.2025332e-38
0.0049133259 -0.058258124 0.73700011 2.0821359e-38
0.0063085565 -0.058179073 0.73600006 1.8881627e-38
0.0077104596 -0.058179073 0.73600006 1.6846559e-38
0.0091123637 -0.058179058 0.73600006 1.6733579e-38
0.010514273 -0.058179073 0.73600006 1.6567857e-38
0.011916177 -0.058179058 0.73600006 1.7223633e-38
0.013281886 -0.058020957 0.73400003 1.7869718e-38
0.014679984 -0.058020957 0.73400003 1.8329982e-38
0.016078075 -0.058020972 0.73400003 1.869479e-38
0.017476182 -0.058020972 0.73400003 1.7489069e-38
0.018874273 -0.058020972 0.73400003 1.6300174e-38
0.020272372 -0.058020972 0.73400009 1.8886579e-38
0.02167047 -0.058020972 0.73400009 2.1465188e-38
0.023068553 -0.058020957 0.73400003 2.2482235e-38
0.024466651 -0.058020972 0.73400003 2.3404956e-38
0.025864748 -0.058020972 0.73400003 2.3317845e-38
0.027337136 -0.058179058 0.73600012 2.3217709e-38
0.02866094 -0.058020972 0.73400003 2.0261705e-38
0.030140951 -0.058179088 0.73600012 1.7307859e-38
0.031542853 -0.058179073 0.73600012 1.7205937e-38
0.032855216 -0.058020972 0.73400003 1.7119843e-38
0.034253318 -0.058020957 0.73400003 1.5188071e-38
0.035651416 -0.058020957 0.73400003 1.3275361e-38
0.037049513 -0.058020987 0.73400003 1.8256411e-38
0.038447604 -0.058020972 0.73400003 2.3228181e-38
0.03973715 -0.057862885 0.73200011 2.3325854e-38
0.041131437 -0.05786287 0.73200011 2.3412263e-38
0.042641889 -0.058020972 0.73400003 1.6232186e-38
0.044039991 -0.058020957 0.73400003 8.9304163e-39
0.045438085 -0.058020972 0.73400003 8.0004515e-39
0.046836179 -0.058020972 0.73400003 7.003565e-39
0.04823428 -0.058020957 0.73400003 7.6518253e-39
0.049767606 -0.058179073 0.73600006 8.294322e-39
0.051169511 -0.058179088 0.73600006 8.0181065e-39
0.05257142 -0.058179073 0.73600006 7.6514722e-39
-0.026146663 -0.057240017 0.7420001 2.2765062e-38
-0.024733339 -0.057240017 0.74200004 2.285726e-38
-0.023320014 -0.057240017 0.74200004 2.2858343e-38
-0.021906674 -0.057240017 0.74200004 2.2858708e-38
-0.020493338 -0.057240017 0.7420001 2.2856917e-38
-0.01900286 -0.057008587 0.73900008 2.2765443e-38
-0.017595245 -0.057008602 0.73900002 2.2767602e-38
-0.016187618 -0.057008602 0.73900008 2.2860162e-38
-0.014779991 -0.057008602 0.73900008 2.2951632e-38
-0.01337239 -0.057008602 0.73900008 2.2951266e-38
-0.011964763 -0.057008602 0.73900008 2.2950539e-38
-0.010557147 -0.057008587 0.73900002 2.2951606e-38
-0.0091495197 -0.057008617 0.73900008 2.3043078e-38
-0.0077419085 -0.057008602 0.73900008 2.304379e-38
-0.0063342922 -0.057008602 0.73900008 2.3135267e-38
-0.0049266662 -0.057008617 0.73900008 2.2951954e-38
-0.0035190501 -0.057008602 0.73900002 2.2770422e-38
-0.0021057171 -0.056854315 0.73700011 2.2029624e-38
-0.00070191239 -0.056854315 0.73700011 2.1293485e-38
0.00070190226 -0.05685433 0.73700011 2.0361836e-38
0.0021057061 -0.0568543 0.73700011 1.9441343e-38
0.0035095203 -0.056854315 0.73700011 1.9343423e-38
0.0049133245 -0.056854315 0.73700011 1.9148885e-38
0.0063085612 -0.056777172 0.73600006 1.8318313e-38
0.0077104648 -0.056777157 0.73600006 1.7379943e-38
0.0091123683 -0.056777172 0.73600006 1.7481898e-38
0.010514278 -0.056777172 0.73600012 1.7586652e-38
0.011916183 -0.056777172 0.73600006 1.8053724e-38
0.013318086 -0.056777172 0.73600012 1.8604392e-38
0.014679989 -0.05662287 0.73400003 1.8236347e-38
0.016078081 -0.056622855 0.73400003 1.787042e-38
0.017476179 -0.05662287 0.73400003 1.7119214e-38
0.018874276 -0.05662287 0.73400009 1.6472357e-38
0.020272359 -0.05662287 0.73400003 1.9437935e-38
0.021670457 -0.056622855 0.73400003 2.2394619e-38
0.023068557 -0.05662287 0.73400003 2.2943491e-38
0.024466654 -0.05662287 0.73400003 2.3404937e-38
0.025864754 -0.05662287 0.73400003 2.3410433e-38
0.02733713 -0.056777157 0.73600006 2.3319287e-38
0.028739035 -0.056777157 0.73600006 2.1286679e-38
0.030140936 -0.056777172 0.73600006 1.9252919e-38
0.031542849 -0.056777172 0.73600006 1.8138947e-38
0.03285522 -0.05662287 0.73400003 1.6943292e-38
0.034253322 -0.056622855 0.73400003 1.6101705e-38
0.035651412 -0.05662287 0.73400003 1.5194271e-38
0.03704951 -0.05662287 0.73400003 1.9268194e-38
0.038447611 -0.05662287 0.73400009 2.3325836e-38
0.039845701 -0.056622885 0.73400009 2.341769e-38
0.041243795 -0.056622855 0.73400003 2.3417645e-38
0.042758089 -0.056777172 0.73600006 1.5851934e-38
0.04415999 -0.056777172 0.73600006 8.3575234e-39
0.045561895 -0.056777187 0.73600012 7.7274562e-39
0.046963807 -0.056777172 0.73600012 7.1000682e-39
0.048365712 -0.056777172 0.73600012 7.652191e-39
0.049767613 -0.056777172 0.73600012 8.2035712e-39
0.051169515 -0.056777172 0.73600012 8.0191911e-39
-0.026146675 -0.055826701 0.74200004 2.3227126e-38
-0.024733339 -0.055826686 0.7420001 2.3318601e-38
-0.023320001 -0.055826671 0.74200004 2.3411163e-38
-0.021936197 -0.055901922 0.74300003 2.3135665e-38
-0.020520961 -0.055901922 0.74300003 2.2766886e-38
-0.019002868 -0.055600978 0.73900008 2.2855493e-38
-0.017595241 -0.055600978 0.73900008 2.2858004e-38
-0.016187623 -0.055600978 0.73900008 2.3044186e-38
-0.014779997 -0.055600978 0.73900008 2.3136377e-38
-0.013372382 -0.055600978 0.73900002 2.3320045e-38
-0.01196477 -0.055600993 0.73900008 2.3412229e-38
-0.010557143 -0.055600993 0.73900008 2.3411503e-38
-0.0091495272 -0.055600978 0.73900008 2.3412577e-38
-0.0077419011 -0.055600993 0.73900008 2.3417595e-38
-0.0063342848 -0.055600978 0.73900002 2.3411492e-38
-0.0049266731 -0.055600993 0.73900008 2.2954463e-38
-0.0035190464 -0.055600993 0.73900008 2.2391945e-38
-0.0021057178 -0.055450507 0.73700011 2.0826413e-38
-0.00070191378 -0.055450507 0.73700005 1.9155391e-38
0.00070190086 -0.055450492 0.73700011 1.7481498e-38
0.0021057052 -0.055450492 0.73700005 1.5746695e-38
0.0035095194 -0.055450507 0.73700011 1.6665435e-38
0.004913324 -0.055450492 0.73700005 1.7494057e-38
0.0063085663 -0.055375256 0.73600012 1.7771306e-38
0.0077104699 -0.055375271 0.73600012 1.7948908e-38
0.0091123637 -0.055375256 0.73600006 1.8226598e-38
0.010514274 -0.055375256 0.73600006 1.8509683e-38
0.011916177 -0.055375271 0.73600006 1.8891417e-38
0.01331808 -0.055375256 0.73600006 1.9250514e-38
0.014719985 -0.055375256 0.73600006 1.8140243e-38
0.016121887 -0.055375271 0.73600006 1.6934532e-38
0.017523797 -0.055375256 0.73600006 1.6828336e-38
0.018925702 -0.055375271 0.73600006 1.6669342e-38
0.020272363 -0.055224769 0.73400003 1.9998305e-38
0.021729516 -0.055375256 0.73600006 2.3308342e-38
0.023131419 -0.055375271 0.73600006 2.3400192e-38
0.024533322 -0.055375271 0.73600006 2.3406754e-38
0.025935225 -0.055375256 0.73600006 2.3416186e-38
0.027262848 -0.055224769 0.73400009 2.3414386e-38
0.028739039 -0.055375271 0.73600012 2.2313072e-38
0.030140951 -0.055375256 0.73600012 2.1191237e-38
0.031542853 -0.055375271 0.73600012 1.8970606e-38
0.032855224 -0.055224769 0.73400003 1.6749314e-38
0.034253325 -0.055224784 0.73400003 1.6898167e-38
0.035651416 -0.055224769 0.73400009 1.7135778e-38
0.037049513 -0.055224784 0.73400009 2.0295265e-38
0.038447604 -0.055224769 0.73400003 2.341768e-38
0.039845694 -0.055224754 0.73400003 2.341769e-38
0.041356191 -0.055375271 0.73600012 2.3410815e-38
0.042758081 -0.055375241 0.73600006 1.5584293e-38
0.044159986 -0.055375271 0.73600006 7.7340325e-39
0.045561887 -0.055375241 0.73600006 7.4523084e-39
0.046963796 -0.055375256 0.73600006 7.0968284e-39
0.048365697 -0.055375271 0.73600006 7.6532476e-39
0.049767606 -0.055375241 0.73600006 8.1120762e-39
0.051169511 -0.055375256 0.73600006 8.0195344e-39
-0.024766671 -0.05448667 0.74300003 2.3321482e-38
-0.023351436 -0.054486685 0.74300003 2.3412969e-38
-0.021936188 -0.054486685 0.74300003 2.3228949e-38
-0.02052095 -0.05448667 0.74300003 2.3137468e-38
-0.019105716 -0.054486699 0.74300009 2.2766893e-38
-0.017666664 -0.054413356 0.7420001 2.2397392e-38
-0.01620952 -0.054266714 0.74000007 2.2491373e-38
-0.014780005 -0.05419337 0.73900008 2.2586437e-38
-0.01339048 -0.054266699 0.74000007 2.2308778e-38
-0.011964763 -0.05419337 0.73900008 2.2038287e-38
-0.010557136 -0.05419337 0.73900008 2.1846715e-38
-0.0091495346 -0.05419337 0.73900008 2.1666271e-38
-0.0077419076 -0.05419334 0.73900008 2.138287e-38
-0.0063342918 -0.05419334 0.73900002 2.1199191e-38
-0.0049266652 -0.054193355 0.73900008 2.0638482e-38
-0.0035190389 -0.05419337 0.73900008 2.0169944e-38
-0.0021057334 -0.054046683 0.73700005 1.9429487e-38
-0.00070190401 -0.054046698 0.73700011 1.8672847e-38
0.00070189993 -0.054046683 0.73700005 1.7479988e-38
0.0021057141 -0.054046698 0.73700011 1.6285807e-38
0.0035095115 -0.054046698 0.73700005 1.712241e-38
0.0049133259 -0.054046683 0.73700011 1.8043998e-38
0.0063171303 -0.054046683 0.73700005 1.8139066e-38
0.0077104648 -0.053973354 0.73600006 1.8234117e-38
0.0091123693 -0.053973369 0.73600006 1.8506023e-38
0.010514271 -0.053973354 0.73600006 1.8691214e-38
0.011916183 -0.053973354 0.73600006 1.8979001e-38
