# .PCD v0.7 - Point Cloud Data file format
VERSION 0.7
FIELDS x y z rgb
SIZE 4 4 4 4
TYPE F F F F
COUNT 1 1 1 1
WIDTH 957
HEIGHT 1
VIEWPOINT 0 0 0 1 0 0 0
POINTS 957
DATA ascii
-0.0021142634 -0.030304752 0.74000001 1.4568798e-38
-0.00070187444 -0.030181907 0.73700011 1.4664954e-38
0.0007009898 -0.030140944 0.73600012 1.5681619e-38
0.002102891 -0.030140959 0.73600012 1.6690356e-38
0.0034952853 -0.030059047 0.73400003 1.5037658e-38
0.0048800204 -0.029977135 0.73200011 1.3380319e-38
0.0062657427 -0.029936187 0.73100007 1.2455873e-38
0.0076371413 -0.029854275 0.72900009 1.1447127e-38
0.0090257358 -0.029854275 0.72900003 1.5125222e-38
0.01040004 -0.029813327 0.72800004 1.872403e-38
0.011754325 -0.029731415 0.72600001 2.1121803e-38
0.013119053 -0.029690482 0.72500008 2.341769e-38
0.014460033 -0.02960857 0.72300011 2.341769e-38
0.015815301 -0.029567592 0.72200006 2.341769e-38
0.017142883 -0.029485695 0.72000003 2.2683006e-38
0.018514324 -0.029485695 0.72000003 2.1852881e-38
0.019885743 -0.02948571 0.72000003 2.1296828e-38
0.021257201 -0.02948568 0.72000003 2.0748696e-38
0.022628598 -0.029485695 0.72000003 2.2034763e-38
0.024066718 -0.029567607 0.72200012 2.3324413e-38
0.025441963 -0.029567622 0.72200006 2.341769e-38
0.026854327 -0.02960857 0.72300011 2.341769e-38
0.028309533 -0.029690482 0.72500008 2.341769e-38
0.029813359 -0.029813327 0.72800004 2.341769e-38
0.031242857 -0.02985426 0.72900003 2.341769e-38
0.032720972 -0.029936172 0.73100007 2.3416251e-38
0.034253381 -0.030059032 0.73400003 2.2768376e-38
0.035748575 -0.030140959 0.73600012 2.2037642e-38
0.037150476 -0.030140959 0.73600012 2.2774842e-38
0.038604822 -0.030181892 0.73700011 2.341769e-38
0.04000859 -0.030181907 0.73700011 2.341769e-38
0.041524798 -0.030263789 0.73900008 2.3325854e-38
0.042990509 -0.030304752 0.74000007 2.341769e-38
0.044580031 -0.030427612 0.74300003 2.341769e-38
0.046242885 -0.030591421 0.74700004 2.341769e-38
0.047729496 -0.030632384 0.74800009 2.341769e-38
0.049154289 -0.030632384 0.74800009 2.341769e-38
0.050714314 -0.030714281 0.75000012 2.3414775e-38
0.05228195 -0.030796163 0.75200003 1.8538838e-38
0.053785738 -0.030837156 0.75300008 1.3658923e-38
0.055366665 -0.030919038 0.75500005 1.3839645e-38
0.056804776 -0.030919023 0.75500005 1.3931082e-38
0.058320034 -0.030960001 0.7560001 1.0800026e-38
0.059918132 -0.031041898 0.75800002 7.6543042e-39
0.061361961 -0.031041898 0.75800008 7.8286509e-39
0.063220069 -0.03124664 0.76300001 8.0166351e-39
0.06484288 -0.031328566 0.7650001 7.6510952e-39
0.066300035 -0.031328566 0.7650001 7.2833945e-39
0.067757189 -0.031328551 0.7650001 7.4670669e-39
-0.032999955 -0.030066662 0.77000004 1.3460661e-38
-0.031451397 -0.029988565 0.76800001 1.3927026e-38
-0.029988568 -0.029988565 0.76800007 1.4391943e-38
-0.028488554 -0.029949538 0.76700008 1.4391585e-38
-0.026957147 -0.029871427 0.7650001 1.448307e-38
-0.025499992 -0.029871427 0.7650001 1.457563e-38
-0.023979951 -0.02979333 0.76300001 1.4760022e-38
-0.022467621 -0.029715233 0.7610001 1.5220279e-38
-0.020990456 -0.029676177 0.76000005 1.5681244e-38
-0.019491397 -0.02959808 0.75800002 1.6048581e-38
-0.018047588 -0.02959808 0.75800002 1.6507034e-38
-0.016559985 -0.029519998 0.7560001 1.6232597e-38
-0.015099998 -0.029480942 0.75500005 1.5957816e-38
-0.013625689 -0.029402845 0.75300002 1.4850059e-38
-0.012175195 -0.029363804 0.75200003 1.3745879e-38
-0.01071425 -0.029285692 0.75000012 1.3285622e-38
-0.0092485473 -0.029168569 0.74700004 1.2917916e-38
-0.0078047179 -0.029090457 0.74500006 1.2918628e-38
-0.0063856598 -0.029090472 0.74500006 1.3010091e-38
-0.0049532773 -0.02901236 0.74300003 1.3467461e-38
-0.0035237875 -0.028895237 0.74000001 1.3927355e-38
-0.0021142308 -0.028895237 0.74000001 1.3925562e-38
-0.00070185208 -0.028778069 0.73700005 1.3923795e-38
0.00070096558 -0.028739043 0.73600012 1.4297979e-38
0.0021028668 -0.028739057 0.73600012 1.4669256e-38
0.0034952834 -0.028660931 0.73400003 1.3932766e-38
0.0048800334 -0.028582849 0.73200005 1.3196294e-38
0.0062657092 -0.028543808 0.73100007 1.2275433e-38
0.0076371692 -0.028465711 0.72900003 1.1358882e-38
0.0090133529 -0.02842664 0.72800004 1.485438e-38
0.010371465 -0.028348573 0.72600001 1.8267723e-38
0.011738107 -0.028309517 0.72500008 2.0844502e-38
0.013119068 -0.028309517 0.72500008 2.341769e-38
0.014460046 -0.028231405 0.72300005 2.341769e-38
0.015815264 -0.028192379 0.72200012 2.341769e-38
0.017190531 -0.028192364 0.72200012 2.24979e-38
0.018514331 -0.028114267 0.72000003 2.166671e-38
0.019885728 -0.028114267 0.72000003 2.1300795e-38
0.021257186 -0.028114267 0.72000003 2.1029952e-38
0.022691477 -0.028192364 0.72200012 2.2220942e-38
0.024066722 -0.028192364 0.72200006 2.3417682e-38
0.025477175 -0.028231435 0.72300011 2.341769e-38
0.026854299 -0.02823142 0.72300011 2.341769e-38
0.028309548 -0.028309517 0.72500008 2.341769e-38
0.029813362 -0.028426655 0.72800004 2.341769e-38
0.031242868 -0.028465696 0.72900009 2.341769e-38
0.032720964 -0.028543822 0.73100007 2.3417683e-38
0.034253377 -0.028660946 0.73400003 2.2862716e-38
0.03574859 -0.028739057 0.73600012 2.2404264e-38
0.037150491 -0.028739043 0.73600012 2.286596e-38
0.038604807 -0.028778084 0.73700011 2.3325854e-38
0.040117148 -0.028856181 0.73900002 2.3325854e-38
0.041581001 -0.028895222 0.74000001 2.341769e-38
0.043106657 -0.028973334 0.7420001 2.341769e-38
0.044580031 -0.02901236 0.74300003 2.341769e-38
0.046242882 -0.029168554 0.74700004 2.341769e-38
0.0477295 -0.02920761 0.74800003 2.341769e-38
0.049154289 -0.02920761 0.74800003 2.341769e-38
0.050714299 -0.029285707 0.75000012 2.3417642e-38
0.052281953 -0.029363789 0.75200003 1.8351933e-38
0.053785749 -0.02940286 0.75300008 1.3285118e-38
0.055366654 -0.029480942 0.75500005 1.3656328e-38
0.056804765 -0.029480927 0.75500005 1.4118336e-38
0.058320038 -0.029519998 0.75600016 1.1071223e-38
0.059918147 -0.02959808 0.75800002 8.0141128e-39
0.061523844 -0.029676162 0.76000005 8.1070315e-39
0.063385725 -0.029871412 0.7650001 8.2013809e-39
0.064842887 -0.029871427 0.7650001 7.8343991e-39
0.066473365 -0.029949524 0.76700008 7.5592583e-39
0.067757189 -0.029871427 0.7650001 7.5592639e-39
-0.03455615 -0.028674282 0.77200001 1.4662409e-38
-0.03299997 -0.02859997 0.77000004 1.4295792e-38
-0.031451426 -0.028525703 0.76800001 1.4484491e-38
-0.029988538 -0.028525703 0.76800001 1.4667448e-38
-0.028488535 -0.028488569 0.76700002 1.4667094e-38
-0.027027596 -0.028488554 0.76700002 1.4575263e-38
-0.02549999 -0.028414287 0.7650001 1.4758938e-38
-0.023979967 -0.028339989 0.76300001 1.4944404e-38
-0.022467617 -0.028265722 0.7610001 1.5312825e-38
-0.020990461 -0.028228559 0.76000005 1.5680523e-38
-0.019491417 -0.028154291 0.75800008 1.5956385e-38
-0.018047612 -0.028154291 0.75800008 1.6231889e-38
-0.016559986 -0.028080009 0.7560001 1.6140408e-38
-0.015119988 -0.028079994 0.7560001 1.5954949e-38
-0.013625717 -0.027968578 0.75300008 1.4848265e-38
-0.012175195 -0.027931415 0.75200003 1.3745876e-38
-0.010685725 -0.02778285 0.74800009 1.3929186e-38
-0.0092485528 -0.027745686 0.74700004 1.4113567e-38
-0.0078047393 -0.027671434 0.74500006 1.4023161e-38
-0.0063856822 -0.027671434 0.74500006 1.3925928e-38
-0.0049532792 -0.027597122 0.74300003 1.3737936e-38
-0.0035237782 -0.027485706 0.74000001 1.3464238e-38
-0.0021142606 -0.027485691 0.74000001 1.3373492e-38
-0.00070186885 -0.027374275 0.73700005 1.3190913e-38
0.00070097676 -0.027337141 0.73600006 1.2916857e-38
0.0021028779 -0.027337141 0.73600012 1.2644573e-38
0.0034952983 -0.027262829 0.73400003 1.2827879e-38
0.0048933923 -0.027262844 0.73400003 1.3010472e-38
0.0062742978 -0.027188577 0.73200005 1.2182157e-38
0.0076581035 -0.027151428 0.73100007 1.1264531e-38
0.0090257358 -0.027077116 0.72900003 1.4573133e-38
0.010371488 -0.0269657 0.72600001 1.7804957e-38
0.011738122 -0.026928566 0.72500008 2.0662625e-38
0.013119059 -0.026928566 0.72500008 2.341769e-38
0.014460042 -0.026854284 0.72300011 2.341769e-38
0.01581529 -0.026817121 0.72200012 2.341769e-38
0.017190535 -0.026817121 0.72200006 2.24075e-38
0.018514317 -0.026742838 0.72000003 2.1392994e-38
0.019885737 -0.026742838 0.72000003 2.1300789e-38
0.021316238 -0.026817136 0.72200012 2.120752e-38
0.022691481 -0.026817136 0.72200006 2.2308831e-38
0.024066713 -0.026817121 0.72200012 2.3415888e-38
0.025477186 -0.026854269 0.72300005 2.341769e-38
0.026854338 -0.026854269 0.72300005 2.341769e-38
0.028309541 -0.026928566 0.72500008 2.341769e-38
0.029813381 -0.027039982 0.72800004 2.341769e-38
0.031242859 -0.027077131 0.72900009 2.341769e-38
0.032720968 -0.027151428 0.73100007 2.3416248e-38
0.034160011 -0.027188562 0.73200011 2.3044596e-38
0.035748586 -0.027337141 0.73600012 2.2680847e-38
0.037150487 -0.027337141 0.73600018 2.2958513e-38
0.038604788 -0.02737429 0.73700011 2.3141825e-38
0.040117193 -0.027448572 0.73900008 2.3325853e-38
0.041580971 -0.027485706 0.74000001 2.341769e-38
0.043106645 -0.027559988 0.7420001 2.341769e-38
0.044580072 -0.027597152 0.74300009 2.341769e-38
0.046242878 -0.027745701 0.74700004 2.341769e-38
0.047729552 -0.027782865 0.74800009 2.341769e-38
0.049154297 -0.02778285 0.74800003 2.341769e-38
0.050714321 -0.027857132 0.75000006 2.3413322e-38
0.05228195 -0.027931415 0.75200003 1.8165723e-38
0.05378576 -0.027968548 0.75300008 1.2922067e-38
0.05536668 -0.028042845 0.75500005 1.3565568e-38
0.056804754 -0.028042845 0.75500005 1.4208379e-38
0.058320072 -0.028079994 0.7560001 1.1260638e-38
0.059918128 -0.028154276 0.75800008 8.2967883e-39
0.06152384 -0.028228544 0.76000005 8.2924807e-39
0.063220076 -0.028340004 0.76300001 8.2931996e-39
0.064842887 -0.028414287 0.7650001 8.0173372e-39
0.066300035 -0.028414287 0.7650001 7.7425636e-39
0.067757197 -0.028414272 0.7650001 7.5603429e-39
0.069214299 -0.028414272 0.76500005 7.3748727e-39
-0.034556124 -0.027203791 0.77200001 1.4573092e-38
-0.032999963 -0.027133308 0.77000004 1.4300097e-38
-0.031451434 -0.027062856 0.76800007 1.4391573e-38
-0.02998855 -0.027062841 0.76800007 1.4574535e-38
-0.028525725 -0.027062856 0.76800007 1.4574903e-38
-0.027027614 -0.0270276 0.76700008 1.4667097e-38
-0.025499986 -0.026957132 0.7650001 1.4851844e-38
-0.023979943 -0.026886649 0.76300001 1.5037669e-38
-0.022467609 -0.026816182 0.7610001 1.5405012e-38
-0.020990465 -0.026780941 0.76000005 1.5771995e-38
-0.019491401 -0.026710458 0.75800002 1.6047861e-38
-0.018047594 -0.026710488 0.75800002 1.6414844e-38
-0.016603786 -0.026710473 0.75800002 1.6231532e-38
-0.01511995 -0.026639976 0.7560001 1.6047146e-38
-0.013661905 -0.026604734 0.75500005 1.5125923e-38
-0.012175192 -0.026499026 0.75200003 1.4205411e-38
-0.01068572 -0.02635809 0.74800009 1.4112495e-38
-0.0092485566 -0.026322849 0.74700004 1.4022805e-38
-0.0078047235 -0.026252367 0.74500006 1.3742627e-38
-0.0063856672 -0.026252367 0.74500006 1.3463156e-38
-0.0049532969 -0.026181899 0.74300009 1.3279108e-38
-0.0035333494 -0.026146673 0.7420001 1.309403e-38
-0.0021142513 -0.026076175 0.74000001 1.3006527e-38
-0.00070188561 -0.025970466 0.73700011 1.2825373e-38
0.00070097676 -0.025935225 0.73600012 1.2642424e-38
0.0021028556 -0.02593524 0.73600012 1.2552023e-38
0.0034952573 -0.025864743 0.73400009 1.2091409e-38
0.0048933513 -0.025864743 0.73400009 1.17237e-38
0.0062742978 -0.02579429 0.73200011 1.0802107e-38
0.0076581109 -0.025759049 0.73100007 9.9738077e-39
0.0090133753 -0.025653325 0.72800004 1.4024269e-38
0.010371452 -0.025582828 0.72600007 1.8175528e-38
0.011738114 -0.025547616 0.72500008 2.0752667e-38
0.013119051 -0.025547601 0.72500008 2.341769e-38
0.014460018 -0.025477149 0.72300011 2.341769e-38
0.015815293 -0.025441878 0.72200006 2.341769e-38
0.017190523 -0.025441892 0.72200012 2.2681212e-38
0.018514324 -0.025371425 0.72000003 2.1941135e-38
0.019940998 -0.025441907 0.72200012 2.129612e-38
0.021316241 -0.025441892 0.72200006 2.0650047e-38
0.02269147 -0.025441892 0.72200012 2.2035476e-38
0.024100028 -0.025477134 0.72300005 2.3417682e-38
0.025477182 -0.025477134 0.72300011 2.341769e-38
0.02685431 -0.025477119 0.72300005 2.341769e-38
0.028309556 -0.025547616 0.72500008 2.341769e-38
0.029813383 -0.02565331 0.72800004 2.341769e-38
0.03124287 -0.025688551 0.72900009 2.341769e-38
0.032720979 -0.025759034 0.73100007 2.3325131e-38
0.034160025 -0.025794275 0.73200005 2.3232214e-38
0.035748601 -0.025935225 0.73600012 2.3050342e-38
0.037150498 -0.025935225 0.73600012 2.2958154e-38
0.038604833 -0.025970466 0.73700005 2.2864882e-38
0.040117133 -0.026040934 0.73900008 2.3141463e-38
0.041580983 -0.02607616 0.74000001 2.3417689e-38
0.043106675 -0.026146658 0.74200004 2.341769e-38
0.044580072 -0.026181899 0.74300003 2.341769e-38
0.04624287 -0.026322849 0.74700004 2.341769e-38
0.047729556 -0.026358105 0.74800009 2.341769e-38
0.049285751 -0.026428558 0.75000012 2.341769e-38
0.050714307 -0.026428573 0.75000012 2.3417613e-38
0.052281953 -0.026499026 0.75200003 1.7890546e-38
0.053785734 -0.026534267 0.75300008 1.23653e-38
0.055366669 -0.026604749 0.75500005 1.3382256e-38
0.056804746 -0.026604749 0.75500005 1.4398869e-38
0.058320068 -0.026639991 0.7560001 1.1070154e-38
0.059918143 -0.026710473 0.75800002 7.8243307e-39
0.061523877 -0.026780926 0.76000005 7.9215346e-39
0.063220061 -0.026886679 0.76300007 8.0180364e-39
0.064842887 -0.026957132 0.7650001 7.8336494e-39
0.066300042 -0.026957147 0.7650001 7.6496449e-39
0.067757197 -0.026957132 0.7650001 7.5581919e-39
0.069214307 -0.026957132 0.76500005 7.374165e-39
-0.034556158 -0.025733329 0.77200001 1.4573811e-38
-0.032999992 -0.025666676 0.7700001 1.420683e-38
-0.031451408 -0.025599994 0.76800001 1.4390863e-38
-0.029988561 -0.025600009 0.76800007 1.4482703e-38
-0.028525697 -0.025599994 0.76800001 1.4574542e-38
-0.027027594 -0.02556666 0.76700002 1.466709e-38
-0.025500007 -0.025499992 0.7650001 1.4944027e-38
-0.02397996 -0.025433339 0.76300007 1.5128781e-38
-0.022526613 -0.025433324 0.76300001 1.5496849e-38
-0.020990467 -0.025333323 0.76000005 1.5864192e-38
-0.019542815 -0.025333337 0.76000005 1.6231536e-38
-0.018047577 -0.025266655 0.75800002 1.6506689e-38
-0.016559951 -0.025199987 0.7560001 1.6323024e-38
-0.015119951 -0.025199972 0.7560001 1.6047866e-38
-0.013661914 -0.025166653 0.75500005 1.5402139e-38
-0.012175191 -0.025066651 0.75200003 1.4663857e-38
-0.010714257 -0.024999991 0.75000012 1.4292916e-38
-0.0092485603 -0.024899989 0.74700004 1.383231e-38
-0.0078047225 -0.024833322 0.74500012 1.3368832e-38
-0.0063856887 -0.024833322 0.74500006 1.2912155e-38
-0.0049532978 -0.024766661 0.74300009 1.2821028e-38
-0.0035333587 -0.02473332 0.7420001 1.2730285e-38
-0.0021199929 -0.024733327 0.74200004 1.2640979e-38
-0.00070184091 -0.02456665 0.73700005 1.2458743e-38
0.00070194533 -0.024566665 0.73700011 1.2459462e-38
0.0021028891 -0.024533331 0.73600012 1.2366551e-38
0.0034952518 -0.024466656 0.73400003 1.135421e-38
0.0048933458 -0.024466671 0.73400003 1.0342578e-38
0.0062743127 -0.024399981 0.73200005 9.5128225e-39
0.0076581016 -0.024366677 0.73100007 8.5959165e-39
0.0090133548 -0.02426666 0.72800004 1.355756e-38
0.010371475 -0.024199992 0.72600007 1.8446729e-38
0.011738129 -0.024166666 0.72500008 2.0938132e-38
0.013082901 -0.024099991 0.72300005 2.3417689e-38
0.014440054 -0.024066649 0.72200006 2.3417687e-38
0.015815282 -0.024066664 0.72200012 2.3417689e-38
0.017190527 -0.024066657 0.72200006 2.2958513e-38
0.018514309 -0.023999982 0.72000003 2.2402465e-38
0.01988573 -0.023999989 0.72000003 2.12007e-38
0.02131623 -0.024066657 0.72200012 2.0013303e-38
0.022691473 -0.024066642 0.72200006 2.1764643e-38
0.024100024 -0.024099998 0.72300011 2.3417686e-38
0.025477156 -0.024099991 0.72300011 2.341769e-38
0.026854306 -0.024100013 0.72300011 2.341769e-38
0.028309548 -0.024166651 0.72500008 2.341769e-38
0.029813364 -0.024266638 0.72800004 2.341769e-38
0.031328607 -0.024366662 0.73100007 2.3325854e-38
0.03276572 -0.024400003 0.73200011 2.3233657e-38
0.034253385 -0.024466656 0.73400003 2.3324413e-38
0.035748575 -0.024533324 0.73600012 2.3417327e-38
0.037200995 -0.024566673 0.73700011 2.3050348e-38
0.038604818 -0.024566643 0.73700005 2.2590093e-38
0.040117159 -0.024633333 0.73900008 2.3049629e-38
0.041580994 -0.024666637 0.74000001 2.341769e-38
0.043106668 -0.02473332 0.74200004 2.341769e-38
0.044580072 -0.024766669 0.74300003 2.341769e-38
0.046242867 -0.024899997 0.74700004 2.341769e-38
0.047729563 -0.024933331 0.74800009 2.341769e-38
0.049285773 -0.024999999 0.75000012 2.341769e-38
0.050714288 -0.024999999 0.75000012 2.3321105e-38
0.052281953 -0.025066651 0.75200003 1.761323e-38
0.053785741 -0.025099985 0.75300008 1.1818942e-38
0.055366658 -0.025166653 0.75500005 1.3199302e-38
0.056804776 -0.025166638 0.75500005 1.4483549e-38
0.058474332 -0.025266655 0.75800008 1.0980152e-38
0.060076192 -0.025333308 0.76000005 7.3762978e-39
0.06152387 -0.025333323 0.76000005 7.5516913e-39
0.063220084 -0.025433339 0.76300001 7.7403944e-39
0.064842895 -0.025499992 0.7650001 7.650005e-39
0.066300042 -0.025500007 0.7650001 7.5578234e-39
0.067757159 -0.025499977 0.76500005 7.4649257e-39
0.069214307 -0.025500007 0.76500005 7.3741636e-39
0.070856228 -0.02556666 0.76700008 7.8344159e-39
-0.033085689 -0.02426286 0.77200001 1.3838416e-38
-0.031533312 -0.024199992 0.7700001 1.4206482e-38
-0.030066639 -0.024199992 0.77000004 1.4573824e-38
-0.028525706 -0.024137154 0.76800007 1.4666375e-38
-0.027027573 -0.024105705 0.76700002 1.4758561e-38
-0.025500007 -0.024042845 0.7650001 1.4943657e-38
-0.024042848 -0.024042852 0.7650001 1.5128059e-38
-0.022526592 -0.023979999 0.76300001 1.5588326e-38
-0.020990433 -0.023885682 0.76000005 1.6047866e-38
-0.019542819 -0.023885697 0.76000005 1.623154e-38
-0.018047599 -0.023822859 0.75800008 1.6414863e-38
-0.016603792 -0.023822851 0.75800008 1.6047891e-38
-0.015119952 -0.023759998 0.7560001 1.5591922e-38
-0.013661887 -0.023728557 0.75500005 1.4940442e-38
-0.012175228 -0.023634277 0.75200009 1.4386902e-38
-0.010714275 -0.023571417 0.75000012 1.3832283e-38
-0.009260946 -0.023508564 0.74800003 1.3368819e-38
-0.0078047067 -0.023414269 0.74500006 1.3003287e-38
-0.0063856728 -0.023414284 0.74500006 1.2637738e-38
-0.0049532978 -0.023351423 0.74300009 1.2547693e-38
-0.0035380498 -0.023351446 0.74300009 1.2364747e-38
-0.0021200031 -0.023319982 0.7420001 1.2090323e-38
-0.00070185767 -0.023162849 0.73700005 1.1908443e-38
0.00070192857 -0.023162842 0.73700011 1.163114e-38
0.0021028649 -0.023131423 0.73600012 1.1447831e-38
0.0034952704 -0.023068562 0.73400009 1.0709921e-38
0.0048933644 -0.023068547 0.73400009 9.9730804e-39
0.0062742904 -0.023005702 0.73200011 9.053645e-39
0.0076581072 -0.022974283 0.73100007 8.134588e-39
0.0090257246 -0.022911429 0.72900003 1.3103405e-38
0.010400029 -0.022879988 0.72800004 1.8176963e-38
0.011754299 -0.022817135 0.72600007 2.0844861e-38
0.013119059 -0.022785701 0.72500008 2.3417687e-38
0.014460027 -0.02272284 0.72300011 2.304819e-38
0.015815286 -0.022691421 0.72200006 2.2682286e-38
0.017190516 -0.022691414 0.72200012 2.2774842e-38
0.01851432 -0.022628553 0.72000003 2.2866666e-38
0.019885739 -0.022628561 0.72000009 2.2127307e-38
0.021257177 -0.022628568 0.72000003 2.1489133e-38
0.022691462 -0.022691436 0.72200012 2.2499335e-38
0.024066705 -0.022691406 0.72200006 2.341769e-38
0.025477193 -0.022722833 0.72300005 2.341769e-38
0.026928563 -0.022785708 0.72500008 2.341769e-38
0.028348604 -0.022817127 0.72600001 2.341769e-38
0.029854294 -0.022911422 0.72900003 2.341769e-38
0.031328578 -0.022974275 0.73100007 2.341769e-38
0.032765754 -0.023005702 0.73200005 2.3325853e-38
0.034253381 -0.023068547 0.73400003 2.3233299e-38
0.035748608 -0.02313143 0.73600012 2.3234018e-38
0.037200976 -0.023162849 0.73700011 2.2957435e-38
0.0386048 -0.023162842 0.73700011 2.2773407e-38
0.040008627 -0.023162857 0.73700005 2.3049989e-38
0.041693375 -0.023320004 0.7420001 2.341769e-38
0.043164842 -0.023351423 0.74300003 2.341769e-38
0.044580068 -0.023351416 0.74300003 2.341769e-38
0.046242863 -0.023477137 0.74700004 2.341769e-38
0.047729529 -0.023508579 0.74800009 2.341769e-38
0.049285755 -0.023571439 0.75000012 2.3325854e-38
0.05071431 -0.023571417 0.75000006 2.3325762e-38
0.052281961 -0.023634262 0.75200003 1.7429184e-38
0.053785749 -0.023665696 0.75300008 1.1628088e-38
0.05536665 -0.023728542 0.75500005 1.292272e-38
0.056880046 -0.023759991 0.7560001 1.4305279e-38
0.05847431 -0.023822844 0.75800002 1.0793291e-38
0.060076229 -0.023885697 0.76000005 7.2819764e-39
0.061604775 -0.023917131 0.76100004 7.5563632e-39
0.063220069 -0.023980014 0.76300007 7.8333243e-39
0.064842895 -0.024042852 0.7650001 7.6500316e-39
0.066300049 -0.024042845 0.7650001 7.4667208e-39
0.067757152 -0.024042845 0.76500005 7.4660047e-39
0.069395289 -0.024105698 0.76700002 7.3738049e-39
0.070856258 -0.024105713 0.76700002 7.6503806e-39
-0.033085663 -0.022792369 0.77200001 1.3378887e-38
-0.031615183 -0.022792369 0.77200001 1.4023178e-38
-0.030066632 -0.022733316 0.77000004 1.4575263e-38
-0.02852568 -0.02267427 0.76800001 1.4667094e-38
-0.027027592 -0.022644758 0.76700008 1.4759643e-38
-0.025500003 -0.022585712 0.7650001 1.4943311e-38
-0.023979954 -0.022526667 0.76300007 1.512878e-38
-0.022526629 -0.022526659 0.76300001 1.5680873e-38
-0.02101808 -0.022467598 0.76100004 1.6231525e-38
-0.019542823 -0.022438087 0.76000005 1.6323716e-38
-0.018047582 -0.022379041 0.75800002 1.6321925e-38
-0.016559951 -0.022319987 0.7560001 1.5770199e-38
-0.015119953 -0.022319995 0.7560001 1.512303e-38
-0.013661897 -0.022290453 0.75500005 1.456411e-38
-0.012191407 -0.022231407 0.75300002 1.4015967e-38
-0.010742845 -0.022201903 0.75200003 1.3463519e-38
-0.0092856931 -0.022142857 0.75000012 1.282068e-38
-0.0078257034 -0.022054277 0.7470001 1.2637738e-38
-0.0063856943 -0.021995232 0.74500006 1.2364023e-38
-0.0049666362 -0.021995217 0.74500006 1.2182864e-38
-0.0035380516 -0.021936178 0.74300009 1.1998481e-38
-0.0021200143 -0.021906666 0.7420001 1.1630784e-38
-0.00070380786 -0.021818101 0.73900008 1.1262365e-38
0.00070195278 -0.021759048 0.73700005 1.089287e-38
0.0021057371 -0.021759056 0.73700011 1.0433691e-38
0.0035047792 -0.021729507 0.73600012 1.0064913e-38
0.0048933588 -0.021670461 0.73400003 9.6053755e-39
0.0062743314 -0.021611422 0.73200005 8.5937473e-39
0.0076581165 -0.021581903 0.73100007 7.5807024e-39
0.0090257376 -0.02152285 0.72900009 1.272781e-38
0.010400007 -0.021493316 0.72800004 1.7895356e-38
0.011786697 -0.021493308 0.72800004 2.0662625e-38
0.013137184 -0.02143427 0.72600001 2.3415889e-38
0.014460061 -0.021345697 0.72300005 2.2675459e-38
0.015815275 -0.021316178 0.72200012 2.1945445e-38
0.01719052 -0.021316171 0.72200006 2.2591171e-38
0.018514331 -0.021257125 0.72000003 2.3232576e-38
0.01988573 -0.021257125 0.72000003 2.3136786e-38
0.02131626 -0.021316178 0.72200006 2.2957069e-38
0.022691464 -0.021316178 0.72200006 2.3234019e-38
0.024100037 -0.021345697 0.72300011 2.341769e-38
0.025547616 -0.021404766 0.72500008 2.341769e-38
0.026965767 -0.021434277 0.72600001 2.341769e-38
0.028426718 -0.021493323 0.72800004 2.341769e-38
0.029854305 -0.021522842 0.72900009 2.341769e-38
0.031328581 -0.021581903 0.73100007 2.341769e-38
0.032765735 -0.021611422 0.73200011 2.341697e-38
0.034253396 -0.021670461 0.73400003 2.323222e-38
0.035748586 -0.021729521 0.73600012 2.2957073e-38
0.037200999 -0.021759026 0.73700005 2.295564e-38
0.038604788 -0.021759018 0.73700011 2.2865241e-38
0.040117159 -0.021818094 0.73900008 2.3142183e-38
0.041693363 -0.021906659 0.7420001 2.341769e-38
0.043106645 -0.021906659 0.7420001 2.341769e-38
0.044580072 -0.021936193 0.74300003 2.341769e-38
0.045995295 -0.021936171 0.74300003 2.341769e-38
0.047729529 -0.022083811 0.74800009 2.341769e-38
0.04928574 -0.022142857 0.75000012 2.3325854e-38
0.050714295 -0.02214285 0.75000012 2.322819e-38
0.052142888 -0.02214285 0.75000012 1.7333049e-38
0.053714328 -0.022201903 0.75200009 1.1451592e-38
0.05536668 -0.022290453 0.75500005 1.2741554e-38
0.056880049 -0.02231998 0.7560001 1.4020793e-38
0.058320068 -0.02231998 0.7560001 1.0606017e-38
0.060076226 -0.022438087 0.76000005 7.1047584e-39
0.061766744 -0.022526667 0.76300007 7.5585254e-39
0.063220046 -0.022526652 0.76300001 7.9258955e-39
0.064842895 -0.02258572 0.7650001 7.6500597e-39
0.066473342 -0.022644751 0.76700008 7.3749007e-39
0.067934304 -0.022644766 0.76700008 7.3748895e-39
0.069395274 -0.022644773 0.76700008 7.3748853e-39
0.070856236 -0.022644766 0.76700008 7.4670753e-39
0.072317153 -0.022644766 0.76700002 7.5589164e-39
-0.033085674 -0.021321893 0.77200007 1.4023536e-38
-0.031615198 -0.021321893 0.77200001 1.4666752e-38
-0.030066622 -0.021266647 0.77000004 1.5312462e-38
-0.028599989 -0.021266662 0.7700001 1.5035512e-38
-0.027027596 -0.021183804 0.76700002 1.4760726e-38
-0.025566632 -0.021183804 0.76700002 1.4852205e-38
-0.024042847 -0.021128573 0.7650001 1.4946546e-38
-0.022526605 -0.021073326 0.76300001 1.4942595e-38
-0.021018075 -0.02101808 0.76100004 1.5036933e-38
-0.019542826 -0.020990469 0.76000005 1.4940065e-38
-0.018047605 -0.020935237 0.75800008 1.4941856e-38
-0.016559955 -0.020879999 0.7560001 1.4754953e-38
-0.015099983 -0.02085235 0.75500005 1.4658085e-38
-0.013661906 -0.020852365 0.75500005 1.4291808e-38
-0.012175223 -0.020769507 0.75200009 1.4015961e-38
-0.010742841 -0.020769499 0.75200003 1.3373848e-38
-0.0092609515 -0.020659044 0.74800009 1.2730285e-38
-0.0078257071 -0.020631418 0.7470001 1.2364381e-38
-0.0063856561 -0.020576172 0.74500006 1.2089952e-38
-0.0049666204 -0.020576179 0.74500006 1.1722253e-38
-0.0035380535 -0.020520948 0.74300003 1.1448184e-38
-0.0021200022 -0.020493321 0.7420001 1.1077975e-38
-0.000703806 -0.020410478 0.73900008 1.0709558e-38
0.00070193416 -0.020355225 0.73700005 1.0248946e-38
0.0021057576 -0.020355217 0.73700005 9.788329e-39
0.0035047531 -0.020327613 0.73600012 9.3291459e-39
0.0048933532 -0.020272352 0.73400003 8.8706859e-39
0.0062914472 -0.020272367 0.73400003 6.3839529e-39
0.0076581091 -0.020189531 0.73100007 3.9883533e-39
0.009050509 -0.020189531 0.73100007 1.0800697e-38
0.010414282 -0.02013427 0.72900009 1.7718142e-38
0.011786679 -0.020106651 0.72800004 2.0569355e-38
0.013119066 -0.020023786 0.72500002 2.3417679e-38
0.014460035 -0.019968554 0.72300005 2.2311337e-38
0.015815277 -0.01994095 0.72200006 2.1118204e-38
0.017190548 -0.019940935 0.72200006 2.1671739e-38
0.018514317 -0.019885704 0.72000003 2.2131987e-38
0.019885737 -0.019885726 0.72000009 2.2495736e-38
0.021316223 -0.01994092 0.72200006 2.2866671e-38
0.022628592 -0.019885696 0.72000003 2.3142183e-38
0.024100009 -0.019968554 0.72300011 2.341769e-38
0.025582904 -0.02005142 0.72600001 2.341769e-38
0.027040029 -0.020106636 0.72800004 2.341769e-38
0.028465742 -0.020134278 0.72900003 2.341769e-38
0.029936215 -0.020189524 0.73100007 2.341769e-38
0.031371426 -0.020217136 0.73200011 2.3141825e-38
0.032855261 -0.020272374 0.73400009 2.2957791e-38
0.034346696 -0.020327605 0.73600006 2.2956709e-38
0.035748597 -0.020327613 0.73600012 2.3048547e-38
0.037201006 -0.020355217 0.73700011 2.2957072e-38
0.038709551 -0.020410471 0.73900008 2.2957434e-38
0.040117159 -0.020410463 0.73900008 2.3141825e-38
0.041693352 -0.020493343 0.7420001 2.341769e-38
0.043164842 -0.020520948 0.74300003 2.341769e-38
0.044700041 -0.020576186 0.74500006 2.341769e-38
0.046304747 -0.020659044 0.74800009 2.341769e-38
0.047729537 -0.020659044 0.74800009 2.341769e-38
0.049285766 -0.020714276 0.75000012 2.3234019e-38
0.050714277 -0.020714276 0.75000012 2.3050261e-38
0.052281924 -0.020769514 0.75200009 1.7245165e-38
0.053785738 -0.020797133 0.75300008 1.1449798e-38
0.055366665 -0.020852372 0.75500005 1.2645767e-38
0.057030518 -0.020935237 0.75800002 1.3837828e-38
0.058628626 -0.020990461 0.76000005 1.0516676e-38
0.060155246 -0.021018095 0.76100004 7.2884266e-39
0.061766729 -0.021073326 0.76300007 7.5599688e-39
0.06338574 -0.02112858 0.7650001 7.8347956e-39
0.065012403 -0.021183804 0.76700002 7.4664153e-39
0.066473365 -0.021183804 0.76700002 7.0994082e-39
0.06802287 -0.021211423 0.76800001 7.1912199e-39
0.069485739 -0.02121143 0.76800007 7.283054e-39
0.070948601 -0.021211416 0.76800007 7.2834099e-39
-0.033085674 -0.019851424 0.77200001 1.4570589e-38
-0.031615209 -0.019851424 0.77200007 1.5308145e-38
-0.03006665 -0.019799992 0.7700001 1.5951706e-38
-0.028599981 -0.0198 0.7700001 1.5401765e-38
-0.027027614 -0.019722849 0.76700008 1.4756766e-38
-0.025566652 -0.019722857 0.76700008 1.4758202e-38
-0.024042867 -0.019671425 0.7650001 1.4752814e-38
-0.022526622 -0.019619986 0.76300001 1.4289325e-38
-0.021018071 -0.019568555 0.76100004 1.3739381e-38
-0.019542828 -0.019542843 0.76000011 1.3641799e-38
-0.018047586 -0.019491419 0.75800002 1.3465315e-38
-0.016559953 -0.019440003 0.7560001 1.3833386e-38
-0.015099991 -0.019414268 0.75500005 1.4110324e-38
-0.013661916 -0.019414268 0.75500005 1.402064e-38
-0.012175223 -0.01933714 0.75200003 1.392809e-38
-0.01074284 -0.019337133 0.75200003 1.3285244e-38
-0.0092856884 -0.019285716 0.75000012 1.2641681e-38
-0.0078361798 -0.01923427 0.74800003 1.2183222e-38
-0.0063856756 -0.019157127 0.74500006 1.1722616e-38
-0.0049666399 -0.019157134 0.74500006 1.1352049e-38
-0.0035380553 -0.019105695 0.74300003 1.0892872e-38
-0.0021228055 -0.01910571 0.74300003 1.0523019e-38
-0.000703806 -0.019002847 0.73900008 1.0156391e-38
0.00070382847 -0.019002855 0.73900008 9.6964935e-39
0.0021057669 -0.018951409 0.73700011 9.1451204e-39
0.0035047885 -0.018925704 0.73600012 8.5930298e-39
0.0048933718 -0.01887428 0.73400009 8.0380694e-39
0.0062743071 -0.018822849 0.73200011 4.1748787e-39
0.0076581128 -0.018797152 0.73100007 3.1565229e-40
0.0090504736 -0.018797144 0.73100007 8.9521518e-39
0.010414332 -0.018745698 0.72900003 1.7526938e-38
0.011786699 -0.018719986 0.72800004 2.0478954e-38
0.013119081 -0.01864285 0.72500008 2.3416226e-38
0.014460031 -0.018591426 0.72300011 2.1850328e-38
0.015815305 -0.018565699 0.72200006 2.0288777e-38
0.01719051 -0.018565714 0.72200006 2.066187e-38
0.018514324 -0.018514268 0.72000003 2.1023106e-38
0.019885723 -0.018514276 0.72000003 2.1939302e-38
0.021257181 -0.018514276 0.72000003 2.2771586e-38
0.022628579 -0.018514268 0.72000003 2.3142183e-38
0.024100045 -0.018591434 0.72300005 2.341769e-38
0.025582906 -0.018668555 0.72600001 2.341769e-38
0.027040008 -0.018719994 0.72800004 2.341769e-38
0.028465729 -0.018745698 0.72900003 2.341769e-38
0.02993622 -0.018797137 0.73100007 2.3417331e-38
0.031371463 -0.018822834 0.73200011 2.2957436e-38
0.032855257 -0.018874265 0.73400003 2.2406062e-38
0.034253348 -0.018874288 0.73400003 2.2772323e-38
0.035748571 -0.018925704 0.73600012 2.3049266e-38
0.037200987 -0.018951401 0.73700011 2.3049628e-38
0.038709551 -0.019002855 0.73900008 2.2958152e-38
0.040117163 -0.019002847 0.73900002 2.3234019e-38
0.041693345 -0.019079998 0.7420001 2.341769e-38
0.043164801 -0.019105703 0.74300009 2.341769e-38
0.044700056 -0.019157134 0.74500006 2.341769e-38
0.046304751 -0.019234277 0.74800009 2.341769e-38
0.04785715 -0.019285716 0.75000012 2.341769e-38
0.049285747 -0.019285716 0.75000012 2.3142183e-38
0.050849564 -0.019337133 0.75200009 2.2860493e-38
0.052281924 -0.019337133 0.75200009 1.7147593e-38
0.053928584 -0.019414283 0.75500005 1.1452315e-38
0.055440024 -0.019439988 0.75600004 1.2554299e-38
0.057180986 -0.019542836 0.76000005 1.3651646e-38
0.05870571 -0.019568555 0.76100004 1.0518101e-38
0.06015525 -0.019568563 0.76100004 7.376316e-39
0.061766706 -0.019619986 0.76300001 7.5585437e-39
0.06338574 -0.019671425 0.7650001 7.6504002e-39
0.06501238 -0.019722849 0.76700008 7.1898088e-39
0.06647335 -0.019722857 0.76700008 6.7316893e-39
0.068022862 -0.019748569 0.76800007 7.007895e-39
0.069485724 -0.019748569 0.76800001 7.1915702e-39
0.070948601 -0.019748569 0.76800007 7.0075433e-39
-0.033085685 -0.018380947 0.77200001 1.4474436e-38
-0.031615205 -0.018380933 0.77200001 1.4845357e-38
-0.030066645 -0.018333323 0.7700001 1.5304536e-38
-0.028599972 -0.018333331 0.7700001 1.4752447e-38
-0.027027594 -0.018261895 0.76700002 1.4198564e-38
-0.025499998 -0.018214285 0.7650001 1.3922698e-38
-0.024042865 -0.01821427 0.7650001 1.3640009e-38
-0.022526599 -0.018166646 0.76300001 1.3368441e-38
-0.021018066 -0.018119022 0.76100004 1.3090778e-38
-0.019542834 -0.018095225 0.76000011 1.3185477e-38
-0.018047569 -0.018047616 0.75800002 1.3280211e-38
-0.016559955 -0.017999992 0.7560001 1.3651525e-38
-0.015100002 -0.017976172 0.75500005 1.4021025e-38
-0.013625719 -0.017928571 0.75300008 1.3930272e-38
-0.012175221 -0.017904744 0.75200003 1.3839501e-38
-0.010742817 -0.017904751 0.75200009 1.3287041e-38
-0.0092857033 -0.017857127 0.75000012 1.2734953e-38
-0.007836177 -0.01780951 0.74800003 1.1814806e-38
-0.0064028511 -0.017785706 0.7470001 1.0897535e-38
-0.0049666259 -0.017738074 0.74500006 1.0524821e-38
-0.0035380572 -0.017690457 0.74300003 1.0247518e-38
-0.0021228064 -0.017690472 0.74300003 1.0064201e-38
-0.00070378178 -0.017595232 0.73900008 9.8805246e-39
0.00070382847 -0.017595224 0.73900002 9.0522059e-39
0.0021057483 -0.017547615 0.73700011 8.3182422e-39
0.0035047643 -0.01752381 0.73600012 7.7629258e-39
0.0048933662 -0.017476186 0.73400003 7.2994408e-39
0.0062743239 -0.017428547 0.73200005 3.8064605e-39
0.007658083 -0.017404765 0.73100007 3.102727e-40
0.0090505052 -0.017404772 0.73100007 9.0561856e-39
0.010414321 -0.017357133 0.72900003 1.7907555e-38
0.011786701 -0.017333314 0.72800004 2.0662625e-38
0.013119034 -0.0172619 0.72500008 2.3417641e-38
0.014460048 -0.017214276 0.72300005 2.1849931e-38
0.0158372 -0.017214276 0.72300005 2.0279412e-38
0.017190536 -0.017190456 0.72200006 2.0191532e-38
0.018514309 -0.017142855 0.72000003 2.0093949e-38
0.01988573 -0.017142847 0.72000009 2.0741811e-38
0.021257166 -0.01714284 0.72000003 2.1392599e-38
0.022628587 -0.017142847 0.72000003 2.2406423e-38
0.024100017 -0.017214276 0.72300011 2.341769e-38
0.025582891 -0.017285712 0.72600007 2.341769e-38
0.027040049 -0.017333314 0.72800004 2.341769e-38
0.028465744 -0.017357118 0.72900003 2.341769e-38
0.029936189 -0.01740475 0.73100007 2.341769e-38
0.031371444 -0.017428577 0.73200011 2.3049631e-38
0.032855272 -0.017476194 0.73400009 2.2681211e-38
0.034346707 -0.017523803 0.73600012 2.2865238e-38
0.035797186 -0.0175476 0.73700005 2.3142181e-38
0.037200972 -0.017547615 0.73700011 2.3049988e-38
0.038709555 -0.017595232 0.73900002 2.2958154e-38
0.040117148 -0.017595239 0.73900008 2.3234019e-38
0.041693334 -0.017666668 0.7420001 2.341769e-38
0.043164801 -0.01769048 0.74300009 2.341769e-38
0.044700038 -0.017738074 0.74500006 2.341769e-38
0.046304759 -0.017809518 0.74800009 2.341769e-38
0.047857173 -0.017857134 0.75000012 2.341769e-38
0.049417198 -0.017904758 0.75200003 2.3050348e-38
0.050849564 -0.017904766 0.75200009 2.2774757e-38
0.052281924 -0.017904766 0.75200009 1.7245529e-38
0.053928573 -0.017976165 0.75500005 1.1728186e-38
0.055440024 -0.017999999 0.75600004 1.2738696e-38
0.057180986 -0.018095233 0.76000005 1.3747785e-38
0.058705717 -0.018119037 0.76100004 1.0234334e-38
0.060313426 -0.018166654 0.76300001 6.7119436e-39
0.061766729 -0.018166654 0.76300001 7.185113e-39
0.06338574 -0.018214285 0.7650001 7.7425874e-39
0.065012403 -0.018261895 0.76700002 7.3752496e-39
0.066473365 -0.018261902 0.76700008 7.0993718e-39
0.068022892 -0.018285714 0.76800001 7.2833889e-39
0.069485709 -0.018285707 0.76800007 7.3752342e-39
0.070948631 -0.018285707 0.76800007 7.2837658e-39
-0.033085659 -0.016910456 0.77200001 1.438691e-38
-0.03161522 -0.016910478 0.77200007 1.4477666e-38
-0.030066658 -0.016866662 0.7700001 1.4568786e-38
-0.028525701 -0.016822845 0.76800007 1.4104948e-38
-0.027027573 -0.01680094 0.76700002 1.3554291e-38
-0.025499979 -0.016757131 0.76500005 1.3093675e-38
-0.024042863 -0.016757138 0.7650001 1.2543376e-38
-0.022526614 -0.016713329 0.76300001 1.2453328e-38
-0.02101806 -0.016669512 0.76100004 1.2360775e-38
-0.0195428 -0.016647607 0.76000005 1.2729554e-38
-0.018047592 -0.016603805 0.75800008 1.3007226e-38
-0.016559979 -0.016559988 0.7560001 1.3471083e-38
-0.015100012 -0.016538084 0.75500011 1.3838068e-38
-0.013625707 -0.016494274 0.75300008 1.3747311e-38
-0.012175219 -0.016472377 0.75200003 1.3655827e-38
-0.010742813 -0.016472377 0.75200003 1.3196643e-38
-0.00928568 -0.016428567 0.75000012 1.2733163e-38
-0.0078571066 -0.01642856 0.75000006 1.1350972e-38
-0.0064114211 -0.016384751 0.74800009 9.9741636e-39
-0.004966625 -0.016319029 0.74500012 9.7854774e-39
-0.0035475893 -0.016319036 0.74500006 9.6039546e-39
-0.0021228082 -0.016275227 0.74300003 9.6061014e-39
-0.00070377806 -0.016187601 0.73900008 9.5106743e-39
0.00070381729 -0.016187616 0.73900008 8.4968923e-39
0.0021057725 -0.016143799 0.73700005 7.3937916e-39
0.0035047773 -0.016121887 0.73600012 7.0242986e-39
0.0048933644 -0.016078077 0.73400003 6.5647568e-39
0.0062742997 -0.016034283 0.73200011 3.4412695e-39
0.0076581128 -0.016012385 0.73100007 2.2453426e-40
0.0090504754 -0.016012378 0.73100007 9.2377042e-39
0.01041431 -0.015968554 0.72900003 1.8264852e-38
0.011786681 -0.015946642 0.72800004 2.0846296e-38
0.013119049 -0.01588095 0.72500008 2.341659e-38
0.014500026 -0.015880957 0.72500002 2.1851774e-38
0.015837174 -0.015837133 0.72300011 2.0194795e-38
0.017190503 -0.015815221 0.72200012 1.97306e-38
0.01851432 -0.015771419 0.72000003 1.918065e-38
0.019885754 -0.015771411 0.72000003 1.9632999e-38
0.021316245 -0.015815221 0.72200006 2.0012928e-38
0.022691473 -0.015815228 0.72200012 2.1764651e-38
0.024166696 -0.01588095 0.72500008 2.341769e-38
0.025582891 -0.01590284 0.72600001 2.341769e-38
0.027077178 -0.015968554 0.72900003 2.341769e-38
0.028465733 -0.015968561 0.72900003 2.341769e-38
0.029936219 -0.016012378 0.73100007 2.341769e-38
0.031371456 -0.016034268 0.73200005 2.3234019e-38
0.032855269 -0.016078085 0.73400003 2.2957792e-38
0.034346681 -0.016121894 0.73600012 2.3049266e-38
0.035797194 -0.016143799 0.73700011 2.3141102e-38
0.037301946 -0.016187623 0.73900008 2.3049985e-38
0.038709514 -0.016187616 0.73900008 2.2958151e-38
0.040171467 -0.016209505 0.74000001 2.3234018e-38
0.041749571 -0.016275227 0.74300009 2.341769e-38
0.043281019 -0.016319029 0.74500006 2.341769e-38
0.044700053 -0.016319022 0.74500006 2.341769e-38
0.046428606 -0.016428582 0.75000012 2.341769e-38
0.047857158 -0.01642856 0.75000012 2.341769e-38
0.049417164 -0.016472362 0.75200009 2.3050348e-38
0.050849572 -0.016472377 0.75200009 2.2583156e-38
0.05235146 -0.016494274 0.75300008 1.7239715e-38
0.054000046 -0.016559996 0.7560001 1.1913248e-38
0.055586699 -0.01660379 0.75800002 1.2832671e-38
0.057256185 -0.016669527 0.76100004 1.3741683e-38
0.058705725 -0.016669504 0.76100004 9.9588362e-39
0.060313411 -0.016713344 0.76300007 6.0852297e-39
0.061928593 -0.016757138 0.7650001 6.9106589e-39
0.063551463 -0.01680094 0.76700002 7.7414958e-39
0.065012425 -0.016800933 0.76700002 7.6521826e-39
0.066560015 -0.01682286 0.76800007 7.4674172e-39
0.068022877 -0.01682286 0.76800007 7.558517e-39
0.069485739 -0.016822837 0.76800001 7.5588912e-39
-0.03308567 -0.015439987 0.77200007 1.4297231e-38
-0.031533286 -0.0154 0.77000004 1.3652949e-38
-0.03006665 -0.015399985 0.7700001 1.310194e-38
-0.028525732 -0.01535999 0.76800007 1.2546625e-38
-0.027027592 -0.015339993 0.76700008 1.1993814e-38
-0.025566652 -0.015339993 0.76700008 1.1626468e-38
-0.02404286 -0.015299998 0.7650001 1.1261277e-38
-0.022526592 -0.015259989 0.76300001 1.1168004e-38
-0.021018093 -0.015219994 0.7610001 1.0985774e-38
-0.019542824 -0.015199997 0.76000005 1.1996328e-38
-0.018047577 -0.015159979 0.75800002 1.2914686e-38
-0.016559979 -0.015119985 0.75600004 1.3469647e-38
-0.015099982 -0.015099987 0.75500005 1.4112852e-38
-0.013625698 -0.01506 0.75300002 1.3746226e-38
-0.012175217 -0.015039995 0.75200003 1.3380677e-38
-0.010742811 -0.015039988 0.75200003 1.2550567e-38
-0.0092856968 -0.014999993 0.75000012 1.1813378e-38
-0.0078362059 -0.014959991 0.74800009 1.080104e-38
-0.0064114183 -0.014959984 0.74800009 9.8823337e-39
-0.0049666092 -0.014899984 0.74500006 9.6954397e-39
-0.0035475735 -0.014899977 0.74500006 9.6028812e-39
-0.0021228082 -0.014859989 0.74300003 8.316101e-39
-0.00070377806 -0.014779992 0.73900002 7.0286076e-39
0.00070381729 -0.01478 0.73900008 6.6576755e-39
0.0021057557 -0.014739983 0.73700005 6.3785817e-39
0.0035047736 -0.01472 0.73600012 6.1970631e-39
0.0048933793 -0.014679991 0.73400003 6.01482e-39
0.0062743016 -0.014639989 0.73200011 3.0706962e-39
0.0076581184 -0.014619991 0.73100007 2.1448835e-40
0.0090504792 -0.014619984 0.73100007 9.3327683e-39
0.010414323 -0.014579989 0.72900003 1.8455339e-38
0.011786724 -0.014559984 0.72800004 2.0937414e-38
0.01311904 -0.0145 0.72500008 2.341769e-38
0.014500001 -0.0145 0.72500014 2.2590094e-38
0.01583717 -0.01445999 0.72300011 2.1856487e-38
0.017190529 -0.014439985 0.72200006 2.1485916e-38
0.018565737 -0.014439993 0.72200012 2.1121786e-38
0.019941002 -0.014439978 0.72200006 2.0379909e-38
0.021316249 -0.014439985 0.72200006 1.9741383e-38
0.0227229 -0.014459983 0.72300005 2.1579186e-38
0.024166688 -0.014499992 0.72500002 2.341769e-38
0.025582895 -0.014519975 0.72600001 2.341769e-38
0.02704001 -0.014559984 0.72800004 2.341769e-38
0.02846572 -0.014579989 0.72900003 2.341769e-38
0.029936187 -0.014619999 0.73100007 2.341769e-38
0.031371459 -0.014639989 0.73200011 2.3142183e-38
0.032855265 -0.014679976 0.73400003 2.2865957e-38
0.034346718 -0.01472 0.73600012 2.2865235e-38
0.035797175 -0.014739998 0.73700011 2.2955994e-38
0.037301946 -0.014779992 0.73900002 2.2865234e-38
0.038709521 -0.01478 0.73900008 2.2865236e-38
0.040171459 -0.014799982 0.74000007 2.3141822e-38
0.041749571 -0.014860004 0.74300009 2.3417689e-38
0.043397155 -0.014939979 0.74700004 2.341769e-38
0.04482004 -0.014940001 0.7470001 2.341769e-38
0.046428628 -0.015000001 0.75000012 2.341769e-38
0.047857139 -0.014999993 0.75000012 2.341769e-38
0.049417164 -0.015039988 0.75200009 2.2406065e-38
0.050917167 -0.01506 0.75300008 2.1482528e-38
0.052490477 -0.015099987 0.75500005 1.6692932e-38
0.054000042 -0.01512 0.7560001 1.2005398e-38
0.055733383 -0.015199989 0.76000005 1.2739387e-38
0.057256192 -0.015219994 0.76100004 1.3376491e-38
0.058705729 -0.015219994 0.76100004 9.7748135e-39
0.060313385 -0.015259989 0.76300001 6.2688923e-39
0.061928596 -0.015299998 0.7650001 6.913505e-39
0.063551441 -0.015339993 0.76700008 7.6507197e-39
0.065097138 -0.01535999 0.76800007 7.651098e-39
0.066560045 -0.015359998 0.76800007 7.55888e-39
0.068022877 -0.015359998 0.76800007 7.5584974e-39
0.069485739 -0.01535999 0.76800001 7.6503539e-39
-0.03308567 -0.013969511 0.77200001 1.4205758e-38
-0.031533297 -0.013933323 0.77000004 1.2918631e-38
-0.030066643 -0.013933323 0.7700001 1.1540741e-38
-0.028525703 -0.013897136 0.76800001 1.0985426e-38
-0.027027596 -0.013879046 0.76700002 1.0433328e-38
-0.025566632 -0.013879031 0.76700002 1.0248573e-38
-0.024042819 -0.013842843 0.7650001 9.9741454e-39
-0.022526607 -0.013806663 0.76300001 9.7876087e-39
-0.02101809 -0.013770469 0.7610001 9.6082453e-39
-0.01954283 -0.013752356 0.76000005 1.1262723e-38
-0.018047597 -0.013716191 0.75800008 1.2825004e-38
-0.016559981 -0.013679996 0.75600004 1.3563636e-38
-0.015099994 -0.013661891 0.75500005 1.4296166e-38
-0.013625686 -0.013625704 0.75300002 1.3743358e-38
-0.012175215 -0.013607599 0.75200003 1.3100867e-38
-0.01074281 -0.013607606 0.75200003 1.1995612e-38
-0.0092856754 -0.013571404 0.75000006 1.0802112e-38
-0.0078362031 -0.013535224 0.74800009 1.024931e-38
-0.0064028241 -0.013517119 0.74700004 9.6968508e-39
-0.0049666306 -0.013480939 0.74500006 9.6943299e-39
-0.0035475949 -0.013480932 0.74500006 9.6007036e-39
-0.0021228101 -0.013444752 0.74300003 7.1182795e-39
-0.00070381718 -0.013372369 0.73900008 4.5454521e-39
0.00070381915 -0.013372384 0.73900008 4.9106431e-39
0.0021057613 -0.013336182 0.73700011 5.2776249e-39
0.0035047885 -0.013318077 0.73600012 5.3705366e-39
0.0049066897 -0.013318084 0.73600012 5.4623623e-39
0.0062914696 -0.013281889 0.73400003 2.7962547e-39
0.0076686032 -0.013245687 0.73200005 1.3233442e-40
0.0090505108 -0.013227619 0.73100007 9.4238891e-39
0.010414312 -0.013191409 0.72900003 1.8632195e-38
0.011786705 -0.013173304 0.72800004 2.1029967e-38
0.013137178 -0.013137139 0.72600001 2.341769e-38
0.014499992 -0.013119049 0.72500008 2.341769e-38
0.015837181 -0.013082847 0.72300005 2.3417686e-38
0.017214334 -0.01308284 0.72300011 2.3234012e-38
0.018591464 -0.013082854 0.72300005 2.2951304e-38
0.019968618 -0.013082847 0.72300011 2.1206762e-38
0.021345744 -0.01308284 0.72300011 1.9368645e-38
0.022722874 -0.013082847 0.72300005 2.1392643e-38
0.024166703 -0.013119034 0.72500008 2.3416612e-38
0.02558288 -0.013137139 0.72600007 2.341769e-38
0.027077179 -0.013191424 0.72900003 2.341769e-38
0.028465733 -0.013191417 0.72900003 2.341769e-38
0.029936193 -0.013227604 0.73100007 2.341769e-38
0.031371437 -0.013245702 0.73200011 2.3050348e-38
0.032855283 -0.013281897 0.73400003 2.2681208e-38
0.034346692 -0.013318084 0.73600012 2.2680845e-38
0.035797197 -0.013336182 0.73700005 2.2681205e-38
0.037200987 -0.013336174 0.73700011 2.2680848e-38
0.038709544 -0.013372384 0.73900008 2.2681567e-38
0.040171474 -0.013390467 0.74000001 2.3049629e-38
0.041693341 -0.013426647 0.74200004 2.3417689e-38
0.043281015 -0.013480924 0.74500006 2.341769e-38
0.044820037 -0.013517134 0.7470001 2.341769e-38
0.046428613 -0.013571419 0.75000012 2.341769e-38
0.047984764 -0.013607614 0.75200009 2.341769e-38
0.049482912 -0.013625711 0.75300008 2.1856487e-38
0.050917178 -0.013625696 0.75300008 2.0283278e-38
0.052490465 -0.013661891 0.75500005 1.6228e-38
0.054142915 -0.013716191 0.75800002 1.2097951e-38
0.055733379 -0.013752379 0.76000005 1.2558599e-38
0.057256196 -0.013770469 0.76100004 1.3003401e-38
0.058860026 -0.013806649 0.76300001 9.6786438e-39
0.060471445 -0.013842851 0.7650001 6.3646752e-39
0.062090501 -0.013879046 0.76700002 7.0071663e-39
0.063551463 -0.013879038 0.76700002 7.5589038e-39
0.065097168 -0.013897128 0.76800001 7.651105e-39
0.066559985 -0.013897128 0.76800001 7.6507323e-39
0.068022907 -0.013897136 0.76800007 7.6499994e-39
-0.032999963 -0.012466662 0.7700001 1.4114286e-38
-0.031533331 -0.012466669 0.7700001 1.3195938e-38
-0.030066635 -0.012466654 0.7700001 1.2278659e-38
-0.028525714 -0.012434281 0.76800007 1.1631506e-38
-0.027027614 -0.012418084 0.76700008 1.1076893e-38
-0.025566652 -0.012418084 0.76700008 1.0985404e-38
-0.024042839 -0.012385704 0.76500005 1.0894295e-38
-0.022526607 -0.012353323 0.76300001 1.0710634e-38
-0.021018084 -0.012320943 0.7610001 1.0529476e-38
-0.019542836 -0.012304746 0.76000005 1.1263084e-38
-0.01809522 -0.012304761 0.76000005 1.2089604e-38
-0.016559983 -0.012239993 0.7560001 1.2550936e-38
-0.015100002 -0.01222381 0.75500005 1.3009394e-38
-0.013625714 -0.012191422 0.75300008 1.2917556e-38
-0.012175214 -0.012175217 0.75200003 1.2825004e-38
-0.01074281 -0.012175232 0.75200003 1.2089603e-38
-0.0092856903 -0.012142852 0.75000012 1.1354563e-38
-0.0078361752 -0.012110464 0.74800009 1.0065639e-38
-0.0064028297 -0.012094274 0.74700004 8.8688796e-39
-0.0049666148 -0.012061879 0.74500006 8.1305803e-39
-0.0035475791 -0.012061886 0.74500006 7.4866697e-39
-0.0021227896 -0.012029514 0.74300003 6.1059212e-39
-0.00070378924 -0.011964761 0.73900008 4.7255245e-39
0.00070195837 -0.011932366 0.73700005 4.9095599e-39
0.0021057446 -0.011932366 0.73700011 5.0932309e-39
0.0035047624 -0.01191619 0.73600012 4.8184404e-39
0.00489337 -0.011883788 0.73400003 4.5447164e-39
0.006291464 -0.011883803 0.73400003 2.3331185e-39
0.007668579 -0.01185143 0.73200011 1.244367e-40
0.0090504792 -0.011835232 0.73100007 9.6100726e-39
0.010414323 -0.011802845 0.72900003 1.9099625e-38
0.011786707 -0.011786655 0.72800004 2.1213279e-38
0.013137178 -0.011754267 0.72600001 2.341769e-38
0.014499983 -0.011738099 0.72500008 2.341769e-38
0.015837178 -0.011705711 0.72300011 2.3417683e-38
0.017214308 -0.011705704 0.72300011 2.1662756e-38
0.01859146 -0.011705704 0.72300011 1.9905649e-38
0.019968592 -0.011705704 0.72300011 1.963477e-38
0.021345781 -0.011705704 0.72300005 1.9265675e-38
0.022722911 -0.011705689 0.72300005 2.1391204e-38
0.024166653 -0.011738092 0.72500008 2.3417687e-38
0.02558288 -0.011754274 0.72600001 2.341769e-38
0.027040031 -0.011786647 0.72800004 2.341769e-38
0.028465722 -0.011802845 0.72900003 2.341769e-38
0.029936226 -0.011835225 0.73100007 2.341769e-38
0.031371474 -0.011851422 0.73200005 2.2957435e-38
0.032855276 -0.011883795 0.73400003 2.2587219e-38
0.03434667 -0.01191619 0.73600012 2.2773038e-38
