# .PCD v0.7 - Point Cloud Data file format
VERSION 0.7
FIELDS x y z rgb
SIZE 4 4 4 4
TYPE F F F F
COUNT 1 1 1 1
WIDTH 961
HEIGHT 1
VIEWPOINT 0 0 0 1 0 0 0
POINTS 961
DATA ascii
0.049835283 -0.090545736 0.73700005 1.7889584e-38
0.051239051 -0.090545721 0.73700005 1.8072899e-38
0.053571451 -0.092142858 0.75000006 1.8257274e-38
0.055219986 -0.092511423 0.75299996 1.6507004e-38
0.056804769 -0.092757128 0.755 1.484021e-38
0.058628581 -0.093371443 0.75999999 1.0499784e-38
0.060155235 -0.093494289 0.76100004 6.0820109e-39
0.061766692 -0.093740009 0.76300001 7.0068398e-39
0.063551463 -0.094231419 0.76700002 7.9276681e-39
0.065097131 -0.094354279 0.76800001 8.0194658e-39
0.066906661 -0.094845735 0.77200001 8.0198441e-39
-0.029090483 -0.09010952 0.74500006 2.1299054e-38
-0.02767144 -0.090109505 0.745 2.1116099e-38
-0.02618192 -0.089867614 0.74299997 2.0838425e-38
-0.024766667 -0.089867629 0.74300003 1.8171234e-38
-0.02335144 -0.089867614 0.74299997 1.5414024e-38
-0.021936184 -0.089867629 0.74300003 1.5505148e-38
-0.020493291 -0.089746661 0.74200004 1.559951e-38
-0.019079987 -0.089746676 0.74199998 1.7623133e-38
-0.017619044 -0.089504771 0.73999995 1.9643507e-38
-0.016209504 -0.089504756 0.73999995 1.8999575e-38
-0.014799993 -0.089504756 0.73999995 1.8354206e-38
-0.0133724 -0.089383818 0.73899996 1.9454071e-38
-0.011964756 -0.089383818 0.73899996 2.0562558e-38
-0.010557137 -0.089383818 0.73900002 1.9827521e-38
-0.0091495225 -0.089383818 0.73899996 1.909284e-38
-0.0077209347 -0.089141913 0.73700005 1.909356e-38
-0.0063171387 -0.089141928 0.73700005 1.9093919e-38
-0.0049133133 -0.089141913 0.73700005 1.9192569e-38
-0.0035095173 -0.089141913 0.73700005 1.9184313e-38
-0.0020971443 -0.088779055 0.73399997 1.8625043e-38
-0.00069903355 -0.088779055 0.73400003 1.8080125e-38
0.00069616962 -0.088416196 0.73099995 1.9001704e-38
0.0020885658 -0.088416196 0.73099995 1.9921871e-38
0.003480962 -0.088416196 0.73099995 2.0111298e-38
0.0048600123 -0.088174276 0.72900003 2.0291724e-38
0.0062485891 -0.088174276 0.72900003 2.0108036e-38
0.007637166 -0.088174276 0.72900003 1.9829658e-38
0.0090257125 -0.088174276 0.72899997 2.0382106e-38
0.010400036 -0.088053338 0.72800004 2.0934207e-38
0.0117543 -0.087811418 0.72600001 2.1303714e-38
0.013137133 -0.087811403 0.72599995 2.1667813e-38
0.014519996 -0.087811433 0.72599995 2.1024592e-38
0.015880967 -0.08769048 0.72500002 2.028958e-38
0.017261906 -0.08769048 0.72500002 2.0475435e-38
0.018642874 -0.087690495 0.72500002 2.0566883e-38
0.019968566 -0.087448575 0.72299999 1.9004934e-38
0.021316214 -0.087327607 0.72200006 1.7347586e-38
0.022691464 -0.087327607 0.72200006 1.596754e-38
0.024000013 -0.087085716 0.72000003 1.4587855e-38
0.025371445 -0.087085716 0.72000003 1.4308761e-38
0.026742877 -0.087085702 0.71999997 1.3947316e-38
0.028114313 -0.087085731 0.72000003 1.8550368e-38
0.029485745 -0.087085716 0.72000003 2.3142164e-38
0.030814292 -0.086964764 0.71899998 2.2040158e-38
0.0321838 -0.086964779 0.71899998 2.0927685e-38
0.033553317 -0.086964749 0.71899998 2.1199919e-38
0.034922853 -0.086964779 0.71899998 2.1482644e-38
0.036191426 -0.086722873 0.71699995 2.2315664e-38
0.037557147 -0.086722858 0.71700001 2.3141096e-38
0.038922865 -0.086722873 0.71700001 2.3233998e-38
0.040400948 -0.086964749 0.71899998 2.3325126e-38
0.041770458 -0.086964764 0.71899998 2.2774842e-38
0.043680031 -0.088053338 0.72800004 2.2126599e-38
0.045128576 -0.088174291 0.72899997 2.0190149e-38
0.046708554 -0.088537134 0.73199999 1.816653e-38
0.048234306 -0.088779055 0.73400003 1.7979263e-38
0.049767636 -0.08902096 0.736 1.7704118e-38
0.051378082 -0.089383818 0.73899996 1.7887435e-38
0.053571455 -0.090714268 0.75000006 1.8072162e-38
0.055220008 -0.091077127 0.75299996 1.6235434e-38
0.056804776 -0.091319047 0.755 1.4375642e-38
0.058705695 -0.092044763 0.76099998 1.030606e-38
0.060155235 -0.092044748 0.76099998 6.2699839e-39
0.061928578 -0.092528559 0.76499999 7.1944611e-39
0.063551471 -0.09277048 0.76700002 8.0205966e-39
0.065097161 -0.092891432 0.76800001 8.0205714e-39
0.06673333 -0.093133323 0.76999998 8.0202225e-39
-0.030591441 -0.088928588 0.74699998 1.624488e-38
-0.02916855 -0.088928588 0.74700004 1.9097169e-38
-0.027671428 -0.088690482 0.745 1.9094306e-38
-0.026252383 -0.088690467 0.745 1.9097149e-38
-0.024766667 -0.088452362 0.74299997 1.7988279e-38
-0.023351412 -0.088452376 0.74300003 1.6880879e-38
-0.021936188 -0.088452376 0.74299997 1.7158185e-38
-0.020520931 -0.088452376 0.74300003 1.7429775e-38
-0.019105705 -0.088452376 0.74299997 1.7988709e-38
-0.017666632 -0.088333346 0.74200004 1.8545073e-38
-0.016253302 -0.088333316 0.74200004 1.8449978e-38
-0.01479998 -0.088095255 0.73999995 1.8447462e-38
-0.013390496 -0.08809524 0.73999995 1.8906993e-38
-0.011964775 -0.087976195 0.73899996 1.9368333e-38
-0.010557131 -0.087976195 0.73900002 1.9186105e-38
-0.0091495421 -0.08797618 0.73899996 1.9094262e-38
-0.0077209361 -0.087738119 0.73700005 1.9185373e-38
-0.0063171401 -0.087738104 0.73700005 1.927758e-38
-0.0049133147 -0.087738104 0.73700005 1.9370146e-38
-0.0035095182 -0.087738104 0.73700005 1.945551e-38
-0.0020971331 -0.087380968 0.73399997 1.9363659e-38
-0.00069902238 -0.087380953 0.73399997 1.9361866e-38
0.00069616683 -0.087023817 0.73099995 1.9458365e-38
0.0020885621 -0.087023817 0.73099995 1.9550583e-38
0.0034809583 -0.087023802 0.73099995 1.9646747e-38
0.0048600002 -0.086785696 0.72900003 1.9740356e-38
0.006248578 -0.086785711 0.72900003 1.9647784e-38
0.0076371548 -0.086785711 0.72900003 1.9551639e-38
0.0090257311 -0.086785726 0.72900003 1.9827859e-38
0.01040002 -0.086666681 0.72800004 2.0199893e-38
0.0117867 -0.086666666 0.72800004 2.0476503e-38
0.013173356 -0.086666681 0.72800004 2.0750548e-38
0.014560036 -0.086666681 0.72800004 1.9644548e-38
0.01590289 -0.08642856 0.72600001 1.8636196e-38
0.017261932 -0.08630953 0.72500002 1.9831896e-38
0.018642845 -0.08630953 0.72499996 2.1023203e-38
0.019968556 -0.086071424 0.72299999 1.9094613e-38
0.021345731 -0.086071424 0.72300005 1.7254673e-38
0.022722853 -0.086071439 0.72300005 1.5690957e-38
0.0240667 -0.085952379 0.72200006 1.422123e-38
0.025441924 -0.085952394 0.72200006 1.4036124e-38
0.02681715 -0.085952379 0.72200006 1.3762578e-38
0.028114313 -0.085714288 0.71999997 1.8455324e-38
0.029485719 -0.085714288 0.71999997 2.3142174e-38
0.030814288 -0.085595228 0.71899998 2.2314229e-38
0.032183796 -0.085595228 0.71899998 2.1393001e-38
0.03355331 -0.085595243 0.71899998 2.1667069e-38
0.034922846 -0.085595243 0.71899998 2.1948319e-38
0.036191415 -0.085357137 0.71699995 2.2314588e-38
0.037557162 -0.085357152 0.71700001 2.268193e-38
0.039031435 -0.085595243 0.71899998 2.2957436e-38
0.040400945 -0.085595228 0.71899998 2.3142183e-38
0.041770454 -0.085595243 0.71899998 2.2498259e-38
0.043680012 -0.086666666 0.72800004 2.185181e-38
0.045128565 -0.086785711 0.72899997 1.9915719e-38
0.046708561 -0.087142862 0.73199999 1.79825e-38
0.048234317 -0.087380983 0.73399997 1.7795948e-38
0.04983525 -0.087738119 0.73699999 1.7702325e-38
0.051378094 -0.087976165 0.73899996 1.7887076e-38
0.05342859 -0.089047618 0.74799997 1.8072158e-38
0.055000041 -0.089285724 0.75000006 1.5953818e-38
0.056579016 -0.089523785 0.75199997 1.3917172e-38
0.058628578 -0.090476207 0.76000005 9.9487525e-39
0.060155265 -0.090595223 0.76100004 5.9977046e-39
0.061928596 -0.091071449 0.76499999 7.0097181e-39
0.063551471 -0.091309525 0.76700002 8.0213309e-39
0.065097146 -0.091428556 0.76799995 8.0206008e-39
0.066733323 -0.091666676 0.77000004 8.0202421e-39
-0.030591426 -0.087505706 0.74699998 1.5051358e-38
-0.029168559 -0.087505721 0.74700004 1.6885918e-38
-0.027671421 -0.08727143 0.74500006 1.7067082e-38
-0.026252376 -0.08727143 0.745 1.7252892e-38
-0.024833357 -0.08727143 0.745 1.7803533e-38
-0.02335144 -0.087037124 0.74299997 1.8262362e-38
-0.021936186 -0.087037154 0.74300003 1.8725137e-38
-0.020520961 -0.087037139 0.74299997 1.9181092e-38
-0.019105705 -0.087037154 0.74300003 1.8356016e-38
-0.017666638 -0.086920016 0.74200004 1.7438363e-38
-0.016253309 -0.086919986 0.74200004 1.7991515e-38
-0.014799993 -0.08668571 0.74000001 1.8449613e-38
-0.013390482 -0.08668571 0.73999995 1.8357774e-38
-0.011964767 -0.086568572 0.73899996 1.8174475e-38
-0.010557149 -0.086568587 0.73900002 1.863797e-38
-0.0091495337 -0.086568572 0.73899996 1.9001355e-38
-0.0077209398 -0.086334281 0.73699999 1.9184655e-38
-0.0063171405 -0.08633431 0.73700005 1.9369053e-38
-0.0049133142 -0.086334296 0.73700005 1.9554885e-38
-0.0035095192 -0.086334296 0.73700005 1.9735682e-38
-0.0020971191 -0.085982867 0.73400003 2.0195931e-38
-0.00069903728 -0.085982867 0.73399997 2.0561118e-38
0.00069713726 -0.085748561 0.73199999 1.9919343e-38
0.0020885631 -0.085631423 0.73100001 1.9183953e-38
0.0034714122 -0.085397132 0.72899997 1.9183964e-38
0.004859989 -0.085397132 0.72900003 1.9187904e-38
0.0062485659 -0.085397147 0.72900003 1.9191485e-38
0.0076371445 -0.085397132 0.72900003 1.918468e-38
0.0090257209 -0.085397162 0.72900003 1.9361546e-38
0.010400032 -0.085280009 0.72800004 1.9463432e-38
0.011786712 -0.085279994 0.72800004 1.9652131e-38
0.013173368 -0.085280009 0.72800004 1.9827525e-38
0.014560019 -0.085279994 0.72799999 1.8350959e-38
0.015902864 -0.085045688 0.72599995 1.6889517e-38
0.017261902 -0.084928565 0.72500002 1.9192254e-38
0.018642867 -0.084928595 0.72499996 2.1484886e-38
0.019968571 -0.084694274 0.72299999 1.9279731e-38
0.021345692 -0.084694289 0.72299999 1.7070291e-38
0.02272284 -0.084694289 0.72299999 1.5504416e-38
0.024066685 -0.084577151 0.72200006 1.3852453e-38
0.025441935 -0.084577151 0.722 1.3760618e-38
0.026817163 -0.084577136 0.72200006 1.3581062e-38
0.028192412 -0.084577166 0.722 1.8365287e-38
0.029485719 -0.08434286 0.72000003 2.3141458e-38
0.030857151 -0.08434286 0.72000003 2.2498257e-38
0.032183796 -0.084225707 0.71899998 2.1853252e-38
0.03355331 -0.084225707 0.71899998 2.212732e-38
0.034922875 -0.084225722 0.71899998 2.2404263e-38
0.03619143 -0.083991431 0.71699995 2.2312071e-38
0.037661895 -0.084225707 0.71899998 2.2220953e-38
0.039031405 -0.084225722 0.71899998 2.2588296e-38
0.040400941 -0.084225707 0.71899998 2.2957434e-38
0.041770451 -0.084225707 0.71899998 2.2223829e-38
0.043379974 -0.084694289 0.72299999 2.1483031e-38
0.045128584 -0.085397147 0.72900003 1.9638055e-38
0.046644758 -0.085631438 0.73099995 1.7798108e-38
0.048102852 -0.085748546 0.73199999 1.7703035e-38
0.04983525 -0.086334296 0.73700005 1.7611202e-38
0.051378105 -0.086568587 0.73900002 1.779416e-38
0.05357147 -0.08785715 0.75000006 1.7979595e-38
0.055146657 -0.088091411 0.75199997 1.5773722e-38
0.056804776 -0.088442855 0.75500005 1.3454395e-38
0.058628574 -0.089028575 0.76000005 9.5738645e-39
0.060155239 -0.089145713 0.76099998 5.7207505e-39
0.061766669 -0.089380004 0.76300001 6.9175113e-39
0.06338571 -0.089614294 0.76499999 8.0195302e-39
0.065012388 -0.089848571 0.76700002 8.0195246e-39
0.066733338 -0.090199985 0.77000004 8.0191617e-39
-0.030632358 -0.086198099 0.74800003 1.4034691e-38
-0.029168567 -0.086082868 0.74700004 1.4766146e-38
-0.027745703 -0.086082868 0.74700004 1.4951251e-38
-0.026252391 -0.085852377 0.74500006 1.5135999e-38
-0.024833348 -0.085852377 0.745 1.5413301e-38
-0.023414304 -0.085852362 0.745 1.5782808e-38
-0.021936188 -0.085621901 0.74299997 1.5965774e-38
-0.020520931 -0.085621901 0.74300003 1.6244495e-38
-0.019105706 -0.085621916 0.74299997 1.5781357e-38
-0.017666642 -0.08550667 0.74200004 1.5411507e-38
-0.016253313 -0.085506655 0.74200004 1.5783155e-38
-0.014800009 -0.085276209 0.73999995 1.6062965e-38
-0.013390469 -0.085276179 0.73999995 1.5874987e-38
-0.011964786 -0.085160933 0.73899996 1.5690258e-38
-0.010557142 -0.085160948 0.73899996 1.5967216e-38
-0.0091495235 -0.085160948 0.73900002 1.6241629e-38
-0.0077419085 -0.085160948 0.73899996 1.6517836e-38
-0.0063171159 -0.084930472 0.73700005 1.6703665e-38
-0.0049133156 -0.084930487 0.73700005 1.688806e-38
-0.0035095192 -0.084930487 0.73700005 1.7165008e-38
-0.002097107 -0.084584765 0.73400003 1.7532356e-38
-0.00069905125 -0.08458475 0.73399997 1.7899692e-38
0.00069714099 -0.084354289 0.73199999 1.7438714e-38
0.0020885612 -0.084239058 0.73099995 1.7072089e-38
0.0034809564 -0.084239043 0.73099995 1.6980252e-38
0.004860003 -0.084008552 0.72899997 1.6983129e-38
0.0062485817 -0.084008567 0.72899997 1.6890583e-38
0.0076371594 -0.084008552 0.72900003 1.6888457e-38
0.0090257358 -0.084008582 0.72900003 1.7161837e-38
0.010414313 -0.084008567 0.72900003 1.7537773e-38
0.011802863 -0.084008567 0.72900003 1.7533093e-38
0.013191442 -0.084008567 0.72900003 1.7525178e-38
0.014560032 -0.083893336 0.72800004 1.6884101e-38
0.015902864 -0.08366283 0.72599995 1.6337058e-38
0.017285729 -0.08366286 0.72599995 1.8179171e-38
0.018642867 -0.083547615 0.72500002 2.0016231e-38
0.020023806 -0.083547615 0.72500002 1.78997e-38
0.02134571 -0.083317153 0.72300005 1.5875359e-38
0.022722857 -0.083317153 0.72300005 1.5137792e-38
0.024100006 -0.083317153 0.72300005 1.4403108e-38
0.02547715 -0.083317138 0.72300005 1.4955914e-38
0.026817171 -0.083201893 0.72200006 1.5506382e-38
0.028192399 -0.083201878 0.72200006 1.937333e-38
0.029485749 -0.082971431 0.72000003 2.3234012e-38
0.030857155 -0.082971431 0.72000003 2.2589731e-38
0.032183796 -0.082856171 0.71899998 2.1945085e-38
0.033553306 -0.082856171 0.71899998 2.2312421e-38
0.034825727 -0.082625724 0.71700001 2.2770165e-38
0.036191419 -0.082625724 0.71700001 2.2679766e-38
0.037661891 -0.082856186 0.71899998 2.267905e-38
0.039031401 -0.082856171 0.71899998 2.2864874e-38
0.040400937 -0.082856171 0.71899998 2.3141103e-38
0.041770447 -0.082856171 0.71899998 2.2130199e-38
0.043680009 -0.083893336 0.72800004 2.1116403e-38
0.045128599 -0.084008567 0.72900003 1.9363258e-38
0.046644758 -0.084239058 0.73100001 1.7704833e-38
0.048234288 -0.084584765 0.73399997 1.7612274e-38
0.049835246 -0.084930487 0.73700005 1.7612276e-38
0.051239073 -0.084930487 0.73700005 1.7888501e-38
0.053428579 -0.086198114 0.74799997 1.8166487e-38
0.055000022 -0.08642856 0.75 1.5584297e-38
0.056879986 -0.087120004 0.75600004 1.2991259e-38
0.058705725 -0.087696202 0.76100004 9.6707096e-39
0.060313348 -0.087926663 0.76300001 6.4543457e-39
0.061928578 -0.08815711 0.76499999 7.1912115e-39
0.063385732 -0.088157125 0.76499999 7.9258955e-39
0.065097131 -0.088502862 0.76799995 7.9266115e-39
0.066733353 -0.088733323 0.77000004 8.0184414e-39
-0.030591441 -0.084659986 0.74699998 1.3019478e-38
-0.029168548 -0.084660016 0.74700004 1.2652852e-38
-0.027745711 -0.084660001 0.74700004 1.2835447e-38
-0.026252413 -0.084433325 0.745 1.2929795e-38
-0.024833338 -0.084433325 0.745 1.3114545e-38
-0.023414293 -0.084433325 0.745 1.3206385e-38
-0.02199525 -0.084433325 0.745 1.3202803e-38
-0.020520961 -0.084206663 0.74299997 1.3206743e-38
-0.019105706 -0.084206678 0.74300003 1.3297496e-38
-0.017666651 -0.084093325 0.74199998 1.3390407e-38
-0.016253317 -0.08409334 0.74200004 1.3574438e-38
-0.014799996 -0.083866663 0.73999995 1.3667712e-38
-0.013390455 -0.083866678 0.73999995 1.3480815e-38
-0.011964749 -0.08375334 0.73900002 1.3207465e-38
-0.01055716 -0.083753355 0.73899996 1.3390424e-38
-0.0091495151 -0.08375334 0.73900002 1.3483686e-38
-0.0077419002 -0.08375334 0.73899996 1.3758108e-38
-0.0063171154 -0.083526678 0.73700005 1.4036846e-38
-0.0049133161 -0.083526663 0.73700005 1.4311997e-38
-0.0035095201 -0.083526678 0.73700005 1.4498181e-38
-0.0020971219 -0.083186679 0.73399997 1.4869114e-38
-0.0006990112 -0.083186679 0.73400003 1.5232148e-38
0.00069619197 -0.082846679 0.73100001 1.5047398e-38
0.0020885575 -0.082846679 0.73099995 1.4864802e-38
0.0034809546 -0.082846664 0.73099995 1.4772966e-38
0.0048600244 -0.082620002 0.72900003 1.468257e-38
0.0062485714 -0.082619987 0.72899997 1.468329e-38
0.0076371483 -0.082619973 0.72899997 1.4588239e-38
0.0090257246 -0.082620002 0.72900003 1.5042408e-38
0.010414301 -0.082619987 0.72900003 1.5508393e-38
0.01180288 -0.082620002 0.72900003 1.5417266e-38
0.013191457 -0.082619987 0.72900003 1.5231082e-38
0.014580005 -0.082619987 0.72899997 1.5506587e-38
0.015946696 -0.082506664 0.72799999 1.5694206e-38
0.017285733 -0.082279988 0.72600001 1.7078559e-38
0.018668594 -0.082280003 0.72600001 1.8451064e-38
0.02002383 -0.082166679 0.72500002 1.6611478e-38
0.021404771 -0.082166679 0.72500002 1.4680415e-38
0.022722842 -0.081939988 0.72299999 1.4768656e-38
0.024099993 -0.081940018 0.72299999 1.486378e-38
0.025477137 -0.081940003 0.72299999 1.6153844e-38
0.026817156 -0.081826679 0.72200006 1.7350681e-38
0.028192407 -0.081826665 0.72200006 2.0295265e-38
0.029485751 -0.081600003 0.72000003 2.3233648e-38
0.030857187 -0.081599988 0.72000003 2.2680848e-38
0.032183792 -0.08148665 0.71899998 2.2037639e-38
0.033553332 -0.08148665 0.71900004 2.2590805e-38
0.034922842 -0.081486665 0.71899998 2.3048906e-38
0.036292378 -0.08148665 0.71899998 2.3049984e-38
0.037661888 -0.08148665 0.71899998 2.3049266e-38
0.039031398 -0.08148665 0.71899998 2.3234015e-38
0.040400933 -0.08148665 0.71899998 2.3325493e-38
0.041828595 -0.081600018 0.72000003 2.2039439e-38
0.043560006 -0.082279988 0.72599995 2.0653276e-38
0.045128588 -0.082620017 0.72900003 1.9176711e-38
0.046644755 -0.082846679 0.73099995 1.7613714e-38
0.048234299 -0.083186664 0.73399997 1.7612996e-38
0.049835246 -0.083526663 0.73700005 1.7521166e-38
0.05137809 -0.083753355 0.73899996 1.7981425e-38
0.053357162 -0.084659986 0.74700004 1.8348717e-38
0.054853339 -0.084773339 0.74799997 1.5497819e-38
0.056579031 -0.085226662 0.75199997 1.2529199e-38
0.058705729 -0.086246662 0.76099998 9.8475647e-39
0.060313359 -0.086473353 0.76300001 7.0975487e-39
0.061928574 -0.0867 0.76499999 7.4670697e-39
0.063551456 -0.086926661 0.76700002 7.8347704e-39
0.065097146 -0.087040015 0.76800001 7.9266073e-39
-0.030591425 -0.083237164 0.74699998 1.3204583e-38
-0.029168557 -0.083237149 0.74700004 1.3020912e-38
-0.027745696 -0.083237149 0.74700004 1.3112388e-38
-0.026252402 -0.083014272 0.745 1.3204585e-38
-0.024833329 -0.083014302 0.745 1.3205304e-38
-0.023414286 -0.083014287 0.745 1.3296421e-38
-0.02193616 -0.08279144 0.74300003 1.3388254e-38
-0.020520933 -0.082791425 0.74300003 1.3480449e-38
-0.019105708 -0.08279144 0.74299997 1.3389691e-38
-0.017690452 -0.082791425 0.74300003 1.3298213e-38
-0.016253294 -0.082680009 0.74200004 1.3481883e-38
-0.014839993 -0.082679994 0.74199998 1.3756321e-38
-0.013426634 -0.082679994 0.74200004 1.3573734e-38
-0.011980958 -0.082457148 0.73999995 1.3391132e-38
-0.010571447 -0.082457133 0.73999995 1.34826e-38
-0.0091495095 -0.082345702 0.73899996 1.366663e-38
-0.0077419197 -0.082345717 0.73899996 1.3759183e-38
-0.0063342755 -0.082345717 0.73899996 1.3944648e-38
-0.0049133166 -0.082122885 0.73700005 1.4035407e-38
-0.003509521 -0.08212287 0.73700005 1.4217284e-38
-0.0020971368 -0.081788562 0.73400003 1.4402031e-38
-0.0006990261 -0.081788577 0.73400003 1.4672874e-38
0.00069714658 -0.0815657 0.73199999 1.4677179e-38
0.0020885845 -0.081454284 0.73099995 1.4678614e-38
0.0034809238 -0.081454284 0.73099995 1.4587137e-38
0.0048733209 -0.081454284 0.73099995 1.4494226e-38
0.0062485891 -0.081231423 0.72900003 1.449566e-38
0.0076371362 -0.081231423 0.72899997 1.4493508e-38
0.0090257144 -0.081231423 0.72899997 1.4677538e-38
0.010414292 -0.081231423 0.72900003 1.4862285e-38
0.011802869 -0.081231438 0.72900003 1.4771526e-38
0.013191446 -0.081231423 0.72900003 1.4587155e-38
0.014580023 -0.081231438 0.72900003 1.4771561e-38
0.01594671 -0.081119992 0.72800004 1.4955934e-38
0.017285733 -0.08089713 0.72599995 1.5692755e-38
0.018668594 -0.080897145 0.72599995 1.6424209e-38
0.020023802 -0.080785714 0.72499996 1.5598763e-38
0.021404764 -0.080785714 0.72499996 1.4863361e-38
0.022722861 -0.080562852 0.72300005 1.4770808e-38
0.024100007 -0.080562867 0.72299999 1.4771648e-38
0.025477156 -0.080562852 0.72299999 1.5971011e-38
0.026817167 -0.080451451 0.72200006 1.7171373e-38
0.028192392 -0.080451436 0.72200006 2.0294898e-38
0.029485725 -0.080228575 0.71999997 2.3325838e-38
0.030857187 -0.080228575 0.72000003 2.2957069e-38
0.032183819 -0.080117129 0.71899998 2.258722e-38
0.033553328 -0.080117144 0.71899998 2.2865599e-38
0.034922838 -0.080117144 0.71899998 2.3234019e-38
0.036292374 -0.080117114 0.71899998 2.3234019e-38
0.037661884 -0.080117144 0.71899998 2.3234019e-38
0.039031394 -0.080117144 0.71899998 2.3325854e-38
0.04040096 -0.080117144 0.71900004 2.3417689e-38
0.041828565 -0.08022856 0.71999997 2.2128403e-38
0.043500014 -0.080785729 0.72500002 2.0923756e-38
0.045128576 -0.081231438 0.72900003 1.9083792e-38
0.046644785 -0.081454299 0.73100001 1.7245653e-38
0.048365708 -0.082011424 0.736 1.7337134e-38
0.049970485 -0.082345702 0.73900002 1.7428622e-38
0.051656194 -0.082791425 0.74300003 1.7798126e-38
0.053071417 -0.082791425 0.74299997 1.816791e-38
0.054780014 -0.083237149 0.74699998 1.5118973e-38
0.056278121 -0.083348565 0.74799997 1.1963467e-38
0.05770288 -0.083348565 0.74799997 9.4816576e-39
0.059127644 -0.083348565 0.74800003 7.1004144e-39
0.062090516 -0.085465722 0.76700002 7.376302e-39
0.063551456 -0.085465722 0.76700002 7.65217e-39
0.065097146 -0.085577153 0.76800001 7.7436482e-39
0.066560008 -0.085577138 0.76799995 7.9273276e-39
-0.030632371 -0.081923805 0.74799997 1.3388971e-38
-0.02920761 -0.081923805 0.74800003 1.3388612e-38
-0.027782852 -0.081923805 0.74800003 1.3388972e-38
-0.026322866 -0.081814282 0.74700004 1.3388974e-38
-0.024833348 -0.081595249 0.745 1.3389335e-38
-0.023414275 -0.081595235 0.745 1.3389333e-38
-0.021995256 -0.081595235 0.745 1.3573001e-38
-0.020520961 -0.081376188 0.74299997 1.3664838e-38
-0.019105706 -0.081376188 0.74300003 1.3481884e-38
-0.017690482 -0.081376202 0.74299997 1.3206378e-38
-0.016275225 -0.081376202 0.74300003 1.3481883e-38
-0.014839971 -0.081266664 0.74199998 1.3757393e-38
-0.013426638 -0.081266664 0.74200004 1.3666638e-38
-0.011980944 -0.081047632 0.73999995 1.3482963e-38
-0.010571434 -0.081047617 0.73999995 1.3666271e-38
-0.0091618923 -0.081047632 0.73999995 1.3850301e-38
-0.0077418815 -0.080938108 0.73900002 1.385066e-38
-0.0063342941 -0.080938078 0.73899996 1.3759557e-38
-0.0049133217 -0.080719046 0.73699999 1.3851409e-38
-0.0035095229 -0.080719061 0.73700005 1.3849963e-38
-0.0020971256 -0.080390491 0.73399997 1.4032188e-38
-0.000699014 -0.080390491 0.73399997 1.4124744e-38
0.00069714937 -0.080171444 0.73199999 1.4309854e-38
0.0020885556 -0.08006192 0.73099995 1.4402757e-38
0.0034809518 -0.080061905 0.73099995 1.4310913e-38
0.004873347 -0.080061935 0.73099995 1.4219078e-38
0.006248578 -0.079842843 0.72900003 1.4311272e-38
0.0076371566 -0.079842858 0.72900003 1.4402749e-38
0.0090257032 -0.079842843 0.72899997 1.4311273e-38
0.01041428 -0.079842858 0.72900003 1.4219795e-38
0.011802857 -0.079842858 0.72900003 1.412796e-38
0.013191434 -0.079842843 0.72900003 1.3944659e-38
0.014580012 -0.079842858 0.72900003 1.41287e-38
0.015946722 -0.07973332 0.72800004 1.4220527e-38
0.017285706 -0.079514273 0.72599995 1.4311995e-38
0.018642858 -0.079404764 0.72500002 1.4311998e-38
0.020023799 -0.079404779 0.72500002 1.4679343e-38
0.021404766 -0.079404749 0.72500002 1.4955216e-38
0.022785703 -0.079404779 0.72500002 1.4863747e-38
0.024099993 -0.079185702 0.72299999 1.468085e-38
0.025477117 -0.079185702 0.72299999 1.5879074e-38
0.026854262 -0.079185717 0.72299999 1.6982993e-38
0.028192403 -0.079076193 0.72200006 2.0203435e-38
0.029567653 -0.079076178 0.72200006 2.3417682e-38
0.030857163 -0.078857146 0.71999997 2.3234015e-38
0.032183815 -0.078747623 0.71899998 2.3049269e-38
0.033553325 -0.078747623 0.71899998 2.3234019e-38
0.034922834 -0.078747623 0.71899998 2.341769e-38
0.03629237 -0.078747623 0.71899998 2.341769e-38
0.03766188 -0.078747623 0.71899998 2.341769e-38
0.039085735 -0.078857146 0.72000003 2.341769e-38
0.040457167 -0.078857161 0.72000003 2.341769e-38
0.041944757 -0.079076178 0.722 2.2315663e-38
0.043560013 -0.079514273 0.72599995 2.1109932e-38
0.045128569 -0.079842858 0.72900003 1.8989075e-38
0.046644755 -0.08006192 0.73099995 1.6784677e-38
0.048431452 -0.080719061 0.73700005 1.7060914e-38
0.050038099 -0.081047632 0.73999995 1.7244949e-38
0.051795237 -0.08159522 0.745 1.7613733e-38
0.053357169 -0.081814267 0.74700004 1.7978497e-38
0.054853328 -0.08192379 0.74799997 1.4754143e-38
0.056278117 -0.08192382 0.74800003 1.1420346e-38
0.05770288 -0.081923805 0.74799997 9.1989779e-39
0.060708556 -0.084114306 0.76799995 7.0049817e-39
0.062171422 -0.084114291 0.76800001 7.1929701e-39
0.063634291 -0.084114306 0.76800001 7.376295e-39
0.065266639 -0.084333323 0.76999998 7.6525316e-39
-0.030714266 -0.080714263 0.75 1.3296418e-38
-0.029285658 -0.080714278 0.75000006 1.3296778e-38
-0.027857108 -0.080714278 0.75000006 1.3388972e-38
-0.026358068 -0.08049906 0.74800003 1.3481169e-38
-0.024900012 -0.080391444 0.74699998 1.3297501e-38
-0.023477118 -0.080391429 0.74700004 1.3114186e-38
-0.021995246 -0.080176197 0.745 1.338933e-38
-0.020576203 -0.080176197 0.745 1.3664836e-38
-0.019157158 -0.080176182 0.745 1.3573359e-38
-0.01769048 -0.07996095 0.74300003 1.3481883e-38
-0.016275253 -0.07996095 0.74299997 1.3665554e-38
-0.01486 -0.07996095 0.74300003 1.3849225e-38
-0.013426643 -0.079853334 0.74200004 1.3758107e-38
-0.012013313 -0.079853334 0.74200004 1.3758107e-38
-0.010599955 -0.079853334 0.74200004 1.3849942e-38
-0.0091619091 -0.079638101 0.73999995 1.3941778e-38
-0.0077419011 -0.079530485 0.73900002 1.385066e-38
-0.0063342866 -0.07953047 0.73899996 1.3851051e-38
-0.004926668 -0.079530485 0.73900002 1.3850723e-38
-0.003509522 -0.079315253 0.73700005 1.3941818e-38
-0.0021028449 -0.079207622 0.73600006 1.4033273e-38
-0.0006990289 -0.078992404 0.73399997 1.4126191e-38
0.0006971531 -0.078777142 0.73199999 1.4218751e-38
0.0020914157 -0.078777112 0.73199999 1.4311289e-38
0.003480949 -0.078669541 0.73099995 1.4035407e-38
0.0048733191 -0.078669526 0.73099995 1.3852095e-38
0.0062657143 -0.078669541 0.73099995 1.4035407e-38
0.0076580807 -0.078669526 0.73099995 1.4310556e-38
0.009025747 -0.078454278 0.72900003 1.4311273e-38
0.010414268 -0.078454278 0.72899997 1.4311632e-38
0.011802847 -0.078454278 0.72900003 1.4220154e-38
0.013191424 -0.078454278 0.72900003 1.4129042e-38
0.014580001 -0.078454293 0.72900003 1.4220523e-38
0.015946707 -0.078346677 0.72800004 1.4311639e-38
0.017285738 -0.07813143 0.72600001 1.4403832e-38
0.018668601 -0.078131445 0.72600001 1.4496035e-38
0.020023821 -0.078023814 0.72500002 1.4679713e-38
0.021404764 -0.078023799 0.72500002 1.4863399e-38
0.022785731 -0.078023829 0.72500002 1.4679385e-38
0.024166668 -0.078023799 0.72500002 1.4586826e-38
0.025477132 -0.077808581 0.72299999 1.5046355e-38
0.026817162 -0.077700935 0.72200006 1.5504972e-38
0.02819241 -0.077700965 0.72200006 1.9373341e-38
0.02948573 -0.077485748 0.72000003 2.3234019e-38
0.030857163 -0.077485718 0.72000003 2.2039799e-38
0.032183811 -0.077378102 0.71899998 2.0754461e-38
0.033553321 -0.077378087 0.71899998 1.9923636e-38
0.034922831 -0.077378117 0.71899998 1.9101422e-38
0.036292367 -0.077378102 0.71899998 1.9277918e-38
0.037714329 -0.077485718 0.72000003 1.9560599e-38
0.039085735 -0.077485733 0.72000003 1.9831083e-38
0.040457167 -0.077485718 0.72000003 2.0111612e-38
0.041944768 -0.07770095 0.722 1.89999e-38
0.043559987 -0.078131415 0.72599995 1.7986085e-38
0.045128554 -0.078454278 0.72900003 1.6784652e-38
0.046644751 -0.078669541 0.73099995 1.567906e-38
0.048431449 -0.079315253 0.73700005 1.6508828e-38
0.050511431 -0.080391429 0.74699998 1.7336067e-38
0.051934298 -0.080391429 0.74700004 1.7520816e-38
0.053357162 -0.080391429 0.74700004 1.770514e-38
0.054853354 -0.080499031 0.74799997 1.4473973e-38
0.056278113 -0.080499046 0.74799997 1.1326358e-38
0.057702873 -0.080499046 0.74799997 9.2990643e-39
0.060866654 -0.082866631 0.76999998 7.1911554e-39
0.062333342 -0.082866661 0.76999998 7.4673808e-39
0.0638 -0.082866646 0.77000004 7.7421922e-39
-0.03071426 -0.079285704 0.75000006 1.3203148e-38
-0.029285682 -0.079285689 0.75 1.3113106e-38
-0.02785713 -0.079285719 0.75 1.3389331e-38
-0.0263581 -0.079074286 0.74799997 1.3573004e-38
-0.024999971 -0.079285719 0.75000006 1.3205663e-38
-0.023477128 -0.078968592 0.74700004 1.2746487e-38
-0.021995267 -0.078757145 0.745 1.3205667e-38
-0.020576192 -0.078757159 0.745 1.3573005e-38
-0.019157149 -0.07875713 0.745 1.3664836e-38
-0.017690482 -0.078545727 0.74299997 1.375703e-38
-0.016275225 -0.078545712 0.74300003 1.3848866e-38
-0.014860001 -0.078545712 0.74299997 1.3849239e-38
-0.013426622 -0.078440003 0.74200004 1.3942163e-38
-0.012013319 -0.078440003 0.74200004 1.3941792e-38
-0.010599989 -0.078440003 0.74199998 1.3941419e-38
-0.0091618961 -0.078228571 0.73999995 1.3941778e-38
-0.0077523547 -0.078228571 0.73999995 1.3942136e-38
-0.0063343043 -0.078122862 0.73899996 1.3942153e-38
-0.004926661 -0.078122877 0.73899996 1.3941811e-38
-0.0035094977 -0.077911444 0.73700005 1.3941807e-38
-0.0021028514 -0.07780569 0.736 1.403328e-38
-0.00069904287 -0.077594273 0.73399997 1.4033993e-38
0.00069906696 -0.077594288 0.73399997 1.4127618e-38
0.0020914185 -0.077382855 0.73199999 1.4127251e-38
0.0034857099 -0.077382855 0.73199999 1.3759542e-38
0.0048733153 -0.077277146 0.73099995 1.33922e-38
0.0062657115 -0.077277131 0.73099995 1.3851018e-38
0.0076371594 -0.077065699 0.72900003 1.4218719e-38
0.0090257358 -0.077065699 0.72900003 1.4311273e-38
0.010414314 -0.077065729 0.72900003 1.440311e-38
0.011802861 -0.077065714 0.72899997 1.4311276e-38
0.013191438 -0.077065714 0.72899997 1.4220538e-38
0.014560036 -0.076960005 0.72800004 1.4313112e-38
0.015946718 -0.076960005 0.72800004 1.4312015e-38
0.017285714 -0.076748572 0.72599995 1.4495306e-38
0.018642882 -0.076642863 0.72500002 1.458753e-38
0.020023825 -0.076642878 0.72500002 1.4679396e-38
0.021404786 -0.076642863 0.72500002 1.4679393e-38
0.022785729 -0.076642878 0.72500002 1.4587555e-38
0.024099972 -0.076431401 0.72299999 1.4493549e-38
0.025477117 -0.076431401 0.72299999 1.4214435e-38
0.026817175 -0.076325722 0.72200006 1.3946623e-38
0.028114328 -0.076114289 0.72000003 1.8550397e-38
0.02948576 -0.076114304 0.72000003 2.3049252e-38
0.030857166 -0.076114275 0.72000003 2.0752639e-38
0.032183807 -0.076008566 0.71899998 1.8446317e-38
0.033553317 -0.076008581 0.71899998 1.6604554e-38
0.034922827 -0.076008566 0.71899998 1.4762117e-38
0.03634287 -0.076114275 0.72000003 1.521485e-38
0.037714303 -0.076114289 0.71999997 1.5589381e-38
0.039085709 -0.076114289 0.71999997 1.6141844e-38
0.040569525 -0.076325722 0.722 1.6695722e-38
0.042002864 -0.076431446 0.72299999 1.5770185e-38
0.043560017 -0.076748572 0.72600001 1.4759634e-38
0.045128599 -0.077065714 0.72900003 1.4668515e-38
0.04670858 -0.07738284 0.73199999 1.4575609e-38
0.048562866 -0.078122877 0.73900002 1.6051441e-38
0.050511423 -0.078968562 0.74699998 1.7428256e-38
0.051934317 -0.078968562 0.74700004 1.7428613e-38
0.05342859 -0.079074286 0.74799997 1.733241e-38
0.054853376 -0.079074286 0.74800003 1.4293883e-38
0.05627811 -0.079074286 0.74800003 1.1240259e-38
0.057702869 -0.079074286 0.74799997 9.2965531e-39
0.060866646 -0.0814 0.76999998 7.3730454e-39
0.062333331 -0.0814 0.76999998 7.7425552e-39
0.063799985 -0.081399985 0.76999998 8.0180757e-39
-0.030714253 -0.077857144 0.75000006 1.4400238e-38
-0.029285675 -0.077857144 0.75000006 1.4308043e-38
-0.027857123 -0.077857144 0.75 1.412509e-38
-0.026358077 -0.077649526 0.74799997 1.3940703e-38
-0.024999967 -0.077857129 0.75000006 1.3573002e-38
-0.023477139 -0.07754571 0.74699998 1.3113832e-38
-0.021995256 -0.077338092 0.745 1.3205315e-38
-0.020576183 -0.077338092 0.745 1.3297861e-38
-0.01915714 -0.077338077 0.745 1.3297494e-38
-0.01769048 -0.077130489 0.74300003 1.3297494e-38
-0.016275255 -0.077130459 0.74299997 1.3388971e-38
-0.01486 -0.077130489 0.74300003 1.3389356e-38
-0.013444774 -0.077130474 0.74300003 1.3573413e-38
-0.012029519 -0.077130474 0.74300003 1.3849251e-38
-0.010599993 -0.077026673 0.74199998 1.3757748e-38
-0.0091866339 -0.077026673 0.74200004 1.3758465e-38
-0.007752398 -0.076819055 0.73999995 1.3941778e-38
-0.006334268 -0.076715253 0.73900002 1.4033616e-38
-0.0049266792 -0.076715238 0.73899996 1.3941423e-38
-0.0035094977 -0.076507621 0.73700005 1.3757766e-38
-0.0021028579 -0.076403789 0.736 1.3941092e-38
-0.00070095487 -0.076403789 0.736 1.4032913e-38
0.00069905206 -0.076196186 0.73400003 1.4034331e-38
0.0020914213 -0.075988553 0.73199999 1.4126884e-38
0.0034857136 -0.075988553 0.73199999 1.3942854e-38
0.0048733423 -0.075884767 0.73099995 1.3758465e-38
0.0062656836 -0.075884767 0.73099995 1.4034689e-38
0.0076580779 -0.075884767 0.73099995 1.4310555e-38
0.0090257265 -0.075677149 0.72900003 1.4402749e-38
0.010414303 -0.075677149 0.72900003 1.4494589e-38
0.01180288 -0.075677149 0.72900003 1.4219444e-38
0.013191427 -0.075677134 0.72899997 1.4036169e-38
0.01456002 -0.075573348 0.72800004 1.4219878e-38
0.015946701 -0.075573348 0.72800004 1.440315e-38
0.017285714 -0.0753657 0.72599995 1.4494943e-38
0.018642852 -0.075261898 0.72499996 1.4679026e-38
0.020023821 -0.075261943 0.72500002 1.4587242e-38
0.021404758 -0.075261913 0.72499996 1.4495387e-38
0.022785695 -0.075261913 0.72500002 1.4586843e-38
0.024166664 -0.075261913 0.72499996 1.4585736e-38
0.025477137 -0.075054295 0.72299999 1.4401315e-38
0.026817152 -0.074950464 0.722 1.4128485e-38
0.02819238 -0.074950449 0.722 1.836241e-38
0.02948573 -0.074742861 0.71999997 2.2679738e-38
0.03081427 -0.074639045 0.71899998 2.0651807e-38
0.032183804 -0.074639045 0.71899998 1.8612352e-38
0.033553313 -0.074639045 0.71899998 1.6590832e-38
0.034922823 -0.074639045 0.71899998 1.4555768e-38
0.03634287 -0.074742876 0.72000003 1.5484551e-38
0.037714303 -0.074742861 0.72000003 1.6307873e-38
0.039194316 -0.074950464 0.722 1.687183e-38
0.040569536 -0.074950464 0.722 1.7422471e-38
0.042119063 -0.075261928 0.72500002 1.6317204e-38
0.043680027 -0.075573362 0.72800004 1.5205169e-38
0.045252383 -0.075884752 0.73099995 1.5304213e-38
0.046836194 -0.076196186 0.73399997 1.5300618e-38
0.048562873 -0.076715253 0.73899996 1.6413758e-38
0.050511442 -0.07754571 0.74699998 1.7519727e-38
0.05193428 -0.077545725 0.74699998 1.7333899e-38
0.053357173 -0.07754571 0.74700004 1.7146221e-38
0.054853342 -0.077649526 0.74799997 1.419666e-38
0.056278102 -0.077649526 0.74799997 1.1237745e-38
0.059554324 -0.080140941 0.77200001 9.3012166e-39
0.06102477 -0.080140941 0.77200001 7.4663284e-39
0.062495217 -0.080140941 0.77199996 7.7422217e-39
0.063965723 -0.080140926 0.77200001 8.0180939e-39
-0.030714247 -0.076428585 0.75000006 1.5507717e-38
-0.029285671 -0.07642857 0.75000006 1.5505554e-38
-0.027857119 -0.07642857 0.75000006 1.4953814e-38
-0.026358081 -0.076224752 0.74799997 1.430952e-38
-0.024999989 -0.076428585 0.75 1.39393e-38
-0.023477146 -0.076122843 0.74699998 1.3481912e-38
-0.021995248 -0.075919054 0.745 1.3296085e-38
-0.020576203 -0.07591904 0.745 1.3021642e-38
-0.01915713 -0.075919054 0.745 1.2929435e-38
-0.017690452 -0.075715251 0.74300003 1.2837599e-38
-0.016275227 -0.075715251 0.74299997 1.2927641e-38
-0.014860002 -0.075715236 0.74299997 1.292909e-38
-0.013444746 -0.075715236 0.74300003 1.3295727e-38
-0.012029521 -0.075715251 0.74299997 1.3664133e-38
-0.010614266 -0.075715251 0.74300003 1.3665912e-38
-0.0091866385 -0.075613342 0.74200004 1.3574077e-38
-0.0077523841 -0.075409509 0.73999995 1.3849583e-38
-0.0063428432 -0.075409539 0.73999995 1.4124733e-38
-0.0049266717 -0.075307615 0.73899996 1.3849228e-38
-0.0035190531 -0.07530763 0.73900002 1.3573369e-38
-0.0021028346 -0.075001918 0.736 1.3848883e-38
-0.00070096139 -0.075001903 0.736 1.4032904e-38
0.00069906324 -0.074798085 0.73399997 1.4033254e-38
0.0020971731 -0.074798085 0.73399997 1.4033972e-38
0.0034857173 -0.074594267 0.73199999 1.4126166e-38
0.0048733125 -0.074492387 0.73099995 1.4126166e-38
0.0062657096 -0.074492402 0.73099995 1.421836e-38
0.0076581058 -0.074492387 0.73100001 1.4310555e-38
0.0090257153 -0.074288569 0.72900003 1.4402749e-38
0.010414292 -0.074288569 0.72900003 1.4494587e-38
0.011802869 -0.074288584 0.72900003 1.4127605e-38
0.013191448 -0.074288569 0.72900003 1.3759926e-38
0.014560033 -0.07418669 0.72800004 1.4126571e-38
0.015946714 -0.074186675 0.72800004 1.4402414e-38
0.017285746 -0.073982842 0.72599995 1.4585702e-38
0.01864285 -0.073880963 0.72500002 1.467829e-38
0.020023813 -0.073880948 0.72500002 1.4495013e-38
0.021345703 -0.073677145 0.72299999 1.4311324e-38
0.022785723 -0.073880963 0.72500002 1.4494259e-38
0.024100004 -0.073677145 0.72300005 1.4677196e-38
0.025477152 -0.073677145 0.72300005 1.4493151e-38
0.026817137 -0.073575236 0.722 1.4315746e-38
0.028192388 -0.073575221 0.722 1.8274885e-38
0.029485734 -0.073371433 0.72000003 2.2220936e-38
0.030857166 -0.073371418 0.72000003 2.0471033e-38
0.03222857 -0.073371433 0.72000003 1.8713191e-38
0.03355334 -0.073269539 0.71900004 1.6590878e-38
0.034922849 -0.073269539 0.71899998 1.4386476e-38
0.0363429 -0.073371418 0.72000003 1.5767246e-38
0.037714306 -0.073371433 0.72000003 1.7056919e-38
0.039194293 -0.073575221 0.722 1.7615496e-38
0.040625721 -0.073677145 0.72299999 1.8069997e-38
0.042119063 -0.073880963 0.72500002 1.6870744e-38
0.043740001 -0.074288554 0.72900003 1.5673672e-38
0.045252349 -0.074492373 0.73099995 1.5858797e-38
0.046963803 -0.075001903 0.736 1.6043902e-38
0.04876003 -0.075613327 0.74199998 1.6783249e-38
0.050511431 -0.076122843 0.74699998 1.7518289e-38
0.051934324 -0.076122858 0.74700004 1.7240986e-38
0.053428579 -0.076224767 0.74799997 1.6962191e-38
0.054853365 -0.076224767 0.74799997 1.4108414e-38
0.056428611 -0.076428585 0.75000006 1.1148062e-38
0.057857163 -0.076428555 0.75000006 9.3883886e-39
0.06102477 -0.078670464 0.77200001 7.5570877e-39
0.062495247 -0.078670479 0.77199996 7.7422217e-39
0.064048573 -0.078772388 0.773 7.9258997e-39
-0.030714272 -0.074999996 0.75 1.6425426e-38
-0.029285664 -0.074999996 0.75000006 1.6242452e-38
-0.027857114 -0.07500001 0.75000006 1.5965131e-38
-0.026358085 -0.074799992 0.74799997 1.5690323e-38
-0.024999984 -0.074999996 0.75000006 1.5689945e-38
-0.023477158 -0.074700005 0.74699998 1.569029e-38
-0.022054264 -0.074700005 0.74700004 1.5596645e-38
-0.020576194 -0.074500002 0.745 1.5501206e-38
-0.019157151 -0.074499972 0.745 1.5318951e-38
-0.017738102 -0.074500002 0.745 1.5225681e-38
-0.016275225 -0.074300013 0.74300003 1.5043086e-38
-0.014860001 -0.074300028 0.74300003 1.4859056e-38
-0.013444775 -0.074299999 0.74299997 1.4673233e-38
-0.01202952 -0.074300013 0.74300003 1.4488486e-38
-0.010614294 -0.074300013 0.74300003 1.4306609e-38
-0.0091866432 -0.074199997 0.74200004 1.4123655e-38
-0.0077523706 -0.074000023 0.73999995 1.4124014e-38
-0.0063428306 -0.073999994 0.73999995 1.4032178e-38
-0.0049266904 -0.073899992 0.73899996 1.3756672e-38
-0.0035190466 -0.073899992 0.73899996 1.3571566e-38
-0.0021028421 -0.073599987 0.736 1.3664119e-38
-0.00070093811 -0.073599987 0.73600006 1.375703e-38
0.00070096127 -0.073599987 0.736 1.3664836e-38
0.0020971592 -0.073400013 0.73399997 1.3573718e-38
0.0034952699 -0.073400013 0.73400003 1.3665912e-38
0.0048800115 -0.073199995 0.73199999 1.3758465e-38
0.0062657078 -0.073100008 0.73099995 1.3942136e-38
0.007658103 -0.073100023 0.73099995 1.4126884e-38
0.0090504726 -0.073100008 0.73100001 1.4310555e-38
0.01041428 -0.07289999 0.72900003 1.4494227e-38
0.011802859 -0.072900005 0.72900003 1.4494227e-38
0.013191435 -0.07289999 0.72900003 1.4585708e-38
0.014560015 -0.072799988 0.72800004 1.4585712e-38
0.015946697 -0.072799988 0.72800004 1.4677185e-38
0.017285721 -0.0726 0.72599995 1.4861209e-38
0.018642874 -0.072499998 0.72500002 1.5137092e-38
0.020023815 -0.072499998 0.72500002 1.4954873e-38
0.021404779 -0.072499983 0.72500002 1.4862305e-38
0.022785721 -0.072500013 0.72500002 1.4953406e-38
0.024166686 -0.072499998 0.72500002 1.4952328e-38
0.025477139 -0.072299995 0.72299999 1.5044162e-38
0.026854288 -0.072299995 0.72299999 1.5049716e-38
0.028192373 -0.072200008 0.722 1.8915228e-38
0.029485738 -0.072000019 0.72000003 2.2774835e-38
0.03085717 -0.072000019 0.72000003 2.0932389e-38
0.0322286 -0.072000004 0.72000003 1.9178503e-38
0.033600006 -0.072000019 0.72000003 1.7056557e-38
0.034922846 -0.071900003 0.71899998 1.4947562e-38
0.03634287 -0.072000004 0.71999997 1.6510553e-38
0.037714306 -0.072000019 0.72000003 1.8170079e-38
0.039194308 -0.072200008 0.722 1.8259792e-38
0.04062568 -0.072300009 0.72299999 1.8350181e-38
0.042119034 -0.072500028 0.72500002 1.7150928e-38
0.043740019 -0.072899975 0.72899997 1.6045677e-38
0.045314271 -0.073199995 0.73199999 1.6228992e-38
0.047027644 -0.073700003 0.73700005 1.6416975e-38
0.048628572 -0.073999994 0.73999995 1.6783605e-38
0.050511423 -0.074700005 0.74699998 1.7150946e-38
0.051934287 -0.07469999 0.74699998 1.7057673e-38
0.053428579 -0.074800007 0.74799997 1.696542e-38
0.054853335 -0.074800007 0.74799997 1.4012634e-38
0.056428619 -0.07500001 0.75000006 1.0959729e-38
0.059399985 -0.077000014 0.76999998 9.2072274e-39
0.061103832 -0.07729999 0.773 7.4674032e-39
0.062333327 -0.077000014 0.76999998 7.8347732e-39
0.064048581 -0.07730002 0.77300006 8.2014061e-39
0.065860033 -0.077699997 0.77700001 8.2943248e-39
-0.030714266 -0.073571421 0.75000006 1.7341651e-38
-0.02928569 -0.073571436 0.75 1.6974664e-38
-0.027857108 -0.073571451 0.75000006 1.6974302e-38
-0.02642853 -0.073571436 0.75000006 1.6977165e-38
-0.024933303 -0.073375233 0.74799997 1.7440282e-38
-0.023477139 -0.073277123 0.74699998 1.7805827e-38
-0.022054272 -0.073277153 0.74700004 1.7899096e-38
-0.020576185 -0.073080935 0.745 1.7986979e-38
-0.019157168 -0.073080935 0.745 1.7803301e-38
-0.017738093 -0.073080949 0.74500006 1.7528147e-38
-0.016275229 -0.072884791 0.74299997 1.7159366e-38
-0.014860003 -0.072884761 0.74299997 1.6791296e-38
-0.013444748 -0.072884761 0.74300003 1.6049786e-38
-0.012029522 -0.072884776 0.74299997 1.5319401e-38
-0.010599982 -0.072786666 0.74199998 1.5040302e-38
-0.0091618979 -0.072590478 0.73999995 1.4676551e-38
-0.0077523575 -0.072590478 0.73999995 1.4307061e-38
-0.0063342974 -0.072492369 0.73899996 1.394222e-38
-0.004926654 -0.072492383 0.73900002 1.3756747e-38
-0.0035190401 -0.072492369 0.73899996 1.3481953e-38
-0.0021028486 -0.072198085 0.736 1.3479437e-38
-0.00070094463 -0.072198071 0.736 1.3389749e-38
0.00070095848 -0.0721981 0.73600006 1.3295398e-38
0.0020971443 -0.072001912 0.73399997 1.3114946e-38
0.003504788 -0.072198085 0.736 1.3204979e-38
0.0048800153 -0.071805708 0.73199999 1.3300385e-38
0.0062657339 -0.071707629 0.73100001 1.3573364e-38
0.0076580741 -0.071707614 0.73099995 1.3851395e-38
0.0090504689 -0.071707644 0.73099995 1.4217677e-38
0.010414297 -0.07151141 0.72899997 1.4494259e-38
0.011802874 -0.071511425 0.72900003 1.4953438e-38
0.01319145 -0.07151141 0.72900003 1.5321157e-38
0.014560027 -0.071413346 0.72800004 1.5137504e-38
0.01594671 -0.071413331 0.72800004 1.4862356e-38
0.017285721 -0.071217142 0.72599995 1.5228264e-38
0.018668583 -0.071217112 0.72599995 1.5506623e-38
0.020023813 -0.071119078 0.72500002 1.550876e-38
0.021404779 -0.071119048 0.72500002 1.5414035e-38
0.022785721 -0.071119078 0.72500002 1.5321464e-38
0.024166685 -0.071119063 0.72500002 1.5224313e-38
0.025547625 -0.071119063 0.72500002 1.5498093e-38
0.026854279 -0.070922844 0.72300005 1.5784468e-38
0.028231423 -0.070922859 0.72300005 1.9560594e-38
0.029567609 -0.07082475 0.722 2.3233655e-38
0.03085717 -0.070628591 0.72000003 2.1396226e-38
0.0322286 -0.070628576 0.72000003 1.9545123e-38
0.03360001 -0.070628591 0.72000003 1.7509632e-38
0.034971442 -0.070628576 0.72000003 1.5404962e-38
0.036342874 -0.070628591 0.71999997 1.7341412e-38
0.037819065 -0.070824765 0.72200006 1.927141e-38
0.039248578 -0.070922844 0.72299999 1.8903369e-38
0.040625699 -0.070922859 0.72299999 1.853493e-38
0.042177137 -0.071217127 0.72599995 1.7520055e-38
0.043859981 -0.071707614 0.73099995 1.6413726e-38
0.045314275 -0.071805708 0.73199999 1.6594169e-38
0.047155257 -0.072492383 0.73899996 1.668925e-38
0.048760023 -0.072786652 0.74199998 1.669142e-38
0.050511442 -0.073277123 0.74699998 1.6691052e-38
0.05193428 -0.073277138 0.74699998 1.6872921e-38
0.053428601 -0.073375233 0.74800003 1.6963625e-38
0.055000015 -0.073571436 0.75 1.3924746e-38
0.056428622 -0.073571421 0.75000006 1.0777852e-38
0.059245706 -0.075337149 0.76799995 9.1049886e-39
0.060866658 -0.075533323 0.76999998 7.371609e-39
0.062495243 -0.075729512 0.77199996 7.9280198e-39
0.064048611 -0.075827621 0.77300006 8.4786839e-39
0.065860026 -0.076220013 0.77700001 8.6634409e-39
-0.03071426 -0.072142862 0.75000006 1.8441187e-38
-0.029285682 -0.072142847 0.75 1.8350443e-38
-0.02785713 -0.072142862 0.75 1.8351175e-38
-0.026428523 -0.072142862 0.75000006 1.8354049e-38
-0.024999972 -0.072142877 0.75000006 1.8355488e-38
-0.023508547 -0.071950488 0.74800003 1.8356934e-38
-0.022054253 -0.071854286 0.74700004 1.8448063e-38
-0.0205762 -0.071661897 0.74500006 1.8540621e-38
-0.019157158 -0.071661897 0.745 1.8724653e-38
-0.017738113 -0.071661897 0.745 1.8821501e-38
-0.016275227 -0.071469523 0.74300003 1.8818979e-38
-0.014860002 -0.071469523 0.74299997 1.8821469e-38
-0.013444777 -0.071469538 0.74299997 1.863419e-38
-0.012029521 -0.071469523 0.74300003 1.8454095e-38
-0.010599986 -0.071373336 0.74199998 1.8541973e-38
-0.009161911 -0.071180947 0.73999995 1.8724935e-38
-0.0077523701 -0.071180947 0.74000001 1.8540913e-38
-0.0063428599 -0.071180947 0.73999995 1.8356866e-38
-0.0049266461 -0.071084775 0.73899996 1.7989505e-38
-0.0035190578 -0.07108476 0.73899996 1.7712195e-38
-0.002105705 -0.070892386 0.73699999 1.7435962e-38
-0.00070095208 -0.070796184 0.736 1.7159012e-38
0.00070095196 -0.070796184 0.736 1.688493e-38
0.0021028812 -0.070796169 0.73600006 1.6609764e-38
0.0034952662 -0.070603825 0.73399997 1.6702657e-38
0.0048800181 -0.070411421 0.73199999 1.6796611e-38
0.0062742806 -0.070411392 0.73199999 1.661183e-38
0.0076581002 -0.070315249 0.73100001 1.6426396e-38
0.0090504661 -0.070315219 0.73099995 1.6334231e-38
0.010442837 -0.070315249 0.73099995 1.6332438e-38
0.011802861 -0.070122845 0.72899997 1.6240602e-38
0.013191438 -0.070122831 0.72900003 1.6148442e-38
0.014580017 -0.07012286 0.72900003 1.6057715e-38
0.015946692 -0.070026673 0.72799999 1.5967677e-38
0.017285725 -0.069834299 0.72600001 1.6425065e-38
0.018668586 -0.06983427 0.72600001 1.6887063e-38
0.02002381 -0.069738083 0.72499996 1.5596652e-38
0.021404747 -0.069738097 0.72499996 1.4402411e-38
0.022785714 -0.069738083 0.72499996 1.4301945e-38
0.024166657 -0.069738097 0.72500002 1.4206298e-38
0.025547618 -0.069738083 0.72499996 1.5126221e-38
0.026854264 -0.069545723 0.72299999 1.6151522e-38
0.028309528 -0.069738097 0.72500002 1.9649565e-38
0.029608559 -0.069545723 0.72299999 2.3234013e-38
0.030857176 -0.069257163 0.72000003 2.1299723e-38
0.032228604 -0.069257163 0.72000003 1.9268895e-38
0.03360004 -0.069257163 0.72000003 1.8251845e-38
0.034971446 -0.069257163 0.72000003 1.7239535e-38
0.036342874 -0.069257163 0.72000003 1.8626425e-38
0.037819076 -0.069449522 0.722 1.9916075e-38
0.039248567 -0.069545709 0.72300005 1.9824963e-38
0.040625714 -0.069545709 0.72300005 1.9732737e-38
0.042177167 -0.06983427 0.72600001 1.8257599e-38
0.043740023 -0.07012286 0.72900003 1.6781056e-38
0.045252375 -0.070315234 0.73100001 1.5577868e-38
0.047027644 -0.070892386 0.73700005 1.4390492e-38
0.048760019 -0.071373336 0.74200004 1.5587967e-38
0.050511435 -0.071854301 0.74699998 1.6783249e-38
0.051934272 -0.071854301 0.74699998 1.705874e-38
0.053428594 -0.071950473 0.74799997 1.7427823e-38
0.055000018 -0.072142847 0.75000006 1.4013355e-38
0.056579024 -0.072335236 0.75199997 1.0591671e-38
0.05801142 -0.072335236 0.75199997 8.7476911e-39
0.061024766 -0.074259035 0.77200001 7.0064082e-39
0.062495243 -0.07425905 0.77199996 7.5592177e-39
0.064048581 -0.074355237 0.773 8.1109607e-39
0.065860026 -0.074740015 0.77700001 8.1106132e-39
-0.030714257 -0.070714273 0.75000006 1.9539996e-38
-0.029285679 -0.070714273 0.75000006 1.9633633e-38
-0.027857127 -0.070714273 0.75000006 1.9726195e-38
-0.026428549 -0.070714287 0.75 1.972907e-38
-0.024999971 -0.070714273 0.75 1.936281e-38
-0.023508577 -0.070525713 0.74799997 1.8904364e-38
-0.022054262 -0.070431434 0.74700004 1.8995856e-38
-0.020631425 -0.070431434 0.74700004 1.9088412e-38
-0.019157147 -0.070242859 0.745 1.9640504e-38
-0.017738102 -0.070242859 0.745 2.0102904e-38
-0.016319059 -0.07024283 0.745 2.0473111e-38
-0.01486 -0.0700543 0.74300003 2.0748976e-38
