# .PCD v0.7 - Point Cloud Data file format
VERSION 0.7
FIELDS x y z rgb
SIZE 4 4 4 4
TYPE F F F F
COUNT 1 1 1 1
WIDTH 947
HEIGHT 1
VIEWPOINT 0 0 0 1 0 0 0
POINTS 947
DATA ascii
0.0021142862 -0.064133339 0.74000001 7.5986656e-39
0.0035238001 -0.064133339 0.73999995 8.0610717e-39
0.0049333242 -0.064133324 0.74000001 8.5202492e-39
0.0063428553 -0.064133339 0.74000001 1.0725736e-38
0.0077523794 -0.064133324 0.74000001 1.2842257e-38
0.0091618942 -0.064133324 0.74000001 1.3398653e-38
0.010571425 -0.064133309 0.74000001 1.3946437e-38
0.011964756 -0.064046673 0.73900002 1.1827762e-38
0.013372377 -0.064046659 0.73900002 9.6258639e-39
0.014779991 -0.064046659 0.73900002 1.054673e-38
0.016187621 -0.064046673 0.73900008 1.1367866e-38
0.017595235 -0.064046659 0.73900002 8.2382813e-39
0.019002855 -0.064046659 0.73900002 5.1183884e-39
0.020410474 -0.064046659 0.73900002 9.8084587e-39
0.021818088 -0.064046659 0.73900002 1.4396935e-38
0.023225712 -0.064046673 0.73900008 1.4114184e-38
0.024633331 -0.064046659 0.73900002 1.3729897e-38
0.025970481 -0.063873358 0.73700005 1.234152e-38
0.027374294 -0.063873343 0.73700005 1.0964381e-38
0.0287781 -0.063873358 0.73700005 9.1198144e-39
0.030140955 -0.063786678 0.73600006 7.2827191e-39
0.031585716 -0.063873343 0.73700005 7.5564053e-39
-0.038919058 -0.062978096 0.74300003 8.3344244e-39
-0.03760476 -0.063147642 0.74500012 8.7943208e-39
-0.036185719 -0.063147627 0.74500006 9.3492812e-39
-0.034673333 -0.062978096 0.74300009 9.9910507e-39
-0.033258103 -0.062978096 0.74300003 9.7123114e-39
-0.031842861 -0.062978081 0.74300003 9.443625e-39
-0.030509531 -0.063147627 0.74500006 1.1557279e-38
-0.029090475 -0.063147612 0.74500006 1.3669854e-38
-0.027597146 -0.062978096 0.74300003 1.3487259e-38
-0.026181906 -0.062978096 0.74300003 1.3304665e-38
-0.024766661 -0.062978096 0.74300003 1.4683632e-38
-0.023351423 -0.062978096 0.74300009 1.5971121e-38
-0.021936193 -0.062978111 0.74300003 1.6428862e-38
-0.02052095 -0.062978111 0.74300003 1.6889835e-38
-0.01910571 -0.062978096 0.74300009 1.4683991e-38
-0.01769048 -0.062978096 0.74300003 1.247384e-38
-0.016275225 -0.062978096 0.74300009 1.3026647e-38
-0.014859996 -0.062978081 0.74300003 1.3579812e-38
-0.013444767 -0.062978096 0.74300003 1.2659305e-38
-0.012029528 -0.062978111 0.74300009 1.1738795e-38
-0.010600013 -0.062893339 0.74200004 8.791804e-39
-0.0091866693 -0.062893339 0.74200004 5.8501997e-39
-0.0077733411 -0.062893339 0.74200004 7.2323956e-39
-0.0063599977 -0.062893339 0.74200004 8.6145944e-39
-0.0049466691 -0.062893339 0.74200004 1.0732553e-38
-0.0035333508 -0.062893324 0.74199998 1.2935888e-38
-0.0021200075 -0.062893324 0.74200004 1.1554408e-38
-0.00070476381 -0.062723793 0.74000001 1.0266917e-38
0.00070475286 -0.062723808 0.74000001 9.7133932e-39
0.0021142745 -0.062723793 0.73999995 9.0665986e-39
0.0035237987 -0.062723823 0.74000001 1.008217e-38
0.0049466551 -0.062893324 0.74199998 1.1187426e-38
0.0063428539 -0.062723823 0.74000001 1.1645886e-38
0.0077523682 -0.062723793 0.73999995 1.210614e-38
0.0091618989 -0.062723808 0.74000001 1.33965e-38
0.010571423 -0.062723808 0.74000001 1.4684348e-38
0.011964759 -0.06263905 0.73900002 1.2658226e-38
0.013390469 -0.062723808 0.74000001 1.0633183e-38
0.014779991 -0.06263905 0.73900002 1.1094156e-38
0.016209519 -0.062723808 0.74000001 1.1547949e-38
0.01761904 -0.062723793 0.73999995 8.3304755e-39
0.019002857 -0.062639035 0.73900002 5.116236e-39
0.020410471 -0.062639035 0.73900002 9.7137533e-39
0.02181809 -0.062639035 0.73900002 1.4399806e-38
0.023225714 -0.062639065 0.73900008 1.4112393e-38
0.024633335 -0.06263905 0.73900008 1.3818857e-38
0.025970485 -0.062469535 0.73700005 1.2436567e-38
0.027374292 -0.06246952 0.73700005 1.1151993e-38
0.028778102 -0.062469535 0.73700005 9.3070783e-39
0.030181913 -0.06246952 0.73700005 7.4663985e-39
0.031585719 -0.062469535 0.73700005 7.6500456e-39
-0.039023809 -0.061728589 0.74500006 8.4251837e-39
-0.037604757 -0.061728574 0.74500012 8.7957557e-39
-0.036185715 -0.061728574 0.74500006 9.4450627e-39
-0.034673341 -0.061562859 0.74300003 1.0081809e-38
-0.033258095 -0.061562859 0.74300003 9.3392297e-39
-0.031842858 -0.061562873 0.74300009 8.5209639e-39
-0.030509517 -0.061728574 0.74500006 1.1003755e-38
-0.029012384 -0.061562859 0.74300003 1.3485825e-38
-0.027597144 -0.061562859 0.74300003 1.3486183e-38
-0.026181901 -0.061562859 0.74300003 1.33965e-38
-0.024766659 -0.061562873 0.74300009 1.4777979e-38
-0.023351431 -0.061562859 0.74300003 1.6062598e-38
-0.021936186 -0.061562844 0.74300003 1.6888759e-38
-0.020520948 -0.061562859 0.74300009 1.7717791e-38
-0.019105718 -0.061562859 0.74300003 1.5149984e-38
-0.017690461 -0.061562873 0.74300009 1.2567109e-38
-0.016275233 -0.061562873 0.74300003 1.2841898e-38
-0.014860004 -0.061562873 0.74300003 1.3027363e-38
-0.01344475 -0.061562859 0.74300009 1.2475275e-38
-0.01202952 -0.061562844 0.74300003 1.1827402e-38
-0.010614291 -0.061562859 0.74300003 8.4212348e-39
-0.0091990372 -0.061562873 0.74300009 4.9336398e-39
-0.0077733453 -0.061479993 0.74199998 6.588115e-39
-0.0063600168 -0.061479993 0.74200004 8.2479713e-39
-0.0049466733 -0.061479993 0.74200004 1.0456688e-38
-0.0035333447 -0.061479993 0.74200004 1.2658946e-38
-0.0021200015 -0.061479993 0.74200004 1.2565316e-38
-0.0007047652 -0.061314277 0.74000001 1.2473122e-38
0.00070475612 -0.061314262 0.73999995 1.1555485e-38
0.0021142727 -0.061314277 0.74000001 1.0542784e-38
0.0035333252 -0.061479993 0.74200004 1.2197616e-38
0.0049466616 -0.061479993 0.74200004 1.3759895e-38
0.0063428488 -0.061314277 0.73999995 1.256424e-38
0.0077523733 -0.061314277 0.74000001 1.127962e-38
0.0091618979 -0.061314277 0.74000001 1.3304306e-38
0.01057143 -0.061314292 0.74000001 1.5326481e-38
0.011980942 -0.061314277 0.73999995 1.3487258e-38
0.013426665 -0.061479993 0.74200004 1.1556562e-38
0.014779993 -0.061231442 0.73900002 1.1648397e-38
0.016253332 -0.061480008 0.74200004 1.1641578e-38
0.017619038 -0.061314262 0.74000001 8.3279644e-39
0.019002859 -0.061231427 0.73900002 5.0258354e-39
0.020410471 -0.061231427 0.73900002 9.7144708e-39
0.021818085 -0.061231427 0.73900002 1.4305099e-38
0.023225704 -0.061231442 0.73900002 1.4117055e-38
0.024666661 -0.061314277 0.74000001 1.3821734e-38
0.025970487 -0.061065711 0.73700005 1.252555e-38
0.027374296 -0.061065726 0.73700005 1.1240965e-38
0.028778104 -0.061065726 0.73700005 9.4903877e-39
0.030181911 -0.061065711 0.73700005 7.651503e-39
0.031585719 -0.061065711 0.73700005 7.7426e-39
-0.038919047 -0.060147621 0.74300003 7.9660062e-39
-0.03760476 -0.060309537 0.74500012 8.3340671e-39
-0.036185719 -0.060309522 0.74500006 9.5325934e-39
-0.034673333 -0.060147621 0.74300003 1.0724657e-38
-0.033347625 -0.060309537 0.74500006 9.8952635e-39
-0.031928558 -0.060309537 0.74500012 9.0723356e-39
-0.030509531 -0.060309537 0.74500006 1.1464367e-38
-0.029090466 -0.060309537 0.74500012 1.3855319e-38
-0.027597152 -0.060147621 0.74300003 1.3762406e-38
-0.026181895 -0.060147636 0.74300009 1.3578017e-38
-0.024766667 -0.060147636 0.74300003 1.4498883e-38
-0.023351436 -0.060147621 0.74300003 1.5418316e-38
-0.021936184 -0.060147621 0.74300009 1.587857e-38
-0.020520953 -0.060147621 0.74300003 1.6340976e-38
-0.019105725 -0.060147621 0.74300003 1.4223378e-38
-0.01769047 -0.060147621 0.74300003 1.2098605e-38
-0.01627524 -0.060147621 0.74300003 1.256603e-38
-0.014860001 -0.060147636 0.74300009 1.3119916e-38
-0.013444758 -0.060147636 0.74300003 1.2198334e-38
-0.012029529 -0.060147621 0.74300003 1.1276748e-38
-0.010614288 -0.060147621 0.74300009 8.4230285e-39
-0.0091990447 -0.060147621 0.74300003 5.4868066e-39
-0.0077733397 -0.060066648 0.74200004 8.3380145e-39
-0.0063600107 -0.060066678 0.74200004 1.118922e-38
-0.0049466672 -0.060066678 0.74200004 1.1833144e-38
-0.003538091 -0.060147636 0.74300009 1.2473482e-38
-0.0021228613 -0.060147606 0.74300003 1.2564598e-38
-0.00070477684 -0.059904762 0.73999995 1.2748988e-38
0.00070475426 -0.059904747 0.74000001 1.2198693e-38
0.0021199952 -0.060066663 0.74200004 1.1738439e-38
0.0035333312 -0.060066678 0.74200004 1.2474558e-38
0.0049466565 -0.060066648 0.74199998 1.3213187e-38
0.0063428478 -0.059904762 0.74000001 1.2381285e-38
0.007752372 -0.059904762 0.74000001 1.1460061e-38
0.0091619035 -0.059904747 0.74000001 1.3673083e-38
0.010571417 -0.059904747 0.74000001 1.5973275e-38
0.011964762 -0.059823819 0.73900002 1.358053e-38
0.013372376 -0.059823804 0.73900002 1.1191372e-38
0.014779996 -0.059823804 0.73900002 1.1555844e-38
0.016253328 -0.060066663 0.74200004 1.201179e-38
0.017595241 -0.059823804 0.73900008 8.5166577e-39
0.019002862 -0.059823804 0.73900002 5.1176709e-39
0.020410473 -0.059823804 0.73900002 9.6208416e-39
0.021818087 -0.059823789 0.73900002 1.4213264e-38
0.023225706 -0.059823819 0.73900002 1.4202789e-38
0.024633337 -0.059823804 0.73900008 1.4182267e-38
0.025970479 -0.059661917 0.73700005 1.2709954e-38
0.02737429 -0.059661917 0.73700005 1.12442e-38
0.028778106 -0.059661932 0.73700011 9.3081475e-39
0.030181916 -0.059661917 0.73700011 7.4674733e-39
0.031585723 -0.059661917 0.73700005 7.5592892e-39
-0.040442854 -0.058890484 0.74500012 7.2316824e-39
-0.039023813 -0.058890484 0.74500006 7.5979482e-39
-0.03760476 -0.058890499 0.74500012 7.8759658e-39
-0.036185719 -0.058890469 0.74500006 9.6262226e-39
-0.034673333 -0.058732383 0.74300009 1.1276029e-38
-0.033258088 -0.058732383 0.74300003 1.04452e-38
-0.031842858 -0.058732398 0.74300003 9.624066e-39
-0.030509517 -0.058890484 0.74500006 1.1926415e-38
-0.029090464 -0.058890499 0.74500012 1.4221943e-38
-0.027597137 -0.058732398 0.74300009 1.4037914e-38
-0.026181906 -0.058732368 0.74300003 1.3762049e-38
-0.024766661 -0.058732368 0.74300003 1.4221585e-38
-0.023351422 -0.058732383 0.74300009 1.4682915e-38
-0.021936193 -0.058732383 0.74300003 1.477475e-38
-0.020520948 -0.058732383 0.74300003 1.4866944e-38
-0.019105706 -0.058732398 0.74300009 1.3212112e-38
-0.017690478 -0.058732368 0.74300003 1.1556919e-38
-0.016275223 -0.058732398 0.74300009 1.2387385e-38
-0.014859994 -0.058732398 0.74300003 1.3210675e-38
-0.013444765 -0.058732383 0.74300003 1.2012869e-38
-0.012013334 -0.058653332 0.74200004 1.0722863e-38
-0.010600005 -0.058653347 0.74200004 8.4158511e-39
-0.0091866618 -0.058653317 0.74200004 6.0385356e-39
-0.0077733435 -0.058653317 0.74199998 1.0087911e-38
-0.0063600149 -0.058653317 0.74200004 1.4037914e-38
-0.0049466714 -0.058653317 0.74200004 1.3212829e-38
-0.0035380989 -0.058732383 0.74300003 1.2289811e-38
-0.0021199998 -0.058653332 0.74200004 1.2654281e-38
-0.00070477871 -0.058495246 0.74000001 1.2933018e-38
0.00070666207 -0.058653317 0.74199998 1.2934812e-38
0.002119991 -0.058653317 0.74200004 1.28419e-38
0.003533327 -0.058653317 0.74200004 1.2748629e-38
0.0049466626 -0.058653332 0.74200004 1.2658586e-38
0.0063428539 -0.058495231 0.74000001 1.219582e-38
0.0077733351 -0.058653347 0.74200004 1.1649472e-38
0.0091618914 -0.058495231 0.73999995 1.4138359e-38
0.010571423 -0.058495231 0.74000001 1.6522136e-38
0.011980948 -0.058495231 0.74000001 1.367057e-38
0.013390471 -0.058495246 0.74000001 1.0730042e-38
0.01477999 -0.058416195 0.73900002 1.1555844e-38
0.016253334 -0.058653347 0.74200004 1.2288374e-38
0.017595232 -0.05841618 0.73900002 8.792883e-39
0.019002855 -0.05841618 0.73900008 5.2109427e-39
0.020410476 -0.05841618 0.73900002 9.6215591e-39
0.021847609 -0.058495231 0.74000001 1.4028871e-38
0.02322571 -0.05841618 0.73900002 1.4298921e-38
0.024633327 -0.058416165 0.73900002 1.455498e-38
0.025970474 -0.058258109 0.73699999 1.2888235e-38
0.027374292 -0.058258109 0.73700011 1.1147336e-38
0.028778102 -0.058258109 0.73700005 9.2134407e-39
0.030181911 -0.058258094 0.73700005 7.1926828e-39
0.031585716 -0.058258094 0.73700005 7.3759769e-39
-0.040442854 -0.057471447 0.74500012 7.507549e-39
-0.039023813 -0.057471432 0.74500006 7.5986656e-39
-0.03760476 -0.057471432 0.74500012 7.7816206e-39
-0.036185719 -0.057471432 0.74500006 9.6237115e-39
-0.034673341 -0.05731716 0.74300003 1.155297e-38
-0.033258095 -0.05731713 0.74300003 1.0630665e-38
-0.031928562 -0.057471432 0.74500012 9.807737e-39
-0.030509533 -0.057471447 0.74500006 1.1924262e-38
-0.029090468 -0.057471447 0.74500012 1.4037914e-38
-0.027597142 -0.057317145 0.74300003 1.3946078e-38
-0.026181914 -0.05731716 0.74300003 1.3853525e-38
-0.024766658 -0.05731716 0.74300009 1.4130467e-38
-0.023351429 -0.057317145 0.74300003 1.4501037e-38
-0.021936199 -0.057317145 0.74300003 1.4681837e-38
-0.020520944 -0.057317145 0.74300003 1.4864074e-38
-0.019105716 -0.057317145 0.74300003 1.33965e-38
-0.017690476 -0.05731716 0.74300009 1.1927132e-38
-0.016275231 -0.057317145 0.74300003 1.2477069e-38
-0.014860003 -0.05731713 0.74300003 1.3118124e-38
-0.013444764 -0.057317145 0.74300009 1.2290169e-38
-0.012029518 -0.05731713 0.74300003 1.1461133e-38
-0.01061429 -0.057317145 0.74300003 8.6066939e-39
-0.0091990503 -0.05731716 0.74300009 5.8577331e-39
-0.0077838055 -0.057317145 0.74300003 9.812046e-39
-0.0063685658 -0.057317145 0.74300009 1.3855678e-38
-0.0049466658 -0.057240002 0.74200004 1.2751141e-38
-0.0035380921 -0.057317145 0.74300003 1.1645527e-38
-0.002120004 -0.057240002 0.74200004 1.2381286e-38
-0.00070476567 -0.0570857 0.74000001 1.3209959e-38
0.00070475147 -0.0570857 0.74000001 1.3118841e-38
0.0021142722 -0.057085685 0.73999995 1.3027006e-38
0.0035333331 -0.057240002 0.74200004 1.2750423e-38
0.0049466589 -0.057240002 0.74199998 1.2568186e-38
0.006342852 -0.057085715 0.74000001 1.2106853e-38
0.0077523733 -0.0570857 0.73999995 1.1649831e-38
0.0091618979 -0.057085715 0.74000001 1.2846563e-38
0.010571421 -0.0570857 0.74000001 1.4040782e-38
0.012013332 -0.057240002 0.74200004 1.2014301e-38
0.013426658 -0.057240002 0.74199998 1.0083246e-38
0.014779991 -0.057008587 0.73900002 1.155692e-38
0.01625333 -0.057240002 0.74200004 1.3027722e-38
0.017595228 -0.057008557 0.73900002 9.1620201e-39
0.019002859 -0.057008572 0.73900008 5.3013433e-39
0.020410478 -0.057008572 0.73900002 9.4375294e-39
0.02181809 -0.057008572 0.73900002 1.3481441e-38
0.023225712 -0.057008572 0.73900002 1.3652836e-38
0.024633333 -0.057008542 0.73900002 1.381957e-38
0.025970489 -0.056854285 0.73700011 1.2434788e-38
0.027374294 -0.0568543 0.73700005 1.1059801e-38
0.028778104 -0.0568543 0.73700005 9.1244737e-39
0.030181911 -0.056854285 0.73700005 7.2852344e-39
0.031585719 -0.0568543 0.73700005 7.28414e-39
0.032989524 -0.056854285 0.73700005 7.2830568e-39
-0.040334277 -0.055901907 0.74300003 7.7826968e-39
-0.03891905 -0.055901907 0.74300003 7.6908599e-39
-0.037503809 -0.055901922 0.74300009 7.6004607e-39
-0.036088578 -0.055901907 0.74300003 9.7180581e-39
-0.034673348 -0.055901907 0.74300003 1.1736285e-38
-0.033258092 -0.055901922 0.74300009 1.0900795e-38
-0.031928577 -0.056052394 0.74500012 9.9917681e-39
-0.030509518 -0.056052394 0.74500006 1.192498e-38
-0.029090466 -0.056052394 0.74500012 1.3853525e-38
-0.02759715 -0.055901892 0.74300003 1.3854243e-38
-0.026181895 -0.055901907 0.74300009 1.3853884e-38
-0.024766665 -0.055901922 0.74300003 1.4128673e-38
-0.023351436 -0.055901907 0.74300003 1.4314496e-38
-0.021936182 -0.055901907 0.74300009 1.4587132e-38
-0.020520953 -0.055901907 0.74300003 1.4865868e-38
-0.019105723 -0.055901892 0.74300003 1.3581965e-38
-0.017690469 -0.055901907 0.74300003 1.2293039e-38
-0.01627524 -0.055901907 0.74300003 1.2658946e-38
-0.01486 -0.055901922 0.74300009 1.2934812e-38
-0.013444756 -0.055901922 0.74300003 1.2567828e-38
-0.012029527 -0.055901892 0.74300003 1.2102545e-38
-0.010614286 -0.055901907 0.74300009 8.8760991e-39
-0.0091990428 -0.055901907 0.74300003 5.6719083e-39
-0.0077838129 -0.055901907 0.74300003 9.6298099e-39
-0.0063685733 -0.055901922 0.74300003 1.3578378e-38
-0.004953329 -0.055901907 0.74300003 1.2290169e-38
-0.0035380893 -0.055901907 0.74300009 1.1004112e-38
-0.0021228599 -0.055901907 0.74300003 1.219869e-38
-0.00070476707 -0.055676199 0.74000001 1.3393988e-38
0.00070475426 -0.055676199 0.73999995 1.330323e-38
0.0021142708 -0.05567617 0.74000001 1.31192e-38
0.0035333284 -0.055826657 0.74200004 1.2748988e-38
0.004946664 -0.055826657 0.74200004 1.2382362e-38
0.0063428478 -0.055676199 0.73999995 1.2012867e-38
0.007752372 -0.055676185 0.74000001 1.1647678e-38
0.0091618961 -0.055676199 0.74000001 1.1649473e-38
0.010571427 -0.055676185 0.74000001 1.1555843e-38
0.011980941 -0.05567617 0.73999995 1.0445565e-38
0.013390473 -0.05567617 0.74000001 9.3492798e-39
0.014799996 -0.055676199 0.74000001 1.1560508e-38
0.01620952 -0.055676199 0.74000001 1.3666983e-38
0.017619044 -0.055676199 0.73999995 9.5257747e-39
0.019028567 -0.055676185 0.74000001 5.394255e-39
0.020438092 -0.055676185 0.74000001 9.1616641e-39
0.021847622 -0.055676199 0.74000001 1.2925765e-38
0.023225714 -0.055600949 0.73900002 1.3010706e-38
0.024633327 -0.055600934 0.73900002 1.2991616e-38
0.026040949 -0.055600934 0.73900002 1.1972023e-38
0.02737429 -0.055450492 0.73700005 1.0964017e-38
0.028856192 -0.055600964 0.73900002 9.1230359e-39
0.030263811 -0.055600934 0.73900002 7.2855749e-39
0.031585716 -0.055450492 0.73700005 7.1926296e-39
0.032989521 -0.055450492 0.73700005 7.0082594e-39
-0.040334284 -0.054486685 0.74300003 7.6894263e-39
-0.038919047 -0.054486685 0.74300009 7.2309649e-39
-0.037503816 -0.054486685 0.74300003 6.6806708e-39
-0.036088571 -0.05448667 0.74300003 1.0543501e-38
-0.034673329 -0.054486655 0.74300009 1.4405256e-38
-0.033258099 -0.05448667 0.74300003 1.3760972e-38
-0.031842858 -0.05448667 0.74300003 1.3210318e-38
-0.030427616 -0.05448667 0.74300003 1.3301435e-38
-0.029090468 -0.054633342 0.74500012 1.3484747e-38
-0.027597133 -0.054486685 0.74300009 1.3576941e-38
-0.026181903 -0.05448667 0.74300003 1.3762766e-38
-0.024766672 -0.05448667 0.74300003 1.4958421e-38
-0.02341428 -0.054633327 0.74500012 1.6245553e-38
-0.021936189 -0.054486685 0.74300003 1.5601268e-38
-0.020520961 -0.05448667 0.74300003 1.4960573e-38
-0.019105706 -0.05448667 0.74300003 1.4223737e-38
-0.017690476 -0.05448667 0.74300003 1.3483672e-38
-0.016319038 -0.054633342 0.74500006 1.3301435e-38
-0.014859994 -0.05448667 0.74300003 1.3118483e-38
-0.013444764 -0.054486685 0.74300003 1.2751499e-38
-0.012029524 -0.054486685 0.74300009 1.2473832e-38
-0.01061428 -0.054486685 0.74300003 8.881836e-39
-0.0091990503 -0.05448667 0.74300003 5.3038474e-39
-0.0077838106 -0.05448667 0.74300003 9.6272988e-39
-0.0063685668 -0.05448667 0.74300003 1.4037555e-38
-0.0049533267 -0.05448667 0.74300009 1.3027723e-38
-0.0035380975 -0.05448667 0.74300003 1.2015019e-38
-0.0021228532 -0.05448667 0.74300003 1.2566747e-38
-0.00070477917 -0.054266654 0.73999995 1.3210315e-38
0.00070666999 -0.054413341 0.74200004 1.3395783e-38
0.0021199984 -0.054413341 0.74200004 1.3580889e-38
0.0035333345 -0.054413341 0.74200004 1.2842617e-38
0.0049466607 -0.054413341 0.74199998 1.2107575e-38
0.0063428455 -0.054266669 0.74000001 1.173772e-38
0.0077733248 -0.054413326 0.74200004 1.1369662e-38
0.0091619017 -0.054266669 0.74000001 1.2475634e-38
0.010571416 -0.054266654 0.73999995 1.3576941e-38
0.011980946 -0.054266654 0.74000001 1.1828835e-38
0.013390469 -0.054266654 0.74000001 1.0175441e-38
0.014799995 -0.054266669 0.74000001 1.1739874e-38
0.016253326 -0.054413326 0.74200004 1.3298206e-38
0.017619042 -0.054266669 0.74000001 9.3442547e-39
0.019028565 -0.054266669 0.74000001 5.3935375e-39
0.020438097 -0.054266669 0.74000001 9.1613054e-39
0.021818096 -0.05419334 0.73900002 1.3017959e-38
0.02322571 -0.05419334 0.73900002 1.2914566e-38
0.024633327 -0.054193325 0.73900002 1.2796466e-38
0.026040941 -0.054193325 0.73900002 1.1603245e-38
0.027448572 -0.05419334 0.73900008 1.0415514e-38
0.028856192 -0.05419334 0.73900002 9.1255443e-39
0.030263808 -0.054193325 0.73900002 7.8365697e-39
0.031671427 -0.054193325 0.73900002 7.5595792e-39
0.032989539 -0.054046668 0.73700011 7.3748755e-39
-0.040334292 -0.053071417 0.74300003 7.5979482e-39
-0.039023805 -0.053214289 0.74500012 6.678517e-39
-0.037604764 -0.053214289 0.74500006 5.7619557e-39
-0.036185719 -0.053214289 0.74500006 1.1369303e-38
-0.034673337 -0.053071447 0.74300003 1.6980596e-38
-0.033258095 -0.053071417 0.74300003 1.6711546e-38
-0.031842854 -0.053071447 0.74300003 1.642707e-38
-0.030509517 -0.053214289 0.74500006 1.4769366e-38
-0.029090468 -0.053214289 0.74500012 1.3024493e-38
-0.027671427 -0.053214289 0.74500006 1.3297849e-38
-0.026252374 -0.053214289 0.74500012 1.3579812e-38
-0.024766658 -0.053071432 0.74300009 1.5879646e-38
-0.023351427 -0.053071417 0.74300003 1.8174457e-38
-0.021936199 -0.053071432 0.74300003 1.661146e-38
-0.020520944 -0.053071447 0.74300003 1.4959139e-38
-0.019105714 -0.053071432 0.74300003 1.4868021e-38
-0.01773808 -0.053214289 0.74500012 1.468112e-38
-0.016319053 -0.053214304 0.74500006 1.3943924e-38
-0.014860001 -0.053071432 0.74300003 1.3209958e-38
-0.013480946 -0.053214274 0.74500006 1.3028799e-38
-0.012061895 -0.053214319 0.74500012 1.2837947e-38
-0.010614288 -0.053071417 0.74300003 8.8739467e-39
-0.0091990484 -0.053071432 0.74300009 4.9361481e-39
-0.0077838041 -0.053071447 0.74300003 9.7216454e-39
-0.0063685644 -0.053071432 0.74300009 1.4408126e-38
-0.004953335 -0.053071432 0.74300003 1.367667e-38
-0.0035380907 -0.053071432 0.74300003 1.2936245e-38
-0.0021228504 -0.053071447 0.74300009 1.3025927e-38
-0.00070667767 -0.052999981 0.74199998 1.3027363e-38
0.0007066509 -0.052999981 0.74200004 1.3580171e-38
0.0021199943 -0.052999996 0.74200004 1.4039349e-38
0.0035333307 -0.052999996 0.74200004 1.2933018e-38
0.0049466663 -0.052999996 0.74200004 1.1830273e-38
0.0063599953 -0.052999996 0.74200004 1.1461137e-38
0.0077733207 -0.052999981 0.74199998 1.1004471e-38
0.0091618961 -0.052857123 0.73999995 1.3306458e-38
0.010571421 -0.052857138 0.74000001 1.5507998e-38
0.011980945 -0.052857138 0.74000001 1.3300717e-38
0.013390469 -0.052857138 0.74000001 1.1004112e-38
0.014799991 -0.052857138 0.73999995 1.1925697e-38
0.016209517 -0.052857138 0.74000001 1.2838669e-38
0.01761904 -0.052857153 0.74000001 9.0673133e-39
0.019028572 -0.052857153 0.74000001 5.3031356e-39
0.020410478 -0.052785717 0.73900008 9.1638165e-39
0.021818098 -0.052785732 0.73900008 1.3019779e-38
0.02322571 -0.052785732 0.73900002 1.2832469e-38
0.024633331 -0.052785702 0.73900002 1.2529605e-38
0.026040943 -0.052785702 0.73900002 1.1228389e-38
0.027448565 -0.052785702 0.73900002 9.8594898e-39
0.028856194 -0.052785717 0.73900008 9.1262645e-39
0.030263809 -0.052785717 0.73900002 8.2961255e-39
0.031671427 -0.052785717 0.73900002 8.0177169e-39
0.032944776 -0.052571438 0.73600006 7.6507505e-39
0.034346685 -0.052571423 0.73600012 7.6500499e-39
-0.039023802 -0.051795237 0.74500012 6.4948446e-39
-0.037604764 -0.051795237 0.74500006 5.4821444e-39
-0.036185712 -0.051795252 0.74500012 1.1187067e-38
-0.03476667 -0.051795252 0.74500006 1.6987412e-38
-0.033347629 -0.051795252 0.74500006 1.6616482e-38
-0.032014266 -0.05193428 0.7470001 1.6241247e-38
-0.030509535 -0.051795237 0.74500006 1.47708e-38
-0.029090468 -0.051795237 0.74500012 1.3301435e-38
-0.02759715 -0.051656194 0.74300003 1.3669854e-38
-0.026181893 -0.051656194 0.74300009 1.404186e-38
-0.024766665 -0.051656209 0.74300003 1.569454e-38
-0.023351435 -0.051656209 0.74300003 1.7348296e-38
-0.021936182 -0.051656194 0.74300009 1.596897e-38
-0.020520952 -0.051656179 0.74300003 1.4681838e-38
-0.019157147 -0.051795237 0.74500006 1.4408126e-38
-0.017738095 -0.051795252 0.74500012 1.4224812e-38
-0.016319038 -0.051795237 0.74500006 1.3393628e-38
-0.01486 -0.051656209 0.74300009 1.2656793e-38
-0.013480946 -0.051795267 0.74500006 1.2750782e-38
-0.012061895 -0.051795252 0.74500012 1.2934806e-38
-0.010614285 -0.051656194 0.74300009 1.0170048e-38
-0.0091990409 -0.051656194 0.74300003 7.4167841e-39
-0.0077838013 -0.051656209 0.74300009 1.0638207e-38
-0.0063685719 -0.051656209 0.74300003 1.3859265e-38
-0.0049533276 -0.051656194 0.74300003 1.3398294e-38
-0.0035380879 -0.051656194 0.74300009 1.2843335e-38
-0.0021228585 -0.051656194 0.74300003 1.2841898e-38
-0.00070667162 -0.051586665 0.74200004 1.2844052e-38
0.00070665649 -0.051586665 0.74200004 1.3397218e-38
0.0021199998 -0.051586665 0.74200004 1.4042936e-38
0.0035333256 -0.05158668 0.74199998 1.3026288e-38
0.0049466547 -0.051586665 0.74199998 1.2104345e-38
0.0063599902 -0.051586665 0.74200004 1.1645525e-38
0.0077733267 -0.051586665 0.74200004 1.1278901e-38
0.0091618961 -0.051447622 0.74000001 1.3304665e-38
0.010599999 -0.051586665 0.74200004 1.5327915e-38
0.011980952 -0.051447608 0.74000001 1.3026288e-38
0.013390465 -0.051447608 0.73999995 1.0726814e-38
0.014799989 -0.051447608 0.74000001 1.1922827e-38
0.016209522 -0.051447608 0.74000001 1.3206728e-38
0.017619045 -0.051447608 0.74000001 9.1591474e-39
0.019028559 -0.051447622 0.73999995 5.1180296e-39
0.02043809 -0.051447622 0.74000001 9.2552933e-39
0.0218181 -0.051378094 0.73900008 1.3299976e-38
0.023225712 -0.051378094 0.73900002 1.3103723e-38
0.024633333 -0.051378079 0.73900002 1.2801202e-38
0.026040945 -0.051378094 0.73900002 1.160149e-38
0.027448565 -0.051378094 0.73900002 1.0412308e-38
0.02889524 -0.051447622 0.74000001 9.124831e-39
0.030263811 -0.051378094 0.73900002 7.8362488e-39
0.031671431 -0.051378094 0.73900002 7.7433217e-39
0.032989532 -0.051239051 0.73700005 7.7433119e-39
-0.039023802 -0.050376214 0.74500012 6.3122498e-39
-0.03760476 -0.050376199 0.74500006 5.2091491e-39
-0.036185712 -0.050376199 0.74500012 1.1093079e-38
-0.034766667 -0.050376214 0.74500006 1.6890913e-38
-0.033347618 -0.050376214 0.74500012 1.6525006e-38
-0.031928577 -0.050376199 0.74500006 1.6061522e-38
-0.030509518 -0.050376199 0.74500006 1.4771159e-38
-0.029090483 -0.050376184 0.74500012 1.3485823e-38
-0.027671427 -0.050376184 0.74500006 1.3946078e-38
-0.026252374 -0.050376214 0.74500012 1.4406332e-38
-0.024833333 -0.050376199 0.74500006 1.5416522e-38
-0.023414282 -0.050376214 0.74500012 1.6429224e-38
-0.021936188 -0.050240971 0.74300003 1.5417599e-38
-0.020576188 -0.050376199 0.74500012 1.4315573e-38
-0.019157147 -0.050376199 0.74500006 1.4041142e-38
-0.017738096 -0.050376199 0.74500012 1.3762406e-38
-0.016319055 -0.050376184 0.74500006 1.2932658e-38
-0.014899989 -0.050376199 0.74500012 1.201502e-38
-0.013480947 -0.050376214 0.74500006 1.2566035e-38
-0.012061895 -0.050376214 0.74500012 1.3023772e-38
-0.010614279 -0.050240941 0.74300003 1.145467e-38
-0.0091990484 -0.050240941 0.74300003 9.8992124e-39
-0.0077838097 -0.050240971 0.74300003 1.1647321e-38
-0.0063685798 -0.050240956 0.74300003 1.3303589e-38
-0.0049533253 -0.050240971 0.74300009 1.3029517e-38
-0.0035380959 -0.050240971 0.74300003 1.2750422e-38
-0.0021228665 -0.050240941 0.74300003 1.2746474e-38
-0.00070667581 -0.05017332 0.74199998 1.2658945e-38
0.00070665276 -0.05017332 0.74200004 1.3305741e-38
0.0021199961 -0.05017332 0.74200004 1.3947513e-38
0.0035333252 -0.050173335 0.74200004 1.3116689e-38
0.0049466607 -0.050173335 0.74200004 1.2289451e-38
0.0063599972 -0.050173335 0.74200004 1.1921031e-38
0.0077733221 -0.05017332 0.74199998 1.1463649e-38
0.0091866581 -0.05017332 0.74200004 1.3305023e-38
0.010599994 -0.05017332 0.74200004 1.5049898e-38
0.011980939 -0.050038077 0.73999995 1.2748988e-38
0.013426666 -0.050173335 0.74200004 1.0360907e-38
0.014840002 -0.050173335 0.74200004 1.1924262e-38
0.016253322 -0.05017332 0.74199998 1.3480082e-38
0.017619042 -0.050038077 0.73999995 9.2441656e-39
0.019028565 -0.050038092 0.74000001 4.9329237e-39
0.02043809 -0.050038092 0.74000001 9.2549346e-39
0.021818101 -0.049970485 0.73900008 1.3574042e-38
0.023225714 -0.049970485 0.73900002 1.3388548e-38
0.024633333 -0.04997047 0.73900002 1.3084226e-38
0.026040947 -0.04997047 0.73900002 1.1964148e-38
0.027485713 -0.050038107 0.74000001 1.086968e-38
0.028895229 -0.050038077 0.73999995 9.1237548e-39
0.030263811 -0.049970455 0.73900008 7.3774314e-39
0.031671431 -0.049970455 0.73900002 7.5600136e-39
0.032989528 -0.049835227 0.73700005 7.7436734e-39
-0.039023802 -0.048957147 0.74500012 6.1264264e-39
-0.03760476 -0.048957132 0.74500006 4.9289791e-39
-0.036185712 -0.048957162 0.74500012 1.1094513e-38
-0.03476667 -0.048957147 0.74500006 1.7264353e-38
-0.033437133 -0.049088575 0.7470001 1.6985977e-38
-0.032014281 -0.049088575 0.74700004 1.6707958e-38
-0.030509524 -0.048957162 0.74500012 1.4864788e-38
-0.029168578 -0.04908856 0.74700004 1.3025928e-38
-0.027671427 -0.048957132 0.74500006 1.3486542e-38
-0.026252376 -0.048957147 0.74500012 1.394572e-38
-0.024833333 -0.048957147 0.74500006 1.4958421e-38
-0.023414282 -0.048957162 0.74500012 1.5972916e-38
-0.021995241 -0.048957147 0.74500006 1.5143168e-38
-0.020576188 -0.048957162 0.74500012 1.4315573e-38
-0.019157147 -0.048957132 0.74500006 1.3854243e-38
-0.017738096 -0.048957147 0.74500012 1.3391837e-38
-0.016319053 -0.048957162 0.74500006 1.284154e-38
-0.014899989 -0.048957162 0.74500012 1.2383799e-38
-0.013480947 -0.048957147 0.74500006 1.2842976e-38
-0.012061896 -0.048957162 0.74500012 1.3303226e-38
-0.010642854 -0.048957147 0.74500006 1.2748261e-38
-0.0091990465 -0.048825733 0.74300003 1.2199765e-38
-0.0077838027 -0.048825718 0.74300003 1.2750064e-38
-0.006368563 -0.048825718 0.74300009 1.3301077e-38
-0.0049533336 -0.048825704 0.74300003 1.3211753e-38
-0.0035381038 -0.048825704 0.74300003 1.3208882e-38
-0.002122849 -0.048825733 0.74300009 1.2840461e-38
-0.00070666976 -0.048760004 0.74200004 1.2566033e-38
0.00070665882 -0.048760004 0.74200004 1.3672007e-38
0.0021200022 -0.048759989 0.74200004 1.4774033e-38
0.0035333196 -0.048760004 0.74199998 1.3484388e-38
0.0049533402 -0.048825733 0.74300009 1.2107573e-38
0.0063599916 -0.048760004 0.74200004 1.1829913e-38
0.0077733281 -0.048760004 0.74200004 1.1553332e-38
0.0091866637 -0.048760004 0.74200004 1.3487618e-38
0.0106 -0.048760004 0.74200004 1.5511228e-38
0.011980944 -0.048628576 0.74000001 1.3118122e-38
0.013426662 -0.048760004 0.74200004 1.0818649e-38
0.014839998 -0.048760004 0.74200004 1.2015022e-38
0.01625333 -0.048760004 0.74200004 1.3300714e-38
0.017666664 -0.048759989 0.74200004 9.0655154e-39
0.019028571 -0.048628576 0.74000001 4.9311287e-39
0.020438094 -0.048628576 0.74000001 9.2545758e-39
0.021847609 -0.048628576 0.73999995 1.3668743e-38
0.023225715 -0.048562862 0.73900008 1.3934529e-38
0.024633329 -0.048562847 0.73900002 1.4183008e-38
0.026076188 -0.048628561 0.74000001 1.2340796e-38
0.02748571 -0.048628561 0.73999995 1.0601337e-38
0.028895235 -0.048628576 0.74000001 9.0337116e-39
0.030263813 -0.048562862 0.73900008 7.5607451e-39
0.031585719 -0.048431434 0.73700005 7.6518519e-39
0.032944772 -0.04836572 0.73600006 7.7433175e-39
-0.037705705 -0.047665708 0.7470001 4.5641468e-39
-0.036282852 -0.047665723 0.74700004 1.1091644e-38
-0.03476667 -0.047538094 0.74500006 1.7534837e-38
-0.033437125 -0.047665723 0.7470001 1.7446948e-38
-0.032014288 -0.047665738 0.74700004 1.7349011e-38
-0.03059141 -0.047665723 0.7470001 1.4954471e-38
-0.029168569 -0.047665708 0.74700004 1.2474196e-38
-0.027671415 -0.047538109 0.74500012 1.3028441e-38
-0.026252374 -0.047538109 0.74500006 1.3487618e-38
-0.024833333 -0.047538094 0.74500006 1.4498167e-38
-0.023414282 -0.047538094 0.74500012 1.5418316e-38
-0.021995241 -0.047538109 0.74500006 1.4866227e-38
-0.020576188 -0.047538109 0.74500012 1.4222661e-38
-0.019157149 -0.047538094 0.74500006 1.3576584e-38
-0.017738096 -0.047538094 0.74500012 1.2933735e-38
-0.016319055 -0.047538109 0.74500006 1.2841181e-38
-0.014899989 -0.047538109 0.74500012 1.2750423e-38
-0.013480948 -0.047538109 0.74500006 1.31192e-38
-0.012061896 -0.047538109 0.74500012 1.348546e-38
-0.010642855 -0.047538094 0.74500006 1.3943916e-38
-0.009199054 -0.047410481 0.74300003 1.4403098e-38
-0.0077837999 -0.047410481 0.74300009 1.3852449e-38
-0.0063685705 -0.047410496 0.74300003 1.3211036e-38
-0.0049533411 -0.047410481 0.74300003 1.3398653e-38
-0.0035380865 -0.047410481 0.74300009 1.3577659e-38
-0.0021228569 -0.047410481 0.74300003 1.3023773e-38
-0.00070667395 -0.047346674 0.74199998 1.2475991e-38
0.00070665416 -0.047346659 0.74200004 1.4042577e-38
0.0021199975 -0.047346659 0.74200004 1.5600193e-38
0.0035381038 -0.047410481 0.74300009 1.375595e-38
0.0049533332 -0.047410466 0.74300003 1.1921391e-38
0.0063599986 -0.047346674 0.74200004 1.1829914e-38
0.0077733239 -0.047346659 0.74199998 1.1647678e-38
0.0091866599 -0.047346659 0.74200004 1.3764918e-38
0.010599996 -0.047346659 0.74200004 1.5876776e-38
0.012013333 -0.047346659 0.74200004 1.3577301e-38
0.01342667 -0.047346659 0.74200004 1.1187426e-38
0.014840006 -0.047346674 0.74200004 1.2107575e-38
0.016253324 -0.047346659 0.74199998 1.3021622e-38
0.01766666 -0.047346674 0.74200004 8.970094e-39
0.019079996 -0.047346659 0.74200004 4.9329237e-39
0.02043809 -0.047219031 0.73999995 9.3474875e-39
0.021847615 -0.047219031 0.74000001 1.3668754e-38
0.023257138 -0.047219031 0.74000001 1.4497404e-38
0.024633331 -0.047155239 0.73900008 1.520182e-38
0.026076185 -0.047219031 0.73999995 1.2797821e-38
0.027485708 -0.047219031 0.74000001 1.0322246e-38
0.02889524 -0.047219045 0.74000001 9.0322808e-39
0.030304763 -0.04721906 0.74000001 7.6525834e-39
0.031714275 -0.047219031 0.73999995 7.7436874e-39
0.032989532 -0.047027625 0.73700011 7.7429559e-39
-0.037705697 -0.046242855 0.7470001 4.7424368e-39
-0.036282845 -0.04624287 0.74700004 1.100232e-38
-0.034859996 -0.046242855 0.7470001 1.7264712e-38
-0.033437129 -0.046242855 0.74700004 1.6985618e-38
-0.032142878 -0.046428584 0.75000006 1.6796204e-38
-0.03063238 -0.04630477 0.74800003 1.4493857e-38
-0.029207628 -0.046304755 0.74800003 1.2194385e-38
-0.027782865 -0.046304755 0.74800003 1.265751e-38
-0.026322847 -0.046242855 0.74700004 1.3028441e-38
-0.024833323 -0.046119057 0.74500012 1.4130825e-38
-0.02341428 -0.046119057 0.74500006 1.5326122e-38
-0.021995239 -0.046119042 0.74500006 1.5142092e-38
-0.020576188 -0.046119042 0.74500012 1.5049898e-38
-0.019157149 -0.046119042 0.74500006 1.4591438e-38
-0.017738096 -0.046119072 0.74500012 1.4221585e-38
-0.016319055 -0.046119042 0.74500006 1.3116329e-38
-0.014899989 -0.046119057 0.74500012 1.210614e-38
-0.013480947 -0.046119057 0.74500006 1.2750423e-38
-0.012061897 -0.046119057 0.74500012 1.3299996e-38
-0.010642855 -0.046119057 0.74500006 1.348402e-38
-0.0091990372 -0.045995258 0.74300009 1.3667696e-38
-0.0077838078 -0.045995258 0.74300003 1.3116689e-38
-0.0063685784 -0.045995243 0.74300003 1.256747e-38
-0.0049533239 -0.045995243 0.74300009 1.3303947e-38
-0.0035380945 -0.045995258 0.74300003 1.4127595e-38
-0.0021228651 -0.045995228 0.74300003 1.2749701e-38
-0.00070666836 -0.045933329 0.74200004 1.1465084e-38
0.00070761901 -0.045995243 0.74300003 1.3122429e-38
0.0021200036 -0.045933329 0.74200004 1.4869097e-38
0.0035380954 -0.045995243 0.74300003 1.3483672e-38
0.0049533322 -0.045995258 0.74300003 1.2103987e-38
0.0063685793 -0.045995258 0.74300009 1.1921391e-38
0.0077733304 -0.045933343 0.74200004 1.1830275e-38
0.0091866655 -0.045933329 0.74200004 1.3396859e-38
0.010600002 -0.045933343 0.74200004 1.4959856e-38
0.012013328 -0.045933329 0.74199998 1.302593e-38
0.013426657 -0.045933329 0.74200004 1.1001603e-38
0.014839991 -0.045933329 0.74200004 1.1830275e-38
0.01625333 -0.045933329 0.74200004 1.2748268e-38
0.017666666 -0.045933343 0.74200004 8.7903705e-39
0.019080002 -0.045933343 0.74200004 4.9311301e-39
0.02043809 -0.04580953 0.74000001 8.8872338e-39
0.021847613 -0.045809515 0.74000001 1.2936235e-38
0.023257138 -0.045809515 0.74000001 1.3843457e-38
0.024666658 -0.0458095 0.73999995 1.4828751e-38
0.026076183 -0.04580953 0.74000001 1.2526978e-38
0.027485706 -0.045809515 0.74000001 1.0326911e-38
0.02889524 -0.04580953 0.74000001 8.942602e-39
0.03030475 -0.045809515 0.73999995 7.5585969e-39
0.031714275 -0.04580953 0.74000001 7.5585815e-39
0.03312381 -0.0458095 0.74000001 7.5585647e-39
-0.037705716 -0.044819988 0.74700004 4.9332825e-39
-0.036282852 -0.044820003 0.7470001 1.0910126e-38
-0.034859993 -0.044820003 0.7470001 1.6891271e-38
-0.03357143 -0.044999994 0.75000012 1.6617558e-38
-0.032142866 -0.045000009 0.75000006 1.6243399e-38
-0.03071429 -0.045000009 0.75000006 1.4121853e-38
-0.029285727 -0.044999994 0.75000006 1.1919955e-38
-0.027782861 -0.044879995 0.74800003 1.2287297e-38
-0.026358098 -0.044879995 0.74800003 1.2566392e-38
-0.024900001 -0.044819988 0.74700004 1.3853525e-38
-0.023414284 -0.044700004 0.74500006 1.5142092e-38
-0.021995232 -0.044700004 0.74500012 1.5509434e-38
-0.02057619 -0.044700004 0.74500006 1.5879287e-38
-0.019157149 -0.044700004 0.74500006 1.5700638e-38
-0.017738096 -0.044700019 0.74500012 1.5414727e-38
-0.016319055 -0.044700004 0.74500006 1.3480441e-38
-0.014899991 -0.044700004 0.74500012 1.146329e-38
-0.013480948 -0.044700004 0.74500006 1.2292322e-38
-0.012061897 -0.044700019 0.74500012 1.3117042e-38
-0.010642855 -0.044700004 0.74500006 1.3023766e-38
-0.0091990456 -0.04457999 0.74300003 1.2931936e-38
-0.0077838162 -0.04457999 0.74300003 1.2378418e-38
-0.0063685616 -0.04458002 0.74300009 1.1832427e-38
-0.0049533318 -0.044580005 0.74300003 1.3213905e-38
-0.0035381024 -0.044580005 0.74300003 1.4589283e-38
-0.0021228478 -0.04458002 0.74300009 1.2473836e-38
-0.00070667255 -0.044519983 0.74199998 1.0362339e-38
0.00070665649 -0.044519998 0.74200004 1.220515e-38
0.0021199998 -0.044519998 0.74200004 1.4038631e-38
0.0035380959 -0.044580005 0.74300003 1.3113818e-38
0.004953343 -0.044580005 0.74300009 1.219618e-38
0.0063685724 -0.044580005 0.74300003 1.2104703e-38
0.0077733253 -0.044519968 0.74199998 1.2014304e-38
0.0091990558 -0.044580005 0.74300003 1.3032028e-38
0.010614286 -0.044580005 0.74300003 1.4038631e-38
0.012013325 -0.044519998 0.74200004 1.2472406e-38
0.013426662 -0.044519998 0.74200004 1.0819008e-38
0.014839998 -0.044519998 0.74200004 1.164768e-38
0.016253326 -0.044519998 0.74199998 1.2378774e-38
0.017666662 -0.044519983 0.74200004 8.6041898e-39
0.019079996 -0.044519998 0.74200004 4.8410882e-39
0.020493332 -0.044519998 0.74200004 8.5180982e-39
0.02190667 -0.044519998 0.74200004 1.2102533e-38
0.023257133 -0.044399999 0.73999995 1.3294581e-38
0.024666656 -0.044399984 0.74000001 1.4463929e-38
0.026076188 -0.044399999 0.74000001 1.2338321e-38
0.027485713 -0.044399984 0.74000001 1.0232232e-38
0.028895225 -0.044399984 0.73999995 8.8525755e-39
0.030263802 -0.044339992 0.73900002 7.4699914e-39
0.031671431 -0.044340007 0.73900008 7.464581e-39
0.03307905 -0.044339992 0.73900008 7.3741692e-39
0.034486666 -0.044339992 0.73900002 7.4663522e-39
-0.037705712 -0.043397136 0.74700004 5.1169534e-39
-0.036282845 -0.043397151 0.7470001 1.0820083e-38
-0.034859993 -0.043397151 0.74700004 1.6528234e-38
-0.033437129 -0.043397136 0.7470001 1.6801588e-38
-0.032142863 -0.04357142 0.75000006 1.7070636e-38
-0.030714301 -0.04357142 0.75000006 1.4586054e-38
-0.029285716 -0.043571435 0.75000012 1.2106137e-38
-0.027782869 -0.043455221 0.74800003 1.2105059e-38
-0.026322845 -0.043397136 0.7470001 1.2106856e-38
-0.024899993 -0.043397136 0.74700004 1.3486542e-38
-0.02347713 -0.043397136 0.7470001 1.4960215e-38
-0.021995232 -0.043280952 0.74500012 1.5143886e-38
-0.02057619 -0.043280967 0.74500006 1.5328633e-38
-0.019157138 -0.043280967 0.74500012 1.5235721e-38
-0.017738096 -0.043280967 0.74500012 1.5225674e-38
-0.016319055 -0.043280952 0.74500006 1.3665185e-38
-0.014900004 -0.043280952 0.74500012 1.2106137e-38
-0.013480949 -0.043280952 0.74500006 1.2658229e-38
-0.012061897 -0.043280952 0.74500012 1.3208878e-38
-0.010642855 -0.043280952 0.74500006 1.3759885e-38
-0.0092238029 -0.043280981 0.74500012 1.4402022e-38
-0.0077837985 -0.043164797 0.74300009 1.3483672e-38
-0.0063685691 -0.043164767 0.74300003 1.2475275e-38
-0.0049533397 -0.043164767 0.74300003 1.3305023e-38
-0.0035380851 -0.043164767 0.74300009 1.4132975e-38
-0.0021228557 -0.043164752 0.74300003 1.27497e-38
-0.0007066665 -0.043106653 0.74200004 1.1273878e-38
0.00070666254 -0.043106653 0.74200004 1.238344e-38
0.0021200054 -0.043106668 0.74200004 1.3487258e-38
0.0035333238 -0.043106653 0.74199998 1.2839386e-38
0.0049533341 -0.043164782 0.74300003 1.2196539e-38
0.006368571 -0.043164767 0.74300003 1.1828479e-38
0.0077733323 -0.043106653 0.74200004 1.1457552e-38
0.0091990475 -0.043164782 0.74300003 1.2750064e-38
0.010614284 -0.043164767 0.74300003 1.4129032e-38
0.012029526 -0.043164752 0.74300003 1.2564598e-38
0.013444762 -0.043164752 0.74300003 1.1000885e-38
0.014839995 -0.043106668 0.74200004 1.173808e-38
0.016253332 -0.043106668 0.74200004 1.247348e-38
0.017666668 -0.043106668 0.74200004 8.884001e-39
0.019080004 -0.043106668 0.74200004 5.3924613e-39
0.020493321 -0.043106653 0.74200004 8.609575e-39
0.021906666 -0.043106668 0.74200004 1.1916344e-38
0.023319993 -0.043106668 0.74200004 1.3103361e-38
0.024666663 -0.042990454 0.74000001 1.4272019e-38
0.026146665 -0.043106653 0.74200004 1.2435215e-38
0.027559994 -0.043106653 0.74199998 1.0697175e-38
0.028895231 -0.042990483 0.74000001 9.1298911e-39
0.030304756 -0.042990468 0.74000001 7.5650569e-39
0.03171429 -0.042990483 0.74000001 7.5592723e-39
0.033123799 -0.042990483 0.73999995 7.465639e-39
0.034533326 -0.042990483 0.74000001 7.3745167e-39
-0.037756197 -0.042030461 0.74800003 5.3013419e-39
-0.036282863 -0.041974269 0.74700004 1.07243e-38
-0.034859985 -0.041974284 0.7470001 1.6156945e-38
-0.033437137 -0.041974284 0.7470001 1.7081041e-38
-0.032057144 -0.042030461 0.74800003 1.7897873e-38
-0.030714292 -0.042142875 0.75000012 1.504559e-38
-0.029285714 -0.042142861 0.75000006 1.2197972e-38
-0.027782865 -0.042030476 0.74800003 1.1920315e-38
-0.026322849 -0.041974284 0.74700004 1.1646961e-38
-0.024899986 -0.041974284 0.7470001 1.3208883e-38
-0.023477137 -0.041974269 0.7470001 1.4682915e-38
-0.021995232 -0.041861929 0.74500012 1.4776903e-38
-0.02057619 -0.041861914 0.74500006 1.4776544e-38
-0.01915714 -0.041861914 0.74500012 1.4871608e-38
-0.017738096 -0.041861914 0.74500006 1.4954832e-38
-0.016319046 -0.041861914 0.74500012 1.384814e-38
-0.014899991 -0.041861914 0.74500006 1.2656793e-38
-0.013480949 -0.041861899 0.74500006 1.2933735e-38
-0.012061897 -0.041861899 0.74500012 1.3209594e-38
-0.010642855 -0.041861914 0.74500006 1.4588554e-38
-0.0091990354 -0.04174953 0.74300009 1.5872823e-38
-0.0077838064 -0.04174953 0.74300003 1.4494939e-38
-0.006368577 -0.04174953 0.74300003 1.3118841e-38
-0.0049533225 -0.04174953 0.74300009 1.3397935e-38
-0.0035380931 -0.041749515 0.74300003 1.3670929e-38
-0.0021228637 -0.04174953 0.74300003 1.2934091e-38
-0.00070667116 -0.041693337 0.74199998 1.2197256e-38
0.00070665788 -0.041693337 0.74200004 1.2567111e-38
0.0021200012 -0.041693337 0.74200004 1.2840464e-38
0.0035380982 -0.04174953 0.74300003 1.2559933e-38
0.0049533341 -0.041749515 0.74300003 1.219618e-38
0.0063685747 -0.04174953 0.74300009 1.1554409e-38
0.0077838106 -0.041749515 0.74300003 1.0909408e-38
0.0091990475 -0.041749515 0.74300003 1.2564958e-38
0.010614288 -0.04174953 0.74300003 1.4127597e-38
0.012029524 -0.04174953 0.74300003 1.2655359e-38
0.01344477 -0.041749544 0.74300009 1.1185632e-38
0.01484 -0.041693322 0.74200004 1.1921751e-38
0.016253326 -0.041693322 0.74199998 1.2562803e-38
0.017666664 -0.041693322 0.74200004 9.2499081e-39
0.01908 -0.041693322 0.74200004 5.8519961e-39
0.020493329 -0.041693322 0.74200004 8.7943222e-39
0.02190667 -0.041693337 0.74200004 1.1641926e-38
0.023319989 -0.041693337 0.74199998 1.2929763e-38
0.024733325 -0.041693322 0.74199998 1.4099854e-38
0.026146661 -0.041693322 0.74200004 1.261676e-38
0.027559996 -0.041693337 0.74200004 1.1061648e-38
0.028973334 -0.041693337 0.74200004 9.4046563e-39
0.030304762 -0.041580953 0.74000001 7.6550945e-39
0.031714275 -0.041580938 0.73999995 7.6496883e-39
0.033123806 -0.041580953 0.74000001 7.5578416e-39
0.034533329 -0.041580938 0.74000001 7.3745195e-39
-0.037756193 -0.040605716 0.74800003 5.3903075e-39
-0.036282856 -0.040551431 0.74700004 1.054278e-38
-0.034859993 -0.040551446 0.7470001 1.5701713e-38
-0.03343714 -0.040551417 0.74700004 1.6709753e-38
-0.032057147 -0.040605716 0.74800003 1.7802091e-38
-0.030714288 -0.040714271 0.75000006 1.5045948e-38
-0.029285729 -0.040714286 0.75000006 1.2291244e-38
-0.027782861 -0.040605702 0.74800003 1.2382364e-38
-0.026322855 -0.040551431 0.74700004 1.2566393e-38
-0.024899993 -0.040551446 0.7470001 1.3485823e-38
-0.023477139 -0.040551417 0.74700004 1.4407767e-38
-0.021995232 -0.040442862 0.74500012 1.4499244e-38
-0.020631421 -0.040551417 0.74700004 1.4495656e-38
-0.019157138 -0.040442877 0.74500012 1.4591079e-38
-0.017738096 -0.040442862 0.74500006 1.4772238e-38
-0.016319046 -0.040442862 0.74500012 1.3851011e-38
-0.014900005 -0.040442862 0.74500006 1.2933017e-38
-0.013480938 -0.040442862 0.74500012 1.3209242e-38
-0.012061897 -0.040442877 0.74500006 1.3392546e-38
-0.010642855 -0.040442862 0.74500006 1.4219416e-38
-0.0092238048 -0.040442862 0.74500012 1.4954108e-38
-0.0077838143 -0.040334277 0.74300003 1.4035044e-38
-0.0063685598 -0.040334292 0.74300009 1.3116689e-38
-0.0049533304 -0.040334292 0.74300003 1.3118483e-38
-0.003538101 -0.040334277 0.74300003 1.3208883e-38
-0.0021228462 -0.040334292 0.74300009 1.2657511e-38
-0.0007066651 -0.040279992 0.74200004 1.210614e-38
0.0007076232 -0.040334292 0.74300009 1.2381646e-38
0.0021228674 -0.040334292 0.74300003 1.2747911e-38
0.0035380968 -0.040334292 0.74300003 1.2471685e-38
0.0049533364 -0.040334292 0.74300009 1.2197615e-38
0.0063685733 -0.040334292 0.74300003 1.1553333e-38
0.0077838101 -0.040334277 0.74300003 1.099945e-38
0.0091990503 -0.040334277 0.74300003 1.2473482e-38
0.010614286 -0.040334277 0.74300003 1.3946078e-38
0.012029533 -0.040334292 0.74300009 1.2841541e-38
0.013444762 -0.040334292 0.74300003 1.1644451e-38
0.014839997 -0.040280007 0.74200004 1.2104705e-38
0.016253334 -0.040280007 0.74200004 1.2564597e-38
0.017666662 -0.040280007 0.74200004 9.5268481e-39
0.019079996 -0.040279992 0.74199998 6.4919748e-39
0.020493323 -0.040279992 0.74199998 8.6084988e-39
0.021906666 -0.040280007 0.74200004 1.0722509e-38
0.023319997 -0.040280007 0.74200004 1.2372678e-38
0.024733333 -0.040280007 0.74200004 1.400948e-38
0.026146669 -0.040279992 0.74200004 1.2626473e-38
0.027559994 -0.040279977 0.74199998 1.1252854e-38
0.028973328 -0.040280007 0.74199998 9.4986204e-39
0.030304758 -0.040171422 0.73999995 7.6543729e-39
0.031714283 -0.040171422 0.74000001 7.6507799e-39
0.033079043 -0.040117122 0.73900002 7.557134e-39
0.034486663 -0.040117137 0.73900008 7.3738035e-39
-0.037756201 -0.039180942 0.74800003 5.4839367e-39
-0.036331438 -0.039180957 0.74800009 1.0354086e-38
-0.034859985 -0.039128579 0.7470001 1.5145677e-38
-0.033437133 -0.039128564 0.74700004 1.6438192e-38
-0.032057147 -0.039180957 0.74800003 1.7622725e-38
-0.030632382 -0.039180957 0.74800003 1.4952679e-38
-0.029285716 -0.039285727 0.75000012 1.2290527e-38
-0.027782869 -0.039180957 0.74800003 1.2842976e-38
-0.026322849 -0.039128579 0.7470001 1.3392911e-38
-0.024833325 -0.039023809 0.74500012 1.3760612e-38
-0.023477132 -0.039128564 0.74700004 1.4131184e-38
-0.021995232 -0.039023824 0.74500012 1.4224096e-38
-0.02057619 -0.039023809 0.74500006 1.422302e-38
-0.019157138 -0.039023809 0.74500012 1.4408126e-38
-0.017738096 -0.039023824 0.74500006 1.4497449e-38
-0.016319046 -0.039023824 0.74500012 1.3851011e-38
-0.014899991 -0.039023809 0.74500006 1.3208882e-38
-0.013480939 -0.039023824 0.74500012 1.3394348e-38
-0.012061898 -0.039023824 0.74500006 1.3576578e-38
-0.010642846 -0.039023824 0.74500012 1.3850643e-38
-0.0092238048 -0.039023824 0.74500006 1.403468e-38
-0.0078047635 -0.039023809 0.74500006 1.357479e-38
-0.006385711 -0.039023809 0.74500012 1.3117048e-38
-0.0049666702 -0.039023824 0.74500006 1.2933377e-38
-0.0035380838 -0.038919069 0.74300009 1.2657153e-38
-0.0021285769 -0.039023809 0.74500006 1.2380929e-38
-0.00070762436 -0.038919054 0.74300003 1.2013587e-38
0.00070762972 -0.038919069 0.74300003 1.2289093e-38
0.0021228595 -0.038919039 0.74300003 1.2565676e-38
0.0035380982 -0.038919039 0.74300009 1.2380569e-38
0.004953335 -0.038919054 0.74300003 1.2105422e-38
0.0063685719 -0.038919054 0.74300003 1.1645886e-38
0.0077838125 -0.038919054 0.74300009 1.1094873e-38
0.0091990493 -0.038919054 0.74300003 1.2474917e-38
0.010614297 -0.038919069 0.74300009 1.3762049e-38
0.012013328 -0.038866661 0.74200004 1.2936605e-38
0.013426664 -0.038866647 0.74200004 1.2105422e-38
0.014839991 -0.038866661 0.74199998 1.2287658e-38
0.016253328 -0.038866661 0.74199998 1.2470609e-38
0.017666657 -0.038866661 0.74200004 9.8005623e-39
0.01908 -0.038866661 0.74200004 7.0447814e-39
