# .PCD v0.7 - Point Cloud Data file format
VERSION 0.7
FIELDS x y z rgb
SIZE 4 4 4 4
TYPE F F F F
COUNT 1 1 1 1
WIDTH 960
HEIGHT 1
VIEWPOINT 0 0 0 1 0 0 0
POINTS 960
DATA ascii
0.06974759 -0.046738081 0.75500011 7.9261953e-39
-0.030066714 -0.046200015 0.7700001 1.1499949e-38
-0.028600052 -0.0462 0.7700001 1.2140275e-38
-0.027062891 -0.046080016 0.76800007 1.2783127e-38
-0.025566708 -0.046019994 0.76700008 1.2505469e-38
-0.024105763 -0.046020009 0.76700008 1.2140282e-38
-0.022585746 -0.04589998 0.7650001 1.2231762e-38
-0.021073364 -0.045779996 0.76300001 1.2237877e-38
-0.019568602 -0.045659997 0.7610001 1.2340134e-38
-0.018095303 -0.04559999 0.76000011 1.2341244e-38
-0.01653813 -0.045299999 0.75500011 1.2529612e-38
-0.015060036 -0.04518 0.75300008 1.271617e-38
-0.013571467 -0.044999979 0.75000012 1.3371591e-38
-0.012110489 -0.044879995 0.74800003 1.3911091e-38
-0.010671455 -0.044820003 0.7470001 1.1872379e-38
-0.0092238318 -0.044699989 0.74500006 9.8602731e-39
-0.0077733714 -0.044520013 0.74200016 1.0418126e-38
-0.0063343327 -0.044340007 0.73900008 1.0976365e-38
-0.0049267113 -0.044339977 0.73900008 1.1076145e-38
-0.0035095606 -0.044220008 0.73700011 1.1166181e-38
-0.0020971727 -0.044040002 0.73400009 1.0059846e-38
-0.00069432141 -0.043740012 0.72900009 8.9553426e-39
0.00069328217 -0.043680005 0.7280001 1.3087974e-38
0.0020742267 -0.043560006 0.72600007 1.7250713e-38
0.0034523513 -0.043499999 0.72500002 2.0387119e-38
0.004819965 -0.043379985 0.72300011 2.341769e-38
0.0061970875 -0.04338 0.72300005 2.341769e-38
0.0075428486 -0.043199979 0.72000009 2.341769e-38
0.008901855 -0.043139987 0.7190001 2.341769e-38
0.010271365 -0.043139987 0.7190001 2.3417687e-38
0.011608541 -0.043019973 0.71700001 2.2040153e-38
0.01297426 -0.043019988 0.71700007 2.0561053e-38
0.014339955 -0.043019988 0.71700007 2.0368011e-38
0.015705675 -0.043020003 0.71700007 2.0105466e-38
0.017071426 -0.043019988 0.71700001 2.1764651e-38
0.018488523 -0.043139987 0.71900004 2.341769e-38
0.019858059 -0.043139987 0.7190001 2.341769e-38
0.021257121 -0.043199994 0.72000003 2.341769e-38
0.022628557 -0.043199994 0.72000003 2.341769e-38
0.024066642 -0.043319993 0.72200006 2.341769e-38
0.02547708 -0.043379985 0.72300011 2.341769e-38
0.026854228 -0.043380015 0.72300011 2.341769e-38
0.028309491 -0.043499984 0.72500008 2.341769e-38
0.029690458 -0.043499984 0.72500008 2.341769e-38
0.031199964 -0.043680005 0.7280001 2.341769e-38
0.03263139 -0.043739997 0.72900009 2.341769e-38
0.034113325 -0.043859996 0.73100007 2.341769e-38
0.035505671 -0.043859996 0.73100007 2.341769e-38
0.036948554 -0.043919988 0.73200011 2.341769e-38
0.038447578 -0.044039987 0.73400009 2.341769e-38
0.039954238 -0.044160001 0.73600012 2.341769e-38
0.041356146 -0.044159971 0.73600012 2.3417689e-38
0.042758077 -0.044159986 0.73600012 2.3417689e-38
0.044219941 -0.044220008 0.73700011 2.3417242e-38
0.045747571 -0.044340007 0.73900008 2.2315487e-38
0.047219001 -0.044399999 0.74000007 2.1204404e-38
0.048759975 -0.044519983 0.7420001 1.761161e-38
0.050240912 -0.044580005 0.74300009 1.4028639e-38
0.051656142 -0.044580005 0.74300009 1.3842147e-38
0.053357136 -0.044819988 0.74700004 1.3661695e-38
0.054779977 -0.044820003 0.7470001 1.476945e-38
0.05627808 -0.044879995 0.74800003 1.5869365e-38
0.057702817 -0.04487998 0.74800003 1.3564189e-38
0.059285719 -0.044999979 0.75000006 1.114985e-38
0.060714275 -0.044999994 0.75000006 9.1997122e-39
0.062142827 -0.044999994 0.75000012 7.2798044e-39
0.063740894 -0.045120008 0.75200009 7.5589276e-39
0.065260001 -0.045179985 0.75300002 7.8351432e-39
0.066694267 -0.045179985 0.75300002 7.8351348e-39
0.068128563 -0.045179985 0.75300008 7.743281e-39
0.06974759 -0.045299999 0.75500011 8.3857512e-39
-0.030144785 -0.044849522 0.77200007 1.1779047e-38
-0.028600037 -0.044733323 0.7700001 1.2144947e-38
-0.027133375 -0.044733323 0.7700001 1.2417231e-38
-0.02560002 -0.044617139 0.76800007 1.2326477e-38
-0.024105757 -0.044559069 0.76700008 1.2143538e-38
-0.022585735 -0.044442855 0.7650001 1.2514121e-38
-0.021073369 -0.044326656 0.76300007 1.2880403e-38
-0.019568596 -0.044210471 0.7610001 1.2340168e-38
-0.018095266 -0.044152372 0.76000005 1.1887453e-38
-0.016538151 -0.043861888 0.75500011 1.1609798e-38
-0.015059995 -0.043745704 0.75300002 1.1337542e-38
-0.013571437 -0.043571405 0.75000006 1.1709208e-38
-0.012110507 -0.043455236 0.74800003 1.2072939e-38
-0.010642913 -0.043280952 0.74500006 1.1058418e-38
-0.0091991005 -0.043164767 0.74300009 1.0140111e-38
-0.0077733872 -0.043106668 0.7420001 1.0240602e-38
-0.0063343104 -0.042932369 0.73900008 1.0432193e-38
-0.0049267188 -0.042932384 0.73900008 1.0522979e-38
-0.0035095569 -0.04281617 0.73700011 1.0705215e-38
-0.0020972099 -0.0426419 0.73400009 9.7832717e-39
-0.00069433259 -0.042351432 0.72900009 8.8592065e-39
0.00069327286 -0.042293333 0.7280001 1.3280253e-38
0.0020742547 -0.042177133 0.72600007 1.7809259e-38
0.003452355 -0.042119034 0.72500002 2.066119e-38
0.004819952 -0.042002864 0.72300011 2.341769e-38
0.0061970763 -0.042002849 0.72300011 2.341769e-38
0.0075637745 -0.04194475 0.72200012 2.341769e-38
0.0089018606 -0.041770466 0.71900004 2.341769e-38
0.010271397 -0.041770466 0.7190001 2.3417689e-38
0.01164091 -0.041770466 0.7190001 2.2403908e-38
0.012974251 -0.041654281 0.71700001 2.1388645e-38
0.01433997 -0.041654281 0.71700007 2.1572981e-38
0.01570569 -0.041654266 0.71700007 2.1759934e-38
0.017118987 -0.041770481 0.7190001 2.2590094e-38
0.018488528 -0.041770466 0.71900004 2.341769e-38
0.019858066 -0.041770466 0.71900004 2.341769e-38
0.021257125 -0.041828565 0.72000003 2.341769e-38
0.022628557 -0.041828565 0.72000003 2.341769e-38
0.024066636 -0.041944735 0.72200006 2.341769e-38
0.025477093 -0.042002849 0.72300011 2.341769e-38
0.026928525 -0.042119049 0.72500008 2.341769e-38
0.028309494 -0.042119049 0.72500008 2.3234019e-38
0.029731384 -0.042177118 0.72600001 2.3050348e-38
0.031199954 -0.042293318 0.7280001 2.3141825e-38
0.032631405 -0.042351432 0.72900009 2.3142183e-38
0.034113307 -0.042467616 0.73100007 2.323366e-38
0.03555426 -0.042525701 0.73200011 2.341769e-38
0.036948524 -0.042525701 0.73200011 2.341769e-38
0.038447574 -0.042641915 0.73400003 2.341769e-38
0.039954253 -0.042758085 0.73600012 2.341769e-38
0.041356154 -0.0427581 0.73600012 2.341769e-38
0.042816147 -0.042816184 0.73700011 2.341769e-38
0.044219948 -0.042816199 0.73700011 2.341769e-38
0.045809507 -0.042990468 0.74000007 2.2866677e-38
0.047346625 -0.043106668 0.7420001 2.2315487e-38
0.04875996 -0.043106668 0.7420001 1.9917901e-38
0.050240919 -0.043164738 0.74300009 1.7613443e-38
0.051656179 -0.043164767 0.74300009 1.5311496e-38
0.053357124 -0.043397121 0.74700004 1.3108874e-38
0.054779988 -0.043397136 0.7470001 1.4584693e-38
0.056278065 -0.043455221 0.74800003 1.6054478e-38
0.057857133 -0.04357142 0.75000012 1.3929404e-38
0.059285693 -0.04357142 0.75000006 1.1794515e-38
0.060714275 -0.04357142 0.75000012 9.4874324e-39
0.062308546 -0.043687619 0.75200003 7.2823281e-39
0.063825712 -0.043745689 0.75300002 7.5592934e-39
0.065259986 -0.043745704 0.75300002 7.8355103e-39
0.066694275 -0.043745719 0.75300008 7.8358606e-39
0.068128578 -0.043745704 0.75300002 7.8354893e-39
0.069747604 -0.043861903 0.75500005 8.2028173e-39
-0.030144777 -0.043379046 0.77200007 1.2062464e-38
-0.028600045 -0.043266676 0.7700001 1.2058873e-38
-0.027133383 -0.043266661 0.7700001 1.2057087e-38
-0.025600022 -0.043154292 0.76800007 1.2148214e-38
-0.02410578 -0.043098085 0.76700008 1.2151461e-38
-0.02258575 -0.042985715 0.7650001 1.2800068e-38
-0.021073377 -0.04287333 0.76300007 1.3443637e-38
-0.01956859 -0.042760946 0.76100004 1.2436321e-38
-0.018095285 -0.042704754 0.76000005 1.133177e-38
-0.016538115 -0.042423807 0.75500005 1.0592767e-38
-0.015100028 -0.042423822 0.75500005 9.8667317e-39
-0.013571437 -0.042142846 0.75000006 1.0054031e-38
-0.012142884 -0.042142846 0.75000012 1.014694e-38
-0.010642886 -0.041861884 0.74500006 1.023985e-38
-0.0091866842 -0.041693322 0.7420001 1.0333151e-38
-0.0077524194 -0.041580938 0.74000007 1.0063056e-38
-0.0063343113 -0.041524746 0.73900008 9.7872052e-39
-0.0049267197 -0.04152476 0.73900008 1.0061292e-38
-0.0035095783 -0.041412376 0.73700011 1.02446e-38
-0.0020971904 -0.041243814 0.73400009 9.5084771e-39
-0.00069431768 -0.040962853 0.72900003 8.6794801e-39
0.00069329148 -0.04090666 0.72800004 1.3548229e-38
0.0020742286 -0.040794291 0.72600007 1.8353458e-38
0.0034523625 -0.040738098 0.72500002 2.0938132e-38
0.0048199687 -0.040625699 0.72300005 2.341769e-38
0.0061970931 -0.040625714 0.72300005 2.341769e-38
0.007563767 -0.040569507 0.72200012 2.341769e-38
0.0089018662 -0.04040093 0.71900004 2.341769e-38
0.010271405 -0.040400945 0.71900004 2.3416251e-38
0.011640918 -0.040400945 0.71900004 2.2769451e-38
0.012974265 -0.04028856 0.71700007 2.2128375e-38
0.014339958 -0.040288575 0.71700001 2.2774788e-38
0.015705679 -0.040288575 0.71700007 2.3416587e-38
0.01711899 -0.040400945 0.7190001 2.341769e-38
0.01848853 -0.04040096 0.7190001 2.341769e-38
0.019858044 -0.04040096 0.7190001 2.341769e-38
0.021257123 -0.040457122 0.72000003 2.341769e-38
0.022628559 -0.040457137 0.72000009 2.341769e-38
0.024066653 -0.040569521 0.72200006 2.341769e-38
0.025477108 -0.040625699 0.72300005 2.341769e-38
0.026854258 -0.040625699 0.72300005 2.341769e-38
0.028309472 -0.040738083 0.72500008 2.3050348e-38
0.029731382 -0.040794276 0.72600007 2.2682287e-38
0.031242814 -0.040962853 0.72900009 2.2773404e-38
0.032631394 -0.040962853 0.72900003 2.2865239e-38
0.03411331 -0.041075222 0.73100007 2.3140747e-38
0.03555426 -0.041131429 0.73200011 2.3325494e-38
0.036948524 -0.041131444 0.73200011 2.341769e-38
0.038447563 -0.041243814 0.73400009 2.341769e-38
0.039954234 -0.041356198 0.73600012 2.341769e-38
0.041356161 -0.041356198 0.73600012 2.341769e-38
0.042816155 -0.041412376 0.73700011 2.341769e-38
0.044339973 -0.04152476 0.73900008 2.341769e-38
0.045809496 -0.041580953 0.74000007 2.341769e-38
0.047346637 -0.041693352 0.7420001 2.3417602e-38
0.048759967 -0.041693337 0.7420001 2.2315487e-38
0.050240897 -0.041749515 0.74300009 2.1108657e-38
0.051656153 -0.041749515 0.74300009 1.6865158e-38
0.053214259 -0.041861884 0.74500006 1.2558225e-38
0.054779977 -0.041974269 0.7470001 1.4406423e-38
0.056278042 -0.042030461 0.74800003 1.6147402e-38
0.057857111 -0.042142861 0.75000012 1.4303568e-38
0.059285693 -0.042142846 0.75000006 1.2445985e-38
0.060714275 -0.042142861 0.75000012 9.8562317e-39
0.062308539 -0.042255215 0.75200003 7.191943e-39
0.063825697 -0.042311423 0.75300008 7.5607367e-39
0.065259993 -0.042311408 0.75300002 7.836232e-39
0.066694289 -0.042311408 0.75300002 7.8365809e-39
0.068128563 -0.042311423 0.75300008 7.8358606e-39
0.069747604 -0.042423792 0.75500005 8.019889e-39
-0.03161525 -0.041908555 0.77200007 9.9552909e-39
-0.030144792 -0.041908555 0.77200001 1.2160418e-38
-0.028600024 -0.0418 0.77000004 1.2064992e-38
-0.027133362 -0.041800015 0.77000004 1.1971374e-38
-0.02560002 -0.0416914 0.76800001 1.1878831e-38
-0.024105776 -0.04163713 0.76700008 1.1697338e-38
-0.022585733 -0.041528575 0.76500005 1.1976455e-38
-0.021073379 -0.04141999 0.76300001 1.2167292e-38
-0.019568613 -0.041311421 0.7610001 1.1610889e-38
-0.018095275 -0.041257136 0.76000011 1.1053386e-38
-0.016560037 -0.041040011 0.75600004 1.0415528e-38
-0.015100027 -0.040985696 0.75500011 9.7788366e-39
-0.013571438 -0.040714286 0.75000012 1.0056913e-38
-0.012110514 -0.040605702 0.74800003 1.0333517e-38
-0.010642892 -0.040442832 0.74500006 1.0242779e-38
-0.0091990903 -0.040334277 0.74300009 1.0246023e-38
-0.0077733696 -0.040280007 0.7420001 1.0153484e-38
-0.0063343439 -0.040117152 0.73900008 9.9690965e-39
-0.0049266964 -0.040117137 0.73900008 1.0060575e-38
-0.0035048202 -0.039954297 0.73600012 1.0152403e-38
-0.0020971969 -0.039845712 0.73400009 9.8768897e-39
-0.00069433259 -0.039574273 0.72900009 9.6896692e-39
0.00069328403 -0.039520003 0.7280001 1.429296e-38
0.0020742305 -0.039411433 0.72600007 1.8914158e-38
0.0034523401 -0.039357133 0.72500008 2.1121085e-38
0.0048199557 -0.039248578 0.72300005 2.341769e-38
0.0061971042 -0.039248563 0.72300011 2.341769e-38
0.0075637605 -0.039194278 0.72200012 2.341769e-38
0.0089142611 -0.039085709 0.72000009 2.341769e-38
0.010271382 -0.039031424 0.7190001 2.3417683e-38
0.01160856 -0.038922854 0.71700001 2.3048539e-38
0.012974253 -0.038922839 0.71700001 2.2590446e-38
0.014339974 -0.038922869 0.71700007 2.3050348e-38
0.015705694 -0.038922854 0.71700007 2.341769e-38
0.017119 -0.039031409 0.7190001 2.341769e-38
0.018488538 -0.039031424 0.7190001 2.341769e-38
0.019858051 -0.039031424 0.7190001 2.341769e-38
0.021257125 -0.039085709 0.72000009 2.341769e-38
0.02269139 -0.039194293 0.72200012 2.341769e-38
0.02406662 -0.039194293 0.72200012 2.341769e-38
0.025477096 -0.039248563 0.72300011 2.341769e-38
0.026928537 -0.039357148 0.72500008 2.341769e-38
0.028309479 -0.039357148 0.72500008 2.3049989e-38
0.029731387 -0.039411418 0.72600007 2.268121e-38
0.031242831 -0.039574273 0.72900003 2.2773041e-38
0.032631379 -0.039574288 0.72900009 2.2955278e-38
0.034113292 -0.039682843 0.73100007 2.3141103e-38
0.03555426 -0.039737143 0.73200011 2.3417689e-38
0.036948524 -0.039737158 0.73200011 2.3325854e-38
0.038447555 -0.039845712 0.73400009 2.3325854e-38
0.039954245 -0.039954282 0.73600012 2.341769e-38
0.041412331 -0.040008567 0.73700011 2.341769e-38
0.042816162 -0.040008567 0.73700011 2.341769e-38
0.04433997 -0.040117137 0.73900008 2.341769e-38
0.045933314 -0.040279992 0.7420001 2.341769e-38
0.047346614 -0.040279992 0.7420001 2.341769e-38
0.048825674 -0.040334277 0.74300009 2.2774483e-38
0.050240926 -0.040334277 0.74300009 2.213077e-38
0.051656131 -0.040334292 0.74300009 1.7058146e-38
0.053214252 -0.040442847 0.74500012 1.2097258e-38
0.054779988 -0.040551417 0.7470001 1.4311736e-38
0.05627808 -0.040605687 0.74800003 1.6518701e-38
0.057702817 -0.040605702 0.74800003 1.4118825e-38
0.059285693 -0.040714271 0.75000006 1.1717414e-38
0.060876183 -0.040822856 0.75200003 9.4020989e-39
0.062391419 -0.040877141 0.75300008 7.0068525e-39
0.063825719 -0.040877126 0.75300002 7.1923255e-39
0.065259986 -0.040877126 0.75300002 7.2859421e-39
0.066871405 -0.040985711 0.75500011 7.5603583e-39
0.068309523 -0.040985696 0.75500005 7.7429629e-39
0.069747612 -0.040985711 0.75500005 7.8355243e-39
-0.031615265 -0.040438093 0.77200007 9.8695777e-39
-0.030144786 -0.040438078 0.77200007 1.2254427e-38
-0.028600035 -0.040333338 0.7700001 1.2068599e-38
-0.027133374 -0.040333323 0.7700001 1.1883497e-38
-0.025600022 -0.040228583 0.76800007 1.160692e-38
-0.024105772 -0.04017619 0.76700008 1.123852e-38
-0.022585746 -0.04007142 0.76500005 1.105702e-38
-0.021073382 -0.039966665 0.76300007 1.087837e-38
-0.019568581 -0.03986191 0.7610001 1.0786891e-38
-0.018095294 -0.039809518 0.76000011 1.069469e-38
-0.016560037 -0.039599992 0.75600004 1.0237299e-38
-0.015100048 -0.0395476 0.75500011 9.6902774e-39
-0.013571464 -0.039285697 0.75000012 1.0060894e-38
-0.012110505 -0.039180957 0.74800009 1.0428603e-38
-0.010642896 -0.039023794 0.74500006 1.03357e-38
-0.0091990875 -0.038919054 0.74300009 1.0152755e-38
-0.0077733835 -0.038866676 0.7420001 1.0151687e-38
-0.0063428935 -0.038761906 0.74000007 1.015169e-38
-0.0049267001 -0.038709514 0.73900008 1.0059859e-38
-0.0035095941 -0.038604759 0.73700011 9.9698098e-39
-0.0020971764 -0.038447611 0.73400009 1.0340016e-38
-0.00069622131 -0.038290448 0.73100007 1.0611247e-38
0.00069423585 -0.038185708 0.72900009 1.5019382e-38
0.0020742584 -0.038028561 0.72600001 1.9364361e-38
0.0034523457 -0.037976183 0.72500008 2.1397309e-38
0.0048332885 -0.037976183 0.72500008 2.341769e-38
0.0061970931 -0.037871428 0.72300011 2.341769e-38
0.0075637791 -0.03781905 0.72200012 2.341769e-38
0.0089142621 -0.03771428 0.72000009 2.341769e-38
0.010271388 -0.037661888 0.7190001 2.3417323e-38
0.0116409 -0.037661903 0.7190001 2.3232209e-38
0.01297427 -0.037557147 0.71700001 2.3049622e-38
0.014339963 -0.037557133 0.71700001 2.3234019e-38
0.015705682 -0.037557147 0.71700007 2.341769e-38
0.017119005 -0.037661888 0.71900004 2.341769e-38
0.018488545 -0.037661888 0.7190001 2.341769e-38
0.019885693 -0.037714265 0.72000009 2.341769e-38
0.021257125 -0.03771428 0.72000009 2.341769e-38
0.022691384 -0.037819035 0.72200012 2.341769e-38
0.024099935 -0.037871428 0.72300011 2.341769e-38
0.025477083 -0.037871443 0.72300011 2.341769e-38
0.026928546 -0.037976168 0.72500002 2.341769e-38
0.028309483 -0.037976183 0.72500008 2.3050348e-38
0.029731385 -0.038028575 0.72600007 2.2590092e-38
0.031242814 -0.038185708 0.72900009 2.2865238e-38
0.032720927 -0.038290478 0.73100007 2.304891e-38
0.034113325 -0.038290478 0.73100007 2.3234018e-38
0.035554264 -0.038342856 0.73200011 2.3417689e-38
0.036948528 -0.038342856 0.73200011 2.3325854e-38
0.038447574 -0.038447611 0.73400009 2.3234019e-38
0.039954226 -0.038552381 0.73600012 2.3325854e-38
0.041412339 -0.038604759 0.73700011 2.341769e-38
0.042816166 -0.038604759 0.73700011 2.341769e-38
0.04433997 -0.038709514 0.73900008 2.341769e-38
0.045933321 -0.038866661 0.7420001 2.341769e-38
0.047346629 -0.038866661 0.7420001 2.341769e-38
0.048825651 -0.038919054 0.74300009 2.3234019e-38
0.050240908 -0.038919039 0.74300009 2.3041231e-38
0.051656164 -0.038919039 0.74300009 1.7322889e-38
0.053214252 -0.039023794 0.74500012 1.1547675e-38
0.054779977 -0.039128564 0.7470001 1.4224554e-38
0.056278065 -0.039180957 0.74800003 1.6883144e-38
0.057702854 -0.039180942 0.74800003 1.3935105e-38
0.059285693 -0.039285712 0.75000012 1.0972296e-38
0.060876176 -0.039390452 0.75200003 8.9364517e-39
0.062391434 -0.039442845 0.75300002 6.8238877e-39
0.063825704 -0.03944283 0.75300002 6.8238975e-39
0.065259993 -0.03944286 0.75300008 6.733113e-39
0.066871382 -0.0395476 0.75500011 7.1922653e-39
0.068309493 -0.039547615 0.75500005 7.6511022e-39
0.069747582 -0.039547615 0.75500005 7.650403e-39
-0.031615257 -0.038967617 0.77200007 1.0330213e-38
-0.030066706 -0.038866676 0.7700001 1.1797064e-38
-0.028600045 -0.038866661 0.7700001 1.0968028e-38
-0.027062893 -0.038765736 0.76800007 1.0233342e-38
-0.025566714 -0.038715251 0.76700008 1.0506336e-38
-0.024105767 -0.038715236 0.76700008 1.0776833e-38
-0.022585735 -0.038614266 0.7650001 1.1519063e-38
-0.02107336 -0.038513325 0.76300001 1.2257341e-38
-0.019568605 -0.038412385 0.7610001 1.2078339e-38
-0.018095287 -0.0383619 0.76000011 1.1986522e-38
-0.016538132 -0.038109519 0.75500011 1.1254009e-38
-0.01506002 -0.038008563 0.75300008 1.0612986e-38
-0.013571464 -0.037857138 0.75000012 1.0522616e-38
-0.012110494 -0.037756167 0.74800003 1.0524406e-38
-0.010642899 -0.037604742 0.74500006 1.0061996e-38
-0.0091990801 -0.037503816 0.74300009 9.6021035e-39
-0.0077733761 -0.037453331 0.7420001 1.0060924e-38
-0.0063429037 -0.037352391 0.74000007 1.0610149e-38
-0.0049267029 -0.037301905 0.73900008 1.0888172e-38
-0.0035095895 -0.037200965 0.73700011 1.1254791e-38
-0.0021028956 -0.03715048 0.73600012 1.0702337e-38
-0.00069621386 -0.036898069 0.73100001 1.0242466e-38
0.00069425075 -0.036797129 0.72900009 1.4845027e-38
0.0020799804 -0.036746658 0.7280001 1.9463725e-38
0.0034570973 -0.036645718 0.72600007 2.1396233e-38
0.0048332941 -0.036595233 0.72500008 2.341769e-38
0.006197108 -0.036494277 0.72300005 2.341769e-38
0.0075637717 -0.036443792 0.72200012 2.341769e-38
0.0089389989 -0.036443792 0.72200012 2.341769e-38
0.010285703 -0.036342852 0.72000003 2.3417682e-38
0.011657136 -0.036342852 0.72000003 2.2772671e-38
0.012974258 -0.036191426 0.71700001 2.2131985e-38
0.014339977 -0.036191396 0.71700001 2.2222394e-38
0.015705697 -0.036191426 0.71700007 2.24075e-38
0.017118985 -0.036292382 0.7190001 2.2958513e-38
0.018488552 -0.036292367 0.71900004 2.341769e-38
0.019858064 -0.036292367 0.71900004 2.341769e-38
0.021257101 -0.036342852 0.72000009 2.341769e-38
0.022691377 -0.036443807 0.72200012 2.341769e-38
0.02409995 -0.036494263 0.72300005 2.341769e-38
0.0254771 -0.036494277 0.72300005 2.341769e-38
0.02692855 -0.036595233 0.72500002 2.341769e-38
0.028309492 -0.036595233 0.72500002 2.323366e-38
0.029731387 -0.036645703 0.72600007 2.3048912e-38
0.031114254 -0.036645718 0.72600007 2.3141463e-38
0.032631382 -0.036797129 0.72900009 2.32333e-38
0.034113299 -0.036898099 0.73100007 2.3325854e-38
0.035554264 -0.036948554 0.73200011 2.341769e-38
0.03704948 -0.037049524 0.73400009 2.341769e-38
0.038447566 -0.037049524 0.73400003 2.3325854e-38
0.039954264 -0.037150465 0.73600012 2.341769e-38
0.041412346 -0.03720095 0.73700011 2.341769e-38
0.042932343 -0.037301905 0.73900008 2.341769e-38
0.044399958 -0.037352376 0.74000007 2.341769e-38
0.04580947 -0.037352391 0.74000007 2.341769e-38
0.047410425 -0.037503801 0.74300009 2.341769e-38
0.048825681 -0.037503801 0.74300009 2.323366e-38
0.050240912 -0.037503816 0.74300015 2.2956929e-38
0.051656142 -0.037503816 0.74300009 1.761059e-38
0.053071398 -0.037503801 0.74300009 1.2188365e-38
0.054779992 -0.037705712 0.7470001 1.4402834e-38
0.056202855 -0.037705697 0.74700004 1.6517925e-38
0.057702832 -0.037756167 0.74800003 1.3097774e-38
0.059285693 -0.037857138 0.75000012 9.6668378e-39
0.060876165 -0.037958093 0.75200003 8.3821975e-39
0.062308535 -0.037958078 0.75200003 7.0990243e-39
0.063825682 -0.038008563 0.75300008 7.0993942e-39
0.065260008 -0.038008548 0.75300002 7.1908345e-39
0.066694282 -0.038008548 0.75300002 7.4673794e-39
0.068309501 -0.038109519 0.75500005 7.74363e-39
-0.030066717 -0.0374 0.7700001 1.1248942e-38
-0.028600054 -0.0374 0.7700001 9.9564008e-39
-0.027062891 -0.037302859 0.76800001 8.5788823e-39
-0.02556671 -0.037254296 0.76700008 9.4997624e-39
-0.024105763 -0.037254266 0.76700008 1.0329174e-38
-0.022585746 -0.037157141 0.7650001 1.1985107e-38
-0.021073367 -0.03706 0.76300007 1.3644607e-38
-0.019568598 -0.036962844 0.7610001 1.3465963e-38
-0.018095274 -0.036914267 0.76000005 1.3188313e-38
-0.016560037 -0.03671997 0.75600004 1.2362164e-38
-0.01510001 -0.036671408 0.75500005 1.1534225e-38
-0.013607671 -0.036525719 0.75200009 1.1075063e-38
-0.012110513 -0.036331408 0.74800003 1.0522251e-38
-0.010642905 -0.036185689 0.74500006 9.7861276e-39
-0.0091991015 -0.036088578 0.74300009 9.0514436e-39
-0.0077524278 -0.035942875 0.74000007 1.0062712e-38
-0.0063343253 -0.035894282 0.73900008 1.0982509e-38
-0.0049133804 -0.035797127 0.73700011 1.1811906e-38
-0.003509583 -0.035797141 0.73700011 1.2540472e-38
-0.0021028854 -0.035748579 0.73600012 1.1155028e-38
-0.00069621013 -0.035505719 0.73100007 9.7804103e-39
0.00069423585 -0.035408564 0.72900009 1.4654911e-38
0.0020799711 -0.035360001 0.7280001 1.9457273e-38
0.0034570992 -0.035262845 0.72600001 2.1489145e-38
0.0048332978 -0.035214283 0.72500008 2.341769e-38
0.0061970949 -0.035117127 0.72300011 2.341769e-38
0.0075637661 -0.035068564 0.72200012 2.341769e-38
0.0089142676 -0.034971423 0.72000003 2.341769e-38
0.010271402 -0.034922846 0.71900004 2.3415836e-38
0.011640914 -0.034922861 0.71900004 2.2308728e-38
0.013010426 -0.034922831 0.71900004 2.1115975e-38
0.014339993 -0.034825705 0.71700001 2.1299318e-38
0.015749477 -0.034922846 0.7190001 2.1393335e-38
0.01711899 -0.034922861 0.7190001 2.24075e-38
0.018488528 -0.034922861 0.7190001 2.341769e-38
0.019885693 -0.034971409 0.72000009 2.341769e-38
0.021345664 -0.035117127 0.72300011 2.341769e-38
0.022722814 -0.035117127 0.72300011 2.341769e-38
0.024099939 -0.035117127 0.72300005 2.341769e-38
0.025547588 -0.035214283 0.72500002 2.341769e-38
0.026965689 -0.035262845 0.72600001 2.341769e-38
0.028348554 -0.035262845 0.72600001 2.341769e-38
0.029813288 -0.035359971 0.7280001 2.3417331e-38
0.03124282 -0.035408564 0.72900009 2.3417689e-38
0.032720909 -0.035505705 0.73100007 2.341769e-38
0.03415997 -0.035554267 0.73200011 2.341769e-38
0.035651386 -0.035651423 0.73400009 2.341769e-38
0.037049472 -0.035651423 0.73400003 2.341769e-38
0.038552344 -0.035748564 0.73600012 2.341769e-38
0.040008523 -0.035797156 0.73700011 2.341769e-38
0.041524723 -0.035894267 0.73900008 2.341769e-38
0.042990431 -0.03594286 0.74000007 2.341769e-38
0.044519953 -0.036040001 0.7420001 2.341769e-38
0.045995198 -0.036088578 0.74300009 2.341769e-38
0.047410432 -0.036088564 0.74300009 2.341769e-38
0.048825659 -0.036088578 0.74300009 2.3142183e-38
0.050376177 -0.036185689 0.74500006 2.2859358e-38
0.051795196 -0.036185719 0.74500006 1.7882518e-38
0.053357139 -0.036282845 0.74700004 1.2835531e-38
0.05485332 -0.036331393 0.74800003 1.4496842e-38
0.056278083 -0.036331423 0.74800003 1.6144849e-38
0.057702847 -0.036331408 0.74800003 1.2271605e-38
0.059285723 -0.036428563 0.75000006 8.3886631e-39
0.060876161 -0.036525674 0.75200003 7.9187012e-39
0.062391408 -0.036574282 0.75300008 7.3734377e-39
0.063995212 -0.036671422 0.75500011 7.4677956e-39
0.065433331 -0.036671393 0.75500005 7.5592499e-39
0.06687142 -0.036671408 0.75500005 7.6507043e-39
0.068309486 -0.036671422 0.75500005 7.7429265e-39
-0.030066727 -0.035933338 0.7700001 1.1620611e-38
-0.028600065 -0.035933338 0.7700001 1.0970534e-38
-0.027062893 -0.035839997 0.76800007 1.0411659e-38
-0.025566733 -0.035793312 0.76700008 1.1157852e-38
-0.024042889 -0.035700001 0.7650001 1.1993733e-38
-0.022585761 -0.035700001 0.7650001 1.2821721e-38
-0.021073373 -0.035606675 0.76300007 1.3746895e-38
-0.019542886 -0.035466664 0.76000005 1.346852e-38
-0.018047642 -0.035373323 0.75800002 1.328521e-38
-0.016560063 -0.035280012 0.7560001 1.2179599e-38
-0.015100034 -0.035233311 0.75500005 1.1075779e-38
-0.013625724 -0.035139985 0.75300008 1.0705924e-38
-0.01214288 -0.035000004 0.75000012 1.0427543e-38
-0.010642909 -0.034766652 0.74500012 1.0152389e-38
-0.0091990987 -0.034673356 0.74300009 9.8765239e-39
-0.0077733817 -0.03462667 0.7420001 1.1442389e-38
-0.0063429195 -0.034533329 0.74000007 1.3006831e-38
-0.0049267132 -0.034486659 0.73900008 1.3006124e-38
-0.0035095792 -0.034393333 0.73700011 1.3001785e-38
-0.002102904 -0.034346662 0.73600012 1.1065673e-38
-0.00069620454 -0.034113325 0.73100007 9.2218541e-39
0.00069425075 -0.034019999 0.72900009 1.4386232e-38
0.0020799618 -0.033973329 0.7280001 1.9558441e-38
0.0034570973 -0.033879988 0.72600007 2.1488786e-38
0.0048332773 -0.033833332 0.72500008 2.341769e-38
0.0061970837 -0.033739991 0.72300011 2.341769e-38
0.0075637829 -0.033693321 0.72200012 2.341769e-38
0.008939011 -0.033693321 0.72200012 2.341769e-38
0.010285702 -0.03359998 0.72000009 2.3417579e-38
0.011640892 -0.033553325 0.7190001 2.2403331e-38
0.01301046 -0.033553325 0.71900004 2.129562e-38
0.014339981 -0.033459999 0.71700001 2.1389302e-38
0.015749484 -0.03355331 0.71900004 2.1479043e-38
0.017118998 -0.03355331 0.71900004 2.2404988e-38
0.018514259 -0.033599995 0.72000009 2.341769e-38
0.019885669 -0.033599995 0.72000009 2.341769e-38
0.021345653 -0.033740006 0.72300011 2.341769e-38
0.022785682 -0.033833317 0.72500008 2.341769e-38
0.024166625 -0.033833332 0.72500002 2.341769e-38
0.025547592 -0.033833317 0.72500008 2.341769e-38
0.026965663 -0.033880003 0.72600007 2.341769e-38
0.028348526 -0.033880003 0.72600007 2.341769e-38
0.029813278 -0.033973329 0.7280001 2.341769e-38
0.031328544 -0.03411334 0.73100007 2.341769e-38
0.032720942 -0.034113325 0.73100007 2.341769e-38
0.034159973 -0.034159996 0.73200011 2.341769e-38
0.035651382 -0.034253336 0.73400003 2.341769e-38
0.037049465 -0.034253336 0.73400009 2.341769e-38
0.038552321 -0.034346677 0.73600012 2.341769e-38
0.040008526 -0.034393318 0.73700011 2.341769e-38
0.041524746 -0.034486674 0.73900008 2.341769e-38
0.042932335 -0.034486659 0.73900008 2.341769e-38
0.044399943 -0.034533329 0.74000007 2.341769e-38
0.04599518 -0.034673326 0.74300009 2.341769e-38
0.047410436 -0.034673341 0.74300009 2.341769e-38
0.048825696 -0.034673341 0.74300009 2.2957795e-38
0.050376169 -0.034766652 0.74500006 2.2588161e-38
0.051795192 -0.034766652 0.74500012 1.7798224e-38
0.053357154 -0.034859993 0.74700004 1.3019216e-38
0.054853305 -0.034906663 0.74800003 1.4494349e-38
0.056278061 -0.034906663 0.74800009 1.5966922e-38
0.057702824 -0.034906648 0.74800003 1.2085413e-38
0.059285697 -0.035000004 0.75000006 8.1048945e-39
0.060876176 -0.03509333 0.75200003 7.8300803e-39
0.062391423 -0.035139985 0.75300002 7.6503637e-39
0.06399519 -0.035233326 0.75500011 7.6510896e-39
0.065433308 -0.035233311 0.75500005 7.7439943e-39
0.066871397 -0.035233326 0.75500005 7.6514329e-39
0.068309486 -0.035233326 0.75500011 7.651105e-39
-0.030066706 -0.034466676 0.77000004 1.1896868e-38
-0.028600045 -0.034466647 0.77000004 1.207729e-38
-0.027062863 -0.034377135 0.76800007 1.2262054e-38
-0.025566727 -0.034332372 0.76700008 1.29103e-38
-0.024042904 -0.034242861 0.7650001 1.355711e-38
-0.02258575 -0.034242861 0.7650001 1.3744744e-38
-0.021073373 -0.03415332 0.76300001 1.3836221e-38
-0.019542905 -0.034019031 0.76000005 1.3559637e-38
-0.018095285 -0.034019046 0.76000011 1.3283058e-38
-0.016560035 -0.033839993 0.75600004 1.1902661e-38
-0.015100029 -0.03379523 0.75500005 1.0523332e-38
-0.013607664 -0.033660941 0.75200009 1.0429342e-38
-0.012110492 -0.033481888 0.74800003 1.033607e-38
-0.01067145 -0.033437125 0.74700004 1.0518662e-38
-0.0091990894 -0.033258088 0.74300009 1.0614081e-38
-0.0077733742 -0.03321334 0.7420001 1.2823868e-38
-0.0063429018 -0.033123814 0.74000007 1.4937173e-38
-0.0049267141 -0.03307905 0.73900008 1.4203938e-38
-0.0035095746 -0.032989509 0.73700011 1.3463491e-38
-0.0021028938 -0.032944761 0.73600012 1.106785e-38
-0.00069622503 -0.032720946 0.73100007 8.588704e-39
0.00069424143 -0.03263142 0.72900009 1.4110009e-38
0.002079986 -0.032586657 0.7280001 1.9643102e-38
0.0034571029 -0.03249713 0.72600001 2.158098e-38
0.0048333127 -0.032452382 0.72500002 2.341769e-38
0.0061971005 -0.032362856 0.72300005 2.341769e-38
0.0075637754 -0.032318078 0.72200012 2.341769e-38
0.0089390054 -0.032318078 0.72200006 2.341769e-38
0.010285704 -0.032228567 0.72000009 2.3417634e-38
0.011640899 -0.032183804 0.7190001 2.2499224e-38
0.013010437 -0.032183804 0.7190001 2.1484744e-38
0.014379949 -0.032183804 0.7190001 2.1482968e-38
0.015749492 -0.032183789 0.71900004 2.1484801e-38
0.017119031 -0.032183789 0.71900004 2.2499335e-38
0.018514261 -0.032228567 0.72000009 2.341769e-38
0.019968519 -0.032362841 0.72300005 2.341769e-38
0.021345668 -0.032362856 0.72300005 2.341769e-38
0.022785662 -0.032452382 0.72500008 2.341769e-38
0.024166629 -0.032452382 0.72500008 2.341769e-38
0.025547571 -0.032452382 0.72500008 2.341769e-38
0.026965691 -0.032497145 0.72600007 2.341769e-38
0.028348528 -0.03249713 0.72600001 2.341769e-38
0.029813299 -0.032586671 0.72800004 2.341769e-38
0.031328548 -0.032720961 0.73100007 2.341769e-38
0.03272092 -0.032720946 0.73100007 2.341769e-38
0.034159973 -0.032765709 0.73200011 2.341769e-38
0.035651371 -0.032855235 0.73400009 2.341769e-38
0.037150428 -0.032944761 0.73600012 2.341769e-38
0.038552336 -0.032944761 0.73600012 2.341769e-38
0.040008534 -0.032989524 0.73700011 2.341769e-38
0.041412335 -0.032989539 0.73700011 2.341769e-38
0.042932332 -0.03307905 0.73900008 2.341769e-38
0.044399958 -0.033123799 0.74000007 2.341769e-38
0.045995213 -0.033258103 0.74300009 2.341769e-38
0.047410414 -0.033258088 0.74300009 2.341769e-38
0.048957117 -0.033347614 0.74500006 2.2866677e-38
0.050376162 -0.033347599 0.74500006 2.2216496e-38
0.051795214 -0.033347599 0.74500006 1.7703482e-38
0.053357139 -0.033437125 0.74700004 1.3205014e-38
0.054853313 -0.033481888 0.74800003 1.4493975e-38
0.05627808 -0.033481888 0.74800003 1.5776058e-38
0.057702839 -0.033481888 0.74800003 1.1814189e-38
0.059285693 -0.033571415 0.75000006 7.8365515e-39
0.060876168 -0.033660941 0.75200003 7.8297215e-39
0.062391408 -0.033705719 0.75300002 7.8329613e-39
0.063995227 -0.033795215 0.75500005 7.8333299e-39
0.065433316 -0.03379523 0.75500005 7.8347522e-39
0.066871405 -0.03379523 0.75500011 7.6514287e-39
0.068309493 -0.033795245 0.75500011 7.4677844e-39
-0.030066716 -0.033 0.7700001 1.2177791e-38
-0.02860003 -0.032999985 0.7700001 1.2360035e-38
-0.027062891 -0.032914273 0.76800007 1.2547298e-38
-0.025600022 -0.032914273 0.76800007 1.3006121e-38
-0.024105776 -0.032871418 0.76700008 1.3559644e-38
-0.022585735 -0.032785721 0.7650001 1.3651119e-38
-0.021073379 -0.03269998 0.76300007 1.3833711e-38
-0.019542897 -0.032571428 0.76000011 1.3466723e-38
-0.018095303 -0.032571428 0.76000011 1.3098312e-38
-0.016560033 -0.032399975 0.75600004 1.1993423e-38
-0.015100023 -0.032357134 0.75500011 1.0981794e-38
-0.013607672 -0.032228567 0.75200009 1.0980355e-38
-0.012142851 -0.032142855 0.75000006 1.097928e-38
-0.010671463 -0.032014273 0.74700004 1.1071834e-38
-0.009223843 -0.031928577 0.74500012 1.1166173e-38
-0.0077838544 -0.03184285 0.74300009 1.2638043e-38
-0.0063428804 -0.031714283 0.74000007 1.4203928e-38
-0.0049266908 -0.031671427 0.73900008 1.3560738e-38
-0.0035095923 -0.031585716 0.73700011 1.3008275e-38
-0.002105765 -0.031585716 0.73700011 1.0887433e-38
-0.0006971843 -0.031371437 0.73200011 8.7709541e-39
0.00069425633 -0.03124284 0.72900009 1.4298702e-38
0.0020799749 -0.031199999 0.7280001 1.9833232e-38
0.0034571011 -0.031114288 0.72600007 2.1672098e-38
0.0048332904 -0.031071402 0.72500002 2.341769e-38
0.0061970893 -0.030985706 0.72300005 2.341769e-38
0.0075637717 -0.030942865 0.72200006 2.341769e-38
0.0089390231 -0.03094285 0.72200012 2.341769e-38
0.010285678 -0.030857138 0.72000009 2.341769e-38
0.011640904 -0.030814283 0.71900004 2.231387e-38
0.013010445 -0.030814283 0.7190001 2.1120347e-38
0.014379957 -0.030814297 0.7190001 2.1208572e-38
0.015749469 -0.030814283 0.7190001 2.1212182e-38
0.017119007 -0.030814268 0.7190001 2.2315305e-38
0.018514264 -0.030857153 0.72000003 2.341769e-38
0.019968532 -0.030985691 0.72300011 2.341769e-38
0.021404725 -0.031071402 0.72500008 2.341769e-38
0.022785665 -0.031071417 0.72500008 2.341769e-38
0.024199961 -0.031114288 0.72600007 2.341769e-38
0.025582798 -0.031114273 0.72600007 2.341769e-38
0.026965665 -0.031114288 0.72600007 2.341769e-38
0.028426634 -0.031200014 0.7280001 2.3141825e-38
0.029813292 -0.031199999 0.7280001 2.2774483e-38
0.031328555 -0.031328566 0.73100007 2.3142183e-38
0.032765679 -0.031371407 0.73200011 2.341769e-38
0.034253277 -0.031457148 0.73400009 2.341769e-38
0.035651363 -0.031457148 0.73400009 2.341769e-38
0.037150443 -0.031542845 0.73600012 2.341769e-38
0.038552314 -0.03154286 0.73600012 2.341769e-38
0.040008511 -0.031585701 0.73700011 2.341769e-38
0.041412339 -0.031585701 0.73700011 2.341769e-38
0.042932354 -0.031671427 0.73900008 2.341769e-38
0.044399951 -0.031714283 0.74000007 2.341769e-38
0.045995191 -0.03184285 0.74300009 2.341769e-38
0.047410447 -0.03184285 0.74300009 2.341769e-38
0.048957117 -0.031928562 0.74500006 2.2589736e-38
0.050376162 -0.031928562 0.74500012 2.1850929e-38
0.051934257 -0.032014273 0.74700004 1.7431168e-38
0.053428531 -0.032057129 0.74800003 1.3020958e-38
0.054853324 -0.032057129 0.74800003 1.42163e-38
0.056278057 -0.032057129 0.74800003 1.5319372e-38
0.057857141 -0.03214284 0.75000006 1.1438215e-38
0.059285693 -0.03214284 0.75000012 7.5463257e-39
0.060876183 -0.032228552 0.75200003 7.6446156e-39
0.062557116 -0.032357134 0.75500011 7.8343977e-39
0.063995227 -0.032357149 0.75500005 7.8344103e-39
0.065433316 -0.032357134 0.75500011 7.8343935e-39
0.066871405 -0.032357149 0.75500011 7.7432586e-39
0.068309523 -0.032357134 0.75500005 7.652163e-39
-0.028600037 -0.031533338 0.7700001 1.2638053e-38
-0.027062893 -0.031451426 0.76800007 1.2822446e-38
-0.02560002 -0.031451426 0.76800001 1.3190511e-38
-0.024105772 -0.031410463 0.76700008 1.3466733e-38
-0.022585748 -0.031328551 0.7650001 1.3650404e-38
-0.021073356 -0.03124664 0.76300001 1.3834071e-38
-0.019542914 -0.03112378 0.76000011 1.3374891e-38
-0.018095292 -0.031123795 0.76000011 1.282209e-38
-0.016560037 -0.030959986 0.7560001 1.2082748e-38
-0.015120054 -0.030960001 0.7560001 1.1348057e-38
-0.013607653 -0.030796178 0.75200009 1.1438449e-38
-0.012142876 -0.030714266 0.75000006 1.1531003e-38
-0.010671449 -0.030591421 0.74700004 1.1623558e-38
-0.0092238458 -0.030509509 0.74500012 1.1715033e-38
-0.0077733807 -0.030386664 0.7420001 1.2541551e-38
-0.0063428879 -0.030304752 0.74000007 1.3373463e-38
-0.0049267244 -0.030263819 0.73900008 1.3010796e-38
-0.0035190787 -0.030263819 0.73900008 1.2547302e-38
-0.0021057613 -0.030181907 0.73700011 1.0794883e-38
-0.0006971843 -0.02997715 0.73200011 8.9589313e-39
0.00069423957 -0.029854275 0.72900009 1.4480221e-38
0.0020799395 -0.029813327 0.7280001 2.0011163e-38
0.0034571048 -0.029731415 0.72600001 2.1764651e-38
0.0048332978 -0.029690467 0.72500002 2.341769e-38
0.0061970763 -0.029608555 0.72300011 2.341769e-38
0.0075637903 -0.029567622 0.72200006 2.341769e-38
0.0089390157 -0.029567607 0.72200006 2.341769e-38
0.010285679 -0.02948571 0.72000009 2.341624e-38
0.011640914 -0.029444747 0.71900004 2.2126581e-38
0.013010452 -0.029444747 0.71900004 2.0749401e-38
0.014379963 -0.029444762 0.71900004 2.0834772e-38
0.015749477 -0.029444762 0.71900004 2.0934163e-38
0.01714283 -0.029485695 0.72000003 2.2223829e-38
0.018514268 -0.029485695 0.72000003 2.341769e-38
0.019968519 -0.02960857 0.72300011 2.341769e-38
0.021345669 -0.029608555 0.72300011 2.341769e-38
0.022785671 -0.029690497 0.72500008 2.341769e-38
0.024166614 -0.029690482 0.72500008 2.341769e-38
0.025582829 -0.02973143 0.72600007 2.341769e-38
0.026965693 -0.029731415 0.72600007 2.341733e-38
0.028426655 -0.029813312 0.72800004 2.2773044e-38
0.029854245 -0.02985426 0.72900009 2.2130557e-38
0.031328533 -0.029936187 0.73100007 2.2774842e-38
0.032765683 -0.029977135 0.73200011 2.341769e-38
0.034253269 -0.030059032 0.73400009 2.341769e-38
0.035748515 -0.030140959 0.73600018 2.341769e-38
0.03715042 -0.030140944 0.73600012 2.341769e-38
0.038552351 -0.030140959 0.73600012 2.341769e-38
0.040008519 -0.030181907 0.73700011 2.341769e-38
0.041412346 -0.030181877 0.73700011 2.341769e-38
0.042932354 -0.030263804 0.73900008 2.341769e-38
0.044399973 -0.030304767 0.74000001 2.341769e-38
0.045995198 -0.030427612 0.74300009 2.341769e-38
0.047410425 -0.030427612 0.74300009 2.341769e-38
0.048957109 -0.030509509 0.74500006 2.24075e-38
0.050511435 -0.030591421 0.74700004 2.1387447e-38
0.052003779 -0.030632369 0.74800003 1.7149564e-38
0.053428568 -0.030632369 0.74800003 1.2835499e-38
0.054999977 -0.030714281 0.75000006 1.3847533e-38
0.056428559 -0.030714281 0.75000012 1.4853045e-38
0.057857141 -0.030714266 0.75000012 1.107235e-38
0.059285693 -0.030714296 0.75000012 7.1922821e-39
0.060876176 -0.030796193 0.75200003 7.5520725e-39
0.062557124 -0.030919038 0.75500005 7.8329655e-39
0.063995212 -0.030919038 0.75500005 7.8351249e-39
0.065433294 -0.030919038 0.75500011 7.7432782e-39
0.066959955 -0.030959986 0.7560001 7.8347452e-39
0.068399973 -0.030959986 0.75600004 7.8354725e-39
-0.030144781 -0.030144759 0.77200007 1.2729528e-38
-0.028674301 -0.030144744 0.77200007 1.2729889e-38
-0.027133385 -0.030066662 0.7700001 1.2822447e-38
-0.025666723 -0.030066662 0.7700001 1.3190152e-38
-0.024137154 -0.029988594 0.76800007 1.346566e-38
-0.022585761 -0.029871412 0.7650001 1.3834078e-38
-0.021073364 -0.029793344 0.76300007 1.4293251e-38
-0.019568603 -0.029715233 0.7610001 1.3558563e-38
-0.018095283 -0.029676177 0.76000005 1.291572e-38
-0.01660382 -0.02959808 0.75800002 1.2360407e-38
-0.015100013 -0.029480942 0.75500005 1.180723e-38
-0.013625721 -0.029402845 0.75300002 1.1715383e-38
-0.01217526 -0.029363804 0.75200003 1.1715026e-38
-0.010685757 -0.02920761 0.74800009 1.1620681e-38
-0.0092238216 -0.029090472 0.74500006 1.1621045e-38
-0.0077838739 -0.029012375 0.74300009 1.1990544e-38
-0.0063600345 -0.028973319 0.7420001 1.2452238e-38
-0.0049333842 -0.028895251 0.74000007 1.2179966e-38
-0.0035190796 -0.028856181 0.73900008 1.1997723e-38
-0.0021057548 -0.028778084 0.73700011 1.0153114e-38
-0.00069620827 -0.028543793 0.73100007 8.4014625e-39
0.00069423026 -0.028465711 0.72900009 1.4206508e-38
0.0020799618 -0.028426655 0.7280001 2.0109097e-38
0.0034571048 -0.028348558 0.72600007 2.1763934e-38
0.0048333015 -0.028309517 0.72500008 2.341769e-38
0.0061970912 -0.028231435 0.72300005 2.341769e-38
0.007563781 -0.028192364 0.72200006 2.341769e-38
0.0089142472 -0.028114282 0.72000009 2.341769e-38
0.010271378 -0.028075226 0.7190001 2.3325824e-38
0.01164089 -0.028075226 0.7190001 2.2496404e-38
0.013010427 -0.028075241 0.7190001 2.1579132e-38
0.014379969 -0.028075226 0.71900004 2.1576269e-38
0.015749484 -0.028075241 0.71900004 2.1577728e-38
0.017142832 -0.028114282 0.72000003 2.2498618e-38
0.018565679 -0.028192379 0.72200012 2.341769e-38
0.019968536 -0.02823142 0.72300005 2.341769e-38
0.021404738 -0.028309502 0.72500002 2.341769e-38
0.02278568 -0.028309502 0.72500002 2.341769e-38
0.024166647 -0.028309517 0.72500002 2.341769e-38
0.025582802 -0.028348573 0.72600007 2.341769e-38
0.026965667 -0.028348573 0.72600007 2.3417686e-38
0.028426645 -0.028426655 0.7280001 2.2772681e-38
0.029854259 -0.028465711 0.72900009 2.2220237e-38
0.03132854 -0.028543793 0.73100007 2.2774124e-38
0.032765683 -0.028582849 0.73200011 2.341769e-38
0.034253288 -0.02866096 0.73400009 2.341769e-38
0.035748526 -0.028739057 0.73600012 2.341769e-38
0.037150435 -0.028739043 0.73600012 2.341769e-38
0.038552336 -0.028739057 0.73600018 2.341769e-38
0.040008523 -0.028778099 0.73700011 2.341769e-38
0.041524731 -0.028856196 0.73900008 2.341769e-38
0.042932346 -0.028856196 0.73900008 2.341769e-38
0.044399962 -0.028895237 0.74000007 2.341769e-38
0.045995202 -0.029012375 0.74300009 2.341769e-38
0.047538087 -0.029090457 0.74500006 2.341769e-38
0.048957106 -0.029090472 0.74500006 2.1853975e-38
0.05051142 -0.029168539 0.74700004 2.0285062e-38
0.05200379 -0.029207595 0.74800003 1.6416674e-38
0.053571425 -0.029285707 0.75000006 1.2557844e-38
0.054999977 -0.029285721 0.75000012 1.3570242e-38
0.056428559 -0.029285692 0.75000006 1.4672986e-38
0.057857137 -0.029285692 0.75000012 1.097912e-38
0.059443764 -0.029363818 0.75200003 7.3741846e-39
0.060876168 -0.029363774 0.75200003 7.6489386e-39
0.062557124 -0.029480927 0.75500005 7.9262388e-39
0.063995212 -0.029480927 0.75500011 7.651091e-39
0.065519974 -0.029519998 0.75600004 7.3762978e-39
0.066959955 -0.029519983 0.75600004 7.5596058e-39
0.068399966 -0.029519983 0.7560001 7.6507211e-39
-0.03161525 -0.028674282 0.77200007 1.3189435e-38
-0.030144796 -0.028674282 0.77200007 1.2913567e-38
-0.028600028 -0.028599985 0.77000004 1.2913565e-38
-0.027133394 -0.0286 0.7700001 1.282245e-38
-0.025666732 -0.0286 0.7700001 1.3190153e-38
-0.02413718 -0.028525718 0.76800007 1.3466383e-38
-0.022585748 -0.028414287 0.7650001 1.4109956e-38
-0.021073394 -0.028340004 0.76300007 1.4660599e-38
-0.019568574 -0.028265692 0.76100004 1.3833351e-38
-0.018095275 -0.028228559 0.76000005 1.2914278e-38
-0.016603831 -0.028154276 0.75800008 1.2636262e-38
-0.015120022 -0.028079994 0.75600004 1.226783e-38
-0.013661947 -0.028042845 0.75500005 1.2084504e-38
-0.012175268 -0.027931415 0.75200003 1.1804704e-38
-0.010671448 -0.027745701 0.74700004 1.1615304e-38
-0.0092238262 -0.027671419 0.74500006 1.1435942e-38
-0.0077838413 -0.027597137 0.74300009 1.1530294e-38
-0.0063600261 -0.027559988 0.7420001 1.1532448e-38
-0.0049333628 -0.027485721 0.74000007 1.1442768e-38
-0.0035190824 -0.027448572 0.73900008 1.1350565e-38
-0.0021057501 -0.027374275 0.73700011 9.601379e-39
-0.00069718057 -0.027188577 0.73200011 7.8547515e-39
0.00069616741 -0.027151413 0.73100007 1.4018174e-38
0.0020828247 -0.027077146 0.72900009 2.010264e-38
0.0034571066 -0.026965715 0.72600007 2.1764651e-38
0.0048332792 -0.026928566 0.72500008 2.341769e-38
0.0061971061 -0.026854269 0.72300011 2.341769e-38
0.0075637456 -0.02681715 0.72200012 2.341769e-38
0.0089142472 -0.026742838 0.72000009 2.3325854e-38
0.010271383 -0.026705705 0.7190001 2.3232908e-38
0.011640896 -0.026705705 0.7190001 2.2862661e-38
0.013010436 -0.02670572 0.7190001 2.2404213e-38
0.014379947 -0.026705705 0.7190001 2.2313826e-38
0.01574946 -0.026705705 0.7190001 2.2129101e-38
0.017142832 -0.026742823 0.72000003 2.2774842e-38
0.018565672 -0.026817136 0.72200006 2.341769e-38
0.019968523 -0.026854284 0.72300011 2.341769e-38
0.021404743 -0.026928566 0.72500008 2.341769e-38
0.022785684 -0.026928551 0.72500002 2.341769e-38
0.024199966 -0.02696573 0.72600007 2.341769e-38
0.025582831 -0.026965715 0.72600007 2.341769e-38
0.02696567 -0.026965715 0.72600007 2.3416968e-38
0.028426638 -0.027039997 0.7280001 2.286308e-38
0.029854245 -0.027077146 0.72900009 2.2221313e-38
0.031328544 -0.027151398 0.73100001 2.2866677e-38
0.032765683 -0.027188562 0.73200011 2.341769e-38
0.034253307 -0.027262844 0.73400009 2.341769e-38
0.035748541 -0.027337141 0.73600012 2.341769e-38
0.037150413 -0.027337126 0.73600012 2.341769e-38
0.038604725 -0.02737429 0.73700011 2.341769e-38
0.04000853 -0.027374275 0.73700011 2.341769e-38
0.041524697 -0.027448572 0.73900008 2.341769e-38
0.042932346 -0.027448572 0.73900008 2.341769e-38
0.044399954 -0.027485721 0.74000007 2.341769e-38
0.045933291 -0.027560003 0.7420001 2.341769e-38
0.047410436 -0.027597137 0.74300009 2.3417687e-38
0.048957102 -0.027671419 0.74500006 2.1305467e-38
0.050511435 -0.027745701 0.74700004 1.9086538e-38
0.052003797 -0.027782835 0.74800003 1.5673749e-38
0.053571425 -0.027857132 0.75000012 1.2280551e-38
0.054999977 -0.027857147 0.75000012 1.3385859e-38
0.056428559 -0.027857132 0.75000006 1.4392463e-38
0.057857115 -0.027857147 0.75000012 1.0980919e-38
0.059443787 -0.027931415 0.75200009 7.5639583e-39
0.060876161 -0.027931415 0.75200003 7.7425734e-39
0.062557101 -0.028042831 0.75500005 7.9262444e-39
0.06399519 -0.028042845 0.75500011 7.4670669e-39
0.065519944 -0.028079979 0.75600004 7.0085985e-39
0.066959985 -0.028079994 0.75600004 7.2848154e-39
0.068399973 -0.028079994 0.75600004 7.4670417e-39
-0.031615268 -0.027203806 0.77200007 1.2728835e-38
-0.03014479 -0.027203806 0.77200007 1.2729547e-38
-0.02867431 -0.027203806 0.77200007 1.2638063e-38
-0.027203828 -0.027203821 0.77200001 1.2638782e-38
-0.02566669 -0.027133323 0.7700001 1.3006841e-38
-0.024137152 -0.027062856 0.76800007 1.3467107e-38
-0.022585733 -0.026957132 0.76500005 1.3834461e-38
-0.021073369 -0.026886664 0.76300001 1.4201784e-38
-0.019568594 -0.026816182 0.7610001 1.3650036e-38
-0.01809529 -0.026780941 0.76000005 1.3097944e-38
-0.016560035 -0.026639991 0.75600004 1.2635892e-38
-0.01512005 -0.026639991 0.7560001 1.2267459e-38
-0.013661943 -0.026604749 0.75500011 1.1989424e-38
-0.012175249 -0.026499026 0.75200003 1.1711786e-38
-0.01067146 -0.026322849 0.74700004 1.1435223e-38
-0.009223829 -0.026252352 0.74500006 1.1251917e-38
-0.0077838637 -0.026181899 0.74300009 1.1162596e-38
-0.0063600466 -0.026146673 0.74200016 1.0980359e-38
-0.004933374 -0.026076175 0.74000007 1.0889957e-38
-0.0035190899 -0.026040949 0.73900008 1.0799191e-38
-0.0021057706 -0.025970466 0.73700011 8.7719855e-39
-0.00069718057 -0.025794275 0.73200011 6.8366676e-39
0.000696173 -0.025759034 0.73100007 1.3561866e-38
0.0020828396 -0.025688566 0.72900009 2.0385321e-38
0.0034666285 -0.025653325 0.7280001 2.1856128e-38
0.0048332866 -0.025547616 0.72500008 2.341769e-38
0.0061970912 -0.025477149 0.72300011 2.341769e-38
0.0075637642 -0.025441892 0.72200012 2.341769e-38
0.008914277 -0.02537141 0.72000003 2.341769e-38
0.010271391 -0.025336169 0.71900004 2.3325815e-38
0.011640904 -0.025336169 0.71900004 2.2310563e-38
0.013010441 -0.025336199 0.7190001 2.1299674e-38
0.014379953 -0.025336184 0.7190001 2.1666316e-38
0.015749466 -0.025336184 0.7190001 2.2034038e-38
0.017142836 -0.025371425 0.72000009 2.2773407e-38
0.018565692 -0.025441892 0.72200012 2.341769e-38
0.01996851 -0.025477134 0.72300011 2.341769e-38
0.02134566 -0.025477134 0.72300011 2.341769e-38
0.02278569 -0.025547616 0.72500008 2.341769e-38
0.02419997 -0.025582857 0.72600001 2.341769e-38
0.025688523 -0.025688566 0.72900009 2.341769e-38
0.027039975 -0.025653325 0.72800004 2.3417684e-38
0.028465681 -0.025688551 0.72900009 2.2862361e-38
0.029936153 -0.025759049 0.73100007 2.2221312e-38
0.031328551 -0.025759049 0.73100007 2.286596e-38
0.032765657 -0.025794275 0.73200011 2.341769e-38
0.034253273 -0.025864772 0.73400009 2.341769e-38
0.035748519 -0.025935225 0.73600012 2.341769e-38
0.03715045 -0.02593524 0.73600012 2.341769e-38
0.038552359 -0.025935225 0.73600012 2.341769e-38
0.040008534 -0.025970466 0.73700011 2.341769e-38
0.041524723 -0.026040934 0.73900008 2.341769e-38
0.042932343 -0.026040949 0.73900008 2.341769e-38
0.044399947 -0.026076175 0.74000007 2.341769e-38
