# .PCD v0.7 - Point Cloud Data file format
VERSION 0.7
FIELDS x y z rgb
SIZE 4 4 4 4
TYPE F F F F
COUNT 1 1 1 1
WIDTH 960
HEIGHT 1
VIEWPOINT 0 0 0 1 0 0 0
POINTS 960
DATA ascii
0.034922838 -0.10750762 0.71900004 1.6435348e-38
0.036292389 -0.1075076 0.71899998 1.6435709e-38
0.037714284 -0.10765715 0.72000003 1.6526837e-38
0.039194312 -0.10795619 0.722 1.6987099e-38
0.040625736 -0.1081057 0.72300005 1.7448067e-38
0.042002875 -0.1081057 0.72300005 1.4767256e-38
0.043379985 -0.10810572 0.72300005 1.1982399e-38
0.044880979 -0.10840476 0.72499996 9.3019327e-39
0.046261907 -0.10840476 0.72500002 6.7273102e-39
0.047708556 -0.10855427 0.72600001 7.2815518e-39
0.049091406 -0.10855429 0.72600001 7.9266031e-39
0.050613359 -0.10885331 0.72799999 8.0192065e-39
0.052071437 -0.10900286 0.72899997 8.202495e-39
0.053460002 -0.10900286 0.72899997 8.0184414e-39
0.054848567 -0.10900286 0.72900003 7.925178e-39
-0.050240934 -0.10968097 0.74300003 1.2086995e-38
-0.048759989 -0.10953332 0.74199998 9.5862043e-39
-0.047219038 -0.1092381 0.74000001 9.0211349e-39
-0.045747604 -0.10909046 0.73899996 8.3945163e-39
-0.044160031 -0.10864761 0.73600006 1.1719694e-38
-0.042641878 -0.10835236 0.73399997 1.5031155e-38
-0.0411314 -0.10805713 0.73200005 1.4570906e-38
-0.039682847 -0.10790952 0.73099995 1.4109215e-38
-0.038290489 -0.10790952 0.73099995 1.3831194e-38
-0.036797129 -0.10761428 0.72899997 1.3462413e-38
-0.035359982 -0.10746664 0.72800004 1.3461691e-38
-0.03383334 -0.10702382 0.72500002 1.3463485e-38
-0.032228604 -0.10628571 0.72000003 1.3463128e-38
-0.030814288 -0.10613808 0.71900004 1.3464203e-38
-0.029321881 -0.10569523 0.71599996 1.3373442e-38
-0.027879974 -0.10539998 0.71399999 1.3189041e-38
-0.026482863 -0.10525239 0.71300006 1.2818815e-38
-0.02505428 -0.10495712 0.71099997 1.2355274e-38
-0.023600005 -0.10451429 0.70799994 1.0235108e-38
-0.022220008 -0.10436668 0.70700002 8.0328454e-39
-0.020814288 -0.10407144 0.70500004 9.7820218e-39
-0.019443795 -0.10392381 0.70400006 1.1454383e-38
-0.018102814 -0.10392381 0.704 1.4132632e-38
-0.016738115 -0.10377619 0.70300001 1.6710197e-38
-0.015355229 -0.10348095 0.70100003 1.9652236e-38
-0.014000015 -0.10333335 0.70000005 2.2499198e-38
-0.012558084 -0.10244763 0.69399995 2.2407424e-38
-0.011220016 -0.1023 0.69300002 2.2314177e-38
-0.0098999962 -0.10230002 0.69300002 2.2591141e-38
-0.0085800085 -0.1023 0.69300002 2.2774393e-38
-0.0072599896 -0.1023 0.69300002 2.1397159e-38
-0.0059400019 -0.10230002 0.69300002 2.0019248e-38
-0.0046199826 -0.1023 0.69300002 1.8825727e-38
-0.0033047204 -0.1024476 0.69399995 1.7631425e-38
-0.0019828067 -0.10244761 0.69399995 1.7262925e-38
-0.00066092465 -0.10244763 0.69400001 1.6896672e-38
0.00066191662 -0.10259522 0.69499999 1.6621538e-38
0.0019828747 -0.10244761 0.69400001 1.6346022e-38
0.00331906 -0.10289048 0.69700003 1.6897026e-38
0.0046533602 -0.10303809 0.69799995 1.7356198e-38
0.0059828847 -0.10303809 0.69799995 1.7815372e-38
0.0073333285 -0.10333334 0.70000005 1.8182714e-38
0.0086666699 -0.10333334 0.70000005 1.7907207e-38
0.010014297 -0.10348095 0.70100003 1.7631708e-38
0.011349536 -0.10348094 0.70099998 1.7539879e-38
0.012720952 -0.10377619 0.70299995 1.7448042e-38
0.01408003 -0.10392381 0.704 1.7356207e-38
0.015442875 -0.10407142 0.70499998 1.7264375e-38
0.01678572 -0.10407142 0.70500004 1.7448052e-38
0.018179996 -0.10436669 0.70700002 1.7539878e-38
0.019526634 -0.10436669 0.70700002 1.7448034e-38
0.020873329 -0.10436666 0.70700002 1.7356224e-38
0.022314304 -0.10480952 0.71000004 1.7356249e-38
0.023666682 -0.10480951 0.71000004 1.7264406e-38
0.025054313 -0.10495715 0.71099997 1.6988893e-38
0.02640862 -0.10495713 0.71099997 1.6621198e-38
0.027840938 -0.1052524 0.71300006 1.6712323e-38
0.029199038 -0.10525237 0.71300006 1.680414e-38
0.030600021 -0.10539998 0.71399999 1.6804123e-38
0.032094292 -0.10584284 0.71700001 1.6712282e-38
0.033459999 -0.10584286 0.71700001 1.6436411e-38
0.034922872 -0.1061381 0.71899998 1.6068353e-38
0.036342837 -0.10628574 0.72000003 1.625131e-38
0.037819065 -0.10658096 0.722 1.6343152e-38
0.039194301 -0.10658096 0.72200006 1.6894889e-38
0.040625729 -0.10672855 0.72300005 1.7352633e-38
0.042002864 -0.10672857 0.72300005 1.4681155e-38
0.043499999 -0.10702381 0.72500002 1.198455e-38
0.044880956 -0.10702379 0.72499996 9.2933273e-39
0.046261888 -0.10702381 0.72499996 6.636202e-39
0.04784001 -0.10746665 0.72800004 7.1897331e-39
0.049226686 -0.10746665 0.72799999 7.7418559e-39
0.050613351 -0.10746667 0.72799999 7.4660229e-39
0.052071422 -0.10761428 0.72900003 7.1004606e-39
0.053459991 -0.10761429 0.72900003 7.5599828e-39
0.054848585 -0.10761428 0.72899997 7.9269787e-39
-0.050240949 -0.10826571 0.74300003 1.115858e-38
-0.048760008 -0.10812002 0.74200004 9.3921371e-39
-0.047219042 -0.10782857 0.73999995 8.3826179e-39
-0.045809515 -0.10782856 0.74000001 7.4790452e-39
-0.044160012 -0.10724573 0.73600006 1.1349841e-38
-0.042758096 -0.1072457 0.73600006 1.5214818e-38
-0.041131396 -0.10666284 0.73199999 1.4661647e-38
-0.039737117 -0.10666284 0.73200005 1.410632e-38
-0.038290452 -0.10651714 0.73099995 1.3830444e-38
-0.03679714 -0.10622573 0.72900003 1.3553872e-38
-0.035262868 -0.10578856 0.72600001 1.346384e-38
-0.03373998 -0.10535143 0.72300005 1.3466714e-38
-0.0322286 -0.10491431 0.72000003 1.3279458e-38
-0.030814311 -0.10476857 0.71900004 1.3186184e-38
-0.029321888 -0.1043314 0.71600002 1.3095061e-38
-0.02788 -0.10404 0.71399999 1.3002863e-38
-0.026482882 -0.10389429 0.71300006 1.2726993e-38
-0.025054265 -0.10360286 0.71100003 1.2542562e-38
-0.023600001 -0.1031657 0.708 1.1251439e-38
-0.022220002 -0.10302001 0.70700002 1.0053273e-38
-0.020814274 -0.10272855 0.70500004 1.1441208e-38
-0.019443775 -0.10258286 0.704 1.2833739e-38
-0.018102819 -0.10258284 0.704 1.4682575e-38
-0.01673812 -0.10243712 0.70300001 1.6621671e-38
-0.015333317 -0.10199998 0.70000005 1.9376883e-38
-0.013959978 -0.10170858 0.69800001 2.2131937e-38
-0.012558073 -0.10112569 0.69399995 2.102703e-38
-0.011219971 -0.10098001 0.69300002 1.9922498e-38
-0.0099000074 -0.10098 0.69300002 2.0842294e-38
-0.0085799936 -0.10098001 0.69300002 2.1855014e-38
-0.0072600008 -0.10098003 0.69300002 2.1029587e-38
-0.0059400131 -0.10098001 0.69300002 2.0295171e-38
-0.0046266508 -0.1011257 0.69399995 1.9101218e-38
-0.0033095037 -0.10127142 0.69500005 1.7907284e-38
-0.0019828235 -0.10112572 0.69399995 1.7446597e-38
-0.00066091161 -0.10112572 0.69399995 1.6988137e-38
0.00066192407 -0.10127141 0.69500005 1.6897018e-38
0.0019857339 -0.10127144 0.69499999 1.6805188e-38
0.0033190283 -0.10156286 0.69700003 1.7080699e-38
0.0046533528 -0.10170856 0.69799995 1.7356201e-38
0.0059999949 -0.10199998 0.70000005 1.7448031e-38
0.0073333117 -0.102 0.70000005 1.7539867e-38
0.0086790659 -0.1021457 0.70099998 1.7539865e-38
0.010042833 -0.10243714 0.70300001 1.7539867e-38
0.011381891 -0.10243715 0.70300001 1.7448031e-38
0.012739097 -0.10258284 0.704 1.744803e-38
0.014080021 -0.10258286 0.70400006 1.7356193e-38
0.015442889 -0.10272856 0.70500004 1.7264357e-38
0.016785709 -0.10272856 0.70500004 1.7356193e-38
0.018180003 -0.10301998 0.70700002 1.7448028e-38
0.019526642 -0.10302 0.70700002 1.7356193e-38
0.020873336 -0.10301998 0.70700002 1.7356205e-38
0.022314293 -0.10345715 0.71000004 1.7264381e-38
0.023666676 -0.10345715 0.71000004 1.7172567e-38
0.025054302 -0.10360286 0.71100003 1.6988556e-38
0.026408607 -0.10360287 0.71099997 1.680415e-38
0.027840948 -0.10389428 0.71300006 1.6895967e-38
0.029240031 -0.10403998 0.71399999 1.6987438e-38
0.030599995 -0.10403998 0.71399999 1.6895596e-38
0.032094281 -0.10447715 0.71700001 1.6803394e-38
0.033553354 -0.10476856 0.71900004 1.6528238e-38
0.034922853 -0.10476856 0.71900004 1.6343491e-38
0.036342841 -0.10491429 0.72000003 1.6343132e-38
0.037819084 -0.1052057 0.722 1.6434256e-38
0.039248552 -0.1053514 0.72300005 1.6894873e-38
0.040625717 -0.1053514 0.72300005 1.735621e-38
0.042002853 -0.10535142 0.72300005 1.4582856e-38
0.043500006 -0.10564286 0.72500002 1.1796932e-38
0.044880968 -0.10564287 0.72499996 8.934239e-39
0.046325684 -0.10578857 0.72600001 6.089505e-39
0.047840007 -0.10608 0.72800004 6.9156784e-39
0.049226705 -0.10607998 0.72799999 7.7422133e-39
0.05068285 -0.10622571 0.72900003 7.6511106e-39
0.052071445 -0.10622571 0.72899997 7.5603471e-39
0.053460009 -0.10622571 0.72899997 7.7440125e-39
-0.04862858 -0.10641906 0.74000001 9.1234465e-39
-0.047219049 -0.10641907 0.74000001 7.8215702e-39
-0.045747604 -0.10627522 0.73899996 6.4645542e-39
-0.044160001 -0.10584383 0.73600006 1.0985369e-38
-0.042641886 -0.10555616 0.73399997 1.5397413e-38
-0.041131418 -0.10526855 0.73200005 1.4754201e-38
-0.039682828 -0.10512477 0.73099995 1.4108119e-38
-0.038185716 -0.10483715 0.72900003 1.3830813e-38
-0.036797117 -0.10483713 0.72899997 1.3555311e-38
-0.035262868 -0.1044057 0.72599995 1.3464556e-38
-0.033739991 -0.10397428 0.72300005 1.3370927e-38
-0.032318059 -0.10383047 0.722 1.3184743e-38
-0.030857148 -0.10354285 0.71999997 1.2909592e-38
-0.02936287 -0.10311143 0.71700001 1.290995e-38
-0.027879998 -0.10268 0.71400005 1.2818469e-38
-0.026482875 -0.1025362 0.71300006 1.2727347e-38
-0.025054246 -0.10224858 0.71099997 1.2634414e-38
-0.023599971 -0.10181712 0.70799994 1.2358528e-38
-0.022219993 -0.10167335 0.70700002 1.2080514e-38
-0.020814281 -0.10138571 0.70500004 1.3095014e-38
-0.019443782 -0.1012419 0.70400006 1.4120173e-38
-0.01807718 -0.10109811 0.70300001 1.5325417e-38
-0.016690452 -0.10081048 0.70100003 1.6526604e-38
-0.015333332 -0.10066664 0.70000005 1.9193215e-38
-0.013959985 -0.10037906 0.69800001 2.1763153e-38
-0.012558062 -0.099803805 0.69400001 1.9646251e-38
-0.011236176 -0.099803805 0.69399995 1.7443285e-38
-0.0098999888 -0.099660009 0.69299996 1.918458e-38
-0.008579975 -0.099660009 0.69300002 2.0843742e-38
-0.007260012 -0.099660024 0.69300002 2.075444e-38
-0.0059485515 -0.099803776 0.69399995 2.0570672e-38
-0.0046266359 -0.09980379 0.69399995 1.9376714e-38
-0.0033095242 -0.099947616 0.69500005 1.8181707e-38
-0.0019828123 -0.09980379 0.69399995 1.7627756e-38
-0.00066187832 -0.099947631 0.69499999 1.6987776e-38
0.00066192966 -0.099947616 0.69500005 1.7172523e-38
0.0019914 -0.10023524 0.69700003 1.7264361e-38
0.003323819 -0.10037905 0.69800001 1.7264364e-38
0.004666667 -0.10066666 0.70000005 1.7264361e-38
0.00599998 -0.10066667 0.70000005 1.7080688e-38
0.0073438059 -0.10081048 0.70100003 1.6897017e-38
0.0086790733 -0.10081047 0.70100003 1.7172523e-38
0.010042831 -0.10109809 0.70300001 1.7356194e-38
0.011381889 -0.10109809 0.70300001 1.7356194e-38
0.012739088 -0.10124192 0.704 1.7356194e-38
0.014080042 -0.10124189 0.704 1.7264359e-38
0.01544288 -0.1013857 0.70499998 1.7172522e-38
0.016785728 -0.10138571 0.70500004 1.7264357e-38
0.018179981 -0.10167333 0.70700002 1.7356193e-38
0.019526651 -0.10167335 0.70700002 1.7356194e-38
0.020873345 -0.10167332 0.70700002 1.7264364e-38
0.022314286 -0.10210477 0.71000004 1.7172534e-38
0.023666671 -0.10210475 0.71000004 1.7080709e-38
0.025054319 -0.10224855 0.71099997 1.6988883e-38
0.026408596 -0.10224858 0.71100003 1.689668e-38
0.027840955 -0.1025362 0.71300006 1.6988506e-38
0.029240003 -0.10267997 0.71399999 1.7079983e-38
0.030685745 -0.10296762 0.71600002 1.6987071e-38
0.032094296 -0.10311143 0.71700001 1.6803752e-38
0.033553332 -0.10339905 0.71900004 1.6712627e-38
0.034922861 -0.10339905 0.71899998 1.6527521e-38
0.036342844 -0.10354286 0.72000003 1.6526803e-38
0.03781905 -0.10383049 0.72200006 1.6434976e-38
0.039248541 -0.10397427 0.72300005 1.6893803e-38
0.040625732 -0.10397428 0.72300005 1.7352269e-38
0.042119063 -0.10426192 0.72499996 1.4497122e-38
0.043499991 -0.10426192 0.72500002 1.1616848e-38
0.044942833 -0.1044057 0.72600001 8.5572084e-39
0.046325713 -0.1044057 0.72599995 5.5345488e-39
0.047840029 -0.10469332 0.72799999 6.6412579e-39
0.049226701 -0.10469334 0.72799999 7.6510994e-39
0.050682865 -0.10483715 0.72899997 7.8351404e-39
0.052071434 -0.10483715 0.72900003 7.9280478e-39
0.053459998 -0.10483713 0.72900003 7.9276835e-39
-0.048628584 -0.10500953 0.74000001 9.5883651e-39
-0.047219057 -0.10500953 0.74000001 8.2918768e-39
-0.045747608 -0.10486761 0.73900002 7.0101903e-39
-0.04415999 -0.1044419 0.736 1.1071464e-38
-0.042641893 -0.1041581 0.73399997 1.5124419e-38
-0.041131414 -0.1038743 0.73200005 1.457053e-38
-0.039737135 -0.10387428 0.73200005 1.4108124e-38
-0.038290463 -0.10373238 0.73099995 1.383154e-38
-0.036746666 -0.10330667 0.72799999 1.3556032e-38
-0.035262864 -0.10302286 0.72600001 1.3370925e-38
-0.033740006 -0.10259715 0.72300005 1.318438e-38
-0.032318093 -0.10245523 0.72200006 1.3000703e-38
-0.030857144 -0.10217142 0.71999997 1.2817032e-38
-0.029444763 -0.10202952 0.71899998 1.2725554e-38
-0.027958089 -0.10160381 0.71600002 1.2633356e-38
-0.026519971 -0.10131998 0.71399999 1.2450398e-38
-0.025054257 -0.1008943 0.71099997 1.2357848e-38
-0.023599967 -0.10046855 0.70799994 1.2081986e-38
-0.022220014 -0.10032667 0.70700002 1.1805411e-38
-0.020814266 -0.10004286 0.70500004 1.3007889e-38
-0.01944376 -0.099900961 0.704 1.430817e-38
-0.01807715 -0.099759042 0.70299995 1.5325767e-38
-0.016690444 -0.09947522 0.70099998 1.6435485e-38
-0.015333349 -0.099333346 0.70000005 1.8641129e-38
-0.013939999 -0.098907605 0.69700003 2.0846225e-38
-0.012576178 -0.098623812 0.69499999 2.0661086e-38
-0.011252396 -0.098623827 0.69500005 2.0478863e-38
-0.0099285636 -0.098623812 0.69500005 2.1303243e-38
-0.008592369 -0.098481923 0.69400001 2.2131944e-38
-0.007270454 -0.098481894 0.69400001 2.0570769e-38
-0.005948544 -0.098481894 0.69400001 1.9101298e-38
-0.0046333265 -0.098623812 0.69500005 1.8642017e-38
-0.0033095167 -0.098623812 0.69500005 1.8274612e-38
-0.0019828291 -0.098481894 0.69399995 1.7722458e-38
-0.00066187087 -0.098623812 0.69499999 1.7264357e-38
0.00066193711 -0.098623812 0.69499999 1.7264357e-38
0.0019914224 -0.098907605 0.69700003 1.7264359e-38
0.0033238414 -0.099049523 0.69800001 1.7264359e-38
0.0046666781 -0.099333346 0.70000005 1.7264359e-38
0.0059999912 -0.099333331 0.70000005 1.7172522e-38
0.0073438431 -0.09947522 0.70099998 1.7172522e-38
0.0086790826 -0.09947522 0.70099998 1.7264357e-38
0.010042829 -0.099759042 0.70300001 1.7356193e-38
0.011381885 -0.099759042 0.70300001 1.7448028e-38
0.012739085 -0.099900961 0.704 1.7539865e-38
0.01410002 -0.10004285 0.70499998 1.7356194e-38
0.015442898 -0.10004285 0.70499998 1.7172523e-38
0.016785717 -0.10004286 0.70500004 1.7172522e-38
0.018179988 -0.10032667 0.70700002 1.7264359e-38
0.019526659 -0.10032667 0.70700002 1.7264359e-38
0.020873323 -0.10032666 0.70700002 1.7264359e-38
0.022251433 -0.10046855 0.708 1.7080686e-38
0.023666667 -0.10075237 0.71000004 1.6988851e-38
0.025019074 -0.10075238 0.71000004 1.6988851e-38
0.026408615 -0.10089427 0.71099997 1.6988851e-38
0.027840963 -0.10117811 0.71300006 1.6988133e-38
0.029321898 -0.10160382 0.71600002 1.7080692e-38
0.030685738 -0.10160382 0.71600002 1.689595e-38
0.032183789 -0.10202952 0.71900004 1.680375e-38
0.033553343 -0.10202952 0.71900004 1.6803745e-38
0.034971427 -0.10217144 0.71999997 1.6711192e-38
0.036443833 -0.10245523 0.722 1.6619356e-38
0.03787142 -0.10259713 0.72300005 1.6527892e-38
0.039248586 -0.10259713 0.72300005 1.698744e-38
0.040625721 -0.10259715 0.72300005 1.7356219e-38
0.042119071 -0.10288095 0.72499996 1.4491385e-38
0.043499999 -0.10288094 0.72500002 1.1616131e-38
0.044942867 -0.10302286 0.72599995 8.8438314e-39
0.046453353 -0.10330667 0.72800004 6.1766826e-39
0.047905728 -0.10344855 0.72899997 6.9153379e-39
0.049294293 -0.10344857 0.72900003 7.7429405e-39
0.050682858 -0.10344858 0.72900003 7.8354991e-39
0.05221431 -0.10373238 0.73099995 7.9298415e-39
0.05360667 -0.10373238 0.73099995 7.835848e-39
-0.048628587 -0.10360001 0.74000001 1.004682e-38
-0.047155242 -0.10345997 0.73900002 8.8396598e-39
-0.045747604 -0.10345998 0.73899996 7.5662284e-39
-0.044160001 -0.10304001 0.73600006 1.1165818e-38
-0.042641871 -0.10275999 0.73399997 1.4754215e-38
-0.041131407 -0.10247998 0.73199999 1.4479066e-38
-0.039737128 -0.10247998 0.73200005 1.4109565e-38
-0.038185731 -0.10205999 0.72900003 1.3831183e-38
-0.036746647 -0.10191999 0.72800004 1.3555312e-38
-0.035262886 -0.10164 0.72600001 1.3278367e-38
-0.033740014 -0.10122 0.72300005 1.2909587e-38
-0.032318097 -0.10107999 0.72200006 1.2817031e-38
-0.03085717 -0.10080001 0.72000003 1.2724831e-38
-0.029444784 -0.10066 0.71900004 1.2541873e-38
-0.027958093 -0.10024001 0.71600002 1.2358202e-38
-0.026519997 -0.099959999 0.71399999 1.2266008e-38
-0.02505427 -0.09954001 0.71100003 1.2081623e-38
-0.02359999 -0.099119976 0.70799994 1.1806119e-38
-0.022220004 -0.098980024 0.70700002 1.1531334e-38
-0.020814277 -0.098699987 0.70500004 1.3006805e-38
-0.019443793 -0.098559991 0.70400006 1.4398206e-38
-0.018077154 -0.098420009 0.70299995 1.5326485e-38
-0.016690463 -0.098139986 0.70099998 1.6250355e-38
-0.015333338 -0.09799999 0.70000005 1.8088992e-38
-0.013940029 -0.097580001 0.69700003 1.9835305e-38
-0.01257617 -0.097299993 0.69499999 2.1672736e-38
-0.011252388 -0.097300008 0.69500005 2.3417617e-38
-0.0099142678 -0.097159982 0.69399995 2.3417623e-38
-0.0085923541 -0.097159982 0.69399995 2.3417589e-38
-0.0072809369 -0.097300008 0.69500005 2.047882e-38
-0.0059571271 -0.097299993 0.69500005 1.7540044e-38
-0.0046333191 -0.097300008 0.69499999 1.7907347e-38
-0.0033095093 -0.097299978 0.69500005 1.8274619e-38
-0.001982816 -0.097159967 0.69399995 1.790649e-38
-0.0006618895 -0.097299993 0.69499999 1.7447676e-38
0.00066191476 -0.097299993 0.69500005 1.7356204e-38
0.0019914224 -0.097580001 0.69700003 1.726438e-38
0.0033238637 -0.097719982 0.69799995 1.7264392e-38
0.0046666595 -0.09799999 0.70000005 1.7172541e-38
0.0060085836 -0.098140001 0.70099998 1.7264361e-38
0.0073438226 -0.098139986 0.70099998 1.7356201e-38
0.0086790621 -0.098140001 0.70099998 1.7355847e-38
0.010042854 -0.098419994 0.70299995 1.73562e-38
0.011398121 -0.098560005 0.70400006 1.7539865e-38
0.012757159 -0.098700002 0.70500004 1.7631702e-38
0.014100036 -0.098700017 0.70500004 1.7448032e-38
0.015442856 -0.098700002 0.70500004 1.7172523e-38
0.016785732 -0.098700017 0.70500004 1.7172522e-38
0.018179998 -0.09898001 0.70700002 1.7080688e-38
0.019526662 -0.098980024 0.70700002 1.7172523e-38
0.020873332 -0.098979995 0.70700002 1.7172523e-38
0.022251466 -0.099119976 0.70799994 1.7080686e-38
0.023666685 -0.099399999 0.71000004 1.6897015e-38
0.025054296 -0.099539995 0.71099997 1.6988852e-38
0.026482845 -0.099820003 0.71300006 1.6988133e-38
0.027840944 -0.099819988 0.71300006 1.6986698e-38
0.029321922 -0.10024001 0.71600002 1.6987777e-38
0.03068573 -0.10024001 0.71600002 1.6896303e-38
0.032183822 -0.10066 0.71900004 1.6804106e-38
0.033553325 -0.10066 0.71900004 1.6895582e-38
0.034971431 -0.10080001 0.71999997 1.6894863e-38
0.036443826 -0.10108 0.72200006 1.6803027e-38
0.037871413 -0.10122 0.72300005 1.6620084e-38
0.039248578 -0.10121998 0.72300005 1.6988512e-38
0.040625714 -0.10122 0.72300005 1.7351908e-38
0.042119056 -0.10149999 0.72499996 1.4496039e-38
0.043500006 -0.10149999 0.72500002 1.1527877e-38
0.044942841 -0.10164 0.72599995 9.1171855e-39
0.046453346 -0.10191999 0.72800004 6.7305584e-39
0.047905713 -0.10206001 0.72900003 7.2837448e-39
0.049294308 -0.10205999 0.72899997 7.8340516e-39
0.050821908 -0.10233998 0.73099995 7.8333467e-39
0.052214295 -0.10233998 0.73099995 7.8347788e-39
-0.048628565 -0.10219048 0.74000001 1.087441e-38
-0.047219064 -0.10219046 0.74000001 9.7687753e-39
-0.045747608 -0.10205238 0.73900002 8.6678984e-39
-0.044160016 -0.10163809 0.73600006 1.1531373e-38
-0.042758126 -0.10163808 0.73600006 1.4481947e-38
-0.041243806 -0.1013619 0.73399997 1.4387601e-38
-0.039737128 -0.10108571 0.73199999 1.4295037e-38
-0.038290475 -0.10094762 0.73099995 1.3832259e-38
-0.036797151 -0.10067143 0.72900003 1.3463117e-38
-0.035262853 -0.10025713 0.72599995 1.3095049e-38
-0.033833325 -0.10011902 0.72500002 1.2818106e-38
-0.032318074 -0.099704757 0.722 1.263264e-38
-0.030857166 -0.099428579 0.72000003 1.2447884e-38
-0.029321909 -0.098876178 0.71600002 1.2265638e-38
-0.027958071 -0.098876193 0.71600002 1.2175242e-38
-0.026519967 -0.098599985 0.71399999 1.1989423e-38
-0.025124783 -0.098461926 0.71300006 1.1896874e-38
-0.023666648 -0.098047614 0.71000004 1.1528817e-38
-0.022219999 -0.097633332 0.70700002 1.1251517e-38
-0.020814259 -0.097357139 0.70500004 1.2731288e-38
-0.019443775 -0.09721905 0.704 1.430816e-38
-0.018077154 -0.097080931 0.70299995 1.5417962e-38
-0.016690459 -0.096804753 0.70099998 1.6527273e-38
-0.015333353 -0.096666664 0.70000005 1.8089662e-38
-0.013940005 -0.096252367 0.69700003 1.9743099e-38
-0.012576193 -0.095976204 0.69500005 2.1121388e-38
-0.011252385 -0.095976189 0.69500005 2.2499279e-38
-0.0099142529 -0.095838055 0.69399995 2.2315608e-38
-0.008592343 -0.09583807 0.69399995 2.2223676e-38
-0.0072809295 -0.095976189 0.69500005 2.0662376e-38
-0.0059571234 -0.095976189 0.69500005 1.9192315e-38
-0.0046333116 -0.095976189 0.69500005 1.8825716e-38
-0.0033095018 -0.095976189 0.69500005 1.8458299e-38
-0.0019828347 -0.09583807 0.69400001 1.7631343e-38
-0.00066188391 -0.095976189 0.69499999 1.6896669e-38
0.00066189427 -0.095976174 0.69500005 1.6988873e-38
0.0019914187 -0.096252382 0.69700003 1.7172567e-38
0.0033238563 -0.096390471 0.69799995 1.7172589e-38
0.0046666465 -0.096666679 0.70000005 1.717256e-38
0.0060085929 -0.096804738 0.70099998 1.7264007e-38
0.0073438021 -0.096804753 0.70100003 1.7448045e-38
0.0087037962 -0.097080961 0.70300001 1.7356217e-38
0.010057164 -0.09721905 0.704 1.7264371e-38
0.011398119 -0.097219065 0.704 1.7356196e-38
0.012757177 -0.097357124 0.70500004 1.7356197e-38
0.014100026 -0.097357139 0.70499998 1.7264363e-38
0.015442871 -0.097357124 0.70500004 1.7080689e-38
0.016833337 -0.097633332 0.70700002 1.7172522e-38
0.018179974 -0.097633347 0.70700002 1.7264359e-38
0.01952667 -0.097633332 0.70700002 1.7172523e-38
0.020873338 -0.097633332 0.70700002 1.7172523e-38
0.022314297 -0.098047614 0.71000004 1.7080327e-38
0.02366668 -0.098047614 0.71000004 1.6988493e-38
0.025054317 -0.098185703 0.71099997 1.6988493e-38
0.02648285 -0.098461911 0.71300006 1.6988135e-38
0.027840948 -0.098461896 0.71300006 1.7079251e-38
0.029321915 -0.098876193 0.71600002 1.7262564e-38
0.030728586 -0.099014267 0.71700001 1.6987416e-38
0.032183804 -0.099290475 0.71900004 1.6803746e-38
0.033553332 -0.099290475 0.71899998 1.6711552e-38
0.034971405 -0.099428594 0.72000003 1.6618999e-38
0.036443822 -0.099704757 0.72200006 1.6619356e-38
0.037871428 -0.099842861 0.72300005 1.6620082e-38
0.039248567 -0.099842861 0.72300005 1.6895237e-38
0.040625703 -0.099842831 0.72300005 1.7260424e-38
0.042119063 -0.10011902 0.72499996 1.4489931e-38
0.043559995 -0.10025714 0.72599995 1.1707957e-38
0.044942848 -0.10025713 0.72600001 8.4782831e-39
0.046517137 -0.10067143 0.72900003 5.2633373e-39
0.047905732 -0.10067144 0.72899997 6.5486895e-39
0.0492943 -0.10067144 0.72900003 7.741493e-39
0.050821915 -0.10094762 0.73099995 8.017375e-39
-0.047219042 -0.10078095 0.74000001 1.0692557e-38
-0.045747608 -0.10064475 0.73899996 9.7785325e-39
-0.044220012 -0.10037239 0.73700005 1.199373e-38
-0.042641882 -0.099963799 0.73399997 1.4108476e-38
-0.04124378 -0.099963799 0.73399997 1.42936e-38
-0.039737124 -0.099691436 0.73200005 1.4476906e-38
-0.038290467 -0.099555224 0.73099995 1.3923014e-38
-0.036797132 -0.099282831 0.72899997 1.3279441e-38
-0.035262875 -0.098874271 0.72599995 1.3003569e-38
-0.033833344 -0.098738089 0.72499996 1.2634073e-38
-0.032318108 -0.098329529 0.72200006 1.2447891e-38
-0.030857163 -0.098057136 0.72000003 1.2172736e-38
-0.029362855 -0.097648561 0.71700001 1.2081253e-38
-0.027958078 -0.097512379 0.71600002 1.1897224e-38
-0.02651999 -0.097239986 0.71399999 1.1803598e-38
-0.025054263 -0.096831426 0.71099997 1.1619927e-38
-0.023666682 -0.096695229 0.71000004 1.1344062e-38
-0.022251423 -0.096422851 0.70799994 1.0976731e-38
-0.020814272 -0.096014276 0.70499998 1.2542609e-38
-0.019443782 -0.095878094 0.70400006 1.4120195e-38
-0.018077157 -0.095741898 0.70300001 1.541833e-38
-0.016690478 -0.095469519 0.70100003 1.6710591e-38
-0.015355241 -0.095469505 0.70099998 1.8182936e-38
-0.013940005 -0.094924748 0.69700003 1.9560149e-38
-0.012576185 -0.094652385 0.69500005 2.057038e-38
-0.011252377 -0.094652385 0.69500005 2.1580911e-38
-0.0099285673 -0.094652385 0.69500005 2.1305387e-38
-0.0086047594 -0.094652385 0.69500005 2.0937302e-38
-0.0072809481 -0.094652385 0.69500005 2.0846159e-38
-0.005957142 -0.09465237 0.69499999 2.0754287e-38
-0.0046333042 -0.094652385 0.69500005 1.9652224e-38
-0.0033190385 -0.094924748 0.69700003 1.8550134e-38
-0.0019856864 -0.09465237 0.69499999 1.7448045e-38
-0.00066190626 -0.094652399 0.69500005 1.6345672e-38
0.00066190172 -0.09465237 0.69500005 1.6713385e-38
0.0019914168 -0.094924763 0.69700003 1.6988893e-38
0.0033238488 -0.095060945 0.69799995 1.7080731e-38
0.0046666595 -0.095333338 0.70000005 1.7080351e-38
0.0060085966 -0.095469505 0.70099998 1.7262926e-38
0.0073438357 -0.095469505 0.70099998 1.7447705e-38
0.0087037943 -0.095741913 0.70300001 1.7356257e-38
0.010057187 -0.095878094 0.704 1.7172564e-38
0.011414289 -0.096014276 0.70500004 1.7172541e-38
0.012757164 -0.096014276 0.70500004 1.7080699e-38
0.01410004 -0.096014276 0.70499998 1.7080692e-38
0.015442861 -0.096014276 0.70500004 1.6988854e-38
0.016833315 -0.096286669 0.70700002 1.7172522e-38
0.018179985 -0.096286669 0.70700002 1.7355837e-38
0.019526677 -0.096286669 0.70700002 1.7264004e-38
0.020873317 -0.096286669 0.70700002 1.707999e-38
0.02231429 -0.096695244 0.71000004 1.7080007e-38
0.023666674 -0.096695229 0.71000004 1.6988513e-38
0.025054304 -0.096831411 0.71099997 1.6988856e-38
0.026482863 -0.097103819 0.71300006 1.6896323e-38
0.027880024 -0.097239986 0.71399999 1.7171133e-38
0.029321909 -0.097512379 0.71600002 1.7446616e-38
0.030728551 -0.097648576 0.71700001 1.7170369e-38
0.032183811 -0.097920939 0.71900004 1.6803387e-38
0.03355331 -0.097920939 0.71900004 1.6527884e-38
0.034971409 -0.098057151 0.72000003 1.6251657e-38
0.036443818 -0.098329514 0.722 1.6434609e-38
0.037871446 -0.098465711 0.72300005 1.6527532e-38
0.039248582 -0.098465711 0.72300005 1.6895244e-38
0.040738113 -0.098738089 0.72500002 1.7167158e-38
0.042119071 -0.098738089 0.72499996 1.4587509e-38
0.043559998 -0.098874286 0.72600001 1.189414e-38
0.045066666 -0.099146649 0.72800004 7.8250314e-39
0.046517156 -0.099282846 0.72900003 3.7900205e-39
0.048037156 -0.099555239 0.73099995 5.7225232e-39
0.049429536 -0.099555239 0.73099995 7.6507407e-39
0.050821897 -0.099555239 0.73099995 8.2021432e-39
-0.047219049 -0.099371448 0.74000001 1.1159673e-38
-0.045747608 -0.099237129 0.73900002 9.1378351e-39
-0.044220004 -0.09896858 0.73700005 9.9607434e-39
-0.042641886 -0.098565713 0.73399997 1.0797345e-38
-0.041243814 -0.098565713 0.73399997 1.2546561e-38
-0.03973712 -0.098297149 0.73200005 1.4386138e-38
-0.038342841 -0.098297134 0.73200005 1.3739698e-38
-0.036898099 -0.098162845 0.73099995 1.3186886e-38
-0.03535999 -0.097759977 0.72799999 1.2819895e-38
-0.033833336 -0.097357124 0.72499996 1.245076e-38
-0.032362856 -0.097088575 0.72300005 1.2172741e-38
-0.030857155 -0.096685722 0.72000003 1.1988707e-38
-0.029444763 -0.096551418 0.71900004 1.180503e-38
-0.027997134 -0.096282855 0.71700001 1.1712477e-38
-0.026594272 -0.096148565 0.71600002 1.1619565e-38
-0.025124764 -0.095745713 0.71300006 1.1526651e-38
-0.023699965 -0.095477119 0.71099997 1.1066752e-38
-0.02225142 -0.095074266 0.70799994 1.0605803e-38
-0.020873342 -0.094940007 0.70700002 1.2360386e-38
-0.019443786 -0.094537154 0.704 1.4028371e-38
-0.018077159 -0.094402865 0.70300001 1.5325786e-38
-0.0167381 -0.09440285 0.70300001 1.6621632e-38
-0.015399044 -0.094402865 0.70299995 1.8642117e-38
-0.013940034 -0.093597144 0.69700003 2.0662538e-38
-0.012576181 -0.09332858 0.69500005 2.1397263e-38
-0.01125237 -0.093328595 0.69500005 2.213191e-38
-0.009928558 -0.093328565 0.69500005 2.1028772e-38
-0.0085923467 -0.093194261 0.69399995 2.0016835e-38
-0.0072704651 -0.093194276 0.69400001 2.0386376e-38
-0.0059571345 -0.093328565 0.69499999 2.0754337e-38
-0.0046333228 -0.093328565 0.69499999 1.9744047e-38
-0.0033094888 -0.093328565 0.69499999 1.8825642e-38
-0.0019857106 -0.09332858 0.69500005 1.7631371e-38
-0.00066190067 -0.09332858 0.69500005 1.6529001e-38
0.00066378672 -0.093597114 0.69700003 1.6804878e-38
0.0019914149 -0.093597144 0.69700003 1.7080725e-38
0.0033238432 -0.093731418 0.69799995 1.7080707e-38
0.0046666688 -0.093999997 0.70000005 1.7172174e-38
0.0060000117 -0.093999997 0.70000005 1.7263998e-38
0.007343817 -0.094134271 0.70099998 1.7447723e-38
0.0087037925 -0.094402865 0.70300001 1.7264462e-38
0.010057177 -0.094537124 0.70400006 1.7172593e-38
0.011398131 -0.094537124 0.704 1.7172558e-38
0.012739086 -0.094537139 0.704 1.7264378e-38
0.014100002 -0.094671428 0.70500004 1.708069e-38
0.015442878 -0.094671428 0.70500004 1.6897018e-38
0.016785728 -0.094671428 0.70500004 1.6988492e-38
0.018179992 -0.094939992 0.70700002 1.717181e-38
0.019526659 -0.094940007 0.70700002 1.707962e-38
0.020902853 -0.095074281 0.70799994 1.7079293e-38
0.022314286 -0.09534286 0.71000004 1.6988208e-38
0.023666695 -0.095342845 0.71000004 1.6897057e-38
0.025054321 -0.095477134 0.71100003 1.6621158e-38
0.026482867 -0.095745713 0.71300006 1.6437171e-38
0.02788 -0.095880002 0.71399999 1.6804195e-38
0.029321929 -0.09614858 0.71599996 1.7171492e-38
0.030728566 -0.096282855 0.71700001 1.689558e-38
0.032183792 -0.096551418 0.71900004 1.6711195e-38
0.033553343 -0.096551433 0.71900004 1.6618644e-38
0.034971412 -0.096685737 0.72000003 1.6526447e-38
0.036443807 -0.096954301 0.72200006 1.6526803e-38
0.037871435 -0.097088575 0.72300005 1.6527535e-38
0.039248571 -0.097088575 0.72300005 1.6803055e-38
0.040738095 -0.097357124 0.72499996 1.7170392e-38
0.042119049 -0.097357124 0.72500002 1.4491371e-38
0.043560002 -0.097491428 0.72599995 1.1803023e-38
0.045066684 -0.097759992 0.72800004 8.3857301e-39
0.046517145 -0.097894281 0.72900003 5.0732035e-39
0.047905713 -0.097894266 0.72899997 6.4557652e-39
0.049429521 -0.09816286 0.73099995 7.8351362e-39
0.050821934 -0.098162845 0.73099995 8.1103288e-39
0.052214291 -0.09816286 0.73099995 8.3865275e-39
-0.047346674 -0.098226681 0.74200004 1.1530961e-38
-0.045747604 -0.097829506 0.73899996 8.4842064e-39
-0.044220023 -0.097564757 0.73700005 8.0063356e-39
-0.042641863 -0.097167611 0.73399997 7.4804885e-39
-0.041243792 -0.097167611 0.73399997 1.0892447e-38
-0.039737113 -0.096902847 0.73200005 1.4198878e-38
-0.038290475 -0.096770465 0.73099995 1.3645709e-38
-0.036898091 -0.09677045 0.73099995 1.3004288e-38
-0.035408583 -0.096505716 0.72899997 1.2638734e-38
-0.033880021 -0.096108571 0.72599995 1.2174173e-38
-0.032452371 -0.095976189 0.72500002 1.1987629e-38
-0.030942852 -0.095579043 0.72200006 1.1713193e-38
-0.029444782 -0.095181897 0.71900004 1.1620995e-38
-0.027997142 -0.094917133 0.71700001 1.1528084e-38
-0.026594277 -0.094784766 0.71600002 1.1527727e-38
-0.02515999 -0.094519973 0.71399999 1.143445e-38
-0.023766691 -0.094387636 0.71300006 1.0881996e-38
-0.022314286 -0.09399046 0.71000004 1.0238817e-38
-0.020873336 -0.093593329 0.70700002 1.2080219e-38
-0.019443793 -0.093196213 0.70400006 1.3934763e-38
-0.018077161 -0.093063816 0.70300001 1.5234349e-38
-0.016738106 -0.093063816 0.70300001 1.6527308e-38
-0.015355226 -0.092799038 0.70099998 1.9101301e-38
-0.013959968 -0.092401907 0.69799995 2.1672727e-38
-0.012612382 -0.09226951 0.69700003 2.2131937e-38
-0.011252362 -0.092004776 0.69500005 2.2590721e-38
-0.0099285543 -0.092004761 0.69500005 2.0844734e-38
-0.0086047444 -0.092004761 0.69500005 1.9008433e-38
-0.0072809369 -0.092004776 0.69499999 1.9927915e-38
-0.0059571252 -0.092004746 0.69500005 2.0754353e-38
-0.0046333191 -0.092004746 0.69499999 1.9927751e-38
-0.0033190702 -0.092269525 0.69700003 1.9008977e-38
-0.0019857031 -0.092004746 0.69500005 1.7814336e-38
-0.00066381361 -0.092269525 0.69700003 1.6620842e-38
0.0006638128 -0.092269525 0.69700003 1.6896715e-38
0.0019943132 -0.092401907 0.69800001 1.7172568e-38
0.0033333111 -0.092666671 0.70000005 1.7172555e-38
0.0046666539 -0.092666671 0.70000005 1.7172553e-38
0.0060086134 -0.092799023 0.70099998 1.7264385e-38
0.0073438226 -0.092799053 0.70100003 1.7356238e-38
0.0087037887 -0.093063816 0.70300001 1.7264419e-38
0.010057174 -0.093196198 0.704 1.7080019e-38
0.011398124 -0.093196183 0.70400006 1.7264039e-38
0.012757172 -0.09332858 0.70499998 1.7356218e-38
0.014100018 -0.093328565 0.70500004 1.7080696e-38
0.015486663 -0.093593344 0.70700002 1.671335e-38
0.016833331 -0.093593329 0.70700002 1.6804464e-38
0.01818 -0.093593329 0.70699996 1.6895952e-38
0.019554297 -0.093725681 0.70799994 1.6987081e-38
0.020961896 -0.09399046 0.71000004 1.6987449e-38
0.022345727 -0.094122842 0.71099997 1.6895982e-38
0.023700031 -0.094122857 0.71099997 1.6712651e-38
0.025054308 -0.094122857 0.71100003 1.6345289e-38
0.026482848 -0.094387606 0.71300006 1.5885785e-38
0.027880032 -0.094519973 0.71399999 1.643683e-38
0.029321924 -0.094784766 0.71600002 1.6895974e-38
0.030728584 -0.094917148 0.71700001 1.6712268e-38
0.0321838 -0.095181897 0.71900004 1.6527522e-38
0.033553325 -0.095181897 0.71900004 1.6617565e-38
0.034971412 -0.095314294 0.72000003 1.6710476e-38
0.03644383 -0.095579058 0.72200006 1.6618639e-38
0.037819073 -0.095579058 0.722 1.6434978e-38
0.039248563 -0.09571141 0.72300005 1.680269e-38
0.040738102 -0.095976189 0.72499996 1.7167158e-38
0.042119034 -0.095976189 0.72500002 1.4495675e-38
0.043560006 -0.096108556 0.72600001 1.1712264e-38
0.04494283 -0.096108571 0.72600001 9.0249941e-39
0.046453357 -0.096373305 0.72799999 6.2710222e-39
0.047905698 -0.096505716 0.72900003 7.1000696e-39
0.049294297 -0.096505716 0.72899997 7.926257e-39
0.050821915 -0.09677048 0.73099995 8.0174016e-39
0.052214298 -0.09677048 0.73099995 8.0181037e-39
-0.047410473 -0.096943811 0.74300003 1.1158954e-38
-0.045747612 -0.096421883 0.73900002 8.1089555e-39
-0.044220012 -0.096160933 0.73700005 7.1851621e-39
-0.04275813 -0.096030474 0.73600006 6.3788045e-39
-0.041131422 -0.095508561 0.73200005 1.0246371e-38
-0.039737139 -0.095508575 0.73200005 1.4198161e-38
-0.03834283 -0.095508561 0.73200005 1.3646782e-38
-0.03689811 -0.095378101 0.73099995 1.3004645e-38
-0.035408564 -0.095117137 0.72899997 1.2542234e-38
-0.033880018 -0.094725713 0.72600001 1.2078028e-38
-0.03245239 -0.094595224 0.72500002 1.1896145e-38
-0.030942855 -0.094203815 0.72200006 1.1805741e-38
-0.029444771 -0.093812376 0.71900004 1.162027e-38
-0.027997127 -0.093551397 0.71700001 1.1527004e-38
-0.026594257 -0.093420938 0.71600002 1.1434813e-38
-0.02515999 -0.093159989 0.71399999 1.1341891e-38
-0.023766683 -0.093029514 0.71300006 1.069688e-38
-0.022314262 -0.09263809 0.71000004 1.0142314e-38
-0.020873357 -0.092246667 0.70700002 1.2083807e-38
-0.019471429 -0.091985717 0.70500004 1.4028772e-38
-0.018102817 -0.091855228 0.704 1.541806e-38
-0.016738106 -0.091724753 0.70300001 1.6805349e-38
-0.015355218 -0.091463789 0.70100003 1.8550295e-38
-0.013959976 -0.091072381 0.69800001 2.0203358e-38
-0.012612382 -0.090941906 0.69700003 2.0478888e-38
-0.011252381 -0.090680942 0.69500005 2.0846195e-38
-0.0099285468 -0.090680927 0.69500005 1.9927446e-38
-0.0085923485 -0.090550467 0.69399995 1.9009505e-38
-0.0072809295 -0.090680957 0.69499999 1.9193229e-38
-0.0059485533 -0.090550467 0.69400001 1.9376836e-38
-0.0046266434 -0.090550467 0.69400001 1.8733921e-38
-0.0033095316 -0.090680942 0.69500005 1.8182837e-38
-0.0019857218 -0.090680957 0.69500005 1.7447364e-38
-0.00066384528 -0.090941921 0.69700003 1.6804161e-38
0.00066378113 -0.090941891 0.69700003 1.7080029e-38
0.0019943058 -0.091072395 0.69800001 1.726441e-38
0.0033333222 -0.091333345 0.70000005 1.7172567e-38
0.0046666651 -0.091333345 0.70000005 1.7080378e-38
0.0060085929 -0.091463789 0.70099998 1.7172219e-38
0.0073438319 -0.091463804 0.70099998 1.7264395e-38
0.0087162107 -0.091855258 0.70400006 1.6988151e-38
0.010057166 -0.091855213 0.70400006 1.6802699e-38
0.011414311 -0.091985688 0.70500004 1.6987459e-38
0.012757161 -0.091985703 0.70499998 1.7080357e-38
0.014100006 -0.091985717 0.70500004 1.6988507e-38
0.015486672 -0.092246667 0.70700002 1.680519e-38
0.016833341 -0.092246652 0.70700002 1.6804824e-38
0.018179979 -0.092246667 0.70700002 1.6712289e-38
0.019554298 -0.092377126 0.70799994 1.6803424e-38
0.020961918 -0.09263809 0.71000004 1.680377e-38
0.022345744 -0.09276855 0.71099997 1.6711922e-38
0.023700019 -0.092768565 0.71099997 1.6620798e-38
0.025124758 -0.093029529 0.71300006 1.6252373e-38
0.026482856 -0.093029514 0.71300006 1.597689e-38
0.027880006 -0.093160003 0.71399999 1.6252061e-38
0.029321918 -0.093420953 0.71600002 1.6528262e-38
0.030728575 -0.093551442 0.71700001 1.634385e-38
0.032183807 -0.093812376 0.71900004 1.6160179e-38
0.033599999 -0.093942851 0.72000003 1.6250938e-38
0.035068583 -0.0942038 0.72200006 1.634385e-38
0.036494277 -0.094334289 0.72300005 1.6985981e-38
0.037871443 -0.094334289 0.72300005 1.7718878e-38
0.039357156 -0.094595239 0.72499996 1.7352977e-38
0.040738109 -0.094595239 0.72499996 1.6985993e-38
0.04217713 -0.094725683 0.72599995 1.4398815e-38
0.043559983 -0.094725698 0.72600001 1.1709394e-38
0.045066707 -0.094986647 0.72799999 9.122212e-39
0.046517126 -0.095117152 0.72900003 6.549051e-39
0.048037153 -0.095378086 0.73099995 7.2837602e-39
0.049429536 -0.095378086 0.73099995 8.0173778e-39
0.050821893 -0.095378101 0.73099995 8.1095805e-39
-0.047410466 -0.095528573 0.74300003 1.0795165e-38
-0.045747608 -0.095014259 0.73899996 7.739775e-39
-0.044339977 -0.095014259 0.73900002 6.4296198e-39
-0.042758111 -0.094628572 0.73600006 5.1763068e-39
-0.041356195 -0.094628572 0.73600006 9.6996619e-39
-0.039737135 -0.094114274 0.73200005 1.4198875e-38
-0.038342856 -0.094114274 0.73200005 1.3646419e-38
-0.036898077 -0.093985707 0.73099995 1.3002131e-38
-0.035505712 -0.093985721 0.73099995 1.2538646e-38
-0.03397334 -0.093599975 0.72800004 1.1987986e-38
-0.03249716 -0.093342841 0.72599995 1.1896504e-38
-0.030985715 -0.092957124 0.72300005 1.1803581e-38
-0.029444737 -0.09244284 0.71899998 1.1618823e-38
-0.027997164 -0.092185706 0.71700001 1.14348e-38
-0.026594261 -0.092057139 0.71600002 1.1341895e-38
-0.025159983 -0.091799989 0.71399999 1.124933e-38
-0.023766672 -0.091671422 0.713 1.0604316e-38
-0.022314271 -0.091285706 0.71000004 9.9632923e-39
-0.020873347 -0.090900019 0.70700002 1.2084151e-38
-0.019443778 -0.090514287 0.70400006 1.4120247e-38
-0.018077165 -0.09038572 0.70300001 1.5603177e-38
-0.016738107 -0.090385705 0.70300001 1.7078678e-38
-0.015355239 -0.090128541 0.70100003 1.7907384e-38
-0.013959983 -0.089742839 0.69800001 1.8732502e-38
-0.012612415 -0.089614287 0.69700003 1.8917643e-38
-0.011252377 -0.089357138 0.69500005 1.9008731e-38
-0.0099285655 -0.089357138 0.69500005 1.9009421e-38
-0.0086047333 -0.089357153 0.69500005 1.9009431e-38
-0.007280922 -0.089357138 0.69499999 1.8550263e-38
-0.0059485422 -0.08922857 0.69399995 1.7999228e-38
-0.004633334 -0.089357153 0.69500005 1.7631863e-38
-0.0033190758 -0.089614287 0.69700003 1.7264461e-38
-0.0019857143 -0.089357138 0.69500005 1.7172205e-38
-0.0006638192 -0.089614287 0.69700003 1.6987814e-38
0.00066380907 -0.089614272 0.69700003 1.7171482e-38
0.0019999924 -0.090000004 0.70000005 1.7355863e-38
0.0033333353 -0.090000004 0.70000005 1.7172544e-38
0.0046666781 -0.089999989 0.70000005 1.6988168e-38
0.0060085724 -0.090128556 0.70099998 1.7079658e-38
0.0073647569 -0.090385705 0.70299995 1.7080356e-38
0.0087162331 -0.090514287 0.704 1.680519e-38
0.010057187 -0.090514272 0.704 1.6527909e-38
0.011414301 -0.09064284 0.70499998 1.6711241e-38
0.012757177 -0.09064284 0.70499998 1.6803776e-38
0.014100024 -0.090642869 0.70500004 1.6895594e-38
0.015486678 -0.090899989 0.70700002 1.6896305e-38
0.016833318 -0.090900019 0.70700002 1.6713346e-38
0.018179985 -0.090900004 0.70700002 1.6526096e-38
0.0195543 -0.091028571 0.70799994 1.6618659e-38
0.02096191 -0.09128572 0.71000004 1.661901e-38
0.022345733 -0.091414303 0.71099997 1.6527169e-38
0.023700008 -0.091414288 0.71100003 1.6434971e-38
0.025124738 -0.091671422 0.71300006 1.6250221e-38
0.026482837 -0.091671422 0.71300006 1.5974725e-38
0.027880013 -0.091799989 0.71399999 1.6066574e-38
0.029321941 -0.092057139 0.71600002 1.6159473e-38
0.030728562 -0.092185721 0.71700001 1.5974714e-38
0.032183815 -0.09244284 0.71900004 1.5698849e-38
0.033599999 -0.092571437 0.72000003 1.5789608e-38
0.035068579 -0.092828587 0.72200006 1.5884695e-38
0.0364943 -0.092957139 0.72300005 1.7446279e-38
0.037871432 -0.092957124 0.72300005 1.9006751e-38
0.039357133 -0.093214273 0.72500002 1.7903637e-38
0.040794283 -0.093342841 0.72599995 1.6799813e-38
0.042177133 -0.093342856 0.72600001 1.4311641e-38
0.043679997 -0.093600005 0.72800004 1.1710109e-38
0.045128576 -0.093728587 0.72899997 9.204719e-39
0.046517141 -0.093728587 0.72900003 6.7302039e-39
0.04803716 -0.093985707 0.73099995 7.4681389e-39
0.049429521 -0.093985707 0.73099995 8.1102825e-39
0.05082193 -0.093985692 0.73099995 8.2936074e-39
-0.047410455 -0.094113335 0.74300003 1.0788671e-38
-0.045747608 -0.093606666 0.73900002 7.9212502e-39
-0.044340003 -0.093606666 0.73900002 6.8105418e-39
-0.042816207 -0.093353316 0.73699999 5.7280107e-39
-0.04135621 -0.093226671 0.73600006 9.8768729e-39
-0.039737131 -0.092719987 0.73200005 1.4108112e-38
-0.038342852 -0.092720002 0.73200005 1.3554937e-38
-0.036898091 -0.092593327 0.73099995 1.2909934e-38
-0.035505708 -0.092593327 0.73099995 1.2540797e-38
-0.033973314 -0.092213333 0.72799999 1.2080898e-38
-0.03249716 -0.091959983 0.72600001 1.1895428e-38
-0.0309857 -0.091579989 0.72300005 1.1801422e-38
-0.029444756 -0.091073334 0.71900004 1.1710286e-38
-0.027997145 -0.09082 0.71700001 1.1618103e-38
-0.026594268 -0.09069334 0.71600002 1.1709949e-38
-0.025160009 -0.09043999 0.71399999 1.1801411e-38
-0.023799989 -0.090439975 0.71399999 1.1065275e-38
-0.022408597 -0.090313345 0.71300006 1.0420305e-38
-0.020902846 -0.089680001 0.70799994 1.2269241e-38
-0.019471422 -0.089299992 0.70500004 1.4029485e-38
-0.018102804 -0.089173332 0.704 1.5694665e-38
-0.016738113 -0.089046657 0.70300001 1.735631e-38
-0.015355203 -0.088793308 0.70099998 1.7354155e-38
-0.013999993 -0.088666648 0.70000005 1.7350971e-38
-0.012630465 -0.088413328 0.69799995 1.7445362e-38
-0.01125237 -0.088033348 0.69499999 1.7537175e-38
-0.009928558 -0.088033319 0.69499999 1.7538228e-38
-0.00860475 -0.088033319 0.69499999 1.7539988e-38
-0.0072809146 -0.088033333 0.69499999 1.7263729e-38
-0.0059485608 -0.087906674 0.69400001 1.6897126e-38
-0.0046333265 -0.088033333 0.69500005 1.6712758e-38
-0.0033190777 -0.088286668 0.69700003 1.6529755e-38
-0.0019857069 -0.088033319 0.69500005 1.652791e-38
-0.00066382106 -0.088286653 0.69700003 1.6527543e-38
0.00066380721 -0.088286668 0.69700003 1.6619728e-38
0.0020000036 -0.088666663 0.70000005 1.6712634e-38
0.0033333204 -0.088666663 0.70000005 1.6620433e-38
0.0046733669 -0.088793308 0.70099998 1.6527899e-38
0.006008578 -0.088793322 0.70100003 1.6987454e-38
0.007364755 -0.089046642 0.70300001 1.7447689e-38
0.0087161995 -0.089173332 0.70400006 1.7262564e-38
0.010057179 -0.089173332 0.70400006 1.6986725e-38
0.011414317 -0.089299992 0.70499998 1.7079305e-38
0.012757164 -0.089300007 0.70500004 1.7262596e-38
0.014100014 -0.089300007 0.70500004 1.7262575e-38
0.015486658 -0.089553341 0.70700002 1.7262928e-38
0.016833326 -0.089553341 0.70700002 1.8271678e-38
0.018205712 -0.089680001 0.708 1.9273976e-38
0.019609522 -0.089933321 0.71000004 1.9003133e-38
0.020961907 -0.089933321 0.71000004 1.8821973e-38
0.022345722 -0.090059996 0.71099997 1.8731214e-38
0.023700027 -0.090059996 0.71099997 1.8637226e-38
0.025124775 -0.09031333 0.71300006 1.8545032e-38
0.026482843 -0.09031333 0.71300006 1.8451403e-38
0.027880011 -0.090440005 0.71400005 1.9097839e-38
0.029321933 -0.090693325 0.71600002 1.964921e-38
0.03072858 -0.09082 0.71700001 1.9465181e-38
0.032228552 -0.091200009 0.72000003 1.927864e-38
0.033599973 -0.091200009 0.72000003 1.9281868e-38
0.035068601 -0.091453329 0.72200006 1.9376618e-38
0.036494285 -0.091579989 0.72300005 2.0294658e-38
0.037871424 -0.091579989 0.72300005 2.121334e-38
0.039357141 -0.091833338 0.72500002 1.9559191e-38
0.040794283 -0.091959998 0.72600001 1.7906504e-38
0.042177133 -0.091959998 0.72600001 1.4673958e-38
0.043680027 -0.092213333 0.72799999 1.1431372e-38
0.045128569 -0.092340007 0.72900003 9.1193379e-39
0.046517164 -0.092340007 0.72899997 6.8213163e-39
0.048037142 -0.092593342 0.73099995 7.4670529e-39
0.049429558 -0.092593327 0.73099995 8.1113517e-39
0.050821915 -0.092593327 0.73099995 8.1099322e-39
-0.047410473 -0.092698097 0.74300003 1.0883053e-38
-0.045747608 -0.092199028 0.73899996 8.1099602e-39
-0.044339977 -0.092199028 0.73900002 7.1635316e-39
-0.042816229 -0.091949537 0.73700005 6.1853945e-39
-0.041412413 -0.091949522 0.73700011 1.0154535e-38
-0.040008571 -0.091949493 0.73700005 1.4014125e-38
-0.038342845 -0.0913257 0.73200005 1.3462742e-38
-0.03689811 -0.091200948 0.73099995 1.2818456e-38
-0.035408571 -0.090951443 0.72900003 1.2542231e-38
-0.033973318 -0.090826645 0.72799999 1.2172375e-38
-0.032497153 -0.090577126 0.72599995 1.1985833e-38
-0.030985707 -0.090202838 0.72300005 1.1710315e-38
-0.029444747 -0.089703798 0.71899998 1.1710304e-38
-0.027997127 -0.089454278 0.71700001 1.1710314e-38
-0.026594272 -0.089329511 0.71599996 1.1986189e-38
-0.02523046 -0.089329526 0.71600002 1.2261325e-38
-0.023800014 -0.089079991 0.71399999 1.1618107e-38
-0.022408592 -0.088955238 0.71300006 1.0883798e-38
-0.020991409 -0.088705704 0.71099997 1.2451118e-38
-0.019554278 -0.088331401 0.70799994 1.393584e-38
-0.018102838 -0.087832391 0.704 1.5789698e-38
-0.016738113 -0.087707609 0.70300001 1.7537428e-38
-0.015355226 -0.087458074 0.70099998 1.6801297e-38
-0.014000012 -0.087333336 0.70000005 1.5974079e-38
-0.012630448 -0.087083817 0.69800001 1.6066652e-38
-0.011284763 -0.086959049 0.69700003 1.6066641e-38
-0.0099285543 -0.086709499 0.69499999 1.606663e-38
-0.0086047426 -0.086709529 0.69499999 1.6067329e-38
-0.007280963 -0.086709529 0.69500005 1.5975118e-38
-0.005957155 -0.086709514 0.69500005 1.5792899e-38
-0.0046333172 -0.086709544 0.69500005 1.5792198e-38
-0.0033190516 -0.086959019 0.69700003 1.5699973e-38
-0.0019914252 -0.086959034 0.69700003 1.5881818e-38
-0.00066382292 -0.086959034 0.69700003 1.597616e-38
0.00066479068 -0.087083802 0.69799995 1.6066915e-38
0.0019999887 -0.087333336 0.70000005 1.6069064e-38
0.0033381092 -0.087458104 0.70100003 1.6068343e-38
0.0046733483 -0.087458074 0.70099998 1.5976159e-38
0.0060085873 -0.087458074 0.70099998 1.6894165e-38
0.0073647513 -0.087707624 0.70300001 1.7813228e-38
0.0087162219 -0.087832391 0.704 1.7626318e-38
0.010057176 -0.087832376 0.704 1.744625e-38
0.011414306 -0.087957144 0.70499998 1.7539893e-38
0.012757152 -0.087957129 0.70500004 1.7630641e-38
0.014100028 -0.087957129 0.70500004 1.7629194e-38
0.015486664 -0.088206679 0.70700002 1.7538806e-38
0.016833333 -0.088206664 0.70700002 1.9835782e-38
0.018205713 -0.088331431 0.708 2.2035161e-38
0.019609516 -0.088580966 0.71000004 2.1481269e-38
0.020991461 -0.088705733 0.71099997 2.0934927e-38
0.022345766 -0.088705719 0.71099997 2.0937804e-38
0.023700016 -0.088705704 0.71099997 2.0843803e-38
0.025124757 -0.088955238 0.71300006 2.0933115e-38
0.026482852 -0.088955224 0.71300006 2.093493e-38
0.027880017 -0.089079991 0.71399999 2.2039848e-38
0.0293219 -0.089329526 0.71600002 2.3141147e-38
0.030728569 -0.089454278 0.71700001 2.3050019e-38
0.032228559 -0.089828566 0.72000003 2.2864909e-38
0.033693355 -0.090078086 0.72200006 2.2866338e-38
0.035068598 -0.090078086 0.722 2.2774526e-38
0.036494303 -0.090202853 0.72300005 2.3141892e-38
0.037976194 -0.090452373 0.72499996 2.3417386e-38
0.039357148 -0.090452388 0.72500002 2.1213321e-38
0.040906675 -0.090826675 0.72800004 1.8912036e-38
0.042293347 -0.090826675 0.72800004 1.5045603e-38
0.043739989 -0.090951443 0.72900003 1.1158017e-38
0.045128584 -0.090951428 0.72899997 9.0196103e-39
0.046517149 -0.090951428 0.72900003 6.819873e-39
0.048037149 -0.091200933 0.73099995 7.4673948e-39
0.049497169 -0.0913257 0.73199999 8.0184274e-39
0.050821923 -0.091200948 0.73100001 8.0170121e-39
-0.045747612 -0.090791419 0.73900002 1.0512765e-38
-0.044399988 -0.090914294 0.74000001 9.9498034e-39
