# .PCD v0.7 - Point Cloud Data file format
VERSION 0.7
FIELDS x y z rgb
SIZE 4 4 4 4
TYPE F F F F
COUNT 1 1 1 1
WIDTH 957
HEIGHT 1
VIEWPOINT 0 0 0 1 0 0 0
POINTS 957
DATA ascii
0.007710469 -0.087619051 0.736 8.4208789e-39
0.0090875942 -0.087380961 0.73399997 8.2364905e-39
0.010485681 -0.087380975 0.73399997 8.0545627e-39
0.011883764 -0.087380961 0.73399997 1.1927386e-38
0.013245731 -0.087142855 0.73200005 1.5790092e-38
0.014619966 -0.087023824 0.73099995 1.5599839e-38
0.01596858 -0.086785734 0.72900003 1.5424828e-38
0.01735713 -0.086785734 0.72900003 1.6433274e-38
0.018745709 -0.086785719 0.72900003 1.7531305e-38
0.020134289 -0.086785719 0.72900003 1.7623091e-38
0.021522839 -0.086785734 0.72899997 1.7808595e-38
0.022911415 -0.086785719 0.72900003 1.790047e-38
0.024366638 -0.08702381 0.73099995 1.8085903e-38
0.025794286 -0.08714287 0.73200005 1.8359944e-38
0.027745709 -0.088928595 0.74700004 1.8727639e-38
0.029207585 -0.089047641 0.74799997 1.8358498e-38
0.030632377 -0.089047655 0.74800003 1.79908e-38
0.032142855 -0.089285746 0.75000006 1.8358144e-38
0.033660967 -0.089523822 0.75200003 1.8635441e-38
0.035233341 -0.089880973 0.75500005 1.8266301e-38
0.036817137 -0.090238124 0.75799996 1.7991157e-38
0.038513329 -0.090833336 0.76300001 1.8174474e-38
0.04007142 -0.091071442 0.76499999 1.8358868e-38
0.041800007 -0.091666684 0.77000004 1.6330959e-38
0.043435242 -0.09202382 0.77300006 1.4205107e-38
0.045023821 -0.092261925 0.77500004 1.0421911e-38
0.046619989 -0.092500016 0.77699995 6.6423271e-39
0.048223797 -0.092738107 0.77899998 7.2844777e-39
0.049899064 -0.093095258 0.78200006 7.9262402e-39
-0.040985726 -0.088442862 0.755 1.0073561e-38
-0.039547607 -0.088442877 0.75500005 8.783556e-39
-0.038109522 -0.088442877 0.75500005 7.5010904e-39
-0.036574289 -0.088208586 0.75300002 9.7112422e-39
-0.035140023 -0.088208586 0.75300002 1.1916012e-38
-0.033660941 -0.088091433 0.75200003 1.0997655e-38
-0.032228567 -0.088091433 0.75200003 9.9853109e-39
-0.030714298 -0.087857172 0.75000006 1.1367145e-38
-0.029285744 -0.087857157 0.75 1.2655352e-38
-0.027782876 -0.087622881 0.74800003 1.3485816e-38
-0.026322864 -0.087505728 0.74700004 1.4218348e-38
-0.024899999 -0.087505743 0.74700004 1.3943917e-38
-0.023477159 -0.087505743 0.74699998 1.3667695e-38
-0.022054292 -0.087505728 0.74700004 1.3671641e-38
-0.020631425 -0.087505743 0.74700004 1.3575142e-38
-0.019208588 -0.087505728 0.74699998 1.33947e-38
-0.017738109 -0.087271467 0.745 1.320744e-38
-0.016319063 -0.087271452 0.745 1.3301786e-38
-0.014900013 -0.087271467 0.74500006 1.3390752e-38
-0.013480966 -0.087271467 0.745 1.3301428e-38
-0.012029528 -0.087037161 0.74300003 1.3116323e-38
-0.010614271 -0.087037176 0.74300003 1.2842972e-38
-0.0091866814 -0.086920008 0.74200004 1.2473833e-38
-0.0077733495 -0.086920008 0.74199998 1.2384148e-38
-0.0063428758 -0.086685747 0.74000001 1.2288366e-38
-0.0049266862 -0.086568594 0.73900002 1.219976e-38
-0.0035190694 -0.086568579 0.73899996 1.2012502e-38
-0.0021057362 -0.086334288 0.73699999 1.1922102e-38
-0.00070193876 -0.086334273 0.73699999 1.1829189e-38
0.0007009292 -0.086217165 0.73600006 1.2013936e-38
0.0021028304 -0.086217165 0.736 1.2101827e-38
0.0035047363 -0.08621718 0.73600006 1.1091637e-38
0.0049066665 -0.08621715 0.73600006 1.007499e-38
0.0063085426 -0.08621715 0.73600006 7.5875393e-39
0.0077104736 -0.086217165 0.73600006 5.1108522e-39
0.0090875933 -0.085982874 0.73400003 6.5809404e-39
0.010457127 -0.085748568 0.73199999 8.0606513e-39
0.011851423 -0.085748568 0.73200005 1.2212561e-38
0.013245717 -0.085748583 0.73200005 1.6247108e-38
0.014619976 -0.085631445 0.73099995 1.5504057e-38
0.015968576 -0.085397169 0.72900003 1.4682229e-38
0.017357156 -0.085397154 0.72900003 1.5329052e-38
0.018719992 -0.085280031 0.72800004 1.5876812e-38
0.020134287 -0.085397169 0.72900003 1.643103e-38
0.021522867 -0.085397154 0.72900003 1.6887715e-38
0.022911418 -0.085397154 0.72900003 1.6796258e-38
0.024366649 -0.08563143 0.73100001 1.6703696e-38
0.025794273 -0.085748568 0.73200005 1.6889154e-38
0.027337128 -0.08621718 0.73600006 1.6979203e-38
0.029207589 -0.087622866 0.74799997 1.7440898e-38
0.030714286 -0.087857157 0.75000006 1.7897186e-38
0.032142866 -0.087857157 0.75000006 1.7436196e-38
0.033705719 -0.088208571 0.75300002 1.6978093e-38
0.03528 -0.08856003 0.75599998 1.6884462e-38
0.036914259 -0.089028582 0.75999999 1.6701869e-38
0.038513318 -0.089380011 0.76299995 1.7253602e-38
0.04007142 -0.089614302 0.76499999 1.7803915e-38
0.041691415 -0.089965731 0.76799995 1.6240217e-38
0.043379087 -0.090434313 0.77200001 1.4667181e-38
0.045023814 -0.090785727 0.77500004 1.0514859e-38
0.046620015 -0.091020033 0.77699995 6.3650311e-39
0.0482857 -0.091371447 0.77999997 7.1007801e-39
0.049899057 -0.091605738 0.78200001 7.8343907e-39
-0.040985718 -0.087004796 0.755 1.0258306e-38
-0.0395476 -0.087004781 0.75500005 8.4180063e-39
-0.038008589 -0.086774305 0.75299996 6.5816579e-39
-0.036574293 -0.08677429 0.75300002 9.159153e-39
-0.035139997 -0.08677429 0.75300002 1.1733417e-38
-0.033660948 -0.086659089 0.75200003 1.0997298e-38
-0.032228574 -0.086659074 0.75200003 1.0351574e-38
-0.030714285 -0.086428583 0.75 8.6949421e-39
-0.029285733 -0.086428583 0.75 7.0347257e-39
-0.027782902 -0.086198106 0.74799997 8.6027422e-39
-0.026358111 -0.086198106 0.74800003 1.0250041e-38
-0.024933349 -0.086198092 0.74799997 9.7951688e-39
-0.023477161 -0.086082876 0.74699998 9.3316879e-39
-0.022054292 -0.086082876 0.74700004 9.0604876e-39
-0.020631429 -0.086082861 0.74699998 8.7752953e-39
-0.01920859 -0.086082861 0.74699998 8.5080383e-39
-0.017738119 -0.085852414 0.74500006 8.2253571e-39
-0.016319072 -0.085852399 0.745 8.6002311e-39
-0.014899996 -0.085852399 0.74500006 9.0525927e-39
-0.013480975 -0.085852414 0.745 9.612574e-39
-0.012029519 -0.085621923 0.74300003 1.0249687e-38
-0.010614292 -0.085621908 0.74300003 9.3374332e-39
-0.0091866786 -0.085506678 0.74199998 8.3211387e-39
-0.0077733723 -0.085506678 0.74199998 8.0495727e-39
-0.0063428544 -0.085276201 0.74000001 7.7636657e-39
-0.0049333381 -0.085276201 0.74000001 7.7726354e-39
-0.0035238252 -0.085276216 0.74000001 7.8569376e-39
-0.0021057287 -0.084930509 0.73699999 8.1410522e-39
-0.00070195645 -0.08493048 0.73699999 8.4118952e-39
0.00070187077 -0.084930494 0.73699999 7.6804384e-39
0.002102837 -0.084815264 0.73600006 7.0271895e-39
0.003504768 -0.084815249 0.73600006 7.5871722e-39
0.0049066432 -0.084815264 0.736 8.2235663e-39
0.0063085752 -0.084815264 0.73600006 6.5766272e-39
0.0077104494 -0.084815264 0.736 4.9257449e-39
0.0090875849 -0.084584773 0.73399997 6.3072262e-39
0.010485699 -0.084584787 0.73399997 7.7822666e-39
0.011883781 -0.084584773 0.73399997 1.2112817e-38
0.013245703 -0.084354296 0.73200005 1.6430412e-38
0.014619957 -0.084239066 0.73099995 1.5229627e-38
0.015968552 -0.084008574 0.72900003 1.4031827e-38
0.01735713 -0.084008589 0.72900003 1.4310926e-38
0.018719956 -0.083893329 0.72799999 1.4583564e-38
0.020134289 -0.084008589 0.72900003 1.4863016e-38
0.021522839 -0.084008589 0.72900003 1.5137445e-38
0.022911416 -0.084008589 0.72900003 1.5138161e-38
0.024366632 -0.084239066 0.73099995 1.5135308e-38
0.025970453 -0.08493048 0.73699999 1.5137476e-38
0.027374279 -0.08493048 0.73699999 1.5134267e-38
0.029207595 -0.086198121 0.74800003 1.5413739e-38
0.0307143 -0.086428583 0.75000006 1.5597728e-38
0.032142852 -0.086428583 0.75000006 1.5321821e-38
0.033705685 -0.08677429 0.75299996 1.5139585e-38
0.035280012 -0.087120011 0.75600004 1.513815e-38
0.036817152 -0.087350503 0.75800002 1.5137074e-38
0.038513307 -0.087926671 0.76299995 1.5505133e-38
0.040176187 -0.088387653 0.76699996 1.5872504e-38
0.041799992 -0.08873336 0.77000004 1.5321519e-38
0.043379061 -0.088963822 0.77200001 1.4860922e-38
0.045023829 -0.089309543 0.77499998 1.0421982e-38
0.046620011 -0.08954002 0.77699995 5.9768869e-39
0.048285715 -0.089885712 0.77999997 6.8173535e-39
0.050026648 -0.090346694 0.78400004 7.6510644e-39
-0.041148573 -0.085906684 0.75800002 1.0440542e-38
-0.039547592 -0.085566685 0.75500005 8.0477958e-39
-0.038109507 -0.085566685 0.75500005 5.5725436e-39
-0.036574297 -0.085340008 0.75299996 8.5180982e-39
-0.035139993 -0.085340023 0.75300002 1.1457193e-38
-0.033705726 -0.085340023 0.75300002 1.1089851e-38
-0.032228582 -0.08522667 0.75200003 1.0717481e-38
-0.030796211 -0.085226685 0.75200003 6.0256156e-39
-0.029285721 -0.085000008 0.75 1.3416466e-39
-0.027857136 -0.085000008 0.75000006 3.8237175e-39
-0.026428582 -0.085000023 0.75000006 6.2128753e-39
-0.025000002 -0.085000008 0.75 5.5635697e-39
-0.023508612 -0.084773347 0.74799997 4.9235911e-39
-0.022083819 -0.084773347 0.74800003 4.4626185e-39
-0.020659059 -0.084773347 0.74799997 3.911607e-39
-0.019208562 -0.084660038 0.74700004 3.6368179e-39
-0.017785722 -0.084660038 0.74700004 3.2698333e-39
-0.016319081 -0.084433332 0.745 4.0041585e-39
-0.014900005 -0.084433347 0.74500006 4.6488006e-39
-0.013480959 -0.084433347 0.745 6.0302805e-39
-0.012029511 -0.084206685 0.74300003 7.4074543e-39
-0.010614283 -0.084206685 0.74300003 5.8437411e-39
-0.0091867009 -0.084093347 0.74199998 4.1896232e-39
-0.0077733397 -0.084093332 0.74200004 3.7290094e-39
-0.006342859 -0.083866701 0.74000001 3.1776376e-39
-0.0049333428 -0.083866686 0.74000001 3.4538616e-39
-0.0035190615 -0.083753347 0.73899996 3.7293695e-39
-0.0021057464 -0.083526686 0.73699999 4.3736543e-39
-0.0007019192 -0.083526671 0.73699999 4.9250246e-39
0.00070187822 -0.083526671 0.73699999 3.4527854e-39
0.0021028426 -0.083413363 0.73600006 1.9827014e-39
0.0035047438 -0.083413333 0.736 4.1899847e-39
0.0049066488 -0.083413348 0.73600006 6.3029186e-39
0.00630855 -0.083413348 0.736 5.4774767e-39
0.0077104541 -0.083413348 0.73600006 4.6505985e-39
0.0090875803 -0.083186686 0.73399997 6.0310008e-39
0.010457131 -0.082960024 0.73200005 7.4177958e-39
0.011851426 -0.082960039 0.73200005 1.2025289e-38
0.013245691 -0.08296001 0.73200005 1.6521173e-38
0.014619967 -0.082846686 0.73099995 1.4951968e-38
0.01596858 -0.082620025 0.72900003 1.3298573e-38
0.01735713 -0.082620025 0.72899997 1.3298577e-38
0.018719954 -0.082506686 0.72799999 1.3298936e-38
0.020106638 -0.082506686 0.72799999 1.3299295e-38
0.021522868 -0.082620025 0.72900003 1.3299654e-38
0.022911418 -0.08262001 0.72900003 1.3391488e-38
0.02436664 -0.082846671 0.73099995 1.3482616e-38
0.025935201 -0.083413348 0.736 1.3390431e-38
0.027374262 -0.083526671 0.73699999 1.3298604e-38
0.029090475 -0.084433347 0.74500006 1.3298612e-38
0.03050952 -0.084433377 0.74500006 1.3298952e-38
0.032142863 -0.085000023 0.75000006 1.3297137e-38
0.033795249 -0.0855667 0.75500005 1.3207813e-38
0.035279997 -0.085680023 0.75599998 1.3391123e-38
0.036914267 -0.086133331 0.75999999 1.3483326e-38
0.038513325 -0.086473346 0.76299995 1.3665928e-38
0.040176194 -0.086926669 0.76699996 1.3851409e-38
0.041800011 -0.087266684 0.76999998 1.449571e-38
0.043379061 -0.087493345 0.77200001 1.503812e-38
0.045023818 -0.087833345 0.77499998 1.0335147e-38
0.046620008 -0.088060021 0.77699995 5.530614e-39
0.0482857 -0.088400021 0.77999997 6.5404162e-39
0.050026681 -0.088853359 0.78400004 7.4656067e-39
0.051782824 -0.089306697 0.78800005 7.6521686e-39
-0.041148555 -0.084462881 0.75800002 9.7987715e-39
-0.039600022 -0.084240019 0.75600004 7.9581127e-39
-0.038109526 -0.084128603 0.75500005 6.1217643e-39
-0.036671437 -0.084128588 0.75500005 8.7910936e-39
-0.035233349 -0.084128588 0.75500005 1.1548311e-38
-0.033705704 -0.083905727 0.75300002 1.1088775e-38
-0.032271434 -0.083905727 0.75300002 1.0627441e-38
-0.030796185 -0.083794311 0.75200003 7.4974947e-39
-0.029363811 -0.083794311 0.75200003 4.2782357e-39
-0.027857151 -0.083571449 0.75000006 7.5954384e-39
-0.026428569 -0.083571434 0.75000006 1.0999809e-38
-0.025000017 -0.083571449 0.75000006 9.3392367e-39
-0.023508582 -0.083348587 0.74799997 7.7755193e-39
-0.022083845 -0.083348587 0.74799997 6.5787852e-39
-0.020659056 -0.083348587 0.74800003 5.4756859e-39
-0.019208562 -0.083237156 0.74700004 4.925033e-39
-0.017785724 -0.083237156 0.74699998 4.4672891e-39
-0.016362855 -0.083237171 0.74700004 5.1087012e-39
-0.014900015 -0.083014324 0.74500006 5.8448229e-39
-0.013480968 -0.083014309 0.745 7.8716624e-39
-0.012061918 -0.083014324 0.74500006 9.8931167e-39
-0.010614274 -0.082791448 0.74300003 7.2237861e-39
-0.0091990465 -0.082791433 0.74300003 4.6498839e-39
-0.0077733374 -0.082680017 0.74199998 4.650244e-39
-0.0063600317 -0.082680002 0.74199998 4.5591246e-39
-0.0049333214 -0.082457155 0.74000001 4.6502398e-39
-0.0035238094 -0.08245714 0.74000001 4.8349898e-39
-0.0021057399 -0.082122877 0.73699999 6.5838131e-39
-0.00070193782 -0.082122877 0.73699999 8.4205216e-39
0.00070186052 -0.082122862 0.73699999 5.8448215e-39
0.0021056877 -0.082122877 0.73699999 3.3631121e-39
0.0035047494 -0.082011446 0.73600006 6.2143187e-39
0.0049066506 -0.082011446 0.736 9.1573593e-39
0.0063085565 -0.082011446 0.73600006 7.1323149e-39
0.0077104867 -0.082011461 0.73600006 5.1991032e-39
0.0091123637 -0.082011446 0.73600006 6.3054297e-39
0.010485687 -0.081788585 0.73399997 7.4138498e-39
0.011883774 -0.081788599 0.73399997 1.2020628e-38
0.013245701 -0.081565738 0.73199999 1.6706998e-38
0.014619949 -0.081454307 0.73099995 1.4863361e-38
0.01596855 -0.081231445 0.72900003 1.3115976e-38
0.01735713 -0.081231475 0.72900003 1.3299647e-38
0.018719979 -0.081120014 0.72799999 1.3575871e-38
0.020134259 -0.081231445 0.72900003 1.3483318e-38
0.021522839 -0.08123146 0.72900003 1.34826e-38
0.022911422 -0.08123146 0.72900003 1.3482959e-38
0.024366617 -0.081454292 0.73099995 1.3574797e-38
0.025935236 -0.082011446 0.73600006 1.3391129e-38
0.027448561 -0.082345739 0.73900002 1.3207815e-38
0.029090464 -0.083014309 0.74500006 1.3390766e-38
0.030509511 -0.083014309 0.74500006 1.3482244e-38
0.032142852 -0.083571449 0.75000006 1.3482244e-38
0.03379526 -0.084128603 0.75500005 1.3482243e-38
0.035373341 -0.084462896 0.75800002 1.3482959e-38
0.036914267 -0.084685713 0.75999999 1.3575169e-38
0.038614284 -0.085242882 0.76499999 1.3666661e-38
0.040176205 -0.085465744 0.76700002 1.3758502e-38
0.041637149 -0.085465744 0.76700002 1.4218042e-38
0.043266669 -0.085800007 0.77000004 1.4766903e-38
0.044849545 -0.086022869 0.77200001 1.03301e-38
0.046500027 -0.086357161 0.77500004 5.9739974e-39
0.048285708 -0.086914286 0.77999997 6.4460738e-39
0.050026655 -0.087360024 0.78400004 7.0085901e-39
0.051782846 -0.087805733 0.78800005 7.5603443e-39
0.053283792 -0.087805733 0.78799999 8.2028369e-39
0.054784745 -0.087805733 0.78800005 8.0191673e-39
-0.041039988 -0.082800031 0.75600004 9.1544867e-39
-0.039600007 -0.082800031 0.75600004 7.8634074e-39
-0.038109519 -0.082690507 0.75500005 6.5812991e-39
-0.03667143 -0.082690507 0.75500005 9.1595117e-39
-0.035233341 -0.082690507 0.75500005 1.1640146e-38
-0.03370573 -0.082471415 0.75299996 1.1089133e-38
-0.032271434 -0.08247143 0.75300002 1.053453e-38
-0.030796193 -0.082361907 0.75200003 8.8753901e-39
-0.02936382 -0.082361907 0.75200003 7.2280937e-39
-0.027931448 -0.082361907 0.75200003 1.146365e-38
-0.026428584 -0.08214286 0.75000006 1.5686289e-38
-0.025000006 -0.082142875 0.75 1.3201709e-38
-0.02357145 -0.08214286 0.75 1.0626008e-38
-0.022083841 -0.081923813 0.74799997 8.785351e-39
-0.02065905 -0.081923828 0.74800003 6.9475663e-39
-0.019234288 -0.081923828 0.74799997 6.3036416e-39
-0.017785726 -0.081814304 0.74699998 5.5685975e-39
-0.016362857 -0.081814319 0.74700004 6.3022039e-39
-0.014899998 -0.081595257 0.74500006 6.9497187e-39
-0.013480977 -0.081595272 0.745 9.6258639e-39
-0.012061901 -0.081595257 0.74500006 1.228084e-38
-0.010614266 -0.08137621 0.74300003 8.6913617e-39
-0.0091990381 -0.08137621 0.74300003 5.1097788e-39
-0.007783806 -0.08137621 0.74300003 5.570394e-39
-0.0063600284 -0.081266686 0.74199998 5.9370171e-39
-0.0049466677 -0.081266686 0.74199998 5.9359395e-39
-0.003523814 -0.081047639 0.74000001 5.8484102e-39
-0.0021114619 -0.080938116 0.73899996 8.8890275e-39
-0.00070192944 -0.080719069 0.73699999 1.1913858e-38
0.00070189778 -0.080719069 0.73699999 8.326175e-39
0.00210567 -0.080719069 0.73699999 4.6531138e-39
0.0035094982 -0.080719069 0.73699999 8.3308399e-39
0.0049066562 -0.080609545 0.73600006 1.1912065e-38
0.0063085631 -0.08060956 0.73600006 8.7871475e-39
0.0077104634 -0.080609545 0.73600006 5.6611505e-39
0.0091123702 -0.08060956 0.73600006 6.577709e-39
0.010485684 -0.080390513 0.73399997 7.4174413e-39
0.011851424 -0.080171451 0.73200005 1.2119287e-38
0.013245719 -0.080171451 0.73200005 1.6798479e-38
0.014619957 -0.080061927 0.73099995 1.4861926e-38
0.01596855 -0.07984288 0.72899997 1.2932663e-38
0.01735713 -0.079842895 0.72900003 1.33922e-38
0.018719973 -0.079733342 0.72800004 1.3759184e-38
0.020106655 -0.079733372 0.72800004 1.3759184e-38
0.021522839 -0.079842865 0.72899997 1.3666631e-38
0.02297426 -0.080061913 0.73099995 1.3666273e-38
0.024400011 -0.080171436 0.73200005 1.3574797e-38
0.025970452 -0.080719069 0.73700005 1.3391128e-38
0.027448554 -0.080938116 0.73899996 1.311562e-38
0.029012388 -0.08137621 0.74300003 1.3391125e-38
0.030632369 -0.081923842 0.74800003 1.3666631e-38
0.032142863 -0.082142889 0.75000006 1.3666631e-38
0.033839982 -0.082800031 0.75599998 1.3666631e-38
0.035466649 -0.08323811 0.75999999 1.366663e-38
0.036962867 -0.083347633 0.76100004 1.3666658e-38
0.038614284 -0.083785757 0.76499999 1.3666686e-38
0.040228568 -0.084114313 0.76800001 1.3667042e-38
0.0418 -0.084333345 0.77000004 1.403474e-38
0.043379039 -0.084552392 0.77199996 1.4394565e-38
0.044907622 -0.084661931 0.77300006 1.0428078e-38
0.046620004 -0.085100025 0.77700001 6.3585782e-39
0.048285693 -0.085428596 0.77999997 6.4453522e-39
0.050026655 -0.085866719 0.78400004 6.5454763e-39
0.051782839 -0.086304784 0.78800005 7.5607269e-39
0.053351417 -0.086414307 0.78899997 8.478356e-39
0.054854259 -0.086414307 0.78899997 8.2014061e-39
-0.041040007 -0.081359997 0.75599998 9.3406688e-39
-0.039547596 -0.081252426 0.75500005 8.0492293e-39
-0.038109511 -0.081252411 0.75500005 6.7621003e-39
-0.036671422 -0.081252411 0.75500005 9.4335833e-39
-0.035233334 -0.081252426 0.75500005 1.2099683e-38
-0.033795249 -0.081252411 0.75500005 1.1455399e-38
-0.032271463 -0.081037164 0.75299996 1.0902591e-38
-0.030837141 -0.081037149 0.75300002 1.0812189e-38
-0.029363826 -0.080929533 0.75200003 1.081506e-38
-0.027931424 -0.080929548 0.75200003 1.29323e-38
-0.026499052 -0.080929548 0.75200003 1.504918e-38
-0.025000019 -0.0807143 0.75000006 1.2836878e-38
-0.023571439 -0.08071427 0.75 1.0720715e-38
-0.022083838 -0.080499068 0.74799997 9.9831613e-39
-0.020659076 -0.080499053 0.74799997 9.246325e-39
-0.019234285 -0.080499068 0.74800003 7.4063851e-39
-0.017785724 -0.080391467 0.74700004 5.5689563e-39
-0.016362859 -0.080391452 0.74700004 6.0266974e-39
-0.014900007 -0.080176219 0.74500006 6.4851602e-39
-0.013480987 -0.080176204 0.745 9.2509885e-39
-0.012061911 -0.080176204 0.74500006 1.2005335e-38
-0.010614256 -0.079960972 0.74300003 8.5091257e-39
-0.0091990549 -0.079960972 0.74300003 5.1083453e-39
-0.0077838278 -0.079960957 0.74300003 5.5696765e-39
-0.0063599953 -0.079853341 0.74200004 5.9380947e-39
-0.0049466905 -0.079853341 0.74199998 5.6611519e-39
-0.0035238182 -0.079638109 0.74000001 5.4778411e-39
-0.0021114415 -0.079530492 0.73900002 8.5166633e-39
-0.00070194807 -0.07931526 0.73699999 1.1549746e-38
0.00070187915 -0.079315275 0.73699999 8.0524621e-39
0.0021056775 -0.07931526 0.73699999 4.6527565e-39
0.0035095047 -0.07931526 0.73699999 8.0542572e-39
0.0049066609 -0.079207629 0.73600006 1.1546876e-38
0.0063085631 -0.079207614 0.736 8.5119997e-39
0.007710468 -0.079207644 0.73600006 5.478197e-39
0.0090875961 -0.078992397 0.73400003 6.4901783e-39
0.01048568 -0.078992397 0.73399997 7.5078461e-39
0.01185141 -0.078777164 0.73200005 1.2390137e-38
0.013227596 -0.078669533 0.73099995 1.7260529e-38
0.014619969 -0.078669548 0.73100001 1.5231779e-38
0.01596858 -0.078454316 0.72900003 1.3115976e-38
0.017357159 -0.078454301 0.72900003 1.3391482e-38
0.018719997 -0.078346685 0.72800004 1.3666631e-38
0.020106625 -0.07834667 0.72799999 1.3758827e-38
0.021522868 -0.078454301 0.72900003 1.3850304e-38
0.022974268 -0.078669548 0.73099995 1.3758468e-38
0.024399992 -0.078777164 0.73200005 1.3666633e-38
0.025935214 -0.079207629 0.736 1.3574797e-38
0.027448572 -0.079530492 0.73900002 1.3482602e-38
0.028973328 -0.079853356 0.74200004 1.3574794e-38
0.03059141 -0.080391467 0.74700004 1.3759183e-38
0.032142848 -0.080714315 0.75000006 1.3758824e-38
0.033929527 -0.081575245 0.75800002 1.385066e-38
0.035513356 -0.081898123 0.76100004 1.3758465e-38
0.037060011 -0.08211334 0.76299995 1.3758506e-38
0.03871524 -0.082543835 0.76699996 1.366671e-38
0.040228575 -0.082651436 0.76800001 1.3574864e-38
0.041799992 -0.082866669 0.77000004 1.3850718e-38
0.043379072 -0.083081916 0.77200001 1.42163e-38
0.044849552 -0.083081931 0.77200001 1.0331621e-38
0.046500005 -0.083404779 0.77500004 6.4443348e-39
0.048409529 -0.084158093 0.78200006 6.7244418e-39
0.050281879 -0.084803835 0.78799999 7.0039462e-39
0.051782854 -0.08480382 0.78800005 7.5585983e-39
0.053351387 -0.084911451 0.78899997 8.2035796e-39
0.054854259 -0.084911436 0.78900003 8.1102895e-39
-0.041039992 -0.079920024 0.75600004 9.430712e-39
-0.039600011 -0.079920024 0.75600004 8.2303906e-39
-0.03816 -0.079920024 0.75599998 6.9490012e-39
-0.036671441 -0.079814315 0.75500005 9.7123184e-39
-0.035233326 -0.0798143 0.75500005 1.2466666e-38
-0.033795241 -0.0798143 0.755 1.1822022e-38
-0.032271437 -0.079602852 0.75299996 1.1180609e-38
-0.030837171 -0.079602852 0.75299996 1.2839387e-38
-0.029402845 -0.079602852 0.75300002 1.4400233e-38
-0.027931429 -0.079497173 0.75200003 1.440131e-38
-0.026499059 -0.079497159 0.75200003 1.4400951e-38
-0.025000006 -0.079285741 0.75 1.255886e-38
-0.023571424 -0.079285726 0.75000006 1.0721433e-38
-0.022083834 -0.079074308 0.74800003 1.1088775e-38
-0.020631433 -0.078968585 0.74699998 1.1451452e-38
-0.019208563 -0.078968585 0.74700004 8.5069747e-39
-0.017785724 -0.078968585 0.74700004 5.4764033e-39
-0.016319066 -0.078757167 0.745 5.7508336e-39
-0.014900017 -0.078757167 0.74500006 6.0295701e-39
-0.013480971 -0.078757152 0.745 8.8872338e-39
-0.012061894 -0.078757182 0.74500006 1.1636916e-38
-0.010642874 -0.078757167 0.74500006 8.4147819e-39
-0.0091990465 -0.078545734 0.74300003 5.1094215e-39
-0.007783819 -0.078545734 0.74300003 5.5696765e-39
-0.0063685607 -0.078545734 0.74300003 5.9370171e-39
-0.0049466877 -0.078440011 0.74199998 5.4767635e-39
-0.0035238233 -0.078228593 0.74000001 5.0204558e-39
-0.0021114536 -0.078122869 0.73899996 8.1500387e-39
-0.00070191082 -0.077911451 0.73700005 1.1178098e-38
0.0007018866 -0.077911437 0.73699999 7.8641248e-39
0.0021056887 -0.077911451 0.73700005 4.5602022e-39
0.0035047624 -0.077805728 0.73600006 7.8702275e-39
0.0049066395 -0.077805743 0.73600006 1.1085187e-38
0.0063085696 -0.077805743 0.73600006 8.1439403e-39
0.0076894788 -0.07759431 0.73399997 5.2030492e-39
0.0090875905 -0.077594295 0.73399997 6.3965477e-39
0.010457158 -0.077382892 0.73200005 7.5100083e-39
0.011851422 -0.077382863 0.73200005 1.267284e-38
0.013227607 -0.077277154 0.73099995 1.7719e-38
0.014619975 -0.077277154 0.73099995 1.5505133e-38
0.015968552 -0.077065721 0.72900003 1.3300007e-38
0.017357131 -0.077065736 0.72900003 1.3390407e-38
0.018719964 -0.076959997 0.72799999 1.3482602e-38
0.020106647 -0.076960027 0.72799999 1.3758826e-38
0.021522839 -0.077065736 0.72900003 1.3942138e-38
0.022974247 -0.077277154 0.73099995 1.3849944e-38
0.024399979 -0.077382863 0.73200005 1.3665918e-38
0.025864715 -0.077594295 0.73399997 1.3758118e-38
0.027597148 -0.078545749 0.74300003 1.3758112e-38
0.029090488 -0.078757167 0.74500006 1.3850301e-38
0.030591412 -0.078968585 0.74700004 1.3850302e-38
0.032142859 -0.079285726 0.75000006 1.3942141e-38
0.033929519 -0.080131456 0.75800002 1.3941779e-38
0.035513334 -0.080448568 0.76100004 1.3849583e-38
0.037157126 -0.080871433 0.76499999 1.375814e-38
0.038715221 -0.081082866 0.76699996 1.3575219e-38
0.040228561 -0.081188589 0.76799995 1.3391904e-38
0.041800015 -0.081400007 0.76999998 1.3668484e-38
0.043379072 -0.081611425 0.77200001 1.3932168e-38
0.044849552 -0.081611454 0.77200001 1.0237241e-38
0.046619996 -0.082140014 0.77699995 6.547291e-39
0.048409522 -0.082668573 0.78200001 7.0039293e-39
0.050281897 -0.08330287 0.78799999 7.3727343e-39
0.051848538 -0.083408579 0.78899997 7.6489863e-39
0.05335141 -0.083408579 0.78900003 7.9262668e-39
0.054854251 -0.083408594 0.78899997 8.0180841e-39
-0.041039981 -0.07848002 0.75600004 8.788581e-39
-0.039599996 -0.078480005 0.75600004 7.8655611e-39
-0.038160015 -0.078480035 0.75600004 6.9479251e-39
-0.036671434 -0.078376219 0.75500005 9.5257775e-39
-0.035233345 -0.078376204 0.75500005 1.2099681e-38
-0.033795234 -0.078376204 0.755 1.1547232e-38
-0.032271441 -0.078168571 0.75299996 1.1087338e-38
-0.030837171 -0.078168586 0.75299996 1.2745401e-38
-0.029402848 -0.078168571 0.75300002 1.4401668e-38
-0.027931437 -0.078064784 0.75200003 1.4400951e-38
-0.026499065 -0.078064784 0.75200003 1.449171e-38
-0.025000021 -0.077857167 0.75 1.2651412e-38
-0.023571411 -0.077857152 0.75000006 1.0813268e-38
-0.02208383 -0.077649534 0.74800003 1.1271728e-38
-0.020659067 -0.077649549 0.74799997 1.1636916e-38
-0.019208565 -0.077545732 0.74700004 8.6927967e-39
-0.017785726 -0.077545732 0.74700004 5.7519098e-39
-0.016362887 -0.077545732 0.74699998 5.9348633e-39
-0.014939992 -0.077545732 0.74700004 6.1178183e-39
-0.01348098 -0.077338129 0.745 8.7896586e-39
-0.012061903 -0.077338114 0.74500006 1.1454323e-38
-0.010642883 -0.077338129 0.74500006 8.3261764e-39
-0.0092238374 -0.077338099 0.745 5.2941701e-39
-0.0077838101 -0.077130482 0.74300003 5.4778411e-39
-0.0063685817 -0.077130482 0.74300003 5.7533461e-39
-0.0049466803 -0.07702668 0.74200004 5.4767621e-39
-0.0035238285 -0.076819077 0.74000001 5.1090627e-39
-0.002111434 -0.076715246 0.73900002 8.1478864e-39
-0.00070192944 -0.076507628 0.73700005 1.1271367e-38
0.00070186798 -0.076507628 0.73699999 8.0503041e-39
0.0021056961 -0.076507628 0.73699999 4.8324786e-39
0.0035047382 -0.076403826 0.736 7.9609868e-39
0.0049066702 -0.076403826 0.73600006 1.1177382e-38
0.0063085463 -0.076403826 0.736 8.5112823e-39
0.0077104513 -0.076403841 0.73600006 5.9362969e-39
0.009087584 -0.076196194 0.73399997 6.6724116e-39
0.010485697 -0.076196194 0.73399997 7.5035623e-39
0.011851438 -0.075988606 0.73200005 1.2664971e-38
0.013227586 -0.075884759 0.73099995 1.790627e-38
0.014619984 -0.075884774 0.73099995 1.6152287e-38
0.01596858 -0.075677171 0.72900003 1.4310915e-38
0.01735713 -0.075677156 0.72899997 1.4310557e-38
0.018745709 -0.075677156 0.72900003 1.4308045e-38
0.020134289 -0.075677156 0.72900003 1.4124731e-38
0.021581862 -0.075884759 0.73099995 1.3941778e-38
0.022974264 -0.075884774 0.73099995 1.3573359e-38
0.024399998 -0.075988591 0.73200005 1.3297504e-38
0.025864739 -0.076196209 0.73399997 1.3205318e-38
0.027448548 -0.076715261 0.73899996 1.3206386e-38
0.028973311 -0.077026695 0.74199998 1.3205659e-38
0.03059141 -0.077545717 0.74699998 1.3298216e-38
0.03205711 -0.077649534 0.74799997 1.3390054e-38
0.033795264 -0.078376219 0.75500005 1.3482246e-38
0.035466656 -0.078895256 0.75999999 1.3757389e-38
0.037254285 -0.079621941 0.76700002 1.4032922e-38
0.038715258 -0.079621941 0.76700002 1.4309171e-38
0.040228572 -0.079725727 0.76799995 1.4676876e-38
0.041800007 -0.07993333 0.76999998 1.4307745e-38
0.043379046 -0.080140963 0.77200001 1.3933587e-38
0.044849526 -0.080140978 0.77200001 1.0236848e-38
0.046619996 -0.080660015 0.77699995 6.5437037e-39
0.048409544 -0.081179053 0.78200006 7.0961572e-39
0.050154258 -0.081594288 0.78599995 7.7418811e-39
0.051782839 -0.081801906 0.78799999 8.0181093e-39
0.053351406 -0.081905723 0.78899997 8.2928801e-39
0.054993339 -0.082113355 0.79100001 8.2017425e-39
-0.042480007 -0.077040002 0.75600004 7.5043204e-39
-0.041040022 -0.077040032 0.75600004 8.1439389e-39
-0.039600015 -0.077040017 0.75599998 7.495708e-39
-0.03816003 -0.077040017 0.75599998 6.8564483e-39
-0.036720023 -0.077040032 0.75599998 9.2513472e-39
-0.035280008 -0.077040032 0.75600004 1.1639786e-38
-0.033795252 -0.076938123 0.755 1.1271009e-38
-0.032357134 -0.076938137 0.75500005 1.0904744e-38
-0.030837145 -0.076734304 0.75299996 1.2653207e-38
-0.029402876 -0.07673429 0.75299996 1.4309115e-38
-0.027931442 -0.076632395 0.75200003 1.4400592e-38
-0.02649907 -0.076632395 0.75199997 1.4491352e-38
-0.02500001 -0.076428592 0.75 1.2741814e-38
-0.023571424 -0.076428592 0.75000006 1.0904386e-38
-0.022083854 -0.076224759 0.74799997 1.136464e-38
-0.020631433 -0.07612288 0.74700004 1.1820587e-38
-0.019208567 -0.07612288 0.74700004 8.9665109e-39
-0.017785728 -0.076122895 0.74699998 6.0270576e-39
-0.016362861 -0.07612288 0.74700004 6.1188931e-39
-0.014939994 -0.076122865 0.74700004 6.2128824e-39
-0.013480963 -0.075919062 0.745 8.7910936e-39
-0.012061913 -0.075919077 0.74500006 1.12685e-38
-0.010642867 -0.075919062 0.745 8.3251002e-39
-0.0092238467 -0.075919077 0.745 5.3860056e-39
-0.0077838013 -0.075715244 0.74300003 5.4778411e-39
-0.0063685733 -0.075715259 0.74300003 5.5693164e-39
-0.0049466775 -0.075613335 0.74200004 5.3838504e-39
-0.0035333466 -0.07561332 0.74199998 5.2041268e-39
-0.0021114452 -0.075307623 0.73899996 8.2447441e-39
-0.00070192199 -0.075103819 0.73699999 1.1270651e-38
0.00070187636 -0.075103819 0.73699999 8.2329017e-39
0.0021056794 -0.075103819 0.73699999 5.1115739e-39
0.0035047438 -0.07500191 0.73600006 8.1478864e-39
0.004906645 -0.075001925 0.736 1.1178099e-38
0.0063085509 -0.075001925 0.73600006 8.8793417e-39
0.007710482 -0.07500191 0.73600006 6.5795041e-39
0.0090876091 -0.074798122 0.73399997 7.0365264e-39
0.010485666 -0.074798092 0.73399997 7.4145995e-39
0.011851425 -0.074594319 0.73200005 1.2760759e-38
0.013227598 -0.074492395 0.73099995 1.8086032e-38
0.014619966 -0.074492395 0.73099995 1.670301e-38
0.015968554 -0.074288592 0.72900003 1.5324411e-38
0.017357133 -0.074288592 0.72900003 1.5233304e-38
0.018745683 -0.074288592 0.72899997 1.5137876e-38
0.020134263 -0.074288607 0.72900003 1.4490358e-38
0.021581873 -0.074492395 0.73099995 1.3849279e-38
0.022974271 -0.074492395 0.73099995 1.3387567e-38
0.024400011 -0.074594319 0.73200005 1.2837619e-38
0.025759012 -0.07449238 0.73099995 1.2743262e-38
0.02744857 -0.075307637 0.73900002 1.2653574e-38
0.029012395 -0.075715244 0.74300003 1.2651417e-38
0.030632356 -0.076224774 0.74800003 1.2654651e-38
0.032142859 -0.076428592 0.75000006 1.2837968e-38
0.033795241 -0.076938123 0.75500005 1.3022737e-38
0.035466634 -0.077447623 0.75999999 1.366525e-38
0.037157148 -0.077957168 0.76500005 1.421734e-38
0.03871524 -0.078160986 0.76700002 1.5135698e-38
0.040228557 -0.078262866 0.76799995 1.5962942e-38
0.0418 -0.078466684 0.76999998 1.4952398e-38
0.04337908 -0.078670487 0.77200001 1.3925712e-38
0.04484953 -0.078670487 0.77200001 1.0232566e-38
0.046740025 -0.07938385 0.77900004 6.547654e-39
0.048409533 -0.079689518 0.78200006 7.2783793e-39
0.050281882 -0.080300972 0.78800005 8.0177281e-39
0.051848531 -0.080402866 0.78899997 8.3890176e-39
0.053351402 -0.080402881 0.78900003 8.6620031e-39
0.054993317 -0.080606669 0.79099995 8.3854106e-39
-0.042479996 -0.075599998 0.75600004 7.5018093e-39
-0.041039985 -0.075600028 0.75600004 8.4198041e-39
-0.0396 -0.075600013 0.75600004 7.3138293e-39
-0.038160019 -0.075600028 0.75600004 6.1188945e-39
-0.036720008 -0.075600013 0.75599998 8.9733296e-39
-0.035280026 -0.075599998 0.75599998 1.1824176e-38
-0.033795245 -0.075500011 0.755 1.163871e-38
-0.032357126 -0.075500011 0.75500005 1.1362129e-38
-0.030837147 -0.075300008 0.75300002 1.2746836e-38
-0.029402878 -0.075300008 0.75300002 1.4127956e-38
-0.027931418 -0.075200021 0.75200003 1.403325e-38
-0.026499048 -0.075200021 0.75200003 1.4034685e-38
-0.025000023 -0.075000018 0.75 1.2374113e-38
-0.023571413 -0.075000018 0.75000006 1.0718204e-38
-0.022083849 -0.074800014 0.74799997 1.1363922e-38
-0.020659059 -0.074800029 0.74800003 1.2007846e-38
-0.019208593 -0.074700013 0.74700004 8.8768278e-39
-0.0177857 -0.074700043 0.74700004 5.8426691e-39
-0.016362861 -0.074700028 0.74700004 6.1188931e-39
-0.014940021 -0.074700013 0.74700004 6.3951184e-39
-0.013480972 -0.074500024 0.745 8.9736884e-39
-0.012061896 -0.074500024 0.74500006 1.1544724e-38
-0.010642876 -0.074500024 0.745 8.4183706e-39
-0.0091990493 -0.074300036 0.74300003 5.2941701e-39
-0.0077837924 -0.074300021 0.74300003 5.5696765e-39
-0.006368564 -0.074300021 0.74300003 5.8455404e-39
-0.0049466742 -0.074199989 0.74199998 5.4771194e-39
-0.0035333694 -0.074200004 0.74199998 5.1090627e-39
-0.0021114554 -0.073899999 0.73899996 8.2390044e-39
-0.00070193969 -0.073699996 0.73699999 1.1364281e-38
0.00070188846 -0.073700026 0.73699999 9.7987715e-39
0.0021056859 -0.073700011 0.73699999 8.1414292e-39
0.003509514 -0.073700011 0.73699999 9.7087311e-39
0.0049066506 -0.073600009 0.73600006 1.1181686e-38
0.0063085575 -0.073600024 0.73600006 8.5112809e-39
0.0077104587 -0.073600009 0.73600006 5.8430264e-39
0.0090875765 -0.073400021 0.73399997 6.7617373e-39
0.010485691 -0.073400021 0.73399997 7.7754885e-39
0.011851436 -0.073200002 0.73200005 1.3761988e-38
0.013245732 -0.073200017 0.73200005 1.9830586e-38
0.014619976 -0.073100016 0.73099995 1.8080968e-38
0.016012348 -0.07310003 0.73099995 1.6335396e-38
0.017404716 -0.07310003 0.73099995 1.642761e-38
0.018745711 -0.072900042 0.72900003 1.661199e-38
0.020134289 -0.072900027 0.72900003 1.6518351e-38
0.021581884 -0.07310003 0.73100001 1.6424674e-38
0.0230057 -0.073200017 0.73200005 1.6607937e-38
0.024399996 -0.073200017 0.73200005 1.6789785e-38
0.025935233 -0.073600009 0.73600006 1.6883383e-38
0.027485719 -0.074000016 0.74000001 1.697199e-38
0.029012403 -0.074300006 0.74300003 1.6698636e-38
0.030591436 -0.074700028 0.74700004 1.6422061e-38
0.032271437 -0.075300023 0.75300002 1.6424219e-38
0.033795252 -0.075500041 0.75500005 1.6513591e-38
0.035466637 -0.076000005 0.75999999 1.5872583e-38
0.037059993 -0.076299995 0.76299995 1.5321549e-38
0.038715243 -0.076700017 0.76699996 1.5778195e-38
0.040228568 -0.076800019 0.76799995 1.6239533e-38
0.041799992 -0.077000007 0.76999998 1.5035635e-38
0.04337908 -0.07720001 0.77200001 1.382923e-38
0.045023821 -0.077500045 0.77500004 1.0414824e-38
0.046799995 -0.078000009 0.77999997 6.9117716e-39
0.048409525 -0.078199998 0.78200006 7.4652648e-39
0.050281905 -0.078800008 0.78800005 8.0187861e-39
0.051848557 -0.078899994 0.78899997 7.7418419e-39
0.05348663 -0.079100013 0.79099995 7.4684878e-39
-0.042480011 -0.074159995 0.75599998 7.5032442e-39
-0.041040026 -0.074159995 0.75599998 8.694233e-39
-0.039600015 -0.07416001 0.75599998 7.0376054e-39
-0.038160004 -0.07416001 0.75600004 5.3860028e-39
-0.036719993 -0.07416001 0.75600004 8.6981819e-39
-0.035280012 -0.07416001 0.75600004 1.2006771e-38
-0.033840001 -0.07416001 0.75600004 1.19135e-38
-0.032357119 -0.07406193 0.75500005 1.1824535e-38
-0.030837145 -0.073865741 0.75300002 1.2936247e-38
-0.029402876 -0.073865727 0.75300002 1.3939621e-38
-0.027931426 -0.073767632 0.75200003 1.3753439e-38
-0.026499053 -0.073767632 0.75200003 1.3477215e-38
-0.02500001 -0.073571429 0.75 1.2001747e-38
-0.023571428 -0.073571429 0.75000006 1.0443415e-38
-0.022142848 -0.073571444 0.75000006 1.1273522e-38
-0.020659084 -0.07337524 0.74799997 1.209753e-38
-0.019234294 -0.07337524 0.74800003 8.8736006e-39
-0.017785702 -0.073277175 0.74700004 5.5675213e-39
-0.016362863 -0.073277161 0.74700004 6.1188917e-39
-0.014900002 -0.073080987 0.745 6.582018e-39
-0.013480982 -0.073080972 0.745 9.1634578e-39
-0.012061905 -0.073080972 0.74500006 1.1730188e-38
-0.010614268 -0.072884783 0.74300003 8.4172944e-39
-0.0091990409 -0.072884768 0.74300003 5.1101403e-39
-0.0077838134 -0.072884768 0.74300003 5.5689591e-39
-0.0063600033 -0.072786674 0.74200004 6.0284939e-39
-0.0049466975 -0.072786689 0.74199998 5.4774795e-39
-0.0035333368 -0.072786689 0.74200004 4.9264679e-39
-0.0021114349 -0.072492376 0.73899996 8.2372107e-39
-0.00070384424 -0.072492391 0.73899996 1.1455758e-38
0.00070189591 -0.072296202 0.73699999 1.136464e-38
0.0021056673 -0.072296187 0.73699999 1.1178458e-38
0.0035094954 -0.072296187 0.73699999 1.118061e-38
0.0049133217 -0.072296202 0.73700005 1.1178098e-38
0.0063085584 -0.072198108 0.736 8.1414264e-39
0.0077209473 -0.072296202 0.73699999 5.1086998e-39
0.0091123655 -0.072198108 0.736 6.5759139e-39
0.010485683 -0.072001919 0.73399997 8.0542264e-39
0.011883796 -0.072001934 0.73399997 1.4773261e-38
0.013245718 -0.07180573 0.73200005 2.1479338e-38
0.014619986 -0.071707636 0.73099995 1.9362392e-38
0.016012352 -0.071707621 0.73099995 1.7251975e-38
0.017404724 -0.071707636 0.73099995 1.7713311e-38
0.018797122 -0.071707621 0.73099995 1.808174e-38
0.02018949 -0.071707606 0.73099995 1.8546669e-38
0.021581862 -0.071707621 0.73099995 1.9001181e-38
0.023005687 -0.071805716 0.73200005 1.9829493e-38
0.024466638 -0.072001934 0.73399997 2.0656719e-38
0.025935212 -0.072198108 0.736 2.093652e-38
0.027448576 -0.072492406 0.73900002 2.120772e-38
0.029012378 -0.072884783 0.74300003 2.0657784e-38
0.030509522 -0.073080987 0.745 2.0105324e-38
0.032357171 -0.074061945 0.75500005 2.001563e-38
0.033839975 -0.074160025 0.75599998 1.9918421e-38
0.035466637 -0.074552387 0.75999999 1.8173552e-38
0.037059985 -0.074846685 0.76299995 1.6325339e-38
0.038614299 -0.075042889 0.76500005 1.6416433e-38
0.040228579 -0.075337157 0.76799995 1.6411771e-38
0.041908577 -0.075729534 0.77200001 1.5121054e-38
0.043435231 -0.075827613 0.773 1.3731667e-38
0.045140006 -0.076220021 0.77700001 1.0501982e-38
0.046920002 -0.076710477 0.78200006 7.2834141e-39
0.048533328 -0.076906681 0.78400004 7.6521714e-39
0.050281897 -0.077299058 0.78800005 7.9251668e-39
0.051848523 -0.077397168 0.78899997 7.0907552e-39
0.053486638 -0.077593341 0.79099995 6.1795679e-39
-0.042479996 -0.072720006 0.75600004 7.2263028e-39
-0.041040014 -0.072720021 0.75600004 8.7860685e-39
-0.039600004 -0.072720021 0.75599998 7.2216337e-39
-0.038160019 -0.072720006 0.75599998 5.7497574e-39
-0.036720011 -0.072720021 0.75599998 8.9740471e-39
-0.035279997 -0.072720036 0.75600004 1.2285506e-38
-0.033795256 -0.072623819 0.755 1.200713e-38
-0.032357138 -0.072623819 0.75500005 1.1821306e-38
-0.030837147 -0.07243143 0.75300002 1.2651054e-38
-0.029402852 -0.07243143 0.75300002 1.337964e-38
-0.027931431 -0.072335258 0.75200003 1.3569409e-38
-0.026499059 -0.072335258 0.75200003 1.3659808e-38
-0.025000025 -0.072142869 0.75 1.2003898e-38
-0.023571417 -0.072142869 0.75000006 1.0442696e-38
-0.022142861 -0.072142869 0.75000006 1.1088775e-38
-0.02065908 -0.071950495 0.74799997 1.1826687e-38
-0.019234288 -0.071950495 0.74800003 8.6945945e-39
-0.017785728 -0.071854308 0.74700004 5.4760446e-39
-0.016362865 -0.071854293 0.74699998 5.935578e-39
-0.014900011 -0.071661919 0.74500006 6.3958345e-39
-0.013480965 -0.071661919 0.745 9.1605879e-39
-0.012061915 -0.071661919 0.74500006 1.182597e-38
-0.01061429 -0.07146953 0.74300003 8.4190881e-39
-0.0091990316 -0.071469545 0.74300003 5.0172286e-39
-0.0077838041 -0.07146956 0.74300003 5.4771236e-39
-0.0063685733 -0.071469545 0.74300003 6.0284939e-39
-0.0049466938 -0.071373329 0.74199998 5.4760446e-39
-0.0035333331 -0.071373358 0.74199998 5.0139986e-39
-0.0021114461 -0.071084768 0.73899996 8.2382869e-39
-0.00070382562 -0.071084768 0.73900002 1.1459345e-38
0.00070187729 -0.070892394 0.73699999 1.0997657e-38
0.0021057045 -0.070892394 0.73699999 1.062888e-38
0.0035095029 -0.070892379 0.73699999 1.0902951e-38
0.0049066581 -0.070796207 0.736 1.1177379e-38
0.0063085649 -0.070796221 0.73600006 8.0503055e-39
0.0077209296 -0.070892394 0.73699999 4.9250288e-39
0.0090875952 -0.070603848 0.73399997 6.6702606e-39
0.010485707 -0.070603833 0.73399997 8.3265071e-39
0.011851411 -0.070411444 0.73200005 1.4955142e-38
0.013245706 -0.070411444 0.73200005 2.166518e-38
0.014619966 -0.070315257 0.73099995 2.0097466e-38
0.016012363 -0.070315242 0.73099995 1.8626655e-38
0.017404737 -0.070315257 0.73100001 1.8903588e-38
0.018797103 -0.070315242 0.73099995 1.9179844e-38
0.020189501 -0.070315242 0.73099995 1.9366416e-38
0.021611435 -0.070411444 0.73200005 1.9550492e-38
0.023068525 -0.070603818 0.73399997 2.028809e-38
0.024466636 -0.070603848 0.73399997 2.1121794e-38
0.025935216 -0.070796192 0.73600006 2.1396592e-38
0.027374262 -0.070892394 0.73700005 2.1764651e-38
0.028973326 -0.071373329 0.74199998 2.1210767e-38
0.030509511 -0.071661934 0.745 2.0662596e-38
0.032400005 -0.072720021 0.75600004 2.0013978e-38
0.034019023 -0.073104784 0.75999999 1.9276389e-38
0.035513319 -0.073200956 0.76100004 1.7238037e-38
0.03706 -0.073393345 0.76299995 1.520615e-38
0.038614299 -0.073585734 0.76500005 1.5760004e-38
0.040228568 -0.073874295 0.76800001 1.6308143e-38
0.041962862 -0.07435526 0.773 1.5116071e-38
0.043435238 -0.074355245 0.773 1.3821721e-38
0.045140002 -0.074740022 0.77699995 1.0505913e-38
0.046799988 -0.075028569 0.77999997 7.1901395e-39
0.048409536 -0.075220957 0.78200006 7.4656362e-39
0.05028189 -0.075798109 0.78799999 7.8365697e-39
0.051848549 -0.075894311 0.78900003 7.2819722e-39
-0.042479984 -0.071280032 0.75600004 6.8625481e-39
-0.04104 -0.071280017 0.75600004 8.786786e-39
-0.039599992 -0.071280003 0.75600004 7.4964227e-39
-0.038160007 -0.071280017 0.75600004 6.1214042e-39
-0.03672 -0.071280003 0.75600004 9.3467701e-39
-0.035280015 -0.071280003 0.75600004 1.2468459e-38
-0.033795219 -0.071185738 0.75500005 1.2192236e-38
-0.03235713 -0.071185738 0.75500005 1.1823817e-38
-0.030837148 -0.070997164 0.75299996 1.237483e-38
-0.029402852 -0.070997149 0.75300002 1.2834725e-38
-0.027931437 -0.070902869 0.75200003 1.3392195e-38
-0.026499065 -0.070902869 0.75200003 1.3844914e-38
-0.025066663 -0.070902869 0.75200003 1.2094659e-38
-0.02357143 -0.070714295 0.75000006 1.0351219e-38
-0.02214285 -0.07071428 0.75000006 1.0995145e-38
-0.020714298 -0.070714295 0.75000006 1.15458e-38
-0.019234315 -0.070525736 0.74799997 8.5094886e-39
-0.017809525 -0.070525721 0.74800003 5.3849266e-39
-0.016362892 -0.070431441 0.74699998 5.843025e-39
-0.014939996 -0.070431441 0.74700004 6.2150333e-39
-0.013480974 -0.070242867 0.745 9.0730572e-39
-0.012061899 -0.070242867 0.74500006 1.19135e-38
-0.010614281 -0.070054308 0.74300003 8.4162168e-39
-0.0091990223 -0.070054293 0.74300003 4.8342751e-39
-0.0077838213 -0.070054293 0.74300003 5.3860056e-39
-0.0063685644 -0.070054308 0.74300003 5.9362997e-39
-0.0049533364 -0.070054308 0.74300003 5.4753285e-39
-0.0035238257 -0.069771454 0.74000001 5.0186622e-39
-0.0021114266 -0.069677159 0.73900002 8.2425917e-39
-0.00070191268 -0.069488585 0.73699999 1.1365357e-38
0.00070185959 -0.0694886 0.73699999 1.0720715e-38
0.0021056868 -0.069488585 0.73699999 9.9842375e-39
0.0035094852 -0.06948857 0.73699999 1.0532739e-38
0.0049066646 -0.069394305 0.73600006 1.1083751e-38
0.0063085416 -0.06939429 0.736 7.9577554e-39
0.0077104717 -0.069394305 0.73600006 4.7420753e-39
0.0091123786 -0.069394305 0.73600006 6.6695431e-39
0.010485674 -0.069205731 0.73399997 8.6077547e-39
0.011883787 -0.069205731 0.73400003 1.5238904e-38
0.013245715 -0.069017157 0.73200005 2.1753791e-38
0.014619978 -0.068922877 0.73099995 2.0826775e-38
0.016012374 -0.068922877 0.73099995 1.9909852e-38
0.017404716 -0.068922877 0.73099995 2.0094955e-38
0.018797114 -0.068922877 0.73099995 2.0188251e-38
0.020189513 -0.068922862 0.73099995 2.0096083e-38
0.021611419 -0.069017157 0.73200005 2.0006062e-38
0.023005713 -0.069017172 0.73200005 2.0834395e-38
0.024466632 -0.069205731 0.73399997 2.1573402e-38
0.025864746 -0.069205731 0.73399997 2.1946859e-38
0.027374266 -0.06948857 0.73699999 2.2216623e-38
0.028856177 -0.069677159 0.73899996 2.175816e-38
0.030427601 -0.070054308 0.74300003 2.1204608e-38
0.03239999 -0.071279988 0.75599998 1.9917091e-38
0.034019023 -0.071657136 0.75999999 1.8614115e-38
0.035513327 -0.07175146 0.76100004 1.6388121e-38
0.037059989 -0.071940005 0.76299995 1.4096901e-38
0.038614295 -0.072128594 0.76500005 1.5201084e-38
0.040228579 -0.072411463 0.76800001 1.6217376e-38
0.041908581 -0.072788596 0.77200001 1.512181e-38
0.043435246 -0.072882876 0.77300006 1.3917863e-38
0.045139998 -0.073259994 0.77699995 1.0510225e-38
0.046740025 -0.073448583 0.77900004 7.0064587e-39
0.048409529 -0.073731422 0.78200006 7.3676756e-39
0.050281882 -0.07429716 0.78799999 7.7418405e-39
0.051848546 -0.074391425 0.78899997 7.560689e-39
-0.042479999 -0.069840014 0.75599998 7.3181383e-39
-0.041148588 -0.070024788 0.75800002 8.9708157e-39
-0.039704759 -0.070024759 0.75799996 7.3134678e-39
-0.038260955 -0.070024773 0.75799996 5.6575632e-39
-0.036719985 -0.069840014 0.75600004 8.8822116e-39
-0.035280004 -0.069840029 0.75600004 1.2192594e-38
-0.033840016 -0.069840029 0.75600004 1.2008206e-38
-0.032357123 -0.069747657 0.75500005 1.1917446e-38
-0.030837152 -0.069562867 0.75299996 1.2375907e-38
-0.029402882 -0.069562882 0.75299996 1.2834725e-38
-0.027931444 -0.069470495 0.75200003 1.3295696e-38
-0.02649904 -0.06947051 0.75200003 1.3753798e-38
-0.025066668 -0.069470495 0.75200003 1.2005335e-38
-0.023634296 -0.069470495 0.75200003 1.0351221e-38
-0.022201924 -0.069470495 0.75200003 1.0810757e-38
-0.020714309 -0.069285735 0.75000006 1.1362129e-38
-0.019285731 -0.069285735 0.75 8.1425054e-39
-0.017857147 -0.069285765 0.75000006 5.0175846e-39
-0.016384784 -0.069100976 0.74800003 5.3842063e-39
-0.014939998 -0.069008574 0.74699998 5.7526273e-39
-0.013480984 -0.068823814 0.745 8.5141521e-39
-0.012061908 -0.068823844 0.74500006 1.1359616e-38
-0.010642861 -0.068823829 0.745 8.1414264e-39
-0.0091990707 -0.068639055 0.74300003 5.017586e-39
-0.0077838125 -0.06863907 0.74300003 5.4774823e-39
-0.00636002 -0.068546668 0.74199998 5.9373773e-39
-0.004946684 -0.068546668 0.74200004 5.4764047e-39
-0.0035238303 -0.068361938 0.74000001 5.0165112e-39
-0.0021114377 -0.068269521 0.73899996 8.1464514e-39
-0.00070193131 -0.068084776 0.73699999 1.136464e-38
0.00070186611 -0.068084762 0.73699999 1.0996222e-38
0.0021056943 -0.068084762 0.73699999 1.0717845e-38
0.0035095224 -0.068084762 0.73699999 1.0901875e-38
0.0049066395 -0.067992404 0.736 1.117774e-38
0.0063085454 -0.067992389 0.73600006 8.0506685e-39
0.0077104764 -0.067992389 0.73600006 5.0172244e-39
0.0091123534 -0.067992389 0.73600006 6.487307e-39
0.01048567 -0.06780763 0.73399997 8.0527984e-39
0.011883782 -0.067807645 0.73399997 1.4678209e-38
0.013245703 -0.06762287 0.73199999 2.1386813e-38
0.014619957 -0.067530483 0.73099995 2.0645262e-38
0.016012354 -0.067530483 0.73099995 1.9907352e-38
0.017404724 -0.067530483 0.73099995 2.0093894e-38
0.018797126 -0.067530483 0.73100001 2.0279739e-38
0.020189494 -0.067530468 0.73099995 2.0187207e-38
0.021611407 -0.067622885 0.73200005 2.0094649e-38
0.0230057 -0.06762287 0.73200005 2.0370868e-38
0.024466656 -0.06780763 0.73399997 2.0736801e-38
0.025864739 -0.067807645 0.73399997 2.0923368e-38
0.027374249 -0.068084776 0.73699999 2.100874e-38
0.028895242 -0.068361923 0.74000001 2.0921204e-38
0.03050952 -0.068823829 0.745 2.0736073e-38
0.032485731 -0.070024803 0.75800002 1.8891085e-38
0.034019027 -0.070209518 0.75999999 1.703815e-38
0.035466649 -0.070209533 0.75999999 1.5929941e-38
0.036914296 -0.070209548 0.75999999 1.4917994e-38
0.038715243 -0.070856214 0.76699996 1.5569128e-38
0.040228561 -0.070948586 0.76799995 1.6218443e-38
0.041962851 -0.071410507 0.77300006 1.5117861e-38
0.04354763 -0.071595266 0.77500004 1.4013647e-38
0.045139998 -0.071780011 0.77699995 1.0508797e-38
0.04679998 -0.072057143 0.77999997 7.090751e-39
0.048409522 -0.072241902 0.78200006 7.3708762e-39
0.050281875 -0.072796196 0.78800005 7.7425356e-39
-0.041148566 -0.068580955 0.75800002 9.0619351e-39
-0.039704762 -0.06858097 0.75800002 7.1290821e-39
-0.038160011 -0.06840004 0.75599998 5.1108564e-39
-0.036720026 -0.068400025 0.75599998 8.5159458e-39
-0.035280019 -0.068399996 0.75599998 1.18231e-38
-0.033839978 -0.068400025 0.75600004 1.1914577e-38
-0.032357141 -0.06830956 0.75500005 1.2008206e-38
-0.030837152 -0.068128586 0.75300002 1.2376624e-38
-0.029402882 -0.068128586 0.75299996 1.2743248e-38
-0.027931418 -0.068038106 0.75200003 1.3202426e-38
-0.026499048 -0.068038106 0.75200003 1.3661962e-38
-0.025066674 -0.068038106 0.75200003 1.2005336e-38
-0.023634303 -0.068038091 0.75200003 1.0260103e-38
-0.022201899 -0.068038106 0.75200003 1.0718563e-38
-0.020769503 -0.068038106 0.75200003 1.108447e-38
