# .PCD v0.7 - Point Cloud Data file format
VERSION 0.7
FIELDS x y z rgb
SIZE 4 4 4 4
TYPE F F F F
COUNT 1 1 1 1
WIDTH 949
HEIGHT 1
VIEWPOINT 0 0 0 1 0 0 0
POINTS 949
DATA ascii
0.025477152 -0.025477126 0.72300005 2.3141825e-38
0.02685429 -0.025477141 0.72300005 2.295697e-38
0.02819238 -0.025441915 0.72200006 1.7521707e-38
0.029567625 -0.025441915 0.72200012 1.2094404e-38
0.030857131 -0.025371417 0.72000003 1.2830122e-38
0.032228559 -0.025371417 0.71999997 1.3567679e-38
0.033599999 -0.025371417 0.72000003 1.4029369e-38
0.034971423 -0.025371403 0.72000003 1.4493294e-38
0.036342852 -0.025371403 0.71999997 1.1177614e-38
0.037714269 -0.025371417 0.71999997 7.8536137e-39
0.039085712 -0.025371417 0.72000003 7.9379298e-39
0.040457137 -0.025371403 0.72000003 8.0322162e-39
0.041828558 -0.025371403 0.71999997 7.938168e-39
0.043139998 -0.025336176 0.71900004 7.9338156e-39
0.044571426 -0.025371403 0.72000003 7.4688507e-39
0.04594285 -0.025371403 0.71999997 7.007867e-39
0.047314279 -0.025371417 0.71999997 7.191524e-39
0.048820954 -0.025441885 0.72200012 7.3748404e-39
-0.022817146 -0.024199985 0.72600001 2.3417686e-38
-0.021434294 -0.024199992 0.72599995 2.2499332e-38
-0.020051431 -0.024200007 0.72600001 2.157305e-38
-0.018668566 -0.024200015 0.72600001 1.9448962e-38
-0.017261911 -0.024166644 0.72500002 1.7251733e-38
-0.015902853 -0.0242 0.72600001 1.7705536e-38
-0.014520015 -0.024199985 0.72600001 1.8173342e-38
-0.013137152 -0.024199992 0.72600001 2.0751211e-38
-0.0117543 -0.024200007 0.72600001 2.3325127e-38
-0.010357155 -0.024166659 0.72500002 2.341769e-38
-0.0089762025 -0.024166659 0.72499996 2.341769e-38
-0.0076057212 -0.024200007 0.72600001 2.341769e-38
-0.0062142848 -0.024166659 0.72499996 2.341769e-38
-0.0048333327 -0.024166651 0.72499996 2.341769e-38
-0.0034523818 -0.024166651 0.72499996 2.341769e-38
-0.0020714297 -0.024166651 0.72499996 2.341769e-38
-0.00068857346 -0.024099991 0.72300005 2.3416967e-38
0.00068857416 -0.024099998 0.72300005 2.2220229e-38
0.0020657142 -0.024100006 0.72300005 2.1022418e-38
0.0034428609 -0.024099983 0.72300005 2.1850368e-38
0.0048199901 -0.024099983 0.72299999 2.2587209e-38
0.0061971378 -0.024099976 0.72299999 2.1851093e-38
0.0075742844 -0.024099983 0.72299999 2.1117851e-38
0.0089514246 -0.024099991 0.72300005 2.2223829e-38
0.010328571 -0.024099983 0.72300005 2.3323689e-38
0.01168952 -0.024066634 0.72200006 2.2489983e-38
0.013064767 -0.024066679 0.72200012 2.1668857e-38
0.014440003 -0.024066657 0.72200006 2.2591171e-38
0.015815247 -0.024066672 0.72200012 2.341769e-38
0.017190477 -0.024066657 0.72200006 2.341769e-38
0.018565712 -0.024066649 0.72200006 2.341769e-38
0.019968573 -0.024099991 0.72300005 2.341769e-38
0.021345709 -0.024099968 0.72299999 2.341769e-38
0.022722857 -0.024099976 0.72299999 2.341769e-38
0.024099998 -0.024099998 0.72299999 2.341769e-38
0.025477143 -0.024099991 0.72300005 2.3050348e-38
0.026854282 -0.024099983 0.72300005 2.2675723e-38
0.028231431 -0.024099991 0.72300005 1.7148267e-38
0.029567622 -0.024066657 0.72200006 1.154268e-38
0.030942868 -0.024066664 0.72200012 1.2276256e-38
0.032318104 -0.024066664 0.72200006 1.3014524e-38
0.03369334 -0.024066649 0.72200006 1.3659164e-38
0.035068583 -0.024066672 0.72200012 1.4304605e-38
0.036342844 -0.023999996 0.71999997 1.108865e-38
0.03771428 -0.023999989 0.71999997 7.7635676e-39
0.039085709 -0.023999989 0.72000003 7.8439321e-39
0.040457137 -0.023999982 0.72000003 7.8467417e-39
0.041828562 -0.023999974 0.71999997 7.9399519e-39
0.043199997 -0.023999989 0.72000003 7.9334471e-39
0.044571429 -0.023999982 0.72000003 7.7443488e-39
0.04594285 -0.023999989 0.71999997 7.4677619e-39
0.047445718 -0.024066657 0.72200006 7.4677591e-39
0.048820954 -0.024066657 0.72200006 7.3752104e-39
0.050265715 -0.024099991 0.72300005 7.4670487e-39
-0.022817153 -0.022817142 0.72600001 2.3325849e-38
-0.02143429 -0.02281715 0.72600001 2.2958513e-38
-0.020051438 -0.02281715 0.72600001 2.2499285e-38
-0.018668577 -0.022817142 0.72600001 2.0374462e-38
-0.017285723 -0.022817135 0.72600001 1.8261178e-38
-0.015880965 -0.022785708 0.72499996 1.9551545e-38
-0.0145 -0.022785708 0.72499996 2.0842308e-38
-0.013137145 -0.02281715 0.72600001 2.2130199e-38
-0.011754292 -0.022817135 0.72599995 2.341769e-38
-0.01037143 -0.022817127 0.72600001 2.341769e-38
-0.0089885667 -0.02281715 0.72600001 2.341769e-38
-0.0076057143 -0.02281715 0.72600001 2.341769e-38
-0.0062228665 -0.022817142 0.72600001 2.341769e-38
-0.0048400131 -0.02281712 0.72600001 2.341769e-38
-0.003452386 -0.022785701 0.72499996 2.341769e-38
-0.0020714339 -0.022785716 0.72499996 2.341769e-38
-0.00068857905 -0.02272284 0.72299999 2.3417682e-38
0.00068856857 -0.022722848 0.72300005 2.203476e-38
0.0020714204 -0.022785693 0.72499996 2.065436e-38
0.0034428553 -0.022722833 0.72300005 2.1852171e-38
0.0048200032 -0.022722855 0.72300005 2.2958503e-38
0.0061971424 -0.022722863 0.72300005 2.222095e-38
0.00757429 -0.022722855 0.72300005 2.1394076e-38
0.0089514311 -0.022722848 0.72300005 2.2223111e-38
0.010328577 -0.022722855 0.72300005 2.3050335e-38
0.011705717 -0.022722833 0.72300005 2.2401735e-38
0.013064758 -0.022691414 0.72200006 2.1852887e-38
0.014440004 -0.022691436 0.72200012 2.2682289e-38
0.015815239 -0.022691421 0.72200006 2.341769e-38
0.017190486 -0.022691429 0.72200012 2.341769e-38
0.018591428 -0.02272284 0.72300005 2.341769e-38
0.019968573 -0.022722848 0.72300005 2.341769e-38
0.021345716 -0.022722855 0.72300005 2.341769e-38
0.022722855 -0.022722848 0.72300005 2.341769e-38
0.024099998 -0.022722855 0.72300005 2.341769e-38
0.025477145 -0.022722833 0.72300005 2.2774124e-38
0.026854288 -0.022722825 0.72300005 2.2128657e-38
0.028231435 -0.022722848 0.72300005 1.669124e-38
0.029567618 -0.022691414 0.72200006 1.117176e-38
0.030942854 -0.022691414 0.72200006 1.1908571e-38
0.0323181 -0.022691414 0.72200012 1.2646835e-38
0.033693336 -0.022691421 0.72200006 1.3290394e-38
0.035068572 -0.022691421 0.72200006 1.3936549e-38
0.036342856 -0.022628576 0.71999997 1.099e-38
0.037714273 -0.022628553 0.71999997 8.0329715e-39
0.039085712 -0.022628553 0.72000003 6.8326542e-39
0.040457137 -0.022628546 0.72000003 5.7334379e-39
0.041944768 -0.022691421 0.72200006 6.6481453e-39
0.043199986 -0.022628561 0.71999997 7.6557784e-39
0.044695236 -0.022691429 0.72200006 7.560668e-39
0.046134293 -0.022722855 0.72300005 7.5585226e-39
0.047511432 -0.022722855 0.72300005 7.4670529e-39
0.048888564 -0.022722833 0.72299999 7.466697e-39
0.050265711 -0.022722855 0.72299999 7.4666998e-39
-0.021434285 -0.021434292 0.72600001 2.3325854e-38
-0.020051431 -0.021434292 0.72600001 2.341334e-38
-0.018668585 -0.021434285 0.72600001 2.138036e-38
-0.017285731 -0.02143427 0.72600001 1.92757e-38
-0.015902868 -0.021434277 0.72600001 2.1397267e-38
-0.014520015 -0.021434285 0.72599995 2.3416593e-38
-0.013137152 -0.021434292 0.72600001 2.341769e-38
-0.011754289 -0.021434292 0.72600001 2.341769e-38
-0.010371437 -0.02143427 0.72600001 2.341769e-38
-0.0089885751 -0.021434277 0.72600001 2.341769e-38
-0.0076057212 -0.021434277 0.72600001 2.341769e-38
-0.0062228586 -0.021434285 0.72600001 2.341769e-38
-0.0048400061 -0.021434285 0.72599995 2.341769e-38
-0.0034571437 -0.021434292 0.72600001 2.341769e-38
-0.0020742815 -0.021434285 0.72600001 2.341769e-38
-0.00069047709 -0.021404773 0.72500002 2.3415528e-38
0.00069047499 -0.021404751 0.72500002 2.184714e-38
0.002071426 -0.021404736 0.72500002 2.0287377e-38
0.0034523781 -0.021404766 0.72500002 2.1852889e-38
0.0048333295 -0.021404766 0.72500002 2.332441e-38
0.0062142815 -0.021404766 0.72500002 2.2496455e-38
0.0075742844 -0.02134569 0.72299999 2.1669939e-38
0.0089514246 -0.021345697 0.72300005 2.2223826e-38
0.01032857 -0.021345705 0.72300005 2.2680125e-38
0.011705711 -0.021345712 0.72300005 2.2397078e-38
0.013064764 -0.021316186 0.72200006 2.2036202e-38
0.014439993 -0.021316171 0.72200006 2.2774842e-38
0.015815239 -0.021316186 0.72200006 2.341769e-38
0.017214291 -0.021345727 0.72300005 2.341769e-38
0.018591432 -0.021345705 0.72300005 2.341769e-38
0.019968571 -0.021345697 0.72300005 2.341769e-38
0.02134572 -0.021345705 0.72300005 2.341769e-38
0.02278571 -0.021404758 0.72500002 2.341769e-38
0.024099998 -0.021345705 0.72299999 2.341769e-38
0.025477137 -0.021345697 0.72300005 2.2499335e-38
0.026854284 -0.021345705 0.72300005 2.1570469e-38
0.028231431 -0.021345697 0.72300005 1.6224529e-38
0.029608572 -0.021345705 0.72300005 1.0805484e-38
0.030985709 -0.021345697 0.72300005 1.1539415e-38
0.032318093 -0.021316178 0.72200006 1.227627e-38
0.033693343 -0.021316171 0.72200012 1.2919495e-38
0.035068575 -0.021316186 0.72200006 1.3473797e-38
0.036342848 -0.02125714 0.72000003 1.0901748e-38
0.03771428 -0.021257117 0.71999997 8.2180774e-39
0.039085705 -0.021257117 0.72000003 5.9035429e-39
0.040457137 -0.021257125 0.72000003 3.6111798e-39
0.041944768 -0.021316186 0.72200006 5.4471106e-39
0.043199986 -0.021257125 0.71999997 7.285219e-39
0.04469524 -0.021316193 0.72200012 7.4677774e-39
0.046070479 -0.021316186 0.72200006 7.5588954e-39
0.047511429 -0.021345697 0.72300005 7.5585381e-39
0.048888575 -0.02134569 0.72300005 7.466334e-39
0.05040475 -0.021404743 0.72499996 7.4659669e-39
0.051785707 -0.021404751 0.72499996 7.3745083e-39
-0.021434292 -0.020051427 0.72600001 2.2774842e-38
-0.020051438 -0.02005142 0.72600001 2.305031e-38
-0.018668577 -0.020051427 0.72600001 2.1110964e-38
-0.017285723 -0.020051412 0.72599995 1.9186045e-38
-0.01590286 -0.020051435 0.72600001 2.130368e-38
-0.014519998 -0.020051427 0.72600001 2.341769e-38
-0.013137146 -0.020051427 0.72600001 2.341769e-38
-0.011754283 -0.020051435 0.72600001 2.341769e-38
-0.010371431 -0.020051412 0.72600001 2.341769e-38
-0.0089885667 -0.02005142 0.72600001 2.341769e-38
-0.0076057292 -0.02005142 0.72599995 2.341769e-38
-0.0062228665 -0.020051427 0.72600001 2.341769e-38
-0.0048400145 -0.020051427 0.72599995 2.341769e-38
-0.0034571516 -0.020051435 0.72600001 2.341769e-38
-0.002074288 -0.020051427 0.72600001 2.341769e-38
-0.00069048081 -0.0200238 0.72500002 2.3417679e-38
0.00069047126 -0.0200238 0.72500002 2.2033319e-38
0.0020714223 -0.020023815 0.72500002 2.056073e-38
0.0034523744 -0.0200238 0.72500002 2.1945085e-38
0.0048333257 -0.020023793 0.72500002 2.3325845e-38
0.0062142853 -0.020023793 0.72500002 2.2404258e-38
0.00757429 -0.019968562 0.72300005 2.1483755e-38
0.0089514283 -0.019968554 0.72300005 2.2038e-38
0.010328577 -0.019968562 0.72300005 2.2681204e-38
0.011705717 -0.019968569 0.72300005 2.2587571e-38
0.013082863 -0.019968562 0.72300005 2.2497894e-38
0.014459993 -0.019968547 0.72299999 2.2958154e-38
0.01583714 -0.019968554 0.72299999 2.341769e-38
0.01721428 -0.019968562 0.72299999 2.341769e-38
0.018591426 -0.019968554 0.72300005 2.341769e-38
0.019968566 -0.019968547 0.72300005 2.341769e-38
0.021345714 -0.019968569 0.72300005 2.341769e-38
0.022785712 -0.0200238 0.72499996 2.341769e-38
0.024100002 -0.019968569 0.72300005 2.341769e-38
0.025477147 -0.019968562 0.72300005 2.2221676e-38
0.02685429 -0.019968554 0.72300005 2.1020891e-38
0.028231427 -0.019968577 0.72300005 1.5862927e-38
0.029608574 -0.019968569 0.72300005 1.080655e-38
0.03098572 -0.019968554 0.72300005 1.1356084e-38
0.032362852 -0.019968554 0.72299999 1.1999334e-38
0.033693336 -0.019940935 0.72200006 1.2644737e-38
0.035117134 -0.019968554 0.72300005 1.3382693e-38
0.036443807 -0.019940943 0.72200006 1.0527943e-38
0.037819043 -0.019940928 0.72200006 7.7578237e-39
0.03919429 -0.01994095 0.72200012 6.6432533e-39
0.040569529 -0.019940935 0.72200006 5.6251077e-39
0.041944765 -0.019940957 0.72200012 6.547703e-39
0.043320004 -0.019940943 0.72200006 7.3756308e-39
0.044757143 -0.019968562 0.72300005 7.375244e-39
0.046134293 -0.019968569 0.72300005 7.3745209e-39
0.047511432 -0.019968562 0.72300005 7.3748741e-39
0.04888856 -0.019968554 0.72299999 7.4663312e-39
0.050404746 -0.0200238 0.72499996 7.4663102e-39
-0.022817146 -0.018668562 0.72600001 2.1759243e-38
-0.021493331 -0.018720001 0.72800004 2.2223823e-38
-0.020106681 -0.018719994 0.72800004 2.2582855e-38
-0.018720005 -0.018719994 0.72800004 2.0826801e-38
-0.01728572 -0.018668585 0.72600001 1.9093468e-38
-0.015902869 -0.018668577 0.72600001 2.1305474e-38
-0.014520006 -0.01866857 0.72600001 2.341769e-38
-0.013137153 -0.01866857 0.72600001 2.341769e-38
-0.01175429 -0.018668562 0.72600001 2.341769e-38
-0.010371437 -0.018668547 0.72599995 2.341769e-38
-0.0089885751 -0.01866857 0.72600001 2.341769e-38
-0.0076057222 -0.018668562 0.72599995 2.341769e-38
-0.00622286 -0.01866857 0.72600001 2.341769e-38
-0.0048399968 -0.018668562 0.72600001 2.341769e-38
-0.0034571441 -0.018668562 0.72600001 2.341769e-38
-0.0020742815 -0.018668585 0.72600001 2.341769e-38
-0.0006904864 -0.018642843 0.72499996 2.3415887e-38
0.0006904722 -0.018642843 0.72499996 2.212444e-38
0.0020714242 -0.018642843 0.72499996 2.0840185e-38
0.0034523762 -0.018642843 0.72499996 2.2131989e-38
0.0048333276 -0.018642843 0.72499996 2.332441e-38
0.0062142806 -0.018642843 0.72499996 2.2310266e-38
0.0075742835 -0.018591397 0.72299999 2.1208605e-38
0.0089761838 -0.018642858 0.72499996 2.1946524e-38
0.010328572 -0.018591411 0.72300005 2.2681205e-38
0.011705711 -0.018591419 0.72300005 2.2865232e-38
0.013082858 -0.018591411 0.72300005 2.2957789e-38
0.014459999 -0.018591404 0.72300005 2.3234019e-38
0.015837144 -0.018591411 0.72300005 2.341769e-38
0.017214285 -0.018591434 0.72300005 2.341769e-38
0.018642854 -0.018642835 0.72499996 2.341769e-38
0.019968573 -0.018591419 0.72300005 2.341769e-38
0.02134572 -0.018591411 0.72300005 2.341769e-38
0.022785708 -0.018642843 0.72499996 2.341769e-38
0.024166662 -0.018642828 0.72499996 2.341769e-38
0.025477134 -0.018591404 0.72299999 2.1948322e-38
0.02685428 -0.018591419 0.72299999 2.0466987e-38
0.028231427 -0.018591419 0.72300005 1.5582716e-38
0.02960857 -0.018591419 0.72300005 1.0713276e-38
0.030985709 -0.018591404 0.72300005 1.1170295e-38
0.032362856 -0.018591426 0.72300005 1.1632362e-38
0.033693336 -0.018565714 0.72200006 1.2461414e-38
0.035117142 -0.018591411 0.72300005 1.3289428e-38
0.036443815 -0.018565707 0.72200012 1.0253536e-38
0.03781905 -0.018565699 0.72200006 7.2068107e-39
0.039194293 -0.018565699 0.72200012 7.4704678e-39
0.040569533 -0.018565714 0.72200006 7.6551688e-39
0.041944761 -0.018565707 0.72200006 7.5586235e-39
0.043320008 -0.018565722 0.72200012 7.4663859e-39
0.044757139 -0.018591426 0.72300005 7.2823141e-39
0.046134278 -0.018591419 0.72300005 7.0990159e-39
0.047511425 -0.018591426 0.72300005 7.2830596e-39
0.048888575 -0.018591419 0.72300005 7.4667082e-39
0.050404761 -0.018642843 0.72500002 7.4670445e-39
-0.024300002 -0.017357148 0.72900003 2.0190124e-38
-0.022880005 -0.017333329 0.72800004 2.0563943e-38
-0.021493331 -0.017333344 0.72800004 2.0194109e-38
-0.020106666 -0.017333321 0.72800004 1.9914578e-38
-0.018720005 -0.017333321 0.72800004 1.9086903e-38
-0.01733334 -0.017333321 0.72799999 1.8269078e-38
-0.015902862 -0.017285705 0.72600001 1.9740324e-38
-0.014519998 -0.01728572 0.72600001 2.1213638e-38
-0.013137145 -0.017285712 0.72599995 2.2314947e-38
-0.011754298 -0.017285705 0.72600001 2.341769e-38
-0.010371446 -0.01728569 0.72599995 2.341769e-38
-0.0089885825 -0.017285712 0.72600001 2.341769e-38
-0.0076057203 -0.017285734 0.72600001 2.341769e-38
-0.0062228674 -0.01728572 0.72600001 2.341769e-38
-0.0048400043 -0.017285712 0.72600001 2.341769e-38
-0.0034571521 -0.017285705 0.72600001 2.341769e-38
-0.0020742894 -0.017285705 0.72600001 2.341769e-38
-0.00069048267 -0.017261893 0.72499996 2.3417682e-38
0.00069046847 -0.017261893 0.72499996 2.1941847e-38
0.0020714204 -0.017261878 0.72499996 2.047213e-38
0.0034523725 -0.017261893 0.72499996 2.1670663e-38
0.0048333239 -0.0172619 0.72499996 2.2866667e-38
0.006214276 -0.017261885 0.72499996 2.184965e-38
0.0075952262 -0.017261885 0.72499996 2.0930227e-38
0.0089761904 -0.0172619 0.72500002 2.1853612e-38
0.010357141 -0.017261893 0.72500002 2.2772684e-38
0.011738099 -0.017261907 0.72500002 2.2772681e-38
0.013082863 -0.017214276 0.72300005 2.2774837e-38
0.014460001 -0.017214283 0.72300005 2.3050348e-38
0.015837139 -0.017214261 0.72299999 2.341769e-38
0.01721428 -0.017214268 0.72299999 2.341769e-38
0.018591426 -0.017214261 0.72300005 2.341769e-38
0.019968566 -0.017214268 0.72300005 2.341769e-38
0.021404762 -0.017261907 0.72500002 2.341769e-38
0.022785714 -0.017261907 0.72500002 2.341769e-38
0.024166666 -0.0172619 0.72500002 2.341769e-38
0.025477149 -0.017214268 0.72300005 2.176214e-38
0.026854288 -0.017214276 0.72300005 2.010106e-38
0.028231429 -0.017214283 0.72300005 1.5310039e-38
0.029608576 -0.017214276 0.72300005 1.0528167e-38
0.03098572 -0.017214268 0.72300005 1.1172122e-38
0.032362863 -0.017214276 0.72300005 1.1908599e-38
0.033739991 -0.017214268 0.72299999 1.2554314e-38
0.035117138 -0.017214261 0.72299999 1.3202262e-38
0.036443811 -0.017190456 0.72200006 1.0158495e-38
0.03781905 -0.017190464 0.72200012 7.1110292e-39
0.039194293 -0.017190464 0.72200006 8.6765038e-39
0.040569533 -0.017190471 0.72200012 1.0334177e-38
0.041944768 -0.017190456 0.72200006 8.6674766e-39
0.043320004 -0.017190471 0.72200006 7.0054119e-39
0.044757146 -0.017214283 0.72300005 7.1901017e-39
0.046134297 -0.017214276 0.72300005 7.3745237e-39
0.047642853 -0.017261893 0.72500002 7.4667502e-39
0.049023811 -0.017261893 0.72500002 7.6507561e-39
0.050404754 -0.017261885 0.72500002 7.5581779e-39
-0.02429999 -0.015968576 0.72900009 1.9822437e-38
-0.022880005 -0.015946656 0.72800004 1.9275349e-38
-0.021493338 -0.015946642 0.72799999 1.8257247e-38
-0.020051422 -0.015902847 0.72600001 1.7159484e-38
-0.018720005 -0.015946671 0.72800004 1.7245538e-38
-0.017285721 -0.015902855 0.72600001 1.7345312e-38
-0.015902869 -0.015902855 0.72600001 1.8172955e-38
-0.014520006 -0.015902847 0.72600001 1.9002016e-38
-0.013137153 -0.01590284 0.72599995 2.1211123e-38
-0.011754291 -0.015902847 0.72600001 2.341697e-38
-0.010371428 -0.015902862 0.72600001 2.341769e-38
-0.008988576 -0.015902855 0.72600001 2.341769e-38
-0.0076057124 -0.015902847 0.72600001 2.341769e-38
-0.00622286 -0.015902847 0.72600001 2.341769e-38
-0.0048399973 -0.015902855 0.72600001 2.341769e-38
-0.0034571451 -0.015902847 0.72599995 2.341769e-38
-0.0020742973 -0.015902847 0.72600001 2.341769e-38
-0.00069047709 -0.01588095 0.72500002 2.3414812e-38
0.00069047406 -0.015880935 0.72500002 2.1753156e-38
0.002071426 -0.015880942 0.72500002 2.001367e-38
0.0034523781 -0.015880942 0.72500002 2.1211127e-38
0.0048333304 -0.015880942 0.72500002 2.2311351e-38
0.0062142825 -0.015880942 0.72500002 2.147442e-38
0.0075952327 -0.015880942 0.72500002 2.0656517e-38
0.0089761922 -0.015880927 0.72500002 2.176465e-38
0.010357143 -0.015880957 0.72500002 2.2773039e-38
0.011738095 -0.015880942 0.72500002 2.2678328e-38
0.013119047 -0.015880957 0.72500002 2.2497534e-38
0.014499999 -0.015880942 0.72500002 2.2958513e-38
0.015837144 -0.015837118 0.72300005 2.341769e-38
0.017214285 -0.015837133 0.72300005 2.341769e-38
0.018642854 -0.015880935 0.72500002 2.341769e-38
0.019968573 -0.015837148 0.72300005 2.341769e-38
0.021404758 -0.015880935 0.72500002 2.341769e-38
0.022785708 -0.015880942 0.72500002 2.341769e-38
0.024166664 -0.015880935 0.72500002 2.3417689e-38
0.025547616 -0.01588095 0.72500002 2.1580979e-38
0.026928566 -0.015880942 0.72500002 1.963793e-38
0.028231429 -0.015837133 0.72300005 1.5027707e-38
0.029608566 -0.015837125 0.72300005 1.034449e-38
0.030985709 -0.015837133 0.72300005 1.1265391e-38
0.032362856 -0.015837125 0.72300005 1.2092626e-38
0.033740003 -0.01583714 0.72300005 1.2552876e-38
0.035117142 -0.015837133 0.72300005 1.301249e-38
0.036494285 -0.01583714 0.72300005 9.9755383e-39
0.037871435 -0.015837133 0.72300005 6.937058e-39
0.039248578 -0.015837133 0.72300005 9.9740697e-39
0.040625717 -0.01583714 0.72300005 1.2905936e-38
0.042002853 -0.015837133 0.72299999 9.7709207e-39
0.04338 -0.015837125 0.72299999 6.5491099e-39
0.044757143 -0.015837133 0.72299999 7.0986543e-39
0.046261907 -0.015880935 0.72499996 7.5585577e-39
0.047642857 -0.015880942 0.72499996 7.7425958e-39
0.049023807 -0.01588095 0.72499996 7.8336886e-39
0.050474279 -0.015902847 0.72599995 7.740393e-39
-0.024300003 -0.014579996 0.72900003 2.1669206e-38
-0.022880003 -0.014560007 0.72800004 2.1396509e-38
-0.021493338 -0.014559992 0.72800004 2.0748935e-38
-0.020051431 -0.014519989 0.72600001 2.0199712e-38
-0.018668577 -0.014519989 0.72600001 2.0195043e-38
-0.017285714 -0.014519989 0.72600001 2.01929e-38
-0.015902862 -0.014519997 0.72599995 1.9641179e-38
-0.014519999 -0.014519989 0.72600001 1.9084131e-38
-0.013137151 -0.014520004 0.72600001 2.1299365e-38
-0.011754299 -0.014519997 0.72600001 2.3417686e-38
-0.010371435 -0.014519989 0.72600001 2.341769e-38
-0.0089885825 -0.014519989 0.72600001 2.341769e-38
-0.0076057203 -0.014519989 0.72600001 2.341769e-38
-0.0062228679 -0.014519989 0.72600001 2.341769e-38
-0.0048400052 -0.014519989 0.72600001 2.341769e-38
-0.003457153 -0.014519997 0.72599995 2.341769e-38
-0.0020800035 -0.014559984 0.72799999 2.341769e-38
-0.00069142703 -0.014520004 0.72600001 2.3417683e-38
0.00069142587 -0.014519997 0.72600001 2.221951e-38
0.0020742805 -0.014520004 0.72600001 2.0934537e-38
0.0034571334 -0.014519989 0.72600001 2.1946887e-38
0.0048333332 -0.014499985 0.72500002 2.2866671e-38
0.0062142853 -0.0145 0.72500002 2.2219152e-38
0.0075952364 -0.014499992 0.72500002 2.1578822e-38
0.0089761885 -0.014499992 0.72500002 2.2131276e-38
0.01035714 -0.014499985 0.72500002 2.2590085e-38
0.011738092 -0.014499977 0.72500002 2.2495011e-38
0.013119043 -0.014499992 0.72500002 2.2404261e-38
0.014499995 -0.014499985 0.72500002 2.2957795e-38
0.015880946 -0.014499985 0.72500002 2.341769e-38
0.017261898 -0.014499985 0.72500002 2.341769e-38
0.01864285 -0.014499992 0.72499996 2.341769e-38
0.019968566 -0.014459983 0.72300005 2.341769e-38
0.021404754 -0.014499992 0.72499996 2.341769e-38
0.022785705 -0.014499977 0.72499996 2.341769e-38
0.024166659 -0.014499985 0.72499996 2.3417689e-38
0.025547609 -0.014499985 0.72499996 2.1393718e-38
0.02692857 -0.014499992 0.72499996 1.9269865e-38
0.02830952 -0.014499992 0.72499996 1.4848331e-38
0.029608574 -0.014459983 0.72300005 1.0526003e-38
0.03098572 -0.014459997 0.72300005 1.1172118e-38
0.032362856 -0.01445999 0.72300005 1.1816758e-38
0.033739991 -0.014459983 0.72299999 1.2368484e-38
0.035117134 -0.014459983 0.72299999 1.2828815e-38
0.036494281 -0.014459983 0.72299999 9.9740992e-39
0.037871424 -0.014459983 0.72300005 7.1160795e-39
0.039248571 -0.014459997 0.72300005 9.1425588e-39
0.040625717 -0.014459983 0.72300005 1.1167526e-38
0.042002857 -0.014459983 0.72300005 9.1284141e-39
0.043379996 -0.014459983 0.72300005 7.0961838e-39
0.044880949 -0.014499992 0.72499996 7.3741888e-39
0.046261899 -0.014499985 0.72499996 7.6503974e-39
0.047642849 -0.014499977 0.72499996 7.650382e-39
0.049023803 -0.014499977 0.72499996 7.6496379e-39
0.050474279 -0.014519982 0.72599995 7.4655815e-39
-0.022880014 -0.013173327 0.72800004 2.3417648e-38
-0.021522855 -0.013191432 0.72900003 2.3325783e-38
-0.020106662 -0.013173327 0.72800004 2.3231788e-38
-0.018720014 -0.013173327 0.72800004 2.3142099e-38
-0.01733334 -0.013173327 0.72800004 2.3045602e-38
-0.015946664 -0.013173327 0.72800004 2.1114907e-38
-0.014560014 -0.013173319 0.72800004 1.9182808e-38
-0.013137143 -0.013137147 0.72600001 2.1301158e-38
-0.011754291 -0.013137132 0.72600001 2.3416608e-38
-0.010371429 -0.013137139 0.72600001 2.341769e-38
-0.008988576 -0.013137132 0.72599995 2.341769e-38
-0.0076057138 -0.013137132 0.72600001 2.341769e-38
-0.0062228609 -0.013137132 0.72599995 2.341769e-38
-0.0048400136 -0.013137132 0.72600001 2.341769e-38
-0.0034571502 -0.013137147 0.72600001 2.341769e-38
-0.0020800026 -0.013173319 0.72800004 2.341769e-38
-0.00069142703 -0.013137139 0.72600001 2.3417324e-38
0.00069141749 -0.013137132 0.72600001 2.2680838e-38
0.0020742805 -0.013137147 0.72600001 2.1853608e-38
0.0034571325 -0.013137132 0.72599995 2.2683006e-38
0.0048333285 -0.013119042 0.72499996 2.3417324e-38
0.0062142797 -0.013119027 0.72499996 2.2956706e-38
0.0075952327 -0.013119027 0.72499996 2.2497176e-38
0.0089761848 -0.013119034 0.72499996 2.2499335e-38
0.010357136 -0.013119027 0.72499996 2.2404261e-38
0.011738088 -0.013119042 0.72499996 2.2399229e-38
0.013119039 -0.013119027 0.72499996 2.2312784e-38
0.014499991 -0.013119027 0.72499996 2.2866677e-38
0.015880942 -0.013119027 0.72499996 2.341769e-38
0.017261894 -0.013119034 0.72499996 2.341769e-38
0.018642846 -0.013119034 0.72499996 2.341769e-38
0.020023804 -0.013119034 0.72499996 2.341769e-38
0.021404758 -0.013119027 0.72499996 2.341769e-38
0.022785708 -0.013119042 0.72499996 2.341769e-38
0.024166657 -0.013119034 0.72499996 2.3417689e-38
0.025547612 -0.013119027 0.72499996 2.1213637e-38
0.026928563 -0.013119027 0.72499996 1.8901438e-38
0.028309515 -0.01311902 0.72499996 1.4753249e-38
0.029690467 -0.013119027 0.72499996 1.0619623e-38
0.030985711 -0.01308284 0.72300005 1.1079923e-38
0.032362856 -0.01308284 0.72300005 1.1540529e-38
0.033740003 -0.013082847 0.72300005 1.2092253e-38
0.035117142 -0.01308284 0.72300005 1.2643703e-38
0.036494285 -0.013082847 0.72300005 9.97589e-39
0.037871439 -0.01308284 0.72300005 7.3026231e-39
0.039248578 -0.013082854 0.72300005 8.3121045e-39
0.040625717 -0.013082847 0.72300005 9.3186194e-39
0.042002864 -0.013082847 0.72300005 8.4783798e-39
0.04338 -0.013082832 0.72299999 7.5567878e-39
0.044880953 -0.013119042 0.72500002 7.651126e-39
0.046261903 -0.013119027 0.72500002 7.6507561e-39
0.047642857 -0.013119042 0.72500002 7.5589094e-39
0.049023807 -0.013119034 0.72500002 7.3748629e-39
-0.022911418 -0.011802852 0.72900003 2.3325854e-38
-0.021522857 -0.011802845 0.72900003 2.0840198e-38
-0.020134281 -0.01180286 0.72900003 1.836135e-38
-0.01874572 -0.011802845 0.72900003 1.8726172e-38
-0.017333338 -0.011786662 0.72800004 1.9099607e-38
-0.015946675 -0.011786647 0.72799999 1.7343965e-38
-0.014560014 -0.011786662 0.72800004 1.5689857e-38
-0.01317334 -0.011786662 0.72800004 1.9553053e-38
-0.011786675 -0.011786662 0.72799999 2.3417684e-38
-0.0104 -0.011786655 0.72800004 2.341769e-38
-0.0089885844 -0.011754274 0.72599995 2.341769e-38
-0.0076057212 -0.011754274 0.72600001 2.341769e-38
-0.0062228581 -0.011754289 0.72600001 2.341769e-38
-0.0048400057 -0.011754274 0.72600001 2.341769e-38
-0.0034571432 -0.011754289 0.72600001 2.341769e-38
-0.0020800021 -0.011786669 0.72800004 2.341769e-38
-0.00069143448 -0.011754282 0.72600001 2.3417682e-38
0.00069141749 -0.011754274 0.72599995 2.2311342e-38
0.0020742805 -0.011754282 0.72600001 2.1115337e-38
0.0034571437 -0.011754289 0.72600001 2.2222392e-38
0.0048399959 -0.011754289 0.72600001 2.3234012e-38
0.006222859 -0.011754282 0.72600001 2.2771958e-38
0.0076057026 -0.011754274 0.72600001 2.2310276e-38
0.0089761894 -0.011738092 0.72500002 2.2221676e-38
0.010357141 -0.011738092 0.72500002 2.222059e-38
0.011754281 -0.011754282 0.72600001 2.2311338e-38
0.013119044 -0.011738092 0.72500002 2.2498608e-38
0.014499996 -0.011738084 0.72500002 2.2958513e-38
0.015880954 -0.011738092 0.72500002 2.341769e-38
0.017261907 -0.011738084 0.72500002 2.341769e-38
0.018642858 -0.011738092 0.72500002 2.341769e-38
0.020023812 -0.011738084 0.72500002 2.341769e-38
0.021404764 -0.011738084 0.72500002 2.341769e-38
0.022785716 -0.011738092 0.72500002 2.341769e-38
0.024166666 -0.011738084 0.72500002 2.341769e-38
0.025547616 -0.011738092 0.72500002 2.1117498e-38
0.026928568 -0.011738077 0.72500002 1.8807802e-38
0.02830952 -0.011738092 0.72500002 1.4756459e-38
0.029690478 -0.011738077 0.72500002 1.0802566e-38
0.03098572 -0.011705697 0.72300005 1.1263951e-38
0.03236286 -0.011705711 0.72300005 1.181639e-38
0.033740003 -0.011705711 0.72300005 1.2369187e-38
0.035117138 -0.011705689 0.72299999 1.3014269e-38
0.036494285 -0.011705697 0.72299999 9.9740921e-39
0.03787142 -0.011705704 0.72299999 7.0210224e-39
0.039248571 -0.011705704 0.72300005 7.7564378e-39
0.040625717 -0.011705697 0.72300005 8.4892286e-39
0.042002857 -0.011705704 0.72300005 7.9280717e-39
0.04338 -0.011705697 0.72300005 7.3691624e-39
0.044880949 -0.011738077 0.72500002 7.4652985e-39
0.046261903 -0.011738084 0.72500002 7.4670851e-39
0.047708571 -0.011754274 0.72600007 7.3752412e-39
0.049091425 -0.011754282 0.72600001 7.2834001e-39
-0.022911431 -0.01041428 0.72900003 2.3228973e-38
-0.021522846 -0.010414273 0.72900003 1.8346961e-38
-0.020134285 -0.010414287 0.72900003 1.3388214e-38
-0.018745709 -0.01041428 0.72900003 1.4209007e-38
-0.017357148 -0.010414287 0.72900003 1.5043411e-38
-0.015968563 -0.010414295 0.72900009 1.3654752e-38
-0.014559999 -0.010399997 0.72800004 1.219508e-38
-0.013173338 -0.010400005 0.72800004 1.7803512e-38
-0.011786675 -0.010399997 0.72800004 2.3322978e-38
-0.010399999 -0.01039999 0.72800004 2.341769e-38
-0.0089885658 -0.010371432 0.72600001 2.341769e-38
-0.0076057138 -0.010371417 0.72600001 2.341769e-38
-0.0062228655 -0.010371424 0.72600001 2.341769e-38
-0.0048400131 -0.010371417 0.72600001 2.341769e-38
-0.0034571511 -0.010371424 0.72600001 2.341769e-38
-0.0020742987 -0.010371417 0.72599995 2.341769e-38
-0.00069143542 -0.010371432 0.72600001 2.3415528e-38
0.00069141656 -0.010371409 0.72599995 2.1939333e-38
0.0020799979 -0.01039999 0.72800004 2.0379933e-38
0.0034666543 -0.010399997 0.72799999 2.1764648e-38
0.0048399959 -0.010371424 0.72600001 2.3049263e-38
0.0062228581 -0.010371424 0.72600001 2.2586134e-38
0.0076057017 -0.010371417 0.72600001 2.2036203e-38
0.0089885658 -0.010371424 0.72600001 2.2040155e-38
0.010371419 -0.010371409 0.72599995 2.1944006e-38
0.011754282 -0.010371432 0.72600001 2.2309905e-38
0.013119046 -0.010357134 0.72500002 2.2681203e-38
0.014499998 -0.010357141 0.72500002 2.3050348e-38
0.015902853 -0.010371417 0.72600001 2.341769e-38
0.017261904 -0.010357127 0.72500002 2.341769e-38
0.018642854 -0.010357141 0.72500002 2.341769e-38
0.020023806 -0.010357127 0.72500002 2.341769e-38
0.021404758 -0.010357127 0.72500002 2.341769e-38
0.022785708 -0.010357127 0.72500002 2.341769e-38
0.024166659 -0.010357134 0.72500002 2.341769e-38
0.025547611 -0.010357127 0.72500002 2.1121803e-38
0.02692857 -0.010357134 0.72500002 1.8718119e-38
0.02830952 -0.010357127 0.72500002 1.4845425e-38
0.029690474 -0.010357141 0.72500002 1.0895813e-38
0.031071424 -0.010357134 0.72500002 1.1447936e-38
0.032452375 -0.010357141 0.72500002 1.2000752e-38
0.033833329 -0.010357127 0.72500002 1.2645764e-38
0.035214279 -0.010357119 0.72500002 1.3288707e-38
0.036494281 -0.010328554 0.72300005 9.976983e-39
0.037871435 -0.010328561 0.72300005 6.6576335e-39
0.039248575 -0.010328554 0.72300005 7.2029081e-39
0.040625714 -0.010328569 0.72300005 7.6594764e-39
0.042002864 -0.010328561 0.72300005 7.466739e-39
0.043380007 -0.010328569 0.72300005 7.1890605e-39
0.044880942 -0.010357141 0.72499996 7.2812351e-39
0.046261892 -0.010357127 0.72499996 7.283033e-39
0.047642846 -0.010357127 0.72499996 7.1915604e-39
0.049091425 -0.010371417 0.72600001 7.0997221e-39
-0.022974294 -0.0090504587 0.73100001 1.9100658e-38
-0.021581907 -0.0090504587 0.73100001 1.6602398e-38
-0.020134274 -0.0090257227 0.72900009 1.4207174e-38
-0.018745713 -0.0090257078 0.72900003 1.6420225e-38
-0.017357137 -0.0090257153 0.72900003 1.8627858e-38
-0.015968576 -0.0090257153 0.72900003 1.7983209e-38
-0.01458 -0.0090257078 0.72900003 1.7427187e-38
-0.013191429 -0.0090257227 0.72900009 2.037885e-38
-0.011802854 -0.0090257153 0.72900003 2.3417682e-38
-0.010399999 -0.0090133324 0.72800004 2.341769e-38
-0.0090133492 -0.0090133175 0.72800004 2.341769e-38
-0.0076057217 -0.0089885667 0.72600001 2.341769e-38
-0.006222859 -0.0089885667 0.72600001 2.341769e-38
-0.0048533352 -0.0090133175 0.72800004 2.341769e-38
-0.0034666762 -0.0090133324 0.72800004 2.341769e-38
-0.0020800007 -0.009013325 0.72800004 2.341769e-38
-0.00069143542 -0.0089885667 0.72600001 2.3417677e-38
0.00069333136 -0.0090133324 0.72800004 2.1572345e-38
0.0020799988 -0.009013325 0.72800004 1.9822819e-38
0.0034666553 -0.009013325 0.72800004 2.1485912e-38
0.0048533306 -0.009013325 0.72800004 2.3142175e-38
0.0062228506 -0.0089885667 0.72600001 2.2587569e-38
0.0076057035 -0.0089885518 0.72599995 2.2126602e-38
0.0089885648 -0.0089885667 0.72600001 2.1944369e-38
0.010371428 -0.0089885667 0.72600001 2.1756388e-38
0.011754281 -0.0089885741 0.72600001 2.2310624e-38
0.013137142 -0.0089885667 0.72600001 2.2774116e-38
0.014519996 -0.0089885592 0.72600001 2.3050348e-38
0.015902851 -0.0089885741 0.72600001 2.341769e-38
0.017261896 -0.0089761764 0.72500002 2.341769e-38
0.018642848 -0.0089761689 0.72499996 2.341769e-38
0.020023808 -0.0089761838 0.72499996 2.341769e-38
0.021404758 -0.0089761764 0.72499996 2.341769e-38
0.022785712 -0.0089761838 0.72499996 2.341769e-38
0.024166666 -0.0089761764 0.72499996 2.341769e-38
0.025547616 -0.0089761764 0.72499996 2.1118215e-38
0.026965708 -0.0089885667 0.72600001 1.8812107e-38
0.02830952 -0.0089761838 0.72499996 1.5034118e-38
0.029690471 -0.0089761764 0.72499996 1.1263133e-38
0.031071423 -0.0089761689 0.72499996 1.1724114e-38
0.032452375 -0.0089761764 0.72499996 1.2276592e-38
0.033833325 -0.0089761689 0.72499996 1.3013818e-38
0.035214279 -0.0089761838 0.72499996 1.3751839e-38
0.036595229 -0.0089761764 0.72499996 1.015924e-38
0.03797619 -0.0089761764 0.72499996 6.5622191e-39
0.039248575 -0.0089514032 0.72300005 7.1121432e-39
0.040625721 -0.0089514181 0.72300005 7.6627008e-39
0.042002857 -0.0089514107 0.72300005 7.2859337e-39
0.04338 -0.0089514256 0.72300005 6.9146106e-39
0.044880949 -0.0089761689 0.72499996 7.0067698e-39
0.04632571 -0.0089885667 0.72600001 7.1915338e-39
0.047708571 -0.0089885741 0.72600001 7.1915506e-39
0.049091429 -0.0089885592 0.72600001 7.1911919e-39
0.050474286 -0.0089885667 0.72600001 7.0997151e-39
-0.022911422 -0.0076371431 0.72900003 1.495047e-38
-0.021581901 -0.0076580942 0.73100001 1.4938251e-38
-0.020189529 -0.0076580793 0.73100001 1.4948318e-38
-0.018797155 -0.0076580793 0.73100001 1.8544633e-38
-0.017404757 -0.0076580867 0.73100001 2.2123351e-38
-0.016012385 -0.0076580793 0.73100001 2.2406755e-38
-0.014580002 -0.0076371357 0.72900003 2.2677248e-38
-0.013191426 -0.0076371431 0.72900003 2.305034e-38
-0.011802856 -0.0076371506 0.72900009 2.3417686e-38
-0.01041428 -0.0076371357 0.72900009 2.341769e-38
-0.0090133483 -0.0076266527 0.72800004 2.341769e-38
-0.0076266741 -0.0076266676 0.72800004 2.341769e-38
-0.0062399991 -0.0076266602 0.72800004 2.341769e-38
-0.0048533347 -0.0076266602 0.72800004 2.341769e-38
-0.0034666753 -0.0076266676 0.72800004 2.341769e-38
-0.0020800105 -0.0076266453 0.72799999 2.341769e-38
-0.00069334276 -0.0076266602 0.72800004 2.3414806e-38
0.00069333229 -0.0076266527 0.72800004 2.129325e-38
0.0020799886 -0.0076266602 0.72799999 1.9183916e-38
0.0034714376 -0.0076371506 0.72900003 2.1213637e-38
0.0048533315 -0.0076266676 0.72800004 2.3141102e-38
0.0062399879 -0.0076266527 0.72799999 2.267905e-38
0.0076266639 -0.0076266527 0.72800004 2.2128757e-38
0.0090133315 -0.0076266676 0.72800004 2.185433e-38
0.010399995 -0.0076266453 0.72799999 2.1576307e-38
0.011786663 -0.0076266676 0.72800004 2.2217716e-38
0.013137144 -0.0076057017 0.72600001 2.2864876e-38
0.014519989 -0.0076057166 0.72600001 2.3142183e-38
0.015902851 -0.0076057091 0.72600001 2.3325854e-38
0.0172619 -0.0075952113 0.72499996 2.341769e-38
0.018642852 -0.0075952262 0.72499996 2.341769e-38
0.020023804 -0.0075952187 0.72499996 2.341769e-38
0.021404754 -0.0075952187 0.72499996 2.341769e-38
0.022817146 -0.0076057017 0.72600001 2.341769e-38
0.024199991 -0.0076057091 0.72600001 2.3417326e-38
0.025582852 -0.0076057091 0.72600001 2.1212552e-38
0.026965704 -0.0076057091 0.72599995 1.8903222e-38
0.028348569 -0.0076057091 0.72600001 1.521636e-38
0.029690467 -0.0075952187 0.72499996 1.1540817e-38
0.031071417 -0.0075952262 0.72499996 1.2092577e-38
0.032452378 -0.0075952262 0.72500002 1.2553207e-38
0.033833332 -0.0075952411 0.72500002 1.3380822e-38
0.035214283 -0.0075952262 0.72500002 1.4208883e-38
0.036595233 -0.0075952411 0.72500002 1.0345443e-38
0.037976194 -0.0075952262 0.72500002 6.4757744e-39
0.039357137 -0.0075952336 0.72500002 7.0203091e-39
0.040738098 -0.0075952262 0.72500002 7.5676367e-39
0.042119041 -0.0075952336 0.72500002 7.0997529e-39
0.043499999 -0.0075952262 0.72500002 6.5480029e-39
0.044880953 -0.0075952262 0.72500002 6.8238499e-39
0.04632571 -0.0076057017 0.72600001 7.0993634e-39
0.047708571 -0.0076057017 0.72600001 7.1919233e-39
0.049226664 -0.0076266602 0.72800004 7.2834057e-39
0.050613325 -0.0076266602 0.72800004 7.2834113e-39
-0.022974279 -0.0062656924 0.73100001 1.9078033e-38
-0.021581907 -0.0062656999 0.73100001 1.770373e-38
-0.020189533 -0.0062656999 0.73100001 1.6418765e-38
-0.018797135 -0.0062657073 0.73100001 1.7893526e-38
-0.017404761 -0.0062656999 0.73100001 1.9454388e-38
-0.016012389 -0.0062656924 0.73100001 1.9183201e-38
-0.014619993 -0.0062657073 0.73100001 1.8824475e-38
-0.013227619 -0.0062656999 0.73100001 2.1120368e-38
-0.011835246 -0.0062656999 0.73100001 2.341769e-38
-0.010414293 -0.0062485635 0.72900003 2.341769e-38
-0.0090257069 -0.0062485784 0.72900009 2.341769e-38
-0.007637132 -0.006248571 0.72900003 2.341769e-38
-0.006248571 -0.0062485784 0.72900003 2.341769e-38
-0.0048599951 -0.0062485635 0.72900003 2.341769e-38
-0.0034714348 -0.0062485635 0.72900003 2.341769e-38
-0.0020800096 -0.0062399954 0.72800004 2.341769e-38
-0.00069428806 -0.0062485635 0.72900003 2.3417676e-38
0.00069428782 -0.0062485784 0.72900003 2.2033671e-38
0.0020828552 -0.0062485635 0.72900003 2.0650414e-38
0.0034714236 -0.006248571 0.72900003 2.1853617e-38
0.0048600025 -0.006248571 0.72900009 2.295851e-38
0.0062485775 -0.0062485635 0.72900003 2.2772682e-38
0.0076371459 -0.0062485784 0.72900003 2.2680849e-38
0.0090133315 -0.0062399954 0.72800004 2.2313868e-38
0.010399995 -0.0062399879 0.72800004 2.2037639e-38
0.011786663 -0.0062399954 0.72800004 2.2404618e-38
0.013137143 -0.0062228516 0.72600001 2.2866671e-38
0.014519989 -0.0062228516 0.72599995 2.3142183e-38
0.015902851 -0.0062228441 0.72600001 2.341769e-38
0.017285714 -0.0062228665 0.72600001 2.341769e-38
0.018668566 -0.0062228516 0.72600001 2.341769e-38
0.020051431 -0.0062228516 0.72600001 2.341769e-38
0.021434274 -0.0062228441 0.72600001 2.3325854e-38
0.022817137 -0.0062228441 0.72600001 2.341769e-38
0.02426666 -0.0062399954 0.72800004 2.341768e-38
0.025653323 -0.0062399879 0.72799999 2.0933806e-38
0.02703999 -0.0062399954 0.72800004 1.8442966e-38
0.028348569 -0.0062228516 0.72600001 1.503341e-38
0.029731434 -0.006222859 0.72600001 1.1631601e-38
0.031114284 -0.0062228441 0.72600001 1.2093339e-38
0.032497149 -0.0062228665 0.72600001 1.2554317e-38
0.033833332 -0.0062142685 0.72500002 1.3199682e-38
0.035214275 -0.0062142834 0.72500002 1.3939138e-38
0.036595237 -0.006214276 0.72500002 1.0345463e-38
0.038028572 -0.0062228441 0.72600001 6.7502159e-39
0.039411426 -0.006222859 0.72600001 7.205415e-39
0.040794279 -0.0062228441 0.72600001 7.661626e-39
0.042177141 -0.006222859 0.72600001 7.2848603e-39
0.043559991 -0.0062228441 0.72600001 6.9150043e-39
0.04506667 -0.0062399954 0.72800004 7.0068356e-39
0.046517145 -0.006248571 0.72900003 7.1901451e-39
0.047839992 -0.0062399954 0.72800004 7.3748895e-39
0.049226668 -0.0062399954 0.72800004 7.4674537e-39
-0.024366669 -0.004873313 0.73100001 2.3050312e-38
-0.022911422 -0.0048599988 0.72900003 2.3134607e-38
-0.021581911 -0.0048733205 0.73099995 2.0471729e-38
-0.020189527 -0.004873313 0.73100001 1.7800975e-38
-0.018797141 -0.0048733205 0.73100001 1.7339655e-38
-0.017404767 -0.004873313 0.73100001 1.6788629e-38
-0.016012384 -0.0048733279 0.73100001 1.5862729e-38
-0.014619997 -0.0048733205 0.73100001 1.4955522e-38
-0.013227625 -0.0048733056 0.73100001 1.918895e-38
-0.011835241 -0.0048733279 0.73100007 2.3416612e-38
-0.010442853 -0.0048733205 0.73100001 2.341769e-38
-0.0090257199 -0.0048599988 0.72900003 2.341769e-38
-0.007637145 -0.0048599914 0.72900003 2.341769e-38
-0.0062485738 -0.0048599988 0.72900009 2.341769e-38
-0.0048599979 -0.0048599988 0.72900003 2.341769e-38
-0.0034714227 -0.0048599839 0.72900003 2.341769e-38
-0.0020800091 -0.0048533231 0.72800004 2.341769e-38
-0.00069427595 -0.0048599988 0.72900009 2.341732e-38
0.00069429155 -0.0048600063 0.72900003 2.2773383e-38
0.0020828608 -0.0048599988 0.72900003 2.2126599e-38
0.0034714283 -0.0048599914 0.72900003 2.2499334e-38
0.004859997 -0.0048599988 0.72900003 2.2772322e-38
0.0062485756 -0.0048600063 0.72900009 2.295527e-38
0.0076371506 -0.0048599988 0.72900003 2.314074e-38
0.0090133287 -0.0048533082 0.72799999 2.277484e-38
0.010399995 -0.004853338 0.72800004 2.2404983e-38
0.011786662 -0.0048533231 0.72800004 2.2680484e-38
0.013137135 -0.0048399866 0.72600001 2.2865595e-38
0.014519998 -0.0048400015 0.72600001 2.3142183e-38
0.015902851 -0.004839994 0.72600001 2.341769e-38
0.017333327 -0.0048533231 0.72799999 2.341769e-38
0.018719994 -0.0048533231 0.72800004 2.341769e-38
0.020051429 -0.0048399866 0.72600001 2.3325854e-38
0.021434274 -0.004839994 0.72600001 2.3234019e-38
0.022879995 -0.0048533306 0.72800004 2.3325854e-38
0.024266664 -0.0048533306 0.72800004 2.3417319e-38
0.025653321 -0.0048533231 0.72800004 2.0753e-38
0.027039997 -0.0048533306 0.72800004 1.7980554e-38
0.028426666 -0.0048533231 0.72800004 1.4842919e-38
0.029731421 -0.004839994 0.72600001 1.1632289e-38
0.031114276 -0.004839994 0.72600001 1.209436e-38
0.032497138 -0.0048400015 0.72600001 1.2462819e-38
0.033879992 -0.0048399866 0.72599995 1.3016025e-38
0.035262853 -0.004839994 0.72600001 1.3567143e-38
0.036645714 -0.0048400015 0.72600001 1.0346908e-38
0.038028568 -0.0048399866 0.72600001 7.0289509e-39
0.039411433 -0.0048400015 0.72600001 7.3887203e-39
0.040906671 -0.0048533306 0.72800004 7.6583876e-39
0.042293329 -0.0048533157 0.72800004 7.4631377e-39
0.043679997 -0.0048533231 0.72800004 7.1894206e-39
0.04506667 -0.0048533306 0.72800004 7.2823295e-39
0.046517152 -0.0048600063 0.72900009 7.2826826e-39
0.047839999 -0.0048533231 0.72800004 7.4659907e-39
0.049226664 -0.0048533306 0.72799999 7.6503764e-39
-0.024366675 -0.0034809336 0.73100001 2.3142183e-38
-0.022911426 -0.0034714192 0.72900003 2.3142168e-38
-0.021581903 -0.0034809336 0.73100001 2.0193014e-38
-0.020189531 -0.0034809411 0.73100001 1.7249618e-38
-0.018797144 -0.0034809336 0.73099995 1.7067028e-38
-0.017404761 -0.0034809336 0.73100001 1.6885829e-38
-0.016012389 -0.0034809411 0.73100001 1.5956314e-38
-0.01462 -0.0034809262 0.73100001 1.503693e-38
-0.013227618 -0.0034809411 0.73100001 1.9185718e-38
-0.011835245 -0.0034809411 0.73100001 2.3417687e-38
-0.010442858 -0.0034809262 0.73100001 2.341769e-38
-0.0090504745 -0.0034809485 0.73100007 2.341769e-38
-0.0076581025 -0.0034809411 0.73100001 2.341769e-38
-0.0062657152 -0.0034809262 0.73100001 2.341769e-38
-0.0048733419 -0.0034809411 0.73099995 2.341769e-38
-0.0034809445 -0.0034809336 0.73100001 2.341769e-38
-0.0020828501 -0.0034714341 0.72900003 2.3234019e-38
-0.00069428899 -0.0034714192 0.72900003 2.305034e-38
0.00069428596 -0.0034714118 0.72900003 2.1573428e-38
0.0020828645 -0.0034714341 0.72900009 2.0012232e-38
0.003471433 -0.0034714192 0.72900003 2.1117135e-38
0.0048600016 -0.0034714267 0.72900003 2.2217e-38
0.0062485691 -0.0034714267 0.72900003 2.2125513e-38
0.0076371375 -0.0034714118 0.72900003 2.2040146e-38
0.0090257237 -0.0034714341 0.72900009 2.2129841e-38
0.010414292 -0.0034714192 0.72900003 2.2219159e-38
0.011786664 -0.0034666583 0.72800004 2.2588289e-38
0.013173329 -0.0034666583 0.72800004 2.3048907e-38
0.014559995 -0.0034666583 0.72800004 2.323366e-38
0.015968576 -0.0034714267 0.72900009 2.341769e-38
0.01735715 -0.0034714192 0.72900003 2.3417689e-38
0.018745711 -0.0034714267 0.72900003 2.341769e-38
0.020134287 -0.0034714267 0.72900003 2.3325854e-38
0.021493327 -0.0034666583 0.72800004 2.3325496e-38
0.022911435 -0.0034714267 0.72900009 2.3325854e-38
0.0243 -0.0034714267 0.72900003 2.3417675e-38
0.02568857 -0.0034714267 0.72900003 2.0379554e-38
0.027077144 -0.0034714192 0.72900003 1.7332679e-38
0.028426658 -0.0034666434 0.72799999 1.447916e-38
0.029813325 -0.0034666583 0.72800004 1.1633336e-38
0.031114276 -0.003457129 0.72599995 1.1909917e-38
0.032497149 -0.0034571439 0.72600001 1.2278051e-38
0.03388001 -0.0034571365 0.72600001 1.2831649e-38
0.035262857 -0.003457129 0.72600001 1.3385277e-38
0.036645718 -0.0034571439 0.72600001 1.0529511e-38
0.038133323 -0.0034666508 0.72800004 7.7629188e-39
0.039519995 -0.0034666583 0.72800004 7.8521956e-39
0.04090666 -0.0034666583 0.72800004 7.9367541e-39
0.042293329 -0.0034666657 0.72800004 7.4674284e-39
0.043679994 -0.0034666583 0.72800004 7.0968551e-39
0.045128569 -0.0034714341 0.72900003 7.006809e-39
0.046517145 -0.0034714267 0.72900003 7.0078796e-39
0.047839995 -0.0034666583 0.72800004 7.1911849e-39
0.04922666 -0.0034666583 0.72800004 7.4663158e-39
-0.024366669 -0.0020885691 0.73100001 2.3234019e-38
-0.022974283 -0.0020885542 0.73100001 2.3045299e-38
-0.021581909 -0.0020885468 0.73100001 1.9908156e-38
-0.020189526 -0.0020885617 0.73100007 1.6696794e-38
-0.018797139 -0.0020885617 0.73100001 1.6884062e-38
-0.017428581 -0.0020914078 0.73199999 1.6968334e-38
-0.016012378 -0.0020885468 0.73099995 1.6039907e-38
-0.014619995 -0.0020885617 0.73100001 1.5041239e-38
-0.013227623 -0.0020885617 0.73100001 1.9283293e-38
-0.011835251 -0.0020885542 0.73100001 2.3417328e-38
-0.010442852 -0.0020885542 0.73100001 2.341769e-38
-0.0090504792 -0.0020885617 0.73100001 2.341769e-38
-0.0076580923 -0.0020885542 0.73100001 2.341769e-38
-0.0062657092 -0.0020885691 0.73100001 2.341769e-38
-0.0048733368 -0.0020885542 0.73100001 2.341769e-38
-0.0034809487 -0.0020885542 0.73100001 2.341769e-38
-0.0020828519 -0.002082862 0.72900003 2.3050348e-38
-0.00069428433 -0.0020828545 0.72900003 2.2677248e-38
0.0006942841 -0.0020828471 0.72900003 2.0273724e-38
0.0020828589 -0.0020828545 0.72900003 1.7894266e-38
0.0034714283 -0.0020828471 0.72900003 1.9740317e-38
0.0048600072 -0.0020828694 0.72900003 2.157379e-38
0.0062485756 -0.0020828545 0.72900003 2.1198189e-38
0.0076371431 -0.0020828471 0.72900003 2.0839463e-38
0.0090257116 -0.0020828545 0.72900003 2.148519e-38
0.01041429 -0.002082862 0.72900009 2.2036204e-38
0.011802866 -0.002082862 0.72900003 2.2588654e-38
0.013173329 -0.0020799935 0.72800004 2.3141104e-38
0.014559995 -0.0020800084 0.72800004 2.3325854e-38
0.015968569 -0.0020828545 0.72900003 2.341769e-38
0.017357148 -0.002082862 0.72900009 2.341769e-38
0.018745717 -0.002082862 0.72900003 2.341769e-38
0.020134285 -0.0020828471 0.72900003 2.341769e-38
0.021522861 -0.0020828471 0.72900003 2.3325854e-38
0.022911428 -0.0020828545 0.72900003 2.341769e-38
0.024300005 -0.0020828545 0.72900009 2.3416597e-38
0.025688576 -0.002082862 0.72900003 2.0106556e-38
0.027077142 -0.0020828545 0.72900003 1.669234e-38
0.02842666 -0.0020799935 0.72800004 1.4107155e-38
0.029813334 -0.0020799935 0.72800004 1.1539732e-38
0.031200003 -0.0020800009 0.72800004 1.1817416e-38
0.032586664 -0.002079986 0.72800004 1.2002567e-38
0.033880003 -0.0020742863 0.72600001 1.2646895e-38
0.035262853 -0.0020742714 0.72600001 1.3198372e-38
0.036645718 -0.0020742789 0.72600001 1.0806092e-38
0.038133331 -0.0020800009 0.72800004 8.4151014e-39
0.039519999 -0.0020799935 0.72800004 8.319998e-39
0.040906664 -0.0020799935 0.72800004 8.1193573e-39
0.042293336 -0.0020799935 0.72800004 7.5560367e-39
0.043680001 -0.002079986 0.72800004 7.0053741e-39
0.045128584 -0.0020828545 0.72900009 6.823131e-39
0.046517149 -0.0020828545 0.72900003 6.6394558e-39
0.047839995 -0.0020799935 0.72799999 6.9156756e-39
0.049226664 -0.0020799935 0.72800004 7.1904576e-39
0.050682865 -0.002082862 0.72900009 7.1890142e-39
-0.025759047 -0.0006961748 0.73100001 2.341769e-38
-0.024366673 -0.00069618225 0.73100001 2.3234019e-38
-0.022974286 -0.00069616735 0.73100001 2.3141427e-38
-0.021581903 -0.00069616735 0.73100001 1.9085918e-38
-0.020189531 -0.00069618225 0.73100001 1.5133419e-38
-0.018797144 -0.00069616735 0.73100001 1.6048919e-38
-0.017428588 -0.00069711357 0.73199999 1.7053352e-38
-0.01603429 -0.00069712102 0.73199999 1.6415149e-38
-0.014640006 -0.00069711357 0.73199999 1.5774492e-38
-0.013245722 -0.00069712847 0.73200005 1.9644178e-38
-0.011851439 -0.00069712847 0.73200005 2.3417687e-38
-0.010442858 -0.00069618225 0.73100001 2.341769e-38
-0.0090628667 -0.00069712102 0.73199999 2.341769e-38
-0.0076580863 -0.0006961748 0.73100001 2.341769e-38
