# .PCD v0.7 - Point Cloud Data file format
VERSION 0.7
FIELDS x y z rgb
SIZE 4 4 4 4
TYPE F F F F
COUNT 1 1 1 1
WIDTH 976
HEIGHT 1
VIEWPOINT 0 0 0 1 0 0 0
POINTS 976
DATA ascii
-0.013227602 0.0034809485 0.73099995 1.35621e-38
-0.011835258 0.003480956 0.73099995 1.2261963e-38
-0.010414297 0.0034714341 0.72899997 9.0322038e-39
-0.0090133343 0.0034666583 0.72799999 5.819039e-39
-0.0076057245 0.0034571365 0.72599995 6.7366779e-39
-0.00622288 0.0034571365 0.72599995 7.5748267e-39
-0.0048333597 0.0034523681 0.72499996 8.5948529e-39
-0.0034428616 0.0034428462 0.72299999 9.5225419e-39
-0.0020543118 0.0034237951 0.71899998 1.0722509e-38
-0.00068285363 0.0034142733 0.71699995 1.1912065e-38
0.00068287319 0.0034142733 0.71699989 9.6125908e-39
0.0020457203 0.0034095049 0.71599996 7.2198442e-39
0.0033999844 0.0033999905 0.71399999 6.5730483e-39
0.004760006 0.0033999905 0.71399999 5.9237356e-39
0.0061199847 0.0033999905 0.71399999 3.0667823e-39
0.0074799801 0.0033999979 0.71399999 1.2768772e-40
0.008839963 0.0033999979 0.71399999 7.8479678e-39
0.010199981 0.0033999905 0.71399999 1.5590858e-38
0.01159239 0.0034095123 0.71599996 1.9560599e-38
0.012974275 0.0034142882 0.71699995 2.3415881e-38
0.014399962 0.0034285635 0.72000003 2.3417658e-38
0.015771402 0.0034285635 0.72000003 2.3416598e-38
0.017190451 0.0034380779 0.722 2.341769e-38
0.018591436 0.0034428611 0.72299999 2.341769e-38
0.019968549 0.0034428462 0.72299999 2.341769e-38
0.021404749 0.0034523606 0.72500002 2.341769e-38
0.022911415 0.0034714267 0.72899997 2.341769e-38
0.024366671 0.0034809411 0.73099995 2.3417687e-38
0.025759056 0.0034809411 0.73099995 2.3325847e-38
0.027151439 0.0034809485 0.73099995 2.3137154e-38
0.02858285 0.0034857094 0.73199999 2.1856478e-38
0.030140949 0.0035047457 0.736 2.0463879e-38
0.031585738 0.0035095066 0.73699999 1.6974848e-38
0.033079054 0.0035190284 0.73899996 1.3456025e-38
0.034533352 0.0035238042 0.73999995 7.7446291e-39
0.036039997 0.0035333112 0.74199998 2.0565891e-39
0.037503831 0.0035380721 0.74299997 4.3639769e-39
0.039023802 0.0035476089 0.745 6.5748448e-39
0.040551428 0.0035571158 0.74700004 8.6013241e-39
0.042030487 0.0035618842 0.74799997 1.0619911e-38
0.04357145 0.0035714209 0.75 9.8873798e-39
0.045120016 0.0035809427 0.75199997 9.1490665e-39
0.046738133 0.0035952255 0.755 7.211152e-39
0.04836762 0.0036095232 0.75799996 5.2652557e-39
0.049942888 0.0036190376 0.75999999 6.1773805e-39
0.051255241 0.0036095157 0.7579999 7.0057146e-39
0.052838132 0.0036190376 0.75999999 7.0975711e-39
0.054285727 0.0036190376 0.76000005 7.1897681e-39
0.055733368 0.003619045 0.75999999 7.0986529e-39
0.057256214 0.0036238208 0.76099992 7.0064587e-39
-0.044210464 0.0050733238 0.76099992 9.598802e-39
-0.042704776 0.0050666556 0.75999999 1.0057995e-38
-0.041257136 0.0050666556 0.75999999 1.0522943e-38
-0.039704751 0.0050533265 0.7579999 1.3284853e-38
-0.038160015 0.0050399974 0.75599998 1.6045675e-38
-0.036671419 0.0050333291 0.755 1.5585436e-38
-0.035139997 0.00502 0.75299996 1.5217366e-38
-0.033660963 0.0050133318 0.75199997 1.5401384e-38
-0.032142859 0.0049999878 0.75 1.5585394e-38
-0.030714303 0.0049999952 0.75 1.4200666e-38
-0.029207632 0.0049866512 0.74799997 1.2911742e-38
-0.027745731 0.004979983 0.74699998 1.3187609e-38
-0.0262524 0.0049666539 0.745 1.3463485e-38
-0.024833359 0.0049666464 0.74500006 1.373972e-38
-0.023351435 0.0049533173 0.74299997 1.4014864e-38
-0.021906694 0.0049466416 0.74200004 1.3554605e-38
-0.020438118 0.00493332 0.73999995 1.3187983e-38
-0.019002838 0.0049266666 0.7389999 1.3740432e-38
-0.017547604 0.0049133226 0.73699999 1.4293609e-38
-0.016078118 0.0048933327 0.73399997 1.4662038e-38
-0.01464 0.0048799962 0.73199999 1.5029708e-38
-0.013245706 0.0048799962 0.73199999 1.374111e-38
-0.01183526 0.0048733279 0.73099995 1.244779e-38
-0.010414278 0.0048600063 0.72899997 9.4034974e-39
-0.0090133622 0.0048533231 0.72800004 6.4633462e-39
-0.0076266699 0.004853338 0.72799999 7.6644005e-39
-0.0062228893 0.004839994 0.72599995 8.8641264e-39
-0.0048333355 0.0048333332 0.72499996 9.2434299e-39
-0.0034523928 0.0048333257 0.72500002 9.6197528e-39
-0.0020543062 0.004793331 0.71899998 9.5250601e-39
-0.00068282755 0.0047799945 0.71699989 9.5229077e-39
0.00068286201 0.0047799945 0.71699989 8.0470811e-39
0.0020456999 0.0047733113 0.71600002 6.57054e-39
0.0033999826 0.0047599897 0.71399999 6.110645e-39
0.0047600004 0.0047599897 0.71399999 5.5574684e-39
0.0061199828 0.0047599897 0.71399999 2.8834659e-39
0.0074800006 0.0047599971 0.71399999 2.0840111e-40
0.0088399798 0.0047599897 0.71399999 7.2061956e-39
0.010199979 0.0047599971 0.71399999 1.4217272e-38
0.011608573 0.0047799796 0.71699995 1.882161e-38
0.012974299 0.004779987 0.71699989 2.341769e-38
0.014399977 0.0047999844 0.71999997 2.3325854e-38
0.015771419 0.0047999844 0.71999997 2.3325854e-38
0.017190477 0.0048133358 0.722 2.2591171e-38
0.018591439 0.0048199892 0.72299999 2.1948322e-38
0.019968553 0.0048199892 0.72299999 2.0658679e-38
0.021404769 0.0048333332 0.72499996 1.9468764e-38
0.022911433 0.0048600063 0.72899997 1.7805321e-38
0.024366669 0.0048733279 0.73099995 1.6162679e-38
0.025759052 0.0048733279 0.73099995 1.660463e-38
0.027151436 0.0048733354 0.73099995 1.7060578e-38
0.028582862 0.0048800036 0.73199999 1.7238866e-38
0.030140951 0.0049066544 0.736 1.7402448e-38
0.031585749 0.0049133226 0.73699993 1.2070607e-38
0.033079047 0.0049266517 0.73899996 6.8047628e-39
0.034533355 0.0049333274 0.73999995 5.1682143e-39
0.036039952 0.0049466491 0.74199998 3.616359e-39
0.03750382 0.0049533099 0.74300003 5.2805382e-39
0.039023809 0.0049666539 0.745 6.8499925e-39
0.040551431 0.0049799904 0.74699998 8.3229478e-39
0.042030461 0.0049866661 0.74799997 9.8852274e-39
0.043571398 0.0049999878 0.75 9.6115146e-39
0.044999961 0.0049999952 0.75 9.3370338e-39
0.046738092 0.0050333068 0.75500005 7.6660064e-39
0.048240006 0.0050399974 0.75599998 5.9852218e-39
0.049942859 0.005066663 0.75999999 6.450373e-39
0.051255275 0.0050533265 0.75799996 6.9153351e-39
0.052838095 0.0050666556 0.75999999 7.0979747e-39
0.054285735 0.0050666556 0.75999999 7.2823449e-39
0.055733334 0.0050666556 0.75999999 7.0979383e-39
0.057180971 0.005066663 0.75999999 6.9135512e-39
-0.044210467 0.0065228492 0.76099998 8.2147759e-39
-0.042704746 0.006514281 0.75999999 8.8540483e-39
-0.041257147 0.006514281 0.75999999 9.4180303e-39
-0.039704781 0.0064971298 0.75799996 1.2642373e-38
-0.038159981 0.0064799935 0.75599998 1.5768373e-38
-0.036671419 0.0064714178 0.755 1.5401037e-38
-0.035140015 0.0064542815 0.75299996 1.503369e-38
-0.033660971 0.006445691 0.75199997 1.5217356e-38
-0.032142848 0.0064285621 0.75 1.5399575e-38
-0.030714286 0.0064285696 0.75 1.419924e-38
-0.029207632 0.0064114109 0.74799997 1.2912455e-38
-0.027745742 0.0064028352 0.74699998 1.3187234e-38
-0.026322857 0.0064028502 0.74699998 1.3371278e-38
-0.024833351 0.0063856915 0.745 1.3463486e-38
-0.023414293 0.0063857064 0.745 1.3555319e-38
-0.021936174 0.0063685551 0.74299997 1.3095782e-38
-0.020493347 0.006359987 0.74199998 1.2545489e-38
-0.019002844 0.006334275 0.73899996 1.3374164e-38
-0.017523799 0.0063085556 0.736 1.4202484e-38
-0.016078092 0.0062914342 0.73399997 1.4662744e-38
-0.01463999 0.0062742904 0.73199999 1.512083e-38
-0.013245698 0.006274268 0.73199999 1.3832964e-38
-0.011835262 0.0062657073 0.73099995 1.2537494e-38
-0.010442877 0.0062657148 0.73099995 9.8544493e-39
-0.009025719 0.006248571 0.72899997 7.111252e-39
-0.0076371417 0.0062485635 0.72899997 8.6853992e-39
-0.0062228986 0.006222859 0.72599995 1.0159896e-38
-0.0048399926 0.006222859 0.72599995 9.8941831e-39
-0.0034524095 0.0062142611 0.72500002 9.6158138e-39
-0.0020543006 0.006162852 0.71899998 8.4187293e-39
-0.0006847796 0.0061628446 0.71899998 7.1308786e-39
0.00068287132 0.0061457083 0.71699995 6.5734084e-39
0.0020457203 0.0061371252 0.71599996 5.9280488e-39
0.0034095473 0.0061371252 0.71599996 5.5571209e-39
0.004759965 0.0061199963 0.71399999 5.1876195e-39
0.0061199809 0.0061199963 0.71399999 2.7930737e-39
0.0074800025 0.0061199963 0.71399999 3.0561759e-40
0.0088647548 0.0061371252 0.71599996 6.5507845e-39
0.010228585 0.0061371326 0.71599996 1.2829332e-38
0.011608599 0.0061457083 0.71699989 1.8091231e-38
0.013010472 0.0061628446 0.71899998 2.332585e-38
0.014379971 0.0061628446 0.71899998 2.3325846e-38
0.015771395 0.0061714128 0.72000003 2.3227909e-38
0.017190497 0.0061885715 0.722 2.1856473e-38
0.018591404 0.0061971247 0.72300005 2.0372751e-38
0.020023808 0.006214276 0.72499996 1.7891395e-38
0.021434266 0.0062228367 0.72599995 1.5397843e-38
0.022911411 0.0062485635 0.72899997 1.2172118e-38
0.024299987 0.0062485784 0.72899997 8.8760893e-39
0.025759052 0.0062657148 0.73099995 9.9609017e-39
0.027151437 0.0062657148 0.73099995 1.0989388e-38
0.028582865 0.0062742904 0.73199999 1.2635971e-38
0.030181918 0.0063171238 0.73699999 1.4288619e-38
0.031585727 0.0063171238 0.73699999 7.1921433e-39
0.033123814 0.0063428432 0.73999995 1.0935453e-40
0.034533352 0.0063428432 0.73999995 2.6908168e-39
0.036039975 0.0063599795 0.74199998 5.1786414e-39
0.037503827 0.0063685477 0.74299997 6.1996107e-39
0.03902382 0.0063857064 0.745 7.1247815e-39
0.040551394 0.0064028427 0.74699998 8.1392768e-39
0.042142831 0.0064285547 0.75 9.0590667e-39
0.043571435 0.0064285547 0.75000006 9.3363668e-39
0.04511996 0.0064457059 0.75199997 9.5171189e-39
0.046738088 0.0064714178 0.755 8.1309278e-39
0.048176207 0.0064714178 0.755 6.7321111e-39
0.04981143 0.0064971372 0.75799996 6.8152179e-39
0.05125526 0.0064971372 0.75799996 6.820271e-39
0.052838098 0.006514281 0.75999999 7.0968831e-39
0.054285698 0.006514281 0.75999999 7.2812589e-39
0.055733338 0.0065142885 0.75999999 7.0975739e-39
0.057256211 0.0065228492 0.76099998 6.8220688e-39
-0.045660011 0.007972382 0.76099998 1.1708427e-38
-0.04421049 0.0079723746 0.76099998 9.7702032e-39
-0.042592376 0.0079409406 0.7579999 1.1064874e-38
-0.041257121 0.0079618916 0.75999999 1.2356751e-38
-0.039704792 0.007940948 0.75799996 1.4204303e-38
-0.038260963 0.0079409555 0.75799996 1.5953478e-38
-0.03672003 0.0079200044 0.75599998 1.5585055e-38
-0.035233337 0.007909514 0.755 1.5217356e-38
-0.033705723 0.0078885704 0.7529999 1.530991e-38
-0.03214287 0.007857129 0.75000006 1.5493569e-38
-0.030714313 0.0078571215 0.75000006 1.4201042e-38
-0.029285714 0.007857129 0.75 1.2820617e-38
-0.027782887 0.0078361779 0.74799997 1.2910276e-38
-0.02632289 0.0078256875 0.74699998 1.2911011e-38
-0.02483334 0.0078047439 0.745 1.318761e-38
-0.023414321 0.0078047439 0.74500006 1.3463118e-38
-0.021936184 0.0077837929 0.74299997 1.3187253e-38
-0.020493366 0.0077733099 0.74199998 1.2911392e-38
-0.019028574 0.0077523887 0.73999995 1.3557114e-38
-0.017547615 0.0077209398 0.73699999 1.4111717e-38
-0.016121907 0.0077104568 0.73600006 1.4570898e-38
-0.014679987 0.0076895282 0.73399997 1.4936803e-38
-0.013245691 0.0076685846 0.73199999 1.38337e-38
-0.011851422 0.0076685622 0.73199999 1.2636527e-38
-0.010442879 0.0076580942 0.73099995 9.1309098e-39
-0.0090257004 0.0076371431 0.72899997 5.6455064e-39
-0.0076371622 0.0076371208 0.72899997 7.3958011e-39
-0.0062400145 0.0076266602 0.72800004 9.2465926e-39
-0.0048399982 0.0076057166 0.72599995 9.0630127e-39
-0.003452389 0.0075952262 0.72499996 8.9686661e-39
-0.0020571654 0.0075428411 0.72000003 8.0506699e-39
-0.00068477215 0.0075323656 0.71899998 7.2230728e-39
0.00068286201 0.0075114071 0.71699995 6.5752007e-39
0.0020456961 0.0075009465 0.71599996 5.9287663e-39
0.0034095212 0.0075009316 0.71599996 5.1912139e-39
0.0047733518 0.0075009316 0.71599996 4.5465689e-39
0.0061371378 0.0075009316 0.71599996 2.4235877e-39
0.0075009684 0.0075009391 0.71599996 2.1127237e-40
0.0088771284 0.0075114295 0.71699995 3.33797e-39
0.010242878 0.0075114295 0.71699989 6.4880161e-39
0.011640955 0.0075323731 0.71899998 1.1642657e-38
0.013010476 0.0075323656 0.71899998 1.6804808e-38
0.014399989 0.0075428411 0.72000003 1.6234774e-38
0.015815241 0.0075638145 0.722 1.5678375e-38
0.017190496 0.0075638071 0.722 1.6409824e-38
0.018591408 0.0075742751 0.72300005 1.7040109e-38
0.020023789 0.0075952262 0.72499996 1.6950775e-38
0.021434259 0.0076057017 0.72599995 1.6834182e-38
0.022911429 0.0076371431 0.72899997 1.6309351e-38
0.024300009 0.0076371431 0.72899991 1.5850908e-38
0.025759049 0.0076580942 0.73099995 1.6504893e-38
0.027188607 0.0076685697 0.73199999 1.7156714e-38
0.028660972 0.0076895282 0.73399997 1.798503e-38
0.030181933 0.0077209398 0.73699999 1.8821531e-38
0.031671453 0.0077418834 0.73899996 1.1618479e-38
0.033123814 0.0077523813 0.73999995 4.4123217e-39
0.03462667 0.0077733099 0.74199998 4.0575942e-39
0.036088604 0.0077837929 0.74299997 3.7996782e-39
0.037604745 0.0078047514 0.74500006 5.1883426e-39
0.039023802 0.0078047588 0.745 6.5748448e-39
0.040605705 0.0078361779 0.74799997 8.3233065e-39
0.042142872 0.007857129 0.75 1.0161451e-38
0.043687612 0.00787808 0.75200003 1.0070692e-38
0.045120012 0.0078780726 0.75199997 1.0069927e-38
0.046799965 0.0079199895 0.75599998 7.6678071e-39
0.048240028 0.007919997 0.75599998 5.2620341e-39
0.049942873 0.0079618916 0.76000005 5.7157171e-39
0.05139051 0.007961899 0.75999999 6.0863031e-39
0.052907642 0.0079723671 0.76099998 6.2696307e-39
0.054357141 0.0079723746 0.76099998 6.4540108e-39
0.055953357 0.007993333 0.76299995 6.3618081e-39
0.057256185 0.0079723597 0.76099998 6.1784973e-39
0.058628537 0.007961899 0.75999999 5.7178863e-39
-0.047109537 0.0094219074 0.76099998 1.327942e-38
-0.045660015 0.0094219074 0.76099998 1.2257697e-38
-0.04415239 0.009409517 0.75999999 1.1251122e-38
-0.042704754 0.0094095245 0.75999999 1.3279064e-38
-0.041257154 0.009409517 0.75999999 1.5305931e-38
-0.039704785 0.0093847513 0.75799996 1.5772312e-38
-0.038260952 0.0093847588 0.75799996 1.6137143e-38
-0.03672 0.0093600005 0.75599998 1.5768007e-38
-0.035280015 0.0093600005 0.75599998 1.5309547e-38
-0.033705723 0.0093228593 0.75299996 1.5494296e-38
-0.032142881 0.0092856959 0.75 1.5583605e-38
-0.030714296 0.0092856959 0.75 1.4199241e-38
-0.029207602 0.009260945 0.74799997 1.2727348e-38
-0.027745729 0.0092485547 0.74699998 1.2630476e-38
-0.026322862 0.0092485547 0.74699998 1.2451118e-38
-0.024833359 0.0092237964 0.745 1.2912098e-38
-0.023414314 0.0092237964 0.74500006 1.3370917e-38
-0.021936174 0.0091990456 0.74299997 1.3370918e-38
-0.020520942 0.0091990381 0.74299997 1.3279448e-38
-0.019080035 0.0091866478 0.74200004 1.3647875e-38
-0.0175476 0.0091247484 0.73699999 1.4017735e-38
-0.016121902 0.0091123655 0.736 1.4388313e-38
-0.01468 0.0090876147 0.73399997 1.4754573e-38
-0.013245685 0.0090628564 0.73199999 1.3744737e-38
-0.011851415 0.0090628564 0.73199999 1.2723679e-38
-0.010442881 0.0090504736 0.73099995 8.478335e-39
-0.0090504959 0.0090504661 0.73099995 4.1678386e-39
-0.0076371455 0.0090257153 0.72899997 6.1886091e-39
-0.0062400051 0.0090133175 0.72799999 8.2259709e-39
-0.0048533515 0.0090133175 0.72799999 8.2346996e-39
-0.0034524058 0.0089761838 0.72500002 8.2343409e-39
-0.0020571505 0.008914277 0.71999997 7.7755221e-39
-0.00068476843 0.0089019015 0.71899998 7.3134748e-39
0.00068475259 0.0089019015 0.71899998 6.5748433e-39
0.0020485981 0.0088771433 0.71699995 5.8383671e-39
0.0034095044 0.0088647455 0.71599996 4.9160661e-39
0.0047733313 0.0088647529 0.71599996 3.9001261e-39
0.0061371583 0.0088647529 0.71599996 2.0515668e-39
0.0075009461 0.0088647306 0.71600002 1.1546839e-40
0.0088771749 0.0088771284 0.71699989 1.0217708e-40
0.010242864 0.0088771284 0.71699989 1.2371223e-40
0.011640923 0.0089019015 0.71899998 5.1861566e-39
0.01302856 0.0089142844 0.71999997 1.0250029e-38
0.014440006 0.0089390352 0.722 9.2211899e-39
0.015815234 0.0089390427 0.722 8.1363789e-39
0.017214295 0.0089514256 0.72299999 1.0971797e-38
0.01864285 0.0089761838 0.72499996 1.3743368e-38
0.020023772 0.0089761764 0.72500002 1.6037466e-38
0.021493316 0.0090133175 0.72800004 1.8249048e-38
0.022911407 0.0090257078 0.72899997 2.0563228e-38
0.024366662 0.0090504736 0.73099995 2.2855895e-38
0.025759045 0.0090504661 0.73099995 2.3142172e-38
0.027188573 0.009062849 0.73199999 2.3321899e-38
0.028739041 0.009112373 0.736 2.3325846e-38
0.030181944 0.0091247484 0.73699999 2.322752e-38
0.031671427 0.0091495067 0.73899996 1.5956698e-38
0.033123814 0.009161897 0.73999995 8.6593799e-39
0.034626625 0.0091866404 0.74199998 5.5108038e-39
0.036088575 0.0091990307 0.74299997 2.4178326e-39
0.037604757 0.0092237964 0.745 4.1788696e-39
0.039128542 0.0092485473 0.74700004 5.9302026e-39
0.040605679 0.0092609376 0.74799997 8.6006067e-39
0.042142823 0.0092857033 0.75 1.1172359e-38
0.043687619 0.0093104616 0.75199997 1.0898646e-38
0.045180008 0.0093228444 0.75299996 1.0525874e-38
0.046738096 0.0093475878 0.755 7.2075506e-39
0.048239999 0.0093599856 0.75599998 3.7940997e-39
0.050008569 0.0094218925 0.76099998 4.6079528e-39
0.051458068 0.0094218999 0.76099998 5.3483863e-39
0.052907653 0.0094219074 0.76099992 5.5331447e-39
0.054500006 0.0094466582 0.76299995 5.6253277e-39
0.055953354 0.0094466582 0.76299989 5.6253165e-39
0.057406709 0.0094466582 0.76299995 5.5331195e-39
-0.047109503 0.010871433 0.76099992 1.309936e-38
-0.045600004 0.010857128 0.75999999 1.1527008e-38
-0.044210456 0.010871418 0.76099998 9.8815532e-39
-0.042704761 0.010857135 0.75999999 1.2549854e-38
-0.041257124 0.010857143 0.75999999 1.5316017e-38
-0.039809525 0.010857128 0.75999999 1.5496077e-38
-0.038260944 0.01082857 0.75799996 1.5676882e-38
-0.036817152 0.010828555 0.75799996 1.5492857e-38
-0.035279989 0.010800004 0.75599998 1.5400662e-38
-0.033795234 0.010785706 0.755 1.5493574e-38
-0.032142863 0.010714263 0.75 1.5585752e-38
-0.030714307 0.010714278 0.75 1.4201028e-38
-0.029285723 0.01071427 0.75 1.2912098e-38
-0.027782857 0.010685697 0.74799997 1.2910657e-38
-0.026322877 0.010671422 0.74699998 1.2911734e-38
-0.024833348 0.010642849 0.745 1.3095403e-38
-0.023414306 0.010642841 0.74500006 1.3370552e-38
-0.021936188 0.010614268 0.74299997 1.3370911e-38
-0.020520952 0.010614268 0.74299997 1.3370564e-38
-0.019080017 0.010599993 0.74199998 1.3646799e-38
-0.017547587 0.010528564 0.73699999 1.3831557e-38
-0.016121898 0.010514267 0.736 1.4202498e-38
-0.014680015 0.010485709 0.73399997 1.4662743e-38
-0.0132457 0.010457151 0.73199993 1.4294316e-38
-0.011851408 0.010457143 0.73199999 1.3922185e-38
-0.010442885 0.010442846 0.73099995 1.0787814e-38
-0.0090504978 0.010442853 0.73099995 7.5631918e-39
-0.0076581133 0.010442853 0.73099995 7.7504725e-39
-0.0062485882 0.010414273 0.72899997 7.9482826e-39
-0.0048533385 0.010399997 0.72799999 8.0481587e-39
-0.0034571704 0.010371417 0.72599995 8.2336234e-39
-0.0020628688 0.010314286 0.722 8.0495937e-39
-0.00068573141 0.01028569 0.72000003 7.9563232e-39
0.00068475818 0.010271423 0.71899998 7.9548883e-39
0.002048587 0.010242842 0.71699995 8.0460064e-39
0.0034143007 0.010242842 0.71699995 6.9385994e-39
0.0047799866 0.01024285 0.71699995 5.9230098e-39
0.0061456985 0.01024285 0.71699995 6.6472723e-39
0.0075009665 0.010228567 0.71599996 7.4640807e-39
0.0088771638 0.010242857 0.71699995 7.1003008e-39
0.010242874 0.01024285 0.71699995 6.7182592e-39
0.011640931 0.010271423 0.71899998 1.0232768e-38
0.013028538 0.010285698 0.72000003 1.3644332e-38
0.01444 0.010314278 0.722 1.4664946e-38
0.015837122 0.010328561 0.72299999 1.5776299e-38
0.0172143 0.010328569 0.72299999 1.7155265e-38
0.018642835 0.010357127 0.72500002 1.8638281e-38
0.020023795 0.010357127 0.72499996 1.9734943e-38
0.021493329 0.01039999 0.72799999 2.0846296e-38
0.022911431 0.010414287 0.72899997 2.2038364e-38
0.024366662 0.010442846 0.73099995 2.3142183e-38
0.025759045 0.010442853 0.73099995 2.3234019e-38
0.02726287 0.010485716 0.73399997 2.341769e-38
0.028739044 0.010514267 0.736 2.3142183e-38
0.030181922 0.01052855 0.73699999 2.2958508e-38
0.031714275 0.010571413 0.74000001 1.6321955e-38
0.033213299 0.010599978 0.74199998 9.5835012e-39
0.034673352 0.010614268 0.74299997 5.805665e-39
0.036088567 0.010614261 0.74299997 2.0594505e-39
0.037604742 0.010642841 0.745 3.626063e-39
0.039128572 0.010671414 0.74699998 5.2841256e-39
0.040605735 0.010685705 0.74799997 8.4140658e-39
0.042142861 0.010714255 0.75000006 1.1538984e-38
0.043687589 0.010742843 0.75199997 1.1172718e-38
0.045179989 0.010757133 0.75299996 1.0713131e-38
0.046799984 0.010799982 0.75599998 7.2997406e-39
0.048367646 0.01082857 0.75799996 3.7930221e-39
0.050008584 0.010871433 0.76099992 5.0743049e-39
0.051593337 0.010900006 0.76299995 6.3596501e-39
0.053046644 0.010899991 0.76299989 5.808284e-39
0.054642871 0.010928579 0.76499999 5.3472989e-39
0.056100033 0.010928579 0.76499999 5.1646887e-39
0.057557151 0.010928556 0.76499999 5.0721301e-39
0.058860008 0.010899998 0.76299989 3.4101159e-39
-0.047109503 0.012320951 0.76099998 1.2905593e-38
-0.045660004 0.012320943 0.76099998 1.0686062e-38
-0.044210479 0.012320951 0.76099998 8.4949852e-39
-0.042760957 0.012320951 0.76099998 1.1905875e-38
-0.041311435 0.012320951 0.76099998 1.5215914e-38
-0.039809503 0.012304753 0.75999999 1.5219158e-38
-0.038361922 0.012304753 0.75999999 1.5218076e-38
-0.036817167 0.012272373 0.75799996 1.5309187e-38
-0.035279993 0.01224 0.75599998 1.5401024e-38
-0.033795238 0.012223803 0.755 1.5493939e-38
-0.032228615 0.012175225 0.75199997 1.5491408e-38
-0.03071429 0.012142844 0.75 1.4290352e-38
-0.029285707 0.012142837 0.75 1.3096128e-38
-0.027782857 0.012110464 0.74799997 1.3279796e-38
-0.026322888 0.012094274 0.74700004 1.3371627e-38
-0.02483334 0.012061886 0.745 1.3370907e-38
-0.023414299 0.012061879 0.745 1.3279069e-38
-0.021936197 0.012029499 0.74299997 1.3370903e-38
-0.020520963 0.012029499 0.74300003 1.346167e-38
-0.019079994 0.012013309 0.74199998 1.3553157e-38
-0.017595217 0.011964746 0.73899996 1.3648955e-38
-0.016121892 0.011916175 0.736 1.4111378e-38
-0.014679987 0.011883818 0.73399997 1.4479788e-38
-0.01328191 0.011883803 0.73399997 1.4847122e-38
-0.011851404 0.01185143 0.73199999 1.5120037e-38
-0.010442883 0.011835232 0.73099995 1.3096346e-38
-0.0090504996 0.011835232 0.73099995 1.0968681e-38
-0.0076581151 0.01183524 0.73099995 9.3016258e-39
-0.0062485696 0.011802852 0.72899991 7.6702622e-39
-0.0048600086 0.011802837 0.72899997 7.9595518e-39
-0.0034571779 0.011754274 0.72599995 8.1414292e-39
-0.0020628725 0.011689499 0.722 8.324024e-39
-0.000687622 0.011689514 0.722 8.507695e-39
0.00068566529 0.011657126 0.72000003 9.333497e-39
0.0020542811 0.011640936 0.71899998 1.0159656e-38
0.0034142858 0.011608571 0.71699995 9.0529668e-39
0.0047799996 0.011608563 0.71699995 7.8519083e-39
0.0061371564 0.011592373 0.71599996 1.1333384e-38
0.0075009461 0.011592366 0.71599996 1.4840712e-38
0.0088771507 0.011608563 0.71699995 1.4116791e-38
0.010242864 0.011608556 0.71699995 1.3366681e-38
0.011640955 0.011640958 0.71899998 1.5198368e-38
0.013028555 0.011657134 0.71999997 1.7057692e-38
0.014459975 0.011705697 0.72300005 2.0201639e-38
0.015837127 0.011705704 0.72299999 2.3320815e-38
0.017214263 0.011705704 0.72300005 2.3417673e-38
0.018642854 0.011738092 0.72499996 2.3416605e-38
0.020051431 0.011754282 0.72599995 2.341769e-38
0.021493336 0.011786655 0.72799999 2.341769e-38
0.022911413 0.011802852 0.72899997 2.341769e-38
0.024366658 0.011835232 0.73099995 2.341769e-38
0.025759041 0.011835232 0.73099995 2.341769e-38
0.027262852 0.011883803 0.73399997 2.341697e-38
0.02873905 0.011916168 0.736 2.3050342e-38
0.030263795 0.011964753 0.73899996 2.2673301e-38
0.031714279 0.011980936 0.74000001 1.660461e-38
0.033213321 0.012013316 0.74199998 1.0504699e-38
0.034673322 0.012029506 0.74299997 6.0685892e-39
0.03608859 0.012029514 0.74299997 1.5952368e-39
0.037604749 0.012061894 0.745 3.0728976e-39
0.039128534 0.012094267 0.74699998 4.5508751e-39
0.040605713 0.012110472 0.74799997 8.2325472e-39
0.042142853 0.012142837 0.75 1.1906685e-38
0.043687608 0.012175202 0.75200003 1.1448224e-38
0.045179963 0.012191422 0.75299996 1.0893578e-38
0.046800036 0.01224 0.75599998 7.3926622e-39
0.048367634 0.012272388 0.7579999 3.7912452e-39
0.050008602 0.012320943 0.76099998 5.537095e-39
0.05159333 0.012353331 0.76299989 7.278745e-39
0.053185724 0.012385704 0.76499999 6.1760072e-39
0.054785736 0.012418076 0.76699996 5.0728854e-39
0.056246661 0.012418084 0.76699996 4.7980768e-39
0.057707667 0.012418084 0.76699996 4.5160991e-39
0.05901432 0.012385711 0.76499999 2.2984027e-39
-0.047233328 0.013806671 0.76299989 1.1340392e-38
-0.045660008 0.013770461 0.76099998 1.0970819e-38
-0.044210482 0.013770469 0.76099998 1.0506691e-38
-0.042704772 0.013752371 0.75999999 1.189685e-38
-0.041257136 0.013752379 0.75999999 1.3188342e-38
-0.039809532 0.013752379 0.75999999 1.4296879e-38
-0.038260948 0.013716191 0.7579999 1.5493953e-38
-0.03681716 0.013716184 0.75799996 1.5492501e-38
-0.035280026 0.013679996 0.75599998 1.5583264e-38
-0.033795256 0.013661899 0.755 1.5584702e-38
-0.032228578 0.013607599 0.75199997 1.5585038e-38
-0.030796213 0.013607606 0.75199997 1.4292862e-38
-0.029285718 0.013571419 0.75 1.3096488e-38
-0.027782883 0.013535224 0.74799997 1.3280875e-38
-0.02632286 0.013517119 0.74699998 1.3464539e-38
-0.024833329 0.013480932 0.745 1.337162e-38
-0.02341431 0.013480939 0.745 1.3371257e-38
-0.021936167 0.013444752 0.74299997 1.3370175e-38
-0.020520933 0.013444737 0.74299997 1.3368747e-38
-0.019105723 0.013444737 0.74299997 1.3554219e-38
-0.017619047 0.013390467 0.73999995 1.3650383e-38
-0.016143791 0.013336182 0.73699999 1.4203212e-38
-0.014720002 0.013318077 0.73600006 1.4757445e-38
-0.013281886 0.013281904 0.73399991 1.4480854e-38
-0.011851436 0.013245709 0.73199999 1.4298225e-38
-0.010457126 0.013245717 0.73199999 1.1622404e-38
-0.0090505015 0.013227612 0.73099995 8.9544401e-39
-0.007658117 0.013227619 0.73099995 8.3986908e-39
-0.0062485882 0.013191432 0.72899997 7.8589526e-39
-0.004853359 0.013173327 0.72800004 8.0478e-39
-0.003457163 0.013137124 0.72599995 8.1407117e-39
-0.0020657149 0.013082847 0.72299999 8.6009654e-39
-0.00068762945 0.013064757 0.722 9.0601429e-39
0.00068570441 0.013028562 0.72000003 9.8873798e-39
0.0020542904 0.013010472 0.71899998 1.0623856e-38
0.0034142765 0.01297427 0.71699995 9.1465932e-39
0.0047800275 0.01297427 0.71699989 7.7615021e-39
0.0061457395 0.01297427 0.71699995 1.3381019e-38
0.007511429 0.012974277 0.71699995 1.9101394e-38
0.0089018829 0.013010472 0.71899998 1.817087e-38
0.010271406 0.013010472 0.71899998 1.7249635e-38
0.011640964 0.013010472 0.71899998 1.7143799e-38
0.013028527 0.013028562 0.72000003 1.7166409e-38
0.014459977 0.013082847 0.72300005 2.0293131e-38
0.015837127 0.013082854 0.72299999 2.3325854e-38
0.017261876 0.013119027 0.72500002 2.3234019e-38
0.018642837 0.013119034 0.72499996 2.3142183e-38
0.02005142 0.013137132 0.72599995 2.2774842e-38
0.021493308 0.013173312 0.72800004 2.2499335e-38
0.022911429 0.013191424 0.72899997 2.093562e-38
0.024366658 0.013227612 0.73099995 1.9376928e-38
0.025794325 0.013245724 0.73199999 1.7528739e-38
0.027262881 0.013281904 0.73399997 1.5700992e-38
0.028778115 0.013336189 0.73699993 1.7430435e-38
0.030263823 0.013372362 0.7389999 1.9263175e-38
0.031714283 0.013390467 0.74000001 1.66853e-38
0.033213295 0.013426639 0.74200004 1.4078725e-38
0.034673348 0.013444752 0.74299997 7.4661841e-39
0.036088582 0.013444744 0.74299997 9.6529005e-40
0.037604757 0.013480946 0.745 2.617306e-39
0.039128564 0.013517126 0.74699998 4.2764448e-39
0.040605683 0.013535224 0.74799997 7.9548883e-39
0.042142846 0.013571411 0.75 1.1631537e-38
0.043687616 0.013607606 0.75199997 1.1173077e-38
0.045179993 0.013625704 0.75299996 1.0805694e-38
0.046800002 0.013679996 0.75599998 6.4660662e-39
0.048495263 0.013752371 0.75999999 2.1156244e-39
0.05000858 0.013770469 0.76099998 3.1354053e-39
0.051593371 0.013806663 0.76299995 4.2456863e-39
0.053185698 0.013842858 0.76499999 3.4145075e-39
0.054785721 0.013879046 0.76699996 2.6837458e-39
0.05624669 0.013879031 0.76700002 3.0460403e-39
0.057707615 0.013879031 0.76700002 3.5073492e-39
0.059168577 0.013879046 0.76699996 1.7502568e-39
-0.047233354 0.015259996 0.76299995 9.7799352e-39
-0.045659967 0.015219994 0.76099992 1.1166786e-38
-0.044210471 0.015219994 0.76099992 1.2540045e-38
-0.042760946 0.015220001 0.76099992 1.1895076e-38
-0.041311424 0.015220001 0.76099992 1.1167595e-38
-0.039809506 0.015199989 0.75999999 1.3468893e-38
-0.03826094 0.015159994 0.75799996 1.5675807e-38
-0.036817145 0.015159994 0.75799996 1.56758e-38
-0.03528 0.01512 0.75599998 1.5675813e-38
-0.033795234 0.015099987 0.755 1.5676186e-38
-0.032228582 0.01503998 0.75199997 1.558289e-38
-0.030796217 0.015039988 0.75199997 1.4383624e-38
-0.02928574 0.014999986 0.75 1.3096849e-38
-0.027782887 0.014959991 0.74799997 1.3282314e-38
-0.026322898 0.014939986 0.74699998 1.3464905e-38
-0.024833325 0.014899991 0.745 1.3463824e-38
-0.023414306 0.014899984 0.745 1.3463101e-38
-0.021936176 0.014859989 0.74299997 1.3370184e-38
-0.020520944 0.014859989 0.74299997 1.3277991e-38
-0.019105732 0.014859982 0.74300003 1.3460587e-38
-0.017619045 0.014799997 0.73999995 1.3647869e-38
-0.016143801 0.014739998 0.73699993 1.4293611e-38
-0.01472 0.014719971 0.73600006 1.4938604e-38
-0.013281899 0.014679998 0.73399997 1.4203553e-38
-0.011883821 0.014679991 0.73399997 1.3461627e-38
-0.010457117 0.014640003 0.73199999 1.0140772e-38
-0.0090505034 0.014620006 0.73099995 6.8371734e-39
-0.0076581188 0.014620006 0.73099995 7.4799883e-39
-0.0062485677 0.014580004 0.72899991 8.0393992e-39
-0.0048600067 0.014579996 0.72899997 8.1403488e-39
-0.0034666737 0.014559984 0.72800004 8.141069e-39
-0.0020657131 0.01445999 0.72299999 8.8793417e-39
-0.00068859803 0.014459997 0.72300005 9.6129495e-39
0.00068568019 0.014399968 0.72000003 1.0347633e-38
0.0020542587 0.014379986 0.71899998 1.1080878e-38
0.003423817 0.014380008 0.71899998 9.3313376e-39
0.0047933157 0.014380001 0.71899998 7.5886043e-39
0.0061628385 0.014380001 0.71899998 1.5419364e-38
0.0075323558 0.014379978 0.71899998 2.3229699e-38
0.0089019146 0.014379993 0.71899998 2.2123739e-38
0.010271413 0.014379993 0.71899998 2.1012021e-38
0.011640932 0.014379986 0.71899998 1.9144453e-38
0.013064757 0.014439985 0.722 1.7247125e-38
0.014459981 0.014459983 0.72300005 2.0295283e-38
0.015880916 0.014499985 0.72500002 2.3325854e-38
0.0172619 0.014499992 0.72499996 2.3142183e-38
0.018668566 0.014519997 0.72599995 2.2862371e-38
0.020051412 0.014519997 0.72599995 2.2223827e-38
0.021493319 0.014559992 0.72799999 2.1477302e-38
0.022911411 0.014579996 0.72899997 1.8448522e-38
0.024400003 0.014640003 0.73199999 1.5302434e-38
0.025864786 0.014680006 0.73399997 1.1619324e-38
0.027337173 0.014719978 0.736 7.8512006e-39
0.028778089 0.014739998 0.73699999 1.189017e-38
0.030263819 0.014779985 0.73899996 1.5864917e-38
0.031714261 0.014799982 0.73999995 1.6794025e-38
0.033213317 0.014839984 0.74199998 1.7597195e-38
0.034673337 0.014859974 0.74299997 8.9362849e-39
0.036185686 0.014899984 0.745 2.2056298e-40
0.037604768 0.014899991 0.745 2.0623358e-39
0.039180931 0.014959998 0.74799997 3.9058686e-39
0.040714242 0.014999986 0.75 7.5871876e-39
0.042142883 0.014999986 0.75 1.1263119e-38
0.043687634 0.015039988 0.75200003 1.0990123e-38
0.045300014 0.015099987 0.755 1.061771e-38
0.046799973 0.01512 0.75599998 5.5505656e-39
0.048495226 0.015199989 0.75999999 3.7897837e-40
0.050008595 0.015219994 0.76099992 8.2693565e-40
0.051593326 0.015259996 0.76299995 1.2000272e-39
0.053185716 0.015299983 0.76500005 7.3583724e-40
0.054785714 0.01534 0.76699996 1.8981989e-40
0.056246683 0.01534 0.76699996 1.2860781e-39
0.057707608 0.015339985 0.76699996 2.3927606e-39
-0.047233339 0.016713329 0.76299995 1.0983869e-38
-0.045780033 0.016713329 0.76299995 1.1719332e-38
-0.044326663 0.016713336 0.76299989 1.2458314e-38
-0.04276095 0.016669519 0.76099998 1.3006449e-38
-0.041311428 0.016669527 0.76099998 1.355603e-38
-0.039861903 0.016669519 0.76099998 1.4663438e-38
-0.038361903 0.016647615 0.75999999 1.5767978e-38
-0.03681716 0.016603805 0.75799996 1.5583233e-38
-0.035280004 0.016559988 0.75599998 1.5492139e-38
-0.033795238 0.016538084 0.755 1.5491803e-38
-0.032228593 0.016472362 0.75200003 1.5493211e-38
-0.030796185 0.016472369 0.75199997 1.4108119e-38
-0.029285727 0.016428567 0.75 1.2819193e-38
-0.027782852 0.016384758 0.74799991 1.3189046e-38
-0.026358102 0.016384766 0.74799991 1.3556746e-38
-0.024900019 0.016362846 0.74700004 1.3555668e-38
-0.023414295 0.016319029 0.745 1.3462751e-38
-0.021995254 0.016319036 0.74500006 1.3279073e-38
-0.020576196 0.016319036 0.745 1.3003563e-38
-0.019105703 0.01627522 0.74299997 1.3277272e-38
-0.017619044 0.016209513 0.73999995 1.3461684e-38
-0.016187605 0.016187608 0.7389999 1.4663103e-38
-0.014720019 0.016121894 0.736 1.5949152e-38
-0.013318093 0.016121894 0.736 1.4477623e-38
-0.011883797 0.0160781 0.73399997 1.309138e-38
-0.010457149 0.016034283 0.73199999 1.0051022e-38
-0.0090628397 0.016034283 0.73199999 7.109782e-39
-0.0076581207 0.016012371 0.73099995 7.4803582e-39
-0.0062657134 0.016012371 0.73099995 7.9436205e-39
-0.00485999 0.015968576 0.72899997 7.8598158e-39
-0.0034666643 0.015946664 0.72799999 7.7704957e-39
-0.0020714314 0.015880935 0.72499996 9.0615778e-39
-0.00068859616 0.01583714 0.72299999 1.0439469e-38
0.00068761175 0.015815236 0.722 1.0898288e-38
0.0020571179 0.015771426 0.71999997 1.135746e-38
0.0034237891 0.015749514 0.71899998 9.0551094e-39
0.0047933473 0.015749522 0.71899998 6.7502593e-39
0.0061628423 0.015749522 0.71899998 1.4031455e-38
0.0075323652 0.015749522 0.71899998 2.1305471e-38
0.0089018829 0.015749522 0.71899998 2.0293125e-38
0.010271419 0.015749529 0.71899998 1.9376918e-38
0.011657139 0.015771419 0.71999997 1.5219923e-38
0.013064748 0.015815228 0.722 1.1097018e-38
0.014499975 0.015880942 0.72500002 1.3763125e-38
0.015880937 0.01588095 0.72499996 1.6438192e-38
0.017285714 0.015902847 0.72599995 1.4216204e-38
0.01872002 0.015946664 0.72799999 1.2012868e-38
0.020106675 0.015946664 0.72799999 1.1446785e-38
0.021522854 0.015968561 0.72899997 1.0891105e-38
0.022974309 0.016012385 0.73099995 9.3141114e-39
0.024466695 0.016078107 0.73399997 7.7245597e-39
0.025864774 0.0160781 0.73399997 5.8031791e-39
0.027337143 0.016121887 0.73600006 3.9496172e-39
0.028778104 0.016143806 0.73699999 1.0512994e-38
0.030263811 0.016187601 0.73899996 1.7165336e-38
0.031714264 0.01620952 0.74000001 1.8820893e-38
0.033213299 0.016253307 0.74200004 2.0478197e-38
0.034673329 0.016275205 0.74299997 1.2267848e-38
0.036185689 0.016319036 0.745 4.0711994e-39
0.037756175 0.016384751 0.74799997 3.5191369e-39
0.039180927 0.016384751 0.74799997 2.9824858e-39
0.040714279 0.01642856 0.75000006 7.30917e-39
0.042255238 0.016472355 0.75200003 1.172122e-38
0.043687604 0.016472362 0.75200003 1.1081959e-38
0.045300014 0.016538084 0.755 1.044013e-38
0.046800025 0.016559988 0.75599998 5.6384397e-39
0.048495278 0.016647615 0.75999999 8.2809032e-40
0.05000861 0.016669512 0.76099998 1.6573731e-39
0.051593319 0.016713321 0.76299995 2.3888453e-39
0.053185727 0.016757146 0.76499999 2.6693895e-39
0.054785751 0.016800947 0.76699996 2.8487263e-39
0.056246676 0.016800955 0.76699996 3.4965662e-39
0.0577076 0.016800947 0.76699996 4.134398e-39
-0.045900002 0.01821427 0.76500005 1.2175962e-38
-0.044326685 0.018166646 0.76299995 1.2271405e-38
-0.042873316 0.018166661 0.76299989 1.4116745e-38
-0.041419983 0.018166661 0.76299995 1.595094e-38
-0.039966676 0.018166661 0.76299989 1.5860894e-38
-0.038412407 0.018119037 0.76099998 1.5766906e-38
-0.036914274 0.018095233 0.75999999 1.5580365e-38
-0.035373323 0.018047608 0.7579999 1.5305591e-38
-0.033839993 0.017999992 0.75599998 1.5305967e-38
-0.032228578 0.017904751 0.75199997 1.5305227e-38
-0.030796191 0.017904758 0.75199997 1.3920498e-38
-0.02928571 0.017857127 0.75 1.2542606e-38
-0.027782854 0.01780951 0.74799997 1.3097208e-38
-0.026358107 0.017809518 0.74799997 1.364858e-38
-0.024899997 0.017785706 0.74699998 1.3555311e-38
-0.023414288 0.017738089 0.745 1.346347e-38
-0.021995246 0.017738082 0.745 1.3095406e-38
-0.020576227 0.017738082 0.74500006 1.2727341e-38
-0.019105714 0.017690457 0.74299997 1.2999973e-38
-0.017666666 0.017666653 0.74199998 1.3281604e-38
-0.016187612 0.017595224 0.73899996 1.5131972e-38
-0.014740001 0.017547615 0.73699999 1.6869305e-38
-0.01331809 0.017523803 0.736 1.484999e-38
-0.011916203 0.017523788 0.736 1.2724041e-38
-0.010457141 0.017428562 0.73199999 1.0045644e-38
-0.0090628322 0.017428562 0.73199999 7.2941593e-39
-0.0076685627 0.017428569 0.73199999 7.5718126e-39
-0.0062657152 0.01740475 0.73099995 7.7610145e-39
-0.0048733302 0.017404765 0.73099995 7.5850282e-39
-0.0034714327 0.017357133 0.72899997 7.3131132e-39
-0.0020714463 0.017261885 0.72500002 9.3406716e-39
-0.00068859058 0.017214268 0.72299999 1.1267423e-38
0.00068760803 0.017190471 0.722 1.1448224e-38
0.0020542718 0.017119043 0.71899998 1.1632967e-38
0.0034237909 0.017119035 0.71899998 8.7813994e-39
0.0047933119 0.017119035 0.71899998 5.8372825e-39
0.0061457022 0.017071411 0.71699995 1.2649971e-38
0.0075323652 0.017119043 0.71899998 1.9364726e-38
0.0089018885 0.017119043 0.71899998 1.8549687e-38
0.010271447 0.017119043 0.71899998 1.7609773e-38
0.011657115 0.01714284 0.71999997 1.1261252e-38
0.013064781 0.017190464 0.722 4.8252592e-39
0.014459988 0.017214276 0.72299999 7.2216183e-39
0.015880922 0.017261893 0.72499996 9.5060248e-39
0.017261906 0.017261893 0.72499996 5.363383e-39
0.018719994 0.017333314 0.72800004 1.1342796e-39
0.020106645 0.017333314 0.72800004 7.5150656e-40
0.021581898 0.017404765 0.73099995 2.9950232e-40
0.023005705 0.017428577 0.73199999 1.918826e-40
0.024466682 0.017476201 0.73399997 1.0577982e-40
0.025935257 0.017523795 0.736 1.0254562e-40
0.027337143 0.017523795 0.73600006 1.0937835e-40
0.028778115 0.017547615 0.73699993 9.2305267e-39
0.030263804 0.017595224 0.73899996 1.8350229e-38
0.031714261 0.017619044 0.74000001 2.0846296e-38
0.033213321 0.017666645 0.74199998 2.3227532e-38
0.034673359 0.017690465 0.74299997 1.5586143e-38
0.0361857 0.017738082 0.745 7.8404022e-39
0.03775619 0.017809518 0.74799991 4.8679539e-39
0.039285708 0.017857127 0.75 1.9665472e-39
0.040714271 0.017857134 0.75 7.1298038e-39
0.042255208 0.017904744 0.75200003 1.218255e-38
0.043745704 0.017928563 0.75299996 1.1176305e-38
0.045360014 0.017999992 0.75599998 1.0157445e-38
0.046923794 0.018047616 0.7579999 5.7352904e-39
0.048495241 0.018095225 0.75999999 1.3051946e-39
0.050140001 0.018166661 0.76299989 2.4932056e-39
0.051728584 0.01821427 0.76499999 3.5955987e-39
0.053324778 0.018261887 0.76700002 4.6122548e-39
0.054785702 0.018261895 0.76700002 5.5266637e-39
0.056246664 0.018261902 0.76699996 5.717152e-39
0.057782859 0.018285714 0.76799995 5.8961609e-39
-0.04601999 0.019722864 0.76699996 9.4118912e-39
-0.044442855 0.019671418 0.76499999 9.5991986e-39
-0.042985715 0.01967141 0.76499999 1.1812268e-38
-0.04152856 0.019671425 0.76499999 1.4024559e-38
-0.039966661 0.019620009 0.76299989 1.4390455e-38
-0.03841237 0.01956857 0.76099992 1.4755642e-38
-0.036914308 0.019542858 0.75999999 1.4198887e-38
-0.035373315 0.019491427 0.7579999 1.374223e-38
-0.033840023 0.019439988 0.75599998 1.4386522e-38
-0.032357134 0.019414268 0.755 1.5031863e-38
-0.030796221 0.019337118 0.75199997 1.4013045e-38
-0.029285721 0.019285694 0.75 1.299604e-38
-0.027857138 0.019285701 0.75 1.3370558e-38
-0.026358109 0.019234277 0.74799997 1.3833327e-38
-0.024900028 0.019208558 0.74699998 1.3925165e-38
-0.023477141 0.019208565 0.74699998 1.4108115e-38
-0.021995258 0.019157134 0.745 1.3740051e-38
-0.020576216 0.019157127 0.74500006 1.3371268e-38
-0.019105723 0.019105688 0.74300003 1.327835e-38
-0.017666686 0.019079983 0.74200004 1.327802e-38
-0.016187618 0.01900284 0.73899996 1.4846427e-38
-0.014739988 0.018951423 0.73699999 1.649551e-38
-0.013318084 0.018925697 0.736 1.4568388e-38
-0.011883823 0.01887428 0.73399997 1.2724761e-38
-0.010457136 0.018822864 0.73199999 1.0051028e-38
-0.0090628639 0.018822856 0.73199999 7.3881374e-39
-0.0076685571 0.018822856 0.73199999 7.5732237e-39
-0.0062657171 0.018797137 0.73099995 7.8521227e-39
-0.0048733302 0.018797152 0.73099995 7.5839534e-39
-0.0034714532 0.018745698 0.72899997 7.3113196e-39
-0.0020714276 0.018642843 0.72499996 9.5232664e-39
-0.00068856636 0.018591411 0.72299999 1.1728395e-38
0.00068763969 0.018565722 0.722 1.1727677e-38
0.0020571291 0.018514268 0.71999997 1.1729827e-38
0.0034285518 0.018514268 0.71999997 7.5810835e-39
0.0047933175 0.018488571 0.71899998 3.5241746e-39
0.0061628385 0.018488564 0.71899998 9.1419198e-39
0.0075323745 0.018488564 0.71899998 1.4668557e-38
0.0089018978 0.018488571 0.71899998 1.5676959e-38
0.010271415 0.018488556 0.71899998 1.6659463e-38
0.011657132 0.018514283 0.71999997 1.3264354e-38
0.013064779 0.018565714 0.722 9.9253171e-39
0.014499985 0.018642843 0.72499996 9.5766741e-39
0.015880968 0.018642843 0.72499996 9.2760549e-39
0.017261887 0.01864285 0.72500002 5.611602e-39
0.018720001 0.018719986 0.72799999 2.0210395e-39
0.020134276 0.018745713 0.72899997 1.1105655e-39
0.021581894 0.018797129 0.73099995 1.9974809e-40
0.023005718 0.018822864 0.73199999 1.9939356e-40
0.024466667 0.018874295 0.73399997 2.0943386e-40
0.025935264 0.018925704 0.736 1.0719092e-40
0.027374282 0.018951416 0.73699999 1.0291416e-40
0.028778091 0.018951423 0.73699999 6.9220851e-39
0.030263837 0.019002855 0.7389999 1.3760967e-38
0.031714264 0.019028559 0.74000001 1.8454986e-38
0.033258118 0.019105695 0.74299997 2.3233999e-38
0.034766667 0.019157134 0.745 1.7612283e-38
0.036282852 0.019208558 0.74699998 1.1978741e-38
0.037756186 0.019234277 0.74799997 6.5442936e-39
0.039285704 0.019285701 0.75 1.1507813e-39
0.040714305 0.019285709 0.75 5.565013e-39
0.042255215 0.019337133 0.75199997 9.9788566e-39
0.043745734 0.019362845 0.75299996 9.517168e-39
0.045359984 0.019439995 0.75599998 8.9617871e-39
0.046800002 0.019440003 0.75599992 7.4797991e-39
0.048495248 0.019542858 0.75999999 5.9909461e-39
0.050140038 0.019619994 0.76299995 6.1741449e-39
0.051728554 0.019671425 0.76499999 6.4496513e-39
0.053324766 0.019722857 0.76699996 5.2511264e-39
0.054857161 0.019748569 0.76799995 4.1534374e-39
0.056319986 0.019748576 0.76799989 4.6144394e-39
0.057782859 0.019748569 0.76799989 5.0775629e-39
-0.047666688 0.021266676 0.76999998 6.5613769e-39
-0.046020016 0.021183804 0.76700002 6.7360697e-39
-0.044559032 0.021183796 0.76699996 6.8379848e-39
-0.043098107 0.021183796 0.76699996 9.5077078e-39
-0.04163716 0.021183796 0.76700002 1.2083419e-38
-0.040071424 0.021128565 0.76499999 1.2919996e-38
-0.038513336 0.021073326 0.76299989 1.3738969e-38
-0.036914282 0.020990469 0.75999999 1.2901316e-38
-0.035373341 0.020935223 0.75799996 1.208199e-38
-0.033839993 0.020879991 0.75599998 1.3373805e-38
-0.032357156 0.020852372 0.755 1.4659849e-38
-0.03083716 0.020797133 0.75299996 1.4011251e-38
-0.029363818 0.020769514 0.75199997 1.3368763e-38
-0.027857164 0.020714268 0.75000006 1.3739694e-38
-0.026428565 0.020714276 0.75 1.4017361e-38
-0.024933359 0.020659029 0.74799997 1.4387222e-38
-0.023477154 0.020631418 0.74699998 1.4661286e-38
-0.021995252 0.020576179 0.745 1.4293576e-38
-0.020576209 0.020576179 0.745 1.3924081e-38
-0.019105695 0.02052094 0.74299997 1.3647497e-38
-0.017666686 0.020493321 0.74199998 1.3281243e-38
-0.016187623 0.020410463 0.73899996 1.4663811e-38
-0.014739975 0.02035524 0.73699993 1.6039548e-38
-0.013336165 0.020355232 0.73699993 1.4386866e-38
-0.011916192 0.020327598 0.736 1.2632573e-38
-0.010457128 0.020217143 0.73199999 1.0046019e-38
-0.0090628564 0.020217143 0.73199999 7.4785561e-39
-0.0076685497 0.02021715 0.73199999 7.6647242e-39
-0.0062657171 0.020189524 0.73099995 7.8532115e-39
-0.004873334 0.020189524 0.73099995 7.5868261e-39
-0.0034714327 0.02013427 0.72899997 7.3159845e-39
-0.0020714444 0.0200238 0.72499996 9.7130358e-39
-0.00068856264 0.019968562 0.72299999 1.2098606e-38
0.00068763597 0.01994095 0.722 1.1912783e-38
0.0020571086 0.019885696 0.72000003 1.1723369e-38
0.0034285518 0.019885696 0.72000003 6.4718815e-39
0.004793325 0.019858085 0.71899998 1.2293619e-39
0.0061628479 0.019858085 0.71899998 5.6331568e-39
0.0075323428 0.019858092 0.71899998 9.9770517e-39
0.0089019015 0.019858092 0.71899998 1.2829695e-38
0.010271424 0.019858092 0.71899998 1.5675129e-38
0.011689518 0.01994095 0.722 1.5395286e-38
0.013082845 0.019968554 0.72300005 1.51083e-38
0.014459997 0.019968569 0.72299999 1.2067325e-38
0.015880946 0.020023786 0.72500002 9.0277827e-39
0.017285727 0.020051427 0.72599995 5.9699448e-39
0.01866857 0.020051427 0.72599995 2.8629635e-39
0.020134293 0.020134293 0.72899997 1.4700069e-39
0.021581894 0.020189524 0.73099995 1.0896917e-40
0.023005722 0.020217143 0.73199999 1.9613274e-40
0.024466671 0.020272374 0.73399991 2.0187526e-40
0.025864774 0.020272367 0.73399997 1.9685441e-40
0.027337153 0.020327605 0.736 1.0108827e-40
0.028778106 0.020355232 0.73699999 4.5935082e-39
0.030263828 0.020410456 0.73899996 9.1447757e-39
0.031799972 0.020493314 0.74200004 1.6162686e-38
0.033258107 0.020520926 0.74299997 2.3141456e-38
0.034766637 0.020576172 0.74500006 1.9649904e-38
0.036282837 0.020631418 0.74699998 1.612139e-38
0.037756186 0.020659029 0.74799997 8.1793903e-39
0.039180934 0.020659037 0.74799997 3.1170343e-40
0.040714297 0.020714283 0.75 4.0924165e-39
0.042311396 0.020797133 0.75299996 7.7690649e-39
0.043861896 0.020852387 0.755 7.7683475e-39
0.045360036 0.020879999 0.75599998 7.7679299e-39
0.046923812 0.020935237 0.75799996 9.2311419e-39
0.048495211 0.020990469 0.75999999 1.0601773e-38
0.050140031 0.021073341 0.76299995 9.9466421e-39
0.051863834 0.021183811 0.76699996 9.2105162e-39
0.053394292 0.02121143 0.76799995 5.9729492e-39
0.054857161 0.021211423 0.76799995 2.6840863e-39
0.056320034 0.021211423 0.76799995 3.5091666e-39
0.057933316 0.021266654 0.76999998 4.2456401e-39
-0.047666688 0.022733331 0.76999998 1.0423833e-38
-0.046080012 0.022674277 0.76799995 1.0145425e-38
-0.044559043 0.022644766 0.76699996 9.8663547e-39
-0.043098096 0.022644766 0.76699996 9.7720305e-39
-0.041528568 0.022585705 0.76500005 9.6766441e-39
-0.040071413 0.022585712 0.76499999 1.1804681e-38
-0.038513318 0.022526674 0.76299989 1.3919745e-38
-0.036914293 0.022438087 0.75999999 1.2904509e-38
-0.035466656 0.022438094 0.75999999 1.1983672e-38
-0.033840001 0.022319987 0.75599998 1.3001424e-38
-0.032357153 0.022290468 0.755 1.4017711e-38
-0.03083716 0.022231422 0.75299996 1.3738973e-38
-0.029363828 0.022201896 0.75199997 1.346311e-38
-0.027931437 0.022201888 0.75199997 1.3739692e-38
-0.026428591 0.022142842 0.75000006 1.4016648e-38
-0.025000028 0.022142835 0.75000006 1.4201768e-38
-0.023477187 0.022054255 0.74699998 1.438722e-38
-0.0220543 0.022054262 0.74699998 1.4109548e-38
-0.020576201 0.021995232 0.745 1.3832251e-38
-0.019157141 0.021995217 0.745 1.355603e-38
-0.017666709 0.021906637 0.74199998 1.3371997e-38
-0.016253358 0.021906644 0.74199998 1.4017711e-38
-0.014800016 0.021847621 0.73999995 1.4755273e-38
-0.013372382 0.021818087 0.73899996 1.3835133e-38
-0.011964766 0.021818079 0.73899996 1.2913107e-38
-0.010528572 0.021759041 0.73699999 1.0051413e-38
-0.0090876184 0.021670468 0.73399997 7.294546e-39
-0.0076685795 0.02161143 0.73199999 7.4796421e-39
-0.006265719 0.021581888 0.73099995 7.6666847e-39
-0.0048733358 0.021581888 0.73099995 7.5836003e-39
-0.0034714532 0.021522857 0.72899997 7.4992982e-39
-0.0020714593 0.021404751 0.72500002 1.0447002e-38
-0.00068859616 0.021345705 0.72300005 1.3478291e-38
0.00068855612 0.021345712 0.72299999 1.246559e-38
0.0020628828 0.021316186 0.722 1.1544002e-38
0.0034380718 0.021316178 0.722 6.1052556e-39
0.0047933306 0.021227606 0.71899998 6.7511898e-40
0.0061628479 0.021227613 0.71899998 6.3786013e-39
0.0075428332 0.021257125 0.72000003 1.2103254e-38
0.0089142546 0.021257125 0.71999997 1.578385e-38
0.0102857 0.021257125 0.71999997 1.9468752e-38
0.011689516 0.021316193 0.722 1.9367591e-38
0.013082847 0.021345705 0.72299999 1.9279657e-38
0.014499987 0.021404751 0.72499996 1.7612581e-38
0.015902851 0.021434277 0.72599995 1.605245e-38
0.01728572 0.021434277 0.72599995 1.4382546e-38
0.018745713 0.021522857 0.72899997 1.2643424e-38
0.020134274 0.021522857 0.72899997 1.1249403e-38
0.021581894 0.021581903 0.73099995 9.7731992e-39
0.023068577 0.021670468 0.73399991 9.0338321e-39
0.02453335 0.021729507 0.736 8.3777189e-39
0.025935272 0.021729507 0.736 6.9105118e-39
0.027374309 0.021759033 0.73699993 5.5215027e-39
