# .PCD v0.7 - Point Cloud Data file format
VERSION 0.7
FIELDS x y z rgb
SIZE 4 4 4 4
TYPE F F F F
COUNT 1 1 1 1
WIDTH 973
HEIGHT 1
VIEWPOINT 0 0 0 1 0 0 0
POINTS 973
DATA ascii
0.040228587 0.04900571 0.76800007 1.8901957e-38
0.041691434 0.04900571 0.76800007 1.6600677e-38
0.043154303 0.049005713 0.76800001 1.4295775e-38
0.044733357 0.049133345 0.7700001 1.3275851e-38
0.046200018 0.049133327 0.7700001 1.2263874e-38
0.047542896 0.049005721 0.76800001 1.2450422e-38
0.049005747 0.049005713 0.76800007 1.2635891e-38
-0.044839974 0.052440006 0.79800004 9.7741773e-39
-0.043319967 0.05244001 0.79800004 8.9436838e-39
-0.041799981 0.052440006 0.79800004 8.3858268e-39
-0.040027592 0.052111432 0.79300004 7.7444091e-39
-0.038419966 0.051980022 0.79099995 7.9287947e-39
-0.036679961 0.051651437 0.78600001 8.1085155e-39
-0.034869511 0.051191453 0.77900004 7.1858529e-39
-0.03329999 0.051060006 0.77700007 6.2649826e-39
-0.031656157 0.050797142 0.77300006 5.8007787e-39
-0.030066658 0.050600015 0.77000004 5.3383488e-39
-0.028488554 0.050402857 0.76700008 4.1369315e-39
-0.026886672 0.050140008 0.76300001 2.9521715e-39
-0.025366656 0.050008584 0.76100004 5.4530283e-39
-0.023822859 0.049811438 0.75800008 7.8579983e-39
-0.022319982 0.049680006 0.7560001 6.1142295e-39
-0.020797126 0.04948286 0.75300008 4.2789531e-39
-0.019337136 0.049417149 0.75200009 1.2558854e-38
-0.017785694 0.049088571 0.74700004 2.0748718e-38
-0.01636284 0.049088582 0.74700004 2.1856487e-38
-0.014899981 0.048957162 0.74500006 2.2957428e-38
-0.013480945 0.048957147 0.74500012 2.0753007e-38
-0.012061886 0.04895715 0.74500012 1.8424468e-38
-0.010642843 0.048957147 0.74500012 9.3004627e-39
-0.0092237871 0.048957154 0.74500006 1.330659e-40
-0.0078256959 0.049088582 0.74700004 2.1660123e-39
-0.0064028515 0.04908856 0.7470001 4.1935734e-39
-0.0049799844 0.049088571 0.7470001 4.5652258e-39
-0.0035714267 0.049285714 0.75000012 4.9361537e-39
-0.0021371508 0.049154297 0.74800009 4.9268253e-39
-0.00071428739 0.04928571 0.75000012 4.9311301e-39
0.00071429345 0.049285717 0.75000006 6.2186221e-39
0.0021428668 0.049285714 0.75000012 7.4070969e-39
0.0035714468 0.04928571 0.75000012 7.6772182e-39
0.0050133285 0.049417146 0.75200009 7.8616081e-39
0.0064457171 0.049417157 0.75200003 1.3008343e-38
0.0078885742 0.049482852 0.75300008 1.8171224e-38
0.0093228966 0.049482863 0.75300002 2.0478954e-38
0.010785716 0.049614277 0.75500011 2.2774481e-38
0.012223818 0.049614295 0.75500005 2.2683003e-38
0.013661901 0.049614295 0.75500005 2.2497894e-38
0.015120022 0.049680009 0.7560001 2.2311711e-38
0.016560009 0.049680013 0.7560001 2.2129836e-38
0.017999997 0.049680002 0.7560001 2.2313869e-38
0.019440012 0.049680002 0.7560001 2.2403188e-38
0.020879999 0.049680006 0.7560001 1.9363644e-38
0.022379052 0.049811427 0.75800002 1.6328054e-38
0.023822876 0.049811434 0.75800002 1.3293184e-38
0.025333345 0.049942862 0.76000011 1.0165033e-38
0.026780978 0.04994287 0.76000011 1.024682e-38
0.028265715 0.05000858 0.7610001 1.0344399e-38
0.029793344 0.050140005 0.76300001 9.9828026e-39
0.03124667 0.050139997 0.76300007 9.5124974e-39
0.032785714 0.050271429 0.7650001 8.8538577e-39
0.034242868 0.050271437 0.7650001 8.1317364e-39
0.03579336 0.050402865 0.76700002 8.7828413e-39
0.037302893 0.050468571 0.76800007 9.4425516e-39
0.038765762 0.050468583 0.76800001 1.4320595e-38
0.040228609 0.050468564 0.76800007 1.9179962e-38
0.04169146 0.050468575 0.76800007 1.7710931e-38
0.043266673 0.050599996 0.7700001 1.6222516e-38
0.044733331 0.050599992 0.7700001 1.4099143e-38
0.046200011 0.050600003 0.77000004 1.1990873e-38
0.047666695 0.0506 0.7700001 1.2360728e-38
-0.046592347 0.054230493 0.80200005 1.0326984e-38
-0.044952352 0.054095253 0.80000001 9.774536e-39
-0.043319989 0.053960003 0.79800004 9.1287799e-39
-0.041747622 0.053892393 0.79700005 8.1106595e-39
-0.040027585 0.053621911 0.79300004 7.0100656e-39
-0.038419973 0.053486671 0.79100001 7.7454629e-39
-0.036773309 0.053283818 0.78799999 8.48123e-39
-0.034869503 0.052675251 0.77900004 7.5578598e-39
-0.033299975 0.052540015 0.77700001 6.6351973e-39
-0.031656168 0.052269522 0.77300006 6.0791592e-39
-0.030144759 0.052201916 0.77200001 5.6156377e-39
-0.028414279 0.051728576 0.7650001 4.5993096e-39
-0.026886666 0.051593333 0.76300007 3.6800256e-39
-0.025333319 0.05139048 0.76000011 5.8189339e-39
-0.023822838 0.051255248 0.75800002 8.0502803e-39
-0.022320006 0.051120006 0.7560001 6.3011319e-39
-0.020797133 0.050917137 0.75300008 4.6423533e-39
-0.019337138 0.050849523 0.75200009 1.2007847e-38
-0.017785698 0.050511423 0.74700004 1.9468764e-38
-0.016362853 0.05051142 0.7470001 2.1213279e-38
-0.014899982 0.050376203 0.74500006 2.3048913e-38
-0.013480946 0.050376195 0.74500012 2.1853617e-38
-0.012061902 0.050376203 0.74500012 2.0654002e-38
-0.010642844 0.050376199 0.74500012 1.3094059e-38
-0.009223788 0.050376203 0.74500012 5.4498361e-39
-0.0078047444 0.050376195 0.74500006 3.8007488e-39
-0.0064028441 0.050511431 0.7470001 2.1685248e-39
-0.0049866545 0.05057906 0.74800003 4.1017421e-39
-0.0035619179 0.05057906 0.74800009 6.0335147e-39
-0.0021371471 0.050579049 0.74800003 6.1249887e-39
-0.00071237632 0.05057906 0.74800003 6.2182619e-39
0.0007142832 0.05071428 0.75000012 6.8611132e-39
0.002142878 0.050714284 0.75000006 7.5939993e-39
0.0035714374 0.050714284 0.75000012 6.9436119e-39
0.0050000171 0.050714295 0.75000006 6.3875766e-39
0.0064457292 0.050849531 0.75200003 1.2094292e-38
0.0078780986 0.05084952 0.75200009 1.7811774e-38
0.009322891 0.050917156 0.75300002 2.0293848e-38
0.010785703 0.051052388 0.75500011 2.2773405e-38
0.012223813 0.051052373 0.75500011 2.2681926e-38
0.013661896 0.05105238 0.75500011 2.2681923e-38
0.01512 0.051119994 0.7560001 2.2589008e-38
0.016560035 0.051120009 0.75600004 2.2404264e-38
0.018000022 0.051120009 0.75600004 2.2589373e-38
0.01944001 0.051120013 0.75600004 2.2863799e-38
0.020935254 0.051255241 0.75800008 1.9826765e-38
0.022379052 0.051255245 0.75800008 1.6880144e-38
0.023822874 0.051255245 0.75800008 1.3478291e-38
0.025333364 0.05139048 0.76000011 1.0076785e-38
0.02678097 0.051390469 0.76000005 1.0157494e-38
0.028265718 0.051458102 0.76100004 1.0248976e-38
0.029715255 0.051458102 0.76100004 9.8870211e-39
0.031246666 0.051593333 0.76300001 9.6068426e-39
0.032699991 0.051593326 0.76300007 8.4915352e-39
0.034242865 0.051728569 0.7650001 7.3920274e-39
0.035793349 0.051863823 0.76700002 8.139274e-39
0.037254296 0.051863816 0.76700008 8.9790679e-39
0.03871524 0.051863812 0.76700008 1.2471688e-38
0.040228613 0.051931433 0.76800001 1.5867415e-38
0.04169146 0.051931433 0.76800007 1.4847506e-38
0.04315431 0.051931418 0.76800007 1.3824737e-38
0.04461718 0.051931441 0.76800001 1.3000346e-38
0.046200007 0.052066661 0.7700001 1.2177769e-38
0.047666665 0.052066665 0.7700001 1.2452911e-38
0.049133327 0.052066661 0.7700001 1.2728068e-38
-0.046592344 0.055758115 0.80200005 1.0051113e-38
-0.044839967 0.055480015 0.79799998 9.6837725e-39
-0.043265693 0.055410501 0.79700005 9.3099383e-39
-0.041747611 0.055410493 0.79700005 7.82547e-39
-0.040027589 0.055132389 0.79300004 6.271423e-39
-0.038419977 0.054993346 0.79100001 7.5617666e-39
-0.036773313 0.054784779 0.78799999 8.8478265e-39
-0.034914263 0.054228578 0.78000003 7.9287597e-39
-0.033385701 0.054159071 0.77900004 7.003956e-39
-0.031901877 0.054159064 0.77899998 6.4486466e-39
-0.029871415 0.053185713 0.7650001 5.8003891e-39
-0.028414283 0.053185713 0.7650001 5.0567102e-39
-0.026886668 0.053046666 0.76300001 4.3286208e-39
-0.025333311 0.052838098 0.76000011 6.2763149e-39
-0.02382284 0.052699052 0.75800002 8.134581e-39
-0.022319995 0.052560002 0.75600004 6.5809432e-39
-0.020797126 0.05235143 0.75300008 5.0172244e-39
-0.01933714 0.052281901 0.75200009 1.1545433e-38
-0.017785713 0.051934283 0.7470001 1.8080106e-38
-0.016319025 0.051795244 0.74500006 2.0662625e-38
-0.014899981 0.051795252 0.74500006 2.3141825e-38
-0.013480945 0.051795229 0.74500012 2.3050348e-38
-0.012061901 0.051795237 0.74500012 2.2859135e-38
-0.010642843 0.051795233 0.74500012 1.6879775e-38
-0.0092238002 0.05179524 0.74500006 1.0788132e-38
-0.0078047435 0.051795244 0.74500006 5.4189767e-39
-0.0064028497 0.051934283 0.74700004 1.352197e-40
-0.0049999855 0.052142877 0.75000006 3.6400493e-39
-0.0035714267 0.052142859 0.75000012 7.1333869e-39
-0.0021371294 0.052003819 0.74800003 7.3206466e-39
-0.00071428646 0.05214287 0.75000012 7.5046777e-39
0.00071429438 0.052142862 0.75000006 7.5968734e-39
0.0021428678 0.052142862 0.75000012 7.6843999e-39
0.0035714486 0.052142873 0.75000006 6.2986124e-39
0.0050133234 0.052281898 0.75200009 4.9203611e-39
0.0064457129 0.052281909 0.75200003 1.116948e-38
0.0078885909 0.052351434 0.75300008 1.7437615e-38
0.0093476353 0.052490477 0.75500005 2.0111612e-38
0.010785718 0.052490484 0.75500005 2.2681927e-38
0.012223801 0.052490484 0.75500005 2.2772685e-38
0.013661912 0.052490488 0.75500011 2.2865595e-38
0.015120026 0.052560002 0.7560001 2.2774836e-38
0.016560012 0.052560005 0.7560001 2.2681926e-38
0.017999999 0.052560009 0.7560001 2.2958511e-38
0.01949143 0.052699048 0.75800008 2.3232577e-38
0.020935252 0.052699041 0.75800008 2.038352e-38
0.022438116 0.052838106 0.76000011 1.7432234e-38
0.023885723 0.052838095 0.76000011 1.3754156e-38
0.025366671 0.052907623 0.7610001 9.9802845e-39
0.026816208 0.052907623 0.7610001 1.0056689e-38
0.028265718 0.052907631 0.76100004 1.0067099e-38
0.029793343 0.053046677 0.76300001 9.8927608e-39
0.03124667 0.05304667 0.76300007 9.6036155e-39
0.032700013 0.053046662 0.76300007 8.1130753e-39
0.034242861 0.053185713 0.7650001 6.5662268e-39
0.035700019 0.053185705 0.7650001 7.5871862e-39
0.037254311 0.05332477 0.76700008 8.5148654e-39
0.038715258 0.05332477 0.76700008 1.0535604e-38
0.040228613 0.053394292 0.76800001 1.2549845e-38
0.04169146 0.053394295 0.76800007 1.1986238e-38
0.04315431 0.053394273 0.76800007 1.1438443e-38
0.044617161 0.053394284 0.76800007 1.1899405e-38
0.046200003 0.053533338 0.77000004 1.2268538e-38
-0.044839978 0.057000004 0.79800004 9.6834082e-39
-0.043265712 0.056928579 0.79700005 9.5911845e-39
-0.041747611 0.056928594 0.79700005 7.7418882e-39
-0.0400276 0.056642856 0.79300004 5.9019174e-39
-0.038419981 0.056499999 0.79100001 6.0880673e-39
-0.036773317 0.056285735 0.78799999 6.3689576e-39
-0.03500377 0.05585717 0.78200006 6.3639381e-39
-0.033385709 0.05564288 0.77900004 6.359653e-39
-0.031901881 0.05564288 0.77900004 6.1738492e-39
-0.030144772 0.055142857 0.77200007 5.9883705e-39
-0.028339995 0.054500014 0.76300001 5.1532261e-39
-0.026886668 0.054500006 0.76300007 4.2303351e-39
-0.025333323 0.054285716 0.76000005 6.1848354e-39
-0.023822842 0.054142859 0.75800008 8.2321548e-39
-0.02232 0.053999998 0.7560001 7.0394032e-39
-0.02079713 0.053785723 0.75300002 5.8405111e-39
-0.019337142 0.053714294 0.75200009 9.7036906e-39
-0.017785706 0.05335715 0.7470001 1.3572271e-38
-0.016362842 0.053357143 0.74700004 1.8360639e-38
-0.01489998 0.0532143 0.74500006 2.3234019e-38
-0.013480945 0.053214282 0.74500012 2.295636e-38
-0.0120619 0.053214293 0.74500012 2.2771253e-38
-0.010642842 0.0532143 0.74500012 1.9824981e-38
-0.0092237992 0.053214289 0.74500012 1.6965504e-38
-0.007825694 0.053357143 0.7470001 1.2819611e-38
-0.0064028422 0.05335715 0.74700004 8.7817371e-39
-0.0049866694 0.053428587 0.74800003 6.9418168e-39
-0.0035714351 0.053571433 0.75000012 5.202329e-39
-0.0021371462 0.053428579 0.74800009 6.4008595e-39
-0.00071427994 0.053571425 0.75000012 7.6887089e-39
0.00071429904 0.053571437 0.75000012 7.6883501e-39
0.0021428594 0.053571422 0.75000012 7.7787465e-39
0.0035714393 0.053571429 0.75000012 6.3926003e-39
0.005013335 0.053714287 0.75200009 5.1008035e-39
0.0064543122 0.053785726 0.75300002 1.0991188e-38
0.0078885853 0.053785715 0.75300008 1.6891983e-38
0.0093476027 0.053928576 0.75500011 1.9834671e-38
0.010785713 0.053928565 0.75500011 2.2773763e-38
0.012223816 0.05392858 0.75500005 2.2865595e-38
0.013680016 0.054000013 0.7560001 2.2865597e-38
0.015120003 0.054000001 0.7560001 2.2590092e-38
0.016560011 0.054000016 0.75600004 2.2314228e-38
0.018000025 0.054000016 0.75600004 2.2588659e-38
0.019491447 0.054142863 0.75800002 2.2866673e-38
0.020990504 0.054285713 0.76000011 2.0195546e-38
0.022438109 0.05428572 0.76000011 1.7517612e-38
0.023917135 0.054357152 0.7610001 1.4578163e-38
0.025366673 0.054357152 0.7610001 1.1635117e-38
0.026816212 0.054357145 0.76100004 1.061631e-38
0.028265722 0.054357152 0.76100004 9.6107901e-39
0.029793344 0.054499995 0.76300007 9.7055025e-39
0.031246666 0.054500006 0.76300001 9.8834281e-39
0.032785725 0.054642856 0.7650001 8.4936918e-39
0.03424288 0.054642864 0.76500005 7.2133828e-39
0.035793357 0.054785728 0.76700002 7.8644878e-39
0.0372543 0.054785732 0.76700008 8.5188101e-39
0.03876574 0.054857142 0.76800007 1.0901862e-38
0.04022859 0.054857139 0.76800007 1.3279137e-38
0.04169146 0.054857146 0.76800001 1.2633731e-38
0.04315431 0.054857146 0.76800007 1.208344e-38
0.044617157 0.054857142 0.76800007 1.2359667e-38
0.046200003 0.055 0.7700001 1.2635172e-38
-0.041747596 0.05844669 0.79700005 7.6485799e-39
-0.040027581 0.058153354 0.79300004 5.4405637e-39
-0.038419969 0.058006674 0.79100001 4.6115163e-39
-0.03681998 0.057860017 0.78900003 3.7889583e-39
-0.035003778 0.05734669 0.78200006 4.7984481e-39
-0.03329999 0.056980003 0.77700007 5.716457e-39
-0.031819984 0.056980006 0.77700007 5.9908999e-39
-0.030144755 0.056613348 0.77200001 6.1709723e-39
-0.02852569 0.056319997 0.76800007 5.1532359e-39
-0.026957128 0.056100011 0.76500005 4.147828e-39
-0.025333313 0.055733349 0.76000005 6.1844696e-39
-0.023822855 0.055586677 0.75800008 8.2274885e-39
-0.022319991 0.055440009 0.7560001 7.5039617e-39
-0.020852394 0.055366665 0.75500011 6.6702578e-39
-0.019337144 0.055146668 0.75200009 7.856576e-39
-0.017809529 0.05485335 0.74800003 9.0644364e-39
-0.016362831 0.05478001 0.74700004 1.6157302e-38
-0.014899981 0.054633338 0.74500006 2.3231148e-38
-0.013480925 0.054633345 0.74500006 2.2952773e-38
-0.012061901 0.054633345 0.74500012 2.2589017e-38
-0.010642843 0.054633334 0.74500012 2.2866676e-38
-0.0092238002 0.054633342 0.74500012 2.3136431e-38
-0.0078257024 0.054780014 0.74700004 2.0295259e-38
-0.0064028571 0.054779992 0.7470001 1.7327469e-38
-0.0049866647 0.054853357 0.74800003 1.0234254e-38
-0.0035714109 0.055000003 0.75000006 3.1772803e-39
-0.0021371415 0.054853346 0.74800003 5.4839395e-39
-0.00071426877 0.055000011 0.75000006 7.7805444e-39
0.00071429065 0.054999996 0.75000012 7.7805444e-39
0.0021428696 0.055000003 0.75000006 7.777313e-39
0.00357143 0.055000003 0.75000012 6.4844372e-39
0.0050133397 0.055146676 0.75200003 5.196585e-39
0.0064457087 0.055146676 0.75200003 1.0802494e-38
0.0078885797 0.055220004 0.75300008 1.6332718e-38
0.0093476176 0.055366673 0.75500005 1.9652435e-38
0.0107857 0.055366676 0.75500005 2.2866317e-38
0.012223811 0.055366676 0.75500011 2.2866673e-38
0.013680014 0.055440009 0.75600004 2.2865955e-38
0.015120001 0.055440009 0.75600004 2.240606e-38
0.016560016 0.055440012 0.7560001 2.194437e-38
0.018000003 0.055440016 0.7560001 2.2215212e-38
0.019491447 0.055586681 0.75800002 2.2495022e-38
0.020935243 0.055586681 0.75800002 2.001367e-38
0.022438101 0.055733338 0.76000011 1.7522995e-38
0.023917139 0.055806682 0.76100004 1.5405402e-38
0.025366675 0.055806674 0.76100004 1.3288873e-38
0.026816214 0.055806674 0.76100004 1.1254496e-38
0.028265703 0.05580667 0.7610001 9.1498204e-39
0.029793339 0.055953346 0.76300001 9.6186892e-39
0.031246666 0.055953324 0.76300007 1.0066023e-38
0.032785717 0.056099996 0.7650001 8.9478484e-39
0.034242872 0.056100003 0.7650001 7.8544376e-39
0.035793345 0.056246687 0.76700002 8.2296773e-39
0.037254293 0.056246687 0.76700008 8.5141493e-39
0.03876574 0.056319997 0.76800001 1.1273516e-38
0.040228587 0.056319997 0.76800007 1.392773e-38
0.041691437 0.056319993 0.76800007 1.3278019e-38
0.043154307 0.056320004 0.76800001 1.2635891e-38
0.044617157 0.05632 0.76800007 1.2819923e-38
0.046080012 0.05632 0.76800007 1.3003599e-38
0.04766668 0.056466673 0.7700001 1.2912843e-38
-0.040128537 0.059814304 0.79499996 7.0903516e-39
-0.038517114 0.059663821 0.79300004 5.1614433e-39
-0.036913313 0.059513342 0.79100001 3.2332874e-39
-0.035003766 0.058836225 0.78200006 4.3371365e-39
-0.033385698 0.058610495 0.77900004 5.4406029e-39
-0.031819981 0.058460005 0.77700001 5.7157563e-39
-0.030261874 0.058309525 0.7750001 6.081655e-39
-0.028600013 0.057933327 0.7700001 5.433057e-39
-0.027062846 0.057782851 0.76800007 4.8796436e-39
-0.02533331 0.057180963 0.76000005 6.737628e-39
-0.023822863 0.05703048 0.75800008 8.6020009e-39
-0.022319999 0.056880005 0.7560001 7.5028855e-39
-0.020852376 0.056804772 0.75500005 6.4905314e-39
-0.019337146 0.056579046 0.75200009 6.2046105e-39
-0.017809531 0.056278091 0.74800009 5.92696e-39
-0.016362846 0.056202851 0.7470001 1.3665185e-38
-0.01489998 0.05605239 0.74500006 2.1397306e-38
-0.013480937 0.056052398 0.74500006 2.2130558e-38
-0.0120619 0.056052383 0.74500012 2.2866677e-38
-0.010642842 0.056052387 0.74500012 2.3050348e-38
-0.0092485603 0.056202855 0.74700004 2.3234019e-38
-0.007825695 0.056202866 0.74700004 2.0195914e-38
-0.0064114179 0.056278113 0.74800003 1.7142011e-38
-0.0049866666 0.056278095 0.74800009 9.408444e-39
-0.0035714183 0.056428578 0.75000012 1.7983087e-39
-0.0021371443 0.056278106 0.74800009 4.7460269e-39
-0.00071427901 0.056428574 0.75000012 7.6887089e-39
0.0007143009 0.056428585 0.75000006 7.6887089e-39
0.0021428613 0.056428581 0.75000012 7.6872711e-39
0.0035809621 0.056579039 0.75200009 6.3936793e-39
0.0050133509 0.056579053 0.75200003 5.1940739e-39
0.0064542997 0.056654297 0.75300002 1.0345466e-38
0.0078886021 0.056654297 0.75300008 1.5504764e-38
0.009347613 0.056804754 0.75500011 1.8912728e-38
0.010785717 0.056804769 0.75500005 2.2315663e-38
0.012223827 0.056804769 0.75500011 2.2221315e-38
0.013679991 0.056880005 0.7560001 2.2131271e-38
0.015120006 0.056880008 0.7560001 2.1945445e-38
0.016560014 0.056880008 0.75600004 2.1760335e-38
0.018000029 0.056880008 0.75600004 2.221915e-38
0.019491445 0.057030473 0.75800008 2.2680484e-38
0.020935241 0.05703048 0.75800002 2.0380654e-38
0.02243812 0.057180949 0.76000011 1.8165845e-38
0.023917167 0.057256199 0.76100004 1.5776331e-38
0.025366677 0.057256199 0.76100004 1.3390396e-38
0.026816193 0.057256199 0.7610001 1.0802854e-38
0.028340016 0.057406671 0.76300001 8.2278781e-39
0.029793343 0.057406668 0.76300007 9.337443e-39
0.031246688 0.057406675 0.76300007 1.0344758e-38
0.032785736 0.057557147 0.76500005 8.401499e-39
0.034242872 0.057557143 0.7650001 6.475829e-39
0.035793364 0.057707626 0.76700002 7.2180506e-39
0.03730287 0.057782862 0.76800007 8.0549747e-39
0.03876574 0.05778287 0.76800001 1.0995504e-38
0.040228587 0.05778287 0.76800007 1.3930605e-38
0.041800018 0.057933334 0.77000004 1.3190132e-38
0.043266676 0.057933338 0.7700001 1.2545852e-38
0.044733334 0.057933334 0.7700001 1.2636255e-38
0.046199996 0.057933334 0.7700001 1.2728461e-38
0.047666654 0.057933334 0.7700001 1.2268575e-38
-0.040128533 0.061328586 0.79500002 8.7545533e-39
-0.038517114 0.061174288 0.79300004 5.7106724e-39
-0.036913302 0.061020002 0.79100001 2.5900886e-39
-0.034914255 0.060171433 0.78000003 3.8765339e-39
-0.033385701 0.060094301 0.77900004 5.1633084e-39
-0.031819981 0.059940007 0.77700007 5.5328042e-39
-0.030261878 0.059785716 0.77500004 5.8983511e-39
-0.028674288 0.05955429 0.77200007 5.7096565e-39
-0.027133336 0.059400003 0.7700001 5.5285779e-39
-0.025333302 0.058628578 0.76000005 7.1917426e-39
-0.023822844 0.058474287 0.75800002 8.8685181e-39
-0.022319986 0.058320016 0.7560001 7.5979496e-39
-0.020852396 0.058242857 0.75500011 6.2125166e-39
-0.019337147 0.058011424 0.75200009 4.5447626e-39
-0.017809525 0.057702862 0.74800003 2.8131669e-39
-0.01636285 0.057625707 0.7470001 1.1179172e-38
-0.014899979 0.057471439 0.74500006 1.946087e-38
-0.013480923 0.057471436 0.74500006 2.1305474e-38
-0.0120619 0.057471432 0.74500012 2.3050348e-38
-0.010642841 0.057471436 0.74500012 2.3142183e-38
-0.0092485528 0.057625722 0.74700004 2.3234019e-38
-0.007825708 0.057625711 0.7470001 2.0111612e-38
-0.0064114337 0.057702858 0.74800003 1.6955456e-38
-0.0049999882 0.057857152 0.75000012 8.6421636e-39
-0.0035714277 0.057857141 0.75000012 3.2318707e-40
-0.0021371406 0.057702854 0.74800003 3.9216599e-39
-0.00071428833 0.057857145 0.75000012 7.5043204e-39
0.00071429159 0.057857145 0.75000006 7.5975908e-39
0.002142851 0.057857141 0.75000012 7.5940021e-39
0.0035809453 0.058011431 0.75200009 6.3926059e-39
0.005013335 0.058011428 0.75200003 5.1036733e-39
0.006454323 0.058088571 0.75300002 9.8805485e-39
0.0078885965 0.058088575 0.75300002 1.458246e-38
0.0093476279 0.058242861 0.75500011 1.81784e-38
0.010785711 0.058242865 0.75500011 2.1668148e-38
0.01224003 0.058320012 0.75600004 2.1571289e-38
0.013680017 0.058320016 0.7560001 2.1393357e-38
0.015120003 0.058320016 0.7560001 2.1484117e-38
0.01656002 0.058320004 0.7560001 2.1577027e-38
0.018000007 0.058320008 0.7560001 2.2219874e-38
0.019491443 0.058474291 0.75800008 2.2864878e-38
0.020990506 0.058628578 0.76000011 2.0845576e-38
0.022438111 0.058628567 0.76000011 1.8721164e-38
0.023917168 0.058705729 0.76100004 1.6143673e-38
0.025366658 0.058705725 0.7610001 1.3477209e-38
0.026816197 0.058705714 0.7610001 1.0430848e-38
0.028339991 0.058860011 0.76300007 7.312393e-39
0.029793337 0.058860004 0.76300001 8.9751233e-39
0.031246662 0.058859996 0.76300007 1.061596e-38
0.032785729 0.059014283 0.7650001 7.8368541e-39
0.034242865 0.059014279 0.7650001 5.0975791e-39
0.035793353 0.059168585 0.76700002 6.2957509e-39
0.03730287 0.059245721 0.76800007 7.502168e-39
0.038765717 0.059245713 0.76800007 1.0722868e-38
0.040228587 0.059245721 0.76800001 1.3931677e-38
0.041799989 0.0594 0.7700001 1.3189407e-38
0.04326665 0.0594 0.7700001 1.2359303e-38
0.044733357 0.059400007 0.77000004 1.2450782e-38
0.046200015 0.059399992 0.77000004 1.244861e-38
0.047666673 0.059400003 0.7700001 1.1528442e-38
0.049133334 0.059399992 0.7700001 1.0606135e-38
-0.034869507 0.06157811 0.77900004 5.4388233e-39
-0.033385698 0.061578114 0.77900004 4.7005492e-39
-0.031819981 0.061420016 0.77700007 5.348057e-39
-0.030183805 0.061103813 0.77300012 5.9934236e-39
-0.028674293 0.061024766 0.77200007 5.9887671e-39
-0.027133331 0.060866673 0.77000004 5.9855903e-39
-0.025733326 0.061024781 0.77200001 7.1002238e-39
-0.023885716 0.060076188 0.76000011 8.22565e-39
-0.022379031 0.059918106 0.75800002 7.5007331e-39
-0.020879988 0.059760008 0.75600004 6.6756444e-39
-0.019362837 0.05952286 0.75300002 6.9464817e-39
-0.017809523 0.059127633 0.74800003 7.233832e-39
-0.016362842 0.059048571 0.74700004 1.3392195e-38
-0.014939978 0.059048586 0.74700004 1.9461589e-38
-0.013480937 0.058890488 0.74500006 1.9187159e-38
-0.0120619 0.058890481 0.74500012 1.8825915e-38
-0.010671413 0.059048567 0.74700004 1.8816229e-38
-0.0092485659 0.059048567 0.7470001 1.8825915e-38
-0.0078256987 0.059048571 0.7470001 1.798684e-38
-0.0064114309 0.059127621 0.74800003 1.7150952e-38
-0.0049866796 0.059127625 0.74800009 1.061301e-38
-0.0035714165 0.059285719 0.75000006 4.1956894e-39
-0.0021371369 0.059127625 0.74800003 5.4796347e-39
-0.00071427715 0.05928573 0.75000006 6.7685603e-39
0.00071428227 0.059285715 0.75000012 7.2291727e-39
0.0021485898 0.059443805 0.75200009 7.6883501e-39
0.0035809574 0.059443805 0.75200009 6.485519e-39
0.0050200229 0.059522867 0.75300008 5.1915642e-39
0.0064543169 0.059522867 0.75300002 9.7908654e-39
0.0079095326 0.059680954 0.75500005 1.4489905e-38
0.0093476158 0.059680957 0.75500005 1.8451033e-38
0.010785726 0.059680954 0.75500011 2.2403186e-38
0.012240008 0.059760012 0.7560001 2.2312067e-38
0.013679994 0.059759997 0.7560001 2.2314581e-38
0.015120009 0.059760004 0.7560001 2.2221671e-38
0.016560016 0.059760015 0.75600004 2.2220597e-38
0.018000033 0.059760015 0.75600004 2.249754e-38
0.019491442 0.059918091 0.75800008 2.2774842e-38
0.020990498 0.060076192 0.76000011 2.0198067e-38
0.022438103 0.060076199 0.76000011 1.7617346e-38
0.023917152 0.060155254 0.7610001 1.5686289e-38
0.025433321 0.060313333 0.76300007 1.3851367e-38
0.026886668 0.06031334 0.76300001 1.0804647e-38
0.028340014 0.060313344 0.76300001 7.7683419e-39
0.029793341 0.06031334 0.76300007 9.0622953e-39
0.031246658 0.060313333 0.76300001 1.0347269e-38
0.032785725 0.060471423 0.7650001 7.9469836e-39
0.034332402 0.060629532 0.76700008 5.6597128e-39
0.035793345 0.060629532 0.76700008 6.396196e-39
0.037302896 0.060708575 0.76800007 7.1387721e-39
0.038765747 0.060708568 0.76800007 1.017042e-38
0.040228616 0.060708579 0.76800001 1.31995e-38
0.041800011 0.060866658 0.77000004 1.2450051e-38
0.043266673 0.060866673 0.7700001 1.1710706e-38
0.044733331 0.060866654 0.7700001 1.1892945e-38
0.046200018 0.06086665 0.7700001 1.1985089e-38
0.047790475 0.061024781 0.77200001 1.2534616e-38
0.049260974 0.061024781 0.77200007 1.2985555e-38
-0.035093289 0.06346669 0.78400004 7.0050097e-39
-0.033428535 0.063142858 0.77999997 4.2467415e-39
-0.031738084 0.062738091 0.7750001 5.1651217e-39
-0.030261887 0.062738091 0.7750001 6.082399e-39
-0.028674284 0.062495258 0.77200001 6.2664274e-39
-0.027133344 0.062333334 0.7700001 6.3565239e-39
-0.025599983 0.062171433 0.76800007 6.9979934e-39
-0.02388571 0.061523806 0.76000011 7.5756311e-39
-0.022379046 0.061361909 0.75800008 7.4114087e-39
-0.020879984 0.061200008 0.7560001 7.1333855e-39
-0.019414281 0.061119057 0.75500005 9.4238863e-39
-0.017809538 0.060552392 0.74800009 1.1637269e-38
-0.016362835 0.060471442 0.74700004 1.5602702e-38
-0.014939989 0.060471427 0.7470001 1.9459431e-38
-0.013480936 0.06030954 0.74500006 1.7063094e-38
-0.0120619 0.060309518 0.74500012 1.4579943e-38
-0.010671424 0.060471427 0.7470001 1.4471243e-38
-0.0092485584 0.060471434 0.7470001 1.4394473e-38
-0.0078256913 0.060471438 0.74700004 1.5858817e-38
-0.0064114309 0.060552385 0.74800009 1.7334631e-38
-0.004986661 0.060552392 0.74800003 1.2647065e-38
-0.003561904 0.060552388 0.74800003 7.9580903e-39
-0.0021371527 0.060552388 0.74800009 6.9407434e-39
-0.00071428646 0.060714293 0.75000012 5.938808e-39
0.00071429345 0.060714301 0.75000006 6.8618307e-39
0.0021485731 0.060876198 0.75200009 7.7780332e-39
0.0035857435 0.060957141 0.75300002 6.5780733e-39
0.0050200173 0.060957141 0.75300008 5.288066e-39
0.0064714174 0.06111905 0.75500005 9.7851298e-39
0.007909527 0.06111905 0.75500011 1.4304804e-38
0.0093476102 0.061119054 0.75500011 1.8733001e-38
0.010800018 0.061200019 0.75600004 2.3140744e-38
0.012240006 0.061200023 0.75600004 2.3142179e-38
0.01368002 0.061200008 0.75600004 2.3140742e-38
0.015120007 0.061200012 0.7560001 2.305034e-38
0.016560022 0.061200012 0.7560001 2.2862725e-38
0.018047636 0.061361913 0.75800002 2.2774837e-38
0.01949146 0.061361916 0.75800002 2.2675827e-38
0.020990489 0.06152381 0.76000011 1.9554857e-38
0.022438124 0.061523814 0.76000011 1.6417026e-38
0.023917153 0.061604768 0.7610001 1.5315719e-38
0.025433343 0.061766669 0.76300001 1.4211537e-38
0.026886668 0.061766662 0.76300007 1.1260243e-38
0.028340019 0.061766669 0.76300007 8.2318269e-39
0.029793337 0.061766677 0.76300001 9.1587943e-39
0.031328585 0.06192857 0.7650001 9.978495e-39
0.032785721 0.061928563 0.7650001 8.0352388e-39
0.034332391 0.06209049 0.76700008 6.1174581e-39
0.035793338 0.062090486 0.76700008 6.3983484e-39
0.0372543 0.062090494 0.76700008 6.6767234e-39
0.038765747 0.062171429 0.76800007 9.5279271e-39
0.040228598 0.062171426 0.76800007 1.2363619e-38
0.041800011 0.062333331 0.7700001 1.1700594e-38
0.043266669 0.062333331 0.7700001 1.1065283e-38
0.044733349 0.062333345 0.77000004 1.1332543e-38
0.046320003 0.062495258 0.77200007 1.1528389e-38
0.047852434 0.062576197 0.77300006 1.3455477e-38
-0.034914266 0.064628579 0.78000003 7.7522087e-39
-0.033385698 0.064545736 0.77900004 6.4532933e-39
-0.031738088 0.064214274 0.7750001 6.261066e-39
-0.030261893 0.064214289 0.7750001 6.1695794e-39
-0.028711405 0.064048573 0.77300012 6.6344868e-39
-0.027203821 0.063965723 0.77200007 7.094442e-39
-0.025733341 0.063965723 0.77200007 7.5597768e-39
-0.023885705 0.062971435 0.76000011 8.0348128e-39
-0.022379048 0.06280572 0.75800008 7.8666401e-39
-0.020935237 0.062805727 0.75800008 7.7780276e-39
-0.019414302 0.062557139 0.75500011 6.9436091e-39
-0.017809521 0.061977156 0.74800003 6.2064182e-39
-0.01636285 0.061894283 0.7470001 1.3851367e-38
-0.014939982 0.061894294 0.7470001 2.1485186e-38
-0.013517129 0.061894286 0.74700004 2.0190514e-38
-0.012061899 0.061728571 0.74500012 1.8979423e-38
-0.010671417 0.06189429 0.7470001 1.8894034e-38
-0.009248551 0.061894286 0.74700004 1.8707133e-38
-0.0078256838 0.061894294 0.74700004 1.9452217e-38
-0.0064114281 0.061977156 0.74800003 2.0192303e-38
-0.0049866564 0.061977159 0.74800003 1.7706667e-38
-0.0035619067 0.061977144 0.74800009 1.5211676e-38
-0.002137135 0.061977156 0.74800003 9.4228031e-39
-0.00071428274 0.062142853 0.75000012 3.7354693e-39
0.0007142981 0.06214286 0.75000012 5.6665343e-39
0.0021485852 0.062308572 0.75200009 7.5957972e-39
0.0035857379 0.062391438 0.75300002 6.7642555e-39
0.0050200117 0.062391434 0.75300008 5.9337857e-39
0.0064714323 0.062557146 0.75500005 8.9654291e-39
0.0079095159 0.062557146 0.75500005 1.2098602e-38
0.009347626 0.062557146 0.75500011 1.4402745e-38
0.010800024 0.062639996 0.7560001 1.6805534e-38
0.01224001 0.062640004 0.7560001 1.6061165e-38
0.013679998 0.062640004 0.7560001 1.5422615e-38
0.015120013 0.062640011 0.7560001 1.4585328e-38
0.01656002 0.062640019 0.75600004 1.3761681e-38
0.018047635 0.062805712 0.75800002 1.3388242e-38
0.01949143 0.062805712 0.75800002 1.3016596e-38
0.02099051 0.062971443 0.76000011 1.172767e-38
0.022438113 0.062971428 0.76000005 1.0516594e-38
0.023917155 0.063054301 0.7610001 1.0623857e-38
0.025433319 0.063220002 0.76300007 1.0816138e-38
0.026886664 0.063219994 0.76300001 8.6013241e-39
0.028340012 0.063220002 0.76300001 6.4848029e-39
0.029793339 0.063219994 0.76300007 6.7653317e-39
0.031328585 0.063385703 0.7650001 7.1384134e-39
0.032871436 0.063551448 0.76700002 5.2887891e-39
0.034332383 0.063551448 0.76700008 3.5503718e-39
0.035840023 0.063634291 0.76800007 5.7472491e-39
0.037302896 0.063634291 0.76800001 7.9577554e-39
0.038765743 0.063634306 0.76800007 1.1541488e-38
0.040333346 0.063800007 0.77000004 1.5209409e-38
0.041800003 0.063799992 0.77000004 1.5024184e-38
0.043266661 0.063800007 0.7700001 1.4843749e-38
0.044733349 0.063799992 0.7700001 1.4933796e-38
0.046380036 0.064048573 0.77300006 1.5126082e-38
0.047976211 0.064214274 0.7750001 1.6041572e-38
-0.0348695 0.066029549 0.77899998 8.410215e-39
-0.033385705 0.066029534 0.77900004 8.5709173e-39
-0.031819973 0.065860018 0.77700001 7.4391082e-39
-0.030261882 0.065690458 0.7750001 6.2635715e-39
-0.028711401 0.065520965 0.77300012 7.09873e-39
-0.027203815 0.065436199 0.77200007 7.8359545e-39
-0.025666658 0.065266684 0.77000004 8.1122079e-39
-0.023885712 0.064419053 0.76000011 8.4050162e-39
-0.02237903 0.064249545 0.75800002 8.4251865e-39
-0.020935219 0.064249538 0.75800002 8.3268868e-39
-0.019439992 0.06408 0.7560001 4.5501464e-39
-0.017857125 0.063571438 0.75000006 7.0059318e-40
-0.016384766 0.063401908 0.74800009 1.2111518e-38
-0.014939989 0.06331715 0.74700004 2.3414096e-38
-0.013517122 0.063317157 0.74700004 2.341768e-38
-0.012094277 0.063317135 0.7470001 2.3408348e-38
-0.01067141 0.063317142 0.74700004 2.3233999e-38
-0.0092485426 0.063317157 0.74700004 2.3043511e-38
-0.0078361947 0.063401908 0.74800003 2.3050326e-38
-0.0064285644 0.063571431 0.75000006 2.2955631e-38
-0.0050000059 0.063571431 0.75000012 2.2683005e-38
-0.0035619021 0.063401915 0.74800003 2.2388478e-38
-0.0021428524 0.063571423 0.75000012 1.1987385e-38
-0.00071427156 0.063571438 0.75000006 1.5267553e-39
0.00071619987 0.063740969 0.75200003 4.4730316e-39
0.0021485684 0.063740954 0.75200009 7.4114087e-39
0.0035857332 0.063825727 0.75300002 6.9493614e-39
0.005033317 0.063995242 0.75500011 6.4869525e-39
0.0064714272 0.063995242 0.75500011 8.2275193e-39
0.0079095103 0.063995242 0.75500011 9.8834281e-39
0.009347613 0.063995242 0.75500005 1.0156784e-38
0.010785724 0.063995242 0.75500005 1.0349423e-38
0.012240008 0.064080015 0.75600004 9.058345e-39
0.013680023 0.064080015 0.75600004 7.6818874e-39
0.015120011 0.06408 0.7560001 6.1988848e-39
0.016603809 0.064249523 0.75800008 4.6488049e-39
0.018047635 0.06424953 0.75800008 3.999502e-39
0.019542867 0.064419053 0.76000011 3.2723514e-39
0.020990502 0.064419046 0.76000011 3.9141237e-39
0.022467621 0.064503819 0.7610001 4.5544624e-39
0.023917157 0.064503819 0.76100004 6.030289e-39
0.025433341 0.064673334 0.76300001 7.4045914e-39
0.026886689 0.064673342 0.76300001 6.0274177e-39
0.028339986 0.064673334 0.76300007 4.6441273e-39
0.029793333 0.064673349 0.76300001 4.4629478e-39
0.031328578 0.064842865 0.7650001 4.1802555e-39
0.032871455 0.065012403 0.76700002 2.5221817e-39
0.034332398 0.06501238 0.76700008 8.673547e-40
0.035840023 0.065097153 0.76800007 4.9906306e-39
0.037302874 0.065097131 0.76800007 9.1454721e-39
0.038866658 0.065266669 0.77000004 1.3654383e-38
0.040333319 0.065266661 0.7700001 1.8064925e-38
0.041800003 0.065266669 0.7700001 1.8342869e-38
0.043266684 0.065266669 0.77000004 1.861587e-38
0.044849519 0.065436199 0.77200007 1.8615876e-38
0.046620037 0.065860018 0.77700007 1.8616952e-38
-0.034869507 0.067513362 0.77900004 6.3813142e-39
-0.033385694 0.067513354 0.77899998 7.9399351e-39
-0.031901889 0.067513362 0.77900004 7.4638257e-39
-0.030261885 0.067166656 0.7750001 7.0097391e-39
-0.02871141 0.066993326 0.77300012 7.6555261e-39
-0.0272038 0.066906676 0.77200001 8.3952323e-39
-0.025666673 0.06673333 0.7700001 8.9469614e-39
-0.023979995 0.066126674 0.76300001 9.5070338e-39
-0.022438087 0.065866672 0.76000011 8.7857126e-39
-0.020935223 0.065693334 0.75800002 8.0542502e-39
-0.01943998 0.065520011 0.75600004 4.3707788e-39
-0.017857134 0.065000013 0.75000012 6.8839768e-40
-0.01636285 0.064740002 0.74700004 1.0724301e-38
-0.014939982 0.064740002 0.74700004 2.0846296e-38
-0.013517137 0.064740002 0.7470001 1.9096758e-38
-0.012061878 0.064566672 0.74500006 1.7349373e-38
-0.010642855 0.064566687 0.74500012 1.5774896e-38
-0.0092485724 0.064740002 0.7470001 1.423414e-38
-0.007836177 0.064826682 0.74800003 1.6154794e-38
-0.0064114262 0.064826667 0.74800009 1.8091231e-38
-0.0049999799 0.065000013 0.75000006 1.8271315e-38
-0.0035619189 0.064826675 0.74800009 1.8550044e-38
-0.0021428403 0.065000013 0.75000006 1.0806441e-38
-0.00071428088 0.065000013 0.75000012 3.0847316e-39
0.00071619707 0.065173343 0.75200003 5.3885167e-39
0.0021485796 0.065173328 0.75200009 7.6887089e-39
0.0035857547 0.065260023 0.75300002 7.3188558e-39
0.0050200284 0.065260001 0.75300002 6.9486425e-39
0.0064714421 0.065433353 0.75500011 7.4031537e-39
0.0079095252 0.065433338 0.75500011 7.9487843e-39
0.0093476083 0.065433338 0.75500011 8.1346048e-39
0.010785691 0.065433338 0.75500011 8.3157647e-39
0.012223821 0.065433338 0.75500005 7.3070092e-39
0.013680001 0.065519996 0.7560001 6.3843508e-39
0.015120016 0.065520003 0.7560001 5.0982966e-39
0.016603807 0.065693341 0.75800008 3.9108951e-39
0.018047633 0.065693341 0.75800008 4.2742938e-39
0.019542888 0.065866672 0.76000011 4.6488105e-39
0.020990493 0.065866679 0.76000005 4.9178598e-39
0.022467623 0.065953344 0.76100004 5.1958774e-39
0.023917161 0.065953352 0.76100004 6.10885e-39
0.025433343 0.06612666 0.76300007 6.9285535e-39
0.026886664 0.066126682 0.76300007 5.8283198e-39
0.028340008 0.066126674 0.76300001 4.8152217e-39
0.029871438 0.066300005 0.7650001 6.6522525e-39
0.031410478 0.06647335 0.76700008 8.5671422e-39
0.032871444 0.066473342 0.76700002 8.5789566e-39
0.034377176 0.066560008 0.76800001 8.4767291e-39
0.035840023 0.066560008 0.76800007 1.1159699e-38
0.037302874 0.06656 0.76800007 1.3928046e-38
0.038866658 0.06673333 0.7700001 1.6321876e-38
0.040333338 0.066733345 0.77000004 1.8807865e-38
0.041799996 0.06673333 0.77000004 1.8713133e-38
0.043266684 0.066733345 0.7700001 1.8712062e-38
0.044907641 0.066993341 0.77300012 1.8619514e-38
0.046620034 0.067340001 0.77700007 1.8618433e-38
-0.034869507 0.068997152 0.77900004 4.4498513e-39
-0.03338569 0.068997175 0.77900004 7.2942125e-39
-0.031819977 0.068820015 0.77700007 7.5578528e-39
-0.030339992 0.068820007 0.77700007 7.744793e-39
-0.028785693 0.068642855 0.77500004 8.3015878e-39
-0.027239036 0.06846571 0.77300012 8.8536784e-39
-0.025666665 0.068200022 0.77000004 9.6809181e-39
-0.024042845 0.067757145 0.76500005 1.051973e-38
-0.022438081 0.06731429 0.76000011 9.1555657e-39
-0.020935223 0.067137137 0.75800008 7.68476e-39
-0.019439988 0.066960007 0.7560001 4.189626e-39
-0.017857144 0.066428587 0.75000012 6.9916245e-40
-0.016384764 0.066251442 0.74800009 9.4339392e-39
-0.014939995 0.066162854 0.7470001 1.8168357e-38
-0.013517129 0.066162862 0.7470001 1.468148e-38
-0.012094262 0.066162877 0.74700004 1.1168047e-38
-0.01067143 0.066162854 0.7470001 8.2813194e-39
-0.009248565 0.066162869 0.7470001 5.377026e-39
-0.007857128 0.066428579 0.75000012 9.3356409e-39
-0.0064285682 0.066428587 0.75000012 1.3200627e-38
-0.0049866713 0.066251427 0.74800009 1.3943923e-38
-0.0035619142 0.066251442 0.74800003 1.4575649e-38
-0.0021428496 0.066428587 0.75000012 9.6028994e-39
-0.00071617425 0.066605717 0.75200003 4.6488077e-39
0.00071716751 0.066694297 0.75300002 6.3079478e-39
0.0021514546 0.066694289 0.75300008 7.8702275e-39
0.0035857491 0.066694312 0.75300002 7.5968734e-39
0.0050333273 0.066871434 0.75500011 7.3149083e-39
0.0064714295 0.066871442 0.75500005 6.6709836e-39
0.007909541 0.066871427 0.75500005 6.0234646e-39
0.0093476232 0.066871449 0.75500011 6.2089223e-39
0.010785706 0.066871434 0.75500011 6.2953614e-39
0.012240011 0.066960007 0.75600004 5.6535737e-39
0.013680027 0.066960007 0.75600004 5.0006779e-39
0.015160031 0.067137145 0.75800002 4.0819614e-39
0.016647641 0.067314282 0.76000011 3.162882e-39
0.018095246 0.067314297 0.76000011 4.538255e-39
0.019568577 0.067402869 0.7610001 5.9186461e-39
0.021018114 0.067402869 0.76100004 5.9128952e-39
0.022467624 0.067402877 0.76100004 5.8249987e-39
0.023917142 0.067402855 0.7610001 6.1887464e-39
0.025433339 0.067580014 0.76300001 6.4635256e-39
0.026886687 0.067580014 0.76300001 5.7256032e-39
0.028340012 0.067580007 0.76300007 4.9026725e-39
0.029871434 0.067757145 0.7650001 8.9473804e-39
0.031410493 0.06793429 0.76700008 1.2996029e-38
0.03287144 0.067934304 0.76700008 1.4565479e-38
0.034377154 0.068022855 0.76800007 1.6128113e-38
0.035840027 0.068022862 0.76800001 1.7426363e-38
0.037302874 0.068022862 0.76800007 1.8618089e-38
0.038765725 0.068022862 0.76800007 1.9081228e-38
0.040333342 0.068199992 0.7700001 1.9448558e-38
0.041799996 0.068200007 0.7700001 1.9081923e-38
0.043266676 0.0682 0.77000004 1.8713863e-38
0.044849526 0.068377145 0.77200007 1.8714939e-38
-0.034869496 0.07048098 0.77899998 9.5054181e-39
-0.033428561 0.07057143 0.78000003 9.5043587e-39
-0.031901885 0.070480973 0.77900004 8.6663752e-39
-0.030339986 0.07030002 0.77700007 7.8344888e-39
-0.028785683 0.070119053 0.77500004 8.3901779e-39
-0.027309507 0.070119038 0.7750001 9.036978e-39
-0.025666665 0.069666669 0.7700001 9.4075542e-39
-0.024042848 0.069214284 0.76500005 9.7864765e-39
-0.022438075 0.068761908 0.76000011 9.0601429e-39
-0.020935237 0.068580955 0.75800008 8.4215992e-39
-0.019439977 0.068400018 0.75600004 6.121407e-39
-0.017904762 0.068038091 0.75200009 3.8215721e-39
-0.016384762 0.067676201 0.74800003 7.8684296e-39
-0.014959989 0.067676201 0.74800003 1.2008204e-38
-0.013535253 0.067676187 0.74800009 1.0163962e-38
-0.012094255 0.067585729 0.74700004 8.217465e-39
-0.010671423 0.067585722 0.7470001 6.7405483e-39
-0.0092485556 0.067585722 0.74700004 5.3605117e-39
-0.0078361891 0.067676201 0.74800003 6.2907119e-39
-0.0064114383 0.067676194 0.74800009 7.2076375e-39
-0.0049999985 0.067857139 0.75000012 8.0409771e-39
-0.0035618965 0.067676209 0.74800003 8.8585324e-39
-0.0021428589 0.067857146 0.75000012 6.754211e-39
-0.00071617612 0.068038106 0.75200003 4.5580512e-39
0.00071619335 0.068038091 0.75200003 4.5537464e-39
0.002151449 0.068128578 0.75300008 4.6527565e-39
0.003585723 0.068128578 0.75300008 4.550159e-39
0.0050333422 0.068309538 0.75500011 4.4608347e-39
0.0064714253 0.068309523 0.75500011 5.0039555e-39
0.0079200286 0.06840001 0.7560001 5.6521738e-39
0.0093600154 0.068399996 0.7560001 6.2924999e-39
0.010800003 0.068400003 0.7560001 6.9317302e-39
0.012240017 0.068400003 0.7560001 7.0203049e-39
0.013716206 0.068580955 0.75800002 7.0970666e-39
0.01516003 0.06858094 0.75800002 6.3706265e-39
0.016647631 0.068761908 0.76000011 5.6309049e-39
0.018095264 0.0687619 0.76000011 5.9121343e-39
0.019568579 0.068852387 0.76100004 6.2787364e-39
0.021018116 0.068852402 0.76100004 6.0932479e-39
0.022467606 0.06885238 0.7610001 5.8191637e-39
0.023980016 0.06903334 0.76300001 6.0925052e-39
0.025433343 0.069033332 0.76300007 6.3687109e-39
0.026957139 0.069214284 0.7650001 5.5403782e-39
0.028414294 0.069214284 0.7650001 4.6224212e-39
0.029949538 0.069395252 0.76700002 9.7813912e-39
0.031410482 0.069395266 0.76700008 1.5036117e-38
0.032914307 0.069485717 0.76800001 1.6321468e-38
0.034377154 0.069485709 0.76800007 1.7706876e-38
0.035840023 0.069485717 0.76800001 1.8161732e-38
0.037399996 0.069666669 0.7700001 1.8618781e-38
0.038866673 0.069666669 0.77000004 1.8803192e-38
0.040333331 0.069666669 0.77000004 1.9077626e-38
0.041800018 0.069666669 0.7700001 1.8896471e-38
0.043266676 0.069666661 0.7700001 1.8805347e-38
0.044849519 0.069847614 0.77200007 1.8897536e-38
-0.034869503 0.071964771 0.77900004 1.4567188e-38
-0.033299975 0.071780011 0.77700007 1.1708436e-38
-0.031819984 0.071779996 0.77700007 9.7687571e-39
-0.030339967 0.071780019 0.77700001 7.8348419e-39
-0.028785707 0.071595237 0.7750001 8.5713293e-39
-0.027309511 0.071595244 0.7750001 9.2167015e-39
-0.025666658 0.071133338 0.7700001 9.1252374e-39
-0.024042852 0.070671424 0.7650001 9.0496415e-39
-0.022438085 0.070209526 0.76000011 9.0608603e-39
-0.020935241 0.070024766 0.75800008 9.0637302e-39
-0.019414272 0.069747642 0.75500005 7.960628e-39
-0.017904762 0.069470488 0.75200009 6.8550134e-39
-0.01642856 0.069285728 0.75000006 6.3933248e-39
-0.014960006 0.069100961 0.74800009 5.8437467e-39
-0.013535234 0.069100969 0.74800003 5.5642956e-39
-0.012094281 0.069008566 0.7470001 5.2848318e-39
-0.010685713 0.069100961 0.74800009 5.2862569e-39
-0.0092609413 0.069100969 0.74800003 5.2787179e-39
-0.0078571262 0.069285728 0.75000006 3.2583314e-39
-0.0064285682 0.069285721 0.75000012 1.1435997e-39
-0.0049999873 0.069285721 0.75000006 2.1537859e-39
-0.0035714267 0.069285735 0.75000012 3.165047e-39
-0.0021428477 0.069285728 0.75000006 3.813631e-39
-0.00071617891 0.069470488 0.75200003 4.447137e-39
0.00071619055 0.069470488 0.75200009 2.8794624e-39
0.0021514443 0.069562867 0.75300008 1.3182547e-39
0.0035857165 0.069562852 0.75300008 1.4897246e-39
0.0050333291 0.069747627 0.75500005 1.590534e-39
0.0064714402 0.069747627 0.75500005 3.4157701e-39
0.0079200054 0.069840014 0.7560001 5.1814384e-39
0.0093600135 0.069840014 0.75600004 6.376362e-39
0.010800028 0.069840014 0.75600004 7.4830389e-39
0.012240016 0.069840014 0.75600004 8.3063172e-39
0.013716204 0.070024759 0.75800008 9.1281577e-39
0.01516 0.070024759 0.75800008 8.5810768e-39
0.016647652 0.070209511 0.76000011 8.0239499e-39
0.018119043 0.070301913 0.76100004 7.3839573e-39
0.019568581 0.070301928 0.76100004 6.639907e-39
0.021018099 0.070301913 0.7610001 6.269656e-39
0.022467609 0.07030192 0.7610001 5.8065394e-39
0.023979992 0.070486672 0.76300007 6.0856402e-39
0.025433337 0.070486665 0.76300001 6.272551e-39
0.026957154 0.070671424 0.76500005 5.3534898e-39
0.02841429 0.070671424 0.7650001 4.3483707e-39
0.029949553 0.070856221 0.76700002 1.0703006e-38
0.0314105 0.070856199 0.76700008 1.6962178e-38
0.032914333 0.070948571 0.76800001 1.8068878e-38
0.03446665 0.071133323 0.7700001 1.9171962e-38
0.035933357 0.071133345 0.77000004 1.8894286e-38
0.037400015 0.07113333 0.7700001 1.8527319e-38
0.038866673 0.071133345 0.7700001 1.8618094e-38
0.040333331 0.07113333 0.7700001 1.8711367e-38
0.041799989 0.07113333 0.7700001 1.8803925e-38
0.043266669 0.07113333 0.77000004 1.8805354e-38
-0.034869514 0.073448591 0.77900004 1.4570113e-38
-0.033385687 0.073448591 0.77900004 1.1524074e-38
-0.031819992 0.073260002 0.77700007 7.7397638e-39
-0.030339986 0.073260002 0.77700007 3.9712883e-39
-0.028785696 0.07307142 0.7750001 5.1669504e-39
-0.0273095 0.073071435 0.7750001 6.3680061e-39
-0.025733326 0.072788574 0.77200001 7.5654731e-39
-0.024262857 0.072788589 0.77200007 8.8684845e-39
-0.022438079 0.071657151 0.76000011 9.5207553e-39
-0.020879973 0.07128001 0.75600004 1.0076432e-38
-0.019414293 0.071185723 0.75500011 8.2339821e-39
-0.017904766 0.070902862 0.75200009 6.3979897e-39
-0.016428569 0.070714287 0.75000006 6.2064266e-39
-0.015000011 0.070714287 0.75000012 6.0209619e-39
-0.013535231 0.070525721 0.74800003 5.9262566e-39
-0.01211048 0.070525736 0.74800009 5.7447324e-39
-0.010685708 0.070525728 0.74800003 6.1077625e-39
-0.0092857163 0.070714287 0.75000012 6.4743702e-39
-0.0078571374 0.070714287 0.75000012 5.7346458e-39
-0.0064285775 0.070714287 0.75000012 4.9945682e-39
-0.0049999966 0.070714295 0.75000006 5.3647661e-39
-0.0035714379 0.07071428 0.75000012 5.7313766e-39
-0.002142844 0.070714295 0.75000012 6.0965522e-39
-0.00071618077 0.070902862 0.75200003 6.4459295e-39
0.00071716472 0.070997156 0.75300002 6.0875264e-39
0.0021514518 0.070997156 0.75300008 5.7104902e-39
0.003595242 0.071185723 0.75500011 5.3524669e-39
0.0050333249 0.071185715 0.75500011 4.9858536e-39
0.0064714071 0.071185715 0.75500011 5.6351704e-39
0.0079200035 0.071280003 0.75600004 6.2919941e-39
0.0093600182 0.071280003 0.7560001 6.5646153e-39
0.010800006 0.071279995 0.7560001 6.8476607e-39
0.012240021 0.07128001 0.7560001 5.7277038e-39
0.013716202 0.071468584 0.75800008 4.6296029e-39
0.01520001 0.071657151 0.76000011 4.3440294e-39
0.016647644 0.071657136 0.76000011 4.0717375e-39
0.018119074 0.071751431 0.76100004 4.6155618e-39
0.019568563 0.071751438 0.7610001 5.0657164e-39
0.021018101 0.071751423 0.7610001 5.0667379e-39
0.022467639 0.071751431 0.7610001 5.0520565e-39
0.023980014 0.071940005 0.76300001 5.1571917e-39
0.025433362 0.071940012 0.76300001 5.1701481e-39
0.026957151 0.072128572 0.7650001 5.6308012e-39
0.028414287 0.072128564 0.7650001 5.9892337e-39
0.029949546 0.072317161 0.76700002 1.1254049e-38
0.031451434 0.072411433 0.76800007 1.6509843e-38
0.033000011 0.072599992 0.77000004 1.6966515e-38
0.03455618 0.072788581 0.77200007 1.7426035e-38
0.036026675 0.072788574 0.77200007 1.7608611e-38
0.037399989 0.072600007 0.7700001 1.7793727e-38
0.038967609 0.072788574 0.77200007 1.8069601e-38
0.040333353 0.0726 0.7700001 1.8345828e-38
0.041800011 0.0726 0.7700001 1.8439099e-38
0.043266669 0.072599992 0.7700001 1.8439454e-38
-0.022319982 0.072720021 0.7560001 9.893823e-39
-0.020879997 0.072720006 0.7560001 1.1078689e-38
-0.019414291 0.072623819 0.75500005 8.5008132e-39
-0.017904768 0.072335236 0.75200009 5.8329231e-39
-0.016428581 0.072142869 0.75000012 6.0126522e-39
-0.014999985 0.072142877 0.75000006 6.1955931e-39
-0.013571426 0.072142869 0.75000012 6.1912771e-39
-0.012110475 0.071950488 0.74800003 6.1934239e-39
-0.010685725 0.071950465 0.74800009 6.9255926e-39
-0.009285707 0.072142877 0.75000006 7.6617002e-39
-0.0078571467 0.072142862 0.75000012 8.2105482e-39
-0.0064114328 0.071950473 0.74800009 8.7619129e-39
-0.0049999929 0.072142869 0.75000012 8.578951e-39
-0.0035714118 0.072142869 0.75000006 8.30272e-39
-0.0021428533 0.072142869 0.75000012 8.3956261e-39
-0.00071618264 0.072335236 0.75200003 8.3898696e-39
0.0007171731 0.07243143 0.75300002 9.3135887e-39
0.0021571477 0.072623819 0.75500005 1.0133284e-38
0.003595229 0.072623819 0.75500005 9.2231727e-39
0.0050333398 0.072623804 0.75500011 8.2961928e-39
0.006471422 0.072623819 0.75500011 7.8474045e-39
0.00792001 0.072720006 0.7560001 7.2870757e-39
0.0093600163 0.072720021 0.75600004 6.7425311e-39
0.010800031 0.072720006 0.75600004 6.1771394e-39
0.012240019 0.072720021 0.75600004 3.1275272e-39
0.013752396 0.073104769 0.76000011 1.0306971e-40
0.015200029 0.073104769 0.76000011 9.3040613e-41
0.016647635 0.073104769 0.76000011 1.1132476e-40
0.018119054 0.073200963 0.7610001 1.8490133e-39
