# .PCD v0.7 - Point Cloud Data file format
VERSION 0.7
FIELDS x y z rgb
SIZE 4 4 4 4
TYPE F F F F
COUNT 1 1 1 1
WIDTH 948
HEIGHT 1
VIEWPOINT 0 0 0 1 0 0 0
POINTS 948
DATA ascii
-0.00068186625 -0.077055275 0.71600008 1.2657511e-38
0.00068284542 -0.077162862 0.71700001 1.4776185e-38
0.0020542776 -0.077378109 0.71900004 1.689163e-38
0.0034380907 -0.077700943 0.72200006 1.514281e-38
0.0048333495 -0.078023821 0.72500002 1.3483672e-38
0.0062400275 -0.078346685 0.72800004 1.164445e-38
0.0076371836 -0.078454316 0.72900009 9.8977816e-39
0.0090504903 -0.078669533 0.73100001 9.9888997e-39
0.01045718 -0.078777164 0.73200011 1.0176518e-38
0.011851455 -0.078777164 0.73200011 1.0176518e-38
0.013281933 -0.078992397 0.73400009 1.0083964e-38
0.014720004 -0.079207629 0.73600006 8.792167e-39
0.016143857 -0.07931526 0.73700005 7.5039603e-39
0.017666722 -0.079853326 0.74200004 9.7130358e-39
0.019105721 -0.079960957 0.74300003 1.1919956e-38
0.020631438 -0.080391452 0.74700004 1.1368583e-38
0.022083849 -0.080499068 0.74800003 1.0817572e-38
0.02357148 -0.0807143 0.75000006 1.0910485e-38
0.02510001 -0.081037164 0.75300002 1.1090204e-38
0.026604759 -0.081252396 0.75500005 9.0572618e-39
0.028080033 -0.081360012 0.75600004 7.0151944e-39
0.029598093 -0.081575245 0.75800002 7.0953865e-39
0.031164782 -0.081898108 0.76100004 7.2801603e-39
0.032785747 -0.082328588 0.7650001 7.5582045e-39
0.034242895 -0.082328588 0.7650001 7.8354977e-39
0.035793342 -0.08254382 0.76700002 7.7432965e-39
0.037157163 -0.082328588 0.7650001 7.652533e-39
-0.062391449 -0.079602882 0.75300002 9.787704e-39
-0.060876187 -0.079497144 0.75200003 1.0156112e-38
-0.059522893 -0.079602867 0.75300002 1.034121e-38
-0.058011439 -0.079497159 0.75200009 1.0525956e-38
-0.056428563 -0.079285726 0.75000006 1.0527031e-38
-0.054853294 -0.079074293 0.74800003 1.0435901e-38
-0.053428534 -0.079074293 0.74800003 1.0803591e-38
-0.051934298 -0.078968585 0.74700004 1.1079455e-38
-0.050376173 -0.078757152 0.74500006 1.1172366e-38
-0.048957083 -0.078757167 0.74500006 1.1264936e-38
-0.047410421 -0.078545719 0.74300003 1.1357866e-38
-0.045809511 -0.078228578 0.74000007 1.1358213e-38
-0.044339977 -0.078122869 0.73900002 1.1266727e-38
-0.042816173 -0.077911451 0.73700011 1.1174167e-38
-0.041412354 -0.077911451 0.73700011 1.1358188e-38
-0.039954294 -0.077805743 0.73600012 1.1542218e-38
-0.0384476 -0.077594295 0.73400003 1.1726605e-38
-0.037049502 -0.07759431 0.73400009 1.1818441e-38
-0.035554241 -0.077382877 0.73200005 1.1818082e-38
-0.034159966 -0.077382877 0.73200005 1.1726246e-38
-0.032720938 -0.077277139 0.73100001 1.1910276e-38
-0.031328585 -0.077277154 0.73100001 1.2094664e-38
-0.029936191 -0.077277154 0.73100001 1.1910994e-38
-0.028543776 -0.077277154 0.73100001 1.1727685e-38
-0.027151421 -0.077277124 0.73100001 1.1728406e-38
-0.025688551 -0.077065736 0.72900003 1.163658e-38
-0.024266664 -0.076959997 0.72800004 1.2187962e-38
-0.02281712 -0.076748595 0.72600007 1.2648567e-38
-0.021434244 -0.076748595 0.72600001 1.2926217e-38
-0.020023821 -0.076642871 0.72500002 1.3107732e-38
-0.01864283 -0.076642886 0.72500002 1.2923696e-38
-0.01721427 -0.076431453 0.72300005 1.2645714e-38
-0.015815245 -0.076325715 0.72200006 1.494594e-38
-0.01439999 -0.076114297 0.72000003 1.7246634e-38
-0.013010485 -0.076008588 0.71899998 1.3944643e-38
-0.011640942 -0.076008588 0.71900004 1.0539911e-38
-0.010242855 -0.075797141 0.71700001 9.3399485e-39
-0.0088771377 -0.075797155 0.71700001 8.0560481e-39
-0.007511402 -0.075797155 0.71700001 9.5329522e-39
-0.0061371145 -0.075691447 0.71600008 1.1002679e-38
-0.0047733174 -0.075691447 0.71600002 1.1462574e-38
-0.0034095051 -0.075691447 0.71600008 1.1831709e-38
-0.002045708 -0.075691432 0.71600002 1.2934812e-38
-0.00068282738 -0.075797155 0.71700001 1.4039707e-38
0.00068286964 -0.075797155 0.71700001 1.616161e-38
0.0020571516 -0.076114282 0.72000003 1.8270597e-38
0.0034381056 -0.076325729 0.72200006 1.6156587e-38
0.0048200185 -0.076431438 0.72300005 1.3944642e-38
0.0062228679 -0.07674861 0.72600001 1.2289451e-38
0.0076266467 -0.076960012 0.72800004 1.0540987e-38
0.0090504987 -0.077277154 0.73100001 1.0355163e-38
0.010442853 -0.077277154 0.73100001 1.0174004e-38
0.011851478 -0.077382877 0.73200011 1.0267636e-38
0.013245754 -0.077382877 0.73200005 1.0265124e-38
0.014720006 -0.077805743 0.73600006 9.0662385e-39
0.016143849 -0.077911451 0.73700011 7.8730959e-39
0.017666707 -0.078440011 0.7420001 9.8055888e-39
0.019105759 -0.078545719 0.74300009 1.164445e-38
0.020631418 -0.07896857 0.74700004 1.1368943e-38
0.022083839 -0.079074308 0.74800003 1.1002679e-38
0.023571452 -0.079285711 0.75000006 1.1188502e-38
0.025099995 -0.079602882 0.75300002 1.1366072e-38
0.026604762 -0.079814285 0.75500005 9.4310666e-39
0.028080028 -0.079920009 0.7560001 7.4786781e-39
0.029598104 -0.080131441 0.75800002 7.5559975e-39
0.031164767 -0.080448568 0.76100004 7.6496547e-39
0.032785732 -0.080871433 0.7650001 7.8344313e-39
0.03424288 -0.080871433 0.7650001 8.0180953e-39
0.035793345 -0.08108288 0.76700002 7.83406e-39
0.037254304 -0.08108288 0.76700002 7.6514638e-39
-0.06239143 -0.078168601 0.75300008 1.0155744e-38
-0.060957145 -0.078168586 0.75300002 1.0340498e-38
-0.059522871 -0.078168601 0.75300008 1.0433775e-38
-0.058011446 -0.07806477 0.75200003 1.0524894e-38
-0.056428552 -0.077857181 0.75000012 1.0527045e-38
-0.054853301 -0.077649534 0.74800003 1.0435907e-38
-0.053428549 -0.077649519 0.74800003 1.0618839e-38
-0.051934298 -0.077545717 0.74700004 1.0711034e-38
-0.050376154 -0.077338114 0.74500006 1.0711392e-38
-0.04895715 -0.077338129 0.74500006 1.0804681e-38
-0.047410425 -0.077130497 0.74300003 1.0805774e-38
-0.045809526 -0.076819062 0.74000001 1.0806483e-38
-0.044339988 -0.076715231 0.73900008 1.0713922e-38
-0.042816155 -0.076507628 0.73700011 1.0622079e-38
-0.041412376 -0.076507613 0.73700005 1.0805024e-38
-0.039954308 -0.076403826 0.73600006 1.0988694e-38
-0.038552351 -0.076403826 0.73600006 1.1264916e-38
-0.037049495 -0.076196209 0.73400003 1.1633335e-38
-0.035651412 -0.076196179 0.73400003 1.172517e-38
-0.03415997 -0.075988576 0.73200011 1.1907406e-38
-0.03276569 -0.075988606 0.73200011 1.2185783e-38
-0.031328551 -0.075884759 0.73100001 1.2553125e-38
-0.029977133 -0.075988591 0.73200005 1.2830066e-38
-0.028543804 -0.075884759 0.73100001 1.3103423e-38
-0.027151411 -0.075884789 0.73100001 1.3289965e-38
-0.025688523 -0.075677156 0.72900009 1.3381467e-38
-0.024299977 -0.075677156 0.72900003 1.347512e-38
-0.02281714 -0.075365722 0.72600001 1.34751e-38
-0.021434266 -0.075365707 0.72600001 1.3381092e-38
-0.020023808 -0.075261921 0.72500002 1.3291044e-38
-0.018591447 -0.075054303 0.72300005 1.2821098e-38
-0.017214265 -0.075054318 0.72300011 1.2363052e-38
-0.015815232 -0.074950472 0.72200006 1.521826e-38
-0.014399997 -0.074742883 0.72000003 1.807425e-38
-0.01301048 -0.074639067 0.71899998 1.5044158e-38
-0.011640936 -0.074639067 0.71900004 1.2100757e-38
-0.010242835 -0.074431449 0.71700001 9.8005623e-39
-0.0088771153 -0.074431464 0.71700001 7.4103297e-39
-0.0075114188 -0.074431419 0.71700001 9.2542157e-39
-0.0061371182 -0.074327633 0.71600008 1.1185632e-38
-0.0047732857 -0.074327648 0.71600008 1.1461856e-38
-0.0034095107 -0.074327648 0.71600008 1.1829916e-38
-0.0020456763 -0.074327633 0.71600008 1.2842257e-38
-0.00068284414 -0.074431434 0.71700001 1.3945361e-38
0.00068478257 -0.074639067 0.71900004 1.6156229e-38
0.002057146 -0.074742869 0.72000003 1.8362433e-38
0.0034380832 -0.074950472 0.72200006 1.6153717e-38
0.0048333253 -0.075261906 0.72500002 1.3939978e-38
0.0062228846 -0.075365722 0.72600007 1.2563521e-38
0.0076266699 -0.075573355 0.72800004 1.1183116e-38
0.0090504698 -0.075884759 0.73100001 1.0079652e-38
0.010442862 -0.075884759 0.73100001 8.8865122e-39
0.011851477 -0.075988591 0.73200011 9.806665e-39
0.01328192 -0.076196209 0.73400003 1.072466e-38
0.01472003 -0.076403826 0.73600006 9.0680322e-39
0.016143864 -0.076507628 0.73700011 7.4128423e-39
0.017666675 -0.07702668 0.74200004 9.437528e-39
0.019105757 -0.077130482 0.74300003 1.1554409e-38
0.020631416 -0.077545717 0.74700004 1.210614e-38
0.022083828 -0.077649519 0.74800003 1.2563882e-38
0.0236343 -0.07806477 0.75200003 1.1829557e-38
0.025100015 -0.078168601 0.75300002 1.1091644e-38
0.026604766 -0.078376189 0.75500005 9.2427377e-39
0.028080044 -0.078480005 0.75600004 7.3821818e-39
0.029598102 -0.078687638 0.75800002 7.3748362e-39
0.031164812 -0.078999043 0.76100004 7.3766607e-39
0.032700006 -0.07920669 0.76300001 7.5592849e-39
0.034242891 -0.079414278 0.76500005 7.8340684e-39
0.035793375 -0.079621941 0.76700002 7.6503918e-39
0.037254333 -0.079621941 0.76700002 7.4674424e-39
-0.062391449 -0.076734304 0.75300002 1.052456e-38
-0.060957123 -0.076734319 0.75300002 1.0526707e-38
-0.059522841 -0.076734304 0.75300002 1.0528495e-38
-0.058011454 -0.07663238 0.75200003 1.0527413e-38
-0.056579035 -0.07663238 0.75200003 1.0528126e-38
-0.055000015 -0.076428592 0.75000006 1.0436645e-38
-0.053428557 -0.076224774 0.74800003 1.0433054e-38
-0.051934302 -0.07612285 0.74700004 1.0343711e-38
-0.050376136 -0.075919062 0.74500006 1.0340823e-38
-0.048957132 -0.075919077 0.74500012 1.0252595e-38
-0.047410425 -0.075715229 0.74300003 1.025333e-38
-0.045933302 -0.07561332 0.74200004 1.0254053e-38
-0.04440001 -0.075409517 0.74000001 1.0160428e-38
-0.042932369 -0.075307623 0.73900002 1.0070377e-38
-0.041412365 -0.075103834 0.73700005 1.0251168e-38
-0.039954282 -0.075001925 0.73600006 1.0437712e-38
-0.038604729 -0.075103819 0.73700005 1.0894381e-38
-0.037150458 -0.075001925 0.73600006 1.1359297e-38
-0.03565143 -0.074798122 0.73400003 1.1724844e-38
-0.034253344 -0.074798107 0.73400003 1.2002888e-38
-0.03285522 -0.074798092 0.73400009 1.255572e-38
-0.031457137 -0.074798092 0.73400003 1.3015972e-38
-0.029977111 -0.074594304 0.73200005 1.3752448e-38
-0.028582832 -0.074594289 0.73200005 1.4486766e-38
-0.027151441 -0.07449238 0.73100001 1.4855179e-38
-0.025688512 -0.074288562 0.72900003 1.5128882e-38
-0.024299966 -0.074288577 0.72900003 1.4763325e-38
-0.022817103 -0.073982865 0.72600007 1.4293753e-38
-0.021434287 -0.07398285 0.72600001 1.3831714e-38
-0.020023782 -0.07388097 0.72500002 1.3365687e-38
-0.018642852 -0.07388097 0.72500002 1.2707022e-38
-0.0172619 -0.073880941 0.72500002 1.2077164e-38
-0.015815256 -0.073575228 0.72200006 1.5489145e-38
-0.014400001 -0.073371455 0.72000003 1.880465e-38
-0.013010475 -0.073269546 0.71900004 1.6240172e-38
-0.011640971 -0.073269531 0.71900004 1.3663396e-38
-0.010271404 -0.073269546 0.71900004 1.025974e-38
-0.0088771526 -0.073065728 0.71700001 6.7703511e-39
-0.0075114337 -0.073065713 0.71700001 9.0712636e-39
-0.0061457143 -0.073065728 0.71699995 1.1277109e-38
-0.0047732913 -0.072963834 0.71600008 1.1553333e-38
-0.0034095182 -0.072963834 0.71600008 1.1830275e-38
-0.0020456838 -0.072963849 0.71600008 1.2842976e-38
-0.00068281993 -0.073065743 0.71700001 1.3762766e-38
0.00068287709 -0.073065713 0.71700001 1.6063317e-38
0.0020571405 -0.07337144 0.72000003 1.8360639e-38
0.0034428721 -0.073677152 0.72300005 1.6156229e-38
0.0048333122 -0.073880956 0.72500002 1.3853883e-38
0.0062228641 -0.07398288 0.72600007 1.2841181e-38
0.0076371734 -0.074288592 0.72900009 1.1827042e-38
0.0090505006 -0.074492395 0.73100001 9.7094401e-39
0.010442855 -0.07449238 0.73100001 7.6004565e-39
0.01185144 -0.074594304 0.73200005 9.348205e-39
0.0132819 -0.074798107 0.73400003 1.1092361e-38
0.014719995 -0.075001925 0.73600006 8.9761967e-39
0.016143817 -0.075103834 0.73700005 6.8636215e-39
0.017666683 -0.075613335 0.74200004 9.1613026e-39
0.019105755 -0.075715244 0.74300003 1.146329e-38
0.020576213 -0.075919062 0.74500006 1.2845846e-38
0.022083858 -0.076224774 0.74800003 1.4128314e-38
0.02363429 -0.076632395 0.75200003 1.2473482e-38
0.025099998 -0.076734319 0.75300002 1.0724303e-38
0.026640046 -0.077040002 0.75600004 9.0651651e-39
0.028154278 -0.077243805 0.75800002 7.2975322e-39
0.029676182 -0.077447623 0.76000005 7.1850906e-39
0.031164801 -0.077549547 0.76100004 7.0986529e-39
0.032699995 -0.07775332 0.76300001 7.3748937e-39
0.034153312 -0.077753335 0.76300001 7.5585591e-39
0.035793371 -0.078160957 0.76700002 7.4663592e-39
0.037302908 -0.078262866 0.76800007 7.283047e-39
-0.062639967 -0.075600013 0.7560001 1.1446183e-38
-0.060876209 -0.075200021 0.75200003 1.1998971e-38
-0.059443835 -0.075200006 0.75200003 1.2091505e-38
-0.058088586 -0.075300023 0.75300002 1.2273373e-38
-0.056579042 -0.075200006 0.75200003 1.2460265e-38
-0.055000003 -0.075000018 0.75000006 1.2645023e-38
-0.053428527 -0.074800014 0.74800003 1.2828705e-38
-0.052003767 -0.074800029 0.74800003 1.3104535e-38
-0.050376158 -0.074499995 0.74500006 1.3195617e-38
-0.048957113 -0.074500024 0.74500012 1.3376439e-38
-0.047538068 -0.074500024 0.74500012 1.3655194e-38
-0.045933295 -0.074199989 0.74200004 1.3836372e-38
-0.044519961 -0.074200004 0.74200004 1.4115843e-38
-0.042932373 -0.073899999 0.73900002 1.4390978e-38
-0.041524749 -0.073899999 0.73900002 1.4300565e-38
-0.04000853 -0.073700011 0.73700005 1.4300213e-38
-0.038604714 -0.073700011 0.73700005 1.4486402e-38
-0.037200898 -0.073700011 0.73700005 1.4766212e-38
-0.035748564 -0.073600024 0.73600012 1.4487833e-38
-0.03434667 -0.073600009 0.73600006 1.4118749e-38
-0.032855216 -0.073400021 0.73400003 1.4302831e-38
-0.031457156 -0.073400036 0.73400003 1.4396816e-38
-0.029977109 -0.073200002 0.73200011 1.4488288e-38
-0.028582834 -0.073200032 0.73200011 1.458298e-38
-0.027151411 -0.073100016 0.73100001 1.4574713e-38
-0.025688523 -0.072900012 0.72900003 1.4576465e-38
-0.024299977 -0.072900012 0.72900003 1.4469162e-38
-0.022817122 -0.072600007 0.72600001 1.4369831e-38
-0.021434272 -0.072600022 0.72600001 1.4096155e-38
-0.020023795 -0.07250002 0.72500002 1.3817e-38
-0.018591413 -0.072300017 0.72300005 1.3077951e-38
-0.017214291 -0.072300032 0.72300005 1.2433407e-38
-0.015815239 -0.072200015 0.72200006 1.5295112e-38
-0.014400005 -0.072000027 0.72000003 1.8160388e-38
-0.013010471 -0.07190001 0.71900004 1.6146184e-38
-0.011640966 -0.07190001 0.71900004 1.4124367e-38
-0.010271437 -0.07189998 0.71899998 1.0351934e-38
-0.0089018717 -0.07190001 0.71900004 6.5841704e-39
-0.0075114132 -0.071700007 0.71700001 8.7024867e-39
-0.0061371312 -0.07160002 0.71600002 1.0909767e-38
-0.0047732987 -0.07160002 0.71600008 1.1277468e-38
-0.0034095237 -0.07160002 0.71600002 1.1646245e-38
-0.0020456894 -0.071600035 0.71600008 1.28419e-38
-0.00068185508 -0.07160002 0.71600008 1.4035403e-38
0.00068286032 -0.071699992 0.71700001 1.5786375e-38
0.0020571367 -0.072000012 0.72000003 1.7534479e-38
0.0034428795 -0.072300032 0.72300005 1.5694539e-38
0.0048333607 -0.072500005 0.72500002 1.3855678e-38
0.0062228641 -0.072600007 0.72600001 1.3026288e-38
0.0076371836 -0.072900012 0.72900003 1.2288372e-38
0.0090504726 -0.073100016 0.73100001 1.0170053e-38
0.010457185 -0.073200017 0.73200005 8.0592752e-39
0.011851462 -0.073200002 0.73200005 9.7166232e-39
0.013281905 -0.073400006 0.73400003 1.1462572e-38
0.014720017 -0.073600009 0.73600006 9.1613026e-39
0.016143832 -0.073700026 0.73700005 6.9547396e-39
0.017666666 -0.074200004 0.74200004 9.2542129e-39
0.019105729 -0.074300006 0.74300003 1.155656e-38
0.020631414 -0.074699998 0.74700004 1.2569263e-38
0.022083847 -0.0748 0.74800003 1.3671289e-38
0.023634281 -0.075200021 0.75200003 1.2290528e-38
0.025100017 -0.075300023 0.75300008 1.1001961e-38
0.026604792 -0.075499997 0.75500005 9.2470424e-39
0.028154293 -0.075800017 0.75800002 7.5773547e-39
0.029598093 -0.075800017 0.75800002 7.3788285e-39
0.031164786 -0.076100022 0.76100004 7.2837687e-39
0.032700002 -0.07630001 0.76300001 7.5589206e-39
0.034153339 -0.07630001 0.76300001 7.8347802e-39
0.035793338 -0.076700002 0.76700002 7.6500274e-39
0.037302889 -0.076800004 0.76800001 7.4659935e-39
-0.062639974 -0.074160025 0.7560001 1.2458907e-38
-0.061119046 -0.07406193 0.75500011 1.3377979e-38
-0.059443846 -0.073767617 0.75200003 1.3656356e-38
-0.058011424 -0.073767602 0.75199997 1.393114e-38
-0.05657905 -0.073767617 0.75200003 1.4393901e-38
-0.054999996 -0.073571444 0.75000012 1.4761264e-38
-0.053428534 -0.07337524 0.74800003 1.5315527e-38
-0.051934302 -0.073277131 0.74700004 1.5773261e-38
-0.050376188 -0.073080987 0.74500012 1.614454e-38
-0.048957136 -0.073080972 0.74500006 1.6509031e-38
-0.047538087 -0.073080972 0.74500006 1.6970738e-38
-0.045995194 -0.072884783 0.74300009 1.7429919e-38
-0.044519957 -0.072786689 0.74200004 1.8074926e-38
-0.042990472 -0.07259047 0.74000001 1.862486e-38
-0.041524749 -0.072492376 0.73900002 1.8351862e-38
-0.040117171 -0.072492406 0.73900002 1.8074567e-38
-0.038604744 -0.072296202 0.73700011 1.8168921e-38
-0.037200928 -0.072296217 0.73700011 1.8167469e-38
-0.035797112 -0.072296232 0.73700011 1.7249097e-38
-0.034346644 -0.072198108 0.73600006 1.6231749e-38
-0.032855239 -0.072001904 0.73400003 1.6047734e-38
-0.031542879 -0.072198123 0.73600006 1.5768999e-38
-0.029977089 -0.071805745 0.73200011 1.522014e-38
-0.028582811 -0.07180573 0.73200011 1.4662628e-38
-0.027151437 -0.071707621 0.73100001 1.4375243e-38
-0.025688535 -0.071511433 0.72900003 1.3997821e-38
-0.024266649 -0.071413353 0.72800004 1.4258227e-38
-0.022817144 -0.071217135 0.72600001 1.4451616e-38
-0.02143429 -0.071217149 0.72600001 1.4365553e-38
-0.020023808 -0.071119085 0.72500002 1.4182212e-38
-0.018642856 -0.071119055 0.72500002 1.3445708e-38
-0.017214285 -0.070922881 0.72300005 1.2708569e-38
-0.015815239 -0.070824742 0.72200006 1.5097783e-38
-0.014400011 -0.070628598 0.72000003 1.7508557e-38
-0.013010466 -0.070530489 0.71900004 1.6059371e-38
-0.011640962 -0.070530489 0.71900004 1.4581751e-38
-0.010271436 -0.070530489 0.71900004 1.0439826e-38
-0.008877147 -0.070334285 0.71700001 6.311175e-39
-0.0075114281 -0.0703343 0.71700001 8.4287738e-39
-0.0061371014 -0.070236221 0.71600008 1.0449513e-38
-0.0047733267 -0.070236206 0.71600008 1.0908331e-38
-0.0034094939 -0.070236221 0.71600008 1.1370738e-38
-0.0020456968 -0.070236221 0.71600002 1.2843335e-38
-0.00068186253 -0.070236221 0.71600008 1.4314138e-38
0.00068288081 -0.0703343 0.71700001 1.5512304e-38
0.002057133 -0.070628583 0.72000003 1.670473e-38
0.0034428833 -0.070922881 0.72300011 1.5231775e-38
0.0048333495 -0.07111907 0.72500002 1.3762766e-38
0.0062228809 -0.071217164 0.72600001 1.3211036e-38
0.0076266634 -0.071413338 0.72800004 1.2653921e-38
0.009050481 -0.071707621 0.73100001 1.0623133e-38
0.010457184 -0.071805716 0.73200011 8.5191716e-39
0.011883802 -0.072001934 0.73400003 1.0179388e-38
0.013318087 -0.072198108 0.73600006 1.1737003e-38
0.014740031 -0.072296202 0.73700005 9.4353742e-39
0.016143847 -0.072296202 0.73700005 7.0472925e-39
0.017666673 -0.072786674 0.74200004 9.3438988e-39
0.019105727 -0.072884768 0.74300003 1.1555484e-38
0.020659057 -0.07337524 0.74800003 1.2387027e-38
0.022142865 -0.073571444 0.75000006 1.31192e-38
0.023634274 -0.073767617 0.75200003 1.219941e-38
0.0251 -0.073865756 0.75300002 1.127675e-38
0.026604796 -0.07406193 0.75500005 9.526495e-39
0.028080024 -0.074159995 0.75600004 7.7621061e-39
0.029676195 -0.074552372 0.76000005 7.6521924e-39
0.031164771 -0.074650496 0.76100004 7.4674298e-39
0.032700006 -0.074846685 0.76300001 7.7425622e-39
0.034242876 -0.075042874 0.76500005 8.0177211e-39
0.035793368 -0.075239062 0.76700002 7.8326264e-39
0.0372543 -0.075239062 0.76700002 7.6496673e-39
0.038765762 -0.075337157 0.76800007 7.8333327e-39
-0.06407997 -0.072720021 0.7560001 8.0429361e-39
-0.062639982 -0.072720006 0.7560001 8.6879328e-39
-0.060957137 -0.07243146 0.75300002 9.4276586e-39
-0.059522856 -0.072431445 0.75300002 1.0989958e-38
-0.058088582 -0.07243146 0.75300002 1.2553672e-38
-0.05657902 -0.072335243 0.75200003 1.3289072e-38
-0.055146687 -0.072335243 0.75199997 1.4119211e-38
-0.053428546 -0.07195048 0.74800003 1.4579137e-38
-0.051934261 -0.071854293 0.74700004 1.5038334e-38
-0.050376166 -0.071661934 0.74500012 1.5406771e-38
-0.048957121 -0.071661934 0.74500006 1.5687315e-38
-0.047538068 -0.071661919 0.74500006 1.6330896e-38
-0.045995198 -0.071469545 0.74300003 1.6888001e-38
-0.04451995 -0.071373329 0.74200004 1.7342865e-38
-0.042990487 -0.071180969 0.74000001 1.7804561e-38
-0.04152476 -0.071084782 0.73900008 1.7802055e-38
-0.040117133 -0.071084768 0.73900008 1.771166e-38
-0.038604729 -0.070892394 0.73700011 1.8169408e-38
-0.037200913 -0.070892408 0.73700011 1.8536719e-38
-0.035797134 -0.070892379 0.73700005 1.6234703e-38
-0.034393318 -0.070892379 0.73700005 1.3930186e-38
-0.032855254 -0.070603833 0.73400003 1.3738245e-38
-0.031371407 -0.070411459 0.73200005 1.3645337e-38
-0.029977128 -0.070411444 0.73200005 1.3922283e-38
-0.028543822 -0.070315242 0.73100001 1.4195928e-38
-0.027151408 -0.070315257 0.73100001 1.4092187e-38
-0.025688523 -0.070122868 0.72900003 1.3974497e-38
-0.024266651 -0.070026681 0.72800004 1.4168543e-38
-0.022817129 -0.069834307 0.72600007 1.4352959e-38
-0.021434251 -0.069834292 0.72600001 1.4083578e-38
-0.020023819 -0.06973812 0.72500002 1.3814534e-38
-0.01864283 -0.069738105 0.72500002 1.3167745e-38
-0.017214257 -0.069545746 0.72300005 1.2429131e-38
-0.015837135 -0.069545731 0.72300005 1.3716995e-38
-0.014400016 -0.069257185 0.72000003 1.4930335e-38
-0.013028565 -0.069257155 0.72000003 1.4667489e-38
-0.011640957 -0.069160968 0.71900004 1.4397364e-38
-0.01027143 -0.069160968 0.71900004 1.0719998e-38
-0.0089019034 -0.069160968 0.71899998 7.1391308e-39
-0.0075114039 -0.068968594 0.71700001 8.7035629e-39
-0.0061456845 -0.068968564 0.71700001 1.0356959e-38
-0.0047733341 -0.068872407 0.71600002 1.0817211e-38
-0.0034094977 -0.068872392 0.71600008 1.127926e-38
-0.0020457024 -0.068872392 0.71600002 1.2843335e-38
-0.00068189047 -0.068872407 0.71600008 1.4406332e-38
0.00068286777 -0.068968579 0.71700001 1.5050615e-38
0.0020571665 -0.06925717 0.72000003 1.5784941e-38
0.0034428535 -0.069545746 0.72300005 1.5141016e-38
0.0048333365 -0.069738105 0.72500002 1.4497091e-38
0.0062228586 -0.069834292 0.72600001 1.339363e-38
0.0076266848 -0.070026681 0.72800004 1.2197255e-38
0.0090504754 -0.070315257 0.73100001 1.0261891e-38
0.010457168 -0.070411429 0.73200005 8.3372943e-39
0.011883843 -0.070603833 0.73400009 9.8098936e-39
0.01331811 -0.070796207 0.73600006 1.1187425e-38
0.014740023 -0.070892394 0.73700005 9.5286432e-39
0.01614384 -0.070892408 0.73700005 7.8730959e-39
0.017619051 -0.071180969 0.74000001 9.3460526e-39
0.019105764 -0.071469545 0.74300003 1.0914072e-38
0.020659087 -0.071950495 0.74800003 1.2293757e-38
0.022142876 -0.072142854 0.75000006 1.3759179e-38
0.023634266 -0.072335228 0.75200003 1.2565317e-38
0.025100006 -0.072431445 0.75300002 1.146078e-38
0.02660476 -0.072623804 0.75500005 9.5232664e-39
0.028080018 -0.072720006 0.75600004 7.578082e-39
0.029598104 -0.07291241 0.75800002 7.1940996e-39
0.03116478 -0.073200971 0.76100004 6.9153294e-39
0.03278574 -0.073585719 0.76500005 7.0067712e-39
0.034242887 -0.073585734 0.76500005 7.1911877e-39
0.035700008 -0.073585719 0.7650001 7.2830512e-39
0.03725433 -0.073778108 0.76700002 7.4667166e-39
0.038765725 -0.073874295 0.76800001 7.3752328e-39
-0.064079978 -0.071280003 0.7560001 4.4542388e-39
-0.062557116 -0.071185723 0.75500005 4.9137792e-39
-0.060957156 -0.070997164 0.75300002 5.3776258e-39
-0.059522834 -0.070997179 0.75300002 8.2306316e-39
-0.058088597 -0.070997164 0.75300002 1.1079334e-38
-0.056579031 -0.070902854 0.75200003 1.2272485e-38
-0.055146657 -0.070902869 0.75200003 1.3471746e-38
-0.053714283 -0.070902884 0.75200003 1.3935248e-38
-0.052003797 -0.070525721 0.74800003 1.4300802e-38
-0.050376188 -0.070242867 0.74500006 1.4572728e-38
-0.048957139 -0.070242867 0.74500006 1.485291e-38
-0.047538053 -0.070242867 0.74500006 1.5592989e-38
-0.045995198 -0.070054308 0.74300003 1.6329464e-38
-0.044519942 -0.069959998 0.74200004 1.6695011e-38
-0.042990461 -0.069771424 0.74000001 1.6972674e-38
-0.041524764 -0.069677144 0.73900002 1.7155991e-38
-0.040117141 -0.069677159 0.73900002 1.7341099e-38
-0.038604755 -0.0694886 0.73700005 1.8167982e-38
-0.037200939 -0.0694886 0.73700005 1.8902622e-38
-0.035797119 -0.069488585 0.73700005 1.5221984e-38
-0.034346659 -0.06939429 0.73600006 1.1532353e-38
-0.032944765 -0.069394305 0.73600006 1.1512555e-38
-0.031457126 -0.069205731 0.73400009 1.1430448e-38
-0.029977128 -0.069017157 0.73200011 1.262722e-38
-0.028543791 -0.068922877 0.73100001 1.3731744e-38
-0.027151398 -0.068922862 0.73100007 1.3915402e-38
-0.025688531 -0.068734303 0.72900003 1.3996459e-38
-0.024266651 -0.068640009 0.7280001 1.4180473e-38
-0.022817126 -0.068451434 0.72600001 1.4266901e-38
-0.021434274 -0.068451449 0.72600001 1.3893433e-38
-0.020051422 -0.068451434 0.72600001 1.3439642e-38
-0.018642841 -0.068357155 0.72500002 1.2797517e-38
-0.017261913 -0.068357155 0.72500002 1.2149275e-38
-0.015837127 -0.068168595 0.72300005 1.2226391e-38
-0.014440012 -0.068074286 0.72200006 1.2346335e-38
-0.01302857 -0.067885727 0.72000003 1.3283111e-38
-0.011640953 -0.067791447 0.71900004 1.4116462e-38
-0.010271426 -0.067791432 0.71900004 1.0995504e-38
-0.0089018978 -0.067791432 0.71899998 7.8752497e-39
-0.007532394 -0.067791432 0.71900004 9.0723398e-39
-0.0061457013 -0.067602858 0.71700001 1.0265124e-38
-0.0047733025 -0.067508623 0.71600008 1.0723941e-38
-0.003409507 -0.067508578 0.71600008 1.1094872e-38
-0.0020399916 -0.067320004 0.71400005 1.2752934e-38
-0.00068189792 -0.067508608 0.71600008 1.4405973e-38
0.00068288826 -0.067602858 0.71700001 1.4681837e-38
0.0020571609 -0.067885727 0.72000003 1.4865868e-38
0.0034428572 -0.068168581 0.72300005 1.5049539e-38
0.0048333234 -0.068357155 0.72500002 1.5232851e-38
0.0062228753 -0.068451449 0.72600007 1.3485825e-38
0.007626683 -0.068640009 0.72800004 1.1734489e-38
0.0090257591 -0.068734288 0.72900003 9.9813593e-39
0.010442875 -0.068922877 0.73100001 8.150752e-39
0.011883825 -0.069205716 0.73400009 9.4429103e-39
0.013318074 -0.069394305 0.73600006 1.0634258e-38
0.014740037 -0.06948857 0.73700005 9.618685e-39
0.01620953 -0.069771424 0.74000001 8.6081358e-39
0.017666688 -0.069960013 0.74200004 9.4371664e-39
0.019157197 -0.070242882 0.74500006 1.0268711e-38
0.020659076 -0.070525736 0.74800003 1.2297703e-38
0.022142887 -0.070714295 0.75000006 1.4312703e-38
0.023634298 -0.070902854 0.75200003 1.3024853e-38
0.025066672 -0.070902869 0.75200003 1.164481e-38
0.026534287 -0.070997164 0.75300002 9.5279299e-39
0.028080033 -0.071280003 0.75600004 7.3018636e-39
0.029598115 -0.071468607 0.75800002 6.814932e-39
0.031123793 -0.071657151 0.76000005 6.269279e-39
0.032700002 -0.071940005 0.76300001 6.2703356e-39
0.034242872 -0.072128594 0.76500005 6.2728537e-39
0.035700019 -0.072128579 0.76500005 6.8256674e-39
0.0372543 -0.072317138 0.76700002 7.2844791e-39
0.038765747 -0.072411448 0.76800001 7.0093257e-39
-0.062557116 -0.069747657 0.75500005 4.3592475e-39
-0.06095713 -0.069562882 0.75300008 4.5404018e-39
-0.059522856 -0.069562882 0.75300002 7.4884577e-39
-0.058088578 -0.069562882 0.75300008 1.0525503e-38
-0.056579035 -0.069470465 0.75200003 1.1628979e-38
-0.055219974 -0.069562867 0.75300002 1.2733163e-38
-0.053714287 -0.06947048 0.75200003 1.3472516e-38
-0.052142825 -0.06928575 0.75000006 1.4207912e-38
-0.050511409 -0.069008589 0.74700004 1.4020288e-38
-0.048957121 -0.068823814 0.74500006 1.38334e-38
-0.047538068 -0.068823814 0.74500006 1.485257e-38
-0.045995202 -0.068639085 0.74300003 1.595747e-38
-0.04457996 -0.068639055 0.74300003 1.6325892e-38
-0.043106638 -0.068546683 0.74200004 1.6602476e-38
-0.041524772 -0.068269521 0.73900002 1.6878702e-38
-0.040117145 -0.068269536 0.73900002 1.7154927e-38
-0.038709518 -0.068269536 0.73900002 1.7893558e-38
-0.037301894 -0.068269536 0.73900002 1.8724327e-38
-0.035797104 -0.068084776 0.73700005 1.5035784e-38
-0.034393311 -0.068084791 0.73700005 1.1433637e-38
-0.032944765 -0.067992389 0.73600006 1.1058287e-38
-0.031542871 -0.067992389 0.73600006 1.0691741e-38
-0.029977104 -0.06762287 0.73200005 1.2258403e-38
-0.028543821 -0.067530483 0.73100001 1.3821443e-38
-0.027151428 -0.067530483 0.73100001 1.391296e-38
-0.025653353 -0.067253336 0.72800004 1.4006944e-38
-0.02426667 -0.067253351 0.72800004 1.4370335e-38
-0.022817111 -0.067068577 0.72600001 1.4732215e-38
-0.021434257 -0.067068577 0.72600007 1.4177891e-38
-0.020051405 -0.067068577 0.72600007 1.3712621e-38
-0.018642854 -0.066976205 0.72500002 1.3163405e-38
-0.017261902 -0.06697619 0.72500002 1.2705266e-38
-0.015837124 -0.066791445 0.72300011 1.2609446e-38
-0.014439997 -0.066699058 0.72200006 1.2618562e-38
-0.013028573 -0.066514298 0.72000003 1.3275907e-38
-0.011657123 -0.066514298 0.72000003 1.3932058e-38
-0.010271421 -0.066421926 0.71900004 1.0904027e-38
-0.0089018941 -0.066421926 0.71900004 7.7834142e-39
-0.0075323903 -0.066421941 0.71900004 9.0709048e-39
-0.0061456994 -0.066237167 0.71700001 1.03566e-38
-0.0047799801 -0.066237152 0.71700001 1.072394e-38
-0.0034095107 -0.066144779 0.71600002 1.1093078e-38
-0.0020399785 -0.06596002 0.71400005 1.2751141e-38
-0.0006819035 -0.066144764 0.71600008 1.4312701e-38
0.00068193086 -0.066144779 0.71600008 1.4589641e-38
0.0020628606 -0.066699058 0.72200006 1.4774031e-38
0.0034428646 -0.06679143 0.72300011 1.5050974e-38
0.0048333495 -0.066976205 0.72500002 1.5327915e-38
0.0062228772 -0.067068592 0.72600001 1.3668778e-38
0.0076266802 -0.067253351 0.72800004 1.2007483e-38
0.0090257488 -0.067345738 0.72900003 9.891672e-39
0.010457168 -0.06762287 0.73200011 7.6887033e-39
0.011883829 -0.06780763 0.73400003 9.4403992e-39
0.013281914 -0.067807645 0.73400003 1.1185988e-38
0.014740029 -0.068084806 0.73700011 9.4350126e-39
0.016209554 -0.068361908 0.74000001 7.5954314e-39
0.017666673 -0.068546668 0.74200004 8.8839968e-39
0.019157154 -0.068823829 0.74500006 1.0171133e-38
0.020659069 -0.069100946 0.74800003 1.2200486e-38
0.022142896 -0.069285735 0.75000012 1.4219432e-38
0.023571447 -0.069285721 0.75000006 1.2748629e-38
0.025066663 -0.06947048 0.75200003 1.1371814e-38
0.026534308 -0.069562882 0.75300002 9.5257775e-39
0.028042894 -0.069747612 0.75500005 7.6738761e-39
0.029520016 -0.069840014 0.75600004 7.2877539e-39
0.031123785 -0.070209533 0.76000005 6.912873e-39
0.032571416 -0.070209533 0.75999999 6.9146596e-39
0.034242883 -0.070671439 0.76500005 6.9160805e-39
0.035700005 -0.070671439 0.76500005 7.1919318e-39
0.037157152 -0.070671424 0.76500005 7.5607031e-39
0.03886668 -0.07113336 0.77000004 7.192638e-39
-0.062639952 -0.06840001 0.75600004 3.8986393e-39
-0.061119027 -0.068309546 0.75500005 3.6231286e-39
-0.059680942 -0.068309531 0.75500005 6.8413143e-39
-0.058242854 -0.068309531 0.75500005 9.9716231e-39
-0.056804728 -0.068309531 0.75500005 1.0983977e-38
-0.055219993 -0.068128601 0.75300002 1.1997766e-38
-0.053785719 -0.068128601 0.75300008 1.3105184e-38
-0.052281924 -0.068038076 0.75200003 1.4114292e-38
-0.050511453 -0.067585722 0.7470001 1.3466773e-38
-0.049088594 -0.067585737 0.74700004 1.2733891e-38
-0.047538053 -0.067404777 0.74500006 1.4209367e-38
-0.045995202 -0.067223832 0.74300003 1.5589052e-38
-0.044580009 -0.067223832 0.74300003 1.5956394e-38
-0.043106634 -0.067133352 0.74200004 1.6233698e-38
-0.041580919 -0.066952407 0.74000007 1.6601762e-38
-0.040117111 -0.066861928 0.73900002 1.6879782e-38
-0.038709484 -0.066861913 0.73900002 1.7710609e-38
-0.037301898 -0.066861913 0.73899996 1.8443446e-38
-0.035797138 -0.066680968 0.73700011 1.4854275e-38
-0.034393296 -0.066680968 0.73700005 1.1255372e-38
-0.03294478 -0.066590488 0.73600006 1.0595565e-38
-0.031457141 -0.066409543 0.73400003 9.8691909e-39
-0.029977106 -0.066228598 0.73200011 1.1893218e-38
-0.028543787 -0.066138089 0.73100001 1.3913983e-38
-0.027077101 -0.065957144 0.72900009 1.3999745e-38
-0.025688533 -0.065957144 0.72900003 1.400443e-38
-0.02426667 -0.065866679 0.72800004 1.4653039e-38
-0.022880012 -0.065866679 0.72800004 1.5200421e-38
-0.021434279 -0.065685719 0.72600001 1.4557169e-38
-0.020051403 -0.065685719 0.72600001 1.3906025e-38
-0.018668553 -0.065685734 0.72600001 1.3622224e-38
-0.017261876 -0.065595254 0.72500002 1.3256304e-38
-0.015880948 -0.065595254 0.72500002 1.3071905e-38
-0.014499996 -0.065595239 0.72500002 1.2802254e-38
-0.013082853 -0.065414324 0.72300005 1.3269799e-38
-0.011689525 -0.065323815 0.72200006 1.3743359e-38
-0.010314267 -0.06532383 0.72200006 1.0721433e-38
-0.0089142881 -0.06514287 0.72000003 7.69122e-39
-0.0075428584 -0.06514287 0.72000003 9.0705461e-39
-0.0061714076 -0.065142885 0.72000003 1.0447718e-38
-0.0047799968 -0.064871445 0.71700001 1.0814342e-38
-0.0034142754 -0.06487143 0.71700001 1.109523e-38
-0.0020457061 -0.064780965 0.71600008 1.2661816e-38
-0.0006818737 -0.06478098 0.71600008 1.4222302e-38
0.00068192341 -0.064780965 0.71600008 1.4497807e-38
0.0020628737 -0.065323815 0.72200012 1.4682556e-38
0.0034428926 -0.065414295 0.72300005 1.5051692e-38
0.0048333588 -0.065595254 0.72500002 1.5418316e-38
0.0062228939 -0.065685734 0.72600007 1.3854243e-38
0.007637152 -0.065957144 0.72900003 1.2286219e-38
0.0090257591 -0.065957159 0.72900003 9.7973296e-39
0.01045719 -0.066228583 0.73200011 7.2309621e-39
0.011883809 -0.066409543 0.73400003 9.5351046e-39
0.013336227 -0.066680968 0.73700005 1.1735926e-38
0.014740044 -0.066680983 0.73700011 9.1566377e-39
0.016209519 -0.066952392 0.74000001 6.58632e-39
0.017666681 -0.067133337 0.74200004 8.3322692e-39
0.019157171 -0.067404777 0.74500006 9.9914094e-39
0.020659095 -0.067676187 0.74800003 1.2021479e-38
0.022142868 -0.067857161 0.75000006 1.403612e-38
0.023634279 -0.068038106 0.75200003 1.2562089e-38
0.025066653 -0.068038106 0.75200003 1.1092721e-38
0.026534291 -0.068128586 0.75300002 9.6212003e-39
0.028042898 -0.068309531 0.75500005 8.0433817e-39
0.029520011 -0.068399996 0.75600004 7.7498251e-39
0.031041926 -0.06858097 0.75800002 7.4681991e-39
0.032699998 -0.069033325 0.76300001 7.4671019e-39
0.034242872 -0.069214314 0.76500005 7.466732e-39
0.035606675 -0.06903334 0.76300001 7.6489582e-39
0.037060015 -0.069033355 0.76300001 7.742579e-39
-0.062639959 -0.066960007 0.75600004 4.1737899e-39
-0.061199974 -0.066960022 0.75600004 3.7113838e-39
-0.05968098 -0.066871449 0.75500005 6.5658176e-39
-0.058242854 -0.066871434 0.75500005 9.4238429e-39
-0.05680472 -0.066871434 0.75500005 1.0802456e-38
-0.05536668 -0.066871434 0.75500005 1.2179289e-38
-0.053785738 -0.066694304 0.75300002 1.3195236e-38
-0.052281935 -0.066605702 0.75200003 1.4207572e-38
-0.05057903 -0.066251442 0.74800003 1.3653322e-38
-0.049088594 -0.066162869 0.74700004 1.3190923e-38
-0.047538083 -0.065985724 0.74500012 1.4020676e-38
-0.045995202 -0.065808564 0.74300003 1.4854726e-38
-0.044579972 -0.065808594 0.74300009 1.5590124e-38
-0.043106627 -0.065720022 0.74200004 1.6325532e-38
-0.041580934 -0.065542862 0.74000001 1.6509928e-38
-0.040117111 -0.065454289 0.73900002 1.6786514e-38
-0.038709488 -0.065454289 0.73900002 1.7063817e-38
-0.037301909 -0.065454319 0.73900008 1.7433979e-38
-0.035797119 -0.065277159 0.73700011 1.5309156e-38
-0.034393303 -0.065277144 0.73700011 1.3280802e-38
-0.032944776 -0.065188602 0.73600006 1.2817956e-38
-0.031457137 -0.065011427 0.73400003 1.2449577e-38
-0.02997712 -0.064834297 0.73200005 1.3276494e-38
-0.028543819 -0.064745709 0.73100001 1.4196294e-38
-0.027151426 -0.064745724 0.73100001 1.4190922e-38
-0.025688546 -0.064568579 0.72900003 1.4184869e-38
-0.024266673 -0.064480007 0.72800004 1.4464368e-38
-0.022879988 -0.064480022 0.72800004 1.4747044e-38
-0.021434302 -0.064302862 0.72600001 1.4651973e-38
-0.020051425 -0.064302847 0.72600001 1.4557891e-38
-0.018668575 -0.064302862 0.72600001 1.4366951e-38
-0.01728572 -0.064302877 0.72600001 1.4177197e-38
-0.015880961 -0.064214289 0.72500002 1.3626198e-38
-0.01449997 -0.064214304 0.72500002 1.2983435e-38
-0.013082847 -0.064037174 0.72300011 1.3454894e-38
-0.011705702 -0.064037144 0.72300005 1.3928102e-38
-0.010314289 -0.063948587 0.72200006 1.0994787e-38
-0.0089142527 -0.063771456 0.72000003 7.9649328e-39
-0.0075428658 -0.063771442 0.72000003 9.1613054e-39
-0.0061714151 -0.063771456 0.72000003 1.0355884e-38
-0.0047799745 -0.063505724 0.71700001 1.0633183e-38
-0.0034142549 -0.063505724 0.71700001 1.0914072e-38
-0.0020457136 -0.063417166 0.71600008 1.2385951e-38
-0.00068187743 -0.063417166 0.71600008 1.3855319e-38
0.00068288081 -0.063505709 0.71700001 1.4314138e-38
0.0020628513 -0.063948587 0.72200006 1.4774033e-38
0.0034381112 -0.063948587 0.72200006 1.5050974e-38
0.0048200185 -0.064037159 0.72300011 1.5419034e-38
0.0062228716 -0.064302877 0.72600001 1.4038631e-38
0.0076372041 -0.064568594 0.72900003 1.2750779e-38
0.0090257488 -0.064568594 0.72900003 1.0077861e-38
0.010457191 -0.064834297 0.73200011 7.4124821e-39
0.011916191 -0.065188587 0.73600006 9.7159057e-39
0.013336242 -0.065277144 0.73700005 1.2014662e-38
0.014740059 -0.065277144 0.73700011 1.0631388e-38
0.016209545 -0.065542862 0.74000007 9.3421037e-39
0.017666686 -0.065720007 0.74200004 9.9881808e-39
0.019208593 -0.066162854 0.7470001 1.0725736e-38
0.020659087 -0.066251427 0.74800003 1.2566393e-38
0.02214288 -0.066428572 0.75000006 1.4402745e-38
0.023571469 -0.066428572 0.75000006 1.3024136e-38
0.025066668 -0.066605717 0.75200003 1.1733775e-38
0.026534272 -0.066694304 0.75300002 9.8934782e-39
0.028042862 -0.06687142 0.755 8.0462642e-39
0.029520003 -0.066959992 0.75600004 7.5697653e-39
0.031041902 -0.067137152 0.75800002 7.0994306e-39
0.032700002 -0.06758 0.76300001 7.2827065e-39
0.034153305 -0.06758 0.76300001 7.5589234e-39
0.035606679 -0.067580014 0.76300001 7.7418699e-39
-0.062639967 -0.065520003 0.75600004 4.4503698e-39
-0.061199978 -0.065519989 0.75600004 3.8060864e-39
-0.059759986 -0.065520003 0.75600004 6.2860035e-39
-0.058242846 -0.065433353 0.75500005 8.775975e-39
-0.05680472 -0.065433353 0.75500005 1.0622738e-38
-0.055366676 -0.065433338 0.75500005 1.2366544e-38
-0.053785715 -0.065260038 0.75300008 1.3288495e-38
-0.052281938 -0.065173328 0.75200003 1.4207206e-38
-0.050579041 -0.064826667 0.74800003 1.3931338e-38
-0.049088556 -0.064740017 0.7470001 1.365116e-38
-0.047538102 -0.064566672 0.74500006 1.3918767e-38
-0.045995217 -0.064393356 0.74300009 1.411465e-38
-0.044579972 -0.064393342 0.74300009 1.5315343e-38
-0.043106664 -0.064306661 0.74200004 1.6417373e-38
-0.041580912 -0.064133346 0.74000001 1.6508854e-38
-0.040117159 -0.064046681 0.73900002 1.6601039e-38
-0.038709536 -0.064046681 0.73900002 1.6508117e-38
-0.037200924 -0.063873336 0.73700005 1.6411228e-38
-0.035797108 -0.063873351 0.73700011 1.5850858e-38
-0.034346681 -0.063786685 0.73600006 1.5212994e-38
-0.03294475 -0.0637867 0.73600006 1.5129371e-38
-0.031457119 -0.063613355 0.73400009 1.4938146e-38
-0.029977122 -0.06344001 0.73200005 1.4657955e-38
-0.028543809 -0.063353345 0.73100001 1.4381057e-38
-0.027151393 -0.06335333 0.73100001 1.4382176e-38
-0.025688555 -0.063180029 0.72900003 1.4281378e-38
-0.02429997 -0.06318 0.72900003 1.4272415e-38
-0.02287999 -0.063093364 0.72800004 1.4278524e-38
-0.021434261 -0.062920004 0.72600001 1.4745963e-38
-0.02005141 -0.062920004 0.72600007 1.5111101e-38
-0.018668557 -0.062920019 0.72600007 1.5110692e-38
-0.017285682 -0.062920004 0.72600001 1.510133e-38
-0.015902828 -0.062920019 0.72600007 1.4179713e-38
-0.014499981 -0.062833354 0.72500002 1.3171396e-38
-0.013082841 -0.062660024 0.72300011 1.3638544e-38
-0.011689533 -0.062573358 0.72200006 1.4111045e-38
-0.010314273 -0.062573344 0.72200006 1.118061e-38
-0.0089142583 -0.062400013 0.72000003 8.2418742e-39
-0.0075428695 -0.062399998 0.72000003 9.2531409e-39
-0.0061628507 -0.062313333 0.71900004 1.0171853e-38
-0.0047799875 -0.062140018 0.71700001 1.0447717e-38
-0.0034142698 -0.062140018 0.71700001 1.0728247e-38
-0.0020456819 -0.062053367 0.71600008 1.2111879e-38
-0.00068188674 -0.062053367 0.71600008 1.3396141e-38
0.00068194949 -0.062053353 0.71600008 1.4129749e-38
0.0020571405 -0.062400013 0.72000003 1.4774033e-38
0.0034380888 -0.062573329 0.72200006 1.5143168e-38
0.0048333346 -0.062833339 0.72500002 1.5418316e-38
0.0062400005 -0.063093349 0.72800004 1.431342e-38
0.007637192 -0.06318 0.72900009 1.3115251e-38
0.0090257386 -0.063180029 0.72900003 1.0350139e-38
0.010457176 -0.063440025 0.73200005 7.50647e-39
0.011883834 -0.063613355 0.73400009 9.9006529e-39
0.013336235 -0.063873366 0.73700011 1.2196899e-38
0.014740012 -0.063873336 0.73700005 1.2103986e-38
0.016209532 -0.064133346 0.74000001 1.2010357e-38
0.017690491 -0.064393342 0.74300003 1.1735926e-38
0.019208591 -0.064740017 0.74700004 1.1370021e-38
0.020659076 -0.064826652 0.74800003 1.3023777e-38
0.022083834 -0.064826667 0.74800003 1.4680045e-38
0.023571478 -0.065000013 0.75000006 1.3489053e-38
0.025000045 -0.065000027 0.75000006 1.2286582e-38
0.026534295 -0.065260038 0.75300002 1.0172931e-38
0.028042864 -0.065433353 0.75500005 7.9537168e-39
0.029519996 -0.065520003 0.75600004 7.3835958e-39
0.031041915 -0.065693349 0.75800002 6.7328047e-39
0.032614321 -0.065953344 0.76100004 7.1883458e-39
0.034153331 -0.066126674 0.76300001 7.5578374e-39
0.03551336 -0.065953344 0.76100004 7.9255353e-39
-0.062805712 -0.06424953 0.75800002 5.0006625e-39
-0.061361879 -0.064249545 0.75800002 4.5411263e-39
-0.059759993 -0.06408 0.75600004 5.6438697e-39
-0.058319967 -0.064080015 0.75600004 6.7512906e-39
-0.056879971 -0.064080015 0.75600004 9.6982914e-39
-0.055366673 -0.063995242 0.75500005 1.2732449e-38
-0.053928543 -0.063995242 0.75500005 1.3194853e-38
-0.052142821 -0.063571438 0.75000006 1.3655827e-38
-0.050714258 -0.063571438 0.75000006 1.3839858e-38
-0.049154256 -0.063401908 0.74800009 1.3930238e-38
-0.047665704 -0.06331715 0.74700004 1.4018465e-38
-0.046119034 -0.063147634 0.74500006 1.4113922e-38
-0.044579975 -0.062978104 0.74300003 1.5128809e-38
-0.043106657 -0.062893331 0.74200004 1.6233349e-38
-0.041580968 -0.06272383 0.74000007 1.6692887e-38
-0.040117163 -0.062639058 0.73900002 1.7059489e-38
-0.03870954 -0.062639058 0.73900002 1.7148072e-38
-0.037301917 -0.062639058 0.73900002 1.7229852e-38
-0.035797089 -0.062469557 0.73700005 1.6131759e-38
-0.034346659 -0.062384784 0.73600006 1.5029739e-38
-0.032989495 -0.062469527 0.73700005 1.4758184e-38
-0.031457137 -0.062215254 0.73400009 1.448439e-38
-0.02993617 -0.06196095 0.73100001 1.419804e-38
-0.028543778 -0.061960965 0.73100001 1.4012654e-38
-0.027151424 -0.06196095 0.73100001 1.4288956e-38
-0.025688527 -0.061791435 0.72900009 1.456084e-38
-0.024299959 -0.061791435 0.72900003 1.4000824e-38
-0.02287999 -0.061706692 0.72800004 1.3440511e-38
-0.021493331 -0.061706677 0.72800004 1.3540624e-38
-0.020106647 -0.061706677 0.72800004 1.3641419e-38
-0.018668557 -0.061537161 0.72600001 1.3725713e-38
-0.017333327 -0.061706692 0.72800004 1.3815672e-38
-0.015902849 -0.061537147 0.72600001 1.3445019e-38
-0.014499994 -0.061452389 0.72500002 1.3169228e-38
-0.01308285 -0.061282888 0.72300005 1.3825064e-38
-0.011705692 -0.061282873 0.72300011 1.4481964e-38
-0.01032857 -0.061282888 0.72300005 1.1271369e-38
-0.008939039 -0.0611981 0.72200006 8.0578445e-39
-0.0075428733 -0.061028585 0.72000003 8.9769169e-39
-0.0061628432 -0.060943827 0.71900004 9.8963467e-39
-0.0047933389 -0.060943827 0.71900004 9.9885381e-39
-0.0034142474 -0.060774282 0.71700001 1.0081453e-38
-0.0020456875 -0.060689554 0.71600008 1.201538e-38
-0.00068189047 -0.060689554 0.71600008 1.3854601e-38
0.00068288826 -0.060774297 0.71700001 1.4405973e-38
0.0020628439 -0.061198115 0.72200006 1.4956986e-38
0.0034428721 -0.061282858 0.72300005 1.5419034e-38
0.0048333216 -0.061452374 0.72500002 1.5971481e-38
0.0062485966 -0.06179145 0.72900003 1.4589285e-38
0.0076266802 -0.061706677 0.72800004 1.3118121e-38
0.0090257498 -0.06179145 0.72900003 1.053919e-38
0.01044285 -0.061960965 0.73100001 7.8723771e-39
0.011883837 -0.062215269 0.73400003 1.0174007e-38
0.013318111 -0.062384784 0.73600006 1.2472047e-38
0.014740027 -0.062469527 0.73700005 1.2379853e-38
0.016253384 -0.062893346 0.74200004 1.22873e-38
0.017690526 -0.062978104 0.74300009 1.2105064e-38
0.019157188 -0.063147634 0.74500006 1.1830992e-38
0.020631427 -0.063317165 0.74700004 1.3394348e-38
0.022083825 -0.063401908 0.74800003 1.504918e-38
0.02357145 -0.063571408 0.75000006 1.3668419e-38
0.025000017 -0.063571423 0.75000006 1.228156e-38
0.026534278 -0.063825727 0.75300002 1.0260461e-38
0.02808 -0.064080015 0.75600004 8.2320988e-39
0.029520052 -0.06408003 0.75600004 7.6641357e-39
0.031041889 -0.064249545 0.75800002 7.0043652e-39
0.032614309 -0.064503819 0.76100004 7.2812435e-39
0.034153339 -0.064673334 0.76300001 7.5578276e-39
0.035606679 -0.064673349 0.76300001 7.7407825e-39
-0.062805697 -0.062805727 0.75800002 5.5513153e-39
-0.061361901 -0.062805712 0.75800002 5.1832517e-39
-0.059760001 -0.062639996 0.75600004 4.90559e-39
-0.058319975 -0.062640011 0.7560001 4.6354771e-39
-0.056879982 -0.062640011 0.7560001 8.869967e-39
-0.055366624 -0.062557131 0.75500005 1.3007236e-38
-0.053785753 -0.062391445 0.75300002 1.3102309e-38
-0.05228192 -0.06230858 0.75200003 1.3104101e-38
-0.05071428 -0.062142864 0.75000006 1.3657982e-38
-0.049285714 -0.062142864 0.75000006 1.4206822e-38
-0.04785715 -0.062142849 0.75000006 1.411138e-38
-0.046119016 -0.061728582 0.74500012 1.4020648e-38
-0.044699967 -0.061728582 0.74500006 1.5035529e-38
-0.043106649 -0.061480001 0.74200004 1.6048239e-38
-0.041580942 -0.0613143 0.74000007 1.6785441e-38
-0.040171411 -0.061314285 0.74000001 1.7519389e-38
-0.038709506 -0.061231434 0.73900002 1.7795236e-38
-0.037301879 -0.061231449 0.73900002 1.8067869e-38
-0.035797138 -0.061065733 0.73700005 1.6416259e-38
-0.034346659 -0.060982883 0.73600006 1.4758192e-38
-0.032944765 -0.060982868 0.73600006 1.4388332e-38
-0.031457134 -0.060817152 0.73400003 1.401662e-38
-0.029936198 -0.060568586 0.73100001 1.3821045e-38
-0.028543806 -0.060568556 0.73100001 1.3552779e-38
-0.027151413 -0.060568586 0.73100001 1.4199639e-38
-0.02575906 -0.060568571 0.73100001 1.4746315e-38
-0.024299972 -0.060402885 0.72900003 1.3638158e-38
-0.022911387 -0.06040287 0.72900003 1.2527524e-38
-0.021493312 -0.06032002 0.72800004 1.233381e-38
-0.020106649 -0.06032002 0.72800004 1.215444e-38
-0.018719992 -0.06032002 0.72800004 1.2334876e-38
-0.017285688 -0.060154304 0.72600007 1.2429897e-38
-0.015902849 -0.060154289 0.72600001 1.2799705e-38
-0.014500007 -0.060071439 0.72500002 1.3081721e-38
-0.013119016 -0.060071439 0.72500002 1.3918337e-38
-0.011705724 -0.059905723 0.72300005 1.4754961e-38
-0.010328541 -0.059905738 0.72300005 1.1365357e-38
-0.0089390222 -0.059822857 0.72200006 7.8741735e-39
-0.0075428174 -0.059657156 0.72000003 8.7921698e-39
-0.0061628395 -0.059574306 0.71900004 9.6208402e-39
-0.0047799819 -0.059408575 0.71700001 9.528646e-39
-0.0034142623 -0.059408575 0.71700001 9.4389629e-39
-0.002045695 -0.059325725 0.71600008 1.192211e-38
-0.00068186066 -0.05932574 0.71600008 1.4312344e-38
0.00068287336 -0.059408575 0.71700001 1.4681838e-38
0.002057133 -0.059657156 0.72000003 1.5050615e-38
0.0034428777 -0.059905753 0.72300005 1.5788528e-38
0.0048333458 -0.060071439 0.72500002 1.6520701e-38
0.0062485854 -0.06040287 0.72900003 1.486264e-38
0.0076371948 -0.06040287 0.72900003 1.3116327e-38
0.0090257386 -0.06040287 0.72900003 1.0724297e-38
0.010442883 -0.060568571 0.73100001 8.2429476e-39
0.011851474 -0.060651436 0.73200005 1.0450231e-38
0.013318097 -0.060982883 0.73600006 1.2655359e-38
0.01474002 -0.061065733 0.73700005 1.2655359e-38
0.016253367 -0.06148003 0.74200004 1.25646e-38
0.017690523 -0.061562866 0.74300003 1.247384e-38
0.019157143 -0.061728582 0.74500006 1.2291246e-38
0.020631425 -0.061894298 0.74700004 1.3856395e-38
0.022083854 -0.061977148 0.74800003 1.5325046e-38
0.02357146 -0.062142879 0.75000006 1.3762407e-38
0.025000026 -0.062142864 0.75000006 1.2194029e-38
0.026534297 -0.062391445 0.75300008 1.0355526e-38
0.028042868 -0.062557161 0.75500005 8.5090598e-39
0.029520044 -0.062639996 0.75600004 7.9447051e-39
0.031041926 -0.062805712 0.75800002 7.2874232e-39
0.032614294 -0.063054293 0.76100004 7.466348e-39
0.034153327 -0.063220009 0.76299995 7.5567556e-39
0.035606641 -0.063220009 0.76300001 7.6450108e-39
-0.06280572 -0.061361909 0.75800002 5.6442242e-39
-0.06136189 -0.061361909 0.75800002 5.3669185e-39
-0.059759971 -0.061200008 0.7560001 4.4442517e-39
-0.058319982 -0.061200023 0.7560001 3.4337137e-39
-0.056879986 -0.061200008 0.75600004 7.3026525e-39
-0.055366624 -0.06111905 0.75500005 1.11716e-38
-0.053714301 -0.060876191 0.75200003 1.1905943e-38
-0.052142836 -0.06071429 0.75000006 1.255094e-38
-0.050714273 -0.060714304 0.75000006 1.3656906e-38
