# .PCD v0.7 - Point Cloud Data file format
VERSION 0.7
FIELDS x y z rgb
SIZE 4 4 4 4
TYPE F F F F
COUNT 1 1 1 1
WIDTH 972
HEIGHT 1
VIEWPOINT 0 0 0 1 0 0 0
POINTS 972
DATA ascii
-0.010557143 0.031671427 0.73900008 6.9393043e-39
-0.0091495235 0.031671442 0.73900008 1.1445702e-38
-0.0077419053 0.031671442 0.73900002 1.4123282e-38
-0.0063171433 0.031585708 0.73700011 1.669719e-38
-0.0049266671 0.031671442 0.73900002 1.9376924e-38
-0.0035095243 0.031585716 0.73700011 2.2032979e-38
-0.0021028575 0.031542867 0.73600006 2.2591166e-38
-0.00070190482 0.031585716 0.73700011 2.3048194e-38
0.00070190482 0.031585716 0.73700011 2.3234019e-38
0.0021057143 0.031585723 0.73700011 2.341769e-38
0.0035095238 0.031585723 0.73700011 2.341769e-38
0.0049133338 0.031585716 0.73700011 2.3411578e-38
0.0063171433 0.031585716 0.73700011 2.2382362e-38
0.0077209529 0.031585716 0.73700011 2.1389044e-38
0.0091247624 0.031585731 0.73700011 2.24075e-38
0.010528572 0.031585716 0.73700011 2.341769e-38
0.011964764 0.03167145 0.73900002 2.341769e-38
0.013372383 0.03167145 0.73900002 2.341769e-38
0.014800001 0.03171429 0.74000001 2.2683006e-38
0.016209522 0.03171429 0.74000001 2.1931791e-38
0.017595237 0.031671442 0.73900002 1.3461372e-38
0.019002857 0.031671442 0.73900002 4.9041915e-39
0.020438096 0.03171429 0.74000007 4.5253939e-39
0.021847619 0.03171429 0.74000001 4.0834412e-39
0.023257142 0.031714283 0.74000001 5.4710237e-39
0.024666667 0.031714283 0.74000001 6.7610269e-39
0.026146669 0.031799994 0.7420001 6.9482852e-39
0.027560001 0.031800009 0.7420001 7.0415556e-39
0.029012382 0.031842865 0.74300009 8.6063464e-39
0.030427622 0.031842865 0.74300009 1.0165357e-38
0.031842858 0.03184285 0.74300015 1.2644517e-38
0.033258099 0.03184285 0.74300009 1.503259e-38
0.034673337 0.031842865 0.74300009 1.4479418e-38
0.036088575 0.031842865 0.74300009 1.3927679e-38
0.037503812 0.031842865 0.74300009 1.3741131e-38
0.03891905 0.031842865 0.74300009 1.3466702e-38
0.040334288 0.03184285 0.74300009 1.3005017e-38
0.041749526 0.031842843 0.74300009 1.2545834e-38
0.043164764 0.031842858 0.74300009 1.3276566e-38
-0.034533337 0.033123821 0.74000001 1.3573355e-38
-0.03307905 0.033079058 0.73900002 9.3345732e-39
-0.031671431 0.03307905 0.73900002 5.190488e-39
-0.030181909 0.032989532 0.73700011 4.4514908e-39
-0.028778099 0.032989532 0.73700011 3.7124824e-39
-0.02737429 0.032989517 0.73700011 1.8689356e-39
-0.025970479 0.032989517 0.73700011 1.2157525e-40
-0.024566671 0.032989517 0.73700011 9.5171595e-39
-0.02316286 0.032989517 0.73700011 1.8916312e-38
-0.021759052 0.032989524 0.73700011 2.1121444e-38
-0.020355241 0.032989524 0.73700011 2.3417327e-38
-0.018951431 0.032989517 0.73700011 1.9917528e-38
-0.017547622 0.032989532 0.73700011 1.6505209e-38
-0.016143812 0.032989532 0.73700011 8.5692736e-39
-0.014740001 0.032989532 0.73700011 7.3531315e-40
-0.013336191 0.032989524 0.73700011 1.3939823e-39
-0.011964762 0.033079058 0.73900002 2.034691e-39
-0.010557143 0.03307905 0.73900008 3.883609e-39
-0.0091495235 0.03307905 0.73900008 5.8028302e-39
-0.0077419048 0.03307905 0.73900002 7.1100539e-39
-0.0063342857 0.033079065 0.73900002 8.4014962e-39
-0.0049266666 0.033079065 0.73900002 9.7883598e-39
-0.003519048 0.033079058 0.73900002 1.1082668e-38
-0.0021028575 0.032944784 0.73600012 1.237267e-38
-0.00070190482 0.032989524 0.73700011 1.3674872e-38
0.00070190482 0.032989524 0.73700011 1.5416164e-38
0.0021057143 0.032989524 0.73700011 1.7264712e-38
0.0035095238 0.032989524 0.73700011 1.8728699e-38
0.0049133343 0.032989532 0.73700011 2.0203431e-38
0.0063171438 0.032989517 0.73700011 2.0099023e-38
0.0077209533 0.032989517 0.73700011 2.0012585e-38
0.0091247624 0.032989517 0.73700011 2.1669587e-38
0.010528572 0.032989532 0.73700011 2.341769e-38
0.011932381 0.032989532 0.73700011 2.3325854e-38
0.013372383 0.033079073 0.73900002 2.3325854e-38
0.014800002 0.033123806 0.74000001 2.2774842e-38
0.016209522 0.033123806 0.74000001 2.231565e-38
0.017619047 0.033123806 0.74000001 1.5860962e-38
0.019028571 0.033123791 0.74000007 9.4016323e-39
0.020438096 0.033123806 0.74000007 5.8143124e-39
0.021906668 0.033213347 0.7420001 2.33928e-39
0.023320001 0.03321334 0.7420001 4.5494388e-39
0.024733335 0.03321334 0.7420001 6.6670376e-39
0.026146669 0.03321334 0.74200004 6.670985e-39
0.027597142 0.03325811 0.74300009 6.7649729e-39
0.02901238 0.03325811 0.74300009 8.2343409e-39
0.03042762 0.03325811 0.74300009 9.7919304e-39
0.031842858 0.033258095 0.74300009 1.1813359e-38
0.033258099 0.03325811 0.74300009 1.3924127e-38
0.034673337 0.03325811 0.74300009 1.3464577e-38
0.036088575 0.03325811 0.74300009 1.3096865e-38
0.037503812 0.03325811 0.74300009 1.2912464e-38
0.03891905 0.033258125 0.74300009 1.2821717e-38
0.040334288 0.03325811 0.74300009 1.2542993e-38
0.041749526 0.033258103 0.74300009 1.2264244e-38
-0.03589429 0.034486674 0.73900008 1.3199556e-38
-0.03448667 0.034486674 0.73900002 1.3382151e-38
-0.03307905 0.034486674 0.73900002 9.5186029e-39
-0.031671431 0.034486666 0.73900002 5.6536115e-39
-0.030263811 0.034486681 0.73900002 5.3734331e-39
-0.028856192 0.034486674 0.73900008 5.0921771e-39
-0.027448574 0.034486674 0.73900008 2.6061517e-39
-0.025970478 0.034393348 0.73700011 1.2660171e-40
-0.024566669 0.034393348 0.73700011 7.8476091e-39
-0.023162859 0.03439334 0.73700011 1.5592293e-38
-0.02175905 0.034393333 0.73700011 1.9560599e-38
-0.02035524 0.034393333 0.73700011 2.341697e-38
-0.018951429 0.034393333 0.73700011 2.2223824e-38
-0.01754762 0.034393348 0.73700011 2.0919424e-38
-0.01614381 0.034393348 0.73700011 1.1156831e-38
-0.01478 0.034486681 0.73900002 1.3092934e-39
-0.013372381 0.034486674 0.73900002 1.491196e-39
-0.011964762 0.034486674 0.73900008 1.6755928e-39
-0.010557143 0.034486674 0.73900008 9.4163333e-40
-0.0091495235 0.034486674 0.73900008 1.1511947e-40
-0.0077419053 0.034486674 0.73900002 1.1189648e-40
-0.0063342862 0.034486674 0.73900002 1.1906833e-40
-0.0049266671 0.034486674 0.73900002 1.0794482e-40
-0.003519048 0.034486681 0.73900002 1.2480665e-40
-0.0021057148 0.03439334 0.73700011 2.1423191e-39
-0.00070190476 0.03439334 0.73700011 4.1770535e-39
0.00070190488 0.03439334 0.73700011 7.6746987e-39
0.0021057143 0.03439334 0.73700011 1.107764e-38
0.0035095238 0.03439334 0.73700011 1.4028938e-38
0.0049133338 0.034393333 0.73700011 1.6968025e-38
0.0063171433 0.034393333 0.73700011 1.7797048e-38
0.0077209529 0.034393333 0.73700011 1.8534606e-38
0.0091495253 0.034486666 0.73900002 2.0931662e-38
0.010557145 0.034486681 0.73900002 2.3323692e-38
0.011964764 0.034486681 0.73900002 2.3325847e-38
0.013390478 0.034533337 0.74000007 2.3230427e-38
0.014800002 0.034533329 0.74000007 2.295851e-38
0.016209522 0.034533344 0.74000001 2.2582548e-38
0.017666668 0.03462667 0.7420001 1.8265194e-38
0.019080002 0.03462667 0.7420001 1.3815828e-38
0.020493334 0.03462667 0.7420001 7.1742488e-39
0.021906668 0.034626685 0.7420001 5.8650506e-40
0.023320001 0.034626678 0.74200004 3.628214e-39
0.024766669 0.034673333 0.74300009 6.572691e-39
0.026181906 0.034673348 0.74300009 6.4876728e-39
0.027597144 0.034673348 0.74300009 6.3958373e-39
0.029012382 0.034673348 0.74300009 7.9573994e-39
0.030509526 0.034766681 0.74500006 9.4245842e-39
0.031842858 0.034673341 0.74300009 1.1076159e-38
0.033258099 0.034673341 0.74300009 1.272775e-38
0.034673337 0.034673341 0.74300009 1.2449002e-38
0.036088575 0.034673341 0.74300009 1.2174922e-38
0.037503812 0.034673341 0.74300009 1.2173119e-38
0.03891905 0.034673333 0.74300009 1.2082007e-38
0.040334288 0.034673348 0.74300009 1.2080219e-38
0.041749526 0.034673341 0.74300009 1.1987291e-38
-0.03589429 0.035894297 0.73900008 1.3933523e-38
-0.03448667 0.035894297 0.73900002 1.2369808e-38
-0.03307905 0.035894297 0.73900002 8.9657962e-39
-0.031714287 0.035942852 0.74000001 5.654329e-39
-0.030263813 0.03589429 0.73900002 5.5585376e-39
-0.028856194 0.03589429 0.73900008 5.5538755e-39
-0.027448576 0.03589429 0.73900008 3.4362781e-39
-0.026040956 0.03589429 0.73900002 1.4101519e-39
-0.024633337 0.03589429 0.73900002 6.2863959e-39
-0.023225717 0.035894305 0.73900002 1.1085532e-38
-0.021818098 0.035894297 0.73900002 1.7255743e-38
-0.02041048 0.03589429 0.73900008 2.3415538e-38
-0.01900286 0.03589429 0.73900008 2.2773407e-38
-0.017595241 0.03589429 0.73900002 2.2128006e-38
-0.016187621 0.03589429 0.73900002 1.4845696e-38
-0.014780001 0.035894305 0.73900002 7.6495384e-39
-0.013372382 0.035894297 0.73900002 4.8008583e-39
-0.011964763 0.035894282 0.73900008 2.0511787e-39
-0.010557144 0.035894297 0.73900008 2.3263292e-39
-0.0091495244 0.035894297 0.73900008 2.5114435e-39
-0.0077419048 0.035894297 0.73900002 2.5089394e-39
-0.0063342857 0.035894297 0.73900002 2.6000476e-39
-0.0049266666 0.035894297 0.73900002 2.0457963e-39
-0.003519048 0.035894282 0.73900008 1.492991e-39
-0.0021057148 0.035797141 0.73700011 2.2287526e-39
-0.00070190482 0.035797141 0.73700011 3.0430794e-39
0.00070380955 0.035894297 0.73900002 4.3431298e-39
0.0021057143 0.035797141 0.73700011 5.6170012e-39
0.0035095238 0.035797141 0.73700011 8.1206073e-39
0.0049133343 0.035797149 0.73700011 1.0699177e-38
0.0063342866 0.03589429 0.73900008 1.3924183e-38
0.0077419057 0.03589429 0.73900002 1.7233843e-38
0.0091495244 0.03589429 0.73900002 1.9362912e-38
0.010557144 0.03589429 0.73900002 2.1578808e-38
0.011964763 0.035894305 0.73900002 2.0375266e-38
0.013390477 0.03594286 0.74000007 1.9178898e-38
0.014800001 0.035942852 0.74000007 1.8530314e-38
0.016209522 0.035942852 0.74000007 1.7882438e-38
0.017666668 0.036039993 0.7420001 1.5300635e-38
0.019028571 0.035942867 0.74000001 1.2708056e-38
0.020493334 0.036040008 0.74200004 8.3874636e-39
0.021906668 0.036040001 0.7420001 4.0819838e-39
0.023320001 0.036039993 0.7420001 4.9085299e-39
0.024733335 0.036040008 0.7420001 5.8347784e-39
0.026181906 0.036088578 0.74300009 6.5712574e-39
0.027597144 0.036088578 0.74300009 7.3123986e-39
0.029012382 0.036088571 0.74300015 8.4144245e-39
0.030509524 0.036185727 0.74500012 9.6071762e-39
0.031842858 0.036088578 0.74300009 1.1075076e-38
0.033258099 0.036088578 0.74300009 1.2451881e-38
0.034673337 0.036088578 0.74300009 1.2451152e-38
0.036088575 0.036088578 0.74300009 1.2450429e-38
0.037503812 0.036088578 0.74300015 1.2358228e-38
0.038866669 0.036040008 0.7420001 1.2355358e-38
0.040280003 0.036040008 0.7420001 1.2356791e-38
0.041580956 0.035942852 0.74000007 1.2262787e-38
0.04299048 0.035942852 0.74000001 1.1987262e-38
-0.034533337 0.037352383 0.74000007 1.126563e-38
-0.03312381 0.037352383 0.74000001 8.4115547e-39
-0.031714287 0.037352376 0.74000001 5.5639326e-39
-0.030263811 0.03730192 0.73900002 5.7443708e-39
-0.028856192 0.037301905 0.73900008 5.924809e-39
-0.027448574 0.037301905 0.73900008 4.3589393e-39
-0.026040955 0.03730192 0.73900002 2.7001578e-39
-0.024633335 0.03730192 0.73900002 4.6186545e-39
-0.023225715 0.03730192 0.73900002 6.5751909e-39
-0.021818096 0.037301913 0.73900002 1.4961648e-38
-0.020410478 0.037301913 0.73900008 2.3323342e-38
-0.019002859 0.037301913 0.73900008 2.3325854e-38
-0.017595239 0.037301913 0.73900002 2.3320443e-38
-0.016209524 0.037352376 0.74000001 1.8632495e-38
-0.014800001 0.037352391 0.74000001 1.3911224e-38
-0.013372381 0.037301905 0.73900002 8.1948271e-39
-0.011964762 0.037301913 0.73900008 2.4181717e-39
-0.01057143 0.037352391 0.74000007 3.7092623e-39
-0.0091495235 0.037301913 0.73900002 4.9034838e-39
-0.0077523808 0.037352391 0.74000007 4.9960368e-39
-0.0063428571 0.037352391 0.74000001 4.9935187e-39
-0.004933333 0.037352391 0.74000001 3.9826023e-39
-0.003519048 0.037301905 0.73900008 2.8773464e-39
-0.0021057148 0.037200943 0.73700011 2.4203199e-39
-0.00070380949 0.037301905 0.73900002 1.8632127e-39
0.00070380961 0.037301905 0.73900002 1.0381309e-39
0.0021114284 0.03730192 0.73900002 1.1583273e-40
0.0035190475 0.03730192 0.73900002 2.2287708e-39
0.0049266671 0.037301905 0.73900008 4.3553239e-39
0.0063342862 0.03730192 0.73900008 1.0149557e-38
0.0077419053 0.03730192 0.73900002 1.5855559e-38
0.0091495253 0.03730192 0.73900002 1.789137e-38
0.01057143 0.037352376 0.74000001 1.9818123e-38
0.011980954 0.037352391 0.74000001 1.7508606e-38
0.013390477 0.037352391 0.74000001 1.512519e-38
0.014840002 0.037453339 0.7420001 1.4100651e-38
0.016253332 0.037453339 0.7420001 1.3097975e-38
0.017666666 0.037453324 0.7420001 1.234605e-38
0.01908 0.037453324 0.7420001 1.1615311e-38
0.020493332 0.037453324 0.7420001 9.5848829e-39
0.021906666 0.037453339 0.7420001 7.5713389e-39
0.023351429 0.037503801 0.74300009 6.2723899e-39
0.024833333 0.03760479 0.74500012 5.0010577e-39
0.026252382 0.037604786 0.74500006 6.5586906e-39
0.027671428 0.037604786 0.74500006 8.1367544e-39
0.029168572 0.037705731 0.7470001 8.9639928e-39
0.030591428 0.037705727 0.7470001 9.7929869e-39
0.032014288 0.037705727 0.7470001 1.0980715e-38
0.033258099 0.037503816 0.74300009 1.2176367e-38
0.034673337 0.037503816 0.74300009 1.2452948e-38
0.036088575 0.037503816 0.74300003 1.2635899e-38
0.037503812 0.037503801 0.74300009 1.2636973e-38
0.038866669 0.037453331 0.7420001 1.2635889e-38
0.040280003 0.037453346 0.7420001 1.263696e-38
0.041580956 0.037352368 0.74000007 1.2541885e-38
-0.03462667 0.038866661 0.7420001 1.090044e-38
-0.03312381 0.038761899 0.74000007 8.1399942e-39
-0.031714287 0.038761899 0.74000001 5.3845706e-39
-0.030263813 0.03870954 0.73900008 5.5635781e-39
-0.028856194 0.038709536 0.73900008 5.7454484e-39
-0.027448576 0.038709536 0.73900002 4.4547222e-39
-0.026040956 0.038709536 0.73900002 3.1672302e-39
-0.024633337 0.038709532 0.73900002 3.2515309e-39
-0.023225717 0.038709532 0.73900002 3.3494719e-39
-0.021818098 0.03870954 0.73900002 9.3403087e-39
-0.02041048 0.038709525 0.73900008 1.5335806e-38
-0.01900286 0.038709521 0.73900008 1.4864074e-38
-0.017619051 0.038761895 0.74000007 1.4409539e-38
-0.016209526 0.038761895 0.74000007 1.1541451e-38
-0.0148 0.038761906 0.74000007 8.7702394e-39
-0.013390476 0.038761906 0.74000001 5.360125e-39
-0.011980953 0.038761906 0.74000001 1.962234e-39
-0.010571429 0.038761903 0.74000001 2.3321082e-39
-0.0091619045 0.038761891 0.74000007 2.6119138e-39
-0.0077523808 0.038761891 0.74000007 2.6054496e-39
-0.0063428571 0.038761903 0.74000007 2.6101076e-39
-0.0049266666 0.038709529 0.73900002 2.3259859e-39
-0.003519048 0.038709532 0.73900008 2.0519101e-39
-0.0021057148 0.03860477 0.73700011 2.4138669e-39
-0.00070380949 0.038709529 0.73900002 2.7873102e-39
0.00070380961 0.038709529 0.73900002 2.6929663e-39
0.0021114284 0.038709529 0.73900002 2.600049e-39
0.0035190475 0.038709525 0.73900002 4.6218579e-39
0.004933334 0.038761895 0.74000001 6.5575527e-39
0.0063428581 0.03876191 0.74000001 9.9626141e-39
0.0077523817 0.038761899 0.74000007 1.346314e-38
0.0091619063 0.038761899 0.74000007 1.5859846e-38
0.01057143 0.038761899 0.74000007 1.8252231e-38
0.011980955 0.03876191 0.74000001 1.7884168e-38
0.013426669 0.038866665 0.74200004 1.7610456e-38
0.014840002 0.038866669 0.7420001 1.7333154e-38
0.016253334 0.038866665 0.7420001 1.697044e-38
0.017666668 0.038866665 0.7420001 1.6502977e-38
0.019080002 0.038866665 0.7420001 1.6137803e-38
0.020520953 0.03891905 0.74300009 1.5120095e-38
0.021936191 0.03891905 0.74300009 1.4111354e-38
0.023351431 0.038919065 0.74300009 1.2908897e-38
0.024833335 0.039023828 0.74500006 1.180798e-38
0.026252383 0.039023824 0.74500012 1.2729953e-38
0.02767143 0.039023824 0.74500012 1.3751983e-38
0.029168572 0.039128583 0.7470001 1.4026055e-38
0.030591428 0.039128579 0.74700004 1.4303317e-38
0.032014284 0.039128583 0.7470001 1.3192644e-38
0.033347618 0.03902382 0.74500006 1.2177438e-38
0.034673333 0.038919054 0.74300009 1.2360397e-38
0.036088571 0.038919047 0.74300009 1.2635905e-38
0.037503809 0.038919061 0.74300009 1.2636622e-38
0.038866669 0.038866669 0.7420001 1.2638763e-38
0.040280003 0.038866669 0.74200004 1.2636241e-38
0.041580956 0.03876191 0.74000001 1.2634802e-38
-0.03462667 0.040279999 0.7420001 1.0528432e-38
-0.03312381 0.040171422 0.74000007 7.8630472e-39
-0.031714287 0.040171422 0.74000007 5.1973067e-39
-0.030304765 0.040171422 0.74000007 5.3799001e-39
-0.028856194 0.040117156 0.73900008 5.4688615e-39
-0.027448576 0.040117156 0.73900002 4.5465563e-39
-0.026040956 0.040117156 0.73900002 3.6224476e-39
-0.024633337 0.040117152 0.73900002 1.871102e-39
-0.023225717 0.040117152 0.73900002 1.2909882e-40
-0.021818098 0.040117141 0.73900008 3.7139146e-39
-0.02041048 0.040117156 0.73900008 7.2133548e-39
-0.01900286 0.040117152 0.73900002 6.2932118e-39
-0.017619051 0.04017143 0.74000001 5.370538e-39
-0.016253334 0.040280007 0.7420001 4.4453545e-39
-0.014840001 0.040280003 0.74200004 3.5266394e-39
-0.013426668 0.040279992 0.7420001 2.5132204e-39
-0.011980953 0.04017143 0.74000001 1.5044761e-39
-0.010571429 0.040171426 0.74000001 9.5275824e-40
-0.0091619045 0.040171441 0.74000001 3.1026149e-40
-0.0077523808 0.04017143 0.74000007 2.9590519e-40
-0.0063428571 0.040171426 0.74000007 2.1662253e-40
-0.0049266671 0.040117156 0.73900002 7.5077368e-40
-0.003519048 0.040117148 0.73900008 1.2214334e-39
-0.0021057148 0.040008571 0.73700011 2.4874029e-39
-0.00070380955 0.040117159 0.73900002 3.7070916e-39
0.00070380955 0.040117159 0.73900002 4.4378296e-39
0.0021142857 0.040171426 0.74000007 5.0896421e-39
0.0035238096 0.040171422 0.74000007 6.9173795e-39
0.0049466672 0.040279999 0.7420001 8.7691436e-39
0.0063600009 0.040279999 0.7420001 9.8636236e-39
0.0077523817 0.040171433 0.74000001 1.0985748e-38
0.0091866674 0.040279996 0.7420001 1.383266e-38
0.010600001 0.040280011 0.7420001 1.6600643e-38
0.012013334 0.040279996 0.7420001 1.8349109e-38
0.013426668 0.040279996 0.7420001 2.0097218e-38
0.014840001 0.040280011 0.7420001 2.0467077e-38
0.016253334 0.040280007 0.7420001 2.0832594e-38
0.017666668 0.040280007 0.7420001 2.0741087e-38
0.019105716 0.040334288 0.74300009 2.0550949e-38
0.020493334 0.040279992 0.7420001 2.0554886e-38
0.021906668 0.040279992 0.7420001 2.0546292e-38
0.023351431 0.040334299 0.74300009 1.953576e-38
0.024766669 0.040334299 0.74300009 1.8521997e-38
0.026181906 0.040334284 0.74300009 1.898406e-38
0.027597144 0.040334284 0.74300009 1.9356075e-38
0.029168572 0.040551446 0.7470001 1.9084523e-38
0.030591428 0.040551431 0.7470001 1.8804681e-38
0.032014288 0.040551431 0.7470001 1.5492117e-38
0.033437144 0.040551446 0.7470001 1.2086311e-38
0.03476667 0.040442884 0.74500006 1.2358589e-38
0.036088575 0.040334281 0.74300009 1.2634812e-38
0.037604764 0.040442869 0.74500012 1.263481e-38
0.03891905 0.040334292 0.74300009 1.2543691e-38
0.040280003 0.040279996 0.7420001 1.2634449e-38
0.041693337 0.040280011 0.7420001 1.2634089e-38
-0.03312381 0.041580956 0.74000001 8.5909097e-39
-0.031714287 0.041580945 0.74000007 7.5800003e-39
-0.030304763 0.04158096 0.74000007 8.0406114e-39
-0.028856192 0.041524768 0.73900008 8.5916229e-39
-0.027448574 0.041524783 0.73900002 8.2192573e-39
-0.026040955 0.041524783 0.73900002 7.8439966e-39
-0.024633335 0.041524779 0.73900002 7.2004026e-39
-0.023225715 0.041524779 0.73900002 6.6432898e-39
-0.021818096 0.041524768 0.73900008 8.6690489e-39
-0.020410478 0.041524768 0.73900008 1.0673297e-38
-0.019002859 0.041524772 0.73900002 1.050255e-38
-0.017619049 0.041580968 0.74000001 1.0293403e-38
-0.016253334 0.041693322 0.7420001 1.0228108e-38
-0.01484 0.041693334 0.7420001 1.0040854e-38
-0.013426667 0.041693334 0.7420001 9.5009647e-39
-0.012013333 0.041693334 0.7420001 8.9463658e-39
-0.0106 0.041693345 0.7420001 9.3216013e-39
-0.0091866665 0.041693345 0.7420001 9.7775432e-39
-0.0077523808 0.041580964 0.74000001 1.0059857e-38
-0.0063428571 0.04158096 0.74000001 1.0433299e-38
-0.004933333 0.041580949 0.74000007 1.0797055e-38
-0.0035238101 0.041580964 0.74000007 1.1166918e-38
-0.0021114289 0.041524764 0.73900008 1.1992012e-38
-0.00070476194 0.04158096 0.74000001 1.282965e-38
0.00070476194 0.04158096 0.74000001 1.3286312e-38
0.0021142857 0.04158096 0.74000001 1.3841268e-38
0.0035333333 0.041693341 0.7420001 1.4851097e-38
0.0049466668 0.041693341 0.7420001 1.5870257e-38
0.0063600005 0.041693341 0.7420001 1.6417324e-38
0.0077733337 0.041693337 0.7420001 1.7069507e-38
0.0091866683 0.041693322 0.7420001 1.8444535e-38
0.010600002 0.041693322 0.7420001 1.9825666e-38
0.012013335 0.041693334 0.7420001 2.0562153e-38
0.013426669 0.041693334 0.7420001 2.1299002e-38
0.014860001 0.041749526 0.74300009 2.0654371e-38
0.016253334 0.041693345 0.7420001 2.0009344e-38
0.017666668 0.041693337 0.7420001 1.8989081e-38
0.019105716 0.041749522 0.74300009 1.806567e-38
0.020520953 0.041749518 0.74300009 1.8523379e-38
0.021936191 0.041749533 0.74300009 1.8983292e-38
0.023351431 0.041749533 0.74300009 1.8616327e-38
0.024766669 0.041749533 0.74300009 1.8341179e-38
0.026252383 0.041861922 0.74500012 1.8433014e-38
0.02767143 0.041861922 0.74500006 1.8532401e-38
0.029090479 0.041861936 0.74500006 1.8443452e-38
0.030591428 0.041974295 0.7470001 1.8348724e-38
0.032014288 0.041974295 0.7470001 1.5214455e-38
0.033437144 0.041974295 0.7470001 1.2081998e-38
0.03476667 0.041861914 0.74500012 1.2266381e-38
0.036185715 0.041861914 0.74500006 1.2450407e-38
0.037604764 0.041861929 0.74500006 1.2266731e-38
0.03891905 0.041749526 0.74300009 1.2174547e-38
0.040334288 0.041749526 0.74300009 1.2082002e-38
0.041693337 0.041693337 0.7420001 1.2082004e-38
-0.034626674 0.043106657 0.7420001 8.5937641e-39
-0.033123806 0.04299048 0.74000001 9.3212734e-39
-0.031714283 0.04299048 0.74000001 9.9730888e-39
-0.030304765 0.042990468 0.74000007 1.0794585e-38
-0.028895242 0.04299048 0.74000007 1.1628637e-38
-0.027448576 0.042932391 0.73900002 1.1803342e-38
-0.026040956 0.042932406 0.73900002 1.1991661e-38
-0.024666671 0.042990476 0.74000001 1.2534766e-38
-0.023257146 0.042990483 0.74000001 1.3093673e-38
-0.021847622 0.042990483 0.74000001 1.3645765e-38
-0.020438099 0.042990472 0.74000007 1.4196427e-38
-0.019080002 0.04310666 0.7420001 1.4750318e-38
-0.017666668 0.04310666 0.7420001 1.5297743e-38
-0.016253334 0.04310666 0.7420001 1.5949558e-38
-0.01484 0.043106657 0.7420001 1.6592046e-38
-0.013444762 0.043164779 0.74300009 1.6502722e-38
-0.012013333 0.043106671 0.74200004 1.6411611e-38
-0.0106 0.04310666 0.7420001 1.7793455e-38
-0.0091866665 0.04310666 0.7420001 1.9172777e-38
-0.0077733332 0.04310666 0.7420001 1.9916425e-38
-0.00636 0.043106671 0.7420001 2.0556764e-38
-0.0049466663 0.043106671 0.7420001 2.0837293e-38
-0.0035238101 0.042990465 0.74000007 2.1017023e-38
-0.0021114287 0.042932391 0.73900002 2.148338e-38
-0.000704762 0.042990476 0.74000001 2.1847492e-38
0.00070476189 0.042990476 0.74000001 2.2219854e-38
0.0021199998 0.043106668 0.7420001 2.2583966e-38
0.0035333333 0.043106664 0.7420001 2.2774811e-38
0.0049466672 0.043106664 0.74200004 2.2861983e-38
0.0063600009 0.043106668 0.7420001 2.2958123e-38
0.0077733342 0.043106664 0.7420001 2.3047093e-38
0.0091866683 0.043106664 0.7420001 2.3049607e-38
0.010600002 0.043106664 0.7420001 2.3047453e-38
0.012029526 0.043164767 0.74300009 2.2774813e-38
0.013444764 0.043164775 0.74300009 2.2399575e-38
0.014860002 0.043164775 0.74300009 2.0750478e-38
0.016253334 0.04310666 0.7420001 1.9075886e-38
0.017666668 0.04310666 0.7420001 1.732309e-38
0.019105716 0.04316476 0.74300009 1.5480263e-38
0.020520953 0.043164756 0.74300009 1.6397883e-38
0.021936191 0.043164771 0.74300009 1.7323058e-38
0.023351431 0.043164771 0.74300009 1.7696502e-38
0.024833335 0.043280978 0.74500006 1.8058467e-38
0.026252383 0.043280959 0.74500012 1.7874083e-38
0.02767143 0.043280959 0.74500012 1.7698342e-38
0.029168572 0.043397151 0.7470001 1.7807436e-38
0.030591428 0.043397147 0.7470001 1.7883096e-38
0.032014284 0.043397162 0.7470001 1.4935003e-38
0.03343714 0.043397162 0.7470001 1.1992312e-38
0.03486 0.043397158 0.7470001 1.2081988e-38
0.036185712 0.043280955 0.74500012 1.2174901e-38
0.03760476 0.04328097 0.74500012 1.1990875e-38
0.039023809 0.043280967 0.74500012 1.1713926e-38
0.040334284 0.043164779 0.74300009 1.162065e-38
0.041693334 0.043106668 0.7420001 1.1438425e-38
0.043106664 0.043106664 0.7420001 1.1806496e-38
-0.03462667 0.044519998 0.7420001 1.5501136e-38
-0.03312381 0.044399995 0.74000001 1.586669e-38
-0.031714287 0.044399995 0.74000001 1.6237617e-38
-0.030304765 0.04440001 0.74000001 1.6141833e-38
-0.028895242 0.044400007 0.74000001 1.6059327e-38
-0.027485717 0.044399999 0.74000007 1.6789351e-38
-0.026076194 0.044399999 0.74000007 1.7621607e-38
-0.024733335 0.044519987 0.7420001 1.7798818e-38
-0.023320001 0.044520002 0.74200004 1.7990028e-38
-0.021906668 0.044519991 0.7420001 1.8261235e-38
-0.020493334 0.044519991 0.7420001 1.8543207e-38
-0.019080002 0.044520002 0.7420001 1.8721863e-38
-0.017666668 0.044520002 0.7420001 1.8912353e-38
-0.016253334 0.044520002 0.7420001 1.9183915e-38
-0.01484 0.044519998 0.74200004 1.9467309e-38
-0.013444762 0.044580001 0.74300009 1.9551606e-38
-0.012013333 0.044519987 0.7420001 1.955664e-38
-0.010614285 0.044580001 0.74300009 2.0288826e-38
-0.0091866665 0.044519998 0.7420001 2.1121803e-38
-0.0077733337 0.044519998 0.7420001 2.1486275e-38
-0.0063600005 0.044519994 0.74200004 2.1856487e-38
-0.0049466668 0.044519998 0.7420001 2.194617e-38
-0.0035333338 0.044519998 0.7420001 2.2040158e-38
-0.0021142862 0.044399999 0.74000007 2.2222394e-38
-0.000704762 0.044399999 0.74000007 2.2499335e-38
0.00070666673 0.044519994 0.7420001 2.268193e-38
0.0021199998 0.044519994 0.74200004 2.2866677e-38
0.0035333333 0.044519994 0.7420001 2.286596e-38
0.0049466668 0.044519994 0.7420001 2.2864525e-38
0.0063600005 0.044519994 0.7420001 2.286596e-38
0.0077838106 0.044580005 0.74300009 2.2774842e-38
0.0091990493 0.044580005 0.74300009 2.0934903e-38
0.010614287 0.044580005 0.74300009 1.9008496e-38
0.012029526 0.044580001 0.74300009 1.6968728e-38
0.013444764 0.044580001 0.74300009 1.4946891e-38
0.014860002 0.044580005 0.74300009 1.4560515e-38
0.016275236 0.044580001 0.74300009 1.4270988e-38
0.017690476 0.044580001 0.74300009 1.3715638e-38
0.019105714 0.044580001 0.74300009 1.3164264e-38
0.020520952 0.044580013 0.74300009 1.3812491e-38
0.021936189 0.044580013 0.74300009 1.4560797e-38
0.023351429 0.044580001 0.74300015 1.4650112e-38
0.024833333 0.044700023 0.74500006 1.4832356e-38
0.026252382 0.044700019 0.74500006 1.4645106e-38
0.027745714 0.044819999 0.7470001 1.4375041e-38
0.029168572 0.044820014 0.7470001 1.4470164e-38
0.030591428 0.044820011 0.7470001 1.4563036e-38
0.032014284 0.044820011 0.7470001 1.3184746e-38
0.03343714 0.044820026 0.74700004 1.1900834e-38
0.03486 0.044820011 0.7470001 1.318401e-38
0.036282856 0.044820011 0.7470001 1.4471868e-38
0.037705712 0.044820011 0.7470001 1.4934998e-38
0.039023813 0.044700015 0.74500012 1.5386263e-38
0.040442862 0.044700015 0.74500012 1.3645671e-38
0.041749526 0.044580009 0.74300009 1.189759e-38
0.043164764 0.044580005 0.74300009 1.2080923e-38
-0.03462667 0.045933332 0.7420001 2.2309183e-38
-0.03312381 0.045809522 0.74000007 2.240712e-38
-0.031714287 0.045809522 0.74000001 2.2491772e-38
-0.030427622 0.045995247 0.74300009 2.1476192e-38
-0.028895242 0.045809533 0.74000001 2.0376685e-38
-0.027485717 0.045809533 0.74000001 2.1856104e-38
-0.026146669 0.045933332 0.74200004 2.3231125e-38
-0.024766669 0.045995239 0.74300009 2.3049249e-38
-0.023320001 0.045933332 0.7420001 2.2863788e-38
-0.021906668 0.045933332 0.7420001 2.2865225e-38
-0.020493334 0.045933332 0.7420001 2.2864152e-38
-0.019080002 0.045933343 0.7420001 2.2680842e-38
-0.017666668 0.045933343 0.74200004 2.2496453e-38
-0.016275238 0.045995239 0.74300009 2.2405692e-38
-0.014860001 0.04599525 0.74300009 2.231206e-38
-0.013444763 0.04599525 0.74300009 2.2496087e-38
-0.012029525 0.045995239 0.74300015 2.2680125e-38
-0.010614286 0.045995235 0.74300009 2.2866674e-38
-0.0091990484 0.045995235 0.74300009 2.2958152e-38
-0.0077838097 0.045995235 0.74300009 2.3050348e-38
-0.0063685714 0.045995247 0.74300009 2.3050348e-38
-0.0049533332 0.045995247 0.74300009 2.3049989e-38
-0.0035380956 0.045995235 0.74300015 2.2958154e-38
-0.0021142862 0.045809533 0.74000001 2.3050348e-38
-0.00070666673 0.045933336 0.74200004 2.3142183e-38
0.00070666673 0.045933325 0.7420001 2.3142183e-38
0.0021199998 0.045933325 0.7420001 2.3048912e-38
0.0035333333 0.045933336 0.7420001 2.2957432e-38
0.0049466672 0.045933336 0.7420001 2.2864164e-38
0.0063685724 0.045995247 0.74300009 2.2683006e-38
0.0077838106 0.045995243 0.74300009 2.2492138e-38
0.0091990484 0.045995243 0.74300009 1.8722557e-38
0.010614286 0.045995243 0.74300009 1.4929634e-38
0.012029525 0.045995254 0.74300009 1.1143886e-38
0.013444763 0.045995254 0.74300009 7.3743107e-39
0.014860001 0.045995243 0.74300009 8.3651156e-39
0.016275238 0.045995239 0.74300009 9.383173e-39
0.017690478 0.045995239 0.74300009 1.0103841e-38
0.019105716 0.045995239 0.74300009 1.0759611e-38
0.020520953 0.04599525 0.74300009 1.1218078e-38
0.021936191 0.04599525 0.74300009 1.1690882e-38
0.023351431 0.045995239 0.74300009 1.1694463e-38
0.024833335 0.046119053 0.74500012 1.1599758e-38
0.026252383 0.046119064 0.74500012 1.1315283e-38
0.027745716 0.046242867 0.7470001 1.1045915e-38
0.029168574 0.046242867 0.7470001 1.1134559e-38
0.03059143 0.046242878 0.7470001 1.1147841e-38
0.032014288 0.046242878 0.7470001 1.1523443e-38
0.033437144 0.046242867 0.7470001 1.180363e-38
0.034860004 0.046242863 0.7470001 1.4281054e-38
0.03628286 0.046242863 0.7470001 1.6777843e-38
0.037705716 0.046242863 0.7470001 1.7890284e-38
0.039128575 0.046242874 0.7470001 1.898369e-38
0.040442862 0.046119072 0.74500006 1.567868e-38
0.041861907 0.04611906 0.74500012 1.23629e-38
-0.036088575 0.047410488 0.74300009 2.2404988e-38
-0.03462667 0.04734667 0.7420001 2.2222035e-38
-0.033213336 0.047346666 0.7420001 2.2315305e-38
-0.031842858 0.047410484 0.74300009 2.2407484e-38
-0.030427622 0.047410473 0.74300015 2.0003244e-38
-0.029012382 0.047410484 0.74300009 1.7614816e-38
-0.027597144 0.047410484 0.74300009 2.0287743e-38
-0.026181906 0.047410484 0.74300009 2.295851e-38
-0.024766669 0.047410481 0.74300009 2.286596e-38
-0.023351431 0.047410496 0.74300009 2.2774483e-38
-0.021936191 0.047410496 0.74300009 2.2774124e-38
-0.020520953 0.047410484 0.74300009 2.277484e-38
-0.019080002 0.047346659 0.7420001 2.2589731e-38
-0.017690478 0.047410481 0.74300009 2.2405697e-38
-0.016275238 0.047410481 0.74300009 2.1943645e-38
-0.014860001 0.047410492 0.74300009 2.1481597e-38
-0.013444763 0.047410492 0.74300009 2.1851092e-38
-0.012029525 0.047410477 0.74300009 2.2219155e-38
-0.010614286 0.047410488 0.74300009 2.2588654e-38
-0.0091990484 0.047410488 0.74300009 2.304891e-38
-0.0077838097 0.047410488 0.74300009 2.2866318e-38
-0.0063685714 0.047410484 0.74300009 2.2683006e-38
-0.0049533332 0.047410484 0.74300009 2.1302245e-38
-0.0035380956 0.047410473 0.74300009 1.9834312e-38
-0.0021200003 0.047346666 0.7420001 1.9369395e-38
-0.00070666673 0.047346666 0.7420001 1.8825915e-38
0.00070666673 0.047346666 0.7420001 1.8910576e-38
0.0021199998 0.047346666 0.7420001 1.9004918e-38
0.0035333333 0.047346663 0.7420001 1.7895355e-38
0.0049466668 0.047346678 0.7420001 1.6706879e-38
0.0063685724 0.047410484 0.74300009 1.6605003e-38
0.0077838106 0.047410481 0.74300009 1.6512048e-38
0.0091990484 0.047410481 0.74300009 1.3268344e-38
0.010614286 0.047410481 0.74300009 1.0109273e-38
0.012029525 0.047410492 0.74300009 9.1987341e-39
0.013444763 0.047410481 0.74300009 8.3574982e-39
0.014860001 0.047410481 0.74300009 9.3795184e-39
0.016275238 0.047410488 0.74300009 1.0394713e-38
0.017690478 0.047410488 0.74300009 1.0849209e-38
0.019105716 0.047410488 0.74300009 1.1306967e-38
0.020520953 0.047410484 0.74300009 1.1493523e-38
0.021936191 0.047410473 0.74300015 1.1769029e-38
0.023351431 0.047410473 0.74300009 1.1773691e-38
0.024833333 0.047538109 0.74500006 1.1679695e-38
0.026252382 0.04753812 0.74500006 1.1402745e-38
0.027745714 0.04766573 0.7470001 1.1216223e-38
0.029168572 0.04766573 0.7470001 1.131238e-38
0.030591428 0.047665726 0.74700004 1.141073e-38
0.032014284 0.047665715 0.7470001 1.1795349e-38
0.033481903 0.047729518 0.74800009 1.2263539e-38
0.03486 0.047665726 0.7470001 1.3832678e-38
0.036282856 0.047665726 0.7470001 1.5417573e-38
0.03775619 0.047729529 0.74800009 1.7341829e-38
0.039128572 0.047665738 0.7470001 1.935755e-38
0.040551428 0.047665726 0.7470001 1.6875842e-38
0.041974284 0.047665726 0.7470001 1.4388695e-38
0.043455236 0.047729526 0.74800009 1.3277646e-38
-0.036088575 0.048825726 0.74300009 2.2588295e-38
-0.034673337 0.048825726 0.74300009 2.2038002e-38
-0.033213336 0.048760008 0.7420001 2.2223829e-38
-0.031842858 0.048825722 0.74300009 2.2305956e-38
-0.030427624 0.048825726 0.74300015 1.8513773e-38
-0.029012384 0.048825722 0.74300009 1.4763243e-38
-0.027597146 0.048825722 0.74300009 1.8721514e-38
-0.026181908 0.048825722 0.74300009 2.2679772e-38
-0.024766671 0.048825718 0.74300009 2.2681928e-38
-0.023351433 0.048825718 0.74300009 2.2681568e-38
-0.021936193 0.048825718 0.74300009 2.2681208e-38
-0.020520955 0.048825718 0.74300009 2.2589371e-38
-0.019105718 0.048825715 0.74300009 2.2405342e-38
-0.01769048 0.04882573 0.74300009 2.222023e-38
-0.01627524 0.04882573 0.74300009 2.1481596e-38
-0.01486 0.048825726 0.74300009 2.0654718e-38
-0.013444762 0.048825715 0.74300009 2.1207165e-38
-0.012029524 0.048825715 0.74300009 2.1759619e-38
-0.010614285 0.048825711 0.74300009 2.2403191e-38
-0.0091990475 0.048825726 0.74300009 2.3048909e-38
-0.0077838097 0.048825726 0.74300009 2.2683002e-38
-0.0063685714 0.048825722 0.74300009 2.2308117e-38
-0.0049533332 0.048825711 0.74300015 1.9549455e-38
-0.0035380956 0.048825726 0.74300009 1.6687464e-38
-0.0021200003 0.048760008 0.7420001 1.5583619e-38
-0.00070666673 0.048760008 0.7420001 1.4479452e-38
0.00070666673 0.048760008 0.7420001 1.476071e-38
0.0021199998 0.048760008 0.7420001 1.4938603e-38
0.0035333333 0.048759993 0.7420001 1.2728056e-38
0.0049533341 0.048825722 0.74300009 1.0516489e-38
0.0063685724 0.048825722 0.74300009 1.0517583e-38
0.0077838106 0.048825718 0.74300009 1.0411716e-38
0.0091990493 0.048825718 0.74300009 7.9127457e-39
0.010614287 0.048825733 0.74300009 5.3416839e-39
0.012029526 0.048825715 0.74300015 7.3677765e-39
0.013444764 0.048825715 0.74300009 9.2937982e-39
0.014860002 0.048825715 0.74300009 1.0400475e-38
0.016275236 0.048825711 0.74300009 1.1408146e-38
0.017690476 0.048825711 0.74300009 1.1591451e-38
0.019105714 0.048825726 0.74300009 1.1771545e-38
0.020520952 0.048825715 0.74300015 1.1863749e-38
0.021936189 0.048825715 0.74300009 1.1861233e-38
0.023414286 0.048957158 0.74500012 1.1859077e-38
0.024833333 0.048957158 0.74500012 1.1769017e-38
0.026252382 0.048957169 0.74500006 1.1583894e-38
0.027745714 0.049088582 0.7470001 1.1306978e-38
0.029207621 0.049154297 0.74800009 1.1487804e-38
0.030632382 0.049154282 0.74800009 1.1689832e-38
0.03205714 0.049154282 0.74800009 1.2167367e-38
0.033481903 0.049154282 0.74800009 1.2630871e-38
0.034906667 0.049154293 0.74800009 1.3276252e-38
0.036331426 0.049154293 0.74800009 1.3934906e-38
0.03775619 0.049154293 0.74800009 1.6794024e-38
0.039180953 0.049154278 0.74800009 1.9635548e-38
0.040551428 0.049088575 0.7470001 1.798646e-38
0.042030476 0.049154289 0.74800009 1.6315434e-38
0.043455236 0.049154285 0.74800009 1.4193124e-38
-0.036185715 0.050376214 0.74500012 2.2404258e-38
-0.034673337 0.050240964 0.74300009 2.21284e-38
-0.033258099 0.05024096 0.74300009 2.2038723e-38
-0.031928573 0.05037621 0.74500012 2.2037258e-38
-0.030509526 0.05037621 0.74500006 1.8433402e-38
-0.029090479 0.050376207 0.74500006 1.4947264e-38
-0.02767143 0.050376207 0.74500012 1.8815498e-38
-0.026252383 0.050376207 0.74500012 2.2682998e-38
-0.024833335 0.050376203 0.74500012 2.2681568e-38
-0.023414288 0.050376203 0.74500006 2.2772325e-38
-0.021995239 0.050376218 0.74500006 2.2680485e-38
-0.020520953 0.05024096 0.74300009 2.2496098e-38
-0.019105716 0.050240956 0.74300009 2.2404621e-38
-0.017690478 0.050240971 0.74300009 2.2404976e-38
-0.016275238 0.050240971 0.74300009 2.1667059e-38
-0.01486 0.050240953 0.74300015 2.1019906e-38
-0.013444762 0.050240953 0.74300009 2.1574505e-38
-0.012029524 0.050240967 0.74300009 2.212732e-38
-0.010614285 0.050240964 0.74300009 2.2405344e-38
-0.0091990475 0.050240964 0.74300009 2.2683e-38
-0.0077838097 0.050240964 0.74300009 1.9179257e-38
-0.0063685714 0.050240949 0.74300015 1.568375e-38
-0.0049533332 0.050240949 0.74300009 1.5110835e-38
-0.0035380956 0.050240964 0.74300009 1.453789e-38
-0.0021200003 0.050173335 0.7420001 1.399472e-38
-0.00070666673 0.050173335 0.74200004 1.352337e-38
0.00070761907 0.05024096 0.74300009 1.4463271e-38
0.0021228571 0.050240964 0.74300015 1.5464779e-38
0.0035380952 0.05024096 0.74300009 1.2797889e-38
0.0049533341 0.05024096 0.74300009 1.0194242e-38
0.0063685724 0.05024096 0.74300009 8.6449087e-39
0.0077838106 0.050240956 0.74300009 7.0718307e-39
0.0091990493 0.050240956 0.74300009 8.2749827e-39
0.010614287 0.050240971 0.74300009 9.5682341e-39
0.012029526 0.050240956 0.74300009 1.0958342e-38
0.013444764 0.050240956 0.74300009 1.2335499e-38
0.014860002 0.050240971 0.74300009 1.1872358e-38
0.016275238 0.050240967 0.74300009 1.1500714e-38
0.017690478 0.050240967 0.74300009 1.159004e-38
0.019105716 0.050240967 0.74300009 1.177228e-38
0.020520953 0.050240953 0.74300009 1.1770491e-38
0.021936191 0.050240953 0.74300009 1.1860884e-38
0.023414288 0.050376214 0.74500006 1.1768682e-38
0.024833335 0.050376203 0.74500012 1.1769015e-38
0.026322857 0.050511446 0.7470001 1.1399853e-38
0.027745714 0.050511446 0.74700004 1.1031469e-38
0.029207621 0.050579056 0.74800009 1.232796e-38
0.030632382 0.050579052 0.74800009 1.352942e-38
0.032057144 0.050579041 0.74800009 1.2992464e-38
0.033481907 0.050579056 0.74800009 1.2357149e-38
0.03490667 0.050579052 0.74800009 1.2542971e-38
0.03633143 0.050579052 0.74800009 1.2731691e-38
0.037756193 0.050579052 0.74800009 1.4206825e-38
0.039180957 0.050579064 0.74800003 1.5679787e-38
0.040605716 0.050579052 0.74800009 1.4848251e-38
0.04203048 0.050579052 0.74800009 1.4101684e-38
0.043455239 0.050579049 0.74800009 1.318436e-38
-0.03628286 0.051934298 0.7470001 2.2312786e-38
-0.03476667 0.051795259 0.74500006 2.2130554e-38
-0.033258099 0.051656187 0.74300015 2.1948322e-38
-0.031928573 0.051795255 0.74500012 2.1659861e-38
-0.030509528 0.051795255 0.74500012 1.8419389e-38
-0.029090481 0.051795252 0.74500006 1.5130925e-38
-0.027671432 0.051795252 0.74500006 1.8910565e-38
-0.026252385 0.051795252 0.74500006 2.2589013e-38
-0.024833336 0.051795248 0.74500006 2.2773046e-38
-0.023351431 0.051656198 0.74300009 2.2865238e-38
-0.021936191 0.051656198 0.74300009 2.2680845e-38
-0.020520953 0.051656198 0.74300009 2.2404623e-38
-0.019105716 0.051656205 0.74300009 2.2495743e-38
-0.017690478 0.051656205 0.74300009 2.2496814e-38
-0.016275238 0.051656205 0.74300009 2.1944721e-38
-0.014860001 0.05165619 0.74300009 2.129936e-38
-0.013444763 0.05165619 0.74300009 2.1851449e-38
-0.012029525 0.05165619 0.74300009 2.240498e-38
-0.010614286 0.051656201 0.74300009 2.2315663e-38
-0.0092238104 0.051795255 0.74500006 2.2211246e-38
-0.0078047616 0.051795255 0.74500006 1.557539e-38
-0.0063857143 0.05179524 0.74500012 8.9449015e-39
-0.0049666665 0.051795255 0.74500012 1.067252e-38
-0.0035476196 0.051795255 0.74500012 1.2433503e-38
-0.0021228576 0.051656194 0.74300009 1.251813e-38
-0.00070761907 0.051656194 0.74300009 1.2531786e-38
0.00070761907 0.051656194 0.74300009 1.4287446e-38
0.0021228571 0.051656187 0.74300009 1.5936156e-38
0.0035380952 0.051656198 0.74300009 1.2896953e-38
0.0049533341 0.051656198 0.74300009 9.8487866e-39
0.0063685724 0.051656198 0.74300009 6.7963158e-39
0.0077838106 0.051656209 0.74300009 3.6853799e-39
0.0091990484 0.051656209 0.74300009 8.7305855e-39
0.010614286 0.051656194 0.74300015 1.3716993e-38
0.012029525 0.05165619 0.74300009 1.4562194e-38
0.013444763 0.05165619 0.74300009 1.5283206e-38
0.014860001 0.05165619 0.74300009 1.3436409e-38
0.016275238 0.051656201 0.74300009 1.1498542e-38
0.017690478 0.051656201 0.74300009 1.1587156e-38
0.019157141 0.051795248 0.74500012 1.167864e-38
0.020631429 0.051934283 0.7470001 1.1768332e-38
0.022054285 0.051934298 0.7470001 1.1769404e-38
0.023477143 0.051934298 0.7470001 1.1768683e-38
0.024933334 0.052003805 0.74800009 1.1768302e-38
0.026358098 0.052003816 0.74800009 1.1306592e-38
0.027782859 0.052003816 0.74800009 1.0762093e-38
0.029207621 0.052003816 0.74800009 1.3078841e-38
0.030632382 0.052003812 0.74800009 1.5378708e-38
0.032057144 0.052003805 0.74800009 1.373252e-38
0.033481907 0.052003805 0.74800009 1.2080921e-38
0.03490667 0.052003816 0.74800009 1.1806496e-38
0.03633143 0.052003816 0.74800009 1.1440597e-38
0.037756193 0.052003816 0.74800009 1.1529213e-38
0.039180957 0.052003812 0.74800009 1.1626793e-38
0.040605716 0.052003812 0.74800009 1.1807959e-38
0.04203048 0.052003812 0.74800009 1.1899416e-38
0.043455239 0.052003808 0.74800009 1.2267098e-38
0.044880003 0.052003808 0.74800009 1.2543681e-38
-0.036282863 0.053357162 0.7470001 2.2681565e-38
-0.034860007 0.053357154 0.7470001 2.2499332e-38
-0.033347625 0.0532143 0.74500006 2.1853975e-38
-0.031928577 0.053214315 0.74500006 2.1295736e-38
-0.030509526 0.053214315 0.74500006 1.870994e-38
-0.029090479 0.053214297 0.74500012 1.6144693e-38
-0.02767143 0.053214297 0.74500012 1.9553057e-38
-0.026252383 0.053214297 0.74500012 2.2866673e-38
-0.024833335 0.053214293 0.74500006 2.286596e-38
-0.023351431 0.053071432 0.74300009 2.2774839e-38
-0.021936191 0.053071432 0.74300009 2.258937e-38
-0.020520953 0.053071432 0.74300009 2.249682e-38
-0.019105716 0.053071428 0.74300009 2.249754e-38
-0.017690478 0.053071443 0.74300009 2.2590805e-38
-0.016275238 0.053071432 0.74300009 2.2036558e-38
-0.014860001 0.053071428 0.74300009 2.1391915e-38
-0.013444763 0.053071428 0.74300009 2.1944363e-38
-0.012029525 0.053071443 0.74300009 2.2499329e-38
-0.010614286 0.053071439 0.74300009 2.0566126e-38
-0.0092238104 0.053214304 0.74500012 1.8627849e-38
-0.0078047626 0.053214304 0.74500006 1.380895e-38
-0.0063857143 0.0532143 0.74500006 9.0004461e-39
-0.0049666665 0.053214315 0.74500006 1.2528525e-38
-0.0035476196 0.053214304 0.74500012 1.6138071e-38
-0.0021228576 0.053071436 0.74300009 1.5759946e-38
-0.00070761907 0.053071436 0.74300009 1.5491998e-38
0.00070761907 0.053071424 0.74300015 1.6776644e-38
0.0021228571 0.053071439 0.74300009 1.8064161e-38
0.0035380952 0.053071436 0.74300009 1.6494014e-38
0.0049533341 0.053071436 0.74300009 1.5018123e-38
0.0063685724 0.053071436 0.74300009 1.2986197e-38
0.0077838106 0.053071432 0.74300009 1.0968707e-38
0.0091990484 0.053071421 0.74300015 1.381814e-38
0.010614286 0.053071436 0.74300009 1.6680142e-38
0.012029525 0.053071432 0.74300009 1.5295829e-38
0.013444763 0.053071432 0.74300009 1.4002532e-38
0.014860001 0.053071447 0.74300009 1.2881786e-38
0.016275238 0.053071443 0.74300009 1.1857974e-38
0.017738096 0.053214304 0.74500006 1.1861571e-38
0.019157143 0.053214304 0.74500006 1.1953777e-38
0.020631429 0.05335715 0.7470001 1.186267e-38
0.022054285 0.053357165 0.7470001 1.1863389e-38
0.023508573 0.053428572 0.74800009 1.1770118e-38
0.024933334 0.053428572 0.74800009 1.1769743e-38
0.026358098 0.053428583 0.74800009 1.1306602e-38
0.027782859 0.053428583 0.74800009 1.0936828e-38
0.029207621 0.053428583 0.74800009 1.3256468e-38
0.030632382 0.053428579 0.74800009 1.5663566e-38
0.03205714 0.053428564 0.74800009 1.4010887e-38
0.033481903 0.053428564 0.74800009 1.244826e-38
0.034906667 0.053428575 0.74800009 1.2266392e-38
0.036331426 0.053428575 0.74800009 1.2082711e-38
0.037857141 0.05357144 0.75000012 1.2174178e-38
0.039180953 0.053428572 0.74800009 1.2357138e-38
0.040605713 0.053428579 0.74800014 1.2358935e-38
0.042030476 0.053428579 0.74800009 1.2267466e-38
0.043455236 0.053428575 0.74800009 1.2451502e-38
-0.034860004 0.054780018 0.7470001 2.2774121e-38
-0.033347622 0.054633342 0.74500012 2.1856128e-38
-0.031928573 0.054633357 0.74500012 2.0926616e-38
-0.030509526 0.054633357 0.74500006 1.9072291e-38
-0.029090479 0.054633353 0.74500006 1.715813e-38
-0.02767143 0.054633353 0.74500006 2.0198421e-38
-0.026252383 0.054633342 0.74500012 2.3140746e-38
-0.024833335 0.054633338 0.74500012 2.2957434e-38
-0.023351431 0.054486673 0.74300009 2.2681207e-38
-0.021995239 0.054633353 0.74500006 2.2588651e-38
-0.020520953 0.054486688 0.74300009 2.2497536e-38
-0.019105716 0.054486685 0.74300009 2.259045e-38
-0.017690478 0.05448667 0.74300015 2.2681205e-38
-0.01631905 0.054633353 0.74500012 2.2126242e-38
-0.014900001 0.054633349 0.74500012 2.1483394e-38
-0.013444762 0.054486666 0.74300009 2.2034408e-38
-0.012061905 0.054633349 0.74500006 2.2496448e-38
-0.010642858 0.05463336 0.74500006 1.8821229e-38
-0.0092238104 0.054633349 0.74500012 1.5020389e-38
-0.0078047626 0.054633349 0.74500012 1.2032078e-38
-0.0063857143 0.054633345 0.74500012 9.1209816e-39
-0.0049666665 0.05463336 0.74500006 1.4486202e-38
-0.0035476196 0.05463336 0.74500006 1.9720447e-38
-0.0021228576 0.05448667 0.74300009 1.9075069e-38
-0.00070761907 0.05448667 0.74300009 1.8340402e-38
0.00070761907 0.054486658 0.74300009 1.9263078e-38
0.0021228571 0.054486673 0.74300009 2.0179649e-38
0.0035380952 0.05448667 0.74300009 2.0179659e-38
0.0049533341 0.05448667 0.74300009 2.0081323e-38
0.0063685724 0.054486685 0.74300009 1.9161132e-38
0.0077838106 0.054486681 0.74300009 1.8149521e-38
0.0091990493 0.05448667 0.74300009 1.8893189e-38
0.010614287 0.05448667 0.74300009 1.9620331e-38
0.012029526 0.054486666 0.74300009 1.6122323e-38
0.013480953 0.054633353 0.74500006 1.2610283e-38
0.014900001 0.054633353 0.74500006 1.241329e-38
0.016275238 0.054486677 0.74300009 1.2137438e-38
0.017738096 0.054633349 0.74500012 1.2139244e-38
0.019157143 0.054633349 0.74500012 1.2138892e-38
0.020631429 0.054780014 0.7470001 1.204814e-38
0.022083811 0.054853342 0.74800009 1.1863389e-38
0.023508573 0.054853342 0.74800003 1.1862667e-38
0.024933334 0.054853346 0.74800009 1.1769384e-38
0.026358098 0.054853342 0.74800009 1.1397008e-38
0.027782859 0.054853342 0.74800009 1.1036175e-38
0.029207621 0.054853342 0.74800009 1.3438658e-38
0.030632382 0.054853339 0.74800009 1.5841484e-38
0.032057144 0.054853339 0.74800003 1.4291078e-38
0.03357143 0.055000011 0.75000012 1.2728081e-38
0.03490667 0.054853339 0.74800009 1.2728079e-38
0.036428574 0.055000018 0.75000006 1.2635522e-38
0.037857145 0.055000018 0.75000006 1.2911025e-38
0.039285716 0.055000015 0.75000006 1.3093981e-38
0.040605716 0.05485335 0.74800009 1.2910671e-38
0.04203048 0.054853339 0.74800009 1.2635176e-38
0.043455239 0.054853335 0.74800009 1.2727383e-38
-0.033437144 0.056202862 0.7470001 2.1395157e-38
-0.032014288 0.056202877 0.7470001 2.1206085e-38
-0.030591432 0.056202877 0.7470001 1.9083803e-38
-0.029090481 0.056052398 0.74500012 1.6981652e-38
-0.027671432 0.056052398 0.74500006 1.9832877e-38
-0.026252385 0.056052398 0.74500006 2.2683003e-38
-0.024833336 0.056052394 0.74500006 2.1299011e-38
-0.02341429 0.056052383 0.74500012 2.0015465e-38
-0.021995241 0.056052398 0.74500012 2.1302235e-38
-0.020576194 0.056052398 0.74500012 2.2681205e-38
-0.019157145 0.056052394 0.74500006 2.2773761e-38
-0.017738098 0.056052394 0.74500006 2.2865594e-38
-0.01627524 0.055901907 0.74300009 2.2220231e-38
-0.014900001 0.056052394 0.74500012 2.1574514e-38
-0.013480953 0.056052394 0.74500012 2.2035844e-38
-0.012061905 0.056052394 0.74500012 2.2590068e-38
-0.010642858 0.05605239 0.74500006 1.8532427e-38
-0.0092238104 0.056052405 0.74500006 1.4457851e-38
-0.0078047626 0.056052405 0.74500006 1.095043e-38
-0.0063857143 0.05605239 0.74500012 7.4848059e-39
-0.0049666665 0.05605239 0.74500012 1.328488e-38
-0.0035476196 0.056052405 0.74500012 1.9172738e-38
-0.0021228576 0.055901911 0.74300009 1.8707086e-38
-0.00070761907 0.055901915 0.74300009 1.8336883e-38
0.00070761907 0.055901915 0.74300009 1.8986197e-38
0.0021228571 0.055901915 0.74300009 1.9630473e-38
0.0035380952 0.055901911 0.74300009 1.9169854e-38
0.0049533341 0.055901911 0.74300009 1.8802853e-38
0.0063685724 0.055901911 0.74300009 1.8430469e-38
0.007804763 0.056052398 0.74500006 1.8156764e-38
0.0092238104 0.056052398 0.74500006 1.7971307e-38
0.010642858 0.056052402 0.74500012 1.7785431e-38
0.012061905 0.056052398 0.74500012 1.4821532e-38
0.013517144 0.056202885 0.74700004 1.1851913e-38
0.014900001 0.056052398 0.74500006 1.1952326e-38
0.016319048 0.056052394 0.74500006 1.2047406e-38
0.017785713 0.056202866 0.7470001 1.2139257e-38
