# .PCD v0.7 - Point Cloud Data file format
VERSION 0.7
FIELDS x y z rgb
SIZE 4 4 4 4
TYPE F F F F
COUNT 1 1 1 1
WIDTH 954
HEIGHT 1
VIEWPOINT 0 0 0 1 0 0 0
POINTS 954
DATA ascii
0.045933343 -0.04169333 0.74200004 1.3823277e-38
0.047538161 -0.041861892 0.74500012 1.1060929e-38
0.049154326 -0.042030469 0.74800009 9.211556e-39
0.050849531 -0.042255223 0.75200003 7.374137e-39
0.052351449 -0.04231143 0.75300002 7.3745055e-39
0.054000057 -0.042479992 0.7560001 7.3737937e-39
0.055440024 -0.042479992 0.75600004 7.3745167e-39
0.057030484 -0.042592362 0.75800002 7.3748615e-39
0.058474325 -0.042592362 0.75800002 7.5588786e-39
-0.04310663 -0.040279984 0.74200004 1.8258682e-38
-0.041693293 -0.040279984 0.74200004 1.631968e-38
-0.040279955 -0.040279999 0.74200004 1.439548e-38
-0.038709484 -0.04011713 0.73900002 1.6050354e-38
-0.037352357 -0.04017143 0.74000001 1.7798461e-38
-0.03589423 -0.04011713 0.73900002 1.7889223e-38
-0.034486644 -0.04011713 0.73900002 1.7889943e-38
-0.032989502 -0.040008545 0.73700005 1.7889586e-38
-0.031542838 -0.039954275 0.73600006 1.7980705e-38
-0.030058986 -0.03984572 0.73400009 1.8073617e-38
-0.028660879 -0.039845705 0.73400009 1.8259796e-38
-0.027188532 -0.03973715 0.73200011 1.7889582e-38
-0.025794234 -0.039737135 0.73200011 1.7520076e-38
-0.024366627 -0.039682865 0.73100007 1.6782152e-38
-0.022974251 -0.039682865 0.73100007 1.6046035e-38
-0.021522824 -0.039574265 0.72900003 1.5950972e-38
-0.020134257 -0.039574265 0.72900003 1.5766219e-38
-0.018719943 -0.039519995 0.7280001 1.5765853e-38
-0.017333301 -0.039519995 0.72800004 1.5768736e-38
-0.015902812 -0.039411426 0.72600001 1.6508095e-38
-0.014519976 -0.039411411 0.72600001 1.7337841e-38
-0.013119012 -0.039357156 0.72500002 1.7613704e-38
-0.011738062 -0.039357141 0.72500008 1.788886e-38
-0.010328561 -0.039248556 0.72300005 1.7337136e-38
-0.0089142323 -0.039085701 0.72000003 1.687682e-38
-0.0075323093 -0.039031416 0.7190001 1.5674643e-38
-0.0061627976 -0.039031416 0.71900004 1.4382754e-38
-0.0047799549 -0.038922861 0.71700007 1.1802298e-38
-0.0033999379 -0.038759977 0.71400005 9.1322901e-39
-0.0020399517 -0.038759992 0.71400005 9.2263158e-39
-0.00067709159 -0.038597137 0.71100008 9.3275681e-39
0.00067716319 -0.038597152 0.71100003 1.1076478e-38
0.0020314814 -0.038597152 0.71100008 1.2817699e-38
0.0033857324 -0.038597137 0.71100003 1.1811029e-38
0.0047333692 -0.038542837 0.71000004 1.0801314e-38
0.0060857632 -0.038542837 0.71000004 9.4264087e-39
0.0074171838 -0.038434282 0.708 8.0506615e-39
0.0087657664 -0.038434282 0.708 7.0340054e-39
0.010099996 -0.038379997 0.70700002 6.1203224e-39
0.011446696 -0.038379997 0.70700002 1.4590362e-38
0.012793332 -0.038380012 0.70700002 2.3050334e-38
0.014100021 -0.038271427 0.70500004 2.0005757e-38
0.015442891 -0.038271427 0.70500004 1.6985604e-38
0.016785743 -0.038271412 0.70500004 1.8539288e-38
0.018180011 -0.038379997 0.70700008 2.0111612e-38
0.019526672 -0.038379982 0.70700002 2.1763934e-38
0.02090288 -0.038434282 0.708 2.3417687e-38
0.02231434 -0.038542852 0.71000004 1.7430441e-38
0.023700027 -0.038597137 0.71100003 1.142739e-38
0.025124814 -0.038705721 0.71300012 6.6339852e-39
0.02652006 -0.038759992 0.71400011 1.8736313e-39
0.027880048 -0.038759992 0.71400011 3.7200509e-39
0.029321942 -0.038868561 0.71600008 5.6561311e-39
0.03081434 -0.039031386 0.71900004 8.8793417e-39
0.032228649 -0.039085701 0.72000009 1.2194747e-38
0.033740036 -0.039248571 0.72300005 1.4125803e-38
0.035214316 -0.039357141 0.72500002 1.6150129e-38
0.03664574 -0.039411426 0.72600001 1.6516034e-38
0.038133357 -0.039519995 0.72800004 1.6880505e-38
0.039682914 -0.03968285 0.73100007 1.6697908e-38
0.041243855 -0.039845705 0.73400009 1.6607152e-38
0.042758126 -0.039954305 0.73600006 1.6331649e-38
0.044340041 -0.04011713 0.73900002 1.6052144e-38
0.045995258 -0.040334284 0.74300003 1.4752046e-38
0.047538172 -0.040442854 0.74500012 1.3361475e-38
0.049154326 -0.040605724 0.74800009 1.032145e-38
0.05091716 -0.040877134 0.75300002 7.1890072e-39
0.052490517 -0.040985689 0.75500005 7.371609e-39
0.054000042 -0.041040003 0.75600004 7.4627439e-39
0.055440053 -0.041040018 0.7560001 7.4652718e-39
0.057030492 -0.041148558 0.75800002 7.3748474e-39
-0.043164738 -0.038919032 0.74300003 1.8162536e-38
-0.0417495 -0.038919032 0.74300003 1.6219586e-38
-0.040334262 -0.038919047 0.74300009 1.4207497e-38
-0.038761891 -0.038761884 0.74000001 1.6328723e-38
-0.037352361 -0.038761884 0.74000001 1.8349114e-38
-0.03594283 -0.038761899 0.74000001 1.8165092e-38
-0.034486622 -0.038709506 0.73900002 1.7981421e-38
-0.032989521 -0.038604736 0.73700005 1.7981063e-38
-0.031585682 -0.038604751 0.73700005 1.7888507e-38
-0.030140936 -0.038552359 0.73600006 1.8255489e-38
-0.02866091 -0.038447604 0.73400009 1.8532436e-38
-0.027262803 -0.038447604 0.73400009 1.8259087e-38
-0.025794223 -0.038342863 0.73200011 1.7887784e-38
-0.024366608 -0.038290486 0.73100007 1.6780004e-38
-0.022974232 -0.038290486 0.73100007 1.5583617e-38
-0.021522786 -0.038185701 0.72900009 1.5393834e-38
-0.020134242 -0.038185701 0.72900009 1.5212315e-38
-0.01871996 -0.038133323 0.7280001 1.5208012e-38
-0.017333316 -0.038133323 0.72800004 1.5125526e-38
-0.01590281 -0.038028568 0.72600007 1.6327301e-38
-0.01449999 -0.03797619 0.72500002 1.7521518e-38
-0.013119018 -0.03797619 0.72500002 1.7521155e-38
-0.011738066 -0.03797619 0.72500002 1.7521158e-38
-0.010328533 -0.03787142 0.72300011 1.7705192e-38
-0.0089142174 -0.037714288 0.72000009 1.7796279e-38
-0.0075428053 -0.037714258 0.72000009 1.7428189e-38
-0.0061628125 -0.03766188 0.71900004 1.7053945e-38
-0.0047799661 -0.037557125 0.71700001 1.3832801e-38
-0.003409497 -0.037504748 0.71600008 1.0515583e-38
-0.0020399592 -0.037400007 0.71400005 9.3116563e-39
-0.00067902874 -0.037347615 0.71300012 8.0353467e-39
0.00067718182 -0.037242845 0.71100008 1.0150852e-38
0.0020314609 -0.037242845 0.71100003 1.2178032e-38
0.0033857548 -0.037242845 0.71100008 1.1999008e-38
0.0047400338 -0.03724283 0.71100003 1.1720746e-38
0.006085752 -0.037190452 0.71000004 9.8841512e-39
0.0074381218 -0.037190467 0.71000004 8.0460007e-39
0.0087657385 -0.037085712 0.708 4.3636056e-39
0.010114299 -0.037085712 0.708 6.9951979e-40
0.011446673 -0.037033319 0.70700002 1.1926056e-38
0.012793349 -0.037033334 0.70700002 2.3139307e-38
0.014100019 -0.036928564 0.70500004 2.332584e-38
0.01544291 -0.036928579 0.70500004 2.3416966e-38
0.01683335 -0.037033319 0.70700002 2.341769e-38
0.018180015 -0.037033319 0.70700002 2.341769e-38
0.01952669 -0.037033319 0.70700002 2.341769e-38
0.020902913 -0.037085712 0.708 2.3415162e-38
0.022314332 -0.037190467 0.71000004 1.6427755e-38
0.023700045 -0.037242845 0.71100008 9.3069143e-39
0.025124777 -0.0373476 0.71300006 5.1466918e-39
0.026520057 -0.037400007 0.71400011 9.4810173e-40
0.027958121 -0.037504748 0.71600008 2.8906531e-39
0.029362874 -0.037557125 0.71700007 4.7359782e-39
0.030857211 -0.037714273 0.72000009 8.2329059e-39
0.032318115 -0.037819058 0.72200006 1.1731623e-38
0.033740025 -0.037871435 0.72300011 1.3572279e-38
0.035262868 -0.038028568 0.72600001 1.5413292e-38
0.036746696 -0.038133323 0.7280001 1.6147975e-38
0.038185753 -0.038185716 0.72900003 1.6882299e-38
0.039682876 -0.038290471 0.73100001 1.6698266e-38
0.0411315 -0.038342848 0.73200011 1.642348e-38
0.042758144 -0.038552359 0.73600006 1.5964305e-38
0.044340044 -0.038709506 0.73900002 1.5499722e-38
0.045995284 -0.038919032 0.74300003 1.5587586e-38
0.04766576 -0.039128572 0.7470001 1.5669977e-38
0.049154311 -0.039180964 0.74800003 1.1339959e-38
0.050917178 -0.039442852 0.75300002 7.0039364e-39
0.052490517 -0.039547622 0.75500005 7.2769079e-39
0.05400005 -0.039599985 0.7560001 7.555657e-39
0.055440046 -0.039599985 0.75600004 7.4652704e-39
0.057030506 -0.039704755 0.75800002 7.3744985e-39
-0.043164734 -0.037503794 0.74300003 1.8534896e-38
-0.041749492 -0.037503809 0.74300009 1.6043798e-38
-0.040334247 -0.037503794 0.74300003 1.3559977e-38
-0.038919009 -0.037503794 0.74300009 1.4575591e-38
-0.037453286 -0.037453324 0.7420001 1.5594047e-38
-0.035942815 -0.037352353 0.74000001 1.6601741e-38
-0.034486655 -0.037301883 0.73900002 1.7613363e-38
-0.03307901 -0.037301883 0.73900002 1.7705196e-38
-0.031585701 -0.037200943 0.73700005 1.779631e-38
-0.030181903 -0.037200943 0.73700005 1.7887782e-38
-0.028778067 -0.037200928 0.73700005 1.7978197e-38
-0.027337117 -0.037150472 0.73600006 1.7796691e-38
-0.025864726 -0.037049517 0.73400009 1.7614437e-38
-0.024399938 -0.036948562 0.73200011 1.6782877e-38
-0.022974238 -0.036898106 0.73100007 1.5951664e-38
-0.021581864 -0.036898106 0.73100007 1.5489587e-38
-0.020134246 -0.036797151 0.72900003 1.5032212e-38
-0.018719977 -0.036746666 0.7280001 1.5214815e-38
-0.017285682 -0.036645725 0.72600007 1.5402465e-38
-0.015902849 -0.03664571 0.72600001 1.6232961e-38
-0.014499958 -0.036595225 0.72500002 1.7062705e-38
-0.013119007 -0.036595225 0.72500002 1.7245294e-38
-0.011738056 -0.03659524 0.72500002 1.7427887e-38
-0.010328542 -0.03649427 0.72300011 1.7612633e-38
-0.008939039 -0.0364438 0.72200006 1.7888501e-38
-0.0075427885 -0.036342844 0.72000009 1.7704474e-38
-0.0061713564 -0.036342859 0.72000009 1.7520367e-38
-0.0047932989 -0.036292359 0.7190001 1.54913e-38
-0.0034142449 -0.036191404 0.71700007 1.3458644e-38
-0.0020456663 -0.036140949 0.71600008 1.0882508e-38
-0.00067900639 -0.035989523 0.71300006 8.4015452e-39
0.00067909475 -0.035989508 0.71300012 9.876325e-39
0.0020371587 -0.035989508 0.71300012 1.1356128e-38
0.0033857324 -0.035888568 0.71100008 1.1538755e-38
0.0047400487 -0.035888568 0.71100008 1.1811148e-38
0.0060943053 -0.035888568 0.71100008 1.0160734e-38
0.0074486216 -0.035888568 0.71100008 8.5991675e-39
0.0087905023 -0.035838082 0.71000004 4.4575977e-39
0.010142896 -0.035838097 0.71000004 4.0823047e-40
0.011495266 -0.035838082 0.71000004 8.511641e-39
0.012793349 -0.035686657 0.70700002 1.6713699e-38
0.014100011 -0.035585701 0.70500004 1.9284375e-38
0.015486686 -0.035686657 0.70700002 2.1856487e-38
0.016833328 -0.035686672 0.70700002 2.0751949e-38
0.018180026 -0.035686672 0.70700002 1.974427e-38
0.019526664 -0.035686642 0.70700002 1.8818382e-38
0.020902878 -0.035737127 0.708 1.7999365e-38
0.022314318 -0.035838112 0.71000004 1.1438118e-38
0.023700027 -0.035888568 0.71100008 4.8679511e-39
0.025124777 -0.035989508 0.71300012 3.1324191e-39
0.02652007 -0.036039993 0.71400011 1.4123029e-39
0.027880058 -0.036039993 0.71400011 2.7062563e-39
0.0293629 -0.036191419 0.71700007 4.0009313e-39
0.030857187 -0.036342844 0.72000003 7.5904162e-39
0.032362878 -0.036494285 0.72300011 1.1181328e-38
0.03383337 -0.03659524 0.72500002 1.3205296e-38
0.03536002 -0.036746666 0.72800004 1.5231056e-38
0.036746703 -0.036746666 0.72800004 1.6608587e-38
0.038185786 -0.036797136 0.72900003 1.8077595e-38
0.039682891 -0.036898091 0.73100001 1.7067402e-38
0.041356221 -0.037150458 0.73600006 1.614905e-38
0.042932421 -0.037301883 0.73900002 1.5685569e-38
0.044520013 -0.037453324 0.74200004 1.5313206e-38
0.046119101 -0.037604764 0.74500006 1.6419896e-38
0.04766573 -0.037705705 0.74700004 1.7522888e-38
0.049154334 -0.03775619 0.74800003 1.2074351e-38
0.050917171 -0.038008556 0.75300002 6.618334e-39
0.052490532 -0.038109526 0.75500011 7.1814879e-39
0.054000039 -0.038159996 0.75600004 7.7418405e-39
0.055440012 -0.038159981 0.75600004 7.6496575e-39
0.057030492 -0.038260952 0.75800002 7.466704e-39
0.058474332 -0.038260952 0.75800002 7.3752272e-39
-0.043280896 -0.036185727 0.74500012 1.8808622e-38
-0.04186184 -0.036185712 0.74500006 1.5860154e-38
-0.040334243 -0.036088556 0.74300009 1.2826348e-38
-0.038919039 -0.036088571 0.74300003 1.2819168e-38
-0.037453312 -0.036039978 0.74200004 1.2736329e-38
-0.035942823 -0.035942852 0.74000001 1.4941845e-38
-0.034486633 -0.035894275 0.73900002 1.7150939e-38
-0.033079024 -0.035894275 0.73900002 1.7429335e-38
-0.031585697 -0.035797134 0.73700005 1.7613359e-38
-0.030181862 -0.035797149 0.73700005 1.7521161e-38
-0.028778085 -0.035797119 0.73700005 1.7428615e-38
-0.027337104 -0.035748556 0.73600006 1.7427187e-38
-0.025864696 -0.035651416 0.73400009 1.7336413e-38
-0.024399951 -0.035554275 0.73200011 1.6784669e-38
-0.022974258 -0.035505697 0.73100001 1.622898e-38
-0.021581845 -0.035505697 0.73100007 1.5580022e-38
-0.020134231 -0.035408586 0.72900009 1.4848206e-38
-0.018719969 -0.035360008 0.72800004 1.5308458e-38
-0.017333288 -0.035359994 0.7280001 1.567761e-38
-0.015902825 -0.035262868 0.72600001 1.6139314e-38
-0.014499986 -0.035214275 0.72500002 1.6599573e-38
-0.013119035 -0.035214275 0.72500002 1.6969073e-38
-0.011738086 -0.03521429 0.72500002 1.7336413e-38
-0.010328531 -0.035117134 0.72300005 1.7612995e-38
-0.0089390408 -0.035068572 0.72200006 1.7888151e-38
-0.0075427885 -0.034971416 0.72000009 1.7888158e-38
-0.0061713788 -0.034971416 0.72000009 1.7888475e-38
-0.0047932505 -0.034922838 0.7190001 1.7153749e-38
-0.003423763 -0.034922838 0.71900004 1.631675e-38
-0.0020485367 -0.034825698 0.71700001 1.2542451e-38
-0.00067900639 -0.034631416 0.71300012 8.679951e-39
0.0006790575 -0.034631416 0.71300006 9.5964842e-39
0.0020371811 -0.034631416 0.71300006 1.0523141e-38
0.0033952841 -0.034631431 0.71300012 1.1171778e-38
0.0047400319 -0.03453429 0.71100008 1.1815815e-38
0.0060943109 -0.034534261 0.71100003 1.0439828e-38
0.0074486011 -0.034534276 0.71100008 9.0587065e-39
0.0087904911 -0.034485698 0.71000004 4.6430665e-39
0.010142881 -0.034485698 0.71000004 1.3594837e-40
0.011462895 -0.034388572 0.708 5.1825917e-39
0.012793362 -0.034339994 0.70700002 1.0166102e-38
0.014139999 -0.034339994 0.70700002 1.5240732e-38
0.015486702 -0.034339994 0.70700008 2.0281279e-38
0.016833341 -0.034340009 0.70700002 1.8173007e-38
0.01818 -0.034339994 0.70700002 1.5956039e-38
0.019554298 -0.034388557 0.708 1.4203271e-38
0.020961938 -0.034485713 0.71000004 1.2456942e-38
0.022314306 -0.034485728 0.71000004 6.4578391e-39
0.023700032 -0.034534276 0.71100003 4.788363e-40
0.025124805 -0.034631431 0.71300006 1.1948578e-39
0.026482904 -0.034631431 0.71300012 1.8646406e-39
0.02799719 -0.034825698 0.71700001 2.5211517e-39
0.029444808 -0.034922838 0.7190001 3.1708231e-39
0.030857202 -0.034971401 0.72000009 6.8539372e-39
0.032362886 -0.035117149 0.72300005 1.0535609e-38
0.033833381 -0.035214275 0.72500008 1.2836878e-38
0.03526289 -0.035262853 0.72600001 1.5045592e-38
0.036797196 -0.035408571 0.72900003 1.7161035e-38
0.038290508 -0.035505727 0.73100007 1.9182132e-38
0.039737195 -0.03555429 0.73200011 1.7527656e-38
0.041356232 -0.035748541 0.73600006 1.5872466e-38
0.042932425 -0.03589429 0.73900002 1.5498668e-38
0.044400033 -0.035942838 0.74000007 1.5041644e-38
0.046119113 -0.036185712 0.74500006 1.7255026e-38
0.04766576 -0.036282852 0.7470001 1.9356384e-38
0.049285781 -0.036428571 0.75000012 1.281552e-38
0.050917149 -0.036574274 0.75300002 6.2635575e-39
0.052490529 -0.036671415 0.75500005 7.0889279e-39
0.054000068 -0.036719993 0.75600004 7.9226402e-39
0.055440038 -0.036719993 0.75600004 7.7414986e-39
0.057030506 -0.036817148 0.75800002 7.5585423e-39
0.058628622 -0.036914289 0.76000005 7.2830344e-39
-0.043280862 -0.034766659 0.74500006 1.8996612e-38
-0.041861854 -0.034766659 0.74500006 1.6877546e-38
-0.040334277 -0.034673318 0.74300003 1.4759895e-38
-0.038866676 -0.034626648 0.74200004 1.4018699e-38
-0.037453298 -0.034626648 0.7420001 1.3284059e-38
-0.035942808 -0.034533322 0.74000001 1.5400622e-38
-0.034486629 -0.034486651 0.73900002 1.7424991e-38
-0.033079021 -0.034486651 0.73900002 1.7613367e-38
-0.031585716 -0.034393311 0.73700005 1.7706275e-38
-0.030181881 -0.034393325 0.73700005 1.7705552e-38
-0.02873903 -0.034346655 0.73600006 1.7705912e-38
-0.027337115 -0.034346655 0.73600006 1.7612642e-38
-0.025864726 -0.034253329 0.73400003 1.7610479e-38
-0.024399942 -0.034160003 0.73200011 1.6967261e-38
-0.023005644 -0.034160018 0.73200011 1.6323702e-38
-0.021581886 -0.034113318 0.73100001 1.6044255e-38
-0.020134235 -0.034019992 0.72900003 1.5859138e-38
-0.018719986 -0.033973321 0.72800004 1.5859843e-38
-0.017333305 -0.033973321 0.7280001 1.586056e-38
-0.015902823 -0.03388001 0.72600007 1.5861276e-38
-0.014519988 -0.03388001 0.72600001 1.5951335e-38
-0.013119001 -0.033833325 0.72500002 1.6690699e-38
-0.011738051 -0.033833325 0.72500002 1.7426817e-38
-0.010328542 -0.033739999 0.72300005 1.742825e-38
-0.0089513976 -0.033739999 0.72300011 1.7520457e-38
-0.0075637992 -0.033693328 0.72200006 1.7520828e-38
-0.006171362 -0.033600017 0.72000009 1.7614092e-38
-0.0047999504 -0.033600003 0.72000009 1.7245665e-38
-0.0034237388 -0.033553317 0.7190001 1.6877533e-38
-0.0020542271 -0.033553317 0.71900004 1.2822708e-38
-0.00067997683 -0.03331998 0.71400005 8.770381e-39
0.00067907985 -0.033273324 0.71300006 9.2291128e-39
0.0020371829 -0.033273324 0.71300012 9.6919449e-39
0.0033952449 -0.033273324 0.71300006 1.0802648e-38
0.0047400096 -0.033179983 0.71100003 1.2003076e-38
0.0060943258 -0.033179983 0.71100008 1.1635124e-38
0.0074485824 -0.033179983 0.71100003 1.1175588e-38
0.0087905023 -0.033133313 0.71000004 9.4238975e-39
0.010114305 -0.033039987 0.708 7.6660961e-39
0.011462864 -0.033039987 0.708 6.3746454e-39
0.012793344 -0.032993317 0.70700002 5.1797106e-39
0.014099998 -0.032899991 0.70500004 1.153358e-38
0.01548668 -0.032993317 0.70700002 1.7957039e-38
0.016833341 -0.032993317 0.70700002 1.8337289e-38
0.01818002 -0.032993332 0.70700002 1.87753e-38
0.019554328 -0.033039972 0.708 1.8244732e-38
0.020902891 -0.033039987 0.708 1.7779805e-38
0.022345731 -0.033179998 0.71100003 1.4565912e-38
0.023700047 -0.033179998 0.71100008 1.1342666e-38
0.025124801 -0.033273324 0.71300012 7.1045664e-39
0.026520053 -0.033319995 0.71400011 2.880547e-39
0.027997192 -0.033459991 0.71700007 2.4217829e-39
0.029444816 -0.033553317 0.71900004 2.06234e-39
0.0308572 -0.033599988 0.72000009 6.023829e-39
0.032362875 -0.033740014 0.72300005 1.0075713e-38
0.033833377 -0.03383331 0.72500002 1.2467383e-38
0.035360053 -0.033973321 0.7280001 1.4861203e-38
0.03679717 -0.034020007 0.72900003 1.7715277e-38
0.038290534 -0.034113333 0.73100007 2.0564687e-38
0.039845787 -0.034253314 0.73400009 1.8908417e-38
0.041412428 -0.034393325 0.73700011 1.7160674e-38
0.04293241 -0.034486666 0.73900002 1.6052549e-38
0.044400048 -0.034533322 0.74000001 1.4945863e-38
0.046119098 -0.034766659 0.74500006 1.7159244e-38
0.047665749 -0.03486 0.74700004 1.9363214e-38
0.049285784 -0.035000011 0.75000006 1.262506e-38
0.050917141 -0.035139993 0.75300002 5.9697655e-39
0.05249051 -0.035233334 0.75500005 6.9030961e-39
0.054000035 -0.035279989 0.75600004 7.8318795e-39
0.055440031 -0.035279989 0.75600004 7.7415028e-39
0.057030514 -0.03537333 0.75800002 7.6507407e-39
-0.043280877 -0.033347622 0.74500012 1.9180278e-38
-0.041861866 -0.033347622 0.74500006 1.7985663e-38
-0.040334269 -0.033258095 0.74300009 1.6687001e-38
-0.038866617 -0.033213302 0.74200004 1.530332e-38
-0.037352346 -0.033123806 0.74000001 1.3835795e-38
-0.035942812 -0.033123806 0.74000001 1.5768335e-38
-0.034486644 -0.033079028 0.73900002 1.7704811e-38
-0.033078998 -0.033079028 0.73900002 1.780063e-38
-0.031585675 -0.032989502 0.73700011 1.7798469e-38
-0.030181875 -0.032989502 0.73700005 1.788922e-38
-0.028778099 -0.032989517 0.73700005 1.7889583e-38
-0.027337125 -0.032944754 0.73600006 1.7890305e-38
-0.025864696 -0.032855213 0.73400009 1.7887781e-38
-0.024466591 -0.032855228 0.73400009 1.7150573e-38
-0.023005657 -0.032765716 0.73200011 1.6414814e-38
-0.021611396 -0.032765716 0.73200011 1.6597412e-38
-0.020189477 -0.032720953 0.73100007 1.6780359e-38
-0.018719964 -0.032586664 0.7280001 1.6410498e-38
-0.017333319 -0.032586649 0.7280001 1.5952397e-38
-0.01590286 -0.032497123 0.72600001 1.5676891e-38
-0.014519986 -0.032497138 0.72600001 1.5309923e-38
-0.013119031 -0.03245239 0.72500002 1.6415191e-38
-0.011738081 -0.032452375 0.72500002 1.7519726e-38
-0.010328552 -0.032362863 0.72300005 1.7336769e-38
-0.0089514088 -0.032362863 0.72300011 1.7061273e-38
-0.007563801 -0.032318085 0.72200006 1.7152758e-38
-0.006188543 -0.032318085 0.72200012 1.7245309e-38
-0.0047999523 -0.032228559 0.72000003 1.7337142e-38
-0.0034285034 -0.032228574 0.72000009 1.7333843e-38
-0.0020542047 -0.032183796 0.7190001 1.3100372e-38
-0.00067992281 -0.031959996 0.71400011 8.8632941e-39
0.00067908358 -0.031915218 0.71300006 8.8571059e-39
0.0020371848 -0.031915233 0.71300012 8.7732116e-39
0.0033952673 -0.031915218 0.71300006 1.0527464e-38
0.0047400487 -0.031825706 0.71100008 1.2184207e-38
0.0060943053 -0.031825706 0.71100003 1.2738209e-38
0.0074381349 -0.031780943 0.7100001 1.3287076e-38
0.0087905303 -0.031780928 0.71000004 1.4302295e-38
0.010114307 -0.031691432 0.708 1.5205216e-38
0.011462893 -0.031691417 0.708 7.6538908e-39
0.012793355 -0.031646654 0.70700002 1.2911704e-40
0.014100054 -0.031557158 0.70500004 7.9408711e-39
0.015442884 -0.031557158 0.70500004 1.56773e-38
0.016785739 -0.031557158 0.70500004 1.8627521e-38
0.018179994 -0.031646654 0.70700002 2.1563744e-38
0.019554334 -0.031691417 0.708 2.2403894e-38
0.020961951 -0.031780943 0.7100001 2.3132117e-38
0.02234577 -0.031825706 0.71100008 2.2682619e-38
0.023700027 -0.031825721 0.71100003 2.2110765e-38
0.025124801 -0.031915247 0.71300012 1.3000719e-38
0.026594322 -0.032049522 0.71600008 3.8003481e-39
0.027997196 -0.032094285 0.71700007 2.3152351e-39
0.029444842 -0.032183796 0.7190001 8.6560728e-40
0.030857218 -0.032228559 0.72000009 5.194441e-39
0.032452434 -0.03245239 0.72500002 9.5200364e-39
0.033973351 -0.032586664 0.72800004 1.2095735e-38
0.035360031 -0.032586664 0.72800004 1.458749e-38
0.036898151 -0.032720953 0.73100007 1.8273466e-38
0.03834293 -0.032765731 0.73200011 2.1942578e-38
0.039954316 -0.032944754 0.73600006 2.0196625e-38
0.041412406 -0.032989502 0.73700011 1.8446729e-38
0.042932414 -0.033079028 0.73900002 1.6696475e-38
0.044400003 -0.033123806 0.74000001 1.4859408e-38
0.046119109 -0.033347622 0.74500006 1.7072431e-38
0.04766576 -0.033437133 0.7470001 1.9264548e-38
0.049285766 -0.033571422 0.75000006 1.2535349e-38
0.051052418 -0.033795223 0.75500005 5.710032e-39
0.052490506 -0.033795238 0.75500005 6.7215831e-39
0.054000027 -0.033839986 0.75600004 7.7389608e-39
0.055586681 -0.033929512 0.75800002 7.7411258e-39
0.057180993 -0.034019038 0.76000005 7.6503764e-39
-0.041861881 -0.031928569 0.74500006 1.6967573e-38
-0.040334258 -0.031842828 0.74300003 1.5024991e-38
-0.038866639 -0.031800002 0.74200004 1.4753742e-38
-0.037352368 -0.031714246 0.74000001 1.4569408e-38
-0.035942834 -0.031714246 0.74000001 1.5863052e-38
-0.03448664 -0.03167142 0.73900002 1.7069861e-38
-0.033079032 -0.031671405 0.73900002 1.7525126e-38
-0.031585693 -0.031585708 0.73700005 1.7981064e-38
-0.030181894 -0.031585708 0.73700005 1.7980694e-38
-0.028778058 -0.031585708 0.73700005 1.7981061e-38
-0.027337112 -0.031542853 0.73600006 1.7981427e-38
-0.025935195 -0.031542838 0.73600006 1.7889217e-38
-0.024466623 -0.031457141 0.73400003 1.7243125e-38
-0.023005648 -0.03137143 0.73200011 1.6689958e-38
-0.021581873 -0.031328574 0.73100001 1.6691031e-38
-0.020134246 -0.031242862 0.72900009 1.6784659e-38
-0.018745655 -0.031242862 0.72900003 1.641337e-38
-0.017333314 -0.031200007 0.72800004 1.6136788e-38
-0.015902834 -0.03111428 0.72600001 1.5769088e-38
-0.014519962 -0.03111428 0.72600007 1.5400682e-38
-0.01311902 -0.031071439 0.72500002 1.6507384e-38
-0.011738069 -0.031071424 0.72500002 1.7613711e-38
-0.010328542 -0.030985728 0.72300005 1.761263e-38
-0.0089761447 -0.031071424 0.72500002 1.7703754e-38
-0.007574256 -0.030985728 0.72300005 1.7520447e-38
-0.0061713844 -0.030857131 0.72000003 1.7428257e-38
-0.0048133056 -0.030942857 0.72200006 1.7521172e-38
-0.0034285258 -0.030857131 0.72000009 1.7612581e-38
-0.0020542177 -0.030814275 0.7190001 1.3282612e-38
-0.00068185251 -0.030685708 0.71600008 8.9490325e-39
0.00068005588 -0.030599996 0.71400011 9.0425692e-39
0.0020371848 -0.030557141 0.71300012 9.2305772e-39
0.003395271 -0.030557126 0.71300006 1.0247973e-38
0.00474003 -0.030471429 0.71100003 1.1355868e-38
0.0060943239 -0.030471414 0.71100008 1.0436207e-38
0.0074381498 -0.030428573 0.71000004 9.5135596e-39
0.0087905191 -0.030428559 0.71000004 9.5157232e-39
0.010142913 -0.030428573 0.71000004 9.5254062e-39
0.011462901 -0.030342847 0.708 7.3819759e-39
0.012793332 -0.030299991 0.70700002 5.2719048e-39
0.014140034 -0.030299991 0.70700002 1.2463765e-38
0.015486673 -0.030299991 0.70700002 1.9560584e-38
0.016833333 -0.030299976 0.70700002 2.102638e-38
0.018180031 -0.030299991 0.70700002 2.2499335e-38
0.019554304 -0.030342832 0.708 2.286596e-38
0.020961944 -0.030428573 0.7100001 2.3325854e-38
0.022345755 -0.030471414 0.71100008 2.3050348e-38
0.023766702 -0.030557126 0.71300012 2.2774805e-38
0.025124805 -0.030557126 0.71300012 1.5953472e-38
0.02663148 -0.030728579 0.71700007 9.1264593e-39
0.02799716 -0.030728564 0.71700007 4.8001689e-39
0.029444827 -0.030814275 0.7190001 5.0256729e-40
0.030857194 -0.030857131 0.72000009 4.9189346e-39
0.032452404 -0.031071439 0.72500002 9.4289184e-39
0.03397337 -0.031200007 0.7280001 1.1914933e-38
0.035408609 -0.031242862 0.72900003 1.449709e-38
0.03689811 -0.031328574 0.73100001 1.7901103e-38
0.038342919 -0.03137143 0.73200011 2.1389054e-38
0.039845787 -0.031457156 0.73400009 1.964274e-38
0.041412413 -0.031585693 0.73700005 1.7895716e-38
0.042932436 -0.031671405 0.73900002 1.6052909e-38
0.044520043 -0.031800002 0.7420001 1.4121138e-38
0.046119094 -0.031928554 0.74500006 1.6514961e-38
0.047729574 -0.032057151 0.74800009 1.8903291e-38
0.049417168 -0.032228559 0.75200003 1.253245e-38
0.051052433 -0.032357141 0.75500011 6.2456069e-39
0.05256002 -0.032399997 0.75600004 6.4442872e-39
0.054142889 -0.032485694 0.75800008 6.7327094e-39
0.055733375 -0.03257142 0.76000005 7.099334e-39
0.057181031 -0.03257142 0.76000005 7.5578178e-39
-0.041861847 -0.030509517 0.74500006 1.6044884e-38
-0.040334255 -0.030427605 0.74300003 1.3286948e-38
-0.038919054 -0.03042762 0.74300003 1.4300724e-38
-0.037352372 -0.03030476 0.74000001 1.5310214e-38
-0.035942845 -0.03030476 0.74000001 1.5860885e-38
-0.034486614 -0.030263796 0.73900002 1.6418753e-38
-0.03307901 -0.030263796 0.73900002 1.7249258e-38
-0.03158569 -0.030181885 0.73700005 1.807326e-38
-0.030181892 -0.030181885 0.73700005 1.8071818e-38
-0.028778076 -0.030181885 0.73700011 1.8072901e-38
-0.027374277 -0.030181885 0.73700005 1.7981791e-38
-0.025935207 -0.030140936 0.73600006 1.7888505e-38
-0.024466613 -0.030059054 0.73400009 1.7425725e-38
-0.023005661 -0.029977143 0.73200011 1.6874705e-38
-0.021611361 -0.029977143 0.73200011 1.6783939e-38
-0.020217102 -0.029977128 0.73200011 1.6691389e-38
-0.018797128 -0.02993618 0.73100001 1.6505209e-38
-0.017333291 -0.029813334 0.7280001 1.6228987e-38
-0.015902834 -0.029731423 0.72600001 1.5861646e-38
-0.014519961 -0.029731423 0.72600007 1.5403193e-38
-0.013137125 -0.029731423 0.72600001 1.6599933e-38
-0.011738075 -0.029690459 0.72500002 1.7704114e-38
-0.010357125 -0.029690459 0.72500002 1.7979982e-38
-0.0089761745 -0.029690474 0.72500002 1.825513e-38
-0.0075742654 -0.029608577 0.72300005 1.7979982e-38
-0.0061885635 -0.029567629 0.72200006 1.7613362e-38
-0.0048133056 -0.029567614 0.72200012 1.7798831e-38
-0.0034285258 -0.029485703 0.72000003 1.7886657e-38
-0.002057075 -0.029485717 0.72000009 1.3467728e-38
-0.00068187859 -0.029321879 0.71600002 9.0459001e-39
0.00068007078 -0.029239997 0.71400011 9.3177267e-39
0.0020400551 -0.029239982 0.71400011 9.5997198e-39
0.003395271 -0.029199034 0.71300012 1.0062155e-38
0.0047533945 -0.029199049 0.71300012 1.0525046e-38
0.0060943258 -0.029117137 0.71100003 8.1367334e-39
0.0074486178 -0.029117152 0.71100008 5.6525199e-39
0.0087905079 -0.029076174 0.71000004 4.7219779e-39
0.0101429 -0.029076189 0.71000004 3.7996726e-39
0.011462906 -0.028994277 0.708 7.0763302e-39
0.012793371 -0.028953314 0.70700002 1.042797e-38
0.014140008 -0.028953314 0.70700002 1.698919e-38
0.015486669 -0.028953314 0.70700002 2.3417683e-38
0.01683335 -0.028953329 0.70700002 2.341769e-38
0.018180009 -0.028953314 0.70700002 2.341769e-38
0.01955431 -0.028994277 0.708 2.341769e-38
0.020961955 -0.029076189 0.71000004 2.341769e-38
0.022345731 -0.029117137 0.71100003 2.341769e-38
0.023766702 -0.029199034 0.71300012 2.3415161e-38
0.025160063 -0.029239982 0.71400005 1.9003093e-38
0.026520051 -0.029239982 0.71400005 1.4462614e-38
0.027997186 -0.029362842 0.71700007 7.2556754e-39
0.02948576 -0.029485717 0.72000009 1.2517239e-40
0.030942893 -0.029567614 0.72200012 4.7334699e-39
0.032452416 -0.029690489 0.72500008 9.243095e-39
0.033973381 -0.029813319 0.7280001 1.1821664e-38
0.035408646 -0.029854298 0.72900003 1.440418e-38
0.036898129 -0.029936165 0.73100001 1.7628108e-38
0.038290542 -0.02993618 0.73100007 2.0745845e-38
0.039954323 -0.030140936 0.73600006 1.9089932e-38
0.041412394 -0.030181885 0.73700005 1.7340756e-38
0.042932399 -0.030263782 0.73900002 1.5406116e-38
0.044520017 -0.030386657 0.7420001 1.338681e-38
0.046119109 -0.030509517 0.74500006 1.5962868e-38
0.047729559 -0.030632392 0.74800003 1.8436228e-38
0.049417172 -0.0307962 0.75200003 1.2629327e-38
0.051052433 -0.030919045 0.75500005 6.7202239e-39
0.052560046 -0.030959994 0.75600004 6.2602659e-39
0.0541429 -0.031041875 0.75800008 5.7189415e-39
0.055733405 -0.031123787 0.76000011 6.5486909e-39
0.057180993 -0.031123787 0.76000005 7.3745097e-39
-0.040334284 -0.029012367 0.74300003 1.3653947e-38
-0.038919002 -0.029012367 0.74300003 1.4392261e-38
-0.037352357 -0.028895199 0.74000001 1.5224501e-38
-0.035942826 -0.028895214 0.74000001 1.5585724e-38
-0.034533318 -0.028895214 0.74000001 1.5953828e-38
-0.033123787 -0.028895214 0.74000001 1.715419e-38
-0.031671401 -0.028856173 0.73900002 1.834769e-38
-0.030263754 -0.028856173 0.73900002 1.8256569e-38
-0.028778072 -0.028778106 0.73700005 1.8256936e-38
-0.027374273 -0.028778091 0.73700005 1.8165466e-38
-0.025970457 -0.028778091 0.73700011 1.8073615e-38
-0.024533302 -0.02873905 0.73600012 1.7243852e-38
-0.023068516 -0.028660953 0.73400003 1.6415886e-38
-0.021611376 -0.028582856 0.73200011 1.6137497e-38
-0.020217115 -0.028582856 0.73200011 1.5957063e-38
-0.018797109 -0.028543815 0.73100001 1.6229707e-38
-0.017404733 -0.028543815 0.73100001 1.650378e-38
-0.015902808 -0.02834858 0.72600001 1.5953127e-38
-0.014519975 -0.028348565 0.72600001 1.5403193e-38
-0.0131371 -0.028348565 0.72600001 1.6416256e-38
-0.011754267 -0.028348565 0.72600001 1.7520087e-38
-0.010357115 -0.028309524 0.72500002 1.7704127e-38
-0.0089885574 -0.02834858 0.72600001 1.7887792e-38
-0.0075951922 -0.028309524 0.72500002 1.7704473e-38
-0.0061971112 -0.028231427 0.72300005 1.7613002e-38
-0.0048132851 -0.028192386 0.72200012 1.7798471e-38
-0.0034380662 -0.028192356 0.72200006 1.798316e-38
-0.0020570974 -0.028114274 0.72000009 1.3558855e-38
-0.00068281923 -0.027997136 0.71700007 9.041245e-39
0.00068192784 -0.027958065 0.71600008 9.4124405e-39
0.0020400495 -0.027879983 0.71400011 9.6969433e-39
0.0033952729 -0.027840942 0.71300012 1.015579e-38
0.0047533591 -0.027840942 0.71300006 1.0524333e-38
0.0060943034 -0.02776283 0.71100003 8.5047929e-39
0.0074485973 -0.027762845 0.71100008 6.4822666e-39
0.0087905191 -0.027723789 0.71000004 4.2653073e-39
0.010142889 -0.027723804 0.71000004 1.9561412e-39
0.011462873 -0.027645707 0.708 6.5507803e-39
0.012793345 -0.027606636 0.70700002 1.1088043e-38
0.014140021 -0.027606651 0.70700008 1.7258972e-38
0.015486686 -0.027606651 0.70700002 2.341769e-38
0.016833324 -0.027606651 0.70700002 2.1212562e-38
0.018180022 -0.027606651 0.70700002 1.9101422e-38
0.019554313 -0.027645692 0.708 1.8444224e-38
0.02096194 -0.027723804 0.71000004 1.7815725e-38
0.02234575 -0.027762845 0.71100008 1.834916e-38
0.023766726 -0.027840942 0.71300012 1.900564e-38
0.02512479 -0.027840942 0.71300006 1.7712769e-38
0.026520045 -0.027879968 0.71400011 1.6495201e-38
0.027997192 -0.027997136 0.71700007 8.5682605e-39
0.029485801 -0.028114274 0.72000009 7.7375217e-40
0.030942889 -0.028192386 0.72200012 4.639482e-39
0.032452408 -0.028309509 0.72500002 8.5091299e-39
0.033973362 -0.028426677 0.7280001 1.1179893e-38
0.035408624 -0.028465718 0.72900003 1.394572e-38
0.036898121 -0.0285438 0.73100001 1.6244836e-38
0.038342915 -0.028582856 0.73200011 1.8447806e-38
0.039954312 -0.028739035 0.73600006 1.7433662e-38
0.041412398 -0.028778091 0.73700005 1.6420249e-38
0.042932425 -0.028856173 0.73900002 1.4763268e-38
0.044520017 -0.028973326 0.74200004 1.3199192e-38
0.046242911 -0.029168576 0.7470001 1.5685922e-38
0.047857184 -0.029285699 0.75000006 1.8076428e-38
0.049417157 -0.029363796 0.75200003 1.2164788e-38
0.051052406 -0.029480934 0.75500005 6.2456349e-39
0.052560017 -0.029519975 0.75600004 6.536857e-39
0.054142911 -0.029598087 0.75800008 6.8231296e-39
0.055733405 -0.029676184 0.76000005 7.1911919e-39
0.057256222 -0.029715225 0.76100004 7.5592611e-39
-0.04044278 -0.027671427 0.74500006 1.4023068e-38
-0.038918998 -0.027597129 0.74300009 1.4573714e-38
-0.037453312 -0.027559996 0.74200004 1.5031823e-38
-0.036039971 -0.027559996 0.74200004 1.5212272e-38
-0.034626633 -0.027559996 0.74200004 1.5404603e-38
-0.033123773 -0.027485698 0.74000001 1.6974466e-38
-0.031671397 -0.027448565 0.73900002 1.8533872e-38
-0.030263791 -0.027448565 0.73900002 1.853351e-38
-0.028778091 -0.027374282 0.73700005 1.8441319e-38
-0.027374253 -0.027374282 0.73700011 1.8348769e-38
-0.025935203 -0.027337134 0.73600006 1.8256928e-38
-0.02453329 -0.027337134 0.73600006 1.7152026e-38
-0.023068508 -0.027262852 0.73400009 1.5953843e-38
-0.021611366 -0.027188569 0.73200011 1.5576081e-38
-0.020189488 -0.027151436 0.73100007 1.5124444e-38
-0.018797113 -0.027151436 0.73100001 1.5953124e-38
-0.017404737 -0.027151436 0.73100001 1.6780363e-38
-0.015968496 -0.027077138 0.72900009 1.6044247e-38
-0.014559975 -0.02703999 0.72800004 1.5311358e-38
-0.0131371 -0.026965722 0.72600007 1.6325856e-38
-0.011786651 -0.02703999 0.72800004 1.7244578e-38
-0.010371389 -0.026965722 0.72600007 1.7428257e-38
-0.0089885555 -0.026965722 0.72600001 1.7520446e-38
-0.0075952183 -0.026928574 0.72500002 1.75208e-38
-0.0061971224 -0.026854292 0.72300005 1.7521524e-38
-0.0048132869 -0.026817143 0.72200012 1.7798472e-38
-0.0034285313 -0.026742831 0.72000009 1.8070687e-38
-0.0020570601 -0.026742831 0.72000009 1.3559924e-38
-0.00068282854 -0.026631415 0.71700001 9.0469833e-39
0.00068196509 -0.026594266 0.71600008 9.4102937e-39
0.0020457585 -0.026594281 0.71600008 9.7841069e-39
0.0034000506 -0.026519999 0.71400005 1.0155409e-38
0.0047533573 -0.02648285 0.71300006 1.0525405e-38
0.0060943258 -0.026408553 0.71100008 8.9679332e-39
0.0074485806 -0.026408568 0.71100003 7.3098748e-39
0.0087905079 -0.026371419 0.71000004 3.7175327e-39
0.010142878 -0.026371419 0.71000004 1.2445913e-40
0.011462878 -0.026297152 0.708 5.899325e-39
0.012811465 -0.026297152 0.708 1.172336e-38
0.014140002 -0.026259974 0.70700002 1.7632054e-38
0.015486663 -0.026259974 0.70700002 2.3416594e-38
0.016833361 -0.026259974 0.70700002 1.9096719e-38
0.018180003 -0.026259989 0.70700002 1.465526e-38
0.019554304 -0.026297122 0.708 1.3441317e-38
0.020961933 -0.026371434 0.71000004 1.2170689e-38
0.022345729 -0.026408553 0.71100008 1.3340877e-38
0.023766726 -0.02648285 0.71300012 1.4489548e-38
0.02516005 -0.026519984 0.71400011 1.6530028e-38
0.026520034 -0.026519984 0.71400011 1.8425902e-38
0.027958112 -0.026594266 0.71600008 9.8406927e-39
0.029485777 -0.026742846 0.72000009 1.3147234e-39
0.03094287 -0.026817128 0.72200006 4.5415453e-39
0.032452419 -0.026928559 0.72500002 7.6779455e-39
0.03397337 -0.02703999 0.72800004 1.0626727e-38
0.035408638 -0.027077153 0.72900009 1.3481879e-38
0.036898144 -0.027151436 0.73100001 1.4866227e-38
0.038342901 -0.027188554 0.73200011 1.6147616e-38
0.039954327 -0.027337134 0.73600006 1.5775965e-38
0.041524779 -0.027448565 0.73900002 1.5407909e-38
0.042990509 -0.027485684 0.74000001 1.4210821e-38
0.044520054 -0.027559996 0.74200004 1.3018393e-38
0.046242908 -0.027745724 0.7470001 1.5412572e-38
0.047729582 -0.027782857 0.74800009 1.7700824e-38
0.04941716 -0.027931437 0.75200003 1.1799215e-38
0.05105241 -0.028042853 0.75500005 5.802592e-39
0.052560046 -0.028079987 0.75600004 6.9103072e-39
0.05428578 -0.028228566 0.76000011 7.9240892e-39
0.055733368 -0.028228566 0.76000005 7.8336928e-39
0.057256244 -0.0282657 0.76100004 7.6507491e-39
-0.040442791 -0.026252359 0.74500006 1.5307677e-38
-0.038866654 -0.02614665 0.74200004 1.5028521e-38
-0.037453279 -0.02614665 0.7420001 1.4657986e-38
-0.036039937 -0.02614665 0.7420001 1.5582831e-38
-0.034626622 -0.026146665 0.7420001 1.6599535e-38
-0.033123776 -0.026076168 0.74000001 1.7431491e-38
-0.031671412 -0.026040941 0.73900002 1.8351637e-38
-0.030263767 -0.026040941 0.73900002 1.8350198e-38
-0.028856181 -0.026040941 0.73900002 1.8349837e-38
-0.027374271 -0.025970474 0.73700011 1.8349834e-38
-0.025970472 -0.025970459 0.73700005 1.8350914e-38
-0.0245333 -0.025935233 0.73600006 1.7244946e-38
-0.023131423 -0.025935218 0.73600006 1.6140388e-38
-0.021670409 -0.025864765 0.73400009 1.5858404e-38
-0.02021708 -0.025794283 0.73200011 1.5582904e-38
-0.018822821 -0.025794268 0.73200011 1.6045317e-38
-0.017404741 -0.025759026 0.73100007 1.659992e-38
-0.016012365 -0.025759026 0.73100001 1.6137517e-38
-0.014619954 -0.025759041 0.73100007 1.5767307e-38
-0.01319139 -0.025688574 0.72900003 1.6599567e-38
-0.011786643 -0.025653332 0.72800004 1.7428605e-38
-0.01039996 -0.025653332 0.72800004 1.7520446e-38
-0.0089885294 -0.02558285 0.72600001 1.7612279e-38
-0.0076056938 -0.02558285 0.72600001 1.7612635e-38
-0.0062142569 -0.025547624 0.72500002 1.7612283e-38
-0.0048133279 -0.0254419 0.72200006 1.788959e-38
-0.00343807 -0.0254419 0.72200012 1.8165748e-38
-0.0020570825 -0.025371417 0.72000009 1.3652111e-38
-0.00068282482 -0.025265709 0.71700007 9.1355902e-39
0.00068289269 -0.025265709 0.71700007 9.4117329e-39
0.0020457343 -0.025230467 0.71600008 9.6904693e-39
0.0034000413 -0.025159985 0.71400005 1.0062475e-38
0.0047533573 -0.025124758 0.71300012 1.0525043e-38
0.0061114826 -0.025124758 0.71300012 9.0594254e-39
0.0074486178 -0.025054276 0.71100008 7.5925686e-39
0.008802874 -0.025054291 0.71100003 5.0086191e-39
0.010142867 -0.025019035 0.71000004 2.4246583e-39
0.011462908 -0.02494856 0.708 4.1691614e-39
0.012793338 -0.024913326 0.70700002 5.9370073e-39
0.014140036 -0.024913348 0.70700002 1.4222661e-38
0.015486674 -0.024913326 0.70700002 2.2591131e-38
0.016833339 -0.024913318 0.70700002 1.8796062e-38
0.018205725 -0.024948552 0.708 1.5062389e-38
0.01960955 -0.025019035 0.71000004 1.5648931e-38
0.020991454 -0.025054291 0.71100008 1.6207482e-38
0.022408623 -0.025124744 0.71300012 1.7508609e-38
0.023800051 -0.025159985 0.71400011 1.8907328e-38
0.025160039 -0.02516 0.71400011 1.8910576e-38
0.026594328 -0.025230467 0.71600008 1.8990551e-38
0.027997183 -0.025265709 0.71700001 9.9522655e-39
0.029485757 -0.025371417 0.72000009 9.3949215e-40
0.03094287 -0.025441885 0.72200006 4.0791364e-39
0.032452416 -0.025547609 0.72500002 7.2180492e-39
0.033880033 -0.02558285 0.72600007 1.016468e-38
0.035408631 -0.025688574 0.72900003 1.3111667e-38
0.036898136 -0.025759041 0.73100007 1.3941415e-38
0.038342912 -0.025794268 0.73200011 1.4673946e-38
0.039954312 -0.025935218 0.73600006 1.4856898e-38
0.041412421 -0.025970459 0.73700005 1.5041288e-38
0.042932417 -0.026040941 0.73900002 1.4119705e-38
0.044520032 -0.02614665 0.74200004 1.3199556e-38
0.046242874 -0.026322842 0.74700004 1.5134559e-38
0.047857232 -0.026428565 0.75000012 1.7158051e-38
0.049417146 -0.026499033 0.75200003 1.1335706e-38
0.051052444 -0.026604742 0.75500005 5.6024123e-39
0.052560009 -0.026639983 0.75600004 6.7205476e-39
0.05428578 -0.026780933 0.76000005 7.8333411e-39
0.055806734 -0.026816174 0.7610001 7.7415098e-39
0.057256244 -0.026816174 0.7610001 7.55785e-39
-0.040334262 -0.024766661 0.74300003 1.6595913e-38
-0.038919024 -0.024766669 0.74300009 1.548234e-38
-0.037453298 -0.024733312 0.7420001 1.4296057e-38
-0.036088537 -0.024766661 0.74300009 1.6044563e-38
-0.034673311 -0.024766661 0.74300003 1.7704449e-38
-0.033213306 -0.024733327 0.7420001 1.7983216e-38
-0.031671409 -0.024633318 0.73900002 1.816725e-38
-0.030263763 -0.024633318 0.73900002 1.8166178e-38
-0.028856156 -0.024633326 0.73900002 1.8166171e-38
-0.02744855 -0.024633311 0.73900002 1.8349837e-38
-0.026040925 -0.024633326 0.73900002 1.8440953e-38
-0.024533287 -0.024533316 0.73600006 1.7336056e-38
-0.023068508 -0.024466671 0.73400009 1.6230426e-38
-0.021670401 -0.024466679 0.73400009 1.6133912e-38
-0.02021707 -0.024399981 0.73200011 1.595168e-38
-0.018797098 -0.024366662 0.73100007 1.6136431e-38
-0.017404724 -0.024366647 0.73100001 1.6321901e-38
-0.015968526 -0.024299994 0.72900003 1.6322266e-38
-0.014579982 -0.024299987 0.72900003 1.6229715e-38
-0.013191353 -0.024299994 0.72900009 1.6875797e-38
-0.011786621 -0.024266683 0.7280001 1.7520087e-38
-0.010399977 -0.024266668 0.72800004 1.7613006e-38
-0.0089885294 -0.0242 0.72600007 1.7613002e-38
-0.0076056938 -0.024199992 0.72600001 1.7612997e-38
-0.0062142625 -0.024166666 0.72500002 1.7612644e-38
-0.0048199794 -0.024100013 0.72300005 1.7981068e-38
-0.0034380495 -0.024066672 0.72200012 1.8254348e-38
-0.0020628306 -0.024066664 0.72200006 1.3746444e-38
-0.0006847154 -0.023966655 0.71900004 9.2317221e-39
0.00068292062 -0.023900002 0.71700007 9.4110154e-39
0.0020486009 -0.023900002 0.71700001 9.5071529e-39
0.003409565 -0.023866661 0.71600008 9.970275e-39
0.0047533833 -0.023766674 0.71300012 1.0433923e-38
0.0061114845 -0.023766682 0.71300012 9.1523371e-39
0.0074486029 -0.023699977 0.71100003 7.7740872e-39
0.0088028926 -0.023699991 0.71100008 6.2075028e-39
0.010142917 -0.02366665 0.71000004 4.6326493e-39
0.011462873 -0.02359999 0.708 2.4153075e-39
0.012811437 -0.023599997 0.708 1.4060208e-40
0.014140014 -0.023566671 0.70700002 1.0914431e-38
0.015486652 -0.023566663 0.70700002 2.1662034e-38
0.016833352 -0.023566663 0.70700002 1.8617094e-38
0.018205754 -0.023599982 0.708 1.5485367e-38
0.019609578 -0.023666665 0.7100001 1.7884217e-38
0.020991459 -0.023699991 0.71100003 2.0185489e-38
0.022408627 -0.023766659 0.71300012 2.1762479e-38
0.023800047 -0.023799986 0.71400011 2.3230781e-38
0.025230508 -0.023866646 0.71600008 2.1397309e-38
0.026631467 -0.023899995 0.71700001 1.9442908e-38
0.027997186 -0.023900002 0.71700007 9.9468775e-39
0.029485794 -0.023999996 0.72000009 4.8604738e-40
0.030942867 -0.024066672 0.72200006 3.6167261e-39
0.032452427 -0.024166659 0.72500002 6.6623699e-39
0.033973373 -0.024266668 0.7280001 9.7026326e-39
0.035408609 -0.024299994 0.72900003 1.2741096e-38
0.036898132 -0.024366677 0.73100007 1.3021984e-38
0.038342901 -0.024400003 0.73200011 1.3203502e-38
0.039954327 -0.024533309 0.73600006 1.3936392e-38
0.041524809 -0.024633326 0.73900008 1.4579958e-38
0.042990521 -0.024666645 0.74000001 1.3934958e-38
0.044580031 -0.024766661 0.74300009 1.3292468e-38
0.046304822 -0.024933338 0.74800009 1.4951605e-38
0.047857214 -0.025000006 0.75000012 1.6503365e-38
0.049417153 -0.025066644 0.75200003 1.0966573e-38
0.051052421 -0.025166661 0.75500005 5.4373898e-39
0.052560043 -0.025199994 0.75600004 6.6283421e-39
0.054285742 -0.025333315 0.76000005 7.7375511e-39
0.055806711 -0.025366649 0.76100004 7.6485925e-39
0.057256225 -0.025366649 0.76100004 7.4656474e-39
-0.041861862 -0.023414284 0.74500006 1.6513867e-38
-0.040442813 -0.023414291 0.74500012 1.6599888e-38
-0.038919058 -0.023351409 0.74300009 1.5768629e-38
-0.037503771 -0.023351423 0.74300003 1.4948264e-38
-0.036088571 -0.023351401 0.74300003 1.6419839e-38
-0.034673307 -0.023351409 0.74300009 1.7986072e-38
-0.033213306 -0.023319989 0.74200004 1.7983927e-38
-0.031714238 -0.023257136 0.74000001 1.7983581e-38
-0.030263778 -0.023225695 0.73900002 1.8074351e-38
-0.028856155 -0.023225702 0.73900008 1.8257296e-38
-0.027448548 -0.023225695 0.73900002 1.8349481e-38
-0.0260409 -0.02322571 0.73900002 1.844095e-38
-0.024566649 -0.023162849 0.73700005 1.733533e-38
-0.023131421 -0.0231314 0.73600006 1.6228988e-38
-0.021670433 -0.023068577 0.73400009 1.6136064e-38
-0.020217085 -0.023005709 0.73200011 1.6137143e-38
-0.018822825 -0.023005702 0.73200005 1.6136786e-38
-0.017404728 -0.022974275 0.73100007 1.6136794e-38
-0.016012354 -0.022974275 0.73100007 1.6044967e-38
-0.014579945 -0.022911422 0.72900003 1.5952778e-38
-0.013191379 -0.022911415 0.72900003 1.6690695e-38
-0.011786638 -0.022879988 0.7280001 1.7520452e-38
-0.010399992 -0.022879988 0.72800004 1.7613013e-38
-0.0089885667 -0.022817135 0.72600001 1.7614083e-38
-0.0076056696 -0.022817142 0.72600001 1.7612642e-38
-0.0062142531 -0.022785708 0.72500002 1.7703765e-38
-0.0048333029 -0.022785701 0.72500002 1.7888875e-38
-0.0034428253 -0.022722863 0.72300005 1.8073182e-38
-0.0020628325 -0.022691436 0.72200012 1.3466976e-38
-0.00068469119 -0.022597134 0.7190001 8.9493926e-39
0.00068288523 -0.022534274 0.71700001 9.2277017e-39
0.0020486028 -0.022534281 0.71700007 9.5071501e-39
0.0034095743 -0.022502862 0.71600008 1.0153223e-38
0.0047600348 -0.022439986 0.71400005 1.0801621e-38
0.0061114454 -0.02240856 0.71300006 9.2445313e-39
0.0074486178 -0.022345707 0.71100008 7.6844041e-39
0.0088028945 -0.022345699 0.71100003 6.2064266e-39
0.010142906 -0.022314258 0.71000004 4.8195433e-39
0.011495274 -0.022314273 0.7100001 2.4199584e-39
0.012811469 -0.02225142 0.708 1.2230113e-40
0.01416003 -0.02225142 0.708 9.612232e-39
0.015486691 -0.022220001 0.70700002 1.9005281e-38
0.016857175 -0.022251427 0.708 1.9277918e-38
0.018205762 -0.022251427 0.708 1.9468764e-38
0.019609567 -0.022314273 0.7100001 2.0656885e-38
0.020991474 -0.022345707 0.71100008 2.1856487e-38
0.022408586 -0.022408552 0.71300006 2.2590812e-38
0.023800038 -0.022439994 0.71400005 2.3325854e-38
0.025230544 -0.022502854 0.71600008 2.038102e-38
0.026594339 -0.022502854 0.71600008 1.7426112e-38
0.028075302 -0.022597119 0.7190001 8.8502242e-39
0.029567672 -0.022691429 0.72200012 2.9806599e-40
0.030985756 -0.022722848 0.72300005 3.1582619e-39
0.032452397 -0.022785716 0.72500002 6.1120729e-39
0.033973381 -0.022879988 0.7280001 8.782484e-39
0.035408646 -0.022911437 0.72900003 1.1546158e-38
0.036898151 -0.02297429 0.73100007 1.2468101e-38
0.038290527 -0.022974268 0.73100007 1.3477574e-38
0.039682899 -0.022974275 0.73100001 1.3937469e-38
0.041580983 -0.023257144 0.74000001 1.4489199e-38
0.043106701 -0.023319989 0.7420001 1.375021e-38
0.044580001 -0.023351416 0.74300003 1.3103775e-38
0.046304785 -0.023508564 0.74800003 1.4579241e-38
0.047857217 -0.023571432 0.75000012 1.5958093e-38
0.049417175 -0.023634285 0.75200009 1.0788284e-38
0.051052421 -0.023728572 0.75500005 5.6239264e-39
0.052560028 -0.023759976 0.75600004 6.6326357e-39
0.054285776 -0.023885712 0.76000011 7.6464247e-39
0.055806711 -0.023917131 0.7610001 7.4645572e-39
0.057256248 -0.023917124 0.7610001 7.3730874e-39
-0.041861873 -0.021995232 0.74500006 1.6517087e-38
-0.040442828 -0.021995239 0.74500012 1.6508043e-38
-0.038919009 -0.021936193 0.74300003 1.6044126e-38
-0.037503805 -0.021936178 0.74300003 1.559076e-38
-0.036088541 -0.021936178 0.74300003 1.6884063e-38
-0.034673281 -0.021936178 0.74300009 1.8168324e-38
-0.03325808 -0.021936178 0.74300003 1.7982858e-38
-0.031714246 -0.021847613 0.74000007 1.7798832e-38
-0.030304717 -0.021847613 0.74000001 1.8073984e-38
-0.028895222 -0.021847598 0.74000001 1.8257286e-38
-0.027448522 -0.021818079 0.73900002 1.8349114e-38
-0.026040938 -0.021818064 0.73900002 1.8347674e-38
-0.024533322 -0.021729499 0.73600006 1.7242776e-38
-0.023068508 -0.021670468 0.73400009 1.6138232e-38
-0.021670403 -0.021670476 0.73400009 1.6227909e-38
-0.020217096 -0.02161143 0.73200011 1.6320459e-38
-0.018822799 -0.021611422 0.73200011 1.6137144e-38
-0.017404711 -0.021581911 0.73100007 1.5861288e-38
-0.016012335 -0.021581896 0.73100001 1.5768383e-38
-0.01457997 -0.02152285 0.72900003 1.5585433e-38
-0.013191404 -0.02152285 0.72900003 1.6597781e-38
-0.011786632 -0.021493338 0.72800004 1.7519728e-38
-0.010399951 -0.021493345 0.7280001 1.7613004e-38
-0.0089885425 -0.021434285 0.72600001 1.7612284e-38
-0.0076056677 -0.021434292 0.72600007 1.7703041e-38
-0.0062142811 -0.021404758 0.72500002 1.7703761e-38
-0.0048333085 -0.021404751 0.72500002 1.7797036e-38
-0.0034428346 -0.021345727 0.72300005 1.7793375e-38
-0.0020628101 -0.021316186 0.72200006 1.3191126e-38
-0.00068468187 -0.021227598 0.7190001 8.5863667e-39
0.00068484474 -0.021227598 0.7190001 9.0429643e-39
