# .PCD v0.7 - Point Cloud Data file format
VERSION 0.7
FIELDS x y z rgb
SIZE 4 4 4 4
TYPE F F F F
COUNT 1 1 1 1
WIDTH 973
HEIGHT 1
VIEWPOINT 0 0 0 1 0 0 0
POINTS 973
DATA ascii
0.0064028581 0.014940009 0.74699998 1.8458573e-38
0.0078257155 0.014940016 0.74699998 2.3416971e-38
0.0092485733 0.014940009 0.74699998 1.9282221e-38
0.01067143 0.014940009 0.74699998 1.5121982e-38
0.012110478 0.014959998 0.74800003 1.8136751e-38
0.01353524 0.014960006 0.74799997 2.1109945e-38
0.014960002 0.014960006 0.74799997 2.2315664e-38
0.016384766 0.014960006 0.74799997 2.3405828e-38
0.017809527 0.014959998 0.74800003 1.8411173e-38
0.019234288 0.014959998 0.74800003 1.3386073e-38
0.02065905 0.014959998 0.74800003 1.8458573e-38
0.022083813 0.014959998 0.74800003 2.341769e-38
0.023508575 0.014960006 0.74800003 2.0938132e-38
0.025000002 0.014999993 0.75000006 1.8331132e-38
0.026428573 0.014999993 0.75000006 1.2949339e-38
0.027857145 0.014999993 0.75000006 7.6717574e-39
0.029285716 0.014999993 0.75000006 1.5611671e-38
0.030714288 0.015000001 0.75000006 2.341769e-38
0.032142859 0.015000001 0.75000006 2.341769e-38
0.03357143 0.014999986 0.75000006 2.3404763e-38
0.035000004 0.014999986 0.75000006 1.1794735e-38
0.036428574 0.014999978 0.75000006 1.940392e-40
0.037857145 0.014999993 0.75000006 3.7659308e-39
0.039285716 0.015000001 0.75000006 7.2890445e-39
0.04071429 0.015000008 0.75000006 7.7568344e-39
0.042142861 0.015000008 0.75000006 8.218893e-39
0.043571431 0.015000001 0.75000006 8.6788005e-39
0.045000002 0.015000008 0.75000006 9.138247e-39
0.046552386 0.01504001 0.75199997 5.8184477e-39
0.047984768 0.01504001 0.75199997 2.4914961e-39
0.049417149 0.015039995 0.75200003 2.0207733e-39
0.050849531 0.015040003 0.75200003 1.4762231e-39
0.052281912 0.015039995 0.75200003 8.2728177e-40
0.053785719 0.01506 0.75299996 1.9017162e-40
0.055220008 0.015060022 0.75299996 1.1035015e-39
-0.021995241 0.016319051 0.74500012 1.1347035e-38
-0.020631433 0.016362861 0.74699998 1.4002738e-38
-0.019157145 0.016319036 0.74500006 1.3279181e-38
-0.017738098 0.016319051 0.74500006 1.2625541e-38
-0.016319051 0.016319044 0.74500006 8.7497665e-39
-0.014940001 0.016362853 0.74700004 4.8866122e-39
-0.013480953 0.016319051 0.74500006 1.2545225e-38
-0.012094286 0.016362861 0.74699998 2.0203446e-38
-0.010671429 0.016362868 0.74699998 2.0294924e-38
-0.0092609534 0.016384758 0.74800003 2.0384955e-38
-0.007836191 0.016384758 0.74800003 2.1018464e-38
-0.006411429 0.016384766 0.74800003 2.1672804e-38
-0.0049866671 0.016384758 0.74800003 2.2591171e-38
-0.0035714291 0.01642856 0.75000006 2.341767e-38
-0.0021371432 0.016384766 0.74800003 1.9533296e-38
-0.00071142864 0.016362861 0.74700004 1.5785638e-38
0.0007114287 0.016362868 0.74699998 1.9558088e-38
0.0021342859 0.016362868 0.74699998 2.3417665e-38
0.0035619049 0.016384766 0.74799997 1.8339781e-38
0.0049866675 0.016384758 0.74800003 1.329316e-38
0.0064028581 0.016362868 0.74699998 1.8360998e-38
0.007836191 0.016384766 0.74800003 2.3417689e-38
0.0092609534 0.016384766 0.74800003 1.9549116e-38
0.010685716 0.016384766 0.74800003 1.5665822e-38
0.012110478 0.016384766 0.74800003 1.8890092e-38
0.01353524 0.016384766 0.74800003 2.2131975e-38
0.014960002 0.016384766 0.74799997 2.2774842e-38
0.016384766 0.016384766 0.74799997 2.3417668e-38
0.017809527 0.016384773 0.74799997 1.9168458e-38
0.019285714 0.016428567 0.75000006 1.4949789e-38
0.020714285 0.016428575 0.75000006 1.9188594e-38
0.022142857 0.016428575 0.75000006 2.341769e-38
0.023508575 0.016384773 0.74800003 1.9733508e-38
0.024933336 0.016384766 0.74800003 1.5951619e-38
0.0263581 0.016384773 0.74800003 1.4463107e-38
0.027857145 0.016428567 0.75000006 1.3022569e-38
0.029285716 0.01642856 0.75000006 1.8178762e-38
0.030714288 0.01642856 0.75000006 2.341769e-38
0.032142859 0.016428567 0.75000006 2.341769e-38
0.03357143 0.016428567 0.75000006 2.3417672e-38
0.035000004 0.016428575 0.75000006 1.6948989e-38
0.036428574 0.016428567 0.75000006 1.0469933e-38
0.037857145 0.016428567 0.75000006 1.289856e-38
0.039285716 0.016428567 0.75000006 1.5317837e-38
0.04071429 0.01642856 0.75000006 1.3566492e-38
0.042142861 0.016428567 0.75000006 1.1905933e-38
0.043571431 0.01642856 0.75000006 1.0153181e-38
0.045120008 0.016472384 0.75199997 8.4103608e-39
0.046428576 0.01642856 0.75000006 5.4482092e-39
0.047984768 0.016472384 0.75199997 2.4800082e-39
0.049482863 0.016494296 0.75300002 2.6679349e-39
0.050917149 0.016494289 0.75300002 2.8476403e-39
0.052281912 0.016472384 0.75200003 2.760806e-39
0.053785723 0.016494289 0.75300002 2.6646797e-39
0.055220008 0.016494289 0.75299996 3.2218052e-39
-0.020631431 0.017785713 0.74700004 2.1655945e-38
-0.019157145 0.017738096 0.74500006 2.2315657e-38
-0.017785715 0.017785728 0.74700004 2.2841179e-38
-0.016362859 0.017785721 0.74700004 1.6200304e-38
-0.014940002 0.017785721 0.74699998 9.6064671e-39
-0.013517145 0.017785728 0.74699998 1.6530026e-38
-0.012094287 0.017785728 0.74699998 2.341769e-38
-0.010685715 0.017809533 0.74799997 2.057079e-38
-0.0092609534 0.017809518 0.74800003 1.7705217e-38
-0.007836191 0.017809518 0.74800003 1.8874668e-38
-0.0064114295 0.017809525 0.74800003 2.0008996e-38
-0.0050000004 0.017857142 0.75000006 2.1764651e-38
-0.0035714291 0.017857142 0.75000006 2.3405115e-38
-0.0021371432 0.017809533 0.74800003 1.9878037e-38
-0.00071238098 0.017809525 0.74800003 1.6329118e-38
0.00071238104 0.017809533 0.74800003 1.9927941e-38
0.0021371427 0.017809533 0.74799997 2.3407262e-38
0.0035619049 0.017809533 0.74799997 1.823288e-38
0.0049866671 0.017809533 0.74799997 1.3111283e-38
0.006411429 0.017809525 0.74800003 1.8274902e-38
0.0078361919 0.017809525 0.74800003 2.3416251e-38
0.0092609543 0.017809525 0.74800003 1.9830358e-38
0.010685716 0.017809525 0.74800003 1.6235134e-38
0.012110478 0.017809525 0.74800003 1.9716984e-38
0.01357143 0.017857134 0.75000006 2.3135356e-38
0.015000002 0.017857142 0.75000006 2.3325854e-38
0.016428573 0.017857134 0.75000006 2.3409422e-38
0.017857144 0.017857142 0.75000006 1.9894547e-38
0.019285716 0.017857127 0.75000006 1.6420598e-38
0.020659048 0.017809518 0.74800003 1.9927941e-38
0.022142859 0.017857134 0.75000006 2.3413375e-38
0.023508573 0.017809533 0.74800003 1.8534603e-38
0.024933334 0.017809525 0.74800003 1.3552469e-38
0.026358098 0.017809533 0.74800003 1.592937e-38
0.027857145 0.017857149 0.75000006 1.8257972e-38
0.029285716 0.017857149 0.75000006 2.0846296e-38
0.030714288 0.017857149 0.75000006 2.341769e-38
0.032142859 0.017857149 0.75000006 2.341769e-38
0.03357143 0.017857134 0.75000012 2.3413017e-38
0.035000004 0.017857142 0.75000006 2.2113679e-38
0.036428574 0.017857142 0.75000006 2.0819018e-38
0.037857145 0.017857142 0.75000006 2.2131983e-38
0.039285716 0.017857134 0.75000006 2.3321174e-38
0.04071429 0.017857142 0.75000006 1.946874e-38
0.042142861 0.017857142 0.75000006 1.5490399e-38
0.043571431 0.017857134 0.75000006 1.1617527e-38
0.045120008 0.017904773 0.75199997 7.6677861e-39
0.046552386 0.017904766 0.75199997 5.0837399e-39
0.048048578 0.017928585 0.75299996 2.4050247e-39
0.049482863 0.017928578 0.75300002 3.322602e-39
0.050917149 0.017928578 0.75300002 4.2395276e-39
0.052351438 0.017928578 0.75300002 4.7040931e-39
0.05392858 0.017976195 0.75500005 5.1600518e-39
0.055366673 0.017976195 0.75500005 5.3519848e-39
-0.022054289 0.01920858 0.74700004 1.7989351e-38
-0.020631433 0.01920858 0.74700004 1.974427e-38
-0.019157145 0.019157149 0.74500006 2.1397309e-38
-0.017785717 0.019208588 0.74699998 2.3142171e-38
-0.016362861 0.019208588 0.74699998 1.8162234e-38
-0.014940001 0.019208588 0.74699998 1.3298912e-38
-0.013517144 0.01920858 0.74699998 1.8362433e-38
-0.012110477 0.019234285 0.74799997 2.341769e-38
-0.010685715 0.019234292 0.74799997 2.0195914e-38
-0.0092609534 0.019234292 0.74799997 1.6959048e-38
-0.007836191 0.019234285 0.74800003 1.8796451e-38
-0.0064114295 0.019234285 0.74800003 2.0662243e-38
-0.0050000008 0.019285724 0.75 2.2040158e-38
-0.0035714291 0.019285709 0.75000006 2.3417669e-38
-0.0021371429 0.019234292 0.74800003 2.0083948e-38
-0.00071238098 0.019234292 0.74800003 1.6796545e-38
0.00071238104 0.019234292 0.74800003 2.010946e-38
0.0021371429 0.019234292 0.74799997 2.3417665e-38
0.0035571433 0.01920858 0.74699998 1.852453e-38
0.0049866671 0.019234292 0.74799997 1.3572971e-38
0.006411429 0.019234285 0.74800003 1.8545745e-38
0.0078361919 0.019234285 0.74800003 2.3417684e-38
0.0092609543 0.019234285 0.74800003 2.1669574e-38
0.010685716 0.019234292 0.74800003 1.9829279e-38
0.012110478 0.019234285 0.74800003 2.1480525e-38
0.01357143 0.019285709 0.75000006 2.3234015e-38
0.015000002 0.019285709 0.75000006 2.2958513e-38
0.016428573 0.019285709 0.75000006 2.2682996e-38
0.017857144 0.019285709 0.75000006 1.6964792e-38
0.019285716 0.019285701 0.75000006 1.1276741e-38
0.02065905 0.019234277 0.74800003 1.5786375e-38
0.022083813 0.019234292 0.74800003 2.0385304e-38
0.023508575 0.019234292 0.74800003 1.6674914e-38
0.024933336 0.019234285 0.74800003 1.297783e-38
0.0263581 0.019234292 0.74800003 1.6865426e-38
0.027857145 0.019285701 0.75000006 2.0846288e-38
0.029285716 0.019285694 0.75000006 2.2131993e-38
0.030714288 0.019285716 0.75000006 2.341769e-38
0.032142863 0.019285724 0.75000006 2.341769e-38
0.033571433 0.019285716 0.75000006 2.341769e-38
0.035000008 0.019285724 0.75000006 2.2770178e-38
0.036428578 0.019285716 0.75000006 2.2040158e-38
0.037857149 0.019285716 0.75000006 2.1672816e-38
0.039285719 0.019285716 0.75000006 2.1305474e-38
0.040714294 0.019285716 0.75000006 1.6143673e-38
0.042142864 0.019285716 0.75000012 1.0980069e-38
0.043571435 0.019285709 0.75000006 9.8737269e-39
0.045120008 0.019337147 0.75199997 8.8648775e-39
0.046552386 0.01933714 0.75199997 8.3955603e-39
0.048048578 0.019362874 0.75299996 8.0087753e-39
0.049482863 0.019362874 0.75299996 7.1836178e-39
0.050917149 0.019362874 0.75299996 6.3592844e-39
0.052351438 0.019362867 0.75300002 4.9767633e-39
0.053785723 0.019362859 0.75300002 3.603184e-39
-0.021995241 0.020576194 0.74500006 1.9912511e-38
-0.020631433 0.020631433 0.74699998 1.7711691e-38
-0.019157145 0.020576186 0.74500006 2.057079e-38
-0.017738098 0.020576194 0.74500006 2.341445e-38
-0.016362861 0.020631433 0.74699998 2.0190511e-38
-0.014960001 0.020659052 0.74800003 1.6884803e-38
-0.013535239 0.020659044 0.74800003 2.0203448e-38
-0.012110477 0.020659052 0.74799997 2.341769e-38
-0.010685715 0.020659059 0.74799997 1.9836106e-38
-0.0092609534 0.020659052 0.74799997 1.6136116e-38
-0.007836191 0.020659059 0.74799997 1.8689907e-38
-0.006411429 0.020659044 0.74800003 2.129397e-38
-0.0049866671 0.020659044 0.74800003 2.24075e-38
-0.0035619051 0.020659052 0.74800003 2.3404755e-38
-0.0021371432 0.020659052 0.74800003 2.0243942e-38
-0.00071142864 0.02063144 0.74699998 1.7155995e-38
0.0007114287 0.020631447 0.74699998 2.0295283e-38
0.0021342859 0.02063144 0.74700004 2.3406908e-38
0.003557143 0.020631433 0.74700004 1.8690993e-38
0.0049800002 0.02063144 0.74700004 1.4031078e-38
0.0064114295 0.020659059 0.74799997 1.873408e-38
0.007836191 0.020659044 0.74800003 2.3417687e-38
0.0092609534 0.020659044 0.74800003 2.3417684e-38
0.010685716 0.020659052 0.74800003 2.3415891e-38
0.012110478 0.020659044 0.74800003 2.332585e-38
0.01353524 0.020659052 0.74800003 2.3231502e-38
0.015000002 0.02071429 0.75000006 2.2591165e-38
0.016428571 0.020714283 0.75000006 2.1924627e-38
0.017857142 0.02071429 0.75000006 1.4004521e-38
0.019285714 0.020714276 0.75000006 6.0291945e-39
0.020714287 0.020714276 0.75000006 1.1738435e-38
0.022142859 0.020714283 0.75000006 1.7333204e-38
0.02357143 0.020714276 0.75000006 1.4893803e-38
0.024933336 0.020659052 0.74800003 1.244655e-38
0.0263581 0.020659052 0.74800003 1.7892126e-38
0.027857145 0.020714283 0.75000006 2.3321904e-38
0.029285716 0.020714283 0.75000006 2.341769e-38
0.030714288 0.020714283 0.75000006 2.341769e-38
0.032142859 0.020714283 0.75000006 2.341769e-38
0.03357143 0.020714283 0.75000006 2.341769e-38
0.035000004 0.020714276 0.75000006 2.3325854e-38
0.036428574 0.020714276 0.75000006 2.3229353e-38
0.037857145 0.020714276 0.75000006 2.1305469e-38
0.039285716 0.020714268 0.75000006 1.9260692e-38
0.04071429 0.020714276 0.75000006 1.2912202e-38
0.042142861 0.020714276 0.75000006 6.4729521e-39
0.043571431 0.020714276 0.75000006 8.2156728e-39
0.045120008 0.020769536 0.75199997 9.970872e-39
0.046614293 0.020797148 0.75300002 1.180894e-38
0.048048578 0.020797141 0.75300002 1.3632307e-38
0.049482863 0.020797141 0.75300002 1.1043984e-38
0.050917149 0.020797163 0.75299996 8.383638e-39
0.052351438 0.020797163 0.75299996 5.2397212e-39
0.053928576 0.020852387 0.75500005 2.0408875e-39
-0.021995241 0.021995239 0.74500006 1.687799e-38
-0.020659048 0.022083804 0.74800003 1.3925268e-38
-0.019208575 0.0220543 0.74699998 1.8633993e-38
-0.017785717 0.022054307 0.74699998 2.341768e-38
-0.016384764 0.022083811 0.74800003 2.0008278e-38
-0.014960001 0.022083811 0.74800003 1.6509929e-38
-0.013535239 0.022083804 0.74800003 2.0014754e-38
-0.012110477 0.022083811 0.74800003 2.341769e-38
-0.010685715 0.022083819 0.74799997 1.9827855e-38
-0.0092857145 0.022142857 0.75000006 1.6222928e-38
-0.0078571429 0.02214285 0.75000006 1.8981196e-38
-0.0064285723 0.022142857 0.75000006 2.1855385e-38
-0.0050000008 0.022142857 0.75000006 2.2498976e-38
-0.0035714291 0.022142857 0.75 2.3142162e-38
-0.0021371432 0.022083811 0.74800003 2.0270489e-38
-0.00071238098 0.022083811 0.74800003 1.7533381e-38
0.00071238104 0.022083811 0.74800003 2.047716e-38
0.0021371427 0.022083819 0.74800003 2.3417676e-38
0.0035619049 0.022083811 0.74799997 1.7793095e-38
0.0049866671 0.022083811 0.74799997 1.2105767e-38
0.006411429 0.022083826 0.74799997 1.762739e-38
0.0078361919 0.022083819 0.74799997 2.3050348e-38
0.0092609543 0.022083811 0.74800003 2.24075e-38
0.010685716 0.022083811 0.74800003 2.1672816e-38
0.012110478 0.022083804 0.74800003 1.6795131e-38
0.01357143 0.022142857 0.75000006 1.2020397e-38
0.015000002 0.022142857 0.75000006 1.1537538e-38
0.016428573 0.022142857 0.75000006 1.1063278e-38
0.017857144 0.022142857 0.75000006 1.0968556e-38
0.019285716 0.02214285 0.75000006 1.0973595e-38
0.020714287 0.022142857 0.75000006 1.513706e-38
0.022142859 0.022142865 0.75000006 1.9285063e-38
0.02357143 0.022142865 0.75000006 1.7976028e-38
0.025000002 0.022142865 0.75000006 1.6695378e-38
0.026428573 0.022142857 0.75000006 1.9735302e-38
0.027857145 0.022142857 0.75000006 2.2866677e-38
0.029285716 0.02214285 0.75000006 2.158098e-38
0.030714288 0.022142857 0.75000006 2.0387119e-38
0.032142859 0.022142857 0.75000006 1.8543593e-38
0.03357143 0.02214285 0.75000006 1.6621863e-38
0.035000004 0.022142857 0.75000006 1.4125444e-38
0.036525719 0.022201911 0.75200003 1.1735565e-38
0.0379581 0.022201911 0.75200003 1.0709585e-38
0.039390482 0.022201911 0.75199997 9.6732011e-39
0.04071429 0.022142857 0.75000006 6.8338285e-39
0.042142861 0.022142865 0.75000006 3.9776081e-39
0.043571431 0.022142842 0.75000006 8.0366709e-39
0.045120008 0.022201911 0.75199997 1.2095309e-38
0.046614293 0.022231437 0.75300002 1.4666283e-38
0.048048578 0.02223143 0.75300002 1.7238328e-38
0.049614292 0.022290491 0.755 1.575885e-38
0.051052388 0.022290483 0.75500005 1.4381312e-38
0.052351438 0.02223143 0.75300002 1.2441639e-38
0.053785723 0.022231445 0.75300002 1.0511978e-38
0.055220008 0.022231437 0.75299996 1.0228897e-38
-0.020659048 0.023508579 0.74799997 1.0072112e-38
-0.019208575 0.023477152 0.74699998 1.6805534e-38
-0.017785717 0.023477159 0.74699998 2.3414452e-38
-0.016384764 0.023508571 0.74800003 1.9822813e-38
-0.014960001 0.023508571 0.74800003 1.6147968e-38
-0.013535239 0.023508571 0.74800003 1.9836104e-38
-0.012110477 0.023508579 0.74800003 2.3417331e-38
-0.010685715 0.023508579 0.74800003 1.9835029e-38
-0.0092857135 0.023571424 0.75000006 1.6234057e-38
-0.007857142 0.023571424 0.75000006 1.9339945e-38
-0.0064285719 0.023571424 0.75000006 2.2398156e-38
-0.0050000004 0.023571424 0.75000006 2.2683006e-38
-0.0035714291 0.023571424 0.75000006 2.2853384e-38
-0.0021371429 0.023508579 0.74800003 2.0345827e-38
-0.00071238098 0.023508571 0.74800003 1.7802073e-38
0.00071238104 0.023508571 0.74800003 2.0662625e-38
0.0021371429 0.023508579 0.74800003 2.3409787e-38
0.0035619049 0.023508571 0.74800003 1.6773943e-38
0.0049866671 0.023508586 0.74800003 1.016646e-38
0.006411429 0.023508586 0.74799997 1.6435317e-38
0.0078361919 0.023508579 0.74799997 2.2680133e-38
0.0092609543 0.023508571 0.74800003 2.1305474e-38
0.010685716 0.023508571 0.74800003 1.9911432e-38
0.012110478 0.023508571 0.74800003 1.0344391e-38
0.013571431 0.023571417 0.75000006 6.8228942e-40
0.015000002 0.023571424 0.75000006 3.8274646e-40
0.016428573 0.023571424 0.75000006 1.1799634e-40
0.017857144 0.023571432 0.75000006 8.0162035e-39
0.019285716 0.023571424 0.75 1.5948147e-38
0.020714287 0.023571409 0.75000006 1.8550404e-38
0.022142859 0.023571417 0.75000006 2.1121787e-38
0.02357143 0.023571409 0.75000006 2.1029942e-38
0.025000002 0.023571439 0.75000006 2.0834444e-38
0.026428573 0.023571432 0.75000006 2.1579182e-38
0.027857145 0.023571432 0.75000006 2.2309563e-38
0.029363811 0.0236343 0.75199997 1.9836104e-38
0.030796193 0.0236343 0.75199997 1.7334297e-38
0.032228578 0.023634277 0.75200003 1.3564372e-38
0.033660959 0.023634285 0.75200003 9.7872794e-39
0.035093341 0.023634285 0.75200003 5.0021493e-39
0.036525719 0.023634285 0.75200003 1.3594417e-40
0.0379581 0.023634285 0.75199997 1.2338853e-40
0.039390482 0.023634285 0.75199997 1.2769332e-40
0.040822864 0.023634277 0.75199997 7.7161799e-40
0.042255245 0.023634285 0.75199997 1.4198517e-39
0.043687627 0.023634292 0.75199997 7.7658321e-39
0.045180004 0.023665726 0.75299996 1.4116423e-38
0.046738099 0.023728579 0.75500005 1.7430701e-38
0.048176195 0.023728579 0.75500005 2.0735664e-38
0.049614288 0.023728579 0.75500005 2.0555182e-38
0.051052384 0.023728572 0.75500005 2.0273215e-38
0.05249048 0.023728572 0.75500005 1.9632875e-38
0.053785719 0.023665719 0.75300002 1.8889918e-38
0.055366669 0.023728587 0.75500005 1.7602405e-38
0.056654289 0.023665726 0.75300002 1.6214057e-38
-0.023634288 0.025066666 0.75199997 1.7657126e-38
-0.022142861 0.024999999 0.75000006 1.353097e-38
-0.020714289 0.024999999 0.75000006 9.4041406e-39
-0.019208575 0.024900004 0.74700004 1.642456e-38
-0.017785717 0.024900004 0.74700004 2.341768e-38
-0.016384764 0.024933331 0.74800003 1.8995935e-38
-0.014960001 0.024933331 0.74800003 1.4484524e-38
-0.013535239 0.024933338 0.74800003 1.8909497e-38
-0.012110477 0.024933338 0.74800003 2.3325853e-38
-0.010714286 0.024999991 0.75000006 2.1577393e-38
-0.0092857145 0.024999991 0.75000006 1.9823183e-38
-0.0078571429 0.024999999 0.75000006 2.1201064e-38
-0.0064285719 0.025000006 0.75000006 2.2591162e-38
-0.0050000004 0.025000013 0.75000006 1.8999542e-38
-0.0035619051 0.024933331 0.74800003 1.5415788e-38
-0.0021342859 0.024900019 0.74700004 1.6867919e-38
-0.00071142864 0.024900012 0.74700004 1.8359905e-38
0.0007114287 0.024900012 0.74700004 2.0936338e-38
0.0021342859 0.024900019 0.74699998 2.3417682e-38
0.0035619049 0.024933331 0.74800003 1.494262e-38
0.0049866675 0.024933346 0.74800003 6.554383e-39
0.0064114295 0.024933346 0.74799997 1.0343676e-38
0.007836191 0.024933338 0.74799997 1.4132972e-38
0.0092609534 0.024933346 0.74799997 1.329462e-38
0.010685716 0.024933338 0.74800003 1.2547008e-38
0.012110478 0.024933338 0.74800003 7.2033159e-39
0.01357143 0.024999991 0.75000006 1.9299509e-39
0.015000002 0.024999991 0.75000006 1.3039629e-39
0.016428573 0.024999991 0.75000006 7.540331e-40
0.017857144 0.024999991 0.75000006 6.1938583e-39
0.019285716 0.024999991 0.75000006 1.1650544e-38
0.020714287 0.024999999 0.75000006 1.5055996e-38
0.022201907 0.025066666 0.75199997 1.8458573e-38
0.023634287 0.025066674 0.75199997 1.4493145e-38
0.025066668 0.025066666 0.75199997 1.0625647e-38
0.026428573 0.024999991 0.75000006 1.1082668e-38
0.027931431 0.025066674 0.75199997 1.1640141e-38
0.029363811 0.025066674 0.75199997 1.0157142e-38
0.030837145 0.025100015 0.75299996 8.7541273e-39
0.03227143 0.025100015 0.75299996 7.0153373e-39
0.033660959 0.025066659 0.75200003 5.2460719e-39
0.035093341 0.025066659 0.75200003 4.1630602e-39
0.036574289 0.0251 0.75300002 2.9677694e-39
0.038008574 0.0251 0.75300002 3.2540434e-39
0.03944286 0.0251 0.75300002 3.4416661e-39
0.040877145 0.0251 0.75300002 3.3541396e-39
0.04231143 0.025100008 0.75300002 3.2666117e-39
0.043745719 0.025100015 0.75300002 8.7842776e-39
0.045300003 0.025166661 0.75500005 1.4398043e-38
0.046738099 0.025166668 0.75500005 1.715558e-38
0.048176195 0.025166668 0.75500005 2.0004261e-38
0.049614288 0.025166675 0.75500005 1.9819143e-38
0.051052384 0.025166683 0.75500005 1.9635115e-38
0.05249048 0.025166675 0.75500005 1.9359608e-38
0.053928576 0.025166683 0.75500005 1.9180238e-38
0.055366669 0.025166675 0.75500005 1.8898627e-38
0.056804765 0.025166668 0.755 1.853333e-38
-0.023634287 0.026499055 0.75199997 1.7771557e-38
-0.022142859 0.026428573 0.75000006 1.3224953e-38
-0.020714287 0.026428565 0.75000006 8.6834374e-39
-0.019208573 0.026322849 0.74700004 1.607085e-38
-0.017785715 0.026322857 0.74700004 2.3413737e-38
-0.016384764 0.02635809 0.74800003 1.816727e-38
-0.014960001 0.026358098 0.74800003 1.2829692e-38
-0.013571429 0.026428565 0.75000006 1.8083688e-38
-0.012110477 0.026358098 0.74800003 2.323222e-38
-0.010685715 0.026358105 0.74800003 2.3325854e-38
-0.0092857135 0.026428558 0.75000012 2.3414457e-38
-0.0078571429 0.026428558 0.75000006 2.305034e-38
-0.0064285723 0.026428558 0.75000006 2.2671517e-38
-0.0050000008 0.026428565 0.75000006 1.5308534e-38
-0.0035714291 0.026428565 0.75000006 7.850479e-39
-0.0021342859 0.026322864 0.74700004 1.3349838e-38
-0.00071238098 0.02635809 0.74800003 1.8901595e-38
0.00071238104 0.026358098 0.74800003 2.1213638e-38
0.0021342859 0.026322871 0.74699998 2.3413738e-38
0.0035619049 0.026358098 0.74800003 1.3208153e-38
0.0049866671 0.026358105 0.74800003 2.8849078e-39
0.006411429 0.026358105 0.74799997 4.1602001e-39
0.0078361919 0.026358105 0.74799997 5.4677853e-39
0.0092609543 0.026358105 0.74799997 5.2851975e-39
0.010685716 0.026358105 0.74799997 5.1008035e-39
0.012110478 0.026358098 0.74800003 4.175627e-39
0.01353524 0.026358098 0.74800003 3.2468688e-39
0.015000002 0.02642858 0.75000006 2.3328186e-39
0.016428573 0.026428573 0.75000006 1.3201184e-39
0.017857144 0.02642858 0.75000006 4.3539198e-39
0.019285716 0.026428573 0.75000006 7.3188488e-39
0.020714287 0.026428573 0.75000006 1.1564094e-38
0.022201907 0.02649904 0.75199997 1.5677314e-38
0.023634287 0.026499048 0.75199997 8.0420491e-39
0.025000002 0.026428573 0.75000006 3.188977e-40
0.026428573 0.026428565 0.75000006 6.6973799e-40
0.027931433 0.026499063 0.75199997 9.5887771e-40
0.029363813 0.026499063 0.75199997 5.8113529e-40
0.030837145 0.026534304 0.75300002 1.2733459e-40
0.03227143 0.026534297 0.75299996 4.9682477e-40
0.033705715 0.026534297 0.75299996 7.694628e-40
0.035140004 0.026534297 0.75299996 3.3448055e-39
0.036574289 0.026534297 0.75299996 5.8319001e-39
0.038008574 0.026534297 0.75299996 6.2993313e-39
0.03944286 0.026534289 0.75300002 6.7585101e-39
0.040877145 0.026534282 0.75300002 5.9359395e-39
0.04231143 0.026534289 0.75300002 5.1090627e-39
0.043861907 0.026604772 0.75500005 9.8898909e-39
0.045300003 0.026604779 0.75500005 1.4581351e-38
0.046738099 0.026604772 0.75500005 1.6972618e-38
0.048176195 0.026604772 0.75500005 1.9266339e-38
0.049614288 0.026604772 0.75500005 1.9081937e-38
0.051052388 0.026604772 0.755 1.8898991e-38
0.052490484 0.026604757 0.75500005 1.9174148e-38
0.05392858 0.026604757 0.75500005 1.9451795e-38
0.055366673 0.026604772 0.75500005 2.0186109e-38
0.056804769 0.026604764 0.75500005 2.0828187e-38
-0.020714289 0.027857147 0.75000006 1.5870273e-38
-0.019234287 0.027782865 0.74799997 1.8913446e-38
-0.017785715 0.027745716 0.74699998 2.2040155e-38
-0.016384764 0.027782857 0.74800003 1.4296912e-38
-0.014960001 0.027782865 0.74800003 6.4603965e-39
-0.013535239 0.027782857 0.74800003 1.071137e-38
-0.012110477 0.027782857 0.74800003 1.4968816e-38
-0.010685715 0.027782865 0.74800003 1.5511228e-38
-0.0092609534 0.027782857 0.74800003 1.5979015e-38
-0.007857142 0.02785714 0.75000006 1.3757385e-38
-0.0064285723 0.027857147 0.75000006 1.1551888e-38
-0.0050000008 0.027857147 0.75000006 7.7579232e-39
-0.0035619051 0.027782872 0.74799997 3.9499801e-39
-0.0021342861 0.027745731 0.74699998 1.0145649e-38
-0.00071238098 0.02778285 0.74800003 1.6253795e-38
0.00071142864 0.027745724 0.74699998 1.7445513e-38
0.0021342859 0.027745731 0.74699998 1.8550404e-38
0.003557143 0.027745731 0.74699998 1.0067096e-38
0.0049866671 0.027782865 0.74800003 1.6680875e-39
0.006411429 0.027782865 0.74800003 3.244708e-39
0.0078361919 0.027782865 0.74799997 4.9042111e-39
0.0092609543 0.027782865 0.74799997 5.3730814e-39
0.010685716 0.027782872 0.74799997 5.8344155e-39
0.012142859 0.027857147 0.75000006 5.3752408e-39
0.013571431 0.027857155 0.75 4.8238691e-39
0.015000002 0.02785714 0.75000006 4.3625378e-39
0.016428573 0.027857147 0.75000006 3.9001275e-39
0.017857144 0.027857147 0.75000006 5.4659903e-39
0.019285716 0.027857147 0.75000006 7.1247731e-39
0.020714287 0.027857147 0.75000006 7.8619724e-39
0.022201907 0.027931429 0.75199997 8.6655232e-39
0.023634287 0.027931437 0.75199997 5.8257877e-39
0.02506667 0.027931437 0.75199997 2.9684868e-39
0.026499052 0.027931437 0.75199997 3.4334068e-39
0.027931433 0.027931437 0.75199997 3.8929459e-39
0.02940286 0.027968571 0.75300002 3.6228218e-39
0.030837145 0.027968571 0.75300002 3.442385e-39
0.03227143 0.027968578 0.75300002 3.7218431e-39
0.033705715 0.027968593 0.75300002 4.0002209e-39
0.035140004 0.027968585 0.75300002 5.4724601e-39
0.036574289 0.027968585 0.75300002 6.9497201e-39
0.038008574 0.027968585 0.75299996 7.1319562e-39
0.03944286 0.027968585 0.75299996 7.3167034e-39
0.040877149 0.027968578 0.75299996 6.3972722e-39
0.042311434 0.027968578 0.75300002 5.5686003e-39
0.043861907 0.028042868 0.75500005 9.9842375e-39
0.045300003 0.028042868 0.75500005 1.4493099e-38
0.046738099 0.028042853 0.75500005 1.6786786e-38
0.048176195 0.028042868 0.75500005 1.9078353e-38
0.049680002 0.028079994 0.75600004 1.8896459e-38
0.051120002 0.028079987 0.75600004 1.8622405e-38
0.05249048 0.02804286 0.75500005 1.8805374e-38
0.053928576 0.028042868 0.75500005 1.8990821e-38
0.055366669 0.02804286 0.75500005 1.9358504e-38
0.056804765 0.028042853 0.75500005 1.9725489e-38
0.058242861 0.02804286 0.75500005 1.9818043e-38
-0.020769525 0.029363826 0.75199997 2.2952749e-38
-0.019234287 0.029207632 0.74799997 2.1856485e-38
-0.017809525 0.029207624 0.74799997 2.0639298e-38
-0.016384764 0.029207624 0.74799997 1.0427613e-38
-0.014960001 0.029207624 0.74800003 1.2015013e-40
-0.013535239 0.029207617 0.74800003 3.4237141e-39
-0.012110477 0.029207624 0.74800003 6.6605636e-39
-0.010685715 0.029207624 0.74800003 7.5868177e-39
-0.0092609534 0.029207617 0.74800003 8.4983567e-39
-0.0078571429 0.029285707 0.75000006 4.4479077e-39
-0.0064285723 0.029285714 0.75000006 4.0893673e-40
-0.0050000008 0.029285721 0.75000006 3.1315237e-40
-0.0035714291 0.029285714 0.75000006 1.1871941e-40
-0.0021371432 0.029207632 0.74799997 6.8456695e-39
-0.00071238098 0.029207617 0.74800003 1.3566885e-38
0.00071238104 0.029207617 0.74800003 1.3672358e-38
0.0021342859 0.029168591 0.74700004 1.3650832e-38
0.0035619049 0.029207624 0.74800003 7.0257588e-39
0.0049866675 0.029207624 0.74800003 4.0499347e-40
0.0064114295 0.029207632 0.74800003 2.4296792e-39
0.007836191 0.029207624 0.74800003 4.3618147e-39
0.0092609534 0.029207624 0.74799997 5.4688671e-39
0.010714287 0.029285707 0.75000006 6.5726882e-39
0.012142858 0.029285707 0.75000006 6.4833666e-39
0.01357143 0.029285714 0.75000006 6.3918898e-39
0.015000002 0.029285714 0.75000006 6.3926073e-39
0.016428573 0.029285707 0.75000006 6.3908108e-39
0.017857144 0.029285714 0.75000006 6.668827e-39
0.019285716 0.029285707 0.75000006 6.8507058e-39
0.020769527 0.029363811 0.75200003 4.2764434e-39
0.022201909 0.029363811 0.75199997 1.7000231e-39
0.023634288 0.029363811 0.75199997 3.7189648e-39
0.02506667 0.029363811 0.75199997 5.6478704e-39
0.026499052 0.029363811 0.75199997 6.2021134e-39
0.027968572 0.029402867 0.75299996 6.7534851e-39
0.02940286 0.029402867 0.75300002 6.7585087e-39
0.030837145 0.02940286 0.75300002 6.6670348e-39
0.032271434 0.029402852 0.75300002 6.9472076e-39
0.033705719 0.02940286 0.75300002 7.1315974e-39
0.035140008 0.029402852 0.75300002 7.5950797e-39
0.036574293 0.029402867 0.75300002 7.962063e-39
0.038008578 0.029402867 0.75300002 7.9624217e-39
0.039442863 0.029402867 0.75300002 7.8698687e-39
0.040877149 0.029402874 0.75299996 6.9518725e-39
0.042311434 0.029402874 0.75299996 5.9409646e-39
0.043861907 0.029480956 0.75500005 1.0168626e-38
0.045300003 0.029480964 0.75500005 1.4307274e-38
0.046738099 0.029480956 0.75500005 1.6603473e-38
0.048240002 0.029519998 0.75600004 1.8896472e-38
0.049680002 0.02951999 0.75600004 1.8619512e-38
0.051120002 0.029519998 0.75600004 1.8344374e-38
0.052560002 0.029519998 0.75600004 1.8434425e-38
0.054000005 0.029519998 0.75600004 1.8529124e-38
0.055440005 0.029520005 0.75600004 1.8623107e-38
-0.020714289 0.030714281 0.75000006 1.5053843e-38
-0.019285718 0.030714281 0.75000006 1.2736787e-38
-0.017809525 0.030632384 0.74799997 1.0416135e-38
-0.016384764 0.030632392 0.74799997 5.6331414e-39
-0.014960001 0.030632392 0.74799997 9.2370092e-40
-0.013535239 0.030632377 0.74800003 3.1435356e-39
-0.012110477 0.030632384 0.74800003 5.4383525e-39
-0.010685715 0.030632384 0.74800003 5.6331498e-39
-0.0092857135 0.030714281 0.75000006 5.7960129e-39
-0.007857142 0.030714273 0.75000006 4.2520272e-39
-0.0064285719 0.030714281 0.75000006 2.6789898e-39
-0.0050000004 0.030714281 0.75000006 2.2327309e-39
-0.0035714291 0.030714281 0.75000006 1.855343e-39
-0.0021371432 0.030632392 0.74799997 4.629778e-39
-0.00071238098 0.030632392 0.74799997 7.3934553e-39
0.00071238098 0.030632384 0.74800003 7.5785626e-39
0.0021371429 0.030632392 0.74800003 7.8239356e-39
0.0035619049 0.030632384 0.74800003 5.5506469e-39
0.0049866671 0.030632384 0.74800003 3.3537767e-39
0.0064285723 0.030714281 0.75000006 4.2739323e-39
0.0078571439 0.030714288 0.75000006 5.2866339e-39
0.0092857154 0.030714288 0.75000006 5.7483225e-39
0.010714288 0.030714288 0.75000006 6.1167421e-39
0.012142859 0.030714296 0.75000006 6.1192546e-39
0.013571431 0.030714288 0.75000006 6.1224832e-39
0.015000002 0.030714288 0.75000012 6.3047192e-39
0.016428571 0.030714281 0.75000006 6.4894664e-39
0.017857142 0.030714281 0.75000006 6.579867e-39
0.019337146 0.030796193 0.75200003 6.6688326e-39
0.020769527 0.030796207 0.75200003 5.2916575e-39
0.022201909 0.0307962 0.75200003 4.0066794e-39
0.023634288 0.0307962 0.75199997 5.1076292e-39
0.02506667 0.0307962 0.75199997 6.3040018e-39
0.026534287 0.030837156 0.75300002 6.4858791e-39
0.027968572 0.030837156 0.75299996 6.7624618e-39
0.02940286 0.030837163 0.75299996 6.6713438e-39
0.030837145 0.030837156 0.75299996 6.67242e-39
0.032271434 0.030837148 0.75299996 6.9497201e-39
0.033705719 0.030837141 0.75300002 7.2284552e-39
0.035140008 0.030837141 0.75300002 7.5957972e-39
0.036574293 0.030837156 0.75300002 8.0553334e-39
0.038008578 0.030837156 0.75300002 8.0553334e-39
0.039442863 0.030837156 0.75300002 7.9631392e-39
0.040877149 0.030837156 0.75300002 7.2277363e-39
0.042311434 0.030837156 0.75300002 6.4930538e-39
0.043861907 0.030919053 0.75500005 1.0171496e-38
0.045300003 0.030919053 0.75500005 1.3851325e-38
0.046738099 0.030919053 0.75500005 1.5498934e-38
0.048240002 0.030960001 0.75600004 1.724343e-38
0.049680002 0.030960001 0.75600004 1.7792629e-38
0.051120002 0.030960001 0.75600004 1.8435839e-38
0.052560002 0.030960001 0.75600004 1.861987e-38
0.054000005 0.030960009 0.75600004 1.8894664e-38
0.055440005 0.030959994 0.7560001 1.8804628e-38
-0.020714289 0.032142848 0.75000006 7.0340124e-39
-0.019234287 0.032057151 0.74800003 3.6210309e-39
-0.017809525 0.032057144 0.74799997 1.3020305e-40
-0.016384764 0.032057151 0.74799997 9.4811013e-40
-0.014960001 0.032057151 0.74799997 1.6827941e-39
-0.013535239 0.032057136 0.74800003 2.9713609e-39
-0.012142858 0.032142863 0.75000006 4.1684538e-39
-0.010714286 0.032142855 0.75000006 3.7110727e-39
-0.0092857145 0.032142863 0.75000006 3.1582647e-39
-0.007836191 0.032057151 0.74800003 4.0848705e-39
-0.0064457147 0.032228574 0.75199997 4.9971284e-39
-0.0050000004 0.032142855 0.75000006 4.2674695e-39
-0.0035714288 0.032142848 0.75000006 3.5274031e-39
-0.0021371429 0.032057159 0.74799997 2.3324655e-39
-0.00071238098 0.032057151 0.74799997 1.1490087e-39
0.00071238104 0.032057144 0.74800003 1.6081876e-39
0.0021371429 0.032057151 0.74800003 2.0627001e-39
0.0035619049 0.032057144 0.74800003 4.1828087e-39
0.0049866671 0.032057144 0.74800003 6.2064224e-39
0.0064285723 0.03214287 0.75000006 6.2089363e-39
0.0078571439 0.032142855 0.75000012 6.2103712e-39
0.0092857154 0.032142848 0.75000006 5.9370171e-39
0.010714287 0.032142863 0.75000006 5.6618694e-39
0.012142858 0.032142863 0.75000006 5.7537035e-39
0.01357143 0.032142863 0.75000006 5.8476928e-39
0.015000002 0.032142863 0.75000006 6.214676e-39
0.016428573 0.032142855 0.75000006 6.4909e-39
0.017857144 0.032142863 0.75000006 6.4916174e-39
0.019285716 0.032142855 0.75000006 6.4901811e-39
0.020769525 0.032228574 0.75200003 6.3987043e-39
0.022201907 0.032228574 0.75199997 6.2143173e-39
0.023634287 0.032228574 0.75199997 6.5841704e-39
0.025066668 0.032228574 0.75199997 6.8586007e-39
0.02649905 0.032228589 0.75199997 6.7664065e-39
0.027968572 0.032271437 0.75300002 6.6742122e-39
0.02940286 0.032271445 0.75300002 6.6756486e-39
0.030837145 0.032271437 0.75299996 6.5838117e-39
0.032271434 0.03227143 0.75299996 6.9511536e-39
0.033705719 0.032271437 0.75299996 7.2284538e-39
0.035140008 0.032271437 0.75299996 7.6872739e-39
0.036574293 0.032271445 0.75299996 8.1475276e-39
0.038008578 0.032271422 0.75300002 8.1482451e-39
0.039442863 0.032271422 0.75300002 8.0553334e-39
0.040877149 0.03227143 0.75300002 7.5943608e-39
0.042423815 0.032357156 0.75500005 7.0455017e-39
0.043861911 0.032357149 0.75500005 1.0172931e-38
0.045360003 0.03239999 0.75600004 1.3293496e-38
0.046800002 0.032399997 0.75600004 1.4481212e-38
0.048240002 0.032400005 0.75600004 1.5583585e-38
0.049680002 0.032400005 0.75600004 1.7055453e-38
0.051120002 0.032399997 0.75600004 1.8435129e-38
0.052560002 0.032400005 0.75600004 1.8898603e-38
0.054000005 0.032399982 0.7560001 1.9263443e-38
0.05558667 0.032485716 0.75800002 1.9079781e-38
-0.020714289 0.033571415 0.75000006 6.9256668e-39
-0.019285718 0.033571422 0.75000006 5.2794438e-39
-0.017857146 0.033571422 0.75000006 3.7182474e-39
-0.016428575 0.033571422 0.75000006 4.08739e-39
-0.015000001 0.033571437 0.75000006 4.5505164e-39
-0.013571429 0.033571422 0.75000012 5.1000958e-39
-0.012142858 0.03357143 0.75000006 5.7461729e-39
-0.010714285 0.03357143 0.75000006 5.4688713e-39
-0.0092857135 0.03357143 0.75000006 5.2859178e-39
-0.0078571429 0.03357143 0.75000006 5.6536185e-39
-0.0064285723 0.03357143 0.75000006 6.0188095e-39
-0.0050000008 0.03357143 0.75000006 5.7454554e-39
-0.0035714291 0.03357143 0.75000006 5.3781134e-39
-0.0021371432 0.033481918 0.74799997 4.6430693e-39
-0.00071238098 0.033481911 0.74799997 3.9141265e-39
0.00071238104 0.033481911 0.74799997 4.1871219e-39
0.0021371429 0.033481911 0.74800003 4.5533876e-39
0.0035619049 0.033481903 0.74800003 5.7511951e-39
0.0049866675 0.033481911 0.74800003 7.0390445e-39
0.0064285719 0.033571422 0.75000006 6.9479265e-39
0.0078571439 0.03357143 0.75000006 6.7653317e-39
0.0092857154 0.033571422 0.75000006 8.4219579e-39
0.010714287 0.033571422 0.75000006 9.9831585e-39
0.012142858 0.03357143 0.75000006 1.0076426e-38
0.013607621 0.033660956 0.75199997 1.0166828e-38
0.015040002 0.033660963 0.75199997 1.0352653e-38
0.016472382 0.033660941 0.75200003 1.0533454e-38
0.017904762 0.033660948 0.75200003 1.0260457e-38
0.019337144 0.033660948 0.75200003 9.9827984e-39
0.020769525 0.033660948 0.75199997 9.5232622e-39
0.022201907 0.033660963 0.75199997 9.1530518e-39
0.023634287 0.033660963 0.75199997 9.7998463e-39
0.025066668 0.033660963 0.75199997 1.0534172e-38
0.026534287 0.033705711 0.75300002 1.0259382e-38
0.027968572 0.033705704 0.75300002 1.0073561e-38
0.02940286 0.033705719 0.75300002 9.9856711e-39
0.030837145 0.033705711 0.75300002 9.8931167e-39
0.032271434 0.033705726 0.75300002 9.8012798e-39
0.033705719 0.033705726 0.75300002 9.8020001e-39
0.035140008 0.033705719 0.75299996 8.6999755e-39
0.036574293 0.033705726 0.75299996 7.6890676e-39
0.038008578 0.033705719 0.75299996 7.7801856e-39
0.039547622 0.033795252 0.75500005 7.8730973e-39
0.040985718 0.033795245 0.75500005 7.4121248e-39
0.042423811 0.03379526 0.75500005 7.0440667e-39
0.043861907 0.033795252 0.75500005 9.9853137e-39
0.045360003 0.033839986 0.75600004 1.2923286e-38
0.046800002 0.033839993 0.75600004 1.3008617e-38
0.048240002 0.033840008 0.75600004 1.3187263e-38
0.049680002 0.033840001 0.75600004 1.3925172e-38
0.051120002 0.033840001 0.75600004 1.4666295e-38
0.052560002 0.033839986 0.7560001 1.576866e-38
0.054142866 0.033929527 0.75799996 1.6966482e-38
0.055586673 0.033929512 0.75800002 1.8068162e-38
-0.022142861 0.035000004 0.75000006 6.7624534e-39
-0.020714289 0.034999989 0.75000006 6.7581486e-39
-0.019285718 0.034999989 0.75000006 7.0361662e-39
-0.017857146 0.034999982 0.75000006 7.3116755e-39
-0.016428575 0.034999996 0.75000006 7.3159845e-39
-0.015 0.034999996 0.75000006 7.3138321e-39
-0.013571428 0.034999989 0.75000006 7.3156272e-39
-0.012142857 0.034999996 0.75000006 7.3141922e-39
-0.010714285 0.034999989 0.75000006 7.3152684e-39
-0.0092857135 0.034999996 0.75000006 7.3138335e-39
-0.007857142 0.034999996 0.75000006 7.2241504e-39
-0.0064285723 0.034999989 0.75 7.0386858e-39
-0.0050000008 0.035000004 0.75000006 7.1330324e-39
-0.0035714291 0.034999996 0.75000006 7.2227155e-39
-0.0021428575 0.034999996 0.75000006 6.9468503e-39
-0.00071428576 0.034999996 0.75000006 6.6717025e-39
0.00071238104 0.034906678 0.74799997 6.8557322e-39
0.0021371429 0.034906685 0.74799997 6.9490027e-39
0.0035619049 0.034906663 0.74800003 7.4124849e-39
0.0050000004 0.035000004 0.75000006 7.86951e-39
0.0064285719 0.035000004 0.75000006 7.5943623e-39
0.0078571448 0.035000004 0.75000006 7.3206494e-39
0.0092857163 0.034999996 0.75000012 1.081829e-38
0.010714288 0.034999996 0.75000006 1.4308397e-38
0.01217524 0.035093352 0.75199997 1.4401307e-38
0.013607621 0.035093345 0.75199997 1.4401667e-38
0.015040002 0.035093352 0.75199997 1.4495296e-38
0.016472382 0.03509333 0.75200003 1.4493502e-38
0.017904762 0.035093337 0.75200003 1.4033966e-38
0.019337144 0.035093337 0.75200003 1.3480801e-38
0.020797145 0.035140015 0.75300002 1.274253e-38
0.02223143 0.035140008 0.75299996 1.2009281e-38
0.023665715 0.035140008 0.75299996 1.3112024e-38
0.025100002 0.035140008 0.75299996 1.4123291e-38
0.026534287 0.035140008 0.75299996 1.3847425e-38
0.028042858 0.035233341 0.75500005 1.3481518e-38
0.029480955 0.035233349 0.75500005 1.3299642e-38
0.030837145 0.035140008 0.75300002 1.3114535e-38
0.03227143 0.035140015 0.75300002 1.2742888e-38
0.033705715 0.035140008 0.75300002 1.2286222e-38
0.035233337 0.035233341 0.75500005 9.7126771e-39
0.03667143 0.035233334 0.755 7.138412e-39
0.038109526 0.035233334 0.75500005 7.4106899e-39
0.039547622 0.035233326 0.75500005 7.6890662e-39
0.040985718 0.035233341 0.75500005 7.3199306e-39
0.042423811 0.035233341 0.75500005 6.95259e-39
0.043861907 0.035233334 0.75500005 9.8005666e-39
0.045360003 0.035280004 0.75600004 1.2552355e-38
0.046800002 0.035280004 0.75600004 1.1625702e-38
0.048240002 0.035280012 0.75600004 1.0703754e-38
0.049680002 0.035280004 0.75600004 1.0790922e-38
0.051120002 0.035279997 0.75600004 1.0889563e-38
0.052699056 0.03537333 0.75800002 1.2727341e-38
0.054142866 0.03537333 0.75800002 1.4570172e-38
0.055586673 0.03537333 0.75799996 1.6963299e-38
-0.022201909 0.036525719 0.75199997 7.5010918e-39
-0.020769527 0.036525719 0.75199997 7.5943623e-39
-0.019337146 0.036525711 0.75199997 7.5925686e-39
-0.017904764 0.036525719 0.75199997 7.685839e-39
-0.016472384 0.036525704 0.75200003 7.5932861e-39
-0.015000001 0.036428578 0.75000006 7.5940035e-39
-0.013571429 0.036428571 0.75000006 7.5014506e-39
-0.012142858 0.036428563 0.75000006 7.5018093e-39
-0.010714286 0.036428563 0.75000006 7.5929273e-39
-0.0092857145 0.036428563 0.75000006 7.776957e-39
-0.0078780968 0.036525726 0.75199997 7.5936448e-39
-0.0064457152 0.036525726 0.75199997 7.4114087e-39
-0.0050133336 0.036525719 0.75199997 7.41105e-39
-0.0035809528 0.036525719 0.75199997 7.4121262e-39
-0.0021428573 0.036428586 0.75000006 7.2263028e-39
-0.00071428576 0.036428578 0.75000006 7.1330324e-39
0.00071428582 0.036428586 0.75000006 7.2266615e-39
0.0021428573 0.036428571 0.75000012 7.3217256e-39
0.0035714288 0.036428578 0.75000006 7.4124849e-39
0.0050000004 0.036428578 0.75000006 7.5954384e-39
0.0064285719 0.036428571 0.75000006 7.5025254e-39
0.0078571439 0.036428578 0.75000006 7.4103325e-39
0.0092857154 0.036428571 0.75000006 9.8985005e-39
0.010714287 0.036428571 0.75000006 1.2388103e-38
0.012175239 0.036525726 0.75199997 1.2476352e-38
0.01360762 0.036525719 0.75199997 1.2482091e-38
0.015040002 0.036525726 0.75199997 1.2660023e-38
0.016494287 0.036574289 0.75300002 1.2941269e-38
0.017904762 0.036525711 0.75200003 1.2842976e-38
0.019337144 0.036525711 0.75200003 1.2755804e-38
0.020769525 0.036525711 0.75200003 1.3118124e-38
0.02223143 0.036574289 0.75300002 1.3580171e-38
0.023665715 0.036574297 0.75300002 1.4129032e-38
0.025100002 0.036574297 0.75300002 1.4775109e-38
0.026534287 0.036574297 0.75299996 1.4772956e-38
0.028042858 0.03667143 0.75500005 1.4777261e-38
0.029480955 0.036671437 0.75500005 1.4590362e-38
0.030837145 0.036574289 0.75299996 1.4501396e-38
0.032357149 0.036671437 0.75500005 1.4405256e-38
0.033795245 0.036671437 0.75500005 1.4315931e-38
0.035233341 0.03667143 0.75500005 1.2747553e-38
0.036671434 0.03667143 0.75500005 1.1179891e-38
0.03810953 0.036671437 0.75500005 1.1180247e-38
0.039547626 0.036671437 0.75500005 1.1182401e-38
0.040985722 0.036671437 0.75500005 9.9845949e-39
0.042423815 0.03667143 0.75500005 8.787865e-39
0.043861911 0.03667143 0.75500005 1.0441263e-38
0.045300007 0.036671445 0.75500005 1.2186448e-38
0.046800002 0.036719993 0.75600004 1.1534224e-38
0.048240002 0.036720008 0.75600004 1.0976746e-38
0.049680002 0.036720008 0.75600004 1.1067497e-38
0.051120002 0.036719985 0.7560001 1.1158617e-38
0.052560002 0.036719993 0.75600004 1.1713218e-38
0.054142866 0.036817141 0.75800002 1.235861e-38
0.055586673 0.036817141 0.75800002 1.429508e-38
0.057180956 0.036914282 0.76000005 1.623614e-38
0.058628578 0.036914282 0.76000005 1.7980257e-38
-0.022201909 0.037958093 0.75199997 8.2375695e-39
-0.020769527 0.037958104 0.75199997 8.4208817e-39
-0.019337146 0.0379581 0.75199997 8.2372107e-39
-0.017904764 0.037958108 0.75199997 7.9613455e-39
-0.016472384 0.037958093 0.75200003 7.86951e-39
-0.015040001 0.037958097 0.75200003 7.7780332e-39
-0.013571428 0.037857138 0.75000006 7.7780332e-39
-0.012175239 0.037958093 0.75200003 7.685839e-39
-0.010742858 0.037958097 0.75199997 7.9609868e-39
-0.0093104765 0.037958093 0.75199997 8.1446578e-39
-0.0078780958 0.037958089 0.75199997 7.9617042e-39
-0.0064457147 0.037958112 0.75199997 7.6869152e-39
-0.0050133336 0.037958108 0.75199997 7.5954384e-39
-0.0035809528 0.037958112 0.75199997 7.5039617e-39
-0.0021428575 0.037857141 0.75000006 7.5043204e-39
-0.00071428576 0.037857138 0.75000006 7.5032442e-39
0.00071428576 0.037857134 0.75000006 7.5965146e-39
0.0021428573 0.037857141 0.75000006 7.5961559e-39
0.0035714288 0.037857138 0.75000006 7.5032442e-39
0.0050000008 0.037857134 0.75000006 7.3195732e-39
0.0064285723 0.037857141 0.75000006 7.4103325e-39
0.0078571439 0.037857138 0.75000006 7.5053966e-39
0.0093104765 0.037958097 0.75199997 8.9765582e-39
0.010714288 0.03785713 0.75000006 1.045059e-38
0.01217524 0.0379581 0.75199997 1.0541349e-38
0.013625717 0.038008586 0.75299996 1.0543143e-38
0.015040002 0.0379581 0.75199997 1.0904386e-38
0.016494285 0.038008582 0.75299996 1.127962e-38
0.017928571 0.038008578 0.75299996 1.1641223e-38
0.019362856 0.038008563 0.75300002 1.2015022e-38
0.020797143 0.038008586 0.75300002 1.3576943e-38
0.022290478 0.03810953 0.75500005 1.5048463e-38
0.023665713 0.038008578 0.75300002 1.5232134e-38
0.025166668 0.03810953 0.75500005 1.5323611e-38
0.026604766 0.038109522 0.75500005 1.5691669e-38
0.02804286 0.038109519 0.75500005 1.5967534e-38
0.029480956 0.038109515 0.75500005 1.5874981e-38
0.030960005 0.038159993 0.7560001 1.5783863e-38
0.032357145 0.03810953 0.75500005 1.6060447e-38
0.033840001 0.038159993 0.75600004 1.6241964e-38
0.035233337 0.038109526 0.75500005 1.5781711e-38
0.03667143 0.038109522 0.75500005 1.5226033e-38
0.038109526 0.038109545 0.75500005 1.4948374e-38
0.039547622 0.038109537 0.75500005 1.4673586e-38
0.040985718 0.038109533 0.75500005 1.2647826e-38
0.042423811 0.038109537 0.75500005 1.0537403e-38
0.043861907 0.038109533 0.755 1.1173794e-38
0.045360003 0.038159993 0.75600004 1.1818386e-38
0.046800002 0.038160015 0.75600004 1.1530991e-38
0.048240002 0.038160007 0.75600004 1.1161492e-38
0.049680002 0.038159993 0.7560001 1.1343007e-38
0.051120002 0.038159996 0.75600004 1.1434842e-38
0.052699056 0.038260963 0.75799996 1.0791994e-38
0.054285716 0.038361903 0.76000005 1.0059476e-38
0.055733338 0.0383619 0.76000005 1.1621771e-38
0.057180956 0.0383619 0.76000005 1.3101888e-38
-0.022201909 0.039390475 0.75199997 8.145734e-39
-0.020769527 0.039390478 0.75199997 8.1450165e-39
-0.019337146 0.039390478 0.75199997 8.0528223e-39
-0.017928574 0.039442863 0.75300002 7.8684338e-39
-0.016494289 0.039442871 0.75299996 7.7776745e-39
-0.015040001 0.039390463 0.75200003 7.6861977e-39
-0.01360762 0.039390471 0.75200003 7.5943623e-39
-0.012175239 0.039390467 0.75200003 7.502168e-39
-0.010742858 0.039390486 0.75200003 7.6854803e-39
-0.0093104765 0.039390482 0.75199997 7.8691513e-39
-0.0078780958 0.039390482 0.75199997 7.6865565e-39
-0.0064457152 0.039390486 0.75199997 7.5950797e-39
-0.0050133341 0.039390482 0.75199997 7.5032428e-39
-0.0035809528 0.039390478 0.75199997 7.5032442e-39
-0.0021428573 0.039285719 0.75000006 7.5954384e-39
-0.00071428576 0.039285716 0.75000006 7.6872739e-39
0.00071428582 0.039285719 0.75000006 7.5954384e-39
0.0021428573 0.039285716 0.75000006 7.5954384e-39
0.0035714291 0.039285708 0.75000006 7.5954384e-39
0.0050000004 0.039285708 0.75000006 7.5950797e-39
0.0064285723 0.039285708 0.75000006 7.8727386e-39
0.0078780968 0.039390489 0.75199997 8.1529086e-39
0.0092857154 0.039285708 0.75000006 9.3453351e-39
0.010742859 0.039390486 0.75199997 1.0538479e-38
0.01217524 0.039390489 0.75199997 1.0815779e-38
0.013625716 0.039442867 0.75300002 1.118348e-38
0.015060002 0.039442867 0.75300002 1.1829916e-38
0.016494287 0.039442867 0.75300002 1.2478863e-38
0.017928572 0.039442863 0.75299996 1.2842259e-38
0.019362858 0.03944286 0.75299996 1.3208166e-38
0.020797145 0.039442882 0.75299996 1.4221226e-38
0.022290478 0.039547626 0.75500005 1.5233569e-38
0.023665715 0.039442871 0.75300002 1.5322176e-38
0.025166668 0.039547626 0.75500005 1.5411499e-38
0.026604764 0.039547622 0.75500005 1.5780274e-38
0.028042858 0.039547618 0.75500005 1.6148334e-38
0.029480955 0.039547626 0.75500005 1.587211e-38
0.030919049 0.039547618 0.75500005 1.5596246e-38
0.032357145 0.039547637 0.75500005 1.5688081e-38
0.033839997 0.039599996 0.75600004 1.5778839e-38
0.035233337 0.03954763 0.75500005 1.6514598e-38
0.03667143 0.039547633 0.75500005 1.7157807e-38
0.038109526 0.03954763 0.755 1.7434391e-38
0.039547622 0.039547611 0.75500005 1.7711692e-38
0.040985718 0.03954763 0.75500005 1.5230699e-38
0.042423811 0.03954763 0.75500005 1.2845487e-38
0.043861907 0.03954763 0.75500005 1.3298566e-38
0.045360003 0.0396 0.75600004 1.3759125e-38
0.046800002 0.039599996 0.75600004 1.2824574e-38
0.048240002 0.0396 0.7560001 1.1896892e-38
0.049680002 0.039599996 0.75600004 1.1896532e-38
0.051120002 0.039599996 0.75600004 1.1894738e-38
0.052699052 0.039704762 0.75800002 1.1160053e-38
0.054142863 0.039704777 0.75800002 1.0516843e-38
0.05558667 0.03970477 0.75800002 1.0885257e-38
0.05703048 0.039704774 0.75800002 1.134481e-38
0.058705717 0.039861895 0.76100004 1.4940043e-38
