# .PCD v0.7 - Point Cloud Data file format
VERSION 0.7
FIELDS x y z rgb
SIZE 4 4 4 4
TYPE F F F F
COUNT 1 1 1 1
WIDTH 949
HEIGHT 1
VIEWPOINT 0 0 0 1 0 0 0
POINTS 949
DATA ascii
-0.049285758 -0.099285729 0.75000012 1.0065322e-38
-0.047665767 -0.098888583 0.7470001 1.0157162e-38
-0.045809571 -0.09796191 0.74000007 1.0157517e-38
-0.044340037 -0.097829513 0.73900002 1.015787e-38
-0.042816229 -0.097564794 0.73700011 1.0158233e-38
-0.041412402 -0.097564779 0.73700005 9.9752818e-39
-0.040008593 -0.097564779 0.73700011 9.699432e-39
-0.038552422 -0.097432412 0.73600012 1.0066789e-38
-0.037150525 -0.097432397 0.73600006 1.0434113e-38
-0.03565149 -0.097167633 0.73400009 1.0250781e-38
-0.034160037 -0.09690287 0.73200005 9.9749175e-39
-0.032720983 -0.096770503 0.73100007 1.0158947e-38
-0.031328622 -0.096770488 0.73100007 1.0250428e-38
-0.02973148 -0.096108608 0.72600007 1.0158596e-38
-0.028348597 -0.096108608 0.72600007 1.006568e-38
-0.026928624 -0.095976196 0.72500002 1.0063522e-38
-0.025547663 -0.095976196 0.72500002 1.006831e-38
-0.024066731 -0.095579065 0.72200012 1.1177995e-38
-0.022628602 -0.095314302 0.72000009 1.2287606e-38
-0.021227643 -0.09518192 0.7190001 1.054386e-38
-0.019858148 -0.095181935 0.7190001 8.7971906e-39
-0.018488612 -0.09518192 0.7190001 8.8879471e-39
-0.017071471 -0.094917156 0.71700001 8.8901023e-39
-0.015705781 -0.094917171 0.71700007 1.0732912e-38
-0.014320037 -0.094784774 0.71600002 1.2569263e-38
-0.01295625 -0.094784774 0.71600008 1.2662175e-38
-0.011608615 -0.094917141 0.71700001 1.2755087e-38
-0.01027147 -0.09518192 0.7190001 1.349264e-38
-0.0089019341 -0.095181935 0.7190001 1.4228398e-38
-0.0075428509 -0.095314287 0.72000003 1.873228e-38
-0.0061971475 -0.095711432 0.72300005 2.3233657e-38
-0.0048333365 -0.095976196 0.72500002 2.3325854e-38
-0.0034524132 -0.095976196 0.72500002 2.341769e-38
-0.0020714761 -0.095976196 0.72500002 2.24075e-38
-0.00069051667 -0.095976196 0.72500002 2.1391557e-38
0.00069329084 -0.096373357 0.7280001 2.0285932e-38
0.0020827916 -0.096505739 0.72900009 1.9087409e-38
0.0034713685 -0.096505739 0.72900009 2.0373466e-38
0.0048732781 -0.096770503 0.73100007 2.1576301e-38
0.006274248 -0.09690287 0.73200011 2.0476792e-38
0.0076685189 -0.096902855 0.73200011 1.9269645e-38
0.0091123646 -0.097432397 0.73600006 2.018153e-38
0.010528523 -0.097564779 0.73700011 2.1114611e-38
0.011964721 -0.097829513 0.73900002 2.1305474e-38
0.01339044 -0.097961925 0.74000007 2.1390838e-38
0.014839933 -0.098226689 0.7420001 2.1292531e-38
0.016253283 -0.098226689 0.7420001 2.1116766e-38
0.017690396 -0.098359071 0.74300009 2.2315664e-38
0.019157106 -0.09862382 0.74500012 2.341769e-38
0.020631365 -0.098888569 0.7470001 2.341769e-38
0.022083795 -0.099020965 0.74800003 2.3323702e-38
0.023508547 -0.09902095 0.74800009 1.7715638e-38
0.024999967 -0.099285744 0.75000012 1.2010687e-38
0.02653427 -0.099682875 0.75300002 9.6085859e-39
0.028042862 -0.099947639 0.75500005 7.1048565e-39
0.029480938 -0.099947624 0.75500005 7.3630079e-39
0.030960005 -0.10008001 0.75600004 7.647145e-39
0.032399986 -0.10008002 0.75600004 8.0198904e-39
0.033839963 -0.10008001 0.75600004 8.294671e-39
0.035279982 -0.10007999 0.75600004 8.0187973e-39
-0.066126689 -0.099553354 0.76300001 1.0063998e-38
-0.064673357 -0.099553354 0.76300007 9.6962623e-39
-0.063054338 -0.09929242 0.7610001 9.602238e-39
-0.06152387 -0.099161915 0.76000005 9.5096738e-39
-0.060076229 -0.099161901 0.76000005 9.5103787e-39
-0.058474332 -0.098900966 0.75800002 9.5118402e-39
-0.05688002 -0.098640017 0.75600004 9.6040597e-39
-0.055440038 -0.098640017 0.75600004 9.6969349e-39
-0.053785723 -0.098248594 0.75300002 9.8794919e-39
-0.052281927 -0.098118104 0.75200003 1.0063522e-38
-0.050849561 -0.098118104 0.75200003 1.0064239e-38
-0.049285751 -0.09785717 0.75000012 1.0156798e-38
-0.047665749 -0.097465716 0.7470001 1.0064609e-38
-0.045933358 -0.096813329 0.7420001 9.9727679e-39
-0.044400059 -0.096552394 0.74000007 9.9734798e-39
-0.042816229 -0.096160971 0.73700011 9.9742014e-39
-0.041412402 -0.096160956 0.73700005 9.7901759e-39
-0.040008593 -0.096160956 0.73700011 9.6061616e-39
-0.038604803 -0.096160956 0.73700011 9.7902068e-39
-0.037150528 -0.096030496 0.73600006 1.0066412e-38
-0.035651479 -0.095769532 0.73400003 9.8823631e-39
-0.03416004 -0.095508583 0.73200005 9.6068567e-39
-0.032720994 -0.095378108 0.73100007 9.882003e-39
-0.031328611 -0.095378123 0.73100007 1.0250424e-38
-0.02973146 -0.094725735 0.72600001 1.0526291e-38
-0.028348615 -0.09472575 0.72600007 1.0892914e-38
-0.026928591 -0.094595246 0.72500002 1.0616328e-38
-0.025547633 -0.094595246 0.72500002 1.0434206e-38
-0.024066687 -0.094203822 0.72200006 1.1268731e-38
-0.022628602 -0.093942873 0.72000003 1.2011013e-38
-0.021227632 -0.093812399 0.7190001 1.0267636e-38
-0.019858133 -0.093812399 0.7190001 8.5213254e-39
-0.018488597 -0.093812384 0.7190001 8.5202464e-39
-0.017071472 -0.093551449 0.71700007 8.6124434e-39
-0.015705748 -0.093551449 0.71700001 1.0547089e-38
-0.01432005 -0.093420945 0.71600008 1.2568905e-38
-0.012956246 -0.09342096 0.71600002 1.247635e-38
-0.011640974 -0.093812399 0.71900004 1.2476352e-38
-0.010271474 -0.093812384 0.7190001 1.3216058e-38
-0.0089019397 -0.093812399 0.71900004 1.3951455e-38
-0.0075428882 -0.093942873 0.72000009 1.8270589e-38
-0.0061971569 -0.094334312 0.72300005 2.2591166e-38
-0.0048200437 -0.094334297 0.72300005 2.3050348e-38
-0.0034524039 -0.094595261 0.72500002 2.341769e-38
-0.0020657391 -0.094334297 0.72300005 2.2590094e-38
-0.00069048314 -0.094595231 0.72500002 2.1851453e-38
0.00069328898 -0.094986685 0.7280001 2.0376692e-38
0.0020827972 -0.095117159 0.72900009 1.8989832e-38
0.003471374 -0.095117144 0.72900009 2.0007556e-38
0.0048732883 -0.095378123 0.73100007 2.1118916e-38
0.0062742452 -0.095508583 0.73200011 2.0012233e-38
0.0076685133 -0.095508598 0.73200011 1.8898355e-38
0.0091123572 -0.096030511 0.73600006 1.9817771e-38
0.010528524 -0.096160971 0.73700011 2.0657224e-38
0.011932372 -0.096160956 0.73700005 2.1210409e-38
0.013372359 -0.096421905 0.73900002 2.1848579e-38
0.01479995 -0.096552394 0.74000007 2.1571621e-38
0.016253293 -0.096813343 0.7420001 2.1300795e-38
0.017690416 -0.096943833 0.74300003 2.2314588e-38
0.019157106 -0.097204797 0.74500012 2.341769e-38
0.020576164 -0.097204782 0.74500006 2.341769e-38
0.022083784 -0.097596206 0.74800009 2.341769e-38
0.023508536 -0.097596221 0.74800009 1.7808191e-38
0.024999974 -0.097857155 0.75000012 1.2290502e-38
0.026534304 -0.098248579 0.75300002 9.7922611e-39
0.028042838 -0.098509558 0.75500011 7.2856576e-39
0.029480953 -0.098509543 0.75500005 7.2765492e-39
0.030959988 -0.098640032 0.75600004 7.3741482e-39
0.032399964 -0.098640002 0.75600004 7.7429489e-39
0.033839948 -0.098640017 0.75600004 8.1106356e-39
0.035373271 -0.098900981 0.75800008 7.9265905e-39
-0.064673364 -0.098100014 0.76300007 9.0508789e-39
-0.063220024 -0.098100014 0.76300001 9.2330855e-39
-0.061604809 -0.09784288 0.7610001 9.4178229e-39
-0.060076267 -0.097714297 0.76000011 9.5100087e-39
-0.058474325 -0.097457163 0.75800008 9.5111003e-39
-0.056880035 -0.097200014 0.75600004 9.6947867e-39
-0.055440016 -0.097200014 0.75600004 9.8780808e-39
-0.053785726 -0.096814297 0.75300002 1.0061734e-38
-0.052281938 -0.096685715 0.75200003 1.0155361e-38
-0.050849535 -0.096685745 0.75200003 1.0247554e-38
-0.049417168 -0.09668573 0.75200009 1.0246848e-38
-0.047729559 -0.096171446 0.74800003 9.9709953e-39
-0.045933388 -0.095400013 0.7420001 9.6961922e-39
-0.04440007 -0.095142879 0.74000007 9.6965384e-39
-0.042932417 -0.095014296 0.73900002 9.6965412e-39
-0.041412409 -0.094757162 0.73700011 9.6043483e-39
-0.04000859 -0.094757132 0.73700005 9.4217732e-39
-0.038552437 -0.094628595 0.73600012 9.6054638e-39
-0.037150532 -0.09462858 0.73600006 9.6987132e-39
-0.035651445 -0.094371431 0.73400003 9.513945e-39
-0.034160022 -0.094114281 0.73200011 9.238098e-39
-0.032721009 -0.093985744 0.73100007 9.6958587e-39
-0.0312429 -0.093728609 0.72900003 1.0158968e-38
-0.029731482 -0.093342893 0.72600007 1.0895075e-38
-0.028348638 -0.093342893 0.72600007 1.1629396e-38
-0.026928583 -0.093214281 0.72500002 1.1258462e-38
-0.025547661 -0.093214296 0.72500002 1.0802971e-38
-0.024100032 -0.092957161 0.72300005 1.1267271e-38
-0.022628576 -0.09257143 0.72000003 1.1734057e-38
-0.021227639 -0.092442878 0.71900004 9.9935646e-39
-0.019858142 -0.092442892 0.7190001 8.2461776e-39
-0.01848858 -0.092442878 0.7190001 8.2425875e-39
-0.017071461 -0.092185743 0.71700001 8.2465364e-39
-0.015705753 -0.092185743 0.71700001 1.0457047e-38
-0.014320049 -0.092057146 0.71600002 1.2567827e-38
-0.01295622 -0.092057146 0.71600002 1.2382004e-38
-0.011640958 -0.092442863 0.71900004 1.2110802e-38
-0.010271461 -0.092442892 0.7190001 1.2943062e-38
-0.0089019248 -0.092442878 0.71900004 1.3675232e-38
-0.0075428658 -0.092571445 0.72000009 1.7807108e-38
-0.0061971457 -0.092957146 0.72300005 2.1946167e-38
-0.0048200306 -0.092957176 0.72300005 2.2683006e-38
-0.0034523965 -0.093214296 0.72500002 2.341769e-38
-0.002065728 -0.092957161 0.72300005 2.2866677e-38
-0.00069051294 -0.093214281 0.72500002 2.2219873e-38
0.00069137232 -0.093342878 0.72600007 2.0562876e-38
0.0020828047 -0.09372858 0.72900003 1.8904814e-38
0.0034809276 -0.093985744 0.73100001 1.9730973e-38
0.0048733116 -0.093985729 0.73100001 2.0564316e-38
0.006274262 -0.094114296 0.73200011 1.955521e-38
0.0076685096 -0.094114296 0.73200011 1.853568e-38
0.0091123516 -0.09462858 0.73600006 1.9350707e-38
0.010514238 -0.094628595 0.73600012 2.0195539e-38
0.011932375 -0.094757147 0.73700005 2.1213638e-38
0.013372342 -0.095014296 0.73900002 2.2218798e-38
0.014799942 -0.095142893 0.74000007 2.1844273e-38
0.016253304 -0.095400013 0.7420001 2.1392996e-38
0.017690398 -0.09552861 0.74300009 2.24075e-38
0.019157106 -0.09578573 0.74500012 2.341769e-38
0.020631399 -0.096042864 0.74700004 2.341769e-38
0.022083772 -0.096171461 0.74800009 2.3415896e-38
0.023508562 -0.096171431 0.74800003 1.7992221e-38
0.02499998 -0.09642861 0.75000012 1.2565651e-38
0.026534256 -0.096814297 0.75300002 9.983827e-39
0.027968567 -0.096814282 0.75300002 7.3814378e-39
0.029480929 -0.097071432 0.75500011 7.1757397e-39
0.030960012 -0.097200014 0.75600004 7.0035734e-39
0.032399952 -0.097200014 0.75600004 7.4670809e-39
0.033839971 -0.097200014 0.75600004 7.8347732e-39
0.035373308 -0.097457163 0.75800008 7.7422104e-39
-0.06484288 -0.096900024 0.76500005 9.1416144e-39
-0.063220009 -0.096646704 0.76300001 9.5092913e-39
-0.061604835 -0.096393354 0.7610001 9.9688219e-39
-0.060076244 -0.096266694 0.76000011 9.785504e-39
-0.058474325 -0.096013345 0.75800008 9.6943902e-39
-0.057030514 -0.09601336 0.75800002 1.0061378e-38
-0.055440053 -0.095760025 0.75600004 1.0334733e-38
-0.053785756 -0.095380016 0.75300002 1.0521991e-38
-0.052281916 -0.095253341 0.75200003 1.0798931e-38
-0.050849549 -0.095253356 0.75200009 1.0613464e-38
-0.049417168 -0.095253341 0.75200003 1.0519853e-38
-0.047729567 -0.094746687 0.74800009 1.1625124e-38
-0.045995295 -0.094113342 0.74300003 1.2726413e-38
-0.044400074 -0.093733363 0.74000007 1.226865e-38
-0.042932395 -0.093606688 0.73900002 1.1899155e-38
-0.041412409 -0.093353339 0.73700011 1.1626877e-38
-0.040008582 -0.093353339 0.73700005 1.1441795e-38
-0.0386048 -0.093353353 0.73700005 1.1810953e-38
-0.037150521 -0.093226694 0.73600012 1.2179708e-38
-0.035651468 -0.092973344 0.73400009 1.2179325e-38
-0.034160022 -0.092720024 0.73200005 1.2268329e-38
-0.032720961 -0.09259335 0.73100001 1.2455984e-38
-0.0313286 -0.09259335 0.73100001 1.264106e-38
-0.029731482 -0.09196002 0.72600007 1.3102361e-38
-0.028348638 -0.09196002 0.72600007 1.3562609e-38
-0.026928589 -0.091833331 0.72500002 1.2272959e-38
-0.025547627 -0.091833346 0.72500002 1.0986271e-38
-0.024100017 -0.091580011 0.72300005 1.1359797e-38
-0.022691475 -0.091453351 0.72200012 1.1735121e-38
-0.021257171 -0.091200016 0.72000009 1.0176518e-38
-0.019858129 -0.091073357 0.7190001 8.6142371e-39
-0.018488593 -0.091073357 0.71900004 8.4280522e-39
-0.017071467 -0.090820022 0.71700001 8.2458189e-39
-0.015705777 -0.090820037 0.71700007 1.03627e-38
-0.014320062 -0.090693347 0.71600008 1.2475274e-38
-0.01297434 -0.090820022 0.71700007 1.2383796e-38
-0.011641006 -0.091073342 0.7190001 1.229519e-38
-0.010271468 -0.091073357 0.7190001 1.2665045e-38
-0.0089019099 -0.091073357 0.71900004 1.3030232e-38
-0.007542864 -0.091200016 0.72000003 1.7073502e-38
-0.006197155 -0.091580011 0.72300005 2.11218e-38
-0.00482004 -0.091580026 0.72300005 2.2223829e-38
-0.0034524058 -0.091833346 0.72500002 2.341769e-38
-0.0020657373 -0.091580011 0.72300005 2.3049631e-38
-0.00069048314 -0.091833331 0.72500002 2.267941e-38
0.00069421844 -0.092340015 0.72900009 2.1942205e-38
0.0020827954 -0.09234003 0.72900009 2.1202138e-38
0.0034809145 -0.09259335 0.73100001 2.1573421e-38
0.004879951 -0.092720009 0.73200011 2.203512e-38
0.0062742583 -0.092720009 0.73200011 2.1484474e-38
0.0076894718 -0.092973344 0.73400003 2.1021341e-38
0.0091123451 -0.093226679 0.73600006 2.1388313e-38
0.010528552 -0.093353353 0.73700011 2.1855755e-38
0.01193234 -0.093353353 0.73700011 2.2315664e-38
0.013372364 -0.093606673 0.73900002 2.2866677e-38
0.014799935 -0.093733363 0.74000007 2.2587941e-38
0.016253313 -0.093986697 0.7420001 2.2406782e-38
0.017690416 -0.094113372 0.74300003 2.2958513e-38
0.019157106 -0.094366707 0.74500012 2.341769e-38
0.020631379 -0.094620012 0.7470001 2.341769e-38
0.0220838 -0.094746701 0.74800003 2.341769e-38
0.023508549 -0.094746701 0.74800009 1.8361357e-38
0.024999943 -0.095000021 0.75000006 1.3209936e-38
0.026534252 -0.095380001 0.75300002 1.0252879e-38
0.028042868 -0.09563335 0.75500011 7.2838611e-39
0.029480942 -0.095633365 0.75500011 7.2776141e-39
0.030959953 -0.09576001 0.75600004 7.3748573e-39
0.032399975 -0.095760025 0.75600004 7.6507491e-39
0.033929482 -0.096013345 0.75800008 7.834776e-39
0.035373315 -0.096013345 0.75800008 7.7429363e-39
-0.06484291 -0.095442869 0.7650001 9.1412542e-39
-0.063220024 -0.095193349 0.76300001 9.7851509e-39
-0.061604805 -0.094943829 0.76100004 1.0429431e-38
-0.060076248 -0.094819061 0.76000005 1.0152847e-38
-0.05847434 -0.094569542 0.75800008 9.877701e-39
-0.056880049 -0.094320007 0.75600004 1.0337599e-38
-0.05536668 -0.094195254 0.75500005 1.0798929e-38
-0.053785764 -0.093945719 0.75300002 1.1076229e-38
-0.052351471 -0.093945734 0.75300002 1.1350669e-38
-0.050849546 -0.093820952 0.75200003 1.1071586e-38
-0.049417183 -0.093820952 0.75200003 1.0798229e-38
-0.047857158 -0.093571447 0.75000006 1.3283167e-38
-0.045995314 -0.09269812 0.74300009 1.5762717e-38
-0.044520039 -0.092573352 0.7420001 1.4935473e-38
-0.042932414 -0.09219905 0.73900002 1.4017842e-38
-0.041524816 -0.09219905 0.73900002 1.3745211e-38
-0.040008623 -0.091949545 0.73700011 1.3467196e-38
-0.038604796 -0.091949545 0.73700005 1.4016778e-38
-0.037200987 -0.09194953 0.73700011 1.4570652e-38
-0.035651453 -0.091575243 0.73400003 1.4939421e-38
-0.034160029 -0.091325723 0.73200005 1.530642e-38
-0.032720976 -0.091200955 0.73100001 1.5217829e-38
-0.031328611 -0.09120097 0.73100001 1.5124193e-38
-0.029731467 -0.090577148 0.72600001 1.531001e-38
-0.028348621 -0.090577163 0.72600007 1.549189e-38
-0.026928585 -0.09045238 0.72500002 1.3284971e-38
-0.025547663 -0.09045238 0.72500002 1.1080259e-38
-0.024100028 -0.09020289 0.72300005 1.1358334e-38
-0.022691492 -0.090078108 0.72200012 1.1641119e-38
-0.021257168 -0.089828588 0.72000009 1.0270506e-38
-0.019858133 -0.089703821 0.71900004 8.8897436e-39
-0.018488577 -0.089703806 0.71900004 8.5177353e-39
-0.017071471 -0.089454301 0.71700007 8.1536247e-39
-0.015705742 -0.089454316 0.71700001 1.0271941e-38
-0.014320035 -0.089329518 0.71600008 1.2291962e-38
-0.012956229 -0.089329533 0.71600002 1.2383078e-38
-0.011608615 -0.089454316 0.71700007 1.2478503e-38
-0.010271455 -0.089703806 0.7190001 1.2483167e-38
-0.0089019584 -0.089703836 0.7190001 1.2388101e-38
-0.007542877 -0.089828603 0.72000009 1.6334154e-38
-0.0061886092 -0.090078123 0.72200006 2.0200575e-38
-0.0048200288 -0.090202875 0.72300011 2.1856487e-38
-0.0034523965 -0.09045238 0.72500002 2.341769e-38
-0.0020657242 -0.090202875 0.72300005 2.3234019e-38
-0.00069051294 -0.090452395 0.72500002 2.3049268e-38
0.00069139095 -0.090577163 0.72600007 2.3232934e-38
0.0020828028 -0.090951435 0.72900009 2.341445e-38
0.0034809229 -0.09120097 0.73100007 2.3417677e-38
0.0048799464 -0.091325738 0.73200011 2.3416605e-38
0.0062742555 -0.091325723 0.73200011 2.3417687e-38
0.0076894849 -0.091575272 0.73400003 2.3415529e-38
0.0091123627 -0.091824792 0.73600006 2.3417676e-38
0.010514264 -0.091824777 0.73600006 2.3417683e-38
0.011932342 -0.091949545 0.73700011 2.341769e-38
0.013372346 -0.09219905 0.73900002 2.341769e-38
0.014799966 -0.092323832 0.74000007 2.341769e-38
0.016253265 -0.092573352 0.7420001 2.341769e-38
0.0176904 -0.09269812 0.74300009 2.341769e-38
0.019157104 -0.09294764 0.74500012 2.341769e-38
0.020631397 -0.093197145 0.7470001 2.341769e-38
0.022083789 -0.093321927 0.74800009 2.341769e-38
0.023508532 -0.093321927 0.74800003 1.8641885e-38
0.024999946 -0.093571432 0.75000012 1.3851719e-38
0.026499014 -0.093820967 0.75200003 1.0533792e-38
0.028042834 -0.094195254 0.75500005 7.1088123e-39
0.029480956 -0.094195254 0.75500011 7.4602089e-39
0.030959975 -0.094320022 0.75600004 7.7404042e-39
0.03248566 -0.094569542 0.75800008 7.8344159e-39
0.03392949 -0.094569542 0.75800008 7.8351277e-39
0.035373271 -0.094569542 0.75800002 7.7436454e-39
-0.064842902 -0.093985729 0.76500005 1.0795009e-38
-0.063385762 -0.093985744 0.7650001 1.0981159e-38
-0.061604835 -0.093494318 0.7610001 1.1259537e-38
-0.060076267 -0.093371458 0.76000011 1.1257026e-38
-0.05847434 -0.093125753 0.75800008 1.1346709e-38
-0.056880027 -0.092880003 0.75600004 1.1717638e-38
-0.055366665 -0.092757158 0.75500005 1.1997449e-38
-0.053785726 -0.092511453 0.75300002 1.2363356e-38
-0.052351438 -0.092511453 0.75300002 1.2822556e-38
-0.050849557 -0.092388593 0.75200003 1.2452726e-38
-0.049417157 -0.092388578 0.75200003 1.2083569e-38
-0.047857173 -0.092142887 0.75000006 1.3190955e-38
-0.046119116 -0.091528587 0.74500012 1.4299442e-38
-0.044580083 -0.091282882 0.74300009 1.4388053e-38
-0.042990509 -0.090914302 0.74000007 1.4480976e-38
-0.041524794 -0.090791427 0.73900002 1.4480629e-38
-0.040117178 -0.090791442 0.73900008 1.4572449e-38
-0.03860477 -0.090545736 0.73700005 1.4480597e-38
-0.037200984 -0.090545721 0.73700011 1.4483473e-38
-0.035748631 -0.090422891 0.73600006 1.494194e-38
-0.034253359 -0.090177156 0.73400003 1.5402547e-38
-0.032765765 -0.089931466 0.73200011 1.4390197e-38
-0.031328604 -0.089808591 0.73100007 1.3378946e-38
-0.029813405 -0.089440025 0.7280001 1.4482422e-38
-0.02834864 -0.089194305 0.72600007 1.5677373e-38
-0.026965756 -0.089194305 0.72600001 1.356194e-38
-0.025547652 -0.08907143 0.72500002 1.153836e-38
-0.024100017 -0.08882574 0.72300005 1.1632735e-38
-0.022691451 -0.088702865 0.72200006 1.1730788e-38
-0.021257145 -0.08845716 0.72000003 1.0267636e-38
-0.019885726 -0.088457145 0.72000009 8.890461e-39
-0.018488623 -0.0883343 0.7190001 8.426976e-39
-0.017119087 -0.0883343 0.71900004 7.9667251e-39
-0.015705768 -0.088088594 0.71700001 1.0086118e-38
-0.014320069 -0.087965705 0.71600008 1.2293038e-38
-0.012956244 -0.087965719 0.71600008 1.2107931e-38
-0.011608602 -0.088088594 0.71700001 1.2018249e-38
-0.01024289 -0.088088579 0.71700007 1.2572492e-38
-0.0088771628 -0.088088579 0.71700001 1.3214261e-38
-0.0075428751 -0.08845716 0.72000003 1.6430295e-38
-0.0061886054 -0.08870288 0.72200012 1.9652432e-38
-0.0048200381 -0.088825725 0.72300005 2.1489145e-38
-0.0034524039 -0.08907143 0.72500002 2.341769e-38
-0.0020657335 -0.088825725 0.72300005 2.3325854e-38
-0.00069050735 -0.08907143 0.72500002 2.3234019e-38
0.0006932629 -0.08944004 0.7280001 2.3325496e-38
0.0020828093 -0.089562871 0.72900003 2.341769e-38
0.0034809089 -0.089808591 0.73100007 2.341769e-38
0.004879965 -0.089931436 0.73200011 2.341769e-38
0.0062914067 -0.090177156 0.73400003 2.341769e-38
0.0076894839 -0.090177171 0.73400009 2.341769e-38
0.0091123562 -0.090422891 0.73600006 2.341769e-38
0.01052856 -0.090545736 0.73700005 2.341769e-38
0.011932347 -0.090545736 0.73700005 2.341769e-38
0.013372367 -0.090791427 0.73900002 2.341769e-38
0.014799957 -0.090914302 0.74000007 2.3325854e-38
0.016253274 -0.091160007 0.7420001 2.3234019e-38
0.017690418 -0.091282867 0.74300003 2.3050348e-38
0.019157104 -0.091528602 0.74500012 2.2866677e-38
0.020631354 -0.091774307 0.7470001 2.1305474e-38
0.022054242 -0.091774292 0.7470001 1.974427e-38
0.023508521 -0.091897167 0.74800003 1.5604498e-38
0.024999956 -0.092142873 0.75000012 1.1460063e-38
0.02649904 -0.092388563 0.75200003 9.3352906e-39
0.028042849 -0.092757158 0.75500005 7.1981493e-39
0.029519975 -0.092879988 0.75600004 7.3726782e-39
0.03104187 -0.093125723 0.75800008 7.6492833e-39
0.032485701 -0.093125738 0.75800008 7.7425762e-39
0.03392949 -0.093125738 0.75800008 7.8354795e-39
0.035373278 -0.093125738 0.75800008 7.7432768e-39
-0.063385755 -0.092528589 0.76500005 1.2269008e-38
-0.061766692 -0.092286684 0.76300007 1.1993862e-38
-0.060076263 -0.09192384 0.76000005 1.245304e-38
-0.058628626 -0.091923825 0.76000011 1.2819664e-38
-0.056880027 -0.091440015 0.75600004 1.3005487e-38
-0.055440038 -0.091440015 0.75600004 1.3189158e-38
-0.053928573 -0.091319062 0.75500005 1.3740171e-38
-0.05235146 -0.091077156 0.75300002 1.4200078e-38
-0.050849535 -0.090956189 0.75200003 1.3833106e-38
-0.04941719 -0.090956204 0.75200003 1.3372841e-38
-0.047857199 -0.090714328 0.75000012 1.3098042e-38
-0.046242896 -0.090351425 0.74700004 1.2733214e-38
-0.044580065 -0.089867644 0.74300003 1.3836319e-38
-0.043106735 -0.089746691 0.7420001 1.4847605e-38
-0.041581001 -0.089504786 0.74000007 1.5307878e-38
-0.040117156 -0.089383818 0.73900002 1.5675198e-38
-0.038709562 -0.089383833 0.73900002 1.5033043e-38
-0.037200984 -0.089141913 0.73700005 1.4297649e-38
-0.035748612 -0.08902099 0.73600012 1.4849746e-38
-0.034253385 -0.088779069 0.73400009 1.5401484e-38
-0.032765768 -0.088537164 0.73200011 1.3469359e-38
-0.031328619 -0.088416211 0.73100007 1.1540807e-38
-0.029813383 -0.088053368 0.7280001 1.3655527e-38
-0.028426692 -0.088053353 0.7280001 1.5768468e-38
-0.026965752 -0.087811448 0.72600007 1.3838135e-38
-0.025547624 -0.08769048 0.72500002 1.1907111e-38
-0.024100024 -0.087448604 0.72300005 1.1903197e-38
-0.022691472 -0.087327637 0.72200006 1.1822253e-38
-0.021257184 -0.087085716 0.72000009 1.0361624e-38
-0.019885723 -0.087085716 0.72000003 8.7971892e-39
-0.018488606 -0.086964794 0.7190001 8.3329867e-39
-0.017119072 -0.086964779 0.7190001 7.7848464e-39
-0.015705774 -0.086722873 0.71700007 9.995717e-39
-0.014340046 -0.086722888 0.71700001 1.219905e-38
-0.012974334 -0.086722888 0.71700007 1.1828835e-38
-0.011608605 -0.086722858 0.71700001 1.1466518e-38
-0.010242918 -0.086722873 0.71700007 1.2757957e-38
-0.0089019509 -0.086964794 0.7190001 1.395038e-38
-0.0075428528 -0.087085731 0.72000003 1.6520338e-38
-0.0061886241 -0.087327637 0.72200006 1.9007072e-38
-0.0048200251 -0.087448604 0.72300011 2.1213638e-38
-0.0034523946 -0.08769048 0.72500002 2.341769e-38
-0.0020657205 -0.087448604 0.72300005 2.341769e-38
-0.00069051108 -0.08769048 0.72500002 2.341769e-38
0.00069328339 -0.088053368 0.7280001 2.341769e-38
0.0020828 -0.088174291 0.72900009 2.341769e-38
0.0034808968 -0.088416211 0.73100007 2.341769e-38
0.0048799594 -0.088537164 0.73200011 2.341769e-38
0.0062742461 -0.088537149 0.73200005 2.341769e-38
0.0076894979 -0.088779055 0.73400003 2.341769e-38
0.0091123516 -0.08902096 0.73600006 2.341769e-38
0.010514253 -0.089020975 0.73600006 2.341769e-38
0.01193235 -0.089141928 0.73700005 2.341769e-38
0.013372351 -0.089383803 0.73900002 2.3417689e-38
0.01479995 -0.089504786 0.74000007 2.3234016e-38
0.016253285 -0.089746661 0.7420001 2.3048194e-38
0.0176904 -0.089867629 0.74300009 2.2683006e-38
0.01915708 -0.090109549 0.74500012 2.2219524e-38
0.020631373 -0.09035144 0.74700004 1.910142e-38
0.022083782 -0.090472408 0.74800009 1.5968967e-38
0.023571404 -0.090714298 0.75000006 1.2571054e-38
0.024999963 -0.090714313 0.75000012 9.0730558e-39
0.026499026 -0.090956219 0.75200003 8.1489626e-39
0.028042864 -0.091319047 0.75500005 7.2010234e-39
0.029520001 -0.09144 0.75600004 7.3665896e-39
0.031123765 -0.09192384 0.76000005 7.5567388e-39
0.032571401 -0.091923825 0.76000011 7.7432993e-39
0.034018956 -0.091923825 0.76000011 7.8351277e-39
0.035466593 -0.09192384 0.76000011 7.834762e-39
-0.063385732 -0.091071434 0.76500005 1.2083544e-38
-0.061766703 -0.090833344 0.76300007 1.208498e-38
-0.060076244 -0.090476207 0.76000005 1.245304e-38
-0.058628611 -0.090476207 0.76000005 1.2820382e-38
-0.057030525 -0.090238117 0.75800008 1.300441e-38
-0.055440016 -0.090000011 0.75600004 1.3187005e-38
-0.053928599 -0.089880981 0.75500011 1.3557575e-38
-0.052351467 -0.08964286 0.75300002 1.4017111e-38
-0.050849572 -0.089523815 0.75200003 1.3833799e-38
-0.049417164 -0.0895238 0.75200003 1.3650128e-38
-0.047857191 -0.089285739 0.75000012 1.3557934e-38
-0.046119083 -0.088690497 0.74500006 1.3464665e-38
-0.044700064 -0.088690512 0.74500012 1.4110743e-38
-0.043164812 -0.088452406 0.74300009 1.4754698e-38
-0.041581009 -0.08809527 0.74000007 1.4939473e-38
-0.040117171 -0.087976195 0.73900002 1.5124191e-38
-0.03870954 -0.08797621 0.73900002 1.4663906e-38
-0.037200976 -0.087738104 0.73700005 1.4202226e-38
-0.035797168 -0.087738119 0.73700011 1.4756833e-38
-0.034346715 -0.087619059 0.73600012 1.5312532e-38
-0.032765772 -0.087142877 0.73200011 1.3377552e-38
-0.031371467 -0.087142862 0.73200011 1.1352478e-38
-0.029854344 -0.086785711 0.72900009 1.3471122e-38
-0.028426692 -0.086666681 0.72800004 1.5586567e-38
-0.026965775 -0.086428605 0.72600007 1.3746987e-38
-0.02554765 -0.08630953 0.72500002 1.1909596e-38
-0.024166688 -0.086309515 0.72500002 1.1907479e-38
-0.022691466 -0.085952409 0.72200012 1.2006989e-38
-0.021316236 -0.085952394 0.72200012 1.0450948e-38
-0.019885741 -0.085714303 0.72000009 8.9815777e-39
-0.018514318 -0.085714303 0.72000009 8.3354964e-39
-0.017119084 -0.085595243 0.71900004 7.6908585e-39
-0.015749561 -0.085595258 0.7190001 9.9013704e-39
-0.01434005 -0.085357167 0.71700007 1.2106496e-38
-0.012974323 -0.085357167 0.71700001 1.1555121e-38
-0.011640991 -0.085595243 0.7190001 1.1097381e-38
-0.010271433 -0.085595258 0.7190001 1.275688e-38
-0.008901936 -0.085595258 0.7190001 1.4502112e-38
-0.0075428919 -0.085714288 0.72000009 1.5698123e-38
-0.0061886203 -0.085952379 0.72200012 1.689701e-38
-0.0048200362 -0.086071454 0.72300005 1.9376928e-38
-0.0034524244 -0.08630953 0.72500002 2.1764651e-38
-0.0020657317 -0.086071439 0.72300005 2.1029967e-38
-0.00069050363 -0.086309515 0.72500002 2.0203448e-38
0.00069328153 -0.086666696 0.7280001 1.956024e-38
0.0020828075 -0.086785726 0.72900009 1.8917751e-38
0.0034809434 -0.087023832 0.73100001 1.7813214e-38
0.0048799566 -0.087142877 0.73200011 1.6805534e-38
0.0062913955 -0.087380983 0.73400003 1.6342769e-38
0.007710421 -0.087619059 0.73600006 1.5887179e-38
0.0091123441 -0.087619074 0.73600006 1.5515533e-38
0.010528527 -0.087738119 0.73700011 1.5244331e-38
0.011932375 -0.087738119 0.73700011 1.4595743e-38
0.013372373 -0.087976195 0.73900002 1.3958631e-38
0.01479994 -0.088095255 0.74000007 1.3858542e-38
0.016209461 -0.08809527 0.74000007 1.3766351e-38
0.01769042 -0.088452406 0.74300009 1.3670213e-38
0.01915708 -0.088690512 0.74500012 1.3574071e-38
0.020631388 -0.088928573 0.74700004 1.2563162e-38
0.02208377 -0.089047633 0.74800009 1.1541132e-38
0.023571411 -0.089285739 0.75000006 1.063246e-38
0.024999971 -0.089285724 0.75000012 9.7137505e-39
0.026499052 -0.089523815 0.75200003 8.5998892e-39
0.028079964 -0.090000011 0.75600004 7.4682846e-39
0.029598048 -0.090238132 0.75800008 7.3705455e-39
0.031123785 -0.090476207 0.76000005 7.2844679e-39
0.032571383 -0.090476222 0.76000011 7.5596339e-39
0.034018978 -0.090476222 0.76000011 7.8354935e-39
0.0355133 -0.090595253 0.76100004 7.8344103e-39
-0.063385762 -0.089614294 0.76500005 1.198884e-38
-0.061766692 -0.089380033 0.76300007 1.2084263e-38
-0.060313351 -0.089380004 0.76300001 1.245304e-38
-0.058705747 -0.089145727 0.76100004 1.2820382e-38
-0.057030503 -0.088794313 0.75800002 1.3004411e-38
-0.055440024 -0.088560008 0.75600004 1.3190249e-38
-0.05392861 -0.088442869 0.75500005 1.3468998e-38
-0.052351467 -0.088208593 0.75300008 1.3742698e-38
-0.050849583 -0.088091426 0.75200009 1.3834164e-38
-0.049417175 -0.08809144 0.75200003 1.3834548e-38
-0.047857188 -0.087857164 0.75000012 1.4019321e-38
-0.0462429 -0.087505721 0.7470001 1.4202964e-38
-0.044700064 -0.087271459 0.74500012 1.4478803e-38
-0.043164812 -0.087037168 0.74300003 1.4662847e-38
-0.041693382 -0.086920001 0.7420001 1.4571384e-38
-0.0401715 -0.086685739 0.74000007 1.448025e-38
-0.038709559 -0.086568601 0.73900002 1.4296565e-38
-0.037301939 -0.086568587 0.73900008 1.4111462e-38
-0.035797164 -0.086334296 0.73700011 1.4663197e-38
-0.034346722 -0.086217158 0.73600012 1.521494e-38
-0.03285528 -0.085982881 0.73400009 1.3191703e-38
-0.031371471 -0.085748591 0.73200005 1.1172023e-38
-0.029854335 -0.085397162 0.72900003 1.3290321e-38
-0.028426737 -0.085280038 0.7280001 1.5309267e-38
-0.027040042 -0.085280024 0.7280001 1.3561881e-38
-0.02558291 -0.085045747 0.72600007 1.1813799e-38
-0.02416672 -0.084928565 0.72500002 1.1994263e-38
-0.02272287 -0.084694289 0.72300005 1.2097733e-38
-0.021345757 -0.084694289 0.72300011 1.0637131e-38
-0.019885737 -0.084342889 0.72000003 9.1652501e-39
-0.018514318 -0.08434286 0.72000003 8.428771e-39
-0.017142873 -0.084342875 0.72000009 7.6029704e-39
-0.01574957 -0.084225751 0.7190001 9.8116873e-39
-0.014340016 -0.083991446 0.71700001 1.1923544e-38
-0.012974326 -0.083991446 0.71700007 1.1279975e-38
-0.011608598 -0.083991446 0.71700001 1.0641075e-38
-0.010271481 -0.084225737 0.7190001 1.2853379e-38
-0.0089019453 -0.084225722 0.7190001 1.5054919e-38
-0.0075428677 -0.08434286 0.72000003 1.4964158e-38
-0.0061886017 -0.08457718 0.72200006 1.4781204e-38
-0.0048200455 -0.084694304 0.72300005 1.744838e-38
-0.0034523946 -0.08492858 0.72500002 2.0106946e-38
-0.0020657186 -0.084694304 0.72300005 1.8549687e-38
-0.00069051294 -0.08492858 0.72500002 1.6983461e-38
0.00069327781 -0.085280024 0.7280001 1.5701352e-38
0.0020828131 -0.085397147 0.72900003 1.440776e-38
0.0034809313 -0.085631453 0.73100007 1.2295542e-38
0.0048799519 -0.085748591 0.73200011 1.0089338e-38
0.0062913927 -0.085982867 0.73400009 9.1688318e-39
0.0076894867 -0.085982867 0.73400003 8.2508355e-39
0.0091123367 -0.086217172 0.73600006 7.6044012e-39
0.010514262 -0.086217172 0.73600006 6.9633449e-39
0.011932378 -0.086334296 0.73700005 5.6697559e-39
0.013372355 -0.086568587 0.73900002 4.3901574e-39
0.014799935 -0.086685725 0.74000007 4.3829813e-39
0.016209453 -0.086685725 0.74000007 4.3880078e-39
0.0176904 -0.087037168 0.74300009 4.6574186e-39
0.019208543 -0.087505721 0.74700004 4.9365124e-39
0.020658985 -0.087622888 0.74800009 6.0360259e-39
0.022083774 -0.087622888 0.74800003 7.1398455e-39
0.023571417 -0.087857164 0.75000006 8.7032013e-39
0.024999976 -0.087857164 0.75000012 1.02662e-38
0.026498992 -0.088091426 0.75200003 9.0676762e-39
0.028079987 -0.088560008 0.75600004 7.75383e-39
0.029598089 -0.088794328 0.75800008 7.3633596e-39
0.031123724 -0.089028575 0.76000005 7.0049985e-39
0.03257136 -0.089028589 0.76000011 7.3745055e-39
0.034063794 -0.089145742 0.7610001 7.742572e-39
0.035513293 -0.089145727 0.7610001 7.8336984e-39
0.03696283 -0.089145727 0.76100004 7.8344145e-39
-0.063385755 -0.088157155 0.76500005 1.171764e-38
-0.061766706 -0.087926693 0.76300007 1.2085699e-38
-0.060313359 -0.087926678 0.76300001 1.1900592e-38
-0.058705769 -0.087696187 0.76100004 1.1717638e-38
-0.057030503 -0.08735048 0.75800008 1.1810909e-38
-0.055440031 -0.087120004 0.75600004 1.1906359e-38
-0.053928591 -0.087004788 0.75500005 1.1905311e-38
-0.052351438 -0.086774297 0.75300002 1.1996764e-38
-0.050849557 -0.086659051 0.75200003 1.1996382e-38
-0.04941719 -0.086659066 0.75200009 1.2090063e-38
-0.04785718 -0.08642859 0.75000012 1.218195e-38
-0.046242904 -0.086082853 0.74700004 1.2369154e-38
-0.044700064 -0.085852422 0.74500012 1.2366586e-38
-0.043164834 -0.085621931 0.74300003 1.2459139e-38
-0.041693375 -0.08550667 0.7420001 1.2365509e-38
-0.040171467 -0.085276194 0.74000001 1.2275108e-38
-0.038709573 -0.085160978 0.73900002 1.2090002e-38
-0.03720101 -0.084930502 0.73700011 1.1998526e-38
-0.035797164 -0.084930472 0.73700005 1.2273315e-38
-0.03434673 -0.084815241 0.73600012 1.2457349e-38
-0.032855265 -0.08458478 0.73400003 1.1629397e-38
-0.031371452 -0.084354304 0.73200011 1.0802157e-38
-0.029936237 -0.084239073 0.73100001 1.1724095e-38
-0.028465793 -0.084008567 0.72900009 1.2737514e-38
-0.027040046 -0.083893351 0.72800004 1.1538629e-38
-0.02558291 -0.08366289 0.72600007 1.0432664e-38
-0.024200026 -0.08366289 0.72600007 1.0986911e-38
-0.022722881 -0.083317153 0.72300005 1.1639617e-38
-0.021345768 -0.083317153 0.72300005 1.0541708e-38
-0.019940987 -0.083201908 0.72200006 9.5311585e-39
-0.018514292 -0.082971446 0.72000003 8.6128036e-39
-0.017142873 -0.082971431 0.72000003 7.6940899e-39
-0.015749555 -0.082856201 0.7190001 9.7176994e-39
-0.014340042 -0.082625724 0.71700001 1.1832067e-38
-0.012974353 -0.082625754 0.71700007 1.0730039e-38
-0.011608602 -0.082625724 0.71700001 9.7209266e-39
-0.010271466 -0.082856216 0.7190001 1.2297703e-38
-0.0089019304 -0.082856201 0.7190001 1.4869814e-38
-0.0075428677 -0.082971431 0.72000003 1.4135488e-38
-0.0061885961 -0.083201922 0.72200006 1.3488333e-38
-0.0048333448 -0.083547615 0.72500002 1.3944279e-38
-0.0034524244 -0.083547629 0.72500002 1.4307315e-38
-0.002071463 -0.083547615 0.72500002 1.3760605e-38
-0.00069050363 -0.083547615 0.72500002 1.3203494e-38
0.00069137046 -0.08366289 0.72600007 1.2196172e-38
0.0020827814 -0.084008567 0.72900009 1.1267769e-38
0.0034809173 -0.084239058 0.73100007 1.0171479e-38
0.0048799696 -0.084354304 0.73200011 9.1580614e-39
0.0062914086 -0.08458478 0.73400003 9.3456784e-39
0.0076894634 -0.08458478 0.73400009 9.5261222e-39
0.009112332 -0.084815271 0.73600012 9.3474749e-39
0.010528534 -0.084930487 0.73700011 9.1605753e-39
0.011932381 -0.084930487 0.73700005 7.6919235e-39
0.013372337 -0.085160963 0.73900002 6.1307214e-39
0.014799963 -0.085276194 0.74000001 6.4984235e-39
0.016209444 -0.085276209 0.74000007 6.7753692e-39
0.01769042 -0.085621931 0.74300009 8.0625052e-39
0.019208521 -0.086082853 0.7470001 9.2542143e-39
0.020659011 -0.086198129 0.74800003 9.4386028e-39
0.022083763 -0.086198114 0.74800003 9.625145e-39
0.023571424 -0.08642859 0.75000006 1.0270506e-38
0.024999984 -0.08642859 0.75000012 1.0916942e-38
0.026499018 -0.086659051 0.75200003 9.5254188e-39
0.028080011 -0.087120019 0.75600004 8.2183829e-39
0.029598093 -0.08735048 0.75800008 7.743246e-39
0.031123746 -0.087580971 0.76000005 7.2826406e-39
0.032571383 -0.087580986 0.76000005 7.5585114e-39
0.034063742 -0.087696217 0.7610001 7.8343991e-39
0.035513278 -0.087696187 0.76100004 7.742586e-39
0.036962822 -0.087696187 0.7610001 7.7436552e-39
-0.063385762 -0.08670003 0.7650001 1.1536858e-38
-0.061766692 -0.086473353 0.76300007 1.1992082e-38
-0.060155306 -0.086246677 0.76100004 1.1254522e-38
-0.05870574 -0.086246662 0.76100004 1.0521634e-38
-0.057030521 -0.085906677 0.75800002 1.0615267e-38
-0.055440009 -0.08568 0.75600004 1.0616362e-38
-0.053928576 -0.085566677 0.75500005 1.0431992e-38
-0.052351467 -0.085340016 0.75300002 1.0156475e-38
-0.050849535 -0.085226648 0.75200003 1.0247585e-38
-0.049417168 -0.085226677 0.75200003 1.0341227e-38
-0.047857177 -0.085000031 0.75000012 1.0432715e-38
-0.046242923 -0.084660001 0.74700004 1.0434483e-38
-0.04470006 -0.084433354 0.74500012 1.0342624e-38
-0.043164816 -0.084206693 0.74300003 1.0250793e-38
-0.041693401 -0.084093355 0.7420001 1.0156809e-38
-0.040171474 -0.083866678 0.74000007 9.9749301e-39
-0.038709555 -0.08375337 0.73900002 9.9734952e-39
-0.037200984 -0.083526678 0.73700011 9.8830904e-39
-0.03579716 -0.083526663 0.73700005 9.7898158e-39
-0.034253385 -0.083186693 0.73400009 9.6994138e-39
-0.032855295 -0.083186679 0.73400009 1.0065678e-38
-0.031371456 -0.082960002 0.73200011 1.0434099e-38
-0.029936222 -0.082846709 0.73100007 1.0250431e-38
-0.028543862 -0.082846694 0.73100007 1.0068201e-38
-0.027151478 -0.082846679 0.73100007 9.6065175e-39
-0.025688631 -0.082620017 0.72900003 9.0551402e-39
-0.024200048 -0.082280017 0.72600007 1.006425e-38
-0.02278576 -0.082166664 0.72500002 1.1085374e-38
-0.021404799 -0.082166664 0.72500002 1.0542066e-38
-0.019941002 -0.081826679 0.72200006 9.8988592e-39
-0.018514331 -0.081600003 0.72000009 8.88831e-39
-0.017142888 -0.081600018 0.72000009 7.7859254e-39
-0.015749563 -0.08148668 0.7190001 9.7166232e-39
-0.014340044 -0.081260018 0.71700007 1.1648037e-38
-0.012974317 -0.081260018 0.71700001 1.0178309e-38
-0.011608628 -0.081260018 0.71700001 8.7096599e-39
-0.010242878 -0.081260003 0.71700001 1.1654137e-38
-0.0089019397 -0.081486695 0.71900004 1.4594666e-38
-0.0075428807 -0.081600018 0.72000009 1.3403316e-38
-0.0061886166 -0.081826679 0.72200006 1.2197612e-38
-0.0048200418 -0.081940018 0.72300005 1.0348701e-38
-0.0034428895 -0.081940033 0.72300005 8.5195261e-39
-0.0020714537 -0.082166664 0.72500002 8.9812175e-39
-0.00069149456 -0.082280017 0.72600007 9.4411111e-39
0.00069329643 -0.082506679 0.7280001 8.7953927e-39
0.0020828112 -0.082620017 0.72900009 8.0589123e-39
0.0034809033 -0.082846679 0.73100007 8.148594e-39
0.0048799668 -0.082960002 0.73200011 8.2422246e-39
0.0062742517 -0.082960002 0.73200005 9.5300739e-39
0.0076894765 -0.083186679 0.73400003 1.0726807e-38
0.0091123255 -0.083413355 0.73600006 1.1098455e-38
0.010514249 -0.08341334 0.73600012 1.1370014e-38
0.011932345 -0.083526678 0.73700011 9.6233457e-39
0.013372359 -0.08375334 0.73900002 7.8777538e-39
0.014799957 -0.083866678 0.74000007 8.5209596e-39
0.016253287 -0.084093355 0.7420001 9.1670409e-39
0.017690441 -0.084206693 0.74300003 1.1379705e-38
0.019157078 -0.084433369 0.74500012 1.35773e-38
0.020576136 -0.084433354 0.74500012 1.2839029e-38
0.022083789 -0.084773354 0.74800003 1.201538e-38
0.023508541 -0.084773369 0.74800003 1.1744537e-38
0.024999991 -0.085000016 0.75000012 1.1465444e-38
0.026499003 -0.085226692 0.75200003 1.0082171e-38
0.028042838 -0.085566677 0.75500005 8.682598e-39
0.029519971 -0.08568 0.75600004 8.1088266e-39
0.030959994 -0.085680015 0.75600004 7.4666956e-39
0.032571364 -0.086133339 0.76000011 7.6503665e-39
0.034063771 -0.086246692 0.76100004 7.8344159e-39
0.035513274 -0.086246677 0.7610001 7.7425986e-39
0.036962807 -0.086246692 0.76100004 7.651112e-39
-0.063385762 -0.08524286 0.76500005 1.0152529e-38
-0.06176671 -0.085020028 0.76300007 1.0335828e-38
-0.060313359 -0.085020013 0.76300001 1.0151784e-38
-0.058705773 -0.084797166 0.76100004 9.9677611e-39
-0.057181031 -0.08468575 0.76000011 9.9699205e-39
-0.055586688 -0.084462874 0.75800008 9.9710051e-39
-0.053928591 -0.084128581 0.75500005 9.695507e-39
-0.052351467 -0.083905734 0.75300002 9.5111256e-39
-0.050849546 -0.083794288 0.75200009 9.7880726e-39
-0.049417164 -0.083794273 0.75200003 9.972433e-39
-0.047857191 -0.083571441 0.75000012 1.0063882e-38
-0.046242904 -0.083237149 0.74700004 1.006317e-38
-0.044700027 -0.083014302 0.74500006 1.0064969e-38
-0.043164831 -0.082791455 0.74300009 1.0064261e-38
-0.041693389 -0.082680009 0.7420001 9.9727931e-39
-0.040171485 -0.082457148 0.74000007 9.9731505e-39
-0.03870957 -0.082345717 0.73900002 9.9738665e-39
-0.03720098 -0.08212287 0.73700011 1.0066412e-38
-0.03579716 -0.082122855 0.73700005 9.9749273e-39
-0.034346681 -0.082011439 0.73600006 9.8830862e-39
-0.032855276 -0.081788592 0.73400003 1.0158944e-38
-0.031371459 -0.08156573 0.73200005 1.0434461e-38
-0.029936239 -0.081454329 0.73100007 1.0342275e-38
-0.028543854 -0.081454314 0.73100007 1.034121e-38
-0.027151451 -0.081454314 0.73100001 1.0066073e-38
-0.025688639 -0.081231453 0.72900009 9.7909102e-39
-0.024266722 -0.081120037 0.7280001 1.0343341e-38
-0.022817187 -0.08089716 0.72600001 1.0993179e-38
-0.021345761 -0.080562882 0.72300005 1.054099e-38
-0.019941002 -0.080451451 0.72200012 1.0083248e-38
-0.018514305 -0.080228589 0.72000009 8.7957571e-39
-0.017142884 -0.080228589 0.72000009 7.5079077e-39
-0.015771465 -0.080228589 0.72000009 9.7166232e-39
-0.014380052 -0.080117173 0.7190001 1.1925696e-38
-0.013010516 -0.080117159 0.7190001 1.0452381e-38
-0.011640956 -0.080117159 0.71900004 9.0705447e-39
-0.010271459 -0.080117173 0.7190001 1.1835655e-38
-0.0089019248 -0.080117173 0.71900004 1.4594308e-38
-0.0075638411 -0.080451466 0.72200012 1.3581606e-38
-0.0061886129 -0.080451436 0.72200012 1.2560648e-38
-0.0048333448 -0.080785729 0.72500002 1.1272433e-38
-0.0034524226 -0.080785729 0.72500002 1.0083242e-38
-0.002071463 -0.080785714 0.72500002 1.1834579e-38
-0.00069149269 -0.080897175 0.72600007 1.3580529e-38
0.00069329457 -0.081120037 0.72800004 1.1831707e-38
0.0020827795 -0.081231453 0.72900009 1.0177233e-38
0.0034808903 -0.081454314 0.73100007 8.9794253e-39
0.0048799603 -0.08156573 0.73200011 7.7848478e-39
0.0062742704 -0.081565715 0.73200011 9.4400391e-39
0.0076894755 -0.081788592 0.73400009 1.1099178e-38
0.0091123432 -0.082011439 0.73600012 1.1375043e-38
0.010528562 -0.08212287 0.73700011 1.1648397e-38
0.01193235 -0.08212287 0.73700011 9.9002942e-39
0.013372342 -0.082345717 0.73900002 8.0621465e-39
0.014839971 -0.082680024 0.7420001 8.429127e-39
0.016253298 -0.082679994 0.7420001 8.8893834e-39
0.01769042 -0.082791455 0.74300009 1.1284643e-38
0.019157078 -0.083014332 0.74500012 1.3765277e-38
0.020659028 -0.083348595 0.74800003 1.2474199e-38
0.022083778 -0.083348595 0.74800003 1.1281773e-38
0.0235714 -0.083571456 0.75000012 1.1374684e-38
0.025066623 -0.083794288 0.75200003 1.1556562e-38
0.026499029 -0.083794273 0.75200003 9.8956306e-39
0.028079975 -0.084240012 0.75600004 8.3206524e-39
0.029519994 -0.084240012 0.75600004 7.29023e-39
0.030959979 -0.084240012 0.75600004 6.3650536e-39
0.03257139 -0.084685721 0.76000011 7.0997319e-39
0.034018978 -0.084685735 0.76000005 7.8351488e-39
0.035513304 -0.084797151 0.76100004 7.7426112e-39
0.0369628 -0.084797166 0.7610001 7.6500456e-39
0.03841234 -0.084797166 0.76100004 7.7436608e-39
-0.063220032 -0.083566673 0.76300001 8.7692711e-39
-0.061766695 -0.083566688 0.76300007 8.5888189e-39
-0.060313348 -0.083566703 0.76300001 8.9575846e-39
-0.058705743 -0.083347611 0.76100004 9.3252839e-39
-0.057181004 -0.083238117 0.76000011 9.326e-39
-0.055586711 -0.08301907 0.75800008 9.2348806e-39
-0.054000005 -0.082800008 0.75600004 9.0512068e-39
-0.052490477 -0.082690485 0.75500005 8.8682617e-39
-0.050917141 -0.082471423 0.75300002 9.2366883e-39
-0.049417175 -0.082361914 0.75200003 9.6036575e-39
-0.047857184 -0.082142882 0.75000012 9.6947615e-39
-0.046242926 -0.081814297 0.7470001 9.6961908e-39
-0.044700027 -0.081595249 0.74500012 9.7890983e-39
-0.043164808 -0.081376202 0.74300003 9.7891123e-39
-0.041693382 -0.081266664 0.7420001 9.8809618e-39
-0.040171493 -0.081047632 0.74000007 9.9735064e-39
-0.038761951 -0.081047632 0.74000007 1.006605e-38
-0.037301932 -0.080938093 0.73900002 1.0158957e-38
-0.03579719 -0.080719046 0.73700011 1.0159672e-38
-0.034346689 -0.080609538 0.73600006 1.0067831e-38
-0.032855302 -0.080390491 0.73400003 1.0251856e-38
-0.031371467 -0.080171429 0.73200005 1.0434818e-38
-0.029936215 -0.08006192 0.73100001 1.0526302e-38
-0.028543828 -0.080061905 0.73100007 1.0525593e-38
-0.027151445 -0.080061935 0.73100007 1.0525242e-38
-0.025688633 -0.079842888 0.72900009 1.0433753e-38
-0.024266724 -0.079733364 0.7280001 1.0617413e-38
-0.022817183 -0.079514317 0.72600007 1.0809508e-38
-0.021404799 -0.079404764 0.72500002 1.0544578e-38
-0.020023838 -0.079404764 0.72500002 1.0175442e-38
-0.018642876 -0.079404764 0.72500002 8.7032041e-39
-0.017142862 -0.078857161 0.72000009 7.2334774e-39
-0.015771441 -0.078857161 0.72000003 9.7166232e-39
-0.014380037 -0.078747652 0.7190001 1.2106498e-38
-0.013010501 -0.078747638 0.7190001 1.0727171e-38
-0.011641004 -0.078747638 0.7190001 9.3510748e-39
-0.010271468 -0.078747638 0.7190001 1.2023631e-38
-0.0089143151 -0.078857176 0.72000009 1.4594666e-38
-0.0075428546 -0.078857146 0.72000003 1.3767788e-38
-0.0061885924 -0.079076208 0.72200006 1.2839385e-38
-0.0048200381 -0.079185732 0.72300005 1.2280117e-38
-0.0034524132 -0.079404764 0.72500002 1.1650904e-38
-0.0020714537 -0.079404749 0.72500002 1.46926e-38
-0.00069049245 -0.079404749 0.72500002 1.7625597e-38
0.00069137046 -0.079514317 0.72600007 1.4957344e-38
0.0020827851 -0.079842873 0.72900009 1.219905e-38
0.0034809378 -0.080061935 0.73100001 9.8066636e-39
0.0048733014 -0.080061935 0.73100001 7.3263877e-39
0.0062742648 -0.080171444 0.73200005 9.3464085e-39
0.0076894886 -0.080390491 0.73400003 1.1373248e-38
0.0091123758 -0.080609538 0.73600006 1.1654137e-38
0.010528565 -0.080719046 0.73700005 1.1924621e-38
0.011932352 -0.080719061 0.73700011 1.0083248e-38
0.013372364 -0.080938108 0.73900002 8.2454588e-39
0.014839943 -0.081266694 0.7420001 8.4273333e-39
0.01625327 -0.081266679 0.7420001 8.5231176e-39
0.017690441 -0.081376202 0.74300003 1.1287512e-38
0.019157117 -0.081595264 0.74500006 1.3947153e-38
0.020659016 -0.081923835 0.74800009 1.2194745e-38
0.022083767 -0.08192382 0.74800009 1.0454176e-38
0.023571361 -0.082142882 0.75000012 1.1099895e-38
0.02506665 -0.082361914 0.75200003 1.1648038e-38
0.026534284 -0.082471438 0.75300002 9.806665e-39
0.028042827 -0.082690515 0.75500011 7.8600358e-39
0.029519981 -0.082800023 0.75600004 6.5494406e-39
0.031041887 -0.08301907 0.75800008 5.2608808e-39
0.032571368 -0.083238117 0.76000005 6.547661e-39
0.034063749 -0.083347641 0.76100004 7.7425972e-39
0.035513297 -0.083347641 0.7610001 7.7425972e-39
0.036962833 -0.083347641 0.76100004 7.6511162e-39
-0.063385762 -0.08232858 0.76500005 8.8625556e-39
-0.061766706 -0.082113363 0.76300007 8.8643422e-39
-0.060313359 -0.082113348 0.76300001 8.8650527e-39
-0.058705777 -0.081898116 0.76100004 8.9575958e-39
-0.057181004 -0.081790514 0.76000005 9.0497803e-39
-0.055733368 -0.081790499 0.76000005 9.2337974e-39
-0.054000042 -0.08136002 0.75600004 9.2345022e-39
-0.05249048 -0.081252404 0.75500005 9.2352309e-39
-0.050917171 -0.081037156 0.75300002 9.4192704e-39
-0.04941719 -0.08092954 0.75200009 9.6947769e-39
-0.047857177 -0.080714323 0.75000012 9.6036575e-39
-0.046242908 -0.080391429 0.7470001 9.512524e-39
-0.044700027 -0.080176227 0.74500012 9.6047029e-39
-0.043164831 -0.07996098 0.74300009 9.6969167e-39
-0.041693371 -0.079853348 0.7420001 9.8809661e-39
-0.040171504 -0.079638101 0.74000007 1.0157532e-38
-0.038761962 -0.079638101 0.74000007 1.0250068e-38
-0.037301909 -0.079530485 0.73900002 1.034298e-38
-0.03579719 -0.079315238 0.73700011 1.0251144e-38
-0.034346692 -0.079207636 0.73600006 1.0067829e-38
-0.032855261 -0.078992389 0.73400003 1.043481e-38
-0.031371444 -0.078777172 0.73200011 1.0709964e-38
-0.029936228 -0.078669541 0.73100001 1.0801806e-38
-0.028543843 -0.078669526 0.73100007 1.0893288e-38
-0.02715146 -0.078669541 0.73100007 1.0709621e-38
-0.025759097 -0.078669555 0.73100007 1.0525226e-38
-0.024266727 -0.078346692 0.7280001 1.162868e-38
-0.022817206 -0.07813146 0.72600007 1.2827378e-38
-0.021404792 -0.078023829 0.72500002 1.219367e-38
-0.019968608 -0.077808596 0.72300005 1.1553692e-38
-0.018642908 -0.078023829 0.72500002 9.4382468e-39
-0.01719052 -0.077700965 0.72200012 7.3228018e-39
-0.015771439 -0.077485718 0.72000003 9.4403992e-39
-0.014380046 -0.077378117 0.7190001 1.1648397e-38
-0.01301051 -0.077378117 0.71900004 1.0452383e-38
-0.011640989 -0.077378102 0.7190001 9.2567282e-39
-0.010271453 -0.077378117 0.7190001 1.192785e-38
-0.0089143133 -0.077485733 0.72000003 1.4595025e-38
-0.0075638206 -0.07770095 0.72200006 1.3949307e-38
-0.0061885905 -0.07770098 0.72200006 1.3299998e-38
-0.0048200269 -0.077808596 0.72300011 1.413082e-38
-0.0034523816 -0.078023799 0.72500002 1.5057787e-38
-0.0020714593 -0.078023814 0.72500002 1.6252369e-38
-0.00069149828 -0.078131445 0.72600007 1.7445872e-38
0.0006913481 -0.078131475 0.72600007 1.5603063e-38
0.0020828149 -0.078454293 0.72900009 1.3763483e-38
0.0034809238 -0.078669541 0.73100001 1.1004473e-38
0.004879951 -0.078777142 0.73200011 8.1529072e-39
0.0062913871 -0.078992404 0.73400003 9.6233485e-39
