# .PCD v0.7 - Point Cloud Data file format
VERSION 0.7
FIELDS x y z rgb
SIZE 4 4 4 4
TYPE F F F F
COUNT 1 1 1 1
WIDTH 968
HEIGHT 1
VIEWPOINT 0 0 0 1 0 0 0
POINTS 968
DATA ascii
-0.029207623 0.019234285 0.74800003 1.1277468e-38
-0.027782861 0.01923427 0.74800003 1.1461856e-38
-0.0263581 0.01923427 0.74800003 1.1555844e-38
-0.024933336 0.019234285 0.74800003 1.1462574e-38
-0.023508575 0.019234277 0.74800003 1.1463291e-38
-0.022083813 0.019234262 0.74800003 1.1278544e-38
-0.020714289 0.019285709 0.75000012 1.1095591e-38
-0.019285718 0.019285694 0.75000012 1.0725737e-38
-0.017857146 0.019285701 0.75000006 1.0359472e-38
-0.016428573 0.019285686 0.75000012 1.1096667e-38
-0.015000001 0.019285709 0.75000006 1.1832784e-38
-0.013571429 0.019285694 0.75000012 1.0725376e-38
-0.012142858 0.019285686 0.75000012 9.6194053e-39
-0.010714286 0.019285701 0.75000006 9.990336e-39
-0.0093104774 0.019337125 0.75200009 1.0449155e-38
-0.0078780958 0.019337125 0.75200003 9.8045126e-39
-0.0064285723 0.019285701 0.75000012 9.1627403e-39
-0.0050133336 0.019337133 0.75200003 7.6865565e-39
-0.0035809528 0.019337125 0.75200003 6.2186221e-39
-0.0021428575 0.019285701 0.75000012 7.9599064e-39
-0.00071428576 0.019285701 0.75000006 9.6147376e-39
0.00071619055 0.019337125 0.75200009 9.4281939e-39
0.0021428573 0.019285701 0.75000012 9.2477515e-39
0.0035714288 0.019285701 0.75000006 9.88737e-39
0.0050000004 0.019285694 0.75000012 1.0440893e-38
0.0064285719 0.019285694 0.75000006 1.0623485e-38
0.0078571439 0.019285701 0.75000012 1.0716396e-38
0.0092857154 0.019285701 0.75000006 1.0622408e-38
0.010714287 0.019285701 0.75000006 1.0438023e-38
0.012142858 0.019285701 0.75000012 8.9708101e-39
0.01357143 0.019285709 0.75000006 7.5968678e-39
0.015000002 0.019285694 0.75000012 7.9652874e-39
0.016472382 0.019337147 0.75200003 8.332272e-39
0.017904762 0.019337133 0.75200009 8.1500359e-39
0.019337144 0.01933714 0.75200003 7.966365e-39
0.020769525 0.019337125 0.75200003 8.1500359e-39
0.022201907 0.019337147 0.75200003 8.3340657e-39
0.023634287 0.019337133 0.75200003 7.9656475e-39
0.025000002 0.019285701 0.75000012 7.5972307e-39
0.026428573 0.019285701 0.75000012 8.0582033e-39
0.027931431 0.019337133 0.75200009 8.6092078e-39
0.029363811 0.019337133 0.75200003 7.8576536e-39
0.030837147 0.019362837 0.75300008 7.012672e-39
0.032357145 0.019414261 0.75500011 8.0148036e-39
0.033795241 0.019414276 0.75500005 9.0181894e-39
0.035233337 0.019414268 0.75500005 9.119003e-39
0.03667143 0.019414268 0.75500005 9.2075987e-39
0.038109526 0.019414261 0.75500005 9.3941283e-39
0.039547622 0.019414276 0.75500005 9.4769955e-39
0.040877149 0.019362845 0.75300008 9.5767231e-39
0.042311434 0.019362845 0.75300002 9.6624602e-39
-0.03357143 0.020714268 0.75000006 8.8000605e-39
-0.032057144 0.020659037 0.74800003 9.0734132e-39
-0.030632384 0.020659037 0.74800003 8.7936019e-39
-0.029207623 0.020659037 0.74800003 8.4269774e-39
-0.027782861 0.020659029 0.74800003 8.7039202e-39
-0.0263581 0.020659044 0.74800003 8.8879485e-39
-0.024933336 0.020659037 0.74800003 8.7035601e-39
-0.023508575 0.020659037 0.74800003 8.5195317e-39
-0.022083813 0.020659022 0.74800003 8.3347845e-39
-0.02065905 0.020659044 0.74800003 8.1514723e-39
-0.019285718 0.020714268 0.75000006 7.8738134e-39
-0.017857146 0.020714261 0.75000012 7.5997418e-39
-0.016428575 0.020714261 0.75000006 7.4139184e-39
-0.015000001 0.020714268 0.75000012 7.1398469e-39
-0.013571429 0.020714261 0.75000012 6.3994218e-39
-0.012142858 0.020714261 0.75000006 5.6683266e-39
-0.010742859 0.020769522 0.75200003 6.6795946e-39
-0.0093104774 0.020769514 0.75200009 7.6901424e-39
-0.0078780958 0.020769514 0.75200003 6.951511e-39
-0.0064457147 0.020769507 0.75200003 6.1153001e-39
-0.0050133336 0.020769522 0.75200003 3.444173e-39
-0.0035809528 0.020769514 0.75200003 7.8417503e-40
-0.0021428575 0.020714276 0.75000006 4.3582302e-39
-0.00071428576 0.020714276 0.75000012 7.8641192e-39
0.00071428582 0.020714261 0.75000012 7.8508447e-39
0.0021428573 0.020714283 0.75000006 7.8644765e-39
0.0035714288 0.020714268 0.75000012 9.0429111e-39
0.0050000004 0.020714276 0.75000006 1.0162875e-38
0.0064285719 0.020714261 0.75000012 1.0701335e-38
0.0078571439 0.020714283 0.75000006 1.1267774e-38
0.0092857154 0.020714268 0.75000012 1.1716908e-38
0.010714287 0.020714268 0.75000012 1.2187206e-38
0.012142858 0.020714283 0.75000006 9.1455128e-39
0.01357143 0.020714276 0.75000012 6.1224776e-39
0.015000002 0.020714276 0.75000006 7.1369742e-39
0.016472382 0.020769514 0.75200003 8.1482423e-39
0.017904762 0.020769514 0.75200003 7.8730959e-39
0.019337144 0.020769522 0.75200003 7.5071889e-39
0.020714287 0.020714261 0.75000012 7.8748896e-39
0.022142859 0.020714283 0.75000006 8.1496786e-39
0.023634287 0.020769514 0.75200003 7.7816192e-39
0.025000002 0.020714261 0.75000012 7.3228018e-39
0.02649905 0.020769507 0.75200003 7.967444e-39
0.027931431 0.020769514 0.75200003 8.6049072e-39
0.029363811 0.020769514 0.75200003 8.4083177e-39
0.030837147 0.020797133 0.75300002 8.218048e-39
0.032357145 0.020852357 0.75500005 1.0689574e-38
0.033795241 0.020852357 0.75500011 1.3082691e-38
0.035233337 0.020852365 0.75500005 1.3638738e-38
0.03667143 0.020852365 0.75500005 1.4189028e-38
0.038109526 0.020852357 0.75500005 1.4556007e-38
0.039547622 0.020852372 0.75500005 1.4923704e-38
0.040985718 0.020852365 0.75500005 1.5018048e-38
0.042311434 0.020797126 0.75300002 1.5016966e-38
-0.03357143 0.022142835 0.75000012 8.5177367e-39
-0.032142859 0.022142842 0.75000006 8.6081358e-39
-0.03071429 0.022142842 0.75000012 8.4241033e-39
-0.029285718 0.022142842 0.75000012 8.2389988e-39
-0.027857147 0.022142835 0.75000006 8.3333468e-39
-0.026428575 0.022142842 0.75000012 8.5163003e-39
-0.025000004 0.022142842 0.75000006 8.4251809e-39
-0.023508573 0.022083811 0.74800003 8.3315531e-39
-0.022083811 0.022083797 0.74800003 8.1489597e-39
-0.020714289 0.02214285 0.75000006 8.0564068e-39
-0.019285718 0.022142835 0.75000012 7.9652888e-39
-0.017857146 0.022142842 0.75000006 7.8734533e-39
-0.016428573 0.022142842 0.75000012 7.6897823e-39
-0.015000001 0.022142835 0.75000012 7.5972293e-39
-0.013571429 0.022142835 0.75000006 7.1373344e-39
-0.012142858 0.022142835 0.75000012 6.7707112e-39
-0.010742859 0.022201888 0.75200003 7.2313251e-39
-0.0093104774 0.022201896 0.75200003 7.782694e-39
-0.0078780949 0.022201896 0.75200003 5.4703007e-39
-0.0064457152 0.022201888 0.75200003 3.1582605e-39
-0.0050133341 0.022201896 0.75200009 4.9931655e-39
-0.0035809528 0.022201896 0.75200003 6.9317639e-39
-0.0021485719 0.022201888 0.75200009 1.1268847e-38
-0.00071619055 0.022201903 0.75200003 1.569381e-38
0.00071619061 0.022201896 0.75200003 1.5686993e-38
0.0021485717 0.022201896 0.75200003 1.5693809e-38
0.0035809525 0.022201896 0.75200003 1.623908e-38
0.0050133336 0.022201903 0.75200009 1.6802296e-38
0.0064285719 0.022142857 0.75000006 1.706884e-38
0.0078571439 0.02214285 0.75000006 1.7262558e-38
0.0093104765 0.022201911 0.75200003 1.7530174e-38
0.010742858 0.022201903 0.75200003 1.7815362e-38
0.012175239 0.022201888 0.75200009 1.3110223e-38
0.01360762 0.022201896 0.75200003 8.3243771e-39
0.015040001 0.022201896 0.75200009 8.512713e-39
0.016428573 0.022142842 0.75000012 8.6992553e-39
0.017904762 0.022201888 0.75200003 9.068751e-39
0.019285716 0.022142842 0.75000012 9.436093e-39
0.020714287 0.022142835 0.75000006 8.6088561e-39
0.022142859 0.02214285 0.75000012 7.8727386e-39
0.02357143 0.022142835 0.75000012 7.5979496e-39
0.025000002 0.022142842 0.75000006 7.4146373e-39
0.026428573 0.022142842 0.75000012 7.782338e-39
0.027931431 0.022201903 0.75200003 8.0571271e-39
0.02940286 0.022231415 0.75300008 9.6111558e-39
0.030837145 0.022231415 0.75300002 1.1169735e-38
0.032357145 0.022290461 0.75500005 1.3556266e-38
0.033795241 0.022290453 0.75500005 1.5952972e-38
0.035233337 0.022290438 0.75500011 1.6224905e-38
0.03667143 0.022290461 0.75500005 1.6506513e-38
0.038109526 0.022290446 0.75500005 1.6870269e-38
0.039547622 0.022290453 0.75500005 1.7246213e-38
0.040985718 0.022290453 0.75500005 1.7240824e-38
0.042423811 0.022290461 0.75500005 1.7155437e-38
-0.033660956 0.02363427 0.75200003 8.239003e-39
-0.032142859 0.023571409 0.75000012 8.1475248e-39
-0.03071429 0.023571409 0.75000012 8.0553306e-39
-0.029285718 0.023571417 0.75000006 7.9642126e-39
-0.027857147 0.023571402 0.75000012 8.0571257e-39
-0.026428575 0.023571409 0.75000006 8.1489597e-39
-0.025000004 0.023571409 0.75000012 8.1489597e-39
-0.023508575 0.023508564 0.74800003 8.0564082e-39
-0.022142861 0.023571409 0.75000006 8.0571257e-39
-0.020714289 0.023571417 0.75000012 7.9652902e-39
-0.019285718 0.023571417 0.75000006 8.0578431e-39
-0.017857146 0.023571409 0.75000012 8.1493199e-39
-0.016472382 0.023634285 0.75200003 8.0574844e-39
-0.015040002 0.02363427 0.75200009 7.9652902e-39
-0.013607621 0.02363427 0.75200003 7.9656489e-39
-0.012142858 0.023571409 0.75000006 7.8738148e-39
-0.010742858 0.023634277 0.75200003 7.8752497e-39
-0.0093104765 0.02363427 0.75200003 7.7755179e-39
-0.0078780949 0.023634285 0.75200003 3.9887344e-39
-0.0064457152 0.023634277 0.75200003 1.1979701e-40
-0.0050133336 0.02363427 0.75200009 6.5303367e-39
-0.003580953 0.023634285 0.75200003 1.3004032e-38
-0.0021428573 0.023571409 0.75000012 1.8274897e-38
-0.00071428582 0.023571417 0.75000006 2.3415173e-38
0.00071619061 0.02363427 0.75200003 2.3417683e-38
0.0021428575 0.023571424 0.75000006 2.3415172e-38
0.0035809523 0.023634277 0.75200003 2.3417683e-38
0.0050000004 0.023571409 0.75000012 2.3416968e-38
0.0064285719 0.023571402 0.75000006 2.3325853e-38
0.0078780958 0.023634277 0.75200003 2.32333e-38
0.0093104765 0.023634277 0.75200003 2.3325854e-38
0.010742858 0.02363427 0.75200003 2.3413022e-38
0.012175239 0.02363427 0.75200009 1.697126e-38
0.01360762 0.023634277 0.75200003 1.0534169e-38
0.015040001 0.023634262 0.75200003 9.8906056e-39
0.016472382 0.023634285 0.75200003 9.252422e-39
0.017904762 0.02363427 0.75200003 1.0358754e-38
0.019337144 0.02363427 0.75200009 1.136751e-38
0.020714287 0.023571402 0.75000012 9.4350182e-39
0.022142859 0.023571409 0.75000012 7.5057553e-39
0.02357143 0.023571409 0.75000006 7.5061141e-39
0.025066668 0.023634277 0.75200003 7.5064728e-39
0.02649905 0.023634277 0.75200009 7.5068315e-39
0.027968572 0.023665704 0.75300002 7.5050379e-39
0.02940286 0.023665696 0.75300008 1.0809322e-38
0.030919049 0.023728564 0.75500005 1.411423e-38
0.032357145 0.023728549 0.75500005 1.650473e-38
0.033795241 0.023728557 0.75500005 1.8800626e-38
0.035233337 0.023728557 0.75500005 1.8801353e-38
0.03667143 0.023728549 0.75500011 1.8802069e-38
0.038109526 0.023728549 0.75500005 1.9171562e-38
0.039600007 0.023759976 0.7560001 1.9540697e-38
0.040985718 0.023728557 0.75500005 1.9451728e-38
0.042423811 0.023728549 0.75500005 1.9266625e-38
-0.03357143 0.024999984 0.75000012 8.3319161e-39
-0.032142859 0.024999976 0.75000012 8.2390044e-39
-0.03071429 0.024999991 0.75000006 8.0560509e-39
-0.029285718 0.024999991 0.75000012 7.9649328e-39
-0.027857147 0.024999984 0.75000006 8.0567683e-39
-0.026428575 0.024999991 0.75000012 8.1489626e-39
-0.025000004 0.024999984 0.75000012 8.0567683e-39
-0.023571432 0.024999991 0.75000006 8.0556921e-39
-0.022142861 0.024999991 0.75000012 7.9645741e-39
-0.020714289 0.024999999 0.75000006 7.9649328e-39
-0.019285718 0.024999984 0.75000012 8.0567683e-39
-0.017857146 0.024999976 0.75000012 8.1489626e-39
-0.016472384 0.025066666 0.75200003 8.0567683e-39
-0.015040002 0.025066651 0.75200003 7.9649328e-39
-0.013607621 0.025066651 0.75200003 7.8738148e-39
-0.012142858 0.024999976 0.75000012 7.7816206e-39
-0.010742859 0.025066659 0.75200003 7.6908613e-39
-0.0093104774 0.025066651 0.75200003 7.5064686e-39
-0.0078780958 0.025066644 0.75200009 3.9008436e-39
-0.0064457147 0.025066659 0.75200003 2.0948011e-40
-0.0050133336 0.025066659 0.75200003 6.1841613e-39
-0.0035809528 0.025066659 0.75200003 1.2289082e-38
-0.0021428573 0.024999991 0.75000006 1.7811779e-38
-0.00071428576 0.024999984 0.75000012 2.341769e-38
0.00071428582 0.024999984 0.75000006 2.341769e-38
0.0021428575 0.024999991 0.75000012 2.341769e-38
0.0035714291 0.024999976 0.75000012 2.3234019e-38
0.0050000004 0.024999984 0.75000006 2.3142183e-38
0.0064285719 0.024999984 0.75000012 2.2865601e-38
0.0078571429 0.024999991 0.75000006 2.2590094e-38
0.0093104756 0.025066651 0.75200009 2.3049989e-38
0.010742857 0.025066659 0.75200003 2.3417686e-38
0.012175239 0.025066659 0.75200003 1.7249995e-38
0.01360762 0.025066666 0.75200003 1.1083388e-38
0.015040001 0.025066651 0.75200003 1.0353012e-38
0.016428573 0.024999991 0.75000012 9.7144694e-39
0.017904762 0.025066659 0.75200003 1.0726455e-38
0.019337144 0.025066659 0.75200003 1.1740233e-38
0.020769525 0.025066651 0.75200003 9.0705461e-39
0.02223143 0.025099985 0.75300008 6.4944887e-39
0.023665715 0.025099993 0.75300002 6.2139599e-39
0.025100002 0.025099978 0.75300008 5.9445519e-39
0.02649905 0.025066659 0.75200009 6.6781597e-39
0.027968572 0.025099985 0.75300002 7.4121262e-39
0.02940286 0.025099985 0.75300008 1.0718203e-38
0.030919049 0.025166638 0.75500005 1.4024209e-38
0.032357145 0.025166653 0.75500005 1.6228907e-38
0.033795241 0.025166646 0.75500005 1.852444e-38
0.035233337 0.025166646 0.75500005 1.8432966e-38
0.03667143 0.025166653 0.75500005 1.8340767e-38
0.038109526 0.025166638 0.75500011 1.8618063e-38
0.039547622 0.025166646 0.75500005 1.8803174e-38
0.040985718 0.025166646 0.75500005 1.8712776e-38
0.042423811 0.025166661 0.75500005 1.8621313e-38
-0.03357143 0.02642855 0.75000012 8.5163045e-39
-0.032142859 0.026428558 0.75000006 8.2397219e-39
-0.03071429 0.026428558 0.75000012 8.1478864e-39
-0.029285718 0.026428565 0.75000006 7.9645741e-39
-0.027857147 0.02642855 0.75000012 8.0564096e-39
-0.026428575 0.026428558 0.75000012 8.1486038e-39
-0.025000004 0.026428558 0.75000006 8.0564096e-39
-0.023571432 0.02642855 0.75000012 7.9645741e-39
-0.022142861 0.026428565 0.75000006 7.9645741e-39
-0.020714289 0.026428558 0.75000012 7.8727386e-39
-0.019285718 0.02642855 0.75000012 7.9638566e-39
-0.017857146 0.02642855 0.75000006 8.0560509e-39
-0.016428575 0.026428558 0.75000012 7.9642154e-39
-0.015040002 0.02649904 0.75200003 7.8734561e-39
-0.013607621 0.02649904 0.75200003 7.7826968e-39
-0.012142858 0.026428543 0.75000012 7.6901438e-39
-0.010742859 0.026499033 0.75200009 7.5079077e-39
-0.0093104774 0.02649904 0.75200003 7.2245049e-39
-0.0078780958 0.026499033 0.75200003 3.8068557e-39
-0.0064457147 0.026499033 0.75200003 3.0490153e-40
-0.0050133336 0.026499033 0.75200003 5.891793e-39
-0.0035809528 0.026499033 0.75200009 1.1450723e-38
-0.0021428573 0.02642855 0.75000012 1.7448383e-38
-0.00071428571 0.026428558 0.75000006 2.341769e-38
0.00071428588 0.026428543 0.75000012 2.341769e-38
0.0021428575 0.026428558 0.75000012 2.341769e-38
0.0035714291 0.02642855 0.75000006 2.3142183e-38
0.0050133341 0.02649904 0.75200003 2.2773763e-38
0.0064285719 0.026428558 0.75000006 2.2403907e-38
0.0078780958 0.026499048 0.75200003 2.1946167e-38
0.0093104765 0.026499033 0.75200003 2.2683006e-38
0.010742858 0.02649904 0.75200003 2.3414456e-38
0.012175239 0.026499026 0.75200003 1.7526934e-38
0.01360762 0.026499033 0.75200009 1.1639422e-38
0.015040001 0.026499033 0.75200003 1.0906536e-38
0.016472382 0.026499033 0.75200003 1.0081094e-38
0.017904762 0.02649904 0.75200003 1.1092003e-38
0.019337144 0.026499048 0.75200003 1.2011793e-38
0.020769525 0.02649904 0.75200003 8.7957571e-39
0.02223143 0.026534267 0.75300008 5.4738894e-39
0.023665715 0.026534274 0.75300002 4.9106739e-39
0.025100002 0.026534282 0.75300008 4.3715047e-39
0.026534287 0.026534289 0.75300002 5.8487704e-39
0.028042858 0.026604742 0.75500005 7.2280965e-39
0.029480955 0.026604734 0.75500011 1.0535609e-38
0.030919049 0.026604742 0.75500005 1.3840544e-38
0.032357145 0.026604742 0.75500005 1.6045606e-38
0.033795241 0.026604749 0.75500005 1.8249296e-38
0.035233337 0.026604742 0.75500005 1.8064546e-38
0.03667143 0.026604764 0.75500005 1.7881591e-38
0.038109526 0.026604749 0.75500005 1.7973067e-38
0.039547622 0.026604742 0.75500011 1.8066339e-38
0.040985718 0.026604742 0.75500005 1.7974504e-38
0.042423811 0.026604749 0.75500005 1.7883745e-38
-0.03357143 0.027857125 0.75000006 8.6999755e-39
-0.032057144 0.02778285 0.74800003 8.4233928e-39
-0.03071429 0.027857132 0.75000006 7.9638566e-39
-0.029285718 0.027857125 0.75000012 7.5968734e-39
-0.027857147 0.027857117 0.75000012 7.8727386e-39
-0.026428575 0.02785714 0.75000006 8.1482451e-39
-0.025000004 0.027857125 0.75000012 8.0564096e-39
-0.023571432 0.027857132 0.75000006 7.9645741e-39
-0.022142861 0.027857132 0.75000012 7.8723799e-39
-0.020714289 0.027857125 0.75000012 7.6887089e-39
-0.019285718 0.027857125 0.75000006 7.8720211e-39
-0.017857146 0.027857132 0.75000012 8.0553334e-39
-0.016472384 0.027931422 0.75200003 7.9642154e-39
-0.015040002 0.027931422 0.75200003 7.8730973e-39
-0.013607621 0.027931407 0.75200009 7.6894263e-39
-0.012142858 0.027857132 0.75000006 7.5965146e-39
-0.010742859 0.027931422 0.75200003 7.5064728e-39
-0.0093104774 0.027931429 0.75200003 7.5057511e-39
-0.0078780958 0.027931422 0.75200003 5.0082505e-39
-0.0064457152 0.027931422 0.75200003 2.6065286e-39
-0.0050133341 0.027931429 0.75200003 8.0334227e-39
-0.0035809525 0.027931422 0.75200009 1.3480071e-38
-0.0021428573 0.02785714 0.75000006 1.8362074e-38
-0.00071428571 0.027857132 0.75000012 2.3234019e-38
0.00071428582 0.027857117 0.75000012 2.3325854e-38
0.0021428575 0.02785714 0.75000006 2.341769e-38
0.0035714291 0.027857125 0.75000012 2.3142183e-38
0.0050000004 0.027857132 0.75000006 2.2865954e-38
0.0064285723 0.027857132 0.75000012 2.2404618e-38
0.0078780958 0.027931422 0.75200003 2.1944729e-38
0.0093104765 0.027931422 0.75200003 2.2682289e-38
0.010742858 0.027931429 0.75200003 2.3417683e-38
0.012175239 0.027931415 0.75200003 1.7526214e-38
0.01360762 0.027931422 0.75200009 1.1632963e-38
0.015040001 0.027931422 0.75200003 1.0536681e-38
0.016472382 0.027931422 0.75200003 9.5300809e-39
0.017904762 0.027931429 0.75200003 9.8055888e-39
0.019337144 0.027931429 0.75200003 1.0081813e-38
0.020769525 0.027931415 0.75200009 8.0510286e-39
0.02223143 0.027968563 0.75300002 6.0109062e-39
0.023665715 0.027968556 0.75300002 5.8286589e-39
0.025100002 0.027968556 0.75300008 5.6489452e-39
0.026534287 0.027968563 0.75300002 6.3944023e-39
0.028042858 0.028042845 0.75500005 7.1359022e-39
0.029480955 0.028042838 0.75500005 1.0625651e-38
0.030919049 0.028042838 0.75500005 1.4205021e-38
0.032357145 0.028042831 0.75500005 1.6414034e-38
0.033795241 0.028042845 0.75500005 1.8618077e-38
0.035233337 0.028042838 0.75500005 1.8525156e-38
0.03667143 0.028042838 0.75500005 1.8432963e-38
0.038109526 0.028042853 0.75500005 1.8433323e-38
0.039600007 0.028079987 0.75600004 1.8341488e-38
0.040985718 0.028042831 0.75500011 1.825001e-38
-0.033481907 0.02920761 0.74800003 8.8857989e-39
-0.032057144 0.02920761 0.74800003 8.517022e-39
-0.030632384 0.029207602 0.74800003 7.8709449e-39
-0.029285718 0.029285692 0.75000012 7.2291727e-39
-0.027857147 0.029285692 0.75000006 7.6894263e-39
-0.026428575 0.029285699 0.75000012 8.0567683e-39
-0.025000004 0.029285699 0.75000006 8.0567683e-39
-0.023571432 0.029285692 0.75000012 7.9642154e-39
-0.022142861 0.029285699 0.75000012 7.7794682e-39
-0.020714289 0.029285699 0.75000006 7.5043204e-39
-0.019285718 0.029285692 0.75000012 7.7798269e-39
-0.017857146 0.029285707 0.75000006 7.9638566e-39
-0.016428575 0.029285699 0.75000012 7.8723799e-39
-0.015000002 0.029285699 0.75000012 7.7805444e-39
-0.01357143 0.029285699 0.75000006 7.5965146e-39
-0.012142858 0.029285707 0.75000012 7.4135611e-39
-0.010742859 0.029363789 0.75200003 7.5990258e-39
-0.0093104774 0.029363796 0.75200003 7.6861935e-39
-0.0078780958 0.029363796 0.75200003 6.2978949e-39
-0.0064457147 0.029363796 0.75200009 4.9164122e-39
-0.0050133336 0.029363796 0.75200003 1.0155336e-38
-0.0035809528 0.029363804 0.75200003 1.5410057e-38
-0.0021428573 0.029285699 0.75000012 1.9285093e-38
-0.00071428582 0.029285699 0.75000012 2.3050347e-38
0.00071428576 0.029285692 0.75000006 2.3234018e-38
0.0021428575 0.029285707 0.75000012 2.3325853e-38
0.0035714291 0.029285699 0.75000006 2.3142182e-38
0.0050000004 0.029285699 0.75000012 2.2957072e-38
0.0064285723 0.029285707 0.75000006 2.2403902e-38
0.0078571429 0.029285707 0.75000006 2.185397e-38
0.0093104765 0.029363796 0.75200003 2.2683006e-38
0.010742858 0.029363804 0.75200009 2.3414454e-38
0.01219143 0.029402852 0.75300002 1.752729e-38
0.013625715 0.029402845 0.75300002 1.1546868e-38
0.015060001 0.02940286 0.75300002 1.0260817e-38
0.016494289 0.029402852 0.75300002 8.8854388e-39
0.017904762 0.029363796 0.75200009 8.5177381e-39
0.019337144 0.029363804 0.75200003 8.0560509e-39
0.020769525 0.029363804 0.75200003 7.3159859e-39
0.022231432 0.029402845 0.75300002 6.567303e-39
0.023665717 0.029402837 0.75300002 6.7434322e-39
0.025100004 0.029402837 0.75300008 6.9357211e-39
0.026534289 0.029402845 0.75300002 6.9443391e-39
0.02804286 0.029480927 0.75500005 6.9500788e-39
0.029480956 0.029480942 0.75500005 1.0718204e-38
0.030919051 0.029480934 0.75500005 1.4485913e-38
0.032357145 0.029480927 0.75500005 1.6786765e-38
0.033795241 0.029480942 0.75500005 1.8986507e-38
0.035233337 0.029480934 0.75500005 1.8984349e-38
0.03667143 0.029480934 0.75500005 1.8984353e-38
0.038109526 0.029480942 0.75500005 1.8802121e-38
0.039600007 0.029519983 0.75600004 1.8617727e-38
0.040985718 0.029480934 0.75500005 1.8526964e-38
-0.033481907 0.030632369 0.74800003 9.9917709e-39
-0.032014292 0.030591398 0.7470001 1.072502e-38
-0.030632384 0.030632377 0.74800003 9.1602278e-39
-0.029285718 0.030714273 0.75000006 7.5957972e-39
-0.027857147 0.030714266 0.75000012 7.7798269e-39
-0.026428575 0.030714288 0.75000006 7.9645741e-39
-0.025000004 0.030714273 0.75000012 7.9642154e-39
-0.023571432 0.030714266 0.75000012 8.0556921e-39
-0.022142861 0.030714281 0.75000006 7.8720211e-39
-0.020714289 0.030714273 0.75000012 7.7798269e-39
-0.019285718 0.030714273 0.75000006 7.9638566e-39
-0.017857146 0.030714281 0.75000012 8.2397219e-39
-0.016428575 0.030714266 0.75000012 7.9642154e-39
-0.015040002 0.030796185 0.75200003 7.6883501e-39
-0.01357143 0.030714259 0.75000012 7.6887089e-39
-0.01217524 0.030796193 0.75200003 7.5972321e-39
-0.010742859 0.030796185 0.75200003 7.7816206e-39
-0.0093104774 0.030796178 0.75200009 7.8720169e-39
-0.0078780958 0.030796185 0.75200003 6.6681068e-39
-0.0064457147 0.030796185 0.75200003 5.5646473e-39
-0.0050133336 0.030796185 0.75200003 1.0438027e-38
-0.0035809528 0.030796193 0.75200003 1.5321097e-38
-0.0021428575 0.030714266 0.75000012 1.9096758e-38
-0.00071428582 0.030714273 0.75000006 2.2866676e-38
0.00071428576 0.030714259 0.75000012 2.2681567e-38
0.0021428571 0.030714281 0.75000006 2.259045e-38
0.0035714288 0.030714266 0.75000012 2.2681568e-38
0.0050000004 0.030714259 0.75000012 2.277376e-38
0.0064457152 0.030796185 0.75200003 2.2405337e-38
0.0078780958 0.030796178 0.75200009 2.2036566e-38
0.0093104765 0.030796178 0.75200003 2.2774124e-38
0.010757144 0.030837134 0.75300008 2.3417683e-38
0.01219143 0.030837134 0.75300002 1.7527288e-38
0.013625715 0.030837141 0.75300008 1.1633322e-38
0.015060001 0.030837141 0.75300002 1.0352296e-38
0.016494287 0.030837134 0.75300002 9.1609453e-39
0.017928572 0.030837126 0.75300008 8.883285e-39
0.019362858 0.030837134 0.75300002 8.6963868e-39
0.020797145 0.030837134 0.75300008 8.0488762e-39
0.02223143 0.030837126 0.75300002 7.3923903e-39
0.023665715 0.030837126 0.75300002 7.2983954e-39
0.025100002 0.030837134 0.75300002 7.3045009e-39
0.026604764 0.03091903 0.75500005 7.2191282e-39
0.028042858 0.03091903 0.75500005 7.1341086e-39
0.029480955 0.03091903 0.75500005 1.0260461e-38
0.030919049 0.030919038 0.75500005 1.3294567e-38
0.032357149 0.030919023 0.75500005 1.4854281e-38
0.033795245 0.030919015 0.75500005 1.6505883e-38
0.035233341 0.03091903 0.75500005 1.6320057e-38
0.036671434 0.03091903 0.75500005 1.6227871e-38
0.03810953 0.030919023 0.75500005 1.5951296e-38
0.039547626 0.030919038 0.75500005 1.5770126e-38
0.040985722 0.03091903 0.75500005 1.5860876e-38
-0.033347618 0.031928554 0.74500006 1.118922e-38
-0.031928569 0.031928562 0.74500006 1.2931942e-38
-0.030632384 0.032057121 0.74800003 1.0449513e-38
-0.029285718 0.03214284 0.75000012 7.9652916e-39
-0.027857147 0.03214284 0.75000006 7.9617042e-39
-0.026428575 0.032142848 0.75000012 7.8716624e-39
-0.025000004 0.032142833 0.75000012 7.9638566e-39
-0.023571432 0.03214284 0.75000006 8.0556921e-39
-0.022142861 0.032142848 0.75000012 8.0560509e-39
-0.020714289 0.032142848 0.75000006 7.9638566e-39
-0.019285718 0.03214284 0.75000012 8.2393631e-39
-0.017857146 0.032142848 0.75000012 8.4230341e-39
-0.016472384 0.032228552 0.75200003 8.0556921e-39
-0.015000002 0.03214284 0.75000012 7.5965146e-39
-0.01357143 0.032142855 0.75000006 7.6883501e-39
-0.012142858 0.032142848 0.75000012 7.7809031e-39
-0.010742859 0.032228559 0.75200003 7.966009e-39
-0.0093104774 0.032228559 0.75200009 8.0524593e-39
-0.0078780958 0.032228559 0.75200003 7.1215459e-39
-0.0064457152 0.032228567 0.75200003 6.1145827e-39
-0.0050133341 0.032228567 0.75200003 1.0619543e-38
-0.0035809525 0.032228559 0.75200003 1.5134912e-38
-0.0021428573 0.03214284 0.75000006 1.8914522e-38
-0.00071428576 0.03214284 0.75000012 2.2589015e-38
0.00071428582 0.032142833 0.75000006 2.2219161e-38
0.0021428573 0.032142848 0.75000012 2.1762134e-38
0.0035714291 0.032142833 0.75000012 2.2219518e-38
0.0050133336 0.032228559 0.75200009 2.258937e-38
0.0064457147 0.032228559 0.75200003 2.2406416e-38
0.0078780958 0.032228567 0.75200009 2.2222389e-38
0.0093104765 0.032228567 0.75200003 2.2866677e-38
0.010742858 0.032228559 0.75200003 2.3415172e-38
0.012191429 0.032271408 0.75300002 1.7621994e-38
0.013625714 0.032271422 0.75300008 1.172982e-38
0.01506 0.032271415 0.75300002 1.0537041e-38
0.016494289 0.032271415 0.75300002 9.3435387e-39
0.017928574 0.03227143 0.75300002 9.3413877e-39
0.019362859 0.032271415 0.75300002 9.3413877e-39
0.020797146 0.032271415 0.75300008 8.7910936e-39
0.022231432 0.03227143 0.75300002 8.2253669e-39
0.023665717 0.032271422 0.75300008 7.9369405e-39
0.025100004 0.032271422 0.75300002 7.5771375e-39
0.026534289 0.032271415 0.75300002 7.492841e-39
0.028042858 0.032357119 0.75500005 7.3177796e-39
0.029480955 0.032357134 0.75500005 9.7116009e-39
0.030919049 0.032357126 0.75500005 1.2097484e-38
0.032357149 0.032357126 0.75500005 1.3012923e-38
0.033795245 0.032357134 0.75500005 1.3929836e-38
0.035233341 0.032357119 0.75500011 1.3653964e-38
0.036671434 0.032357126 0.75500005 1.3375949e-38
0.03810953 0.032357112 0.75500005 1.3189053e-38
0.039547626 0.032357134 0.75500005 1.2915691e-38
0.040985722 0.032357119 0.75500005 1.319047e-38
-0.034393333 0.032989502 0.73700011 9.5325934e-39
-0.03312381 0.033123799 0.74000001 1.0452742e-38
-0.031671431 0.033079036 0.73900002 1.1465444e-38
-0.030591432 0.033437118 0.7470001 9.6215591e-39
-0.029207623 0.033481903 0.74800003 7.7819793e-39
-0.027857147 0.033571407 0.75000012 7.3188558e-39
-0.026428575 0.033571415 0.75000012 6.8611132e-39
-0.025000004 0.033571415 0.75000006 7.3206494e-39
-0.023571432 0.033571407 0.75000012 7.7798269e-39
-0.022142861 0.033571422 0.75000006 7.7801856e-39
-0.020714289 0.033571415 0.75000012 7.8713037e-39
-0.019285718 0.0335714 0.75000012 8.0553334e-39
-0.017857146 0.033571422 0.75000006 8.2390044e-39
-0.016472384 0.033660941 0.75200003 7.6876327e-39
-0.015000002 0.033571415 0.75000006 7.1366197e-39
-0.01357143 0.033571415 0.75000012 7.2284552e-39
-0.01217524 0.033660941 0.75200009 7.3210082e-39
-0.010714287 0.033571407 0.75000006 7.7809031e-39
-0.0093104765 0.033660948 0.75200003 8.2400778e-39
-0.0078780949 0.033660948 0.75200003 7.1272857e-39
-0.0064457152 0.033660941 0.75200003 6.1120701e-39
-0.0050133341 0.033660941 0.75200009 1.0621334e-38
-0.0035809528 0.033660948 0.75200003 1.522567e-38
-0.0021428573 0.033571407 0.75000012 1.900241e-38
-0.00071428571 0.033571415 0.75000006 2.2773404e-38
0.00071428588 0.0335714 0.75000012 2.24057e-38
0.0021428573 0.033571407 0.75000012 2.2131269e-38
0.0035714291 0.033571415 0.75000006 2.2313144e-38
0.0050133336 0.033660941 0.75200009 2.2590087e-38
0.0064285723 0.033571422 0.75000006 2.2314223e-38
0.0078780958 0.033660948 0.75200003 2.2130197e-38
0.0093104765 0.033660948 0.75200003 2.2774483e-38
0.010742858 0.033660948 0.75200003 2.3417683e-38
0.01219143 0.033705696 0.75300002 1.7710601e-38
0.013625715 0.033705704 0.75300008 1.1994205e-38
0.015060001 0.033705704 0.75300002 1.0718557e-38
0.016494287 0.033705696 0.75300008 9.5286446e-39
0.017928572 0.033705711 0.75300002 9.6183291e-39
0.019362858 0.033705696 0.75300002 9.8023602e-39
0.020797145 0.033705689 0.75300008 9.892402e-39
0.02223143 0.033705704 0.75300002 1.0066382e-38
0.023665715 0.033705696 0.75300008 9.0468586e-39
0.025100004 0.033705696 0.75300002 8.0338038e-39
0.026604764 0.033795223 0.75500011 7.8609004e-39
0.028042858 0.033795223 0.75500005 7.6876327e-39
0.029480955 0.033795208 0.75500005 9.801284e-39
0.030919049 0.03379523 0.75500005 1.1911309e-38
0.032357145 0.033795215 0.75500005 1.2733843e-38
0.033795241 0.033795223 0.75500005 1.3648241e-38
0.035233337 0.033795223 0.75500005 1.3373439e-38
0.03667143 0.033795215 0.75500011 1.3187616e-38
0.038109526 0.033795215 0.75500005 1.3003227e-38
0.039547622 0.033795223 0.75500005 1.2727712e-38
0.040985718 0.033795223 0.75500005 1.245148e-38
-0.034393337 0.034393318 0.73700005 9.5275712e-39
-0.03312381 0.034533314 0.74000001 9.7159057e-39
-0.031714287 0.034533307 0.74000007 9.8956264e-39
-0.03050953 0.034766659 0.745 8.7896516e-39
-0.029207624 0.034906663 0.74800003 7.5911267e-39
-0.027782861 0.034906648 0.74800003 6.7620975e-39
-0.026428575 0.034999989 0.75000006 5.8476914e-39
-0.025000004 0.034999982 0.75000012 6.6774422e-39
-0.023571432 0.034999982 0.75000006 7.5046791e-39
-0.022142861 0.034999989 0.75000012 7.5965146e-39
-0.020714289 0.034999982 0.75000012 7.68799e-39
-0.019285718 0.034999982 0.75000006 7.871661e-39
-0.017857146 0.034999989 0.75000012 8.0546131e-39
-0.016428575 0.034999989 0.75000006 7.3195704e-39
-0.015000002 0.034999982 0.75000012 6.5841676e-39
-0.01357143 0.034999982 0.75000012 6.7671211e-39
-0.01217524 0.035093322 0.75200003 6.8611104e-39
-0.010742859 0.035093337 0.75200003 7.5957958e-39
-0.0093104774 0.03509333 0.75200003 8.3283246e-39
-0.0078780958 0.035093315 0.75200009 7.2191211e-39
-0.0064457147 0.035093337 0.75200003 6.0234632e-39
-0.0050133336 0.03509333 0.75200009 1.0711736e-38
-0.0035809525 0.035093337 0.75200003 1.5316788e-38
-0.0021428573 0.034999989 0.75000006 1.9188234e-38
-0.00071428571 0.034999989 0.75000012 2.2957075e-38
0.00071428588 0.034999989 0.75000012 2.2683003e-38
0.0021428573 0.034999996 0.75000006 2.2405342e-38
0.0035714291 0.034999982 0.75000012 2.2495739e-38
0.0050000004 0.034999989 0.75000006 2.2497892e-38
0.0064285719 0.034999989 0.75000012 2.2222026e-38
0.0078571429 0.034999996 0.75000006 2.1945448e-38
0.0093104756 0.03509333 0.75200009 2.2683006e-38
0.010742857 0.035093337 0.75200003 2.3415889e-38
0.01219143 0.035139993 0.75300002 1.7899653e-38
0.013625715 0.035139985 0.75300008 1.2280474e-38
0.015060001 0.03514 0.75300002 1.099837e-38
0.016538097 0.035233319 0.75500005 9.6204801e-39
0.017928572 0.035139993 0.75300002 9.984955e-39
0.019362858 0.035139978 0.75300008 1.0262973e-38
0.020852383 0.035233319 0.75500005 1.1092721e-38
0.022290478 0.035233319 0.75500005 1.1813408e-38
0.023728574 0.035233319 0.75500005 1.0149603e-38
0.025166668 0.035233326 0.75500005 8.4980036e-39
0.026604764 0.035233326 0.75500005 8.2293172e-39
0.028042858 0.035233311 0.75500005 7.9609868e-39
0.029480955 0.035233326 0.75500005 9.8030777e-39
0.030919049 0.035233319 0.75500005 1.1635082e-38
0.032357145 0.035233319 0.75500005 1.2454744e-38
0.033795241 0.035233326 0.75500005 1.3280173e-38
0.035233337 0.035233326 0.75500005 1.3187249e-38
0.03667143 0.035233319 0.75500005 1.3001788e-38
0.038109526 0.035233304 0.75500011 1.2816328e-38
0.039547622 0.035233326 0.75500005 1.2540454e-38
0.040877145 0.03514 0.75300002 1.1711056e-38
0.042423811 0.035233319 0.75500005 1.0887049e-38
-0.03312381 0.035942852 0.74000001 1.1272804e-38
-0.031714287 0.035942845 0.74000007 1.3560075e-38
-0.030632384 0.036331415 0.74800003 1.2731036e-38
-0.029285718 0.036428548 0.75000012 1.1989898e-38
-0.027857147 0.036428548 0.75000006 8.965785e-39
-0.026499052 0.036525711 0.75200003 6.028131e-39
-0.02506667 0.036525704 0.75200003 6.7664079e-39
-0.023634288 0.036525704 0.75200003 7.5050379e-39
-0.022201909 0.036525711 0.75200003 7.5046791e-39
-0.020714289 0.036428556 0.75000006 7.504319e-39
-0.019337146 0.036525704 0.75200003 6.8585979e-39
-0.017904764 0.036525711 0.75200009 6.2161067e-39
-0.016472384 0.036525711 0.75200003 8.7882167e-39
-0.015040002 0.036525704 0.75200003 1.1449294e-38
-0.013607621 0.036525711 0.75200003 1.1456826e-38
-0.01217524 0.036525711 0.75200003 1.1454317e-38
-0.010742859 0.036525697 0.75200009 9.3417436e-39
-0.0093104774 0.036525704 0.75200003 7.3199264e-39
-0.0078780958 0.036525689 0.75200003 6.5759139e-39
-0.0064457147 0.036525711 0.75200003 5.9284005e-39
-0.0050133336 0.036525697 0.75200003 9.7926632e-39
-0.0035857148 0.036574274 0.75300002 1.3754151e-38
-0.0021485719 0.036525704 0.75200003 1.8358485e-38
-0.00071619061 0.036525697 0.75200009 2.2958511e-38
0.00071619055 0.036525697 0.75200003 2.2496822e-38
0.0021485717 0.036525704 0.75200003 2.1943294e-38
0.0035714291 0.036428556 0.75000006 2.2220949e-38
0.0050000004 0.036428548 0.75000012 2.2407488e-38
0.0064285719 0.036428556 0.75000012 2.2128752e-38
0.0078571429 0.036428556 0.75000006 2.1940424e-38
0.0093104765 0.036525697 0.75200003 2.2681212e-38
0.010742858 0.036525711 0.75200003 2.3417683e-38
0.01219143 0.036574274 0.75300008 1.7894989e-38
0.013625715 0.036574282 0.75300002 1.2453384e-38
0.015060001 0.036574289 0.75300002 1.0903307e-38
0.016538097 0.036671393 0.75500011 9.3474861e-39
0.017976191 0.036671415 0.75500005 9.6172543e-39
0.019414287 0.0366714 0.75500005 9.8963481e-39
0.020852383 0.036671408 0.75500005 1.0721433e-38
0.02223143 0.036574274 0.75300008 1.1444633e-38
0.023728574 0.036671415 0.75500005 9.325595e-39
0.025166668 0.0366714 0.75500005 7.3037834e-39
0.026604764 0.036671422 0.75500005 7.2184079e-39
0.028042858 0.036671408 0.75500005 7.2259427e-39
0.029480955 0.0366714 0.75500005 9.5250601e-39
0.030919049 0.036671415 0.75500005 1.1728708e-38
0.032357145 0.036671408 0.75500005 1.2272502e-38
0.033795241 0.036671415 0.75500005 1.2819912e-38
0.035280004 0.036719993 0.7560001 1.2818821e-38
0.036720004 0.036719993 0.75600004 1.2907796e-38
0.038109526 0.036671408 0.75500005 1.272521e-38
0.039442863 0.036574282 0.75300008 1.2631213e-38
0.040985718 0.036671408 0.75500005 1.2264938e-38
0.042480003 0.036719978 0.7560001 1.1986907e-38
0.043920003 0.036719985 0.75600004 1.1803941e-38
-0.030714288 0.037857119 0.75000012 1.6767846e-38
-0.029363813 0.037958086 0.75200003 1.6319439e-38
-0.027931433 0.037958078 0.75200009 1.1267059e-38
-0.026499052 0.037958078 0.75200003 6.2103656e-39
-0.02506667 0.037958089 0.75200003 6.854649e-39
-0.023634288 0.037958086 0.75200003 7.5018051e-39
-0.022201909 0.037958082 0.75200003 7.4132024e-39
-0.020769527 0.037958082 0.75200009 7.3181369e-39
-0.019337146 0.037958089 0.75200003 5.841953e-39
-0.017904764 0.037958074 0.75200003 4.3811933e-39
-0.016472384 0.037958097 0.75200003 1.0350859e-38
-0.015040002 0.037958089 0.75200003 1.6239092e-38
-0.013607621 0.037958089 0.75200003 1.6156224e-38
-0.01217524 0.0379581 0.75200003 1.6057574e-38
-0.010742859 0.037958086 0.75200009 1.1180967e-38
-0.0093228584 0.038008571 0.75300002 6.2161067e-39
-0.0078885723 0.038008556 0.75300008 6.0191584e-39
-0.0064457152 0.0379581 0.75200003 5.7450841e-39
-0.0050200005 0.038008563 0.75300008 8.9600411e-39
-0.0035857151 0.038008571 0.75300002 1.2189356e-38
-0.0021485719 0.037958078 0.75200003 1.7625235e-38
-0.00071714283 0.038008552 0.75300008 2.2955638e-38
0.00071619061 0.037958086 0.75200003 2.2219159e-38
0.0021485717 0.037958082 0.75200003 2.1484831e-38
0.0035809525 0.037958082 0.75200009 2.19458e-38
0.0050133336 0.037958089 0.75200003 2.23135e-38
0.0064285714 0.03785713 0.75000006 2.2128036e-38
0.0078780958 0.037958097 0.75200003 2.1852894e-38
0.0093104765 0.037958086 0.75200003 2.2683006e-38
0.010742858 0.037958089 0.75200003 2.3415889e-38
0.01219143 0.038008556 0.75300008 1.7992566e-38
0.013625715 0.038008559 0.75300002 1.255634e-38
0.015060001 0.038008563 0.75300008 1.0813265e-38
0.016494287 0.038008571 0.75300002 9.0640833e-39
0.017976193 0.038109504 0.75500011 9.332055e-39
0.019414289 0.038109504 0.75500005 9.5246971e-39
0.020852385 0.038109496 0.75500005 1.0360189e-38
0.022290479 0.038109496 0.75500005 1.1080157e-38
0.023728576 0.038109504 0.75500005 8.5873167e-39
0.02516667 0.038109504 0.75500005 6.0191598e-39
0.026604766 0.0381095 0.75500005 6.2982607e-39
0.02804286 0.038109511 0.75500005 6.4898252e-39
0.029480956 0.0381095 0.75500005 9.1587943e-39
0.030960003 0.038159989 0.75600004 1.1818393e-38
0.032400001 0.038159978 0.75600004 1.2085964e-38
0.033840001 0.038159985 0.75600004 1.2269266e-38
0.035280004 0.038159985 0.75600004 1.2544046e-38
0.036720004 0.038159981 0.7560001 1.2727366e-38
0.038109526 0.038109515 0.75500005 1.2728451e-38
0.039547622 0.038109511 0.75500005 1.2727722e-38
0.041040003 0.038159985 0.75600004 1.2913533e-38
0.042480003 0.038159974 0.7560001 1.3001414e-38
-0.030796194 0.03939046 0.75200009 1.8723291e-38
-0.029363813 0.03939046 0.75200003 1.9650987e-38
-0.027931433 0.039390467 0.75200003 1.421154e-38
-0.026534289 0.039442841 0.75300002 8.7735087e-39
-0.02506667 0.039390463 0.75200003 6.938584e-39
-0.023634288 0.039390463 0.75200009 5.1115683e-39
-0.022201909 0.039390471 0.75200003 5.9395297e-39
-0.020769527 0.039390456 0.75200003 6.8596783e-39
-0.019337146 0.039390478 0.75200003 1.0173648e-38
-0.017928574 0.039442845 0.75300008 1.3482596e-38
-0.016472384 0.039390471 0.75200003 1.4772956e-38
-0.015040002 0.039390471 0.75200003 1.607085e-38
-0.013607621 0.03939046 0.75200009 1.7446948e-38
-0.01217524 0.039390467 0.75200003 1.8917751e-38
-0.010742859 0.039390467 0.75200003 1.4222302e-38
-0.0093228584 0.039442852 0.75300002 9.5272069e-39
-0.0078885723 0.039442841 0.75300008 7.2158869e-39
-0.0064457152 0.039390467 0.75200009 4.9199967e-39
-0.0050133336 0.039390467 0.75200003 8.9643417e-39
-0.0035857151 0.039442856 0.75300002 1.3009415e-38
-0.0021514292 0.039442841 0.75300008 1.7896075e-38
-0.00071714283 0.039442848 0.75300002 2.2774835e-38
0.00071714295 0.039442848 0.75300002 2.203656e-38
0.0021514285 0.039442845 0.75300008 2.1299723e-38
0.0035857144 0.039442841 0.75300002 2.1760332e-38
0.005020001 0.039442837 0.75300008 2.2312783e-38
0.0064542866 0.039442852 0.75300002 2.2129113e-38
0.0078780958 0.039390471 0.75200003 2.2036925e-38
0.0093104765 0.039390475 0.75200003 2.2774124e-38
0.010742858 0.039390467 0.75200009 2.3417684e-38
0.012191429 0.039442837 0.75300008 1.8355963e-38
0.013625714 0.039442845 0.75300002 1.3189862e-38
0.01506 0.039442848 0.75300008 1.1174866e-38
0.016538097 0.039547596 0.75500005 9.1512511e-39
0.017976191 0.039547607 0.75500005 9.5146414e-39
0.019414287 0.039547592 0.75500011 9.8873728e-39
0.020852383 0.0395476 0.75500005 1.0444132e-38
0.022290478 0.0395476 0.75500005 1.1081589e-38
0.023728574 0.039547607 0.75500005 9.5114044e-39
0.025166668 0.039547592 0.75500005 7.9477025e-39
0.026604764 0.039547615 0.75500005 7.2176932e-39
0.028080001 0.039599992 0.75600004 6.5816607e-39
0.029520001 0.039599981 0.75600004 9.2488361e-39
0.030960003 0.039599989 0.75600004 1.1911665e-38
0.032400005 0.039599989 0.75600004 1.1997e-38
0.033840004 0.039599985 0.7560001 1.2085961e-38
0.035280008 0.039599981 0.75600004 1.2361105e-38
0.036720008 0.039599977 0.7560001 1.2545143e-38
0.038109526 0.039547604 0.75500005 1.2361121e-38
0.039547622 0.039547611 0.75500005 1.2269989e-38
0.041040007 0.039599981 0.75600004 1.2453286e-38
0.042480007 0.03959997 0.75600004 1.2730225e-38
-0.030796194 0.040822841 0.75200003 2.0662612e-38
-0.029363813 0.040822841 0.75200003 2.2860927e-38
-0.027931433 0.040822852 0.75200003 1.7062022e-38
-0.026534287 0.040877126 0.75300002 1.1257009e-38
-0.025100002 0.040877134 0.75300008 6.9227998e-39
-0.023634288 0.040822838 0.75200009 2.6205262e-39
-0.022201909 0.04082286 0.75200003 4.5576854e-39
-0.020769527 0.040822845 0.75200003 6.4062363e-39
-0.019337146 0.040822852 0.75200003 1.4509647e-38
-0.017928572 0.040877134 0.75300002 2.2585428e-38
-0.016494287 0.04087713 0.75300002 1.9278987e-38
-0.015060002 0.040877115 0.75300008 1.5878923e-38
-0.013607621 0.040822849 0.75200003 1.882591e-38
-0.01217524 0.040822856 0.75200003 2.1672454e-38
-0.010742859 0.040822841 0.75200003 1.7262918e-38
-0.0093228584 0.04087713 0.75300008 1.2738218e-38
-0.0078885723 0.040877137 0.75300002 8.39719e-39
-0.0064457147 0.040822841 0.75200003 4.0927612e-39
-0.0050133336 0.040822856 0.75200003 8.9672186e-39
-0.0035857148 0.040877141 0.75300002 1.3843112e-38
-0.002151429 0.040877126 0.75300008 1.8266646e-38
-0.00071714295 0.040877149 0.75300002 2.2587935e-38
0.00071714289 0.040877134 0.75300008 2.1852173e-38
0.0021514287 0.040877126 0.75300008 2.1116052e-38
0.0035857146 0.040877141 0.75300002 2.1666344e-38
0.0050333343 0.040985703 0.75500005 2.2220589e-38
0.0064542866 0.040877134 0.75300002 2.2221669e-38
0.0078885714 0.040877145 0.75300008 2.2222031e-38
0.0093228566 0.040877141 0.75300002 2.2866677e-38
0.010785715 0.040985692 0.75500011 2.3416967e-38
0.01222381 0.040985707 0.75500005 1.8639723e-38
0.013661906 0.040985692 0.75500005 1.3842039e-38
0.015060001 0.04087713 0.75300008 1.1545078e-38
0.016538097 0.0409857 0.75500005 9.2405769e-39
0.017976191 0.040985707 0.75500005 9.6882693e-39
0.019414287 0.040985696 0.75500005 1.0162521e-38
0.020852383 0.040985707 0.755 1.0631391e-38
0.022290478 0.040985696 0.75500005 1.0989756e-38
0.023728574 0.040985703 0.75500005 1.042905e-38
0.025166668 0.040985703 0.75500005 9.7854914e-39
0.026604764 0.040985696 0.75500005 8.2260886e-39
0.028080001 0.041039981 0.7560001 6.5809418e-39
0.029520001 0.041039977 0.75600004 9.2513472e-39
0.030960003 0.041039973 0.7560001 1.1910947e-38
0.032400005 0.041039985 0.75600004 1.1904089e-38
0.033840004 0.041039981 0.7560001 1.1902642e-38
0.035280008 0.041039985 0.75600004 1.2177061e-38
0.036720008 0.041039996 0.75600004 1.2360384e-38
0.038160007 0.041039992 0.75600004 1.208489e-38
0.039600007 0.041039981 0.75600004 1.1717174e-38
0.041040007 0.041039988 0.7560001 1.2083425e-38
0.042592388 0.041148569 0.75800002 1.2451486e-38
-0.029402861 0.042311415 0.75300008 2.2772325e-38
-0.027931433 0.042255241 0.75200003 1.9084909e-38
-0.026534289 0.042311411 0.75300008 1.5392473e-38
-0.025100004 0.04231143 0.75300002 8.863182e-39
-0.023665717 0.042311419 0.75300002 2.4311113e-39
-0.022201909 0.042255241 0.75200003 3.6339411e-39
-0.020797146 0.042311426 0.75300002 4.8403666e-39
-0.019362859 0.042311419 0.75300008 1.376743e-38
-0.017928574 0.042311419 0.75300002 2.2682999e-38
-0.016494289 0.042311411 0.75300002 1.8907333e-38
-0.015060002 0.042311411 0.75300002 1.5217772e-38
-0.013625716 0.042311419 0.75300002 1.8265205e-38
-0.012191431 0.042311408 0.75300008 2.1305468e-38
-0.010742859 0.042255223 0.75200003 1.7072431e-38
-0.0093228584 0.042311415 0.75300008 1.2918659e-38
-0.0078885723 0.042311415 0.75300002 8.4990658e-39
-0.0064457152 0.042255227 0.75200003 4.1889029e-39
-0.0050200005 0.042311411 0.75300008 8.8771823e-39
-0.0035857148 0.042311415 0.75300002 1.3660162e-38
-0.002151429 0.042311404 0.75300008 1.8080821e-38
-0.00071714289 0.042311423 0.75300002 2.2591164e-38
0.00071714295 0.042311411 0.75300008 2.2036922e-38
0.0021571431 0.042423785 0.75500011 2.148196e-38
0.0035952383 0.042423785 0.75500005 2.1760332e-38
0.0050333343 0.042423792 0.75500005 2.2130548e-38
0.0064714295 0.042423792 0.75500005 2.2221671e-38
0.0079095233 0.042423785 0.75500005 2.2314226e-38
0.0093476186 0.0424238 0.75500005 2.2774483e-38
0.010785714 0.042423796 0.75500005 2.3234015e-38
0.01219143 0.042311419 0.75300002 1.8538562e-38
0.013625715 0.042311415 0.75300002 1.3922396e-38
0.0151 0.042423781 0.75500005 1.1724086e-38
0.016538097 0.042423796 0.75500005 9.6079188e-39
0.017999999 0.042479981 0.7560001 9.9716693e-39
0.019414287 0.042423788 0.75500005 1.0443051e-38
0.020852383 0.042423796 0.75500005 1.0536327e-38
0.022290478 0.042423785 0.75500011 1.0623494e-38
0.023728574 0.042423788 0.75500005 9.6932972e-39
0.025166668 0.042423792 0.75500005 8.7735101e-39
0.026604764 0.0424238 0.75500005 7.4921193e-39
0.02808 0.042479984 0.7560001 6.3047178e-39
0.029519999 0.042479981 0.75600004 9.1573593e-39
0.030960001 0.042479977 0.75600004 1.2097129e-38
0.032400005 0.042479988 0.75600004 1.1997718e-38
0.033840004 0.042479984 0.75600004 1.1993754e-38
0.035280008 0.04247997 0.7560001 1.2084853e-38
0.036720008 0.042479992 0.75600004 1.2175627e-38
0.038160007 0.042479977 0.7560001 1.1899776e-38
0.039600007 0.042479977 0.75600004 1.1623895e-38
0.041040007 0.042479984 0.7560001 1.1990503e-38
0.042480007 0.042479984 0.75600004 1.2357852e-38
-0.030796194 0.043687619 0.75200003 1.8458214e-38
-0.029363813 0.043687608 0.75200009 2.2588298e-38
-0.027931433 0.043687616 0.75200003 2.1020993e-38
-0.026534287 0.043745693 0.75300008 1.9447949e-38
-0.02506667 0.043687623 0.75200003 1.0797473e-38
-0.023665715 0.0437457 0.75300008 2.156681e-39
-0.02223143 0.043745708 0.75300002 2.7069737e-39
-0.020797145 0.043745711 0.75300002 3.1858913e-39
-0.019414287 0.043861873 0.75500011 1.2944139e-38
-0.017976191 0.043861888 0.75500005 2.2679775e-38
-0.016494287 0.043745711 0.75300008 1.863291e-38
-0.015060002 0.043745711 0.75300002 1.4496727e-38
-0.013625716 0.043745704 0.75300002 1.7710969e-38
-0.012191431 0.043745708 0.75300008 2.0842347e-38
-0.010757145 0.043745711 0.75300002 1.6985977e-38
-0.0093228584 0.0437457 0.75300008 1.3014083e-38
-0.0078885723 0.043745697 0.75300002 8.5833707e-39
-0.0064457152 0.043687616 0.75200003 4.1853156e-39
-0.0050133341 0.043687601 0.75200009 8.7839091e-39
-0.0035857148 0.0437457 0.75300002 1.3384295e-38
-0.002151429 0.043745685 0.75300008 1.7989344e-38
-0.00071714289 0.043745708 0.75300002 2.2588295e-38
0.00071714289 0.043745697 0.75300008 2.2222389e-38
0.0021571431 0.043861888 0.75500005 2.1761055e-38
0.0035952383 0.043861873 0.75500005 2.1946517e-38
0.0050333338 0.043861881 0.75500005 2.2037637e-38
0.006471429 0.043861881 0.75500005 2.2220593e-38
0.0079095233 0.043861896 0.75500005 2.2405702e-38
0.0093476186 0.043861881 0.75500005 2.2683005e-38
0.010785714 0.043861903 0.75500005 2.2954918e-38
0.012223809 0.043861888 0.75500005 1.8449234e-38
0.013661905 0.043861877 0.75500005 1.3933157e-38
0.015100001 0.043861896 0.75500005 1.1912782e-38
0.016538097 0.043861885 0.75500005 9.8848617e-39
0.018000001 0.043919981 0.75600004 1.0331479e-38
0.019414287 0.043861892 0.75500005 1.071497e-38
0.020852383 0.0438619 0.75500005 1.0539197e-38
0.022320002 0.043919977 0.7560001 1.0253283e-38
0.023728574 0.043861896 0.75500011 9.039328e-39
0.025166668 0.043861892 0.75500005 7.7611658e-39
0.026604764 0.043861888 0.75500005 6.8471184e-39
0.028080001 0.043919981 0.75600004 5.9373759e-39
0.029520001 0.043919984 0.7560001 9.1595117e-39
0.030960003 0.043919988 0.75600004 1.2278291e-38
0.032400001 0.043919973 0.7560001 1.2179238e-38
0.033840001 0.043919992 0.75600004 1.1993757e-38
0.035280004 0.043919981 0.7560001 1.1992665e-38
0.036720004 0.043919984 0.75600004 1.1899402e-38
0.038160007 0.043919973 0.75600004 1.1714662e-38
0.039600007 0.043919992 0.75600004 1.1438427e-38
0.041040007 0.043919981 0.75600004 1.1805399e-38
0.042592388 0.044036184 0.75800002 1.2172746e-38
0.044036198 0.044036184 0.75800002 1.2080915e-38
-0.030796194 0.045119986 0.75200003 1.6523571e-38
-0.029363813 0.04511999 0.75200003 2.2131993e-38
-0.027931433 0.045119993 0.75200003 2.1578828e-38
-0.026499052 0.045119982 0.75200003 2.0938129e-38
-0.02506667 0.045120001 0.75200003 1.310305e-38
-0.023634288 0.04511999 0.75200003 5.2719146e-39
-0.022231432 0.045179985 0.75300002 3.6203036e-39
-0.020797145 0.045179989 0.75300002 1.9862887e-39
-0.019414289 0.045299992 0.75500005 9.2588806e-39
-0.017976193 0.045299981 0.75500011 1.6530028e-38
-0.016494287 0.045179989 0.75300008 1.6799795e-38
