# .PCD v0.7 - Point Cloud Data file format
VERSION 0.7
FIELDS x y z rgb
SIZE 4 4 4 4
TYPE F F F F
COUNT 1 1 1 1
WIDTH 960
HEIGHT 1
VIEWPOINT 0 0 0 1 0 0 0
POINTS 960
DATA ascii
0.047840003 -0.036746651 0.72799999 1.0051489e-38
0.049226671 -0.036746666 0.72800004 7.1880137e-39
0.050613336 -0.036746666 0.72800004 7.4659571e-39
0.052000005 -0.036746666 0.72800004 7.744709e-39
0.05338667 -0.036746651 0.72799999 7.4677844e-39
0.054773338 -0.036746681 0.72800004 7.1911989e-39
0.05623715 -0.036797121 0.72900003 7.3748657e-39
0.057625722 -0.036797121 0.72900003 7.6503778e-39
0.059014294 -0.036797121 0.72900003 7.6507421e-39
-0.015880952 -0.035214275 0.72500002 2.341769e-38
-0.01446 -0.035117149 0.72300005 2.341769e-38
-0.013064762 -0.035068586 0.72200012 2.1948322e-38
-0.011689523 -0.035068572 0.72200006 2.0472837e-38
-0.010314286 -0.035068572 0.72200006 2.0282334e-38
-0.0089390473 -0.035068572 0.72200012 2.010584e-38
-0.0075428574 -0.034971416 0.72000003 2.1394769e-38
-0.0061714291 -0.034971431 0.72000003 2.2589003e-38
-0.0048000002 -0.034971431 0.72000003 2.3050348e-38
-0.0034380956 -0.035068572 0.72200012 2.341769e-38
-0.0020571433 -0.034971431 0.72000003 2.341769e-38
-0.0006857143 -0.034971416 0.72000003 2.341769e-38
0.00068571436 -0.034971416 0.72000003 2.341769e-38
0.0020628576 -0.035068572 0.72200012 2.341769e-38
0.0034380958 -0.035068572 0.72200012 2.341769e-38
0.004813333 -0.035068572 0.72200006 2.341769e-38
0.0061885715 -0.035068557 0.72200006 2.341769e-38
0.0075638094 -0.035068572 0.72200012 2.341769e-38
0.0089514311 -0.035117134 0.72300005 2.3142183e-38
0.010328574 -0.035117149 0.72300011 2.286452e-38
0.011705717 -0.035117164 0.72300011 2.2768736e-38
0.01308286 -0.035117149 0.72300005 2.2680128e-38
0.014460003 -0.035117134 0.72300005 2.240175e-38
0.015837144 -0.035117149 0.72300011 2.2129476e-38
0.017214287 -0.035117149 0.72300011 2.2774842e-38
0.01864286 -0.035214275 0.72500002 2.341697e-38
0.019968573 -0.035117134 0.72300005 2.3047473e-38
0.021345716 -0.035117149 0.72300011 2.2681927e-38
0.022722859 -0.035117134 0.72300011 2.3050348e-38
0.024100002 -0.035117134 0.72300005 2.341769e-38
0.025547622 -0.03521429 0.72500002 2.341769e-38
0.026928576 -0.035214275 0.72500002 2.341769e-38
0.028309528 -0.035214275 0.72500002 2.341769e-38
0.02969048 -0.035214275 0.72500002 2.341769e-38
0.031071432 -0.035214275 0.72500002 2.341769e-38
0.032452382 -0.035214275 0.72500002 2.341769e-38
0.033833336 -0.035214275 0.72500002 2.341769e-38
0.035214286 -0.03521429 0.72500002 2.3412528e-38
0.036645722 -0.035262853 0.72600001 1.7243984e-38
0.038028579 -0.035262853 0.72600007 1.1083476e-38
0.039520007 -0.035360008 0.72799999 1.3014537e-38
0.040906671 -0.035359994 0.72800004 1.4858792e-38
0.04229334 -0.035359979 0.72800004 1.5782896e-38
0.043680005 -0.035359994 0.72800004 1.6700962e-38
0.045128573 -0.035408556 0.72900003 1.531812e-38
0.046517145 -0.035408556 0.72900003 1.3831839e-38
0.047905717 -0.035408556 0.72899997 1.0700769e-38
0.049294289 -0.035408556 0.72900003 7.4692515e-39
0.05061334 -0.035359979 0.72799999 7.8318753e-39
0.052071434 -0.035408556 0.72900003 8.1099098e-39
0.053386673 -0.035359994 0.72800004 7.7429447e-39
0.054848574 -0.035408556 0.72900003 7.2833959e-39
0.056237146 -0.035408571 0.72900003 7.557815e-39
0.057783816 -0.035505712 0.73100007 7.8340445e-39
0.059176199 -0.035505712 0.73100007 7.83369e-39
-0.015880955 -0.033833325 0.72500002 2.341769e-38
-0.01446 -0.033739999 0.72300011 2.341769e-38
-0.013064762 -0.033693343 0.72200012 2.2681571e-38
-0.011689523 -0.033693343 0.72200012 2.1941834e-38
-0.010285715 -0.033599988 0.72000003 2.1390431e-38
-0.0089142863 -0.033599988 0.72000003 2.0838702e-38
-0.0075428574 -0.033600003 0.72000003 2.1299315e-38
-0.0061714291 -0.033599988 0.72000003 2.1757806e-38
-0.004813334 -0.033693314 0.72200006 2.2589377e-38
-0.0034285719 -0.033600003 0.72000003 2.341769e-38
-0.0020571433 -0.033600003 0.72000003 2.341769e-38
-0.00068571436 -0.033599988 0.72000003 2.341769e-38
0.00068761909 -0.033693328 0.72200012 2.341769e-38
0.0020657142 -0.033739999 0.72300011 2.341769e-38
0.0034428572 -0.033739984 0.72300011 2.341769e-38
0.0048133335 -0.033693328 0.72200012 2.341769e-38
0.0061971433 -0.033739984 0.72300005 2.341769e-38
0.0075742868 -0.033740014 0.72300011 2.341769e-38
0.0089514302 -0.033740014 0.72300011 2.3142183e-38
0.010328573 -0.033739999 0.72300005 2.2958154e-38
0.011705716 -0.033739999 0.72300005 2.2957078e-38
0.013082859 -0.033740014 0.72300011 2.3050344e-38
0.014460002 -0.033739999 0.72300011 2.2681203e-38
0.015837144 -0.033739999 0.72300005 2.2313866e-38
0.017261906 -0.033833325 0.72500002 2.2866318e-38
0.018642858 -0.033833355 0.72500002 2.3417684e-38
0.020023812 -0.03383334 0.72500002 2.3138944e-38
0.021404764 -0.03383334 0.72500002 2.2772684e-38
0.022785716 -0.033833325 0.72500002 2.3141825e-38
0.024166668 -0.033833325 0.72500002 2.341769e-38
0.02554762 -0.033833325 0.72500002 2.341769e-38
0.026928574 -0.03383331 0.72500002 2.341769e-38
0.028309526 -0.03383334 0.72500002 2.341769e-38
0.029690478 -0.033833325 0.72500002 2.341769e-38
0.03107143 -0.033833325 0.72500002 2.341769e-38
0.032452382 -0.03383334 0.72500002 2.341769e-38
0.033833336 -0.033833325 0.72500002 2.341769e-38
0.035214286 -0.033833325 0.72500002 2.3417553e-38
0.036645718 -0.03388001 0.72600001 1.7520929e-38
0.038028575 -0.033879995 0.72600001 1.1718092e-38
0.039520003 -0.033973336 0.72800004 1.3384062e-38
0.040906668 -0.033973336 0.72800004 1.5045334e-38
0.042293336 -0.033973321 0.72800004 1.5691393e-38
0.043680001 -0.033973321 0.72799999 1.6337188e-38
0.04512858 -0.034019977 0.72900003 1.301576e-38
0.046517152 -0.034019977 0.72900003 9.7799366e-39
0.047905724 -0.034019992 0.72900003 8.5756131e-39
0.049294297 -0.034019977 0.72900003 7.3709518e-39
0.050613336 -0.033973321 0.72800004 7.5563787e-39
0.052071441 -0.034019977 0.72900003 7.7422203e-39
0.053460009 -0.034019992 0.72900003 7.6511204e-39
0.054848582 -0.034019977 0.72900003 7.468506e-39
0.056237154 -0.034019992 0.72900003 7.8351109e-39
0.057783816 -0.034113318 0.73100001 8.1102629e-39
0.059176199 -0.034113333 0.73100007 7.9265961e-39
-0.01590286 -0.032497153 0.72600007 2.341769e-38
-0.01446 -0.032362863 0.72300005 2.341769e-38
-0.013064762 -0.0323181 0.72200006 2.341769e-38
-0.011689523 -0.032318085 0.72200006 2.3416233e-38
-0.010285714 -0.032228559 0.72000003 2.249929e-38
-0.0089142853 -0.032228559 0.72000003 2.1576272e-38
-0.0075428574 -0.032228559 0.72000003 2.1298254e-38
-0.0061714291 -0.032228559 0.72000003 2.0934522e-38
-0.0048000002 -0.032228574 0.72000003 2.2223829e-38
-0.0034285719 -0.032228559 0.72000003 2.341769e-38
-0.0020571433 -0.032228559 0.72000003 2.341769e-38
-0.00068571436 -0.032228559 0.72000003 2.341769e-38
0.00068761915 -0.0323181 0.72200012 2.341769e-38
0.0020657144 -0.032362863 0.72300005 2.341769e-38
0.0034428574 -0.032362849 0.72300005 2.341769e-38
0.0048200004 -0.032362863 0.72300011 2.341769e-38
0.0061971433 -0.032362863 0.72300011 2.341769e-38
0.0075742863 -0.032362863 0.72300005 2.341769e-38
0.0089514311 -0.032362849 0.72300005 2.3234019e-38
0.010328574 -0.032362863 0.72300011 2.2958154e-38
0.011705717 -0.032362863 0.72300011 2.3234019e-38
0.01308286 -0.032362863 0.72300005 2.3417687e-38
0.014460003 -0.032362834 0.72300005 2.295815e-38
0.015837144 -0.032362863 0.72300011 2.2498615e-38
0.017261906 -0.032452375 0.72500002 2.2958513e-38
0.018642858 -0.03245239 0.72500002 2.3415894e-38
0.020023812 -0.032452375 0.72500002 2.3134286e-38
0.021404764 -0.03245239 0.72500002 2.2864163e-38
0.022785716 -0.032452375 0.72500002 2.3142183e-38
0.024166668 -0.03245236 0.72500002 2.341769e-38
0.02554762 -0.03245239 0.72500002 2.341769e-38
0.026928574 -0.032452375 0.72500002 2.341769e-38
0.028309528 -0.03245239 0.72500002 2.341769e-38
0.02969048 -0.032452375 0.72500002 2.341769e-38
0.031071432 -0.032452375 0.72500002 2.341769e-38
0.032452386 -0.032452375 0.72500002 2.341769e-38
0.03383334 -0.03245236 0.72500002 2.341769e-38
0.035262868 -0.032497138 0.72600007 2.3321062e-38
0.036645725 -0.032497153 0.72600001 1.7888291e-38
0.038028583 -0.032497138 0.72600001 1.2373838e-38
0.039520007 -0.032586664 0.72800004 1.375817e-38
0.040906671 -0.032586649 0.72800004 1.5138566e-38
0.04229334 -0.032586649 0.72799999 1.5508057e-38
0.043680005 -0.032586664 0.72800004 1.5871898e-38
0.04512858 -0.032631412 0.72900003 1.0810988e-38
0.046517152 -0.032631412 0.72899997 5.7312533e-39
0.047905724 -0.032631427 0.72900003 6.541903e-39
0.049294297 -0.032631412 0.72900003 7.2798072e-39
0.050682869 -0.032631412 0.72900003 7.3727091e-39
0.052071441 -0.032631412 0.72899997 7.3745013e-39
0.053460009 -0.032631412 0.72900003 7.5588898e-39
0.054848582 -0.032631397 0.72900003 7.6514427e-39
0.056237154 -0.032631412 0.72900003 8.0195036e-39
0.057625726 -0.032631397 0.72900003 8.3861337e-39
0.059014298 -0.032631412 0.72900003 8.1113503e-39
-0.015902858 -0.031114295 0.72600001 2.341769e-38
-0.014500001 -0.031071439 0.72500002 2.341769e-38
-0.013064761 -0.030942872 0.72200012 2.2774842e-38
-0.011689522 -0.030942857 0.72200006 2.2223815e-38
-0.010285714 -0.030857131 0.72000003 2.1669558e-38
-0.0089142853 -0.030857146 0.72000003 2.1117827e-38
-0.0075428584 -0.030857146 0.72000003 2.0840526e-38
-0.00617143 -0.030857131 0.72000003 2.0661533e-38
-0.0048000012 -0.030857146 0.72000003 2.2039799e-38
-0.0034380958 -0.030942857 0.72200012 2.341769e-38
-0.0020571433 -0.030857131 0.72000003 2.341769e-38
-0.0006857143 -0.030857131 0.72000003 2.341769e-38
0.00068761909 -0.030942842 0.72200006 2.341769e-38
0.0020657144 -0.030985713 0.72300011 2.341769e-38
0.0034428574 -0.030985713 0.72300011 2.341769e-38
0.0048200008 -0.030985713 0.72300011 2.341769e-38
0.0061971438 -0.030985713 0.72300005 2.341769e-38
0.0075742868 -0.030985743 0.72300011 2.341769e-38
0.0089514302 -0.030985728 0.72300011 2.3141825e-38
0.010328574 -0.030985713 0.72300005 2.2956719e-38
0.011705717 -0.030985713 0.72300005 2.3141825e-38
0.01308286 -0.030985713 0.72300005 2.341769e-38
0.014460003 -0.030985713 0.72300011 2.3141825e-38
0.015837146 -0.030985713 0.72300011 2.2865242e-38
0.017261906 -0.03107141 0.72500002 2.3141825e-38
0.018642858 -0.031071424 0.72500002 2.341769e-38
0.020023812 -0.031071424 0.72500002 2.3231865e-38
0.021404764 -0.031071424 0.72500002 2.3142183e-38
0.022785716 -0.03107141 0.72500002 2.3234019e-38
0.024166668 -0.03107141 0.72500002 2.341769e-38
0.02554762 -0.031071439 0.72500002 2.341769e-38
0.026928574 -0.031071424 0.72500002 2.341769e-38
0.028309526 -0.031071439 0.72500002 2.341769e-38
0.029690478 -0.031071424 0.72500002 2.341769e-38
0.03107143 -0.031071424 0.72500002 2.341769e-38
0.032497149 -0.031114295 0.72600001 2.341769e-38
0.033880007 -0.031114295 0.72600001 2.3325854e-38
0.035262864 -0.03111428 0.72600001 2.3325735e-38
0.036645722 -0.031114295 0.72600007 1.8076644e-38
0.038028579 -0.03111428 0.72600001 1.2834794e-38
0.039520003 -0.031200007 0.72800004 1.4032908e-38
0.040906668 -0.031199992 0.72800004 1.52318e-38
0.042293336 -0.031199977 0.72800004 1.5506238e-38
0.043740008 -0.031242862 0.72900003 1.5780766e-38
0.045128576 -0.031242847 0.72900003 1.0983894e-38
0.046517149 -0.031242847 0.72900003 6.1695948e-39
0.047905721 -0.031242847 0.72900003 6.8173535e-39
0.049294293 -0.031242833 0.72900003 7.4659613e-39
0.050682865 -0.031242833 0.72900003 7.1904744e-39
0.052071437 -0.031242847 0.72900009 6.9160245e-39
0.053460006 -0.031242847 0.72900003 7.2833455e-39
0.054848578 -0.031242833 0.72900003 7.6499924e-39
0.056391437 -0.031328559 0.73100001 7.8344019e-39
0.057783816 -0.031328559 0.73100007 8.0180799e-39
0.059176199 -0.031328574 0.73100007 7.8344145e-39
-0.01590286 -0.029731423 0.72600001 2.341769e-38
-0.014500001 -0.029690504 0.72500002 2.3417689e-38
-0.013119048 -0.029690489 0.72500002 2.2223824e-38
-0.011738096 -0.029690474 0.72500002 2.0933094e-38
-0.010314286 -0.029567629 0.72200006 2.0745107e-38
-0.0089514274 -0.029608563 0.72300011 2.0564658e-38
-0.0075428584 -0.029485703 0.72000003 2.0467793e-38
-0.0061885724 -0.029567629 0.72200012 2.0382435e-38
-0.004813334 -0.029567614 0.72200012 2.1948322e-38
-0.0034380958 -0.029567614 0.72200006 2.341769e-38
-0.002057143 -0.029485703 0.72000003 2.341769e-38
-0.0006857143 -0.029485688 0.72000003 2.341769e-38
0.00068761915 -0.029567614 0.72200006 2.341769e-38
0.0020657142 -0.029608577 0.72300005 2.341769e-38
0.0034428574 -0.029608563 0.72300005 2.341769e-38
0.0048199999 -0.029608577 0.72300005 2.341769e-38
0.0061971429 -0.029608577 0.72300011 2.341769e-38
0.0075742858 -0.029608577 0.72300011 2.341769e-38
0.0089514311 -0.029608563 0.72300005 2.3142183e-38
0.010328574 -0.029608577 0.72300005 2.2865601e-38
0.011705717 -0.029608577 0.72300011 2.3142183e-38
0.01308286 -0.029608563 0.72300011 2.341769e-38
0.014460003 -0.029608563 0.72300005 2.3325854e-38
0.015837144 -0.029608577 0.72300005 2.3141825e-38
0.017261907 -0.029690459 0.72500002 2.3325854e-38
0.01864286 -0.029690459 0.72500002 2.341769e-38
0.020023813 -0.029690459 0.72500002 2.341733e-38
0.021404766 -0.029690459 0.72500002 2.3325854e-38
0.022785718 -0.029690474 0.72500002 2.341769e-38
0.02416667 -0.029690459 0.72500002 2.341769e-38
0.025547622 -0.029690474 0.72500002 2.341769e-38
0.026928576 -0.029690474 0.72500002 2.341769e-38
0.028309528 -0.029690474 0.72500002 2.341769e-38
0.02969048 -0.029690474 0.72500002 2.341769e-38
0.031071432 -0.029690489 0.72500002 2.341769e-38
0.032497149 -0.029731423 0.72600007 2.341769e-38
0.033880007 -0.029731438 0.72600001 2.3325854e-38
0.035262864 -0.029731423 0.72600001 2.3229592e-38
0.036645722 -0.029731423 0.72600001 1.8257439e-38
0.038133338 -0.029813319 0.72799999 1.3203937e-38
0.039520007 -0.029813334 0.72800004 1.4215165e-38
0.040906671 -0.029813349 0.72800004 1.5228247e-38
0.04229334 -0.029813334 0.72800004 1.5504134e-38
0.043740008 -0.029854268 0.72900003 1.5685011e-38
0.045128576 -0.029854253 0.72900003 1.1174027e-38
0.046517149 -0.029854268 0.72900003 6.5520106e-39
0.047905721 -0.029854268 0.72900003 7.0921551e-39
0.049294293 -0.029854253 0.72900003 7.5567332e-39
0.050682865 -0.029854253 0.72900003 7.0071748e-39
0.052071437 -0.029854268 0.72900003 6.3639521e-39
0.053460006 -0.029854268 0.72900003 7.008939e-39
0.054848578 -0.029854253 0.72900003 7.5592373e-39
0.05623715 -0.029854268 0.72900003 7.5578066e-39
0.057625722 -0.029854268 0.72900003 7.5585325e-39
-0.01590286 -0.02834858 0.72600001 2.341769e-38
-0.0145 -0.028309539 0.72500002 2.3417686e-38
-0.013119048 -0.028309524 0.72500002 2.2035844e-38
-0.011738095 -0.028309524 0.72500002 2.0559653e-38
-0.010314286 -0.028192386 0.72200012 2.1300427e-38
-0.0089514283 -0.028231427 0.72300005 2.2040121e-38
-0.0075638103 -0.028192371 0.72200006 2.130076e-38
-0.0061885724 -0.028192371 0.72200006 2.0564666e-38
-0.004813334 -0.028192371 0.72200012 2.1946528e-38
-0.0034380958 -0.028192386 0.72200012 2.341769e-38
-0.002057143 -0.028114289 0.72000003 2.341769e-38
-0.00068571436 -0.028114274 0.72000003 2.341769e-38
0.00068761915 -0.028192386 0.72200012 2.341769e-38
0.0020657144 -0.028231427 0.72300005 2.341769e-38
0.0034428574 -0.028231427 0.72300011 2.341769e-38
0.0048200004 -0.028231427 0.72300011 2.341769e-38
0.0061971433 -0.028231427 0.72300005 2.341769e-38
0.0075742863 -0.028231442 0.72300005 2.341769e-38
0.0089514311 -0.028231442 0.72300011 2.286596e-38
0.010328574 -0.028231427 0.72300011 2.2221676e-38
0.011705717 -0.028231442 0.72300005 2.2773765e-38
0.01308286 -0.028231427 0.72300005 2.341769e-38
0.014460003 -0.028231427 0.72300011 2.3325137e-38
0.015837144 -0.028231442 0.72300011 2.3233302e-38
0.017261906 -0.028309509 0.72500002 2.3325854e-38
0.018642858 -0.028309524 0.72500002 2.341769e-38
0.020023812 -0.028309524 0.72500002 2.3325494e-38
0.021404764 -0.028309524 0.72500002 2.3234019e-38
0.022785716 -0.028309509 0.72500002 2.3325854e-38
0.024166668 -0.028309494 0.72500002 2.341769e-38
0.02554762 -0.028309524 0.72500002 2.341769e-38
0.026928574 -0.028309524 0.72500002 2.341769e-38
0.028309526 -0.028309524 0.72500002 2.341769e-38
0.029690478 -0.028309524 0.72500002 2.341769e-38
0.031114288 -0.028348565 0.72600001 2.341769e-38
0.032497149 -0.028348565 0.72600007 2.341769e-38
0.033880007 -0.02834858 0.72600007 2.3325854e-38
0.035262864 -0.028348565 0.72600001 2.3233894e-38
0.03674667 -0.028426647 0.72799999 1.8076632e-38
0.038133334 -0.028426662 0.72800004 1.2925927e-38
0.039520003 -0.028426662 0.72800004 1.3847484e-38
0.040906668 -0.028426662 0.72800004 1.4859505e-38
0.04235144 -0.028465703 0.72900003 1.5136483e-38
0.043740012 -0.028465703 0.72900003 1.550603e-38
0.04512858 -0.028465688 0.72899997 1.0893142e-38
0.046517152 -0.028465703 0.72900003 6.364402e-39
0.047905724 -0.028465703 0.72900003 7.0060705e-39
0.049294297 -0.028465688 0.72900003 7.6518085e-39
0.050682869 -0.028465688 0.72899997 7.5574815e-39
0.052071441 -0.028465703 0.72900003 7.4616915e-39
0.053460009 -0.028465703 0.72900003 7.557822e-39
0.054848582 -0.028465688 0.72900003 7.6521546e-39
0.056391433 -0.028543815 0.73100007 7.7436174e-39
0.057783812 -0.0285438 0.73100007 7.7432698e-39
-0.017285718 -0.026965708 0.72600007 2.341769e-38
-0.015880955 -0.026928559 0.72500002 2.341769e-38
-0.0145 -0.026928574 0.72500002 2.3416249e-38
-0.013119048 -0.026928574 0.72500002 2.1850018e-38
-0.011738095 -0.026928559 0.72500002 2.0196975e-38
-0.010328571 -0.026854277 0.72300011 2.1856468e-38
-0.0089514283 -0.026854277 0.72300011 2.3417299e-38
-0.0075638103 -0.026817143 0.72200012 2.2039037e-38
-0.0061971438 -0.026854277 0.72300005 2.065722e-38
-0.0048200008 -0.026854292 0.72300011 2.2039439e-38
-0.0034428576 -0.026854292 0.72300011 2.341769e-38
-0.0020628576 -0.026817158 0.72200012 2.341769e-38
-0.00068761909 -0.026817143 0.72200006 2.341769e-38
0.00068857154 -0.026854306 0.72300011 2.341769e-38
0.0020657144 -0.026854292 0.72300011 2.341769e-38
0.0034523811 -0.026928574 0.72500002 2.341769e-38
0.0048199999 -0.026854292 0.72300005 2.341769e-38
0.0061971429 -0.026854277 0.72300011 2.341769e-38
0.0075742858 -0.026854277 0.72300011 2.341769e-38
0.0089514302 -0.026854277 0.72300005 2.2498975e-38
0.010328573 -0.026854277 0.72300005 2.1578468e-38
0.011738098 -0.026928559 0.72500002 2.2497181e-38
0.01311905 -0.026928559 0.72500002 2.3324777e-38
0.014500002 -0.026928574 0.72500002 2.3324059e-38
0.015880955 -0.026928574 0.72500002 2.3233302e-38
0.017285714 -0.026965722 0.72600007 2.3325854e-38
0.018668571 -0.026965708 0.72600001 2.341733e-38
0.020051429 -0.026965708 0.72600001 2.3324418e-38
0.021404766 -0.026928574 0.72500002 2.3141823e-38
0.022785718 -0.026928574 0.72500002 2.3325854e-38
0.02416667 -0.026928574 0.72500002 2.341769e-38
0.025547622 -0.026928574 0.72500002 2.341769e-38
0.026928576 -0.026928559 0.72500002 2.341769e-38
0.028309528 -0.026928574 0.72500002 2.341769e-38
0.02973143 -0.026965722 0.72600007 2.341769e-38
0.031114288 -0.026965722 0.72600001 2.341769e-38
0.032497149 -0.026965722 0.72600001 2.341769e-38
0.033880007 -0.026965722 0.72600007 2.3325854e-38
0.035360001 -0.027040005 0.72800004 2.3137035e-38
0.03674667 -0.02704002 0.72800004 1.7888654e-38
0.038133334 -0.027040005 0.72800004 1.2651846e-38
0.039520003 -0.02704002 0.72800004 1.3572681e-38
0.040962864 -0.027077138 0.72900003 1.4400306e-38
0.042351436 -0.027077138 0.72900003 1.4860231e-38
0.043740008 -0.027077138 0.72900003 1.5224767e-38
0.045128576 -0.027077124 0.72900003 1.0711261e-38
0.046517149 -0.027077124 0.72900003 6.1864679e-39
0.047905721 -0.027077124 0.72900003 7.0071481e-39
0.049294293 -0.027077124 0.72900003 7.7425804e-39
0.050682865 -0.027077124 0.72900003 8.2010726e-39
0.052071437 -0.027077124 0.72900003 8.5669601e-39
0.053460006 -0.027077124 0.72900003 8.1999586e-39
0.054848578 -0.027077109 0.72900003 7.7432824e-39
0.056391433 -0.027151436 0.73100001 7.8369018e-39
0.057783812 -0.027151421 0.73100007 7.9276723e-39
-0.017285716 -0.02558285 0.72600001 2.3142183e-38
-0.015880954 -0.025547594 0.72500002 2.3234019e-38
-0.014500001 -0.025547624 0.72500002 2.3417683e-38
-0.013119048 -0.025547609 0.72500002 2.2403897e-38
-0.011738096 -0.025547594 0.72500002 2.1297209e-38
-0.010328571 -0.025477156 0.72300005 2.1391198e-38
-0.0089514283 -0.025477141 0.72300005 2.1397282e-38
-0.0075742863 -0.025477156 0.72300011 2.1023828e-38
-0.0061971433 -0.025477141 0.72300011 2.0740808e-38
-0.0048200004 -0.025477126 0.72300005 2.2036567e-38
-0.0034523811 -0.025547624 0.72500002 2.3417689e-38
-0.0020657144 -0.025477141 0.72300011 2.341769e-38
-0.00068857148 -0.025477126 0.72300011 2.341769e-38
0.00068857154 -0.025477141 0.72300005 2.341769e-38
0.0020714288 -0.025547609 0.72500002 2.341769e-38
0.0034523814 -0.025547639 0.72500002 2.341769e-38
0.0048333337 -0.025547609 0.72500002 2.341769e-38
0.0062142862 -0.025547609 0.72500002 2.341769e-38
0.0075952392 -0.025547624 0.72500002 2.3417689e-38
0.0089761922 -0.025547609 0.72500002 2.2406062e-38
0.010328574 -0.025477156 0.72300011 2.1391925e-38
0.011738097 -0.025547609 0.72500002 2.2405344e-38
0.01308286 -0.025477141 0.72300005 2.3417687e-38
0.014500001 -0.025547624 0.72500002 2.323294e-38
0.015880955 -0.025547609 0.72500002 2.3049988e-38
0.017285716 -0.025582865 0.72600001 2.3234019e-38
0.018668573 -0.025582865 0.72600007 2.3417689e-38
0.020051429 -0.025582865 0.72600001 2.3325134e-38
0.021434287 -0.02558285 0.72600001 2.3325853e-38
0.022817144 -0.02558285 0.72600001 2.3325854e-38
0.024200002 -0.025582865 0.72600007 2.341769e-38
0.025582859 -0.02558285 0.72600001 2.341769e-38
0.026965717 -0.025582865 0.72600001 2.341769e-38
0.028348573 -0.02558285 0.72600001 2.341769e-38
0.02973143 -0.02558285 0.72600007 2.341769e-38
0.031114288 -0.025582865 0.72600007 2.341769e-38
0.032497149 -0.02558285 0.72600001 2.341769e-38
0.033880007 -0.02558285 0.72600001 2.2866318e-38
0.035262864 -0.025582865 0.72600007 2.2313384e-38
0.036746673 -0.025653347 0.72800004 1.7338713e-38
0.038133338 -0.025653332 0.72799999 1.2373103e-38
0.039520007 -0.025653347 0.72800004 1.3111337e-38
0.040906671 -0.025653332 0.72800004 1.3941108e-38
0.042351436 -0.025688544 0.72900003 1.4400666e-38
0.043740008 -0.025688544 0.72900003 1.4862072e-38
0.045128576 -0.025688544 0.72900003 1.0521486e-38
0.046517149 -0.025688559 0.72900003 6.0806404e-39
0.047905721 -0.025688544 0.72900003 6.9128029e-39
0.049294293 -0.025688529 0.72899997 7.7429531e-39
0.050682865 -0.025688544 0.72900003 7.92559e-39
0.052071437 -0.025688544 0.72900003 8.1095917e-39
0.053460006 -0.025688559 0.72900003 7.8340572e-39
0.054848578 -0.025688544 0.72899997 7.5596213e-39
0.056391437 -0.025759041 0.73100007 7.5603317e-39
-0.017285716 -0.0242 0.72600001 2.2774124e-38
-0.015880954 -0.024166651 0.72500002 2.3142183e-38
-0.014500001 -0.024166666 0.72500002 2.3417686e-38
-0.013119048 -0.024166666 0.72500002 2.2958505e-38
-0.011738096 -0.024166666 0.72500002 2.240138e-38
-0.010328571 -0.024100006 0.72300011 2.0921955e-38
-0.0089514283 -0.024099991 0.72300011 1.9368998e-38
-0.0075742868 -0.024099991 0.72300005 2.0101524e-38
-0.0062142867 -0.024166659 0.72500002 2.0748698e-38
-0.0048333341 -0.024166659 0.72500002 2.2131992e-38
-0.0034523811 -0.024166688 0.72500002 2.341769e-38
-0.0020657149 -0.024100006 0.72300011 2.341769e-38
-0.00068857148 -0.024100006 0.72300005 2.341769e-38
0.00068857154 -0.024100006 0.72300005 2.341769e-38
0.002071429 -0.024166666 0.72500002 2.341769e-38
0.0034523814 -0.024166666 0.72500002 2.341769e-38
0.0048333337 -0.024166651 0.72500002 2.341769e-38
0.0062142862 -0.024166651 0.72500002 2.341769e-38
0.0075952387 -0.024166666 0.72500002 2.3417687e-38
0.0089761922 -0.024166651 0.72500002 2.23153e-38
0.010357144 -0.024166666 0.72500002 2.1210047e-38
0.011738097 -0.024166666 0.72500002 2.2314945e-38
0.013119049 -0.024166651 0.72500002 2.341697e-38
0.014500001 -0.024166673 0.72500002 2.3140386e-38
0.015902858 -0.024199992 0.72600001 2.2865599e-38
0.017285716 -0.024199992 0.72600001 2.3142183e-38
0.018668573 -0.024199992 0.72600001 2.3417331e-38
0.020051429 -0.024200007 0.72600007 2.3416254e-38
0.021434287 -0.024199992 0.72600001 2.3417331e-38
0.022817144 -0.024199992 0.72600001 2.341769e-38
0.024200002 -0.024199992 0.72600001 2.341769e-38
0.025582859 -0.024200007 0.72600007 2.341769e-38
0.026965717 -0.024200022 0.72600001 2.341769e-38
0.028348573 -0.024200007 0.72600001 2.341769e-38
0.02973143 -0.024199992 0.72600001 2.341769e-38
0.031114288 -0.0242 0.72600007 2.341769e-38
0.032631435 -0.024299987 0.72900003 2.341769e-38
0.034113336 -0.024366654 0.73100007 2.24075e-38
0.035408579 -0.024299987 0.72900003 2.1388202e-38
0.036746673 -0.024266668 0.72799999 1.6687951e-38
0.038133338 -0.02426666 0.72800004 1.2005772e-38
0.039520007 -0.024266675 0.72800004 1.2742605e-38
0.040962864 -0.024299979 0.72900003 1.3386906e-38
0.042351436 -0.024299979 0.72900003 1.3938654e-38
0.043740008 -0.024299994 0.72900003 1.4486495e-38
0.045128576 -0.024299979 0.72900003 1.0248127e-38
0.046517149 -0.024300009 0.72900003 5.9984921e-39
0.047905721 -0.024299994 0.72900003 6.8206171e-39
0.049294293 -0.024299994 0.72900003 7.6496743e-39
0.050682865 -0.024299994 0.72900003 7.6489835e-39
0.052071437 -0.024299994 0.72900003 7.55785e-39
0.053460006 -0.024299994 0.72900003 7.4663592e-39
0.054848578 -0.024299979 0.72899997 7.3755929e-39
0.05623715 -0.024300002 0.72900003 7.2844679e-39
-0.015880955 -0.022785693 0.72500002 2.2406422e-38
-0.0145 -0.022785731 0.72500002 2.341769e-38
-0.013119048 -0.022785716 0.72500002 2.3142183e-38
-0.011738095 -0.022785701 0.72500002 2.2958486e-38
-0.010357142 -0.022785716 0.72500002 2.1572316e-38
-0.0089761904 -0.022785716 0.72500002 2.0289493e-38
-0.0075952387 -0.022785716 0.72500002 2.1209646e-38
-0.0062142862 -0.022785716 0.72500002 2.2131971e-38
-0.0048333337 -0.022785716 0.72500002 2.2774842e-38
-0.0034523811 -0.022785723 0.72500002 2.341769e-38
-0.0020657147 -0.022722848 0.72300005 2.341769e-38
-0.00068857148 -0.02272284 0.72300011 2.341769e-38
0.00068857148 -0.022722855 0.72300011 2.341769e-38
0.0020657142 -0.022722855 0.72300005 2.341769e-38
0.0034523814 -0.022785723 0.72500002 2.341769e-38
0.0048333337 -0.022785708 0.72500002 2.341769e-38
0.0062142867 -0.022785693 0.72500002 2.341769e-38
0.0075952392 -0.022785701 0.72500002 2.3417686e-38
0.0089761922 -0.022785716 0.72500002 2.2219874e-38
0.010357144 -0.022785716 0.72500002 2.1113548e-38
0.011738097 -0.022785701 0.72500002 2.2221675e-38
0.01311905 -0.022785701 0.72500002 2.3417687e-38
0.014500002 -0.022785716 0.72500002 2.3324773e-38
0.015880954 -0.022785716 0.72500002 2.3140028e-38
0.017261906 -0.022785716 0.72500002 2.3325496e-38
0.018668573 -0.02281715 0.72600001 2.341769e-38
0.020051429 -0.02281715 0.72600001 2.3417331e-38
0.021434287 -0.022817142 0.72600007 2.341769e-38
0.022817144 -0.022817127 0.72600001 2.341769e-38
0.024200002 -0.022817157 0.72600001 2.341769e-38
0.025653336 -0.022879988 0.72800004 2.341769e-38
0.027040003 -0.022879988 0.72800004 2.341769e-38
0.02842667 -0.022879988 0.72800004 2.341769e-38
0.029813338 -0.022879988 0.72799999 2.341769e-38
0.031200005 -0.022880018 0.72800004 2.341769e-38
0.032586671 -0.022880003 0.72800004 2.341769e-38
0.03397334 -0.022880003 0.72800004 2.2129841e-38
0.035360005 -0.022879988 0.72799999 2.0837178e-38
0.036746673 -0.02288001 0.72800004 1.6323815e-38
0.038185719 -0.022911429 0.72900003 1.1821036e-38
0.039574292 -0.022911415 0.72900003 1.2557543e-38
0.040962864 -0.022911415 0.72900003 1.3384794e-38
0.042351436 -0.022911415 0.72899997 1.3845778e-38
0.043740008 -0.022911422 0.72900003 1.4305709e-38
0.045128576 -0.022911407 0.72900003 1.0150546e-38
0.046517149 -0.022911422 0.72900003 5.9870155e-39
0.047905721 -0.022911407 0.72900003 6.8195493e-39
0.049294293 -0.022911407 0.72900003 7.6507421e-39
0.050682865 -0.022911407 0.72900003 7.6496757e-39
0.052071437 -0.022911407 0.72900003 7.6496743e-39
0.053460006 -0.022911407 0.72900003 7.5581961e-39
0.054848578 -0.0229114 0.72900003 7.4667124e-39
0.05623715 -0.022911415 0.72900003 7.3752272e-39
-0.015880955 -0.021404758 0.72500002 2.1671018e-38
-0.0145 -0.021404758 0.72500002 2.3417328e-38
-0.013119048 -0.021404758 0.72500002 2.341769e-38
-0.011738095 -0.021404758 0.72500002 2.3414795e-38
-0.010357142 -0.021404773 0.72500002 2.2303415e-38
-0.0089761904 -0.021404766 0.72500002 2.1208578e-38
-0.0075952387 -0.021404766 0.72500002 2.2315642e-38
-0.0062228581 -0.021434292 0.72600007 2.3417679e-38
-0.004840001 -0.021434277 0.72600007 2.341769e-38
-0.0034571432 -0.021434277 0.72600001 2.341769e-38
-0.002071429 -0.021404766 0.72500002 2.341769e-38
-0.00069047615 -0.021404751 0.72500002 2.341769e-38
0.00069047627 -0.021404751 0.72500002 2.341769e-38
0.0020714288 -0.021404758 0.72500002 2.341769e-38
0.0034523811 -0.021404758 0.72500002 2.341769e-38
0.0048333341 -0.021404743 0.72500002 2.341769e-38
0.0062142867 -0.021404758 0.72500002 2.341769e-38
0.0075952392 -0.021404758 0.72500002 2.3415892e-38
0.0089885732 -0.02143427 0.72600001 2.2217004e-38
0.01037143 -0.0214343 0.72600001 2.0933464e-38
0.011738098 -0.021404758 0.72500002 2.2223829e-38
0.013137145 -0.0214343 0.72600001 2.3417689e-38
0.014520002 -0.021434285 0.72600001 2.3417687e-38
0.015902858 -0.021434285 0.72600001 2.3416971e-38
0.017285716 -0.021434292 0.72600007 2.341769e-38
0.018668573 -0.021434277 0.72600001 2.341769e-38
0.020051429 -0.021434292 0.72600001 2.341769e-38
0.021493334 -0.021493323 0.72799999 2.341769e-38
0.022880001 -0.021493323 0.72800004 2.341769e-38
0.024266668 -0.021493338 0.72800004 2.341769e-38
0.025688576 -0.021522835 0.72900009 2.341769e-38
0.027077146 -0.021522835 0.72900003 2.341769e-38
0.028465718 -0.021522835 0.72900003 2.341769e-38
0.02985429 -0.021522835 0.72900003 2.341769e-38
0.03124286 -0.021522835 0.72900009 2.341769e-38
0.032631435 -0.02152285 0.72900003 2.341769e-38
0.034020007 -0.021522835 0.72900003 2.1856487e-38
0.035408579 -0.021522835 0.72900003 2.019039e-38
0.036797147 -0.021522827 0.72900009 1.5857836e-38
0.038185719 -0.021522842 0.72900003 1.1544073e-38
0.039574292 -0.021522827 0.72900003 1.2464576e-38
0.040962864 -0.021522842 0.72900003 1.3292927e-38
0.042351436 -0.021522842 0.72899997 1.3662101e-38
0.043740008 -0.021522857 0.72900003 1.4025172e-38
0.045128576 -0.021522842 0.72900003 1.0060854e-38
0.046517149 -0.021522857 0.72900003 5.9977676e-39
0.047905721 -0.021522842 0.72899997 6.8191822e-39
0.049294293 -0.021522835 0.72900003 7.6489288e-39
0.050682865 -0.021522835 0.72900003 7.6489274e-39
0.052071437 -0.021522835 0.72900003 7.6496687e-39
0.053460006 -0.021522835 0.72899997 7.5582158e-39
0.054848578 -0.021522835 0.72900003 7.4663676e-39
0.05623715 -0.02152285 0.72900003 7.4663564e-39
-0.015880954 -0.020023793 0.72500002 2.1392996e-38
-0.01446 -0.019968577 0.72300005 2.2958508e-38
-0.013119048 -0.020023823 0.72500002 2.2958513e-38
-0.011738095 -0.020023808 0.72500002 2.2958489e-38
-0.010357142 -0.020023808 0.72500002 2.2217322e-38
-0.0089761904 -0.020023823 0.72500002 2.1487327e-38
-0.0075952387 -0.020023808 0.72500002 2.2407141e-38
-0.0062228576 -0.020051435 0.72600001 2.341769e-38
-0.0048400005 -0.020051427 0.72600007 2.341769e-38
-0.003457143 -0.020051427 0.72600007 2.341769e-38
-0.002071429 -0.0200238 0.72500002 2.341769e-38
-0.00069047621 -0.020023786 0.72500002 2.341769e-38
0.00069047627 -0.0200238 0.72500002 2.341769e-38
0.0020714288 -0.020023815 0.72500002 2.341769e-38
0.0034523811 -0.020023815 0.72500002 2.341769e-38
0.0048333341 -0.020023815 0.72500002 2.341769e-38
0.0062142867 -0.0200238 0.72500002 2.341769e-38
0.0075952392 -0.0200238 0.72500002 2.3417686e-38
0.0089761931 -0.020023823 0.72500002 2.2496455e-38
0.010357145 -0.020023823 0.72500002 2.1485912e-38
0.011754287 -0.02005142 0.72600001 2.2498618e-38
0.013137145 -0.020051435 0.72600007 2.341769e-38
0.014520002 -0.02005142 0.72600001 2.3142183e-38
0.015902858 -0.02005142 0.72600001 2.2958154e-38
0.017333336 -0.020106658 0.72800004 2.3141825e-38
0.018720003 -0.020106658 0.72800004 2.341769e-38
0.02010667 -0.020106643 0.72799999 2.341769e-38
0.021493336 -0.020106673 0.72800004 2.341769e-38
0.022880003 -0.020106673 0.72800004 2.341769e-38
0.02426667 -0.020106673 0.72800004 2.341769e-38
0.025688574 -0.02013427 0.72900003 2.341769e-38
0.027077144 -0.02013427 0.72900003 2.341769e-38
0.028465716 -0.02013427 0.72900003 2.341769e-38
0.029854288 -0.02013427 0.72900003 2.341769e-38
0.03124286 -0.020134263 0.72900003 2.341769e-38
0.032631438 -0.020134278 0.72900003 2.341769e-38
0.03402001 -0.020134263 0.72900003 2.1393722e-38
0.035408583 -0.020134263 0.72900003 1.9362443e-38
0.036797151 -0.020134263 0.72900003 1.5402259e-38
0.038185723 -0.020134278 0.72900003 1.1450782e-38
0.039574295 -0.020134263 0.72900003 1.2280132e-38
0.040962867 -0.020134278 0.72900003 1.3108867e-38
0.04235144 -0.020134285 0.72900003 1.3478064e-38
0.043740012 -0.020134285 0.72900003 1.3938709e-38
0.04512858 -0.02013427 0.72900003 9.8743029e-39
0.046517152 -0.020134285 0.72900003 5.8987477e-39
0.047905724 -0.020134285 0.72900003 6.7280543e-39
0.049294297 -0.02013427 0.72900003 7.5585086e-39
0.050682869 -0.020134285 0.72900003 7.5581373e-39
0.052071441 -0.02013427 0.72900003 7.5581863e-39
0.053606674 -0.020189524 0.73100001 7.5578752e-39
0.054848582 -0.020134263 0.72900003 7.6500541e-39
-0.015880955 -0.018642865 0.72500002 2.1116396e-38
-0.014460001 -0.018591434 0.72300011 2.2495727e-38
-0.013119048 -0.018642858 0.72500002 2.249932e-38
-0.011738095 -0.018642843 0.72500002 2.2401356e-38
-0.010357142 -0.018642858 0.72500002 2.2027886e-38
-0.0089761904 -0.018642858 0.72500002 2.1668474e-38
-0.0075952387 -0.018642843 0.72500002 2.2591171e-38
-0.0062228576 -0.018668585 0.72600001 2.341769e-38
-0.0048400005 -0.01866857 0.72600001 2.341769e-38
-0.0034571432 -0.018668577 0.72600007 2.341769e-38
-0.002071429 -0.01864285 0.72500002 2.341769e-38
-0.00069047621 -0.01864285 0.72500002 2.341769e-38
0.00069047621 -0.01864285 0.72500002 2.341769e-38
0.0020714288 -0.01864285 0.72500002 2.341769e-38
0.0034523811 -0.018642865 0.72500002 2.341769e-38
0.0048333341 -0.01864285 0.72500002 2.341769e-38
0.0062142867 -0.018642835 0.72500002 2.341769e-38
0.0075952392 -0.018642865 0.72500002 2.3417327e-38
0.0089885732 -0.018668577 0.72600007 2.2773757e-38
0.01037143 -0.018668577 0.72600001 2.2037283e-38
0.011754288 -0.018668562 0.72600001 2.2774842e-38
0.013137146 -0.018668562 0.72600001 2.3417689e-38
0.014520003 -0.018668585 0.72600007 2.2958152e-38
0.01594667 -0.018719994 0.72800004 2.2406063e-38
0.017333336 -0.018719979 0.72800004 2.2865599e-38
0.018720003 -0.018719994 0.72799999 2.3325496e-38
0.02010667 -0.018720001 0.72800004 2.341769e-38
0.021522859 -0.018745705 0.72900003 2.341769e-38
0.022911429 -0.018745691 0.72900003 2.341769e-38
0.024300002 -0.018745705 0.72899997 2.341769e-38
0.025688574 -0.018745698 0.72900003 2.341769e-38
0.027077144 -0.018745698 0.72900003 2.341769e-38
0.028465716 -0.018745698 0.72900003 2.341769e-38
0.029854288 -0.018745698 0.72899997 2.341769e-38
0.031242857 -0.018745698 0.72900003 2.341769e-38
0.032631435 -0.018745713 0.72900003 2.341769e-38
0.034020007 -0.018745698 0.72900003 2.0938132e-38
0.035408579 -0.018745698 0.72899997 1.8443001e-38
0.036797147 -0.018745691 0.72900003 1.4845845e-38
0.038185719 -0.018745705 0.72900003 1.1267478e-38
0.039574292 -0.018745691 0.72900003 1.2096858e-38
0.040962864 -0.018745691 0.72899997 1.28323e-38
0.042351436 -0.018745705 0.72900003 1.329367e-38
0.043740008 -0.018745705 0.72900003 1.3747497e-38
0.045252386 -0.018797129 0.73100001 9.7824604e-39
0.046517149 -0.018745705 0.72899997 5.8137211e-39
0.047905721 -0.018745698 0.72900003 6.6358545e-39
0.049294293 -0.018745683 0.72900003 7.4663158e-39
0.050682865 -0.018745698 0.72900003 7.4673878e-39
0.052214295 -0.018797137 0.73100001 7.3748699e-39
0.053606674 -0.018797152 0.73100007 7.5571396e-39
0.054999053 -0.018797137 0.73100001 7.7411623e-39
-0.015880954 -0.0172619 0.72500002 2.1296462e-38
-0.0145 -0.0172619 0.72500002 2.1663452e-38
-0.013119048 -0.017261915 0.72500002 2.1113521e-38
-0.011738095 -0.0172619 0.72500002 2.0650364e-38
-0.010357142 -0.0172619 0.72500002 2.028478e-38
-0.0089761904 -0.017261907 0.72500002 2.001614e-38
-0.0075952392 -0.017261893 0.72500002 2.0934186e-38
-0.0062228576 -0.01728572 0.72600001 2.1764651e-38
-0.0048400005 -0.01728572 0.72600001 2.2591171e-38
-0.0034571432 -0.01728572 0.72600001 2.341769e-38
-0.0020714288 -0.017261907 0.72500002 2.341769e-38
-0.00069047621 -0.017261893 0.72500002 2.341769e-38
0.00069047627 -0.017261907 0.72500002 2.341769e-38
0.0020714288 -0.017261893 0.72500002 2.341769e-38
0.0034523811 -0.0172619 0.72500002 2.341769e-38
0.0048333337 -0.017261915 0.72500002 2.341769e-38
0.0062228581 -0.017285712 0.72600001 2.341769e-38
0.0076057152 -0.017285712 0.72600001 2.3417686e-38
0.0089885732 -0.01728572 0.72600007 2.2679769e-38
0.01037143 -0.01728572 0.72600007 2.184859e-38
0.011786669 -0.017333329 0.72800004 2.2681212e-38
0.013173335 -0.017333329 0.72800004 2.3417689e-38
0.014560002 -0.017333314 0.72800004 2.3141103e-38
0.01594667 -0.017333344 0.72799999 2.2863087e-38
0.017333336 -0.017333336 0.72800004 2.3049269e-38
0.018720003 -0.017333336 0.72800004 2.3234018e-38
0.02010667 -0.017333336 0.72800004 2.3325854e-38
0.021522861 -0.017357118 0.72900003 2.341769e-38
0.022911431 -0.017357104 0.72900003 2.341769e-38
0.024300003 -0.017357126 0.72900003 2.341769e-38
0.025688576 -0.017357111 0.72900003 2.341769e-38
0.027077146 -0.017357111 0.72900003 2.341769e-38
0.028465718 -0.017357111 0.72900003 2.341769e-38
0.02985429 -0.017357126 0.72900003 2.341769e-38
0.031328578 -0.01740475 0.73100001 2.341769e-38
0.032631438 -0.017357126 0.72900003 2.341769e-38
0.03402001 -0.017357126 0.72900003 2.0749437e-38
0.035408583 -0.017357141 0.72900003 1.8073855e-38
0.036797151 -0.017357126 0.72900003 1.4849411e-38
0.038185723 -0.017357141 0.72900003 1.1634828e-38
0.039574295 -0.017357126 0.72900003 1.227913e-38
0.040962867 -0.017357133 0.72900009 1.2921998e-38
0.04235144 -0.017357133 0.72900003 1.3200394e-38
0.043740012 -0.017357133 0.72900003 1.3567408e-38
0.045252386 -0.01740475 0.73100007 9.8710589e-39
0.04664477 -0.01740475 0.73100001 6.171729e-39
0.048037149 -0.017404735 0.73100001 6.8209534e-39
0.049294297 -0.017357118 0.72900003 7.5599464e-39
0.050821912 -0.01740475 0.73100007 7.2833679e-39
0.052214295 -0.01740475 0.73100001 7.0997179e-39
0.053606674 -0.017404765 0.73100001 7.3745265e-39
0.054999053 -0.017404765 0.73100007 7.6485995e-39
-0.015880955 -0.015880942 0.72500002 2.1574502e-38
-0.0145 -0.01588095 0.72500002 2.0839451e-38
-0.013119048 -0.01588095 0.72500002 1.982423e-38
-0.011738095 -0.015880935 0.72500002 1.8816503e-38
-0.010357142 -0.01588095 0.72500002 1.8628481e-38
-0.0089885714 -0.015902869 0.72600001 1.835911e-38
-0.0076057152 -0.015902855 0.72600001 1.9272841e-38
-0.0062228581 -0.015902869 0.72600007 2.0107279e-38
-0.004840001 -0.015902855 0.72600001 2.1764651e-38
-0.0034571432 -0.015902869 0.72600001 2.341769e-38
-0.0020714288 -0.015880942 0.72500002 2.341769e-38
-0.00069047615 -0.015880942 0.72500002 2.341769e-38
0.00069047627 -0.015880942 0.72500002 2.341769e-38
0.0020714288 -0.015880927 0.72500002 2.341769e-38
0.0034523811 -0.015880972 0.72500002 2.341769e-38
0.0048400005 -0.015902862 0.72600007 2.341769e-38
0.0062228576 -0.015902862 0.72600007 2.341769e-38
0.0076057147 -0.015902862 0.72600001 2.3416608e-38
0.0089885741 -0.015902847 0.72600001 2.2587213e-38
0.010371431 -0.015902877 0.72600007 2.1668505e-38
0.011786669 -0.015946649 0.72800004 2.2591171e-38
0.013173336 -0.015946664 0.72800004 2.3417689e-38
0.014560003 -0.015946649 0.72799999 2.3325493e-38
0.01594667 -0.015946671 0.72800004 2.323294e-38
0.017333336 -0.015946671 0.72800004 2.3141823e-38
0.018720003 -0.015946671 0.72800004 2.3049629e-38
0.020134289 -0.015968546 0.72900003 2.3234019e-38
0.021522861 -0.015968546 0.72900003 2.341769e-38
0.022911431 -0.015968531 0.72899997 2.341769e-38
0.024300003 -0.015968561 0.72900003 2.341769e-38
0.025759051 -0.016012371 0.73100001 2.341769e-38
0.027077146 -0.015968546 0.72900003 2.341769e-38
0.028543813 -0.016012371 0.73100007 2.341769e-38
0.02985429 -0.015968561 0.72900003 2.341769e-38
0.031328574 -0.016012371 0.73100001 2.341769e-38
0.032720953 -0.016012371 0.73100001 2.3416964e-38
0.034113336 -0.016012378 0.73100007 2.0568262e-38
0.035505716 -0.016012378 0.73100007 1.7705426e-38
0.036898099 -0.016012378 0.73100001 1.484295e-38
0.038290482 -0.016012371 0.73100001 1.1909601e-38
0.039682865 -0.016012385 0.73100007 1.2463129e-38
0.041075245 -0.016012378 0.73100007 1.2923419e-38
0.042467624 -0.016012378 0.73100001 1.3201474e-38
0.043860007 -0.016012378 0.73100001 1.337764e-38
0.045252386 -0.016012378 0.73100007 9.9628958e-39
0.04664477 -0.016012378 0.73100007 6.5505532e-39
0.048037149 -0.016012371 0.73100001 7.0996927e-39
0.049429532 -0.016012371 0.73100001 7.5588772e-39
0.050821912 -0.016012385 0.73100007 7.1901073e-39
0.052214295 -0.016012378 0.73100007 6.8238513e-39
0.053606674 -0.016012378 0.73100001 7.1919219e-39
0.054999053 -0.016012378 0.73100001 7.4663634e-39
-0.015880954 -0.014499992 0.72500002 2.24979e-38
-0.0145 -0.014499992 0.72500002 2.2131971e-38
-0.013119048 -0.014499992 0.72500002 2.1578064e-38
-0.011738095 -0.014499992 0.72500002 2.1029862e-38
-0.010357142 -0.014499992 0.72500002 2.093438e-38
-0.0089885714 -0.014519997 0.72600001 2.0937636e-38
-0.0075952392 -0.0145 0.72500002 2.0749328e-38
-0.0062142867 -0.0145 0.72500002 2.0657548e-38
-0.0048400005 -0.014520012 0.72600007 2.2039081e-38
-0.0034571432 -0.014520004 0.72600001 2.341769e-38
-0.0020714288 -0.0145 0.72500002 2.341769e-38
-0.00069047621 -0.014499992 0.72500002 2.341769e-38
0.00069047627 -0.014500007 0.72500002 2.341769e-38
0.0020714288 -0.0145 0.72500002 2.341769e-38
0.0034523814 -0.0145 0.72500002 2.341769e-38
0.0048400005 -0.014519989 0.72600001 2.341769e-38
0.0062228576 -0.014519997 0.72600007 2.341769e-38
0.0076057147 -0.014519997 0.72600007 2.3417683e-38
0.0089885732 -0.014520012 0.72600001 2.2771599e-38
0.01037143 -0.014519997 0.72600001 2.2217723e-38
0.011786669 -0.014559984 0.72800004 2.2773407e-38
0.013173335 -0.014559984 0.72799999 2.341769e-38
0.014560002 -0.014559992 0.72800004 2.3325494e-38
0.01594667 -0.014560007 0.72800004 2.3325853e-38
0.017333336 -0.014559999 0.72800004 2.3049629e-38
0.018745715 -0.014579989 0.72900003 2.2771613e-38
0.020134287 -0.014579989 0.72900003 2.3141466e-38
0.021522859 -0.014579982 0.72900003 2.341769e-38
0.022911429 -0.014579989 0.72900003 2.341769e-38
0.024300002 -0.014579989 0.72900003 2.341769e-38
0.025759047 -0.014619991 0.73100007 2.341769e-38
0.02715143 -0.014619991 0.73100007 2.341769e-38
0.028543811 -0.014619991 0.73100001 2.341769e-38
0.029936193 -0.014619984 0.73100001 2.341769e-38
0.031328578 -0.014619991 0.73100007 2.341769e-38
0.032720957 -0.014619984 0.73100007 2.3417673e-38
0.03411334 -0.014619991 0.73100001 2.0381345e-38
0.035505719 -0.014619991 0.73100001 1.7428116e-38
0.036898103 -0.014619999 0.73100007 1.4665014e-38
0.038290482 -0.014619999 0.73100001 1.2002853e-38
0.039682865 -0.014619991 0.73100001 1.2463457e-38
0.041075245 -0.014619991 0.73100001 1.2923406e-38
0.042351436 -0.014579982 0.72900003 1.3107848e-38
0.043860007 -0.014619991 0.73100007 1.338123e-38
0.045252386 -0.014619991 0.73100001 9.8724966e-39
0.04664477 -0.014619984 0.73100001 6.4580031e-39
0.048037149 -0.014619999 0.73100007 7.0078614e-39
0.049429532 -0.014619999 0.73100007 7.6503609e-39
0.050821912 -0.014619991 0.73100001 7.3745041e-39
0.052214295 -0.014619991 0.73100001 7.0993578e-39
0.053606674 -0.014620006 0.73100007 7.3745055e-39
0.055074293 -0.014639981 0.73200005 7.7418699e-39
0.056777149 -0.01472 0.73600012 7.4663859e-39
-0.015837146 -0.013082862 0.72300005 2.341769e-38
-0.0145 -0.013119057 0.72500002 2.3417675e-38
-0.013119048 -0.013119057 0.72500002 2.3325825e-38
-0.011738095 -0.013119049 0.72500002 2.3232168e-38
-0.010357142 -0.013119042 0.72500002 2.332577e-38
-0.0089885714 -0.013137147 0.72600007 2.3415456e-38
-0.0076057152 -0.013137147 0.72600001 2.2312717e-38
-0.0062228581 -0.013137132 0.72600001 2.1115665e-38
-0.004840001 -0.013137147 0.72600001 2.2315664e-38
-0.0034571432 -0.013137154 0.72600007 2.341769e-38
-0.002071429 -0.013119057 0.72500002 2.341769e-38
-0.00069047621 -0.013119049 0.72500002 2.341769e-38
0.00069047627 -0.013119049 0.72500002 2.341769e-38
0.0020742859 -0.013137147 0.72600007 2.341769e-38
0.0034523811 -0.013119049 0.72500002 2.341769e-38
0.0048400005 -0.013137139 0.72600001 2.341769e-38
0.0062228576 -0.013137139 0.72600001 2.341769e-38
0.0076057147 -0.013137147 0.72600007 2.3416967e-38
0.0089885741 -0.013137139 0.72600007 2.3047826e-38
0.010371431 -0.013137132 0.72600001 2.2680489e-38
0.011786669 -0.013173327 0.72800004 2.3050348e-38
0.013173335 -0.013173342 0.72800004 2.341733e-38
0.014560002 -0.013173334 0.72800004 2.3416252e-38
0.015946668 -0.013173334 0.72799999 2.3325493e-38
0.017333334 -0.013173342 0.72800004 2.295851e-38
0.018745715 -0.013191402 0.72900003 2.249754e-38
0.020134287 -0.013191417 0.72900003 2.2958513e-38
0.021522861 -0.013191409 0.72900003 2.341769e-38
0.022911431 -0.013191424 0.72900003 2.341769e-38
0.024300003 -0.013191424 0.72900003 2.341769e-38
0.025759049 -0.013227604 0.73100001 2.341769e-38
0.02715143 -0.013227612 0.73100007 2.341769e-38
0.028543811 -0.013227604 0.73100007 2.341769e-38
0.029936193 -0.013227604 0.73100001 2.341769e-38
0.031328578 -0.013227597 0.73100001 2.341769e-38
0.032720957 -0.013227612 0.73100007 2.3417662e-38
0.03411334 -0.013227619 0.73100007 2.0295228e-38
0.035505719 -0.013227612 0.73100001 1.7062192e-38
0.036898103 -0.013227612 0.73100001 1.456922e-38
0.038290482 -0.013227612 0.73100007 1.2094335e-38
0.039682865 -0.013227612 0.73100007 1.2463841e-38
0.041075245 -0.013227612 0.73100001 1.2832667e-38
0.042351436 -0.013191417 0.72900003 1.31093e-38
0.043860007 -0.013227619 0.73100007 1.328618e-38
0.045252386 -0.013227619 0.73100007 9.7799549e-39
0.04664477 -0.013227612 0.73100001 6.2775663e-39
0.048037149 -0.013227612 0.73100001 7.0071425e-39
0.049429532 -0.013227619 0.73100007 7.6503581e-39
0.050821912 -0.013227619 0.73100007 7.4663368e-39
0.052285716 -0.013245709 0.73200011 7.2822987e-39
0.053826675 -0.013281889 0.73400003 7.6489162e-39
0.055224769 -0.013281882 0.73400003 8.0166379e-39
0.056777149 -0.013318092 0.73600006 7.7404364e-39
-0.015880954 -0.011738092 0.72500002 2.341769e-38
-0.0145 -0.011738099 0.72500002 2.3325847e-38
-0.013137143 -0.011754289 0.72600007 2.1297567e-38
-0.011738095 -0.011738092 0.72500002 1.9369745e-38
-0.010371428 -0.011754282 0.72600001 1.9829644e-38
-0.0089885714 -0.011754282 0.72600001 2.0380996e-38
-0.0076057152 -0.011754289 0.72600007 1.9547999e-38
-0.0062228581 -0.011754274 0.72600001 1.8717197e-38
-0.004840001 -0.011754274 0.72600001 2.1117498e-38
-0.003457143 -0.011754274 0.72600001 2.341769e-38
-0.002071429 -0.011738092 0.72500002 2.341769e-38
-0.00069047621 -0.011738092 0.72500002 2.341769e-38
0.00069142861 -0.011754289 0.72600001 2.341769e-38
0.0020742859 -0.011754282 0.72600001 2.341769e-38
0.003457143 -0.011754289 0.72600007 2.341769e-38
0.0048400005 -0.011754289 0.72600001 2.341769e-38
0.0062400005 -0.011786655 0.72800004 2.341769e-38
0.0076266672 -0.011786655 0.72800004 2.3417686e-38
0.0089885741 -0.011754289 0.72600007 2.267941e-38
0.010400002 -0.011786669 0.72800004 2.2038001e-38
0.011786669 -0.011786669 0.72800004 2.2682647e-38
0.013173336 -0.011786669 0.72800004 2.3417689e-38
0.014580002 -0.01180283 0.72900003 2.3233297e-38
0.015946668 -0.011786669 0.72800004 2.3050344e-38
0.017357145 -0.011802845 0.72900003 2.2680849e-38
0.018745715 -0.011802837 0.72900003 2.2312075e-38
0.020134287 -0.011802837 0.72900003 2.286596e-38
0.021522859 -0.01180283 0.72899997 2.341769e-38
0.022911429 -0.011802837 0.72900003 2.341769e-38
0.024366667 -0.011835232 0.73100007 2.341769e-38
0.025759049 -0.011835232 0.73100001 2.341769e-38
0.02715143 -0.011835225 0.73100001 2.341769e-38
0.028543811 -0.011835232 0.73100007 2.341769e-38
0.029936193 -0.011835225 0.73100007 2.341769e-38
0.031328578 -0.011835225 0.73100001 2.341769e-38
0.032720957 -0.011835225 0.73100001 2.3417652e-38
0.03411334 -0.01183524 0.73100007 2.0105437e-38
0.035505719 -0.01183524 0.73100007 1.6782004e-38
0.036898103 -0.011835232 0.73100001 1.457387e-38
0.038290482 -0.011835232 0.73100001 1.2463837e-38
