# .PCD v0.7 - Point Cloud Data file format
VERSION 0.7
FIELDS x y z rgb
SIZE 4 4 4 4
TYPE F F F F
COUNT 1 1 1 1
WIDTH 947
HEIGHT 1
VIEWPOINT 0 0 0 1 0 0 0
POINTS 947
DATA ascii
-0.028309524 -0.050404757 0.72500002 1.873408e-38
-0.02692857 -0.050404772 0.72500008 1.7257178e-38
-0.025547625 -0.050404757 0.72500002 1.5786011e-38
-0.024100006 -0.050265715 0.72300011 1.4679673e-38
-0.02272285 -0.050265729 0.72300011 1.357406e-38
-0.021345718 -0.050265715 0.72300011 1.4492774e-38
-0.01994095 -0.050196216 0.72200012 1.5412925e-38
-0.018591428 -0.050265729 0.72300017 1.7255378e-38
-0.017214281 -0.050265729 0.72300011 1.9186431e-38
-0.015815238 -0.050196201 0.72200006 1.9094593e-38
-0.014459991 -0.050265729 0.72300011 1.8913796e-38
-0.01306476 -0.050196201 0.72200012 2.0568992e-38
-0.011705712 -0.050265715 0.72300011 2.2223827e-38
-0.01032857 -0.050265715 0.72300011 2.1488068e-38
-0.0089390455 -0.050196201 0.72200012 2.0750502e-38
-0.0075638155 -0.050196201 0.72200012 2.0008272e-38
-0.0061885691 -0.050196186 0.72200012 1.9275753e-38
-0.0047999872 -0.050057158 0.72000009 1.9646695e-38
-0.0034285537 -0.050057188 0.72000009 2.001145e-38
-0.002057144 -0.050057158 0.72000009 1.8433309e-38
-0.00068476098 -0.049987644 0.7190001 1.6950993e-38
0.00068476284 -0.049987629 0.7190001 1.5298637e-38
0.0020542857 -0.049987614 0.71900004 1.3744251e-38
0.0034238077 -0.049987629 0.71900004 1.4940623e-38
0.0047933306 -0.049987629 0.71900004 1.6229902e-38
0.0061628572 -0.049987629 0.7190001 1.9542789e-38
0.007532381 -0.049987614 0.7190001 2.2851013e-38
0.0089019034 -0.049987614 0.71900004 2.2757736e-38
0.010271426 -0.049987614 0.71900004 2.2755902e-38
0.01164095 -0.049987614 0.71900004 2.2942402e-38
0.013010472 -0.049987599 0.71900004 2.3218657e-38
0.014380006 -0.049987614 0.7190001 2.2114866e-38
0.015771437 -0.050057158 0.72000009 2.1007876e-38
0.017142862 -0.050057158 0.72000009 1.4196321e-38
0.018514289 -0.050057158 0.72000009 7.4808781e-39
0.01985809 -0.049987629 0.71900004 8.1255483e-39
0.021227613 -0.049987614 0.71900004 8.7694239e-39
0.022597145 -0.049987629 0.7190001 8.0242862e-39
0.023966668 -0.049987614 0.7190001 7.3759783e-39
0.025336195 -0.049987629 0.71900004 7.3755397e-39
0.026705708 -0.049987614 0.71900004 7.4670515e-39
0.028075229 -0.049987614 0.71900004 7.6511162e-39
-0.049091429 -0.049091443 0.72600007 1.1545435e-38
-0.047708571 -0.049091443 0.72600007 1.6320137e-38
-0.046325717 -0.049091443 0.72600007 1.2827134e-38
-0.04488096 -0.049023792 0.72500002 9.2229373e-39
-0.043500006 -0.049023807 0.72500002 6.1536116e-39
-0.042119049 -0.049023822 0.72500002 3.1636121e-39
-0.040738095 -0.049023807 0.72500008 1.1835646e-38
-0.039248571 -0.048888579 0.72300011 2.0457049e-38
-0.037976198 -0.049023822 0.72500008 1.7608702e-38
-0.036595237 -0.049023822 0.72500002 1.4651635e-38
-0.035117149 -0.048888594 0.72300011 9.205323e-39
-0.033833336 -0.049023822 0.72500008 3.7250157e-39
-0.032452393 -0.049023807 0.72500002 9.7151784e-39
-0.030985713 -0.048888564 0.72300011 1.5683052e-38
-0.029690482 -0.049023807 0.72500002 1.5046664e-38
-0.028231425 -0.048888579 0.72300011 1.4305881e-38
-0.026928568 -0.049023822 0.72500002 1.1457546e-38
-0.025477147 -0.048888564 0.72300011 8.5155787e-39
-0.024100004 -0.048888579 0.72300011 7.9606182e-39
-0.022722859 -0.048888564 0.72300011 7.3224333e-39
-0.02134571 -0.048888564 0.72300011 9.3438904e-39
-0.019940954 -0.048820943 0.72200006 1.127782e-38
-0.018591437 -0.048888579 0.72300011 1.4866583e-38
-0.017214291 -0.048888564 0.72300011 1.8357045e-38
-0.015837133 -0.048888579 0.72300011 1.7806747e-38
-0.014459999 -0.048888579 0.72300011 1.7166771e-38
-0.013082853 -0.048888579 0.72300011 1.9464813e-38
-0.011705711 -0.048888579 0.72300011 2.1671737e-38
-0.010328563 -0.048888579 0.72300011 2.1397309e-38
-0.0089390641 -0.048820943 0.72200006 2.1024573e-38
-0.0075638187 -0.048820958 0.72200006 2.0093293e-38
-0.0061885719 -0.048820972 0.72200006 1.9182483e-38
-0.004813341 -0.048820958 0.72200012 2.0387119e-38
-0.0034285639 -0.04868573 0.72000003 2.1575203e-38
-0.0020571449 -0.04868573 0.72000009 1.9363579e-38
-0.00068475818 -0.048618093 0.7190001 1.7051811e-38
0.0006847647 -0.048618093 0.7190001 1.5380739e-38
0.0020542885 -0.048618093 0.71900004 1.3740635e-38
0.003423804 -0.048618093 0.71900004 1.4850216e-38
0.0047933259 -0.048618108 0.71900004 1.5865431e-38
0.0061628497 -0.048618093 0.71900004 1.9364153e-38
0.0075323819 -0.048618108 0.7190001 2.2760642e-38
0.0089019062 -0.048618108 0.7190001 2.2850695e-38
0.010285728 -0.048685744 0.72000009 2.2853897e-38
0.01165715 -0.048685744 0.72000009 2.2946425e-38
0.013028578 -0.048685744 0.72000009 2.2946084e-38
0.014400012 -0.048685744 0.72000009 2.2580554e-38
0.015815236 -0.048820972 0.72200012 2.2205006e-38
0.017142862 -0.048685744 0.72000009 1.4842427e-38
0.018514294 -0.04868573 0.72000009 7.3912062e-39
0.019885723 -0.048685744 0.72000009 8.1273363e-39
0.021257145 -0.048685715 0.72000009 8.8576594e-39
0.022597142 -0.048618093 0.7190001 8.1128763e-39
0.023966666 -0.048618093 0.7190001 7.3763482e-39
0.025336187 -0.048618093 0.71900004 7.2833875e-39
0.026705708 -0.048618093 0.71900004 7.0993676e-39
0.028075235 -0.048618093 0.71900004 7.3745265e-39
-0.04922666 -0.047840014 0.7280001 1.6149766e-38
-0.047708578 -0.047708586 0.72600007 1.9744244e-38
-0.046325721 -0.047708586 0.72600007 1.7342508e-38
-0.044942852 -0.047708601 0.72600007 1.5033313e-38
-0.043500006 -0.047642857 0.72500002 8.2941315e-39
-0.042177141 -0.047708586 0.72600007 1.7031998e-39
-0.040738106 -0.047642857 0.72500008 1.1738798e-38
-0.039357148 -0.047642857 0.72500002 2.1764645e-38
-0.037976194 -0.047642872 0.72500008 2.0379574e-38
-0.036595233 -0.047642842 0.72500002 1.9002309e-38
-0.035117142 -0.047511443 0.72300005 1.4661915e-38
-0.033833336 -0.047642872 0.72500002 1.042035e-38
-0.032452393 -0.047642857 0.72500002 9.1372493e-39
-0.03098572 -0.047511443 0.72300005 7.9415998e-39
-0.029567629 -0.047445714 0.72200006 7.9484199e-39
-0.028192382 -0.047445714 0.72200012 8.0359506e-39
-0.026854284 -0.047511429 0.72300005 7.4939046e-39
-0.025477143 -0.047511429 0.72300011 7.03186e-39
-0.024099994 -0.047511429 0.72300011 7.498931e-39
-0.022691438 -0.047445714 0.72200006 7.9616972e-39
-0.021345707 -0.047511414 0.72300011 8.7914453e-39
-0.019968573 -0.047511429 0.72300011 9.6204801e-39
-0.018591417 -0.047511443 0.72300017 1.3575149e-38
-0.017214285 -0.047511429 0.72300011 1.7527301e-38
-0.015837139 -0.047511414 0.72300011 1.725466e-38
-0.014459995 -0.047511443 0.72300017 1.6982025e-38
-0.013082848 -0.047511443 0.72300011 1.9280782e-38
-0.011705716 -0.047511429 0.72300011 2.1580977e-38
-0.010328559 -0.047511443 0.72300017 2.1397309e-38
-0.0089514265 -0.047511443 0.72300011 2.1305462e-38
-0.0075742803 -0.047511443 0.72300011 1.9824244e-38
-0.0061971382 -0.047511443 0.72300017 1.8443135e-38
-0.0048133433 -0.0474457 0.72200006 1.9830006e-38
-0.0034380979 -0.047445714 0.72200006 2.1304039e-38
-0.0020571304 -0.047314316 0.72000009 1.955199e-38
-0.00068476284 -0.047248587 0.7190001 1.779763e-38
0.00068476005 -0.047248572 0.7190001 1.6316623e-38
0.0020542829 -0.047248572 0.71900004 1.4844068e-38
0.0034238067 -0.047248572 0.71900004 1.5119257e-38
0.0047933287 -0.047248557 0.71900004 1.5496298e-38
0.0061628618 -0.047248572 0.7190001 1.6877791e-38
0.0075428658 -0.047314301 0.72000009 1.8262885e-38
0.0089019015 -0.047248572 0.71900004 2.0284011e-38
0.010285716 -0.047314301 0.72000003 2.2403032e-38
0.01165715 -0.047314316 0.72000009 2.2398716e-38
0.013028577 -0.047314301 0.72000009 2.2396212e-38
0.014400012 -0.047314316 0.72000009 2.1938477e-38
0.015815228 -0.047445729 0.72200006 2.1572602e-38
0.017190471 -0.047445714 0.72200006 1.4475831e-38
0.018565711 -0.047445714 0.72200006 7.3793792e-39
0.019885719 -0.047314286 0.72000003 8.1230245e-39
0.021257147 -0.047314301 0.72000009 8.9519949e-39
0.022628579 -0.047314301 0.72000009 8.2075649e-39
0.023966666 -0.047248587 0.7190001 7.5600318e-39
0.025336187 -0.047248572 0.71900004 7.4670991e-39
0.026705714 -0.047248572 0.71900004 7.2830568e-39
0.028075235 -0.047248572 0.71900004 7.466355e-39
-0.049226679 -0.046453327 0.72800004 2.0846293e-38
-0.047839999 -0.046453342 0.7280001 2.3050334e-38
-0.046325721 -0.046325713 0.72600007 2.1948298e-38
-0.044942852 -0.046325713 0.72600007 2.0723547e-38
-0.043500006 -0.046261892 0.72500002 1.0378025e-38
-0.042119049 -0.046261907 0.72500008 1.3231901e-40
-0.040738106 -0.046261907 0.72500002 1.1650908e-38
-0.039357148 -0.046261907 0.72500002 2.3047475e-38
-0.03797619 -0.046261892 0.72500002 2.3142178e-38
-0.036595248 -0.046261907 0.72500002 2.3232175e-38
-0.035117138 -0.046134293 0.72300011 2.0202992e-38
-0.033833336 -0.046261907 0.72500002 1.7140878e-38
-0.032452382 -0.046261922 0.72500008 8.6550877e-39
-0.030985717 -0.046134308 0.72300011 1.2193679e-40
-0.029567622 -0.046070486 0.72200012 9.5277926e-40
-0.028192386 -0.046070471 0.72200006 1.6971504e-39
-0.026928579 -0.046261892 0.72500002 3.633232e-39
-0.025477149 -0.046134308 0.72300011 5.4738894e-39
-0.024166666 -0.046261907 0.72500002 7.0408339e-39
-0.022722859 -0.046134293 0.72300011 8.6041898e-39
-0.021404769 -0.046261907 0.72500002 8.3319105e-39
-0.019968569 -0.046134308 0.72300011 7.966365e-39
-0.018642856 -0.046261907 0.72500008 1.2377341e-38
-0.017261911 -0.046261892 0.72500002 1.6700782e-38
-0.015837133 -0.046134293 0.72300011 1.6701856e-38
-0.014460001 -0.046134293 0.72300011 1.6704723e-38
-0.013082854 -0.046134278 0.72300011 1.9095674e-38
-0.011738099 -0.046261892 0.72500008 2.1486629e-38
-0.010328565 -0.046134293 0.72300011 2.1489145e-38
-0.008951433 -0.046134293 0.72300011 2.148483e-38
-0.0075952429 -0.046261907 0.72500002 1.9546589e-38
-0.0062142885 -0.046261907 0.72500008 1.7618765e-38
-0.0048199971 -0.046134293 0.72300011 1.9369026e-38
-0.0034381053 -0.046070486 0.72200012 2.1026733e-38
-0.002062859 -0.046070501 0.72200012 1.9742476e-38
-0.00068476005 -0.045879051 0.7190001 1.8446296e-38
0.00068476284 -0.045879066 0.7190001 1.715191e-38
0.0020542857 -0.045879051 0.71900004 1.5855764e-38
0.0034285807 -0.045942888 0.72000009 1.5469361e-38
0.0047933324 -0.045879051 0.71900004 1.5024909e-38
0.00617143 -0.045942858 0.72000009 1.4387459e-38
0.0075428649 -0.045942873 0.72000009 1.3753264e-38
0.0089142984 -0.045942903 0.72000009 1.7802321e-38
0.010314283 -0.046070486 0.72200012 2.1848449e-38
0.011689521 -0.046070486 0.72200012 2.1849151e-38
0.013064758 -0.046070471 0.72200006 2.1754102e-38
0.014439996 -0.046070471 0.72200006 2.1388569e-38
0.015815234 -0.046070471 0.72200006 2.0917202e-38
0.017142868 -0.045942873 0.72000009 1.4200303e-38
0.018565712 -0.046070486 0.72200012 7.3894111e-39
0.019885719 -0.045942858 0.72000009 8.2162907e-39
0.021257151 -0.045942873 0.72000009 8.9484075e-39
0.022597147 -0.045879066 0.7190001 8.3890877e-39
0.02396667 -0.045879051 0.7190001 7.7437084e-39
0.025336193 -0.045879051 0.71900004 7.6500597e-39
0.026742864 -0.045942873 0.72000009 7.4660075e-39
0.028075241 -0.045879051 0.71900004 7.4659865e-39
-0.047839992 -0.04506667 0.72800004 2.3141825e-38
-0.04632571 -0.044942871 0.72600007 1.9095323e-38
-0.044942856 -0.044942856 0.72600007 1.5147431e-38
-0.043559998 -0.044942871 0.72600007 7.5601972e-39
-0.042119049 -0.044880956 0.72500008 1.2335911e-40
-0.040738106 -0.044880971 0.72500002 6.5780733e-39
-0.039357148 -0.044880956 0.72500008 1.3040279e-38
-0.037976205 -0.044880956 0.72500002 1.5598041e-38
-0.036595248 -0.044880956 0.72500002 1.8274902e-38
-0.03521429 -0.044880971 0.72500002 1.9098911e-38
-0.033833332 -0.044880956 0.72500002 2.0009337e-38
-0.032452378 -0.044880956 0.72500008 1.1526714e-38
-0.030985709 -0.044757143 0.72300011 2.9587801e-39
-0.029690482 -0.044880956 0.72500008 2.4153299e-39
-0.028309524 -0.044880956 0.72500002 1.9726597e-39
-0.026928578 -0.044880942 0.72500002 3.7236368e-39
-0.025547624 -0.044880956 0.72500008 5.567164e-39
-0.024166664 -0.044880942 0.72500002 6.7638967e-39
-0.022785712 -0.044880956 0.72500008 7.9602679e-39
-0.021404766 -0.044880956 0.72500002 7.7783878e-39
-0.020023823 -0.044880942 0.72500002 7.504319e-39
-0.018642854 -0.044880956 0.72500002 1.1736287e-38
-0.017261911 -0.044880956 0.72500002 1.5972197e-38
-0.015880955 -0.044880956 0.72500008 1.578422e-38
-0.014459993 -0.044757143 0.72300011 1.550871e-38
-0.01308285 -0.044757158 0.72300011 1.7900732e-38
-0.011738098 -0.044880956 0.72500002 2.0291331e-38
-0.010357154 -0.044880956 0.72500002 2.0752667e-38
-0.0089514283 -0.044757143 0.72300011 2.121076e-38
-0.0075742821 -0.044757143 0.72300011 1.9734926e-38
-0.0061971508 -0.044757143 0.72300011 1.8258741e-38
-0.0048199939 -0.044757158 0.72300011 1.9457265e-38
-0.0034381077 -0.044695228 0.72200006 2.0660104e-38
-0.0020628623 -0.044695243 0.72200006 1.9648847e-38
-0.00068475725 -0.044509515 0.7190001 1.8725829e-38
0.00068476563 -0.04450953 0.7190001 1.780245e-38
0.0020571523 -0.044571459 0.72000009 1.6967904e-38
0.0034285788 -0.044571474 0.72000009 1.6313082e-38
0.0047933278 -0.044509515 0.71900004 1.5665232e-38
0.0061714374 -0.044571429 0.72000009 1.4289871e-38
0.007542863 -0.044571444 0.72000009 1.2825587e-38
0.0089142891 -0.044571444 0.72000009 1.6420864e-38
0.010314281 -0.044695243 0.72200006 2.0104667e-38
0.011705722 -0.044757158 0.72300011 1.9917031e-38
0.013064757 -0.044695258 0.72200006 1.9820914e-38
0.014439995 -0.044695243 0.72200012 1.8709944e-38
0.015815241 -0.044695258 0.72200012 1.7691484e-38
0.017190469 -0.044695243 0.72200006 1.2723021e-38
0.018565709 -0.044695258 0.72200006 7.8424776e-39
0.019885719 -0.044571429 0.72000009 8.3066871e-39
0.021257151 -0.044571444 0.72000009 8.8587244e-39
0.022628587 -0.044571459 0.72000009 8.2075719e-39
0.024000004 -0.044571459 0.72000009 7.6508023e-39
0.025371436 -0.044571459 0.72000009 7.4656782e-39
0.026742863 -0.044571459 0.72000009 7.3734532e-39
-0.047839999 -0.043679997 0.72800004 2.3136039e-38
-0.046325713 -0.043560013 0.72600007 1.6326534e-38
-0.044942856 -0.043560013 0.72600007 9.4108865e-39
-0.043559998 -0.043559998 0.72600007 4.776061e-39
-0.042177144 -0.043560013 0.72600007 1.1866055e-40
-0.040738102 -0.043500006 0.72500002 1.5887684e-39
-0.039357148 -0.043500006 0.72500008 2.9828151e-39
-0.038133331 -0.043680012 0.72800004 8.1184423e-39
-0.036595233 -0.043500006 0.72500008 1.3203488e-38
-0.03521429 -0.043499991 0.72500002 1.8091231e-38
-0.033879999 -0.043560013 0.72600007 2.2857679e-38
-0.032452375 -0.043500006 0.72500002 1.4391922e-38
-0.03111429 -0.043560013 0.72600007 5.8171571e-39
-0.029731421 -0.043560013 0.72600007 3.9603721e-39
-0.028348565 -0.043559998 0.72600007 2.1466365e-39
-0.026965711 -0.043560028 0.72600007 3.9044393e-39
-0.025582854 -0.043560013 0.72600007 5.5632194e-39
-0.024166679 -0.043499991 0.72500002 6.4865966e-39
-0.022785708 -0.043499991 0.72500008 7.315267e-39
-0.021404766 -0.043500006 0.72500002 7.2248665e-39
-0.020023812 -0.043500006 0.72500008 7.0447828e-39
-0.018642867 -0.043500006 0.72500002 1.1182402e-38
-0.017261907 -0.043499991 0.72500002 1.5228904e-38
-0.015880954 -0.043500006 0.72500002 1.4770803e-38
-0.014459989 -0.043380007 0.72300011 1.431485e-38
-0.013082857 -0.043379992 0.72300011 1.6706516e-38
-0.011738095 -0.043500006 0.72500002 1.9005636e-38
-0.010357141 -0.043500021 0.72500008 1.9926865e-38
-0.0089514209 -0.043380007 0.72300011 2.0844138e-38
-0.0075742789 -0.043380007 0.72300017 1.9831432e-38
-0.0062142848 -0.043499991 0.72500008 1.8812985e-38
-0.0048333411 -0.043500006 0.72500002 1.9541567e-38
-0.0034428425 -0.043380007 0.72300017 2.0289175e-38
-0.0020628544 -0.043320015 0.72200012 1.9651e-38
-0.00068570999 -0.043200016 0.72000009 1.8913446e-38
0.00068571651 -0.043200001 0.72000009 1.8547539e-38
0.0020571514 -0.043200001 0.72000009 1.8077887e-38
0.0034285751 -0.043200001 0.72000003 1.7241251e-38
0.0048000016 -0.043200016 0.72000009 1.6313854e-38
0.0061714365 -0.043200016 0.72000009 1.4097529e-38
0.0075428705 -0.043200001 0.72000015 1.1907213e-38
0.0089142872 -0.043200001 0.72000009 1.5134832e-38
0.010314281 -0.043320015 0.72200012 1.8259037e-38
0.011705716 -0.043380007 0.72300011 1.8076803e-38
0.013064765 -0.043320015 0.72200012 1.7879456e-38
0.014439994 -0.04332 0.72200006 1.6121981e-38
0.015815232 -0.04332 0.72200006 1.4374614e-38
0.017190468 -0.04332 0.72200012 1.1340833e-38
0.018565714 -0.043320015 0.72200012 8.2155635e-39
0.019940954 -0.043320015 0.72200012 8.4925119e-39
0.021316182 -0.04332 0.72200006 8.6736297e-39
0.022691421 -0.043319985 0.72200006 8.1150413e-39
0.02400001 -0.043200016 0.72000009 7.4685649e-39
0.025371434 -0.043200031 0.72000009 7.3716679e-39
0.026742868 -0.043200016 0.72000009 7.1897766e-39
-0.047708567 -0.042177156 0.72600007 2.3137427e-38
-0.046325713 -0.042177156 0.72600007 1.8429688e-38
-0.044942856 -0.042177156 0.72600007 1.3607285e-38
-0.043560002 -0.042177156 0.72600007 1.169743e-38
-0.042177133 -0.042177156 0.72600007 9.6896075e-39
-0.040794279 -0.042177156 0.72600007 1.0419629e-38
-0.039411422 -0.042177156 0.72600007 1.1132099e-38
-0.038133338 -0.04229334 0.72800004 1.4101352e-38
-0.036645714 -0.042177156 0.72600007 1.6962272e-38
-0.03526286 -0.042177156 0.72600007 2.0012961e-38
-0.033880003 -0.042177156 0.72600007 2.314216e-38
-0.032497145 -0.042177156 0.72600007 1.6689616e-38
-0.031114276 -0.042177156 0.72600007 1.0223106e-38
-0.029731423 -0.042177156 0.72600007 5.7145554e-39
-0.028348567 -0.042177156 0.72600007 1.1360789e-39
-0.026965713 -0.042177156 0.72600007 2.9810635e-39
-0.025582857 -0.042177156 0.72600007 4.917501e-39
-0.024166666 -0.042119041 0.72500008 5.6557723e-39
-0.022785708 -0.042119056 0.72500002 6.3954785e-39
-0.021404764 -0.042119056 0.72500002 6.3969135e-39
-0.02002381 -0.042119041 0.72500008 6.4919762e-39
-0.018642865 -0.042119041 0.72500002 1.0077864e-38
-0.017261911 -0.042119056 0.72500008 1.3755231e-38
-0.015880954 -0.042119056 0.72500002 1.4127956e-38
-0.014459996 -0.042002857 0.72300011 1.459e-38
-0.013082854 -0.042002857 0.72300011 1.6246624e-38
-0.011738095 -0.042119041 0.72500002 1.790397e-38
-0.010357141 -0.042119041 0.72500008 1.9375134e-38
-0.0089761969 -0.042119026 0.72500002 2.0845577e-38
-0.0075742854 -0.042002857 0.72300011 2.0015109e-38
-0.0061971387 -0.042002872 0.72300011 1.9181767e-38
-0.0048199962 -0.042002872 0.72300011 1.9362918e-38
-0.0034428495 -0.042002872 0.72300011 1.9650272e-38
-0.0020628581 -0.041944757 0.72200006 1.9190387e-38
-0.00068571093 -0.041828588 0.72000009 1.8729775e-38
0.00068572396 -0.041828588 0.72000009 1.8453551e-38
0.0020571505 -0.041828588 0.72000009 1.8085126e-38
0.0034285742 -0.041828588 0.72000009 1.7985391e-38
0.0048000081 -0.041828588 0.72000009 1.7975895e-38
0.0061714347 -0.041828603 0.72000009 1.6040004e-38
0.0075638085 -0.041944772 0.72200006 1.4111964e-38
0.0089390473 -0.041944757 0.72200012 1.4758545e-38
0.010328569 -0.042002857 0.72300011 1.5403573e-38
0.01170572 -0.042002857 0.72300011 1.558189e-38
0.013082858 -0.042002857 0.72300011 1.5845444e-38
0.01444 -0.041944757 0.72200006 1.5474043e-38
0.015815239 -0.041944772 0.72200012 1.5099582e-38
0.017190477 -0.041944787 0.72200012 1.1796789e-38
0.018565714 -0.041944772 0.72200006 8.5836271e-39
0.019940944 -0.041944772 0.72200006 8.6765416e-39
0.021316189 -0.041944772 0.72200012 8.768705e-39
0.022691429 -0.041944787 0.72200012 8.2101278e-39
0.024000008 -0.041828588 0.72000009 7.5632702e-39
0.025371443 -0.041828588 0.72000009 7.4677844e-39
0.026742857 -0.041828588 0.72000003 7.3745181e-39
-0.047839999 -0.040906653 0.72800004 2.3137115e-38
-0.046325717 -0.040794283 0.72600007 2.0556348e-38
-0.04494286 -0.040794298 0.72600007 1.788094e-38
-0.043739997 -0.04096286 0.72900003 1.8625328e-38
-0.042177133 -0.040794298 0.72600007 1.9265306e-38
-0.040794279 -0.040794298 0.72600007 1.9359296e-38
-0.039411426 -0.040794298 0.72600007 1.9351775e-38
-0.038028568 -0.040794298 0.72600007 2.0100463e-38
-0.036645714 -0.040794298 0.72600007 2.074512e-38
-0.03526286 -0.040794298 0.72600007 2.2040158e-38
-0.033880003 -0.040794298 0.72600007 2.3323689e-38
-0.032497149 -0.040794298 0.72600007 1.9000593e-38
-0.031071421 -0.040738091 0.72500008 1.4644848e-38
-0.029690478 -0.040738106 0.72500002 7.3546715e-39
-0.028309533 -0.040738091 0.72500002 1.187096e-40
-0.026965713 -0.040794298 0.72600007 2.1498805e-39
-0.025582857 -0.040794298 0.72600007 4.1767186e-39
-0.024199989 -0.040794298 0.72600007 4.8238719e-39
-0.022785721 -0.040738106 0.72500002 5.4717426e-39
-0.021404753 -0.040738106 0.72500008 5.6586422e-39
-0.020023808 -0.040738106 0.72500002 5.847334e-39
-0.018642863 -0.040738106 0.72500002 9.0655225e-39
-0.017261909 -0.040738106 0.72500008 1.2195464e-38
-0.01588095 -0.040738091 0.72500002 1.3487259e-38
-0.014499995 -0.040738091 0.72500008 1.477403e-38
-0.013119052 -0.040738091 0.72500002 1.5786368e-38
-0.011738108 -0.040738076 0.72500002 1.6799073e-38
-0.01032857 -0.040625721 0.72300011 1.8823761e-38
-0.008976195 -0.040738091 0.72500002 2.0845218e-38
-0.0075742914 -0.040625706 0.72300011 2.0202011e-38
-0.0061971345 -0.040625721 0.72300011 1.9458346e-38
-0.0048200022 -0.040625721 0.72300011 1.9262109e-38
-0.0034428556 -0.040625721 0.72300011 1.8999529e-38
-0.002062866 -0.040569514 0.72200006 1.8822685e-38
-0.00068571093 -0.040457159 0.72000009 1.8545384e-38
0.00068572303 -0.040457159 0.72000009 1.8359557e-38
0.0020571477 -0.040457144 0.72000009 1.8085127e-38
0.0034285733 -0.040457144 0.72000009 1.8823038e-38
0.0048000072 -0.040457159 0.72000009 1.9547581e-38
0.006188571 -0.040569529 0.72200012 1.7974802e-38
0.0075742914 -0.040625736 0.72300011 1.6319668e-38
0.008939039 -0.040569529 0.72200006 1.4384005e-38
0.010328581 -0.040625706 0.72300011 1.245692e-38
0.011705719 -0.040625721 0.72300011 1.3184454e-38
0.013082859 -0.040625721 0.72300011 1.3824699e-38
0.014439989 -0.040569529 0.72200006 1.4829416e-38
0.015815228 -0.040569529 0.72200006 1.5746022e-38
0.017190473 -0.040569529 0.72200006 1.2346362e-38
0.018591436 -0.040625721 0.72300011 8.8594909e-39
0.019940952 -0.040569544 0.72200012 8.8616531e-39
0.02131618 -0.040569514 0.72200006 8.8587539e-39
0.022691419 -0.040569514 0.72200006 8.3012543e-39
0.024000006 -0.040457159 0.72000009 7.6558246e-39
0.025441902 -0.040569529 0.72200006 7.5614079e-39
0.026742866 -0.040457159 0.72000009 7.4667054e-39
-0.047840007 -0.03952001 0.72800004 1.9101422e-38
-0.046325717 -0.039411426 0.72600007 1.9832518e-38
-0.044942845 -0.039411426 0.72600007 2.0662625e-38
-0.043559991 -0.039411426 0.72600007 2.1025662e-38
-0.042177133 -0.039411426 0.72600007 2.1397309e-38
-0.040794279 -0.039411426 0.72600007 2.1393004e-38
-0.039411426 -0.03941144 0.72600007 2.1397309e-38
-0.038028572 -0.03941144 0.72600007 2.1761781e-38
-0.036595248 -0.039357141 0.72500002 2.2040158e-38
-0.03526286 -0.03941144 0.72600007 2.2683006e-38
-0.033879992 -0.03941144 0.72600007 2.3325853e-38
-0.032497138 -0.03941144 0.72600007 1.8261268e-38
-0.031071417 -0.039357156 0.72500008 1.3277009e-38
-0.029731426 -0.03941144 0.72600007 6.6357634e-39
-0.02830952 -0.039357141 0.72500008 1.1942286e-40
-0.026965715 -0.03941144 0.72600007 1.9629809e-39
-0.025582846 -0.03941144 0.72600007 3.7128776e-39
-0.024166662 -0.039357156 0.72500008 4.4529412e-39
-0.022785719 -0.039357141 0.72500002 5.1926474e-39
-0.021404766 -0.039357156 0.72500008 5.3824168e-39
-0.020023806 -0.039357141 0.72500002 5.6625882e-39
-0.018642852 -0.039357141 0.72500008 8.1471689e-39
-0.017261907 -0.039357126 0.72500002 1.0637131e-38
-0.015880965 -0.039357141 0.72500002 1.2751499e-38
-0.014499995 -0.039357141 0.72500008 1.477367e-38
-0.01311905 -0.039357126 0.72500002 1.5141366e-38
-0.011738096 -0.039357141 0.72500008 1.5600905e-38
-0.010357152 -0.039357141 0.72500002 1.7902535e-38
-0.0089761931 -0.039357141 0.72500002 2.0295282e-38
-0.0075742882 -0.039248586 0.72300011 2.0201654e-38
-0.006197141 -0.039248586 0.72300011 2.0105857e-38
-0.004819999 -0.039248571 0.72300017 1.9269995e-38
-0.0034428523 -0.039248571 0.72300011 1.8446718e-38
-0.0020628683 -0.039194286 0.72200006 1.8635425e-38
-0.00068570441 -0.039085746 0.72000009 1.8728333e-38
0.00068761548 -0.039194301 0.72200006 1.8267358e-38
0.0020628548 -0.039194301 0.72200012 1.780711e-38
0.0034380932 -0.039194301 0.72200012 1.8729775e-38
0.0048133223 -0.039194286 0.72200006 1.974317e-38
0.0061885673 -0.039194301 0.72200006 1.9182448e-38
0.0075742942 -0.039248586 0.72300017 1.8624588e-38
0.0089514349 -0.039248601 0.72300011 1.6414048e-38
0.010314285 -0.039194286 0.72200012 1.4294681e-38
0.011689513 -0.039194286 0.72200006 1.3737593e-38
0.013082864 -0.039248571 0.72300011 1.3183639e-38
0.014460002 -0.039248586 0.72300011 1.4003987e-38
0.015837152 -0.039248586 0.72300011 1.4922736e-38
0.017214291 -0.039248571 0.72300011 1.1983317e-38
0.01859143 -0.039248586 0.72300011 8.9516852e-39
0.019940948 -0.039194286 0.72200006 8.8605811e-39
0.021316186 -0.039194301 0.72200006 8.7687176e-39
0.022691425 -0.039194301 0.72200012 8.1190252e-39
0.024066662 -0.039194301 0.72200012 7.5639891e-39
0.025441892 -0.039194286 0.72200006 7.4677718e-39
0.026817137 -0.039194301 0.72200006 7.374144e-39
0.028114289 -0.039085731 0.72000009 7.3741454e-39
-0.047839999 -0.038133323 0.7280001 1.5041632e-38
-0.046453334 -0.038133323 0.7280001 1.9193256e-38
-0.045066662 -0.038133338 0.72800004 2.3325853e-38
-0.043680001 -0.038133323 0.72800004 2.341769e-38
-0.042293333 -0.038133323 0.72800004 2.341769e-38
-0.040794283 -0.038028583 0.72600007 2.341769e-38
-0.039411429 -0.038028568 0.72600007 2.341769e-38
-0.038028575 -0.038028583 0.72600007 2.341769e-38
-0.036645718 -0.038028583 0.72600007 2.3325854e-38
-0.035262864 -0.038028583 0.72600007 2.3325854e-38
-0.033879992 -0.038028568 0.72600007 2.3322608e-38
-0.032497138 -0.038028568 0.72600007 1.7624841e-38
-0.031114284 -0.038028598 0.72600007 1.1791121e-38
-0.029731428 -0.038028583 0.72600007 5.9756958e-39
-0.028348573 -0.038028583 0.72600007 1.1583273e-40
-0.026965704 -0.038028583 0.72600007 1.685678e-39
-0.025582848 -0.038028598 0.72600007 3.2511862e-39
-0.024166677 -0.03797619 0.72500002 4.0823706e-39
-0.022785719 -0.037976176 0.72500002 4.915706e-39
-0.021404764 -0.03797619 0.72500008 5.1998234e-39
-0.020023819 -0.03797619 0.72500002 5.3842119e-39
-0.01864285 -0.03797619 0.72500008 7.2234329e-39
-0.017261907 -0.03797619 0.72500002 9.0709048e-39
-0.015880954 -0.037976205 0.72500008 1.1923904e-38
-0.014500008 -0.03797619 0.72500002 1.4771879e-38
-0.013119048 -0.03797619 0.72500002 1.4587846e-38
-0.011738095 -0.03797619 0.72500008 1.4314492e-38
-0.010328558 -0.037871435 0.72300011 1.6982387e-38
-0.0089514256 -0.037871435 0.72300011 1.9649563e-38
-0.0075742793 -0.03787142 0.72300011 2.0203448e-38
-0.0061971373 -0.03787145 0.72300017 2.0655438e-38
-0.0048199901 -0.037871435 0.72300011 1.9265336e-38
-0.0034428579 -0.037871435 0.72300011 1.7893553e-38
-0.0020657009 -0.03787145 0.72300017 1.8452469e-38
-0.00068762293 -0.037819043 0.72200012 1.8911285e-38
0.00068761641 -0.037819043 0.72200012 1.8174446e-38
0.002062852 -0.037819043 0.72200006 1.7440841e-38
0.0034380904 -0.037819058 0.72200006 1.8728694e-38
0.0048133289 -0.037819043 0.72200006 1.9925775e-38
0.0061885682 -0.037819043 0.72200012 2.0387095e-38
0.0075638057 -0.037819043 0.72200012 2.0838365e-38
0.0089390418 -0.037819058 0.72200006 1.8444887e-38
0.010314281 -0.037819043 0.72200006 1.6043165e-38
0.01168952 -0.037819043 0.72200006 1.428788e-38
0.013082858 -0.037871435 0.72300011 1.2444618e-38
0.014460007 -0.037871435 0.72300011 1.3263869e-38
0.015837146 -0.037871435 0.72300011 1.4096907e-38
0.017214283 -0.03787142 0.72300011 1.1619921e-38
0.018591434 -0.03787145 0.72300011 9.0442339e-39
0.019968575 -0.037871435 0.72300011 8.8602168e-39
0.021345712 -0.037871435 0.72300011 8.58289e-39
0.022722863 -0.037871435 0.72300011 8.0253933e-39
0.024066661 -0.037819058 0.72200006 7.4703642e-39
0.025441898 -0.037819058 0.72200006 7.3712839e-39
0.026817147 -0.037819073 0.72200012 7.1897639e-39
0.028114298 -0.037714303 0.72000009 7.3745111e-39
-0.046453327 -0.036746666 0.7280001 1.1087694e-38
-0.045066658 -0.036746651 0.7280001 1.4509287e-38
-0.043740004 -0.036797151 0.72900003 1.5692388e-38
-0.042293325 -0.036746666 0.7280001 1.689737e-38
-0.040794283 -0.03664574 0.72600007 1.6702219e-38
-0.039411433 -0.03664574 0.72600007 1.6530028e-38
-0.038133323 -0.036746666 0.72800004 1.6334877e-38
-0.036746658 -0.036746681 0.72800004 1.6254521e-38
-0.03535999 -0.036746666 0.72800004 1.6241248e-38
-0.03397334 -0.036746681 0.72800004 1.6248386e-38
-0.032497138 -0.03664571 0.72600007 1.1342326e-38
-0.031114284 -0.036645725 0.72600007 6.5209648e-39
-0.02973143 -0.036645725 0.72600007 3.3153348e-39
-0.028348561 -0.03664571 0.72600007 1.2085358e-40
-0.026965704 -0.03664571 0.72600007 1.3151032e-39
-0.02558285 -0.036645725 0.72600007 2.604749e-39
-0.024199994 -0.03664574 0.72600007 3.437011e-39
-0.022817139 -0.036645725 0.72600007 4.3618245e-39
-0.021404762 -0.036595255 0.72500002 4.8256655e-39
-0.020023819 -0.036595225 0.72500002 5.1958774e-39
-0.01864285 -0.036595225 0.72500008 6.5795083e-39
-0.017261906 -0.03659524 0.72500002 7.8763259e-39
-0.015880952 -0.036595255 0.72500008 1.1094156e-38
-0.014500006 -0.03659524 0.72500002 1.440418e-38
-0.013119062 -0.036595225 0.72500002 1.3944285e-38
-0.011738094 -0.03659524 0.72500002 1.3484388e-38
-0.010328564 -0.036494285 0.72300011 1.6337026e-38
-0.0089514321 -0.03649427 0.72300011 1.9280786e-38
-0.0075742751 -0.0364943 0.72300011 1.9649565e-38
-0.0061971429 -0.0364943 0.72300011 2.0108014e-38
-0.0048199962 -0.036494285 0.72300011 1.9087767e-38
-0.0034428537 -0.036494285 0.72300011 1.8072203e-38
-0.002065707 -0.0364943 0.72300011 1.8632549e-38
-0.00068762479 -0.0364438 0.72200006 1.9187865e-38
0.00068857474 -0.0364943 0.72300011 1.8543221e-38
0.002065714 -0.036494285 0.72300011 1.7808182e-38
0.0034428542 -0.0364943 0.72300011 1.8544661e-38
0.0048200036 -0.036494315 0.72300011 1.9282936e-38
0.0061971429 -0.0364943 0.72300011 1.9742835e-38
0.0075742831 -0.036494285 0.72300011 2.0295283e-38
0.0089514321 -0.0364943 0.72300011 1.8077957e-38
0.010328572 -0.0364943 0.72300011 1.5951352e-38
0.01170572 -0.03649427 0.72300005 1.5299137e-38
0.013082861 -0.036494285 0.72300011 1.4644693e-38
0.014460001 -0.036494285 0.72300011 1.5480063e-38
0.01583714 -0.036494285 0.72300011 1.6304878e-38
0.017214296 -0.036494285 0.72300011 1.2630829e-38
0.018591428 -0.036494285 0.72300011 8.9484496e-39
0.019968573 -0.036494285 0.72300011 8.5839859e-39
0.021345716 -0.0364943 0.72300011 8.1258593e-39
0.022722865 -0.036494285 0.72300011 7.7513175e-39
0.024066662 -0.036443815 0.72200012 7.4718019e-39
0.025477149 -0.0364943 0.72300011 7.0979397e-39
0.026854284 -0.0364943 0.72300011 6.8224304e-39
0.028192375 -0.03644383 0.72200006 7.0986515e-39
0.02956761 -0.036443815 0.72200006 7.3752356e-39
-0.046517156 -0.035408586 0.72900003 2.8809407e-39
-0.045128576 -0.035408571 0.72900003 5.6460557e-39
-0.043680009 -0.035359994 0.72800004 7.9448172e-39
-0.042293333 -0.035360008 0.7280001 1.0251471e-38
-0.040794287 -0.035262868 0.72600007 9.9630541e-39
-0.039519999 -0.035360008 0.7280001 9.6082636e-39
-0.038133331 -0.035359994 0.7280001 9.3205574e-39
-0.036746666 -0.035359994 0.7280001 9.0590372e-39
-0.035360001 -0.035359979 0.7280001 9.0439677e-39
-0.033973329 -0.035359994 0.7280001 9.0507682e-39
-0.032497142 -0.035262883 0.72600007 5.1585076e-39
-0.031114286 -0.035262883 0.72600007 1.2124357e-39
-0.029731415 -0.035262883 0.72600007 6.4347065e-40
-0.028348561 -0.035262883 0.72600007 1.1078806e-40
-0.026965708 -0.035262868 0.72600007 1.032764e-39
-0.025582852 -0.035262868 0.72600007 1.8661106e-39
-0.024199996 -0.035262868 0.72600007 2.8820506e-39
-0.022817142 -0.035262868 0.72600007 3.8065054e-39
-0.021434285 -0.035262868 0.72600007 4.4533013e-39
-0.020023806 -0.03521429 0.72500008 5.0079002e-39
-0.018668562 -0.035262883 0.72600007 5.838723e-39
-0.017261904 -0.03521429 0.72500002 6.6756472e-39
-0.01588095 -0.035214275 0.72500008 1.0355167e-38
-0.014500004 -0.03521429 0.72500002 1.394285e-38
-0.01311905 -0.03521429 0.72500008 1.3301077e-38
-0.011738106 -0.03521429 0.72500002 1.2566033e-38
-0.010357147 -0.035214275 0.72500002 1.5692386e-38
-0.0089514283 -0.035117149 0.72300011 1.8819815e-38
-0.0075742821 -0.035117149 0.72300011 1.9189668e-38
-0.0061971499 -0.035117149 0.72300011 1.9555208e-38
-0.0048199929 -0.035117149 0.72300011 1.8905177e-38
-0.0034523821 -0.03521429 0.72500008 1.8169061e-38
-0.0020714384 -0.035214275 0.72500002 1.8817293e-38
-0.00068856403 -0.035117149 0.72300011 1.9462294e-38
0.00068857567 -0.035117149 0.72300011 1.8819088e-38
0.0020657149 -0.035117134 0.72300005 1.8175882e-38
0.0034428644 -0.035117149 0.72300011 1.8358836e-38
0.0048200036 -0.035117149 0.72300011 1.8545381e-38
0.0061971541 -0.035117164 0.72300017 1.9097115e-38
0.0075742933 -0.035117164 0.72300011 1.9646691e-38
0.0089514321 -0.035117149 0.72300011 1.780388e-38
0.010328582 -0.035117164 0.72300017 1.5863116e-38
0.011705721 -0.035117164 0.72300011 1.6312946e-38
0.013082861 -0.035117149 0.72300011 1.6778526e-38
0.014460011 -0.035117149 0.72300017 1.7615752e-38
0.015837148 -0.035117149 0.72300011 1.8435455e-38
0.017261898 -0.035214275 0.72500008 1.3650322e-38
0.018591439 -0.035117149 0.72300011 8.8659257e-39
0.019968579 -0.035117134 0.72300011 8.3088339e-39
0.02134572 -0.035117134 0.72300011 7.6634547e-39
0.02272287 -0.035117149 0.72300011 7.5655011e-39
0.024100007 -0.035117149 0.72300011 7.3770909e-39
0.025477147 -0.035117134 0.72300011 6.9099471e-39
0.02685429 -0.035117149 0.72300017 6.3617997e-39
0.028192382 -0.035068601 0.72200012 6.8220506e-39
-0.046644751 -0.034113333 0.73100007 5.0681e-39
-0.045128558 -0.034020022 0.72900009 9.6462514e-39
-0.043740004 -0.034020007 0.72900003 1.3177979e-38
-0.04229334 -0.033973336 0.72800004 1.6578053e-38
-0.040906671 -0.033973336 0.72800004 1.6220405e-38
-0.039520003 -0.033973321 0.72800004 1.5935923e-38
-0.038133338 -0.033973321 0.72800004 1.5946677e-38
-0.03674667 -0.033973321 0.72800004 1.6034559e-38
-0.035360001 -0.033973336 0.72800004 1.6133563e-38
-0.033973325 -0.033973336 0.7280001 1.6221459e-38
-0.032497145 -0.03388001 0.72600007 1.4198574e-38
-0.031114273 -0.03388001 0.72600007 1.2179596e-38
-0.029731419 -0.03388001 0.72600007 1.0509304e-38
-0.028348563 -0.033880025 0.72600007 8.7483259e-39
-0.02703999 -0.033973336 0.7280001 4.8912729e-39
-0.025582854 -0.033880025 0.72600007 1.0363527e-39
-0.024199998 -0.033880025 0.72600007 1.8650428e-39
-0.022817142 -0.033880025 0.72600007 2.7026843e-39
-0.021434274 -0.033880025 0.72600007 3.8079403e-39
-0.020051418 -0.03388001 0.72600007 4.9103236e-39
-0.018668562 -0.03388001 0.72600007 5.3784666e-39
-0.017285708 -0.033880025 0.72600007 5.9377332e-39
-0.015880948 -0.03383334 0.72500002 9.7108835e-39
-0.014500002 -0.03383334 0.72500002 1.3485825e-38
-0.013119048 -0.03383334 0.72500008 1.29323e-38
-0.011738104 -0.03383334 0.72500002 1.2378418e-38
-0.010357135 -0.033833355 0.72500008 1.4956627e-38
-0.0089761904 -0.033833325 0.72500002 1.7535195e-38
-0.0075742789 -0.033740014 0.72300017 1.8730848e-38
-0.0062142932 -0.033833325 0.72500008 1.9925422e-38
-0.0048333346 -0.03383334 0.72500002 1.9827482e-38
-0.0034523802 -0.03383334 0.72500008 1.9727753e-38
-0.002071436 -0.03383331 0.72500002 2.0287015e-38
-0.00068857102 -0.033740014 0.72300011 2.084162e-38
0.00068857847 -0.033739999 0.72300017 1.9463373e-38
0.0020657186 -0.033740014 0.72300011 1.8084047e-38
0.0034428579 -0.033739999 0.72300011 1.8266999e-38
0.0048200074 -0.033740014 0.72300011 1.8452109e-38
0.0061971466 -0.033739999 0.72300011 1.8912726e-38
0.0075742858 -0.033740014 0.72300011 1.9278268e-38
0.0089514367 -0.033740014 0.72300017 1.7155643e-38
0.010328577 -0.033740014 0.72300011 1.5037686e-38
0.011705715 -0.033739999 0.72300011 1.6782557e-38
0.013082866 -0.033740029 0.72300011 1.8541072e-38
0.014460004 -0.033739999 0.72300011 1.9737451e-38
0.015880955 -0.03383334 0.72500008 2.0936243e-38
0.0172619 -0.033833355 0.72500002 1.6328232e-38
0.018642843 -0.03383334 0.72500002 1.1810386e-38
0.019968573 -0.033739999 0.72300011 9.3200949e-39
0.021345723 -0.033740014 0.72300011 6.8369366e-39
0.022722861 -0.033740014 0.72300011 7.1063306e-39
0.0241 -0.033740014 0.72300011 7.3774455e-39
0.02547715 -0.033739999 0.72300011 7.0975459e-39
0.02685429 -0.033739999 0.72300011 6.9131546e-39
0.028231431 -0.033739999 0.72300011 7.0975389e-39
-0.046708573 -0.032765731 0.73200011 7.2729016e-39
-0.045252375 -0.032720968 0.73100007 1.3732243e-38
-0.043740001 -0.032631427 0.72900009 1.8358819e-38
-0.042351432 -0.032631442 0.72900003 2.2944858e-38
-0.040906664 -0.032586664 0.72800004 2.2588282e-38
-0.039519995 -0.032586664 0.72800004 2.2211609e-38
-0.038133331 -0.032586649 0.72800004 2.2587558e-38
-0.036746666 -0.032586664 0.72800004 2.2948439e-38
-0.035359997 -0.032586649 0.72800004 2.3233628e-38
-0.033973329 -0.032586664 0.72800004 2.340941e-38
-0.032497145 -0.032497153 0.72600007 2.3325829e-38
-0.031199995 -0.032586664 0.72800004 2.3130303e-38
-0.029813329 -0.032586664 0.72800004 2.028231e-38
-0.028426662 -0.032586664 0.72800004 1.741063e-38
-0.027039994 -0.032586679 0.72800004 8.7475748e-39
-0.025653332 -0.032586679 0.7280001 1.1651937e-40
-0.0242 -0.032497153 0.72600007 8.3905408e-40
-0.022817146 -0.032497153 0.72600007 1.5945501e-39
-0.021434274 -0.032497153 0.72600007 3.1658051e-39
-0.02005142 -0.032497168 0.72600007 4.7291623e-39
-0.018668566 -0.032497168 0.72600007 4.9182157e-39
-0.017285708 -0.032497168 0.72600007 5.1083453e-39
-0.015880961 -0.03245239 0.72500002 9.064805e-39
-0.014499991 -0.032452404 0.72500008 1.3020549e-38
-0.013119047 -0.032452375 0.72500002 1.2656077e-38
-0.011738103 -0.032452375 0.72500002 1.2196898e-38
-0.010357149 -0.032452375 0.72500008 1.4220864e-38
-0.0089761904 -0.03245239 0.72500002 1.6246266e-38
-0.0075742849 -0.032362863 0.72300011 1.8273463e-38
-0.0062142923 -0.032452375 0.72500002 2.0292766e-38
-0.0048333337 -0.032452375 0.72500002 2.0750866e-38
-0.0034523797 -0.032452375 0.72500002 2.1207533e-38
-0.0020714346 -0.03245236 0.72500002 2.1668861e-38
-0.00068856683 -0.032362863 0.72300011 2.2129116e-38
0.00068857288 -0.032362863 0.72300011 2.0108379e-38
0.0020657121 -0.032362878 0.72300011 1.7992571e-38
0.0034428616 -0.032362878 0.72300011 1.8173011e-38
0.0048200018 -0.032362863 0.72300011 1.8360991e-38
0.006197141 -0.032362863 0.72300011 1.8639373e-38
0.0075742905 -0.032362878 0.72300011 1.8905904e-38
0.0089514311 -0.032362863 0.72300011 1.6594584e-38
0.010328569 -0.032362863 0.72300011 1.4209733e-38
0.0117381 -0.03245239 0.72500008 1.7238869e-38
0.01308286 -0.032362878 0.72300011 2.0194831e-38
0.014459998 -0.032362863 0.72300011 2.1856485e-38
0.01588095 -0.032452375 0.72500008 2.3416566e-38
0.017261902 -0.032452375 0.72500002 1.9099175e-38
0.018642856 -0.032452375 0.72500008 1.4661273e-38
0.020023808 -0.03245236 0.72500002 1.0323817e-38
0.021404758 -0.032452375 0.72500002 5.9153489e-39
0.022785712 -0.032452375 0.72500002 6.6453637e-39
0.024100006 -0.032362878 0.72300011 7.3778126e-39
0.025477145 -0.032362863 0.72300011 7.3734237e-39
0.026854286 -0.032362849 0.72300011 7.3734209e-39
0.028231433 -0.032362878 0.72300011 7.374137e-39
0.029608572 -0.032362878 0.72300011 7.3737979e-39
-0.046708576 -0.031371444 0.73200011 9.5049668e-39
-0.045252375 -0.031328589 0.73100007 1.8273825e-38
-0.04386 -0.031328589 0.73100007 2.0752308e-38
-0.042351432 -0.031242847 0.72900003 2.3234019e-38
-0.04090666 -0.031200022 0.7280001 2.3049631e-38
-0.039574288 -0.031242877 0.72900003 2.2866677e-38
-0.038133338 -0.031200007 0.7280001 2.3049631e-38
-0.036746673 -0.031199992 0.7280001 2.3234019e-38
-0.035360005 -0.031200007 0.72800004 2.3325854e-38
-0.033973336 -0.031199992 0.72800004 2.341769e-38
-0.032586671 -0.031199992 0.72800004 2.3325854e-38
-0.031200003 -0.031199992 0.72800004 2.3234019e-38
-0.029813338 -0.031200007 0.72800004 2.185254e-38
-0.02842667 -0.031199992 0.72800004 2.0475993e-38
-0.027040003 -0.031199992 0.72800004 1.4661566e-38
-0.025653336 -0.031200007 0.72800004 8.8534051e-39
-0.024266668 -0.031200007 0.72800004 4.8959435e-39
-0.022817131 -0.031114295 0.72600007 8.6451988e-40
-0.021434277 -0.031114295 0.72600007 2.6119166e-39
-0.020051422 -0.03111431 0.72600007 4.2685485e-39
-0.018668566 -0.031114295 0.72600007 4.4561712e-39
-0.017285712 -0.031114295 0.72600007 4.5526688e-39
-0.015880959 -0.031071424 0.72500002 8.4183678e-39
-0.014500004 -0.031071424 0.72500008 1.2191875e-38
-0.013119045 -0.03107141 0.72500002 1.2194029e-38
-0.011738091 -0.031071424 0.72500008 1.2194744e-38
-0.010357146 -0.031071424 0.72500002 1.3757379e-38
-0.0089762025 -0.031071424 0.72500002 1.5322529e-38
-0.0075952341 -0.031071424 0.72500008 1.7717066e-38
-0.0062142904 -0.03107141 0.72500002 2.0200216e-38
-0.004833336 -0.031071439 0.72500008 2.1211844e-38
-0.0034523774 -0.031071424 0.72500002 2.2315664e-38
-0.0020714332 -0.031071424 0.72500002 2.2590094e-38
-0.00068856543 -0.030985713 0.72300011 2.2774842e-38
0.00068856636 -0.030985698 0.72300011 2.1027456e-38
0.0020657242 -0.030985728 0.72300011 1.9186794e-38
0.0034523779 -0.031071424 0.72500002 1.8542504e-38
0.0048200027 -0.030985713 0.72300011 1.790325e-38
0.0061971457 -0.030985713 0.72300011 1.8177327e-38
0.0075742849 -0.030985728 0.72300011 1.8540356e-38
0.0089514256 -0.030985728 0.72300011 1.706237e-38
0.010328582 -0.030985728 0.72300011 1.568233e-38
0.011705714 -0.030985728 0.72300011 1.8077231e-38
0.013082853 -0.030985728 0.72300011 2.0570785e-38
0.014460003 -0.030985743 0.72300011 2.1948322e-38
0.015880954 -0.03107141 0.72500002 2.341769e-38
0.017261896 -0.03107141 0.72500002 1.9367242e-38
0.018642858 -0.031071424 0.72500008 1.5390618e-38
0.0200238 -0.031071424 0.72500002 1.0417792e-38
0.021404762 -0.031071439 0.72500008 5.4576021e-39
0.022785714 -0.03107141 0.72500002 6.4638493e-39
0.024166659 -0.031071424 0.72500002 7.4714502e-39
0.025547614 -0.031071424 0.72500008 7.467783e-39
0.026928563 -0.031071439 0.72500002 7.4652704e-39
0.028309526 -0.031071424 0.72500008 7.4656278e-39
0.029690469 -0.031071424 0.72500002 7.4659907e-39
-0.04843143 -0.030181915 0.73700011 7.6800404e-40
-0.046708565 -0.029977128 0.73200005 1.1722295e-38
-0.045252375 -0.02993618 0.73100001 2.2674754e-38
-0.04386 -0.029936194 0.73100007 2.3050348e-38
-0.04235144 -0.029854283 0.72900003 2.341769e-38
-0.040962864 -0.029854298 0.72900003 2.341769e-38
-0.039574284 -0.029854298 0.72900009 2.341769e-38
-0.038185716 -0.029854298 0.72900003 2.341769e-38
-0.036797136 -0.029854283 0.72900003 2.341769e-38
-0.035359986 -0.029813349 0.7280001 2.341769e-38
-0.033973332 -0.029813349 0.7280001 2.3416971e-38
-0.032586664 -0.029813334 0.7280001 2.3417686e-38
-0.031242859 -0.029854283 0.72900003 2.3323698e-38
-0.029813331 -0.029813334 0.7280001 2.3417684e-38
-0.028426664 -0.029813334 0.72800004 2.3416565e-38
-0.027039997 -0.029813334 0.72800004 2.0569622e-38
-0.025653331 -0.029813334 0.72800004 1.7599331e-38
-0.024266664 -0.029813319 0.72800004 8.8423264e-39
-0.022879995 -0.029813334 0.72800004 1.1977599e-40
-0.021434277 -0.029731438 0.72600007 1.9644074e-39
-0.020051423 -0.029731438 0.72600007 3.8057837e-39
-0.01866857 -0.029731452 0.72600007 3.9012093e-39
-0.017285712 -0.029731438 0.72600007 3.9995034e-39
-0.015902843 -0.029731438 0.72600007 7.6804566e-39
-0.014500002 -0.029690459 0.72500008 1.1361053e-38
-0.013119058 -0.029690474 0.72500002 1.1825611e-38
-0.011738089 -0.029690489 0.72500008 1.2192591e-38
-0.010357145 -0.029690459 0.72500002 1.3291745e-38
-0.0089761913 -0.029690474 0.72500008 1.4311262e-38
-0.0075952476 -0.029690474 0.72500002 1.7163904e-38
-0.006214289 -0.029690489 0.72500002 2.0015828e-38
-0.0048333337 -0.029690474 0.72500008 2.1764651e-38
-0.00345239 -0.029690459 0.72500002 2.341769e-38
-0.0020714207 -0.029690489 0.72500008 2.341769e-38
-0.00068856077 -0.029608577 0.72300017 2.341769e-38
0.00068857847 -0.029608563 0.72300011 2.1948322e-38
0.0020657168 -0.029608577 0.72300011 2.0380654e-38
0.0034523723 -0.029690474 0.72500002 1.8906257e-38
0.0048200064 -0.029608577 0.72300011 1.7348288e-38
0.0061971457 -0.029608563 0.72300011 1.7718505e-38
0.0075742961 -0.029608592 0.72300017 1.8082256e-38
0.0089761922 -0.029690474 0.72500002 1.7616257e-38
0.010357136 -0.029690459 0.72500002 1.7158154e-38
0.011738097 -0.029690459 0.72500008 1.9000244e-38
0.013082864 -0.029608592 0.72300011 2.0841267e-38
0.014460004 -0.029608577 0.72300011 2.2131993e-38
0.015880946 -0.029690474 0.72500002 2.341769e-38
0.017261907 -0.029690474 0.72500008 1.974427e-38
0.018642852 -0.029690474 0.72500008 1.6039201e-38
0.020023804 -0.029690474 0.72500002 1.0499575e-38
0.021404758 -0.029690474 0.72500008 4.9008494e-39
0.022785708 -0.029690474 0.72500002 6.2805454e-39
0.024100011 -0.029608577 0.72300017 7.5643689e-39
0.025547616 -0.029690474 0.72500002 7.5603429e-39
0.026854288 -0.029608563 0.72300011 7.4663522e-39
0.028231431 -0.029608577 0.72300011 7.5567514e-39
0.029690471 -0.029690474 0.72500002 7.55675e-39
0.031071426 -0.029690489 0.72500008 7.5560311e-39
-0.04843143 -0.028778091 0.73700005 4.874781e-40
-0.046708569 -0.028582856 0.73200005 1.1358183e-38
-0.04525239 -0.028543815 0.73100001 2.2223829e-38
-0.043859996 -0.02854383 0.73100001 2.2774842e-38
-0.042467609 -0.028543815 0.73100007 2.3325854e-38
-0.04096286 -0.028465718 0.72900009 1.8175175e-38
-0.039574292 -0.028465718 0.72900003 1.3132114e-38
-0.038185712 -0.028465733 0.72900003 1.2933735e-38
-0.036797144 -0.028465718 0.72900003 1.2764772e-38
-0.035408583 -0.028465718 0.72900003 1.2288017e-38
-0.033973336 -0.028426677 0.72800004 1.1843185e-38
-0.032631435 -0.028465733 0.72900003 1.1731256e-38
-0.031242859 -0.028465733 0.72900003 1.1745604e-38
-0.02985429 -0.028465718 0.72900003 1.5868873e-38
-0.028465712 -0.028465733 0.72900003 2.0019054e-38
-0.027077146 -0.028465718 0.72900003 2.0108742e-38
-0.025688581 -0.028465718 0.72900003 2.028519e-38
-0.024300002 -0.028465718 0.72900009 1.1524894e-38
-0.02287999 -0.028426677 0.7280001 2.857965e-39
-0.021493323 -0.028426677 0.7280001 2.5025075e-39
-0.020106655 -0.028426662 0.7280001 2.1495162e-39
-0.01866857 -0.028348595 0.72600007 3.0728934e-39
-0.017285701 -0.028348595 0.72600007 3.9047966e-39
-0.015902845 -0.028348595 0.72600007 6.5748448e-39
-0.014519989 -0.02834858 0.72600007 9.2456075e-39
-0.013119057 -0.028309524 0.72500002 1.1088416e-38
-0.011738103 -0.028309509 0.72500008 1.3019111e-38
-0.010357144 -0.028309524 0.72500002 1.3480079e-38
-0.0089885546 -0.02834858 0.72600007 1.4037551e-38
-0.0075952462 -0.028309524 0.72500002 1.6613251e-38
-0.0062142774 -0.028309524 0.72500008 1.9281504e-38
-0.0048333337 -0.028309524 0.72500002 2.1212921e-38
-0.0034523895 -0.028309539 0.72500002 2.3050348e-38
-0.0020714351 -0.028309539 0.72500008 2.2958513e-38
-0.00068856915 -0.028231442 0.72300011 2.2958513e-38
0.00068857102 -0.028231427 0.72300011 2.157811e-38
0.0020714221 -0.028309539 0.72500002 2.019519e-38
0.0034523732 -0.028309509 0.72500002 1.8632543e-38
0.004819999 -0.028231442 0.72300011 1.7069552e-38
0.0061971494 -0.028231442 0.72300011 1.7349008e-38
0.0075742877 -0.028231427 0.72300011 1.7627383e-38
0.0089514283 -0.028231427 0.72300011 1.7254659e-38
0.010328579 -0.028231442 0.72300011 1.68848e-38
0.011738092 -0.028309524 0.72500002 1.7525848e-38
0.013082857 -0.028231427 0.72300011 1.8171577e-38
0.014460008 -0.028231442 0.72300011 2.0751591e-38
0.015880948 -0.028309509 0.72500002 2.341769e-38
0.017261902 -0.028309524 0.72500008 2.0472138e-38
0.018642852 -0.028309539 0.72500002 1.7420316e-38
0.020023813 -0.028309524 0.72500008 1.0599293e-38
0.02140476 -0.028309524 0.72500002 3.8856367e-39
0.022785712 -0.028309524 0.72500002 5.7284647e-39
0.024100002 -0.028231427 0.72300011 7.5679632e-39
0.025547614 -0.028309509 0.72500002 7.468513e-39
0.02692857 -0.028309539 0.72500008 7.3745223e-39
0.028309524 -0.028309524 0.72500002 7.5571143e-39
0.029731426 -0.02834858 0.72600007 7.8322565e-39
0.03111429 -0.02834858 0.72600007 7.6489386e-39
-0.048431434 -0.027374312 0.73700011 1.2408218e-40
-0.046708569 -0.027188569 0.73200005 1.0998374e-38
-0.045252379 -0.027151451 0.73100007 2.175927e-38
-0.04386 -0.027151421 0.73100001 2.2499335e-38
-0.042467609 -0.027151436 0.73100001 2.313428e-38
-0.040962867 -0.027077168 0.72900003 1.2916135e-38
-0.039574288 -0.027077138 0.72900003 2.711626e-39
-0.038185723 -0.027077138 0.72900003 2.3288515e-39
