# .PCD v0.7 - Point Cloud Data file format
VERSION 0.7
FIELDS x y z rgb
SIZE 4 4 4 4
TYPE F F F F
COUNT 1 1 1 1
WIDTH 940
HEIGHT 1
VIEWPOINT 0 0 0 1 0 0 0
POINTS 940
DATA ascii
0.049324755 -0.016932391 0.77300012 5.2826654e-39
0.050797187 -0.016932391 0.77300012 5.8300686e-39
0.052404813 -0.016976185 0.77500004 6.36839e-39
0.054020058 -0.017019987 0.77700001 6.7230405e-39
0.05564288 -0.017063804 0.77900004 7.0972026e-39
0.057200026 -0.017085709 0.78000003 7.1919135e-39
0.058685746 -0.017085716 0.78000003 7.2830386e-39
0.060325708 -0.017129526 0.78200012 7.283047e-39
-0.042179983 -0.015539996 0.77700001 7.8544026e-39
-0.0407 -0.015539996 0.77700001 8.0391498e-39
-0.039219972 -0.015539989 0.77700001 8.3146549e-39
-0.037642825 -0.015499987 0.77500004 7.026444e-39
-0.036166646 -0.015500002 0.77500004 5.7396695e-39
-0.034600962 -0.015459999 0.77300012 7.0289523e-39
-0.033085696 -0.01543998 0.77200001 8.3164443e-39
-0.031615209 -0.015439987 0.77200001 8.9603704e-39
-0.030066645 -0.015399985 0.77000004 9.6010553e-39
-0.028600007 -0.015399992 0.7700001 8.9578355e-39
-0.027062848 -0.015359998 0.76800001 8.4064567e-39
-0.025566658 -0.015339978 0.76700002 7.3008351e-39
-0.024042862 -0.015299983 0.76500005 6.1977455e-39
-0.022526683 -0.015259996 0.76300007 6.6583705e-39
-0.021073328 -0.015259996 0.76300007 7.2086717e-39
-0.019542832 -0.015199997 0.76000005 6.1966917e-39
-0.018047579 -0.015159987 0.75800002 5.275111e-39
-0.016559957 -0.015119992 0.75600004 5.462012e-39
-0.015099962 -0.015099995 0.75500005 5.7403967e-39
-0.013625688 -0.01506 0.75300002 6.1995812e-39
-0.012175234 -0.015039988 0.75200009 6.7509445e-39
-0.010742846 -0.015039995 0.75200009 7.1179194e-39
-0.0092856893 -0.014999993 0.75000006 7.5778115e-39
-0.0078361481 -0.014959998 0.74800003 8.1306139e-39
-0.0064113997 -0.014959998 0.74800003 8.5919452e-39
-0.0049799643 -0.014939986 0.74700004 6.3825123e-39
-0.0035476175 -0.014899977 0.74500006 4.2688862e-39
-0.0021285398 -0.014899977 0.74500006 5.8415929e-39
-0.00070377364 -0.014779978 0.73900002 7.4139184e-39
0.0007038422 -0.014779985 0.73900002 1.2657153e-38
0.002105749 -0.014739983 0.73700005 1.7999396e-38
0.0035047799 -0.01472 0.73600012 2.0478237e-38
0.0049067037 -0.014719985 0.73600006 2.28638e-38
0.0063086255 -0.014719985 0.73600006 2.2771598e-38
0.0076895794 -0.014679983 0.73400003 2.2586131e-38
0.0090876557 -0.014679998 0.73400003 2.2494653e-38
0.010514294 -0.014719978 0.73600006 2.2396356e-38
0.011916217 -0.014719978 0.73600006 2.1296836e-38
0.013318102 -0.014719993 0.73600012 2.0188351e-38
0.014740034 -0.014739983 0.73700005 1.9271789e-38
0.016209545 -0.014799997 0.74000001 1.8355236e-38
0.017666647 -0.014840007 0.7420001 1.8172648e-38
0.019079994 -0.014840007 0.7420001 1.7992208e-38
0.020520965 -0.014859989 0.74300003 1.8543224e-38
0.022054344 -0.014939986 0.74700004 1.9095675e-38
0.023508603 -0.014959984 0.74800003 2.0109456e-38
0.024933375 -0.014959991 0.74800003 2.1213635e-38
0.026428577 -0.015000001 0.75000012 2.1028888e-38
0.027857134 -0.014999993 0.75000006 2.0844858e-38
0.029363835 -0.015039995 0.75200009 2.0201651e-38
0.030919066 -0.015099995 0.75500005 1.9649205e-38
0.032400023 -0.015119977 0.75600004 1.6889836e-38
0.033840001 -0.015119977 0.75600004 1.4221585e-38
0.03537336 -0.015159994 0.75800002 1.2011434e-38
0.036914337 -0.015199997 0.76000005 9.8020015e-39
0.038412385 -0.015219986 0.76100004 8.3286875e-39
0.039966684 -0.015259996 0.76300007 6.9482852e-39
0.041528601 -0.015299998 0.76500005 5.4756887e-39
0.043098126 -0.015339978 0.76699996 4.0073913e-39
0.044617165 -0.015359983 0.76800001 6.5637128e-39
0.046080031 -0.01535999 0.76800001 9.1272174e-39
0.047790457 -0.015439987 0.77200001 9.4159984e-39
0.04932477 -0.015460007 0.77300006 9.7797306e-39
0.050928611 -0.015499987 0.77500004 7.7550211e-39
0.05240481 -0.015500002 0.77500004 5.7287702e-39
0.054020036 -0.015540004 0.77700001 6.546191e-39
0.055642921 -0.015579998 0.77900004 7.465269e-39
0.057200033 -0.015599988 0.78000003 7.3748727e-39
0.058685746 -0.015599996 0.78000003 7.3748769e-39
0.060325723 -0.015640005 0.78200012 7.3748811e-39
-0.042179987 -0.014059991 0.77700001 8.0377121e-39
-0.040699985 -0.014059991 0.77700001 8.4068449e-39
-0.039219961 -0.014059991 0.77699995 8.6801892e-39
-0.037642829 -0.014023796 0.77500004 7.8507915e-39
-0.036166649 -0.014023796 0.77500004 7.0253594e-39
-0.034600943 -0.013987616 0.77300006 7.7636433e-39
-0.03308573 -0.013969526 0.77200007 8.5004797e-39
-0.031533334 -0.013933323 0.77000004 9.4231394e-39
-0.030066656 -0.013933331 0.77000004 1.0339327e-38
-0.028599979 -0.013933323 0.77000004 9.4180877e-39
-0.027062839 -0.013897136 0.76800001 8.4053848e-39
-0.025566658 -0.013879031 0.76700002 6.8391577e-39
-0.024042817 -0.013842843 0.76500005 5.2801136e-39
-0.022526655 -0.013806671 0.76300007 6.2928222e-39
-0.021073326 -0.013806656 0.76300007 7.3022966e-39
-0.019568589 -0.013770469 0.7610001 6.2903125e-39
-0.01804758 -0.013716169 0.75800002 5.1868572e-39
-0.016559975 -0.013679989 0.75600004 5.3698164e-39
-0.01509999 -0.013661891 0.75500005 5.4627337e-39
-0.013625695 -0.013625711 0.75300002 6.1066639e-39
-0.012175228 -0.013607621 0.75200009 6.6583874e-39
-0.010714304 -0.013571426 0.75000006 7.1175592e-39
-0.0092857238 -0.013571419 0.75000012 7.5781702e-39
-0.007836163 -0.013535231 0.74800003 8.4979587e-39
-0.0064113904 -0.013535239 0.74800003 9.3244782e-39
-0.0049799858 -0.013517134 0.74700004 7.6671345e-39
-0.0035475979 -0.013480939 0.74500006 6.0169892e-39
-0.0021228467 -0.013444759 0.74300003 6.3025641e-39
-0.00070378854 -0.013372369 0.73900002 6.5859641e-39
0.0007038273 -0.013372362 0.73900002 1.1825968e-38
0.0021057378 -0.013336182 0.73700005 1.6983824e-38
0.0035047743 -0.013318077 0.73600006 2.0111612e-38
0.0049066963 -0.013318077 0.73600006 2.3233297e-38
0.0063085826 -0.013318092 0.73600012 2.3142175e-38
0.007689557 -0.013281882 0.73400003 2.295671e-38
0.0090876343 -0.013281889 0.73400003 2.2774474e-38
0.010514311 -0.013318084 0.73600006 2.2587571e-38
0.011916235 -0.013318084 0.73600006 2.0842692e-38
0.013336216 -0.013336189 0.73700005 1.909064e-38
0.014780042 -0.013372362 0.73900002 1.7805658e-38
0.01620956 -0.013390467 0.74000001 1.6428132e-38
0.017666681 -0.013426669 0.7420001 1.6519615e-38
0.019080028 -0.013426669 0.7420001 1.6614321e-38
0.02057622 -0.013480939 0.74500006 1.7901097e-38
0.022054322 -0.013517134 0.74700004 1.9098189e-38
0.023508612 -0.013535231 0.74800003 2.0019774e-38
0.025 -0.013571411 0.75000006 2.0844141e-38
0.026428578 -0.013571419 0.75000006 2.0199857e-38
0.027931454 -0.013607621 0.75200009 1.9558445e-38
0.029363818 -0.013607621 0.75200009 1.9651357e-38
0.030919073 -0.013661899 0.75500005 1.9737813e-38
0.032400001 -0.013679974 0.75600004 1.6337388e-38
0.033929568 -0.013716169 0.75800002 1.2837595e-38
0.03537336 -0.013716176 0.75800002 1.0076789e-38
0.036914311 -0.013752386 0.76000005 7.2237903e-39
0.038361911 -0.013752393 0.76000011 7.0361732e-39
0.039861914 -0.013770461 0.7610001 6.7534865e-39
0.041528624 -0.013842829 0.76500005 3.4423808e-39
0.043098088 -0.013879031 0.76700002 1.2948839e-40
0.044617172 -0.013897128 0.76800001 5.8035617e-39
0.046080004 -0.013897136 0.76800001 1.1531086e-38
0.047790464 -0.013969518 0.77200001 1.2924764e-38
0.049324747 -0.013987616 0.77300012 1.4198952e-38
0.050928604 -0.014023796 0.77500004 9.5892129e-39
0.052540038 -0.014059991 0.77699995 4.9901387e-39
0.054159056 -0.014096186 0.77900004 6.359297e-39
0.055714313 -0.01411429 0.78000003 7.7400623e-39
0.057200029 -0.014114276 0.78000003 7.5585493e-39
0.058836181 -0.014150478 0.78200012 7.3752384e-39
0.060480025 -0.014186673 0.7840001 7.3748811e-39
-0.04069997 -0.012579985 0.77699995 8.0377037e-39
-0.039219987 -0.012579992 0.77700001 8.3121171e-39
-0.037642833 -0.012547605 0.77500004 7.2997575e-39
-0.036166657 -0.012547612 0.77500004 6.2885174e-39
-0.034600966 -0.012515247 0.77300012 7.3945147e-39
-0.033085722 -0.012499049 0.77200001 8.4979742e-39
-0.03153332 -0.012466654 0.7700001 9.2369615e-39
-0.030066667 -0.012466654 0.77000004 9.9755733e-39
-0.028599991 -0.012466654 0.77000004 9.3280431e-39
-0.027062867 -0.012434281 0.76800001 8.5908536e-39
-0.025566656 -0.012418076 0.76700002 7.3937692e-39
-0.024042834 -0.012385696 0.76500005 6.2906684e-39
-0.022526652 -0.012353331 0.76300007 6.8438352e-39
-0.021018086 -0.012320943 0.76100004 7.396639e-39
-0.019542878 -0.012304768 0.76000011 6.6594397e-39
-0.01809522 -0.012304761 0.76000005 6.0155235e-39
-0.016559996 -0.012239993 0.75600004 5.8297085e-39
-0.015099957 -0.012223803 0.75500005 5.6446068e-39
-0.013625703 -0.012191415 0.75300002 6.474359e-39
-0.012175207 -0.012175217 0.75200003 7.3934273e-39
-0.010742841 -0.012175217 0.75200003 7.5781688e-39
-0.0092857201 -0.012142852 0.75000006 7.8543942e-39
-0.0078361752 -0.012110464 0.74800003 8.4068421e-39
-0.0064028334 -0.012094274 0.74700004 8.8670958e-39
-0.0049666762 -0.012061894 0.74500006 7.6689295e-39
-0.0035475988 -0.012061879 0.74500006 6.4722221e-39
-0.0021228429 -0.012029514 0.74300009 6.5766356e-39
-0.00070378295 -0.011964746 0.73900002 6.6781569e-39
0.00070383289 -0.011964753 0.73900002 1.1737719e-38
0.0021057397 -0.011932366 0.73700005 1.6803739e-38
0.0035047911 -0.011916168 0.73600006 2.0019418e-38
0.0049067149 -0.011916168 0.73600006 2.3234018e-38
0.0063085994 -0.011916175 0.73600006 2.2681927e-38
0.0076895589 -0.01188381 0.73400003 2.2222392e-38
0.0090876734 -0.011883795 0.73400003 2.1947605e-38
0.010514309 -0.011916168 0.73600006 2.1672813e-38
0.01191623 -0.011916168 0.73600006 2.0014389e-38
0.01333624 -0.01193238 0.73700005 1.8444573e-38
0.014780024 -0.011964753 0.73900002 1.7804949e-38
0.01618764 -0.011964761 0.73900002 1.7164258e-38
0.017619053 -0.011980958 0.74000001 1.7349368e-38
0.019079998 -0.012013331 0.7420001 1.7534476e-38
0.020576183 -0.012061894 0.74500006 1.7719223e-38
0.022054298 -0.012094274 0.74700004 1.7906122e-38
0.023508599 -0.012110472 0.74800003 1.8362789e-38
0.024999989 -0.012142859 0.75000012 1.8912008e-38
0.026428584 -0.012142837 0.75000006 1.8914161e-38
0.027931435 -0.012175232 0.75200009 1.8914879e-38
0.029363802 -0.012175232 0.75200009 1.7349373e-38
0.030919045 -0.012223803 0.75500005 1.5873906e-38
0.032400027 -0.012239985 0.7560001 1.2099683e-38
0.033929568 -0.01227235 0.75800002 8.2346982e-39
0.035466693 -0.012304768 0.76000005 6.5748419e-39
0.036914289 -0.012304761 0.76000011 4.9182157e-39
0.038412359 -0.012320951 0.76100004 4.1774319e-39
0.039966691 -0.012353316 0.76300001 3.4344872e-39
0.041420046 -0.012353331 0.76300001 5.2629351e-39
0.042985767 -0.012385704 0.76500005 7.1003723e-39
0.044617143 -0.012434281 0.76800001 1.2270073e-38
0.046080012 -0.012434267 0.76800001 1.7534117e-38
0.047852378 -0.012515239 0.77300012 1.7069203e-38
0.049452443 -0.012547605 0.77500004 1.669537e-38
0.050928596 -0.012547605 0.77500004 1.0236358e-38
0.052540008 -0.012579985 0.77700001 3.8852415e-39
0.054159086 -0.012612365 0.77900004 5.6274871e-39
0.055714313 -0.01262857 0.78000003 7.4645614e-39
0.057200026 -0.012628578 0.78000003 7.3745251e-39
0.058836203 -0.01266095 0.78200006 7.3755999e-39
0.060480021 -0.012693346 0.7840001 7.283763e-39
-0.040804755 -0.01112856 0.77900004 7.7622042e-39
-0.039219972 -0.011099979 0.77700001 7.8536697e-39
-0.037739985 -0.011099994 0.77700001 6.6562097e-39
-0.036166623 -0.011071414 0.77499998 5.464156e-39
-0.034690443 -0.011071421 0.77500004 6.9364078e-39
-0.033085715 -0.011028565 0.77200001 8.407212e-39
-0.031533331 -0.010999992 0.7700001 9.0514955e-39
-0.030066656 -0.011 0.7700001 9.6042797e-39
-0.028599979 -0.010999992 0.77000004 9.2354817e-39
-0.027133303 -0.010999985 0.77000004 8.7752309e-39
-0.025599988 -0.010971405 0.76800001 8.0376812e-39
-0.02404285 -0.010928549 0.76500005 7.2104527e-39
-0.022585714 -0.010928556 0.76500005 7.3037329e-39
-0.021018099 -0.010871425 0.76100004 7.3959342e-39
-0.019542839 -0.010857135 0.76000005 7.1193599e-39
-0.01809524 -0.010857143 0.76000011 6.7505816e-39
-0.016559992 -0.010799989 0.75600004 6.2888916e-39
-0.015099986 -0.010785699 0.75500005 5.7389576e-39
-0.013625688 -0.010757133 0.75300002 6.9367693e-39
-0.012175224 -0.010742851 0.75200003 8.0391484e-39
-0.010742834 -0.010742858 0.75200009 8.130621e-39
-0.0092856921 -0.010714278 0.75000006 8.1309797e-39
-0.0078361668 -0.010685712 0.74800003 8.3160856e-39
-0.0064114183 -0.010685712 0.74800003 8.4068407e-39
-0.0049799699 -0.010671407 0.74700004 7.6692827e-39
-0.0035475774 -0.010642841 0.74500006 6.8435073e-39
-0.0021228634 -0.010614283 0.74300009 6.8532197e-39
-0.00070474221 -0.010571428 0.74000001 6.7689162e-39
0.00070381613 -0.01055713 0.73900002 1.1734131e-38
0.0021057285 -0.010528564 0.73700011 1.6615405e-38
0.0035095371 -0.010528572 0.73700011 1.9927941e-38
0.0049066739 -0.010514274 0.73600012 2.32333e-38
0.0063085956 -0.010514259 0.73600006 2.2312074e-38
0.0077105192 -0.010514259 0.73600006 2.1395513e-38
0.0091124047 -0.010514274 0.73600006 2.1028531e-38
0.010514326 -0.010514274 0.73600006 2.0661187e-38
0.01191621 -0.010514282 0.73600012 1.9189666e-38
0.013336208 -0.010528572 0.73700005 1.7716709e-38
0.014780031 -0.010557137 0.73900002 1.7805673e-38
0.01620953 -0.010571435 0.74000007 1.7809979e-38
0.017666684 -0.010600008 0.7420001 1.8179477e-38
0.019080032 -0.010599993 0.74200004 1.8452472e-38
0.020576203 -0.010642849 0.74500006 1.7534834e-38
0.022054339 -0.010671407 0.74700004 1.6615045e-38
0.023508608 -0.010685697 0.74800003 1.6796922e-38
0.024999993 -0.010714285 0.75000006 1.6891627e-38
0.026428573 -0.010714278 0.75000012 1.7538423e-38
0.02793142 -0.010742858 0.75200009 1.8175173e-38
0.029402884 -0.010757141 0.75300002 1.5141373e-38
0.030919103 -0.010785706 0.75500005 1.2002462e-38
0.032400046 -0.010799974 0.75600004 7.8612508e-39
0.034019072 -0.010857143 0.76000011 3.629286e-39
0.035513338 -0.010871403 0.76100004 3.1618576e-39
0.036962882 -0.01087141 0.76100004 2.6097642e-39
0.038412381 -0.01087141 0.76100004 1.4126686e-39
0.039966658 -0.010899983 0.76300007 1.1692715e-40
0.04152859 -0.010928564 0.76500005 7.0741834e-39
0.043098137 -0.010957137 0.76700002 1.4104628e-38
0.044617154 -0.010971412 0.76800001 1.8825912e-38
0.046080027 -0.010971405 0.76799995 2.3416254e-38
0.047790483 -0.01102858 0.77200007 2.1305474e-38
0.049452435 -0.011071406 0.77499998 1.9073757e-38
0.050928593 -0.011071414 0.77500004 1.0958829e-38
0.052540023 -0.011099979 0.77699995 2.781775e-39
0.054228555 -0.011142857 0.78000003 4.9850016e-39
0.055857126 -0.011171415 0.78200006 7.0979383e-39
0.057346653 -0.011171423 0.78200006 7.2823295e-39
0.058836181 -0.01117143 0.78200012 7.3752496e-39
0.060480017 -0.011200003 0.7840001 7.2837813e-39
-0.040804762 -0.0096447468 0.77900004 7.9480332e-39
-0.039320927 -0.0096447468 0.77900004 8.132416e-39
-0.037837133 -0.0096447542 0.7790001 7.4863333e-39
-0.036259986 -0.009619996 0.77700001 6.9338882e-39
-0.034690447 -0.0095952302 0.77500004 7.8558333e-39
-0.033085708 -0.0095580816 0.77200001 8.8674615e-39
-0.031615224 -0.0095580891 0.77200001 9.2355238e-39
-0.030066667 -0.0095333382 0.7700001 9.694676e-39
-0.028599991 -0.0095333233 0.77000004 9.142919e-39
-0.027062824 -0.0095085502 0.76800001 8.5940598e-39
-0.025566654 -0.0094961748 0.76700002 7.3029833e-39
-0.024042808 -0.009471409 0.76500005 6.1077051e-39
-0.022585692 -0.0094714165 0.76500005 6.8441995e-39
-0.02107333 -0.0094466731 0.76300007 7.6714547e-39
-0.01956857 -0.0094218999 0.76100004 7.3956077e-39
-0.018119048 -0.0094218999 0.76100004 7.1193725e-39
-0.016559975 -0.0093599856 0.75600004 6.3825249e-39
-0.015119991 -0.0093599856 0.75600004 5.5549335e-39
-0.013625695 -0.0093228593 0.75300002 7.1208032e-39
-0.012191446 -0.0093228519 0.75300008 8.5930354e-39
-0.01074285 -0.009310469 0.75200009 8.3153709e-39
-0.0092857266 -0.0092857108 0.75000012 7.9473115e-39
-0.0078361807 -0.009260945 0.74800003 8.0395057e-39
-0.0064114081 -0.0092609525 0.74800003 8.1313328e-39
-0.0049799709 -0.0092485696 0.7470001 6.9335155e-39
-0.0035476184 -0.0092238039 0.74500006 5.7360976e-39
-0.002128538 -0.009223789 0.74500006 6.7599493e-39
-0.00070475152 -0.0091619045 0.74000001 7.7794668e-39
0.00070382358 -0.009149529 0.73900008 1.2103985e-38
0.0021114151 -0.0091495141 0.73900002 1.6526798e-38
0.0035095408 -0.0091247559 0.73700005 1.9651717e-38
0.0049066907 -0.0091123655 0.73600006 2.2683005e-38
0.0063086143 -0.0091123655 0.73600006 2.2222748e-38
0.0077104988 -0.009112373 0.73600012 2.1671735e-38
0.0091124205 -0.009112373 0.73600006 2.1488064e-38
0.010514321 -0.0091123506 0.73600006 2.1212559e-38
0.011916205 -0.0091123655 0.73600006 1.9926503e-38
0.013336234 -0.0091247633 0.73700005 1.854969e-38
0.014740042 -0.0091247633 0.73700005 1.7995448e-38
0.016209519 -0.0091619045 0.74000001 1.7538782e-38
0.017666657 -0.0091866776 0.7420001 1.6799074e-38
0.019080004 -0.0091866776 0.7420001 1.606152e-38
0.0205762 -0.009223789 0.74500006 1.5693461e-38
0.022054316 -0.0092485622 0.74700004 1.541652e-38
0.023508595 -0.0092609376 0.74800003 1.5694177e-38
0.025000017 -0.0092857033 0.75000006 1.5972197e-38
0.026428575 -0.0092857033 0.75000006 1.4590362e-38
0.027931465 -0.0093104616 0.75200009 1.33e-38
0.029402876 -0.0093228519 0.75300002 9.8848659e-39
0.030919073 -0.0093476176 0.75500005 6.4700851e-39
0.032400027 -0.0093599856 0.75600004 4.263515e-39
0.034019049 -0.0094095245 0.76000011 2.0551611e-39
0.035513327 -0.0094218999 0.76100004 1.682441e-39
0.036962871 -0.0094218925 0.76100004 1.4054911e-39
0.038513355 -0.0094466582 0.76300007 5.357995e-39
0.039966661 -0.0094466582 0.76300001 9.3930283e-39
0.041637171 -0.0094961673 0.76700002 1.4103912e-38
0.043098141 -0.0094961822 0.76700002 1.8825911e-38
0.044617128 -0.0095085651 0.76800001 2.1121803e-38
0.046200026 -0.0095333159 0.77000004 2.341769e-38
0.04779049 -0.0095580965 0.77200007 2.0471421e-38
0.049452431 -0.0095952153 0.77500004 1.7509318e-38
0.050928589 -0.0095952228 0.77500004 1.032027e-38
0.052539997 -0.0096199885 0.77700001 3.0522537e-39
0.0542286 -0.0096571445 0.78000009 5.1683166e-39
0.055857107 -0.0096819028 0.78200006 7.2826854e-39
0.057346672 -0.0096819028 0.78200006 7.2826854e-39
0.058986686 -0.0097066611 0.7840001 7.2830638e-39
0.060634304 -0.0097314268 0.78600001 7.2834407e-39
-0.04085714 -0.0081714243 0.78000009 8.1342111e-39
-0.039320935 -0.0081609562 0.77900004 8.3160828e-39
-0.037837107 -0.0081609339 0.77900004 8.3142849e-39
-0.036353309 -0.0081609488 0.7790001 8.3150038e-39
-0.034779988 -0.0081399903 0.77700001 8.7766938e-39
-0.033128563 -0.0080980882 0.77300012 9.2355154e-39
-0.031615254 -0.0080876127 0.77200001 9.5121009e-39
-0.030144772 -0.0080876052 0.77200001 9.6932425e-39
-0.028600002 -0.0080666617 0.7700001 9.0467885e-39
-0.027133325 -0.0080666617 0.77000004 8.3135423e-39
-0.02556663 -0.0080352202 0.76700002 6.6554825e-39
-0.024105685 -0.0080352202 0.76700002 5.0046071e-39
-0.022585684 -0.0080142766 0.76500005 6.4768548e-39
-0.021073325 -0.0079933256 0.76300007 7.8554774e-39
-0.019619998 -0.0079933256 0.76300007 7.671819e-39
-0.018119061 -0.0079723746 0.76100004 7.4870648e-39
-0.01660379 -0.0079409406 0.75800002 6.4747136e-39
-0.015119988 -0.007919997 0.75600004 5.3726918e-39
-0.013661887 -0.007909514 0.75500005 7.3066224e-39
-0.012191431 -0.0078885704 0.75300008 9.1436883e-39
-0.010742866 -0.0078780949 0.75200009 8.4986846e-39
-0.0093104793 -0.0078780875 0.75200009 7.763286e-39
-0.0078571429 -0.007857129 0.75000006 7.8547655e-39
-0.006411423 -0.0078361928 0.74800003 7.8540369e-39
-0.0049799532 -0.0078257024 0.74700004 6.2892363e-39
-0.0035476193 -0.0078047439 0.74500006 4.639454e-39
-0.0021199912 -0.0077733323 0.74200004 6.670985e-39
-0.00070473476 -0.0077523887 0.74000001 8.6981805e-39
0.00070380868 -0.0077419057 0.73900008 1.2559217e-38
0.002105721 -0.0077209547 0.73700011 1.6432092e-38
0.0035095669 -0.0077209398 0.73700005 1.9285093e-38
0.004906687 -0.0077104643 0.73600006 2.213199e-38
0.0063086087 -0.0077104494 0.73600006 2.2040152e-38
0.0077104932 -0.0077104568 0.73600006 2.1947599e-38
0.0091124168 -0.0077104568 0.73600006 2.1855765e-38
0.010514301 -0.0077104643 0.73600012 2.1763929e-38
0.011916225 -0.0077104643 0.73600006 2.0570068e-38
0.013336199 -0.0077209473 0.73700011 1.9372978e-38
0.014780021 -0.0077419057 0.73900008 1.8270593e-38
0.016187614 -0.0077419057 0.73900002 1.716498e-38
0.017666688 -0.0077733397 0.7420001 1.5416161e-38
0.019105742 -0.0077838004 0.74300003 1.3671286e-38
0.020576222 -0.0078047365 0.74500006 1.3944642e-38
0.021995239 -0.0078047439 0.74500006 1.4129748e-38
0.02350858 -0.0078361779 0.74800003 1.4591078e-38
0.024999985 -0.007857129 0.75000012 1.4953393e-38
0.026499081 -0.0078780875 0.75200009 1.1734126e-38
0.027931446 -0.0078780875 0.75200009 8.4093939e-39
0.029480962 -0.0079095066 0.75500005 4.719115e-39
0.030919082 -0.007909514 0.75500005 9.5277786e-40
0.032400005 -0.007919997 0.75600004 6.6794012e-40
0.034019064 -0.007961899 0.76000005 3.899085e-40
0.035466664 -0.0079619065 0.76000005 2.9088574e-40
0.036962856 -0.0079723746 0.76100004 1.2086059e-40
0.038513359 -0.0079933107 0.76300001 9.4041532e-39
0.039966714 -0.0079933181 0.76300007 1.8612101e-38
0.041528594 -0.0080142617 0.76499999 2.1029963e-38
0.043098141 -0.0080352202 0.76700002 2.3417689e-38
0.04461718 -0.0080457106 0.76800001 2.341769e-38
0.046200011 -0.0080666542 0.77000004 2.341769e-38
0.047852386 -0.0080980882 0.77300012 1.974427e-38
0.049452428 -0.0081190243 0.77500004 1.5940576e-38
0.05106001 -0.0081399903 0.77700001 9.6688025e-39
0.052540008 -0.0081399903 0.77699995 3.3302643e-39
0.054228608 -0.0081714243 0.78000009 5.3530624e-39
0.055857126 -0.0081923679 0.78200006 7.3741636e-39
0.057493348 -0.0082133263 0.78400004 7.2830484e-39
0.058986682 -0.0082133338 0.7840001 7.1912213e-39
0.060634322 -0.0082342774 0.78600001 7.2834253e-39
-0.04085714 -0.0066857263 0.78000009 7.8569053e-39
-0.039320942 -0.0066771358 0.77900004 8.2235256e-39
-0.037837114 -0.0066771358 0.77900004 8.3153569e-39
-0.036353316 -0.0066771507 0.7790001 8.5001055e-39
-0.034779977 -0.006659992 0.77700001 8.7759707e-39
-0.033128548 -0.0066257045 0.77300006 9.1425981e-39
-0.031615224 -0.0066171288 0.77200001 9.2347951e-39
-0.030066652 -0.0065999776 0.77000004 9.4170214e-39
-0.028600013 -0.0065999925 0.7700001 8.9574739e-39
-0.027062843 -0.0065828338 0.76800001 8.5904935e-39
-0.025566628 -0.0065742582 0.76700002 7.5770772e-39
-0.024042841 -0.0065571144 0.76500005 6.5636624e-39
-0.022585701 -0.0065571219 0.76500005 7.3948482e-39
-0.021073321 -0.006539993 0.76300001 8.1316929e-39
-0.019619992 -0.0065399855 0.76300001 7.9480304e-39
-0.018119052 -0.0065228567 0.7610001 7.763279e-39
-0.016603794 -0.0064971223 0.75800002 6.1977665e-39
-0.015119969 -0.006479986 0.75600004 4.6336975e-39
-0.013661875 -0.0064714104 0.755 7.0293167e-39
-0.012191438 -0.0064542964 0.75300008 9.51354e-39
-0.010742823 -0.0064457059 0.75200003 8.4072092e-39
-0.0093104579 -0.0064457059 0.75200003 7.3030365e-39
-0.0078571392 -0.0064285547 0.75000006 7.6707414e-39
-0.0064285593 -0.0064285547 0.75000006 8.1299077e-39
-0.0049799765 -0.0064028502 0.74700004 6.6576587e-39
-0.0035475979 -0.0063857064 0.74500006 5.2790767e-39
-0.002119995 -0.0063599944 0.7420001 7.2212805e-39
-0.00070474407 -0.0063428581 0.74000001 9.1598705e-39
0.00070381426 -0.0063342825 0.73900008 1.2656793e-38
0.0021057266 -0.0063171312 0.73700005 1.6162686e-38
0.0035095352 -0.0063171461 0.73700005 1.8917751e-38
0.0049133422 -0.0063171312 0.73700011 2.1764648e-38
0.0063085901 -0.0063085631 0.73600012 2.1120361e-38
0.0077105137 -0.0063085631 0.73600006 2.0570067e-38
0.0091124363 -0.0063085631 0.73600006 2.0477514e-38
0.010514321 -0.0063085556 0.73600012 2.0478231e-38
0.01193242 -0.0063171238 0.73700005 1.8913439e-38
0.013336227 -0.0063171312 0.73700005 1.743869e-38
0.014780005 -0.006334275 0.73900008 1.6244111e-38
0.016253313 -0.0063600019 0.7420001 1.5045946e-38
0.01766666 -0.0063600019 0.7420001 1.4495652e-38
0.019105723 -0.0063685626 0.74300003 1.4037912e-38
0.02057622 -0.0063856915 0.74500006 1.3945361e-38
0.022083817 -0.0064114332 0.74800003 1.3852808e-38
0.023571432 -0.0064285621 0.75000006 1.2286941e-38
0.024999991 -0.0064285696 0.75000006 1.0812542e-38
0.026499067 -0.0064457133 0.75200009 8.7720639e-39
0.027968571 -0.0064542964 0.75300002 6.8223561e-39
0.029480997 -0.0064714178 0.75500005 8.585886e-39
0.030960003 -0.006479986 0.75600004 1.0321431e-38
0.032400027 -0.006479986 0.75600004 7.3708537e-39
0.034019042 -0.006514281 0.76000005 4.3305686e-39
0.035513345 -0.0065228492 0.7610001 6.8258818e-39
0.036962841 -0.0065228492 0.76100004 9.2193822e-39
0.038513366 -0.0065399855 0.76300001 1.5124873e-38
0.040071461 -0.0065571293 0.76500005 2.0938132e-38
0.041528579 -0.0065571293 0.76500005 2.1488068e-38
0.043098141 -0.0065742731 0.76700002 2.2040158e-38
0.044617191 -0.0065828562 0.76800001 2.2774842e-38
0.046200003 -0.0065999925 0.77000004 2.341769e-38
0.047852401 -0.0066257045 0.77300006 1.7797788e-38
0.049580056 -0.006659992 0.77700001 1.2156662e-38
0.051191468 -0.0066771358 0.77900004 8.1083067e-39
0.052742887 -0.0066857114 0.78000003 4.1549845e-39
0.054367624 -0.0067028552 0.78200012 5.7186079e-39
0.056000009 -0.0067199916 0.78400004 7.2823281e-39
0.057493344 -0.006719999 0.78400004 7.281975e-39
0.058986679 -0.0067199916 0.7840001 7.2823337e-39
0.060634337 -0.0067371204 0.78599995 7.2826925e-39
-0.04085714 -0.0052000061 0.78000009 7.5803254e-39
-0.039320949 -0.0051933303 0.77900004 8.0394973e-39
-0.037837122 -0.0051933229 0.77900004 8.406475e-39
-0.036353286 -0.0051933154 0.77900004 8.6834164e-39
-0.034779962 -0.0051799789 0.77700001 8.8685223e-39
-0.033128574 -0.0051533356 0.77300012 8.9600061e-39
-0.03161522 -0.0051466599 0.77200001 9.0507724e-39
-0.03006666 -0.0051333159 0.77000004 9.0507598e-39
-0.028599983 -0.0051333234 0.77000004 8.9589117e-39
-0.027062833 -0.0051199794 0.76800001 8.7745176e-39
-0.025566665 -0.0051133186 0.76700002 8.4982894e-39
-0.024042819 -0.0050999746 0.76500005 8.1295237e-39
-0.022585681 -0.005099982 0.76500005 8.3153597e-39
-0.021073319 -0.0050866529 0.76300001 8.4072064e-39
-0.019619966 -0.0050866604 0.76300001 8.224983e-39
-0.018119028 -0.0050733164 0.76100004 7.9458808e-39
-0.016603772 -0.005053319 0.75800002 5.9193944e-39
-0.015119988 -0.0050399899 0.75600004 3.9026106e-39
-0.013661881 -0.0050333291 0.75500005 6.8474548e-39
-0.012191423 -0.0050200075 0.75300008 9.7861836e-39
-0.010742838 -0.0050133318 0.75200003 8.3139388e-39
-0.0093104513 -0.0050133392 0.75200009 6.8442136e-39
-0.0078571504 -0.0049999952 0.75000012 7.5788975e-39
-0.0064285928 -0.0049999803 0.75000012 8.3124969e-39
-0.0049866168 -0.0049866587 0.74800003 7.1157572e-39
-0.0035570899 -0.0049799979 0.74700004 5.8351105e-39
-0.0021199838 -0.0049466491 0.74200004 7.6836866e-39
-0.00070476643 -0.0049333498 0.74000007 9.5268537e-39
0.00070383662 -0.0049266666 0.73900002 1.2653924e-38
0.0021057508 -0.0049133226 0.73700005 1.5788887e-38
0.0035095594 -0.0049133301 0.73700005 1.8642244e-38
0.0049133683 -0.0049133226 0.73700005 2.139623e-38
0.0063085845 -0.0049066395 0.73600006 2.0290613e-38
0.0077105081 -0.0049066469 0.73600006 1.9098546e-38
0.0091123916 -0.0049066544 0.73600012 1.909819e-38
0.010528577 -0.0049133301 0.73700005 1.9098548e-38
0.011932384 -0.0049133226 0.73700011 1.7350086e-38
0.01333623 -0.0049133152 0.73700005 1.5510865e-38
0.014839999 -0.004946664 0.7420001 1.4220864e-38
0.016253347 -0.004946664 0.7420001 1.2934091e-38
0.017666694 -0.004946664 0.7420001 1.3666624e-38
0.019105729 -0.0049533173 0.74300009 1.4311625e-38
0.020631446 -0.0049799904 0.7470001 1.394572e-38
0.022083865 -0.0049866587 0.74800003 1.3570125e-38
0.023571435 -0.0049999878 0.75000006 1.0074635e-38
0.025066683 -0.0050133243 0.75200009 6.5683736e-39
0.026534276 -0.0050200075 0.75300008 5.9021977e-39
0.027968587 -0.0050200075 0.75300008 5.1897635e-39
0.029480966 -0.0050333217 0.75500005 1.2481009e-38
0.030960022 -0.0050399825 0.75600004 1.9710527e-38
0.032485776 -0.0050533116 0.75800002 1.3979044e-38
0.034019057 -0.0050666705 0.76000005 8.305332e-39
0.03551333 -0.0050733238 0.7610001 1.3371351e-38
0.037060022 -0.0050866604 0.76300007 1.8343761e-38
0.038513329 -0.0050866604 0.76300007 2.0846296e-38
0.040071446 -0.005099982 0.76500005 2.3231857e-38
0.041637134 -0.0051133186 0.76700002 2.1943639e-38
0.043098141 -0.0051133111 0.76700002 2.0657593e-38
0.044617161 -0.0051199943 0.76800001 2.2040158e-38
0.046320025 -0.005146645 0.77200001 2.3413743e-38
0.047976222 -0.0051666573 0.77500004 1.5963588e-38
0.04958003 -0.0051800013 0.77700001 8.3910453e-39
0.05119146 -0.0051933229 0.77900004 6.6364262e-39
0.052878115 -0.0052133203 0.78200006 4.892897e-39
0.054367643 -0.0052133277 0.78200006 5.9923222e-39
0.056000054 -0.0052266568 0.7840001 7.0965047e-39
0.057493344 -0.0052266642 0.78400004 7.1879857e-39
0.059137169 -0.0052399859 0.78599995 7.2812533e-39
0.060634311 -0.0052399859 0.78600001 7.2816092e-39
-0.042451434 -0.0037238076 0.78200006 7.3005114e-39
-0.040961906 -0.0037238151 0.78200006 7.6710875e-39
-0.03937142 -0.0037142932 0.78000009 8.1316929e-39
-0.037837129 -0.0037095174 0.77900004 8.4068337e-39
-0.036353294 -0.0037095174 0.77900004 8.6830563e-39
-0.034779988 -0.0036999956 0.77700001 8.867802e-39
-0.033128556 -0.0036809519 0.77300006 9.1447547e-39
-0.031615254 -0.0036761835 0.77200007 9.0518542e-39
-0.030066648 -0.0036666617 0.77000004 8.9603634e-39
-0.028599972 -0.0036666617 0.77000004 8.7752421e-39
-0.027062861 -0.0036571398 0.76800001 8.5912011e-39
-0.025566667 -0.003652364 0.76700002 8.3142471e-39
-0.024042835 -0.0036428422 0.76500005 8.130237e-39
-0.022585675 -0.0036428496 0.76500005 8.2220921e-39
-0.021128537 -0.0036428347 0.76500005 8.4057799e-39
-0.019620001 -0.0036333278 0.76300007 8.2235593e-39
-0.018119043 -0.0036237985 0.76100004 8.0395183e-39
-0.016603773 -0.0036095157 0.75800002 6.7509389e-39
-0.015119985 -0.0035999939 0.75600004 5.5567342e-39
-0.013661872 -0.0035952255 0.75500005 7.2133758e-39
-0.012223813 -0.003595233 0.75500005 8.9600299e-39
-0.010757143 -0.0035857186 0.75300002 8.131344e-39
-0.0093104681 -0.0035809502 0.75200009 7.3033868e-39
-0.0078780791 -0.0035809577 0.75200009 7.7625601e-39
-0.0064285649 -0.0035714284 0.75000006 8.2213732e-39
-0.0049866298 -0.0035618991 0.74800003 6.8420401e-39
-0.0035571114 -0.0035571307 0.74700004 5.4656147e-39
-0.0021199912 -0.003533341 0.7420001 7.773011e-39
-0.00070477201 -0.0035238191 0.74000001 1.0078943e-38
0.0007038422 -0.0035190433 0.73900002 1.1461139e-38
0.0021057415 -0.0035095215 0.73700011 1.2849433e-38
0.0035095259 -0.0035095215 0.73700005 1.6802306e-38
0.0049133347 -0.0035095289 0.73700011 2.0754458e-38
0.0063086031 -0.0035047457 0.73600006 2.0109453e-38
0.0077105248 -0.0035047457 0.73600006 1.9465172e-38
0.0091124093 -0.0035047457 0.73600012 1.9374057e-38
0.010528604 -0.0035095215 0.73700005 1.9283298e-38
0.011932411 -0.0035095066 0.73700005 1.7627387e-38
0.013372379 -0.0035190433 0.73900002 1.6064392e-38
0.014840031 -0.0035333261 0.74200004 1.4682556e-38
0.016253317 -0.0035333261 0.7420001 1.3394707e-38
0.017690476 -0.003538087 0.74300003 1.2840824e-38
0.01915716 -0.003547594 0.74500006 1.2382364e-38
0.02063146 -0.0035571158 0.74700004 1.062888e-38
0.022083852 -0.0035618916 0.74800003 8.8761103e-39
0.023571426 -0.0035714209 0.75000012 6.2013973e-39
0.025066664 -0.0035809502 0.75200009 3.5241661e-39
0.026534291 -0.0035857186 0.75300008 6.2741962e-39
0.028042881 -0.003595233 0.75500005 9.0525941e-39
0.029480999 -0.0035952255 0.75500005 1.5324328e-38
0.031041943 -0.0036095157 0.75800002 2.1580951e-38
0.032485772 -0.0036094934 0.75800002 1.815682e-38
0.034019034 -0.003619045 0.76000005 1.4856153e-38
0.035513353 -0.003623791 0.76100004 1.7617704e-38
0.037060026 -0.0036333352 0.76300007 2.0478954e-38
0.038513333 -0.0036333278 0.76300001 1.6054707e-38
0.040071469 -0.0036428273 0.76499999 1.1750258e-38
0.041637179 -0.003652364 0.76700002 1.5128421e-38
0.043098103 -0.003652364 0.76700002 1.8626799e-38
0.044733342 -0.0036666542 0.77000004 2.1026021e-38
0.046319995 -0.0036761761 0.77200001 2.3417689e-38
0.047976218 -0.0036904663 0.77500004 1.383128e-38
0.049580041 -0.0036999881 0.77700001 4.2254432e-39
0.051191453 -0.0037095249 0.7790001 5.164187e-39
0.052742887 -0.0037142858 0.78000003 6.0020976e-39
0.05436762 -0.0037238076 0.78200012 6.6387594e-39
0.05600005 -0.0037333295 0.7840001 7.279817e-39
0.05749334 -0.0037333369 0.78400004 7.2805359e-39
0.058986675 -0.0037333369 0.7840001 7.2805317e-39
0.060634326 -0.0037428364 0.78600001 7.1901255e-39
-0.042342838 -0.0022285655 0.78000009 7.4859732e-39
-0.04085714 -0.002228573 0.78000003 7.8554704e-39
-0.039320908 -0.0022257045 0.77900004 8.2231641e-39
-0.037837137 -0.002225697 0.77900004 8.4064694e-39
-0.036353301 -0.0022257045 0.77900004 8.5908592e-39
-0.034779977 -0.0022199899 0.77700001 8.9589201e-39
-0.033128578 -0.0022085607 0.77300012 9.3269865e-39
-0.031615246 -0.0022057071 0.77200001 9.1436813e-39
-0.03006666 -0.0022 0.7700001 8.8674489e-39
-0.028599983 -0.0021999851 0.77000004 8.6826947e-39
-0.02706283 -0.0021942779 0.76800001 8.4064638e-39
-0.025566641 -0.0021914095 0.76700002 8.2213508e-39
-0.024042828 -0.0021857098 0.76500005 8.0380498e-39
-0.022585692 -0.0021856874 0.76500005 8.2210159e-39
-0.021128554 -0.0021856949 0.76500005 8.3142962e-39
-0.019619998 -0.0021799952 0.76300007 8.2235481e-39
-0.018166669 -0.0021799952 0.76300007 8.1313468e-39
-0.016603777 -0.0021656975 0.75800002 7.6710861e-39
-0.015119967 -0.0021599829 0.75600004 7.1197242e-39
-0.0136619 -0.0021571219 0.75500005 7.6721806e-39
-0.012191438 -0.0021514222 0.75300008 8.1317056e-39
-0.010757127 -0.0021514297 0.75300008 7.9473073e-39
-0.0093104849 -0.0021485761 0.75200009 7.7629174e-39
-0.0078780977 -0.0021485612 0.75200009 7.946587e-39
-0.0064285621 -0.0021428391 0.75000006 8.1291748e-39
-0.0049866447 -0.002137132 0.74800003 6.5647358e-39
-0.0035571347 -0.002134271 0.74700004 5.0060757e-39
-0.0021228355 -0.0021228492 0.74300003 7.7719348e-39
-0.00070475898 -0.002114296 0.74000001 1.0534532e-38
0.00070382544 -0.00211142 0.73900002 1.0170418e-38
0.0021114412 -0.00211142 0.73900002 9.8109684e-39
0.0035095538 -0.0021057129 0.73700005 1.4963085e-38
0.0049133627 -0.0021057129 0.73700005 2.0107665e-38
0.0063171694 -0.002105698 0.73700011 1.9927938e-38
0.0077104801 -0.002102837 0.73600012 1.9741039e-38
0.0091247847 -0.0021057129 0.73700011 1.9557369e-38
0.01052857 -0.0021057129 0.73700011 1.9372621e-38
0.011964768 -0.0021114349 0.73900008 1.7994728e-38
0.013390471 -0.002114296 0.74000001 1.6611816e-38
0.014800011 -0.0021142811 0.74000001 1.523321e-38
0.016275248 -0.0021228492 0.74300003 1.3758461e-38
0.017690478 -0.0021228492 0.74300009 1.2103629e-38
0.019157182 -0.0021285489 0.74500006 1.0442337e-38
0.020659089 -0.002137132 0.74800003 7.311321e-39
0.022142872 -0.0021428466 0.75000006 4.1817367e-39
0.023634283 -0.0021485761 0.75200009 2.3306746e-39
0.025066711 -0.0021485612 0.75200003 4.8355026e-40
0.026534282 -0.0021514297 0.75300008 6.7100574e-39
0.02804289 -0.0021571293 0.755 1.2912556e-38
0.029480971 -0.0021571442 0.75500005 1.8183067e-38
0.031041941 -0.002165705 0.75800002 2.3322605e-38
0.032485735 -0.0021656975 0.75800002 2.2302708e-38
0.034019057 -0.0021714419 0.76000011 2.1296843e-38
0.035513338 -0.0021742657 0.76100004 2.1948322e-38
0.037060034 -0.0021799877 0.76300001 2.2573936e-38
0.038513385 -0.0021799952 0.76300007 1.1326942e-38
0.04007145 -0.0021856949 0.76500005 1.2623737e-40
0.041637182 -0.0021914169 0.76700002 8.3760037e-39
0.04315431 -0.0021942779 0.76800001 1.6599962e-38
0.044733372 -0.0022 0.77000004 2.0019777e-38
0.046320003 -0.0022056922 0.77200001 2.3316881e-38
0.047976211 -0.0022142828 0.77500004 1.1717981e-38
0.049580019 -0.0022199824 0.77700001 1.1293765e-40
0.051191445 -0.002225697 0.7790001 3.609452e-39
0.052742887 -0.002228573 0.78000003 7.100902e-39
0.054367639 -0.0022342801 0.78200006 7.2812519e-39
0.056000046 -0.0022400022 0.7840001 7.3723699e-39
0.057493336 -0.0022400022 0.78400004 7.2812533e-39
0.058986671 -0.0022399947 0.7840001 7.1901283e-39
0.060634308 -0.0022457018 0.78600001 7.1915562e-39
-0.042342834 -0.00074285269 0.78000003 8.1302538e-39
-0.04085714 -0.00074285269 0.78000003 8.2228054e-39
-0.03937142 -0.00074286014 0.78000003 8.3149926e-39
-0.037837144 -0.00074189901 0.77900004 8.4982979e-39
-0.036353312 -0.00074189901 0.77900004 8.5904963e-39
-0.034869481 -0.00074188411 0.77900004 8.8667244e-39
-0.033214238 -0.00073807687 0.77500004 9.1422337e-39
-0.031615239 -0.00073522329 0.77200001 8.9589243e-39
-0.030144753 -0.00073523074 0.77200001 8.8663713e-39
-0.028599994 -0.00073331594 0.77000004 8.590146e-39
-0.027062859 -0.0007314235 0.76800001 8.4057561e-39
-0.025566643 -0.00073045492 0.76700002 8.3135591e-39
-0.024042845 -0.00072855502 0.76500005 8.2217292e-39
-0.02258567 -0.00072854757 0.76500005 8.3139276e-39
-0.021128533 -0.00072855502 0.76500005 8.406126e-39
-0.019619994 -0.00072664768 0.76300001 8.3150122e-39
-0.018166665 -0.00072665513 0.76300001 8.3150108e-39
-0.016647602 -0.000723809 0.76000005 7.94695e-39
-0.015159965 -0.00072188675 0.75800002 7.6710875e-39
-0.013679982 -0.00071999431 0.75600004 7.9473143e-39
-0.012223808 -0.00071904063 0.75500005 8.2231725e-39
-0.010757135 -0.00071714073 0.75300008 8.1306111e-39
-0.0093104402 -0.00071617961 0.75200003 7.9458654e-39
-0.0078780754 -0.00071617961 0.75200003 8.2220907e-39
-0.0064285956 -0.00071427226 0.75000006 8.4979489e-39
-0.0049866335 -0.00071237981 0.74800003 6.7480438e-39
-0.0035570955 -0.00071141124 0.74700004 4.9974633e-39
-0.0021199894 -0.00070666522 0.7420001 7.769781e-39
-0.00070476643 -0.00070476532 0.74000001 1.0535248e-38
0.00070383103 -0.00070381165 0.73900002 9.7094443e-39
0.0021057341 -0.0007019043 0.73700011 8.8825689e-39
0.0035095203 -0.0007019043 0.73700011 1.1462574e-38
0.0049133645 -0.00070189685 0.73700005 1.3948948e-38
0.0063171731 -0.0007019043 0.73700005 1.4868021e-38
0.0077105006 -0.00070094317 0.73600006 1.5880722e-38
0.0091247885 -0.00070189685 0.73700005 1.5694539e-38
0.010528597 -0.0007019043 0.73700005 1.5604135e-38
0.011964753 -0.00070380419 0.73900002 1.3943919e-38
0.013390466 -0.00070477277 0.74000001 1.2378774e-38
0.014839998 -0.00070668012 0.7420001 1.1366434e-38
0.016275251 -0.00070761144 0.74300009 1.0444491e-38
0.017690459 -0.00070761889 0.74300009 9.0622953e-39
0.01915714 -0.00070950389 0.74500006 7.6754344e-39
0.020659076 -0.00071237236 0.74800003 5.9273286e-39
0.022142874 -0.00071427226 0.75000006 4.1781479e-39
0.023634305 -0.00071617216 0.75200003 2.2366853e-39
0.025066696 -0.00071617961 0.75200003 2.9772688e-40
0.026534274 -0.00071714073 0.75300008 6.2698942e-39
0.028042885 -0.00071904063 0.75500005 1.2377327e-38
0.029480981 -0.00071903318 0.75500005 1.7902538e-38
0.031041939 -0.00072188675 0.75800002 2.3417677e-38
0.032485731 -0.00072188675 0.75800002 2.2583253e-38
0.034019075 -0.000723809 0.76000005 2.176428e-38
0.035513327 -0.00072475523 0.76100004 2.1670663e-38
0.037059996 -0.00072667003 0.76300007 2.157234e-38
0.038614322 -0.00072855502 0.76500005 1.0773746e-38
0.040176213 -0.00073044747 0.76700002 9.2502514e-41
0.041691452 -0.00073141605 0.76800001 9.8708431e-39
0.043154284 -0.00073141605 0.76800001 1.9560582e-38
0.044733364 -0.0007333234 0.7700001 2.1121803e-38
0.046320006 -0.00073522329 0.77200001 2.2682998e-38
0.047976207 -0.00073807687 0.77500004 1.1433858e-38
0.04958003 -0.00073999166 0.77700001 9.2492705e-41
0.051191475 -0.00074189901 0.77900004 3.6040822e-39
0.052742887 -0.00074284524 0.78000003 7.0105084e-39
0.05436762 -0.00074475259 0.78200012 7.190494e-39
0.05600005 -0.00074665993 0.7840001 7.2801771e-39
0.057493333 -0.00074665993 0.78400004 7.1890577e-39
0.058986668 -0.00074666739 0.7840001 7.0990074e-39
0.060634322 -0.00074855983 0.78600001 6.9153266e-39
0.062289558 -0.00075045228 0.78800005 6.7312857e-39
-0.04234283 0.00074286014 0.78000003 8.6830633e-39
-0.040857136 0.00074286759 0.78000003 8.590869e-39
-0.03937142 0.00074286014 0.78000003 8.406475e-39
-0.037837114 0.00074192882 0.77900004 8.4979461e-39
-0.03635332 0.00074191391 0.77900004 8.5905005e-39
-0.034869488 0.00074192137 0.77900004 8.7745316e-39
-0.033214245 0.00073811412 0.77500004 8.9585641e-39
-0.031615231 0.00073526055 0.77200001 8.8663727e-39
-0.030144786 0.0007352531 0.77200007 8.7741841e-39
-0.028674299 0.00073524565 0.77200001 8.5897998e-39
-0.027133329 0.0007333383 0.77000004 8.3135717e-39
-0.025599979 0.0007314384 0.76800001 8.405403e-39
-0.024105694 0.00073048472 0.76700002 8.4061232e-39
-0.022585686 0.00072858483 0.76500005 8.4983203e-39
-0.02112855 0.00072859228 0.76500005 8.4983245e-39
-0.019619966 0.00072667003 0.76300001 8.4986888e-39
-0.018119061 0.00072477013 0.76100004 8.4068491e-39
-0.016647624 0.0007238239 0.76000005 8.3146521e-39
-0.015159965 0.00072192401 0.75800002 8.2224579e-39
-0.013679964 0.00072000921 0.75600004 8.3146535e-39
-0.012223798 0.00071906298 0.75500005 8.3146479e-39
-0.010757143 0.00071714818 0.75300002 8.2224494e-39
-0.0093104579 0.00071619451 0.75200003 8.130258e-39
-0.0078780679 0.00071620941 0.75200009 8.4976042e-39
-0.0064285696 0.00071428716 0.75000006 8.7720261e-39
-0.0049866484 0.00071237981 0.74800003 6.8395276e-39
-0.0035571179 0.00071144104 0.74700004 4.9142416e-39
-0.0021199782 0.00070668012 0.74200004 7.7737285e-39
-0.00070474966 0.00070475787 0.74000001 1.0533814e-38
0.00070381426 0.00070381165 0.73900002 9.2491934e-39
0.0021057378 0.0007019192 0.73700005 7.9634965e-39
0.0035095464 0.0007019192 0.73700005 7.8720197e-39
0.0049133552 0.00070191175 0.73700011 7.7852051e-39
0.006317162 0.00070191175 0.73700011 9.8977802e-39
0.0077104969 0.00070097297 0.73600006 1.1919955e-38
0.0091248155 0.0007019192 0.73700005 1.1828119e-38
0.010528601 0.00070191175 0.73700005 1.1733771e-38
0.011964796 0.00070382655 0.73900002 9.9820809e-39
0.013390481 0.00070475042 0.74000001 8.1460899e-39
0.014840008 0.00070666522 0.7420001 7.5925686e-39
0.016275229 0.00070762634 0.74300009 7.0397619e-39
0.0176905 0.00070763379 0.74300003 6.0256254e-39
0.019157162 0.00070954114 0.74500006 4.917857e-39
0.020659085 0.00071238726 0.74800003 4.5436963e-39
0.022142841 0.00071430206 0.75000012 4.0776973e-39
0.023634313 0.00071620196 0.75200009 2.1405381e-39
0.025066677 0.00071619451 0.75200003 1.0795323e-40
0.026534291 0.00071713328 0.75300008 5.8781584e-39
0.028042896 0.00071905553 0.75500005 1.1724076e-38
0.029520022 0.00072002411 0.75600004 1.7632054e-38
0.031041937 0.00072191656 0.75800002 2.3413012e-38
0.032485727 0.00072193146 0.75800002 2.2756161e-38
0.034019049 0.000723809 0.76000011 2.2127316e-38
0.035513315 0.00072477758 0.76100004 2.1305474e-38
0.03706 0.00072667748 0.76300007 2.0449506e-38
0.038614299 0.00072858483 0.76500005 1.0286226e-38
0.040176217 0.00073050708 0.76699996 1.1869699e-40
0.041691426 0.00073144585 0.76800001 1.1362829e-38
0.043154292 0.0007314384 0.76800001 2.2493228e-38
0.044733353 0.0007333383 0.7700001 2.2315664e-38
0.046319973 0.00073523819 0.77200001 2.202041e-38
0.047976241 0.00073812157 0.77499998 1.1057531e-38
0.049580041 0.00074001402 0.77700001 1.1364671e-40
0.051191468 0.00074191391 0.77900004 3.5194157e-39
0.052878074 0.00074476749 0.78200012 6.9172268e-39
0.054367639 0.00074476004 0.78200006 7.0975669e-39
0.056000043 0.00074667484 0.7840001 7.1890535e-39
0.057493333 0.00074666739 0.78400004 7.0957929e-39
0.058986668 0.00074666739 0.7840001 7.0061042e-39
0.060480002 0.00074666739 0.7840001 6.6398342e-39
0.062131479 0.00074858218 0.78600001 6.2721391e-39
-0.042451438 0.002234295 0.78200006 8.7749016e-39
-0.04096191 0.002234295 0.78200006 8.5905145e-39
-0.03937142 0.002228573 0.78000003 8.4057631e-39
-0.037837122 0.0022257268 0.77900004 8.4979531e-39
-0.036353327 0.0022257194 0.77900004 8.5905047e-39
-0.034869496 0.0022257343 0.77900004 8.8663685e-39
-0.033214252 0.0022142977 0.77500004 9.1422365e-39
-0.031615239 0.002205722 0.77200007 9.2337161e-39
-0.030144777 0.0022057295 0.77200001 9.4163221e-39
-0.028600017 0.0022000074 0.7700001 8.6812892e-39
-0.02713334 0.0022000074 0.77000004 7.945522e-39
-0.025600011 0.0021942854 0.76800001 8.1302622e-39
-0.024105694 0.0021914467 0.76700002 8.4068463e-39
-0.022644747 0.0021914542 0.76700002 8.4986818e-39
-0.021128543 0.0021857396 0.76500005 8.5905229e-39
-0.019620001 0.0021800026 0.76300007 8.7741995e-39
-0.018166671 0.0021800101 0.76300007 8.8656721e-39
-0.016647624 0.0021714196 0.76000011 8.6816367e-39
-0.015159969 0.0021657273 0.75800002 8.4976056e-39
-0.013679984 0.0021600127 0.75600004 8.4990377e-39
-0.012223765 0.0021571666 0.75500005 8.5905131e-39
-0.010757128 0.0021514297 0.75300008 8.3142877e-39
-0.0093228389 0.0021514297 0.75300002 8.0380694e-39
-0.0078780847 0.0021485761 0.75200009 8.2221033e-39
-0.0064285668 0.0021428689 0.75000006 8.4054086e-39
-0.0049999859 0.0021428615 0.75000006 6.8416856e-39
-0.00356189 0.0021371394 0.74800003 5.2801515e-39
-0.0021199819 0.0021199882 0.7420001 8.0478e-39
-0.00070475898 0.0021142811 0.74000001 1.0903669e-38
0.00070381985 0.0021114424 0.73900008 9.5247013e-39
0.0021057676 0.0021057278 0.73700005 8.1457326e-39
0.0035095725 0.0021057278 0.73700005 8.0549705e-39
0.0049133589 0.0021057278 0.73700005 7.9627748e-39
0.0063171657 0.0021057203 0.73700005 8.7903691e-39
0.0077209743 0.0021057352 0.73700005 9.5214671e-39
0.0091247829 0.0021057352 0.73700005 9.340666e-39
0.010528591 0.0021057203 0.73700005 9.1537678e-39
0.011964779 0.0021114349 0.73900002 8.14322e-39
0.013390471 0.002114296 0.74000001 7.1308786e-39
0.014840004 0.0021200031 0.7420001 6.7610269e-39
0.016275249 0.0021228641 0.74300003 6.3918912e-39
0.017690482 0.0021228641 0.74300003 5.4688727e-39
0.019157158 0.0021285936 0.74500006 4.6401967e-39
0.02065907 0.0021371469 0.74800003 3.3437336e-39
0.022142868 0.002142854 0.75000006 2.141973e-39
0.023634294 0.002148591 0.75200009 4.8894961e-39
0.025066685 0.0021485835 0.75200009 7.7270666e-39
0.026534282 0.0021514297 0.75300008 1.2534078e-38
0.028042866 0.0021571591 0.75500005 1.7436889e-38
0.029520025 0.0021600202 0.75600004 2.0384249e-38
0.031041935 0.0021657348 0.75800002 2.3417676e-38
0.032485772 0.0021657199 0.75800002 2.2950232e-38
0.034019068 0.0021714345 0.76000005 2.2499321e-38
0.035606697 0.0021800026 0.76300007 2.1301169e-38
0.037157211 0.0021857247 0.76500005 2.0185477e-38
0.038715255 0.0021914467 0.76700002 1.0130532e-38
0.040228564 0.0021943003 0.76800001 1.3125963e-40
0.041800026 0.0022 0.77000004 1.1551898e-38
0.043266702 0.0022000223 0.77000004 2.2958513e-38
0.044733342 0.0022000074 0.7700001 2.0840198e-38
0.046319984 0.002205722 0.77200001 1.8801496e-38
0.047976237 0.0022143051 0.77499998 9.6778296e-39
0.049580019 0.0022200048 0.77700001 6.6213735e-40
0.05119146 0.0022257194 0.77900004 3.8856759e-39
0.052878093 0.002234295 0.78200006 7.1945157e-39
0.05436762 0.0022342876 0.78200006 7.1911793e-39
0.055857148 0.0022342801 0.78200012 7.0982886e-39
0.057493333 0.0022400096 0.78400004 7.0975907e-39
0.058986668 0.0022400096 0.7840001 7.0979495e-39
0.060480002 0.0022400022 0.7840001 6.9153547e-39
0.062289547 0.0022514462 0.78800005 6.7313488e-39
-0.042451456 0.0037238002 0.78200006 8.8667399e-39
-0.040961932 0.0037238151 0.78200012 8.5901572e-39
-0.03937142 0.0037142932 0.78000003 8.3139276e-39
-0.037837107 0.0037095398 0.77900004 8.4979531e-39
-0.036353335 0.0037095398 0.77900004 8.5905005e-39
-0.034869503 0.0037095323 0.77900004 8.958197e-39
-0.033214256 0.0036904961 0.77500004 9.2337077e-39
-0.031615231 0.0036762059 0.77200001 9.6017713e-39
-0.030144749 0.0036762059 0.77200001 9.9676854e-39
-0.028674264 0.0036762059 0.77200001 8.7734722e-39
-0.027133349 0.0036666691 0.77000004 7.4870536e-39
-0.025599999 0.0036571547 0.76800001 7.9462283e-39
-0.024105692 0.0036524162 0.76699996 8.3146479e-39
-0.022644749 0.0036524087 0.76700002 8.4990391e-39
-0.02112852 0.0036428794 0.76500005 8.6823542e-39
-0.019619998 0.0036333352 0.76300007 9.0493403e-39
-0.018166667 0.0036333501 0.76300007 9.3244838e-39
-0.016647609 0.0036190599 0.76000005 9.0486158e-39
-0.015159947 0.0036095381 0.75800002 8.6823486e-39
-0.01367998 0.0036000162 0.75600004 8.7763351e-39
-0.012239999 0.0036000237 0.75600004 8.7745414e-39
-0.010785697 0.0035952479 0.75500005 8.4057659e-39
-0.009322824 0.0035857186 0.75300002 7.9465898e-39
-0.0078781005 0.0035809651 0.75200009 8.0384267e-39
-0.0064285761 0.0035714358 0.75000012 8.0377009e-39
