# .PCD v0.7 - Point Cloud Data file format
VERSION 0.7
FIELDS x y z rgb
SIZE 4 4 4 4
TYPE F F F F
COUNT 1 1 1 1
WIDTH 951
HEIGHT 1
VIEWPOINT 0 0 0 1 0 0 0
POINTS 951
DATA ascii
0.028582878 -0.043920033 0.73200011 1.6887315e-38
0.029936209 -0.043860041 0.73100007 1.6704719e-38
0.031328585 -0.043860026 0.73100007 1.6151913e-38
0.032720968 -0.043860041 0.73100007 1.5512657e-38
0.03411334 -0.043860026 0.73100007 1.8272391e-38
0.035408594 -0.043740012 0.72900009 2.09284e-38
0.036797166 -0.043740027 0.72900015 1.8248264e-38
0.038185753 -0.043740042 0.72900015 1.5584325e-38
0.039574306 -0.043740027 0.72900009 1.6137139e-38
0.040962894 -0.043740027 0.72900009 1.6595956e-38
0.042351469 -0.043740027 0.72900015 1.6594878e-38
0.043740019 -0.043740012 0.72900009 1.6506637e-38
0.045128606 -0.043740027 0.72900009 1.651382e-38
0.046517178 -0.043740042 0.72900015 1.6501174e-38
-0.030509524 -0.043280967 0.74500012 1.2800291e-38
-0.029207606 -0.04345528 0.74800009 1.2708503e-38
-0.027782826 -0.043455265 0.74800014 1.4911168e-38
-0.026358094 -0.04345528 0.74800014 1.719881e-38
-0.024933334 -0.043455265 0.74800009 1.8117888e-38
-0.023477132 -0.043397151 0.7470001 1.903515e-38
-0.022054275 -0.043397151 0.74700004 1.8846799e-38
-0.020631425 -0.043397151 0.7470001 1.8756736e-38
-0.01915713 -0.043280981 0.74500012 1.8942537e-38
-0.017738085 -0.043280981 0.74500012 1.9127304e-38
-0.016319018 -0.043280981 0.74500012 1.903477e-38
-0.0149 -0.043280967 0.74500012 1.9029385e-38
-0.013444749 -0.043164797 0.74300015 1.8940055e-38
-0.012029511 -0.043164797 0.74300009 1.8756035e-38
-0.010614281 -0.043164782 0.74300009 1.8667079e-38
-0.0091990223 -0.043164797 0.74300009 1.85731e-38
-0.007783812 -0.043164797 0.74300009 1.866853e-38
-0.0063428655 -0.042990483 0.74000007 1.8857185e-38
-0.0049333493 -0.042990498 0.74000007 1.895221e-38
-0.0035238033 -0.042990483 0.74000007 1.904448e-38
-0.0021056789 -0.042816229 0.73700011 1.9428758e-38
-0.00070187508 -0.042816229 0.73700011 1.9815889e-38
0.00070192793 -0.042816214 0.73700011 1.9074805e-38
0.0021057311 -0.042816214 0.73700011 1.8339037e-38
0.003509548 -0.042816199 0.73700011 1.7785862e-38
0.004913352 -0.042816214 0.73700011 1.7150568e-38
0.006317154 -0.042816199 0.73700011 1.8257635e-38
0.007720971 -0.042816199 0.73700011 1.9364333e-38
0.0091247745 -0.042816214 0.73700011 1.908453e-38
0.010528577 -0.042816199 0.73700011 1.8904022e-38
0.011932414 -0.042816214 0.73700017 1.7414141e-38
0.013336217 -0.042816229 0.73700011 1.6023004e-38
0.014720023 -0.042758115 0.73600012 1.6679871e-38
0.016121922 -0.04275813 0.73600012 1.7425729e-38
0.017523842 -0.042758144 0.73600018 1.7617346e-38
0.018874284 -0.04264193 0.73400009 1.7812496e-38
0.020217158 -0.042525746 0.73200011 1.7809268e-38
0.021611435 -0.042525716 0.73200011 1.771671e-38
0.023005739 -0.042525731 0.73200011 1.7164617e-38
0.024400005 -0.042525731 0.73200011 1.670544e-38
0.025794305 -0.042525731 0.73200011 1.6704005e-38
0.027188586 -0.042525731 0.73200011 1.6703646e-38
0.028582871 -0.042525731 0.73200011 1.679584e-38
0.029977152 -0.042525731 0.73200011 1.697951e-38
0.031371452 -0.042525746 0.73200011 1.7531239e-38
0.032720964 -0.042467631 0.73100007 1.8172658e-38
0.034113344 -0.042467646 0.73100007 1.9647771e-38
0.035505719 -0.042467646 0.73100007 2.1118169e-38
0.036898114 -0.042467646 0.73100007 1.8437315e-38
0.038290478 -0.042467631 0.73100007 1.5764766e-38
0.039682873 -0.042467646 0.73100007 1.613642e-38
0.041075256 -0.042467646 0.73100013 1.6596311e-38
0.042351454 -0.042351447 0.72900015 1.6503752e-38
0.043860029 -0.042467661 0.73100007 1.6412645e-38
0.045128595 -0.042351462 0.72900009 1.6415168e-38
0.046517167 -0.042351462 0.72900015 1.6501539e-38
-0.029207624 -0.042030506 0.74800009 1.189598e-38
-0.027782865 -0.042030506 0.74800009 1.3913186e-38
-0.026358083 -0.042030521 0.74800014 1.5922447e-38
-0.024933323 -0.042030506 0.74800009 1.7755212e-38
-0.023508562 -0.042030491 0.74800009 1.949972e-38
-0.022054281 -0.041974284 0.7470001 1.9313529e-38
-0.020631425 -0.041974299 0.74700004 1.903477e-38
-0.019157138 -0.041861929 0.74500012 1.9125866e-38
-0.01773807 -0.041861929 0.74500012 1.9220231e-38
-0.016275201 -0.041749559 0.74300009 1.9314237e-38
-0.014899984 -0.041861944 0.74500012 1.9403546e-38
-0.013444735 -0.041749544 0.74300009 1.9212326e-38
-0.012029504 -0.041749559 0.74300015 1.903801e-38
-0.010614266 -0.041749559 0.74300009 1.8949431e-38
-0.0091866385 -0.041693352 0.7420001 1.8856166e-38
-0.0077523938 -0.041580968 0.74000007 1.894155e-38
-0.0063428488 -0.041580968 0.74000007 1.9048462e-38
-0.0049266755 -0.041524775 0.73900008 1.923537e-38
-0.0035190354 -0.04152479 0.73900008 1.9342675e-38
-0.0021057087 -0.041412406 0.73700011 2.0003503e-38
-0.00070187787 -0.041412406 0.73700011 2.0546976e-38
0.00070192514 -0.041412391 0.73700011 1.9347726e-38
0.0021057283 -0.041412391 0.73700011 1.8059853e-38
0.0035095313 -0.041412406 0.73700011 1.7045694e-38
0.0049133492 -0.041412406 0.73700011 1.6043448e-38
0.0063171717 -0.041412406 0.73700017 1.6323671e-38
0.0077209757 -0.041412406 0.73700017 1.6600983e-38
0.0091247922 -0.041412406 0.73700011 1.6221814e-38
0.010528594 -0.041412406 0.73700011 1.5769439e-38
0.011932398 -0.041412406 0.73700011 1.6034889e-38
0.013336201 -0.041412406 0.73700011 1.6319022e-38
0.014720017 -0.041356213 0.73600012 1.7155604e-38
0.016121939 -0.041356213 0.73600018 1.7894978e-38
0.017523836 -0.041356228 0.73600018 1.7624162e-38
0.018874286 -0.041243829 0.73400009 1.7348654e-38
0.020272374 -0.041243829 0.73400009 1.6795487e-38
0.021611441 -0.041131459 0.73200011 1.6244471e-38
0.023005724 -0.041131444 0.73200011 1.5691302e-38
0.024400011 -0.041131459 0.73200011 1.5049889e-38
0.02579429 -0.041131459 0.73200011 1.5783857e-38
0.027188592 -0.041131444 0.73200011 1.6428141e-38
0.028582871 -0.041131444 0.73200011 1.67962e-38
0.029977158 -0.041131444 0.73200011 1.7166052e-38
0.031371437 -0.041131444 0.73200011 1.9004913e-38
0.032720968 -0.041075267 0.73100007 2.0840551e-38
0.03411334 -0.041075267 0.73100007 2.1027456e-38
0.035505723 -0.041075267 0.73100007 2.1204982e-38
0.036898099 -0.041075267 0.73100007 1.8526283e-38
0.038290497 -0.041075252 0.73100007 1.5861266e-38
0.039682876 -0.041075282 0.73100013 1.6230409e-38
0.041075252 -0.041075252 0.73100007 1.6596315e-38
0.042351458 -0.040962882 0.72900009 1.6411207e-38
0.043860011 -0.041075267 0.73100007 1.6229701e-38
0.045128584 -0.040962882 0.72900009 1.6324061e-38
0.046517171 -0.040962882 0.72900009 1.6407899e-38
-0.029207613 -0.040605746 0.74800014 1.2829049e-38
-0.027857125 -0.040714316 0.75000012 1.2718977e-38
-0.026428554 -0.040714316 0.75000012 1.2527052e-38
-0.024999965 -0.040714316 0.75000012 1.5651248e-38
-0.023508577 -0.040605746 0.74800009 1.8863697e-38
-0.022083815 -0.040605731 0.74800009 1.895625e-38
-0.020631433 -0.040551446 0.7470001 1.9126983e-38
-0.019208554 -0.040551446 0.7470001 1.9034765e-38
-0.017785698 -0.040551431 0.7470001 1.9037651e-38
-0.016319036 -0.040442906 0.74500012 1.9321424e-38
-0.014899991 -0.040442877 0.74500012 1.9690535e-38
-0.013444749 -0.040334322 0.74300009 1.9411057e-38
-0.01202949 -0.040334307 0.74300009 1.9141695e-38
-0.01061428 -0.040334307 0.74300009 1.923501e-38
-0.0091866413 -0.040280022 0.7420001 1.9328285e-38
-0.007752378 -0.040171452 0.74000007 1.961097e-38
-0.0063428609 -0.040171452 0.74000007 1.9894068e-38
-0.0049333163 -0.040171437 0.74000007 1.9439251e-38
-0.0035190377 -0.040117167 0.73900008 1.9086987e-38
-0.0021057096 -0.040008597 0.73700011 1.8341192e-38
-0.00070190767 -0.040008597 0.73700011 1.7694326e-38
0.0007019093 -0.040008582 0.73700011 1.6679758e-38
0.0021057469 -0.040008597 0.73700017 1.5761725e-38
0.0035095508 -0.040008597 0.73700011 1.5394347e-38
0.0049133538 -0.040008597 0.73700011 1.5031394e-38
0.0063171699 -0.040008582 0.73700011 1.6511608e-38
0.0077209738 -0.040008597 0.73700011 1.8075336e-38
0.0091247754 -0.040008597 0.73700011 1.7245602e-38
0.010528592 -0.040008597 0.73700011 1.6508089e-38
0.011932396 -0.040008597 0.73700011 1.6511358e-38
0.0133362 -0.040008597 0.73700011 1.6613247e-38
0.014720032 -0.039954327 0.73600018 1.6704013e-38
0.016121931 -0.039954327 0.73600018 1.6894141e-38
0.017523844 -0.039954312 0.73600012 1.6612895e-38
0.018874284 -0.039845727 0.73400009 1.6427069e-38
0.020272374 -0.039845727 0.73400009 1.6243036e-38
0.021670485 -0.039845727 0.73400009 1.6059362e-38
0.023068571 -0.039845742 0.73400009 1.5874612e-38
0.024466664 -0.039845742 0.73400009 1.5691662e-38
0.025864754 -0.039845742 0.73400003 1.7439768e-38
0.027188575 -0.039737172 0.73200011 1.9184283e-38
0.028582878 -0.039737172 0.73200011 1.9095675e-38
0.029977145 -0.039737172 0.73200011 1.9005632e-38
0.031371444 -0.039737172 0.73200011 1.964525e-38
0.032720961 -0.039682887 0.73100007 2.0289898e-38
0.034113344 -0.039682873 0.73100007 2.065832e-38
0.035505719 -0.039682873 0.73100007 2.1025976e-38
0.036898114 -0.039682887 0.73100007 1.8254363e-38
0.038290478 -0.039682887 0.73100007 1.5494285e-38
0.039682873 -0.039682902 0.73100007 1.6046381e-38
0.041075271 -0.039682887 0.73100007 1.6596679e-38
0.042467631 -0.039682887 0.73100007 1.6504486e-38
0.043860029 -0.039682887 0.73100007 1.6505577e-38
0.045128606 -0.039574318 0.72900015 1.6415549e-38
0.046517156 -0.039574318 0.72900009 1.6321793e-38
-0.029207598 -0.039180987 0.74800014 1.374386e-38
-0.027857134 -0.039285742 0.75000012 1.1422818e-38
-0.026428543 -0.039285742 0.75000012 9.1341623e-39
-0.024999972 -0.039285742 0.75000012 1.3642411e-38
-0.023508566 -0.039180987 0.74800009 1.8146665e-38
-0.022083804 -0.039181001 0.74800009 1.8704864e-38
-0.02063141 -0.039128579 0.7470001 1.9145334e-38
-0.019208554 -0.039128579 0.74700004 1.8940803e-38
-0.017738082 -0.039023839 0.74500012 1.8774387e-38
-0.016319044 -0.039023839 0.74500012 1.9426238e-38
-0.014859973 -0.038919084 0.74300015 1.9975797e-38
-0.013444735 -0.038919054 0.74300009 1.9599108e-38
-0.012029504 -0.038919084 0.74300009 1.9238614e-38
-0.010614245 -0.038919084 0.74300015 1.9520252e-38
-0.0091866469 -0.038866676 0.7420001 1.9804733e-38
-0.0077523617 -0.038761906 0.74000007 2.0280421e-38
-0.0063428646 -0.038761906 0.74000001 2.0730292e-38
-0.0049333479 -0.038761906 0.74000007 1.9723352e-38
-0.0035238033 -0.038761921 0.74000007 1.8704184e-38
-0.0021114196 -0.038709529 0.73900008 1.6763074e-38
-0.00070380757 -0.038709559 0.73900008 1.4749839e-38
0.00070380548 -0.038709544 0.73900008 1.4099071e-38
0.0021057301 -0.038604788 0.73700011 1.3374758e-38
0.003509549 -0.038604788 0.73700011 1.3646286e-38
0.004913352 -0.038604803 0.73700011 1.3938029e-38
0.006317155 -0.038604788 0.73700011 1.6800092e-38
0.0077209719 -0.038604774 0.73700011 1.955337e-38
0.0091247736 -0.038604788 0.73700011 1.8361309e-38
0.010528577 -0.038604774 0.73700011 1.7162804e-38
0.011932415 -0.038604788 0.73700017 1.7073142e-38
0.013336218 -0.038604788 0.73700011 1.6888037e-38
0.01474002 -0.038604774 0.73700011 1.6335951e-38
0.016143825 -0.038604774 0.73700011 1.5785655e-38
0.017547641 -0.038604788 0.73700011 1.5690234e-38
0.018925736 -0.038552411 0.73600012 1.5507276e-38
0.020272374 -0.038447641 0.73400009 1.5690586e-38
0.021670464 -0.038447641 0.73400003 1.5875691e-38
0.023068573 -0.038447641 0.73400009 1.6148328e-38
0.024466664 -0.038447641 0.73400009 1.6338818e-38
0.02586475 -0.038447641 0.73400003 1.9098908e-38
0.027262863 -0.038447656 0.73400009 2.185325e-38
0.028660953 -0.038447641 0.73400009 2.139586e-38
0.03005904 -0.038447641 0.73400009 2.0835876e-38
0.03137143 -0.038342871 0.73200011 2.0279838e-38
0.032765731 -0.038342871 0.73200011 1.9641661e-38
0.034160011 -0.038342886 0.73200011 2.0289182e-38
0.035505734 -0.038290508 0.73100007 2.0834769e-38
0.036898099 -0.038290493 0.73100007 1.7971322e-38
0.038290497 -0.038290508 0.73100007 1.5125869e-38
0.039682854 -0.038290508 0.73100007 1.5863437e-38
0.041075252 -0.038290508 0.73100007 1.6505205e-38
0.042467646 -0.038290508 0.73100007 1.6687796e-38
0.043860011 -0.038290508 0.73100007 1.6781793e-38
0.045252405 -0.038290508 0.73100007 1.6509884e-38
0.04664477 -0.038290508 0.73100007 1.6225649e-38
-0.027857143 -0.037857182 0.75000012 1.1340968e-38
-0.02642855 -0.037857182 0.75000012 8.7711279e-39
-0.024933316 -0.037756227 0.74800014 1.3464184e-38
-0.023508552 -0.037756227 0.74800014 1.8161808e-38
-0.022083793 -0.037756212 0.74800009 1.8895078e-38
-0.020631418 -0.037705712 0.7470001 1.9624298e-38
-0.01920856 -0.037705727 0.7470001 1.9061723e-38
-0.017738068 -0.037604801 0.74500012 1.8519733e-38
-0.01631905 -0.037604801 0.74500012 1.9073669e-38
-0.014859987 -0.037503846 0.74300015 1.971758e-38
-0.01344475 -0.037503831 0.74300009 1.8050176e-38
-0.012029519 -0.037503831 0.74300009 1.6397515e-38
-0.010599976 -0.037453346 0.7420001 1.6677704e-38
-0.0091866506 -0.037453361 0.7420001 1.6967213e-38
-0.007773296 -0.037453346 0.74200016 1.7603975e-38
-0.0063428488 -0.037352391 0.74000007 1.8247168e-38
-0.0049333321 -0.037352391 0.74000007 1.8613777e-38
-0.0035238154 -0.037352391 0.74000007 1.9059653e-38
-0.0021114214 -0.03730192 0.73900008 1.8520449e-38
-0.0007038085 -0.037301935 0.73900008 1.7973399e-38
0.00070476194 -0.037352405 0.74000007 1.760966e-38
0.0021114429 -0.03730192 0.73900008 1.7246953e-38
0.0035190559 -0.037301935 0.73900008 1.6971058e-38
0.0049333195 -0.037352391 0.74000007 1.6702473e-38
0.0063342932 -0.03730192 0.73900008 1.790182e-38
0.0077419193 -0.037301935 0.73900008 1.9099269e-38
0.0091495253 -0.03730192 0.73900002 1.7809985e-38
0.010557137 -0.03730192 0.73900008 1.6524647e-38
0.011964764 -0.037301905 0.73900008 1.6429224e-38
0.013336216 -0.03720098 0.73700011 1.6427428e-38
0.014740017 -0.037200965 0.73700011 1.5876053e-38
0.016143821 -0.037200965 0.73700011 1.5324324e-38
0.017547626 -0.03720098 0.73700011 1.5875337e-38
0.01892573 -0.037150495 0.73600012 1.6516389e-38
0.02032765 -0.03715051 0.73600018 1.7805669e-38
0.021729548 -0.03715051 0.73600018 1.9093521e-38
0.023068573 -0.037049539 0.73400009 1.9095316e-38
0.024466664 -0.037049554 0.73400009 1.9191461e-38
0.025864752 -0.037049554 0.73400009 1.9646695e-38
0.027262863 -0.037049554 0.73400009 2.0111602e-38
0.028660953 -0.037049539 0.73400009 2.0099753e-38
0.029977158 -0.036948584 0.73200011 2.0090063e-38
0.031371437 -0.036948584 0.73200011 2.0096156e-38
0.032765739 -0.036948599 0.73200011 2.0186928e-38
0.034160018 -0.036948599 0.73200011 2.0563249e-38
0.035554301 -0.036948599 0.73200011 2.0837995e-38
0.036898114 -0.036898129 0.73100007 1.7975624e-38
0.038290478 -0.036898129 0.73100007 1.5031527e-38
0.039682873 -0.036898114 0.73100007 1.5770175e-38
0.041075256 -0.036898144 0.73100013 1.641409e-38
0.042467631 -0.036898129 0.73100007 1.6689226e-38
0.043860026 -0.036898129 0.73100007 1.7056933e-38
0.045252386 -0.036898114 0.73100007 1.6599913e-38
0.046644785 -0.036898129 0.73100007 1.6138474e-38
-0.027857132 -0.036428608 0.75000012 1.1332114e-38
-0.02642856 -0.036428593 0.75000012 8.3170343e-39
-0.024999991 -0.036428578 0.75000012 1.3189762e-38
-0.023508541 -0.036331467 0.74800014 1.8069969e-38
-0.02208381 -0.036331452 0.74800014 1.9088782e-38
-0.020659048 -0.036331467 0.74800009 1.9995597e-38
-0.019208565 -0.03628289 0.7470001 1.9070725e-38
-0.017785709 -0.03628286 0.7470001 1.8156013e-38
-0.016319036 -0.036185719 0.74500012 1.8815062e-38
-0.014899991 -0.036185719 0.74500012 1.9440627e-38
-0.013444764 -0.036088593 0.74300009 1.6486403e-38
-0.012029505 -0.036088593 0.74300009 1.3460181e-38
-0.010614275 -0.036088608 0.74300009 1.373358e-38
-0.0091866544 -0.03604003 0.7420001 1.4016635e-38
-0.0077733002 -0.03604003 0.74200016 1.4829181e-38
-0.0063599944 -0.036040016 0.7420001 1.5676879e-38
-0.0049333153 -0.035942875 0.74000007 1.7516831e-38
-0.0035333149 -0.036040016 0.7420001 1.9358193e-38
-0.0021142825 -0.03594289 0.74000007 2.0285146e-38
-0.00070475845 -0.03594286 0.74000001 2.1204227e-38
0.00070475822 -0.03594286 0.74000001 2.1119575e-38
0.002114275 -0.03594286 0.74000007 2.1023419e-38
0.0035190466 -0.035894297 0.73900008 2.0288362e-38
0.0049333363 -0.035942875 0.74000007 1.9462253e-38
0.0063342857 -0.035894297 0.73900008 1.9005639e-38
0.0077419109 -0.035894312 0.73900008 1.8544666e-38
0.0091495225 -0.035894312 0.73900008 1.716247e-38
0.01055715 -0.035894312 0.73900008 1.5785655e-38
0.011964761 -0.035894327 0.73900008 1.5875698e-38
0.013336199 -0.035797156 0.73700011 1.5967172e-38
0.014740015 -0.035797156 0.73700011 1.5415798e-38
0.016143821 -0.035797171 0.73700011 1.4865144e-38
0.017547645 -0.035797171 0.73700017 1.6154069e-38
0.018925745 -0.035748594 0.73600018 1.7439766e-38
0.020327643 -0.035748594 0.73600018 1.983036e-38
0.021729555 -0.035748608 0.73600012 2.2220596e-38
0.023068573 -0.035651453 0.73400009 2.213199e-38
0.024466662 -0.035651438 0.73400009 2.2032613e-38
0.025864754 -0.035651453 0.73400009 2.0184056e-38
0.027262863 -0.035651468 0.73400009 1.8349499e-38
0.028660951 -0.035651438 0.73400009 1.8801503e-38
0.030059041 -0.035651438 0.73400009 1.9270365e-38
0.031457134 -0.035651438 0.73400003 2.0011506e-38
0.032765724 -0.035554312 0.73200011 2.0747275e-38
0.034160025 -0.035554312 0.73200011 2.0846293e-38
0.035554294 -0.035554297 0.73200011 2.0833694e-38
0.036948569 -0.035554297 0.73200011 1.7877696e-38
0.038342874 -0.035554297 0.73200011 1.4941126e-38
0.039682887 -0.035505749 0.73100007 1.5679053e-38
0.041131455 -0.035554327 0.73200011 1.6321894e-38
0.042525716 -0.035554297 0.73200011 1.6781065e-38
0.043920022 -0.035554312 0.73200011 1.7242759e-38
0.045252405 -0.035505749 0.73100007 1.6602429e-38
0.046644781 -0.035505749 0.73100007 1.5949424e-38
-0.027931409 -0.035093345 0.75200009 1.4390423e-38
-0.026499029 -0.035093345 0.75200009 1.2189612e-38
-0.024999971 -0.035000019 0.75000012 1.5407096e-38
-0.023508558 -0.034906693 0.74800014 1.8625286e-38
-0.022142857 -0.035000034 0.75000012 1.8991194e-38
-0.020659037 -0.034906708 0.74800009 1.9352042e-38
-0.019208565 -0.034860007 0.74700004 1.787618e-38
-0.017785689 -0.034860007 0.7470001 1.6401489e-38
-0.016319042 -0.034766696 0.74500012 1.6960453e-38
-0.014899976 -0.034766696 0.74500012 1.7508484e-38
-0.013444729 -0.03467337 0.74300015 1.6403475e-38
-0.01202952 -0.03467337 0.74300009 1.5395867e-38
-0.010614261 -0.03467337 0.74300009 1.6688809e-38
-0.0091866311 -0.034626685 0.7420001 1.788305e-38
-0.0077733044 -0.034626685 0.74200016 1.8621342e-38
-0.006359979 -0.034626685 0.74200016 1.9276789e-38
-0.0049333479 -0.034533344 0.74000001 2.0287378e-38
-0.0035238313 -0.034533344 0.74000001 2.1397303e-38
-0.0021142871 -0.034533344 0.74000007 2.1670304e-38
-0.00070477056 -0.034533344 0.74000007 2.1948322e-38
0.00070476008 -0.034533359 0.74000007 2.1396592e-38
0.0021142908 -0.034533344 0.74000007 2.0938132e-38
0.0035238075 -0.034533359 0.74000007 2.001547e-38
0.0049333381 -0.034533359 0.74000007 1.9188592e-38
0.0063342978 -0.034486689 0.73900008 1.8544307e-38
0.0077419099 -0.034486689 0.73900008 1.7901099e-38
0.0091495356 -0.034486689 0.73900008 1.6519976e-38
0.010557161 -0.034486689 0.73900008 1.5232846e-38
0.011964773 -0.034486704 0.73900008 1.5507636e-38
0.013336218 -0.034393363 0.73700011 1.5781706e-38
0.014740021 -0.034393348 0.73700011 1.5873898e-38
0.01614384 -0.034393363 0.73700011 1.5964656e-38
0.017547643 -0.034393363 0.73700011 1.7715627e-38
0.018925738 -0.034346692 0.73600018 1.9462301e-38
0.020327639 -0.034346707 0.73600012 2.1118933e-38
0.021729551 -0.034346707 0.73600012 2.2866677e-38
0.023131449 -0.034346692 0.73600012 2.2772689e-38
0.024466664 -0.034253336 0.73400009 2.2765854e-38
0.025864754 -0.034253351 0.73400009 2.083083e-38
0.02726284 -0.034253351 0.73400003 1.8891894e-38
0.028660953 -0.034253351 0.73400009 1.8809755e-38
0.030059043 -0.034253351 0.73400009 1.8820522e-38
0.03145713 -0.034253351 0.73400009 1.918715e-38
0.032765731 -0.034160025 0.73200011 1.9648126e-38
0.034160011 -0.034160011 0.73200011 2.010659e-38
0.035505716 -0.034113355 0.73100007 2.0558192e-38
0.036898114 -0.03411334 0.73100007 1.7515021e-38
0.038290471 -0.034113355 0.73100007 1.4482308e-38
0.039682873 -0.03411337 0.73100007 1.5310629e-38
0.041075245 -0.034113355 0.73100007 1.6229699e-38
0.042525724 -0.034160025 0.73200011 1.668995e-38
0.043860022 -0.034113355 0.73100007 1.7244198e-38
0.045314305 -0.034160011 0.73200011 1.6508085e-38
0.046708573 -0.034160011 0.73200011 1.5767189e-38
-0.027931437 -0.033660956 0.75200009 1.7434686e-38
-0.026499057 -0.033660971 0.75200009 1.5964608e-38
-0.025066677 -0.033660971 0.75200009 1.7624113e-38
-0.023571409 -0.033571459 0.75000012 1.918029e-38
-0.022142839 -0.033571459 0.75000012 1.8898682e-38
-0.020714249 -0.033571459 0.75000012 1.8620643e-38
-0.019208571 -0.033437155 0.7470001 1.6680955e-38
-0.017785715 -0.033437155 0.74700004 1.4661316e-38
-0.016319029 -0.033347659 0.74500012 1.5116573e-38
-0.014899981 -0.033347644 0.74500012 1.5492108e-38
-0.013480942 -0.033347659 0.74500012 1.6407536e-38
-0.012029505 -0.033258118 0.74300009 1.7340288e-38
-0.010614275 -0.033258133 0.74300009 1.9558737e-38
-0.0091866348 -0.033213355 0.7420001 2.1757419e-38
-0.0077733085 -0.033213355 0.74200016 2.2312747e-38
-0.0063599544 -0.03321337 0.74200016 2.2863781e-38
-0.0049466495 -0.033213355 0.7420001 2.3142178e-38
-0.0035332954 -0.03321337 0.7420001 2.3325852e-38
-0.0021142992 -0.033123828 0.74000007 2.2958513e-38
-0.00070475473 -0.033123828 0.74000007 2.259081e-38
0.00070476194 -0.033123828 0.74000007 2.1671737e-38
0.0021142927 -0.033123828 0.74000007 2.0752304e-38
0.0035238233 -0.033123828 0.74000007 1.9830362e-38
0.0049333195 -0.033123799 0.74000001 1.8819452e-38
0.0063428502 -0.033123814 0.74000001 1.808154e-38
0.0077419025 -0.03307908 0.73900008 1.7255379e-38
0.0091495272 -0.033079065 0.73900008 1.5967528e-38
0.010557139 -0.033079065 0.73900008 1.4589997e-38
0.011964765 -0.033079065 0.73900008 1.5140653e-38
0.013336215 -0.032989554 0.73700011 1.5599112e-38
0.014740018 -0.032989554 0.73700011 1.6332719e-38
0.016143823 -0.032989554 0.73700011 1.6981306e-38
0.017547641 -0.032989554 0.73700011 1.9281856e-38
0.018951442 -0.032989524 0.73700011 2.1485194e-38
0.020327646 -0.032944791 0.73600012 2.2499335e-38
0.021729544 -0.032944791 0.73600012 2.341769e-38
0.02313146 -0.032944821 0.73600018 2.341769e-38
0.024533361 -0.032944806 0.73600018 2.3413733e-38
0.025864754 -0.03285525 0.73400009 2.1389752e-38
0.027337171 -0.032944791 0.73600012 1.9364713e-38
0.028660953 -0.03285525 0.73400009 1.8816574e-38
0.02997715 -0.032765709 0.73200011 1.8267358e-38
0.031371448 -0.032765739 0.73200011 1.8359556e-38
0.032765716 -0.032765739 0.73200011 1.8453547e-38
0.034160018 -0.032765739 0.73200011 1.9373341e-38
0.035505731 -0.03272099 0.73100007 2.0281604e-38
0.03689811 -0.032720961 0.73100007 1.714157e-38
0.038290489 -0.032720976 0.73100007 1.4022044e-38
0.039682865 -0.032720961 0.73100007 1.5035116e-38
0.041075245 -0.03272099 0.73100007 1.6045666e-38
0.042467646 -0.03272099 0.73100013 1.659632e-38
0.043860018 -0.032720976 0.73100007 1.7150928e-38
0.045252401 -0.032720976 0.73100007 1.6326926e-38
0.046644777 -0.032720976 0.73100007 1.5487361e-38
0.04803716 -0.03272099 0.73100007 1.1243067e-38
-0.029402852 -0.032271437 0.75300002 1.8634702e-38
-0.027931437 -0.032228582 0.75200003 1.8081181e-38
-0.026499039 -0.032228582 0.75200009 1.7620571e-38
-0.025066659 -0.032228597 0.75200009 1.8264499e-38
-0.023634281 -0.032228597 0.75200009 1.9001687e-38
-0.022142828 -0.032142885 0.75000012 1.9272163e-38
-0.020659041 -0.032057159 0.74800014 1.9642728e-38
-0.019208549 -0.032014303 0.7470001 1.8717191e-38
-0.017785693 -0.032014303 0.74700004 1.7700535e-38
-0.016319035 -0.031928606 0.74500012 1.8072174e-38
-0.014899968 -0.031928606 0.74500012 1.8445252e-38
-0.013480949 -0.031928606 0.74500012 1.8998774e-38
-0.012061882 -0.031928606 0.74500012 1.9560574e-38
-0.010614261 -0.03184288 0.74300009 2.0937055e-38
-0.0091990307 -0.031842895 0.74300009 2.2315664e-38
-0.0077837724 -0.031842895 0.74300015 2.2682289e-38
-0.0063685616 -0.03184288 0.74300009 2.3050348e-38
-0.0049466523 -0.031800009 0.7420001 2.3142183e-38
-0.0035332991 -0.031800024 0.7420001 2.3325854e-38
-0.0021199728 -0.031800024 0.74200016 2.2958513e-38
-0.00070476683 -0.031714298 0.74000007 2.2591168e-38
0.00070474332 -0.031714298 0.74000001 2.1671375e-38
0.0021142741 -0.031714283 0.74000001 2.075266e-38
0.0035190494 -0.031671457 0.73900008 1.9555927e-38
0.0049333214 -0.031714298 0.74000007 1.8453184e-38
0.006342852 -0.031714298 0.74000007 1.7807107e-38
0.0077419127 -0.031671457 0.73900008 1.7163542e-38
0.0091495244 -0.031671472 0.73900008 1.6611812e-38
0.010557152 -0.031671457 0.73900008 1.6059724e-38
0.011964777 -0.031671457 0.73900008 1.7071349e-38
0.0133362 -0.031585731 0.73700011 1.8171942e-38
0.014740017 -0.031585731 0.73700011 1.8360276e-38
0.016143821 -0.031585716 0.73700011 1.8458568e-38
0.017547645 -0.031585746 0.73700017 1.9369746e-38
0.018951461 -0.031585746 0.73700011 2.0380659e-38
0.020355266 -0.031585746 0.73700011 2.1762857e-38
0.021729559 -0.03154289 0.73600018 2.3234019e-38
0.023131456 -0.03154289 0.73600018 2.2958513e-38
0.024533372 -0.031542905 0.73600012 2.2591168e-38
0.025935266 -0.031542875 0.73600012 2.0749431e-38
0.027337167 -0.031542875 0.73600012 1.8819091e-38
0.028660964 -0.031457163 0.73400009 1.8634341e-38
0.029977156 -0.031371452 0.73200011 1.8358478e-38
0.031371444 -0.031371452 0.73200011 1.845175e-38
0.032765724 -0.031371452 0.73200011 1.8545025e-38
0.034160025 -0.031371452 0.73200011 1.928007e-38
0.035554305 -0.031371437 0.73200011 2.0012907e-38
0.036948569 -0.031371437 0.73200011 1.7149451e-38
0.038290486 -0.031328611 0.73100007 1.4387943e-38
0.039682869 -0.031328596 0.73100007 1.5218062e-38
0.041075263 -0.031328596 0.73100013 1.6137856e-38
0.042467628 -0.031328596 0.73100007 1.6781426e-38
0.043860022 -0.031328626 0.73100007 1.7426075e-38
0.045252398 -0.031328611 0.73100007 1.6323339e-38
0.046644785 -0.031328611 0.73100007 1.5214709e-38
0.048037156 -0.031328596 0.73100007 1.0878562e-38
-0.030919041 -0.030919068 0.75500011 1.9275401e-38
-0.029402841 -0.030837156 0.75300008 1.8359915e-38
-0.027931418 -0.030796193 0.75200009 1.8818373e-38
-0.026499037 -0.030796207 0.75200009 1.9273961e-38
-0.024999995 -0.030714296 0.75000012 1.8995583e-38
-0.023634281 -0.030796222 0.75200009 1.8719358e-38
-0.022142835 -0.030714326 0.75000012 1.9728472e-38
-0.020659029 -0.030632414 0.74800014 2.0655795e-38
-0.019208577 -0.030591436 0.74700004 2.0752294e-38
-0.017785698 -0.030591436 0.7470001 2.0746909e-38
-0.01631904 -0.030509539 0.74500012 2.1026716e-38
-0.014900002 -0.030509554 0.74500012 2.1300786e-38
-0.013480936 -0.030509554 0.74500012 2.1580955e-38
-0.012061888 -0.030509539 0.74500012 2.1763559e-38
-0.010642849 -0.030509554 0.74500012 2.2313507e-38
-0.0091990167 -0.030427657 0.74300009 2.2774121e-38
-0.0077837864 -0.030427672 0.74300009 2.2958511e-38
-0.0063685481 -0.030427642 0.74300009 2.3141823e-38
-0.0049533178 -0.030427627 0.74300009 2.3234018e-38
-0.0035333033 -0.030386694 0.7420001 2.3234018e-38
-0.0021199784 -0.030386694 0.74200016 2.2866677e-38
-0.00070477056 -0.030304767 0.74000001 2.2498255e-38
0.00070668047 -0.030386679 0.7420001 2.1670297e-38
0.0021142769 -0.030304782 0.74000007 2.0751584e-38
0.0035238075 -0.030304767 0.74000007 1.9371539e-38
0.0049333381 -0.030304782 0.74000007 1.7992571e-38
0.0063428548 -0.030304782 0.74000007 1.7530524e-38
0.0077419053 -0.030263819 0.73900002 1.7071705e-38
0.0091495169 -0.030263834 0.73900008 1.7255736e-38
0.010557142 -0.030263834 0.73900002 1.7440844e-38
0.011964755 -0.030263834 0.73900008 1.9097113e-38
0.013336218 -0.030181937 0.73700017 2.0750147e-38
0.014740021 -0.030181937 0.73700011 2.0385672e-38
0.01614384 -0.030181907 0.73700011 1.9916448e-38
0.017547641 -0.030181937 0.73700011 1.9540852e-38
0.018951446 -0.030181922 0.73700011 1.918356e-38
0.020327654 -0.030140989 0.73600018 2.1120363e-38
0.021729551 -0.030141003 0.73600018 2.3049266e-38
0.023131453 -0.030140989 0.73600018 2.2407494e-38
0.024533361 -0.030140974 0.73600012 2.1761057e-38
0.025935262 -0.030140989 0.73600012 2.0014389e-38
0.027262859 -0.030059047 0.73400009 1.8269154e-38
0.028660946 -0.030059047 0.73400003 1.8359196e-38
0.029977163 -0.029977165 0.73200011 1.8451031e-38
0.031457148 -0.030059062 0.73400009 1.8543586e-38
0.032765731 -0.029977165 0.73200011 1.8635783e-38
0.034160011 -0.02997715 0.73200011 1.9188594e-38
0.035554312 -0.02997715 0.73200011 1.973237e-38
0.036898095 -0.029936217 0.73100007 1.7238761e-38
0.038290489 -0.029936232 0.73100007 1.4665953e-38
0.039682865 -0.029936217 0.73100007 1.5402453e-38
0.041075245 -0.029936232 0.73100007 1.6137499e-38
0.042467624 -0.029936202 0.73100007 1.6965456e-38
0.043860003 -0.029936202 0.73100007 1.7701579e-38
0.045252401 -0.029936217 0.73100013 1.6325129e-38
0.046644777 -0.029936217 0.73100007 1.484164e-38
0.04803716 -0.029936232 0.73100007 1.041224e-38
-0.030919023 -0.029480986 0.75500011 2.0475367e-38
-0.029402854 -0.02940286 0.75300002 1.9741395e-38
-0.027931418 -0.029363818 0.75200009 1.9366514e-38
-0.026499039 -0.029363818 0.75200009 1.8998447e-38
-0.025000006 -0.029285736 0.75000012 1.8900505e-38
-0.023634281 -0.029363804 0.75200009 1.8896925e-38
-0.022142846 -0.029285736 0.75000012 2.0101912e-38
-0.020659039 -0.029207639 0.74800009 2.1397302e-38
-0.019208554 -0.029168583 0.74700004 2.1120009e-38
-0.017785706 -0.029168598 0.7470001 2.0844144e-38
-0.016362848 -0.029168583 0.7470001 2.0843425e-38
-0.014939994 -0.029168583 0.74700004 2.0935619e-38
-0.013517117 -0.029168598 0.7470001 2.1395155e-38
-0.012094288 -0.029168598 0.7470001 2.185433e-38
-0.010642854 -0.029090501 0.74500012 2.2222385e-38
-0.0092237871 -0.029090501 0.74500012 2.2590806e-38
-0.0077838004 -0.029012419 0.74300009 2.277412e-38
-0.0063685426 -0.029012434 0.74300015 2.3049269e-38
-0.0049533327 -0.029012419 0.74300009 2.3141822e-38
-0.0035333075 -0.028973363 0.7420001 2.3325853e-38
-0.0021199812 -0.028973363 0.74200016 2.2866317e-38
-0.00070475473 -0.028895251 0.74000007 2.240606e-38
0.00070667767 -0.028973348 0.7420001 2.1486625e-38
0.0021142927 -0.028895266 0.74000007 2.0568629e-38
0.0035238094 -0.028895251 0.74000007 1.9463733e-38
0.00493334 -0.028895266 0.74000007 1.8268437e-38
0.006342852 -0.028895251 0.74000001 1.8359195e-38
0.0077419044 -0.028856196 0.73900008 1.8541432e-38
0.009149529 -0.02885621 0.73900008 1.8543586e-38
0.010557155 -0.028856196 0.73900008 1.8545023e-38
0.011932399 -0.028778113 0.73700011 1.9187156e-38
0.013336216 -0.028778113 0.73700011 1.9926854e-38
0.01474002 -0.028778113 0.73700011 1.9547665e-38
0.016143821 -0.028778113 0.73700011 1.9167763e-38
0.017547639 -0.028778113 0.73700011 1.9177445e-38
0.018925749 -0.028739072 0.73600018 1.918176e-38
0.020327648 -0.028739087 0.73600018 1.9645968e-38
0.021729548 -0.028739087 0.73600012 2.019985e-38
0.023131458 -0.028739087 0.73600012 2.0199132e-38
0.024533357 -0.028739057 0.73600012 2.0194828e-38
0.025935259 -0.028739057 0.73600012 1.8911644e-38
0.027337175 -0.028739072 0.73600018 1.7720654e-38
0.028660946 -0.028660975 0.73400003 1.7532321e-38
0.02997715 -0.028582878 0.73200011 1.7256454e-38
0.031457145 -0.02866096 0.73400009 1.7255735e-38
0.032855235 -0.02866096 0.73400009 1.725538e-38
0.034160014 -0.028582878 0.73200011 1.8451038e-38
0.035554297 -0.028582864 0.73200011 1.9642321e-38
0.036948595 -0.028582878 0.73200011 1.7057228e-38
0.038290471 -0.028543822 0.73100007 1.4389365e-38
0.039682869 -0.028543837 0.73100007 1.5217708e-38
0.041075245 -0.028543837 0.73100007 1.5952753e-38
0.042467628 -0.028543837 0.73100007 1.6690308e-38
0.043860022 -0.028543837 0.73100013 1.7426789e-38
0.045252383 -0.028543837 0.73100007 1.604567e-38
0.046644777 -0.028543837 0.73100007 1.4567581e-38
0.047905751 -0.02846574 0.72900015 1.0510562e-38
0.0492943 -0.028465755 0.72900009 6.3714911e-39
-0.030919034 -0.02804289 0.75500017 2.1764644e-38
-0.029402843 -0.027968593 0.75300008 2.101919e-38
-0.027931426 -0.027931444 0.75200009 1.9816352e-38
-0.026499048 -0.027931444 0.75200009 1.8623924e-38
-0.024933329 -0.027782895 0.74800009 1.8802214e-38
-0.023508549 -0.027782895 0.74800014 1.8997733e-38
-0.022083787 -0.02778288 0.74800009 2.0568989e-38
-0.020659056 -0.02778288 0.74800009 2.2038358e-38
-0.01920856 -0.027745716 0.7470001 2.1485912e-38
-0.017785704 -0.027745746 0.74700004 2.0843062e-38
-0.016362827 -0.027745731 0.7470001 2.0750868e-38
-0.01494 -0.027745731 0.7470001 2.0567555e-38
-0.013517144 -0.027745731 0.74700004 2.1301882e-38
-0.012094267 -0.027745716 0.7470001 2.1946523e-38
-0.010642861 -0.027671449 0.74500012 2.2223105e-38
-0.0092237936 -0.027671464 0.74500012 2.2406776e-38
-0.0077837869 -0.027597181 0.74300009 2.2681926e-38
-0.0063685565 -0.027597181 0.74300015 2.2865957e-38
-0.0049533187 -0.027597167 0.74300009 2.3141823e-38
-0.0035380879 -0.027597167 0.74300009 2.3325853e-38
-0.002119957 -0.027560018 0.74200016 2.2866676e-38
-0.00070663227 -0.027560033 0.74200016 2.2313506e-38
0.00070667395 -0.027560018 0.7420001 2.1392994e-38
0.0021200278 -0.027560018 0.7420001 2.0382804e-38
0.0035238047 -0.027485721 0.74000001 1.9461938e-38
0.0049333214 -0.027485706 0.74000007 1.8543943e-38
0.0063428539 -0.027485736 0.74000001 1.9279347e-38
0.0077419146 -0.027448587 0.73900008 1.9922553e-38
0.0091495421 -0.027448602 0.73900008 1.9831435e-38
0.010557154 -0.027448602 0.73900008 1.9643454e-38
0.011932397 -0.027374305 0.73700011 1.9363638e-38
0.013336201 -0.02737429 0.73700011 1.8994501e-38
0.014740018 -0.02737429 0.73700011 1.8710742e-38
0.016143821 -0.02737429 0.73700011 1.8350578e-38
0.017547624 -0.02737429 0.73700011 1.8727607e-38
0.01895145 -0.027374305 0.73700017 1.9093158e-38
0.020355266 -0.02737429 0.73700011 1.8173731e-38
0.02172954 -0.027337171 0.73600012 1.7258246e-38
0.023131453 -0.027337186 0.73600012 1.790289e-38
0.024533354 -0.027337171 0.73600012 1.8543584e-38
0.02593527 -0.027337171 0.73600018 1.7900376e-38
0.027337167 -0.027337171 0.73600018 1.7163541e-38
0.028660949 -0.027262874 0.73400009 1.6608943e-38
0.029977158 -0.027188607 0.73200011 1.6059365e-38
0.031457148 -0.027262874 0.73400009 1.5967171e-38
0.032855239 -0.027262874 0.73400009 1.5786373e-38
0.034253344 -0.027262874 0.73400009 1.771815e-38
0.035554305 -0.027188607 0.73200011 1.9546194e-38
0.036948569 -0.027188607 0.73200011 1.6866048e-38
0.038342871 -0.027188592 0.73200011 1.4113512e-38
0.039682865 -0.027151458 0.73100007 1.4942563e-38
0.041075245 -0.027151458 0.73100007 1.5770521e-38
0.042467643 -0.027151443 0.73100013 1.6507722e-38
0.043860018 -0.027151458 0.73100007 1.7151282e-38
0.045252401 -0.027151458 0.73100013 1.5771593e-38
0.046644777 -0.027151458 0.73100007 1.4289551e-38
0.047905736 -0.027077176 0.72900015 1.0506598e-38
0.049294323 -0.027077176 0.72900015 6.737024e-39
-0.031041909 -0.026710518 0.75800008 2.1297209e-38
-0.029402854 -0.026534297 0.75300002 2.0642152e-38
-0.027931426 -0.02649907 0.75200009 2.0186191e-38
-0.026428562 -0.026428603 0.75000012 1.9724868e-38
-0.024933318 -0.026358105 0.74800009 1.9916079e-38
-0.023571404 -0.026428603 0.75000012 2.0110166e-38
-0.022083804 -0.026358135 0.74800014 2.0935979e-38
-0.020659043 -0.02635812 0.74800009 2.1762136e-38
-0.019234281 -0.026358135 0.74800009 2.1394071e-38
-0.017809501 -0.02635815 0.74800014 2.1026011e-38
-0.016362853 -0.026322849 0.74700004 2.0934533e-38
-0.014960009 -0.02635812 0.74800009 2.0934895e-38
-0.013517122 -0.026322864 0.7470001 2.1487344e-38
-0.012094294 -0.026322864 0.74700004 2.2039434e-38
-0.010642847 -0.026252411 0.74500012 2.2131271e-38
-0.0092238002 -0.026252396 0.74500012 2.2314225e-38
-0.0077838008 -0.026181929 0.74300009 2.2681926e-38
-0.0063857134 -0.026252411 0.74500012 2.2957792e-38
-0.0049533127 -0.026181944 0.74300015 2.3049988e-38
-0.003538074 -0.026181914 0.74300009 2.3142182e-38
-0.0021199626 -0.026146688 0.7420001 2.2774123e-38
-0.000706636 -0.026146673 0.74200016 2.2404983e-38
0.00070668233 -0.026146688 0.7420001 2.157774e-38
0.0021200231 -0.026146702 0.7420001 2.0842339e-38
0.0035238066 -0.026076205 0.74000007 2.029025e-38
0.0049333232 -0.02607619 0.74000007 1.9829641e-38
0.0063428557 -0.026076205 0.74000007 1.9738886e-38
0.0077419071 -0.026040964 0.73900008 1.9742112e-38
0.0091247736 -0.025970496 0.73700011 1.9551981e-38
0.010528577 -0.025970496 0.73700011 1.9363635e-38
0.011932394 -0.025970481 0.73700011 1.8902294e-38
0.013336219 -0.025970496 0.73700017 1.8528142e-38
0.014740021 -0.025970511 0.73700017 1.8258381e-38
0.016143838 -0.025970496 0.73700011 1.8081534e-38
0.017547641 -0.025970496 0.73700011 1.8359202e-38
0.018951446 -0.025970496 0.73700011 1.8727617e-38
0.020355247 -0.025970496 0.73700011 1.8082972e-38
0.021759065 -0.025970496 0.73700011 1.7531244e-38
0.023131449 -0.02593527 0.73600012 1.6980952e-38
0.024533365 -0.025935255 0.73600018 1.6522487e-38
0.025935264 -0.02593527 0.73600018 1.5875687e-38
0.027337164 -0.025935255 0.73600012 1.5322525e-38
0.028660949 -0.025864787 0.73400009 1.5230333e-38
0.030059036 -0.025864802 0.73400003 1.5047741e-38
0.031457148 -0.025864787 0.73400009 1.5324325e-38
0.032855239 -0.025864787 0.73400009 1.5603062e-38
0.034253325 -0.025864772 0.73400003 1.7533761e-38
0.035554312 -0.02579432 0.73200011 1.9458316e-38
0.036948588 -0.025794305 0.73200011 1.7056199e-38
0.038290486 -0.025759079 0.73100007 1.4664179e-38
0.03968288 -0.025759079 0.73100007 1.5217712e-38
0.041075245 -0.025759079 0.73100007 1.5770168e-38
0.042467624 -0.025759064 0.73100007 1.6599207e-38
0.043860018 -0.025759093 0.73100007 1.7429301e-38
0.045252398 -0.025759079 0.73100007 1.5771227e-38
0.046644792 -0.025759093 0.73100007 1.4107661e-38
0.048037156 -0.025759079 0.73100007 1.0510167e-38
0.049294323 -0.025688596 0.72900009 6.8274092e-39
-0.032571409 -0.025333367 0.76000011 2.1298292e-38
-0.03095999 -0.025200032 0.7560001 2.083552e-38
-0.029402843 -0.025100015 0.75300008 2.0283067e-38
-0.027931429 -0.025066681 0.75200003 2.0560721e-38
-0.02642855 -0.025000028 0.75000012 2.0836949e-38
-0.024933333 -0.024933361 0.74800009 2.1026364e-38
-0.023508571 -0.024933361 0.74800009 2.1210758e-38
-0.022083791 -0.024933353 0.74800014 2.1302241e-38
-0.020659029 -0.024933353 0.74800009 2.1394073e-38
-0.01923427 -0.024933375 0.74800009 2.1301876e-38
-0.017809518 -0.024933375 0.74800014 2.1118205e-38
-0.016362831 -0.024899997 0.7470001 2.1209681e-38
-0.014959996 -0.024933353 0.74800009 2.1302954e-38
-0.013517127 -0.024900027 0.7470001 2.167245e-38
-0.012094271 -0.024900004 0.7470001 2.2039434e-38
-0.010642854 -0.024833366 0.74500012 2.2131271e-38
-0.0092237871 -0.024833374 0.74500012 2.2222748e-38
-0.0078047672 -0.024833351 0.74500012 2.2682284e-38
-0.0063856994 -0.024833366 0.74500012 2.3049628e-38
-0.0049666525 -0.024833359 0.74500012 2.3049988e-38
-0.0035380879 -0.024766698 0.74300009 2.2958152e-38
-0.0021199654 -0.024733357 0.7420001 2.2682289e-38
-0.00070664065 -0.024733372 0.74200016 2.2405702e-38
0.00070669351 -0.02473335 0.7420001 2.185361e-38
0.0021200185 -0.024733365 0.7420001 2.1302237e-38
0.0035333592 -0.024733365 0.74200016 2.12104e-38
0.00493334 -0.024666682 0.74000007 2.1023856e-38
0.0063428585 -0.024666682 0.74000007 2.0288452e-38
0.0077419062 -0.024633355 0.73900008 1.9548027e-38
0.0091495309 -0.02463337 0.73900008 1.9270368e-38
0.010528596 -0.024566695 0.73700017 1.899522e-38
0.0119324 -0.02456668 0.73700011 1.8537117e-38
0.013336217 -0.024566695 0.73700011 1.8077584e-38
0.014740019 -0.024566688 0.73700011 1.7896786e-38
0.016143823 -0.024566673 0.73700011 1.7714195e-38
0.017547641 -0.024566688 0.73700011 1.8083335e-38
0.018951444 -0.024566688 0.73700011 1.8358481e-38
0.020355247 -0.024566688 0.73700011 1.8082256e-38
0.021759065 -0.024566688 0.73700011 1.7713839e-38
0.02313146 -0.024533376 0.73600018 1.6058649e-38
0.024533361 -0.024533361 0.73600018 1.4404891e-38
0.025935274 -0.024533361 0.73600012 1.394105e-38
0.027337171 -0.024533376 0.73600012 1.3483668e-38
0.028739069 -0.024533354 0.73600012 1.3758458e-38
0.030059038 -0.024466686 0.73400003 1.4035759e-38
0.031457148 -0.024466693 0.73400009 1.4678608e-38
0.032944784 -0.024533354 0.73600018 1.532612e-38
0.034253325 -0.024466679 0.73400009 1.7355112e-38
0.035554297 -0.024400018 0.73200011 1.9362541e-38
0.036948595 -0.024400018 0.73200011 1.7235577e-38
0.038342878 -0.024400018 0.73200011 1.5124799e-38
0.039737143 -0.024400018 0.73200011 1.5494296e-38
0.041075259 -0.024366699 0.73100007 1.5770167e-38
0.042467624 -0.024366699 0.73100007 1.678108e-38
0.043860018 -0.024366707 0.73100007 1.7702997e-38
0.045252398 -0.024366692 0.73100013 1.5868056e-38
0.046644773 -0.024366692 0.73100007 1.392146e-38
0.048037171 -0.024366707 0.73100007 1.0415096e-38
-0.032571416 -0.023885749 0.76000011 2.1207891e-38
-0.030959982 -0.023760028 0.7560001 2.0746553e-38
-0.029402856 -0.023665719 0.75300002 2.0379931e-38
-0.027968571 -0.023665726 0.75300002 2.0012232e-38
-0.02642856 -0.023571461 0.75000012 1.9739598e-38
-0.024999991 -0.023571461 0.75000012 2.0290613e-38
-0.02357142 -0.023571454 0.75000012 2.0934177e-38
-0.0220838 -0.023508608 0.74800009 2.1118205e-38
-0.020659018 -0.023508601 0.74800014 2.1393353e-38
-0.019234285 -0.023508586 0.74800009 2.1210041e-38
-0.017809525 -0.023508608 0.74800009 2.102637e-38
-0.016384743 -0.023508616 0.74800014 2.0934174e-38
-0.014959984 -0.023508601 0.74800009 2.0843418e-38
-0.013535224 -0.023508601 0.74800009 2.1395508e-38
-0.012110471 -0.023508616 0.74800014 2.1946882e-38
-0.010671422 -0.023477145 0.74700004 2.2130911e-38
-0.0092485463 -0.023477152 0.7470001 2.2314582e-38
-0.0078047519 -0.023414306 0.74500012 2.2682283e-38
-0.0063857045 -0.023414321 0.74500012 2.3141462e-38
-0.0049666381 -0.023414314 0.74500012 2.3141822e-38
-0.003538074 -0.023351461 0.74300009 2.3142182e-38
-0.002119971 -0.023320034 0.74200016 2.2866318e-38
-0.00070664438 -0.023320027 0.74200016 2.2590093e-38
0.00070668792 -0.023320012 0.7420001 2.1669584e-38
0.0021200287 -0.023320019 0.7420001 2.0751944e-38
0.0035333685 -0.023320012 0.74200016 2.0287022e-38
0.0049333419 -0.023257159 0.74000007 1.9828553e-38
0.006342853 -0.023257151 0.74000001 1.9271073e-38
0.0077733533 -0.023320012 0.7420001 1.8707866e-38
0.0091619007 -0.023257159 0.74000007 1.8441329e-38
0.010557136 -0.023225747 0.73900008 1.8259103e-38
0.011932398 -0.023162887 0.73700011 1.7987552e-38
0.0133362 -0.023162879 0.73700011 1.7806751e-38
0.014740017 -0.023162879 0.73700011 1.762272e-38
0.016143821 -0.023162872 0.73700011 1.7530168e-38
0.017547626 -0.023162872 0.73700011 1.7346856e-38
0.018951463 -0.023162887 0.73700011 1.7163185e-38
0.020355266 -0.023162887 0.73700011 1.6243035e-38
0.021759067 -0.023162879 0.73700011 1.5325399e-38
0.023131456 -0.023131445 0.73600018 1.4588204e-38
0.024533354 -0.02313146 0.73600018 1.3852446e-38
0.025935266 -0.02313146 0.73600012 1.3759179e-38
0.027337164 -0.023131453 0.73600012 1.3666984e-38
0.028739065 -0.023131467 0.73600012 1.339076e-38
0.03005904 -0.023068585 0.73400009 1.3116689e-38
0.031457148 -0.023068599 0.73400009 1.2839029e-38
0.032855235 -0.023068599 0.73400009 1.2657511e-38
0.034253329 -0.023068592 0.73400009 1.541724e-38
0.035554305 -0.023005739 0.73200011 1.8166892e-38
0.036948584 -0.023005739 0.73200011 1.6596688e-38
0.038342886 -0.023005739 0.73200011 1.5125523e-38
0.039737165 -0.023005739 0.73200011 1.549358e-38
0.041075241 -0.022974297 0.73100007 1.5769807e-38
0.042467635 -0.022974327 0.73100007 1.6690317e-38
0.043860018 -0.022974327 0.73100013 1.7519668e-38
0.045252398 -0.022974312 0.73100007 1.5493508e-38
-0.029363815 -0.022201911 0.75200009 2.0379931e-38
-0.027931437 -0.022201918 0.75200009 1.94605e-38
-0.026428539 -0.022142887 0.75000012 1.8542864e-38
-0.024999969 -0.02214288 0.75000012 1.9554132e-38
-0.0235714 -0.022142887 0.75000012 2.0566116e-38
-0.022083817 -0.022083841 0.74800009 2.0935253e-38
-0.020659037 -0.022083849 0.74800014 2.1302237e-38
-0.019234275 -0.022083856 0.74800009 2.1118207e-38
-0.017809514 -0.022083834 0.74800009 2.0842699e-38
-0.016384734 -0.022083834 0.74800014 2.0565758e-38
-0.01499999 -0.022142895 0.75000012 2.0292048e-38
-0.013535241 -0.022083849 0.74800009 2.1026734e-38
-0.01211048 -0.022083834 0.74800009 2.1763212e-38
-0.010671427 -0.022054315 0.7470001 2.2038361e-38
-0.0092485715 -0.0220543 0.74700004 2.2314944e-38
-0.0078047588 -0.021995269 0.74500012 2.277448e-38
-0.006385691 -0.021995269 0.74500012 2.3141823e-38
-0.004966672 -0.021995269 0.74500012 2.3234018e-38
-0.0035476042 -0.021995261 0.74500012 2.3325854e-38
-0.0021228581 -0.021936208 0.74300009 2.3050348e-38
-0.00070662017 -0.021906696 0.74200016 2.2678694e-38
0.00070668512 -0.021906681 0.7420001 2.1483031e-38
0.002120025 -0.021906681 0.7420001 2.0192669e-38
0.0035333647 -0.021906704 0.74200016 1.935718e-38
0.0049466831 -0.021906681 0.7420001 1.8535322e-38
0.0063600237 -0.021906689 0.7420001 1.8258738e-38
0.0077523864 -0.021847643 0.74000007 1.789104e-38
0.0091619026 -0.021847636 0.74000007 1.7711677e-38
0.010571432 -0.021847636 0.74000007 1.7436535e-38
0.011964774 -0.021818116 0.73900008 1.7438694e-38
0.013336218 -0.021759078 0.73700017 1.7439769e-38
0.014780012 -0.021818109 0.73900008 1.734865e-38
0.01614384 -0.021759063 0.73700011 1.7254662e-38
0.017547643 -0.021759063 0.73700011 1.6610738e-38
0.018951446 -0.021759085 0.73700011 1.5966455e-38
0.020355262 -0.021759063 0.73700011 1.4492425e-38
0.021759067 -0.021759063 0.73700011 1.2932656e-38
0.02316287 -0.021759063 0.73700011 1.311561e-38
0.024533361 -0.021729544 0.73600012 1.33e-38
0.025935261 -0.021729544 0.73600012 1.3576584e-38
0.02733716 -0.021729536 0.73600012 1.3848862e-38
0.028739076 -0.021729551 0.73600018 1.3020906e-38
0.030140977 -0.021729551 0.73600018 1.209968e-38
0.031457126 -0.021670491 0.73400003 1.1087335e-38
0.032944787 -0.021729551 0.73600012 9.9903332e-39
0.034346685 -0.021729551 0.73600012 1.3489771e-38
0.035748605 -0.021729551 0.73600018 1.6879034e-38
0.037049524 -0.021670498 0.73400009 1.6042788e-38
0.038447615 -0.021670491 0.73400009 1.5125156e-38
0.039737158 -0.021611437 0.73200011 1.5493221e-38
0.041075259 -0.021581933 0.73100007 1.5769449e-38
0.042467616 -0.021581933 0.73100007 1.6598844e-38
0.043860015 -0.021581933 0.73100007 1.7335638e-38
0.045252409 -0.021581948 0.73100007 1.5220151e-38
-0.029363796 -0.020769544 0.75200009 2.0197695e-38
-0.027931418 -0.020769551 0.75200009 1.946014e-38
-0.026428547 -0.02071432 0.75000012 1.8815498e-38
-0.02499998 -0.020714313 0.75000012 2.0104423e-38
-0.023571409 -0.02071432 0.75000012 2.1391558e-38
-0.022142839 -0.020714298 0.75000012 2.1669937e-38
-0.020714249 -0.020714313 0.75000012 2.1945803e-38
-0.019234262 -0.020659082 0.74800014 2.1578461e-38
-0.017857136 -0.020714328 0.75000012 2.1302595e-38
-0.016384769 -0.020659067 0.74800009 2.1302594e-38
-0.014999998 -0.020714313 0.75000012 2.1395151e-38
-0.013535229 -0.020659067 0.74800009 2.1855049e-38
-0.012110468 -0.020659074 0.74800009 2.2315663e-38
-0.010671406 -0.020631447 0.7470001 2.2315305e-38
-0.0092485491 -0.020631433 0.7470001 2.24075e-38
-0.0078047453 -0.020576216 0.74500012 2.2038364e-38
-0.006385698 -0.020576216 0.74500012 2.1672816e-38
-0.0049666585 -0.020576224 0.74500012 2.1577034e-38
-0.0035476112 -0.020576224 0.74500012 2.1489145e-38
-0.002122845 -0.020520985 0.74300009 2.1206463e-38
-0.00070662482 -0.020493358 0.74200016 2.1019191e-38
0.0007066814 -0.020493358 0.7420001 2.0651835e-38
0.0021200213 -0.020493366 0.7420001 2.0279831e-38
0.003533361 -0.020493366 0.74200016 1.945367e-38
0.0049466803 -0.020493358 0.7420001 1.8624647e-38
0.00636002 -0.020493351 0.7420001 1.8260898e-38
0.0077523883 -0.020438105 0.74000007 1.789643e-38
0.0091619045 -0.020438105 0.74000007 1.7804956e-38
0.010571434 -0.020438112 0.74000007 1.7806036e-38
0.011980945 -0.020438105 0.74000001 1.7347579e-38
0.013372378 -0.020410486 0.73900008 1.6980593e-38
0.014779991 -0.020410493 0.73900008 1.5876412e-38
0.016143825 -0.020355254 0.73700011 1.4865505e-38
0.017547641 -0.020355269 0.73700011 1.4680401e-38
0.018951442 -0.020355262 0.73700011 1.449709e-38
0.020355247 -0.020355247 0.73700011 1.3850655e-38
0.021759067 -0.020355247 0.73700011 1.3204937e-38
0.023162887 -0.020355262 0.73700017 1.3206013e-38
0.02456669 -0.020355262 0.73700017 1.3298566e-38
0.025970507 -0.020355269 0.73700011 1.2010717e-38
0.027374312 -0.020355262 0.73700011 1.081506e-38
0.028739072 -0.020327643 0.73600018 1.0259741e-38
0.030140985 -0.020327643 0.73600012 9.7047794e-39
0.031542882 -0.020327643 0.73600012 9.3388695e-39
