# .PCD v0.7 - Point Cloud Data file format
VERSION 0.7
FIELDS x y z rgb
SIZE 4 4 4 4
TYPE F F F F
COUNT 1 1 1 1
WIDTH 951
HEIGHT 1
VIEWPOINT 0 0 0 1 0 0 0
POINTS 951
DATA ascii
0.0034000184 -0.056440011 0.71400005 1.4469629e-38
0.0047533661 -0.05636096 0.71300012 1.1154571e-38
0.0061114468 -0.056360975 0.71300006 1.1059139e-38
0.0074695516 -0.056360945 0.71300006 1.0966244e-38
0.0088276397 -0.05636099 0.71300006 9.862801e-39
0.010185743 -0.056360975 0.71300006 8.6844519e-39
0.011543844 -0.056360975 0.71300012 1.4947288e-38
0.012901928 -0.05636096 0.71300006 2.1113901e-38
0.014220014 -0.056202874 0.71099997 2.1948315e-38
0.015574289 -0.056202888 0.71099997 2.2772679e-38
0.01692857 -0.056202888 0.71099997 2.2404976e-38
0.018334309 -0.05636096 0.71300012 2.1940388e-38
0.019637143 -0.056202874 0.71100003 1.8350523e-38
0.020991441 -0.056202874 0.71100003 1.466993e-38
0.022345722 -0.056202874 0.71100003 1.512911e-38
0.023700014 -0.056202874 0.71100003 1.5497519e-38
0.025054295 -0.056202874 0.71100003 1.5586833e-38
0.026408587 -0.056202874 0.71100003 1.5593306e-38
0.02772384 -0.056123838 0.7100001 1.4310136e-38
0.028994298 -0.055965737 0.708 1.3015134e-38
0.03042859 -0.056123838 0.7100001 9.8791177e-39
0.031780984 -0.056123823 0.71000004 6.6627188e-39
0.033040017 -0.055965737 0.70800006 6.020585e-39
0.034388587 -0.055965751 0.70800006 5.2851807e-39
0.035737164 -0.055965737 0.708 8.962904e-39
0.037085731 -0.055965737 0.708 1.2552375e-38
0.038434297 -0.055965722 0.708 1.4026043e-38
0.039895263 -0.056123823 0.71000004 1.5402116e-38
0.041305736 -0.056202888 0.71100003 1.4755656e-38
0.042660028 -0.056202888 0.71100003 1.4008344e-38
0.04413813 -0.056360975 0.71300006 1.1509699e-38
0.045496237 -0.056360975 0.71300006 9.031157e-39
-0.029690446 -0.055928588 0.72500002 2.3050348e-38
-0.028309513 -0.055928603 0.72500002 2.2774065e-38
-0.026928563 -0.055928573 0.72500002 1.9452862e-38
-0.025547611 -0.055928588 0.72500002 1.6145022e-38
-0.02416666 -0.055928573 0.72500002 1.7619445e-38
-0.02278571 -0.055928603 0.72500002 1.9185261e-38
-0.021345684 -0.055774301 0.72300005 1.7981304e-38
-0.019968541 -0.055774271 0.72300005 1.6790386e-38
-0.018565692 -0.055697173 0.72200012 1.9828924e-38
-0.017190456 -0.055697158 0.72200012 2.2866673e-38
-0.015771408 -0.055542871 0.72000009 2.2774123e-38
-0.014399979 -0.055542886 0.72000003 2.268121e-38
-0.013028551 -0.055542886 0.72000003 2.2497177e-38
-0.01165715 -0.055542871 0.72000003 2.2404981e-38
-0.010271414 -0.055465728 0.71900004 2.240498e-38
-0.0089018689 -0.055465743 0.7190001 2.2404981e-38
-0.0075323461 -0.055465713 0.71900004 2.2497176e-38
-0.0061628493 -0.055465728 0.71900004 2.2680851e-38
-0.0047933273 -0.055465728 0.71900004 2.2221317e-38
-0.0034142751 -0.055311456 0.71700001 2.1848887e-38
-0.0020485744 -0.055311441 0.71700001 1.7141892e-38
-0.00068188459 -0.055234328 0.71600008 1.2436427e-38
0.00068001822 -0.055080026 0.71400005 1.2995002e-38
0.0020400267 -0.055080011 0.71400011 1.3553509e-38
0.0034000129 -0.055080026 0.71400005 1.2815914e-38
0.0047533698 -0.055002883 0.71300006 1.2164421e-38
0.0061114393 -0.055002883 0.71300006 1.1796327e-38
0.0074695405 -0.055002868 0.71300006 1.142429e-38
0.0088276435 -0.055002868 0.71300006 1.0044573e-38
0.010185746 -0.055002883 0.71300006 8.574621e-39
0.011511434 -0.054848567 0.71099997 1.3099445e-38
0.012865728 -0.054848611 0.71099997 1.7713832e-38
0.014220007 -0.054848582 0.71100003 2.0199502e-38
0.015574301 -0.054848596 0.71099997 2.2774842e-38
0.016928583 -0.054848582 0.71100003 2.2406065e-38
0.018282875 -0.054848596 0.71100003 2.2037232e-38
0.019637156 -0.054848596 0.71100003 1.7244869e-38
0.020991433 -0.054848596 0.71100003 1.2451479e-38
0.022345729 -0.054848582 0.71100003 1.3101851e-38
0.023700023 -0.054848596 0.71100003 1.3839033e-38
0.025054304 -0.054848596 0.71100003 1.4117038e-38
0.026408581 -0.054848596 0.71100003 1.4487632e-38
0.027723849 -0.054771453 0.7100001 1.3201599e-38
0.02899429 -0.054617167 0.708 1.1910212e-38
0.030428598 -0.054771453 0.7100001 9.329897e-39
0.031780988 -0.054771453 0.7100001 6.8478233e-39
0.033040024 -0.054617167 0.708 6.1109827e-39
0.034388591 -0.054617167 0.708 5.2812235e-39
0.035737161 -0.054617181 0.708 8.6852241e-39
0.037085745 -0.054617152 0.70800006 1.209534e-38
0.038542882 -0.054771438 0.7100001 1.4027118e-38
0.03989527 -0.054771468 0.7100001 1.5954201e-38
0.041305747 -0.054848596 0.71100003 1.4662017e-38
0.042660002 -0.054848596 0.71099997 1.3458754e-38
0.044138122 -0.055002883 0.71300006 1.1519012e-38
0.045496225 -0.055002883 0.71300006 9.6797424e-39
-0.029690456 -0.054547623 0.72500002 2.3050348e-38
-0.028309504 -0.054547623 0.72500002 2.2676843e-38
-0.026928553 -0.054547623 0.72500002 1.9813734e-38
-0.025547603 -0.054547638 0.72500002 1.6972611e-38
-0.024166649 -0.054547623 0.72500002 1.8999846e-38
-0.022785699 -0.054547638 0.72500002 2.1017647e-38
-0.021345703 -0.054397151 0.72300005 1.8986793e-38
-0.01996856 -0.054397151 0.72300005 1.6882202e-38
-0.018591419 -0.054397151 0.72300005 2.0014387e-38
-0.017190464 -0.054321915 0.72200012 2.3048549e-38
-0.015771396 -0.054171443 0.72000009 2.2866317e-38
-0.014399996 -0.054171443 0.72000003 2.2589731e-38
-0.013028567 -0.054171443 0.72000003 2.258937e-38
-0.011657138 -0.054171428 0.72000003 2.2497176e-38
-0.010285689 -0.054171443 0.72000009 2.2496817e-38
-0.0089018978 -0.054096192 0.71900004 2.2404981e-38
-0.0075323526 -0.054096222 0.71900004 2.2496818e-38
-0.0061628297 -0.054096207 0.71900004 2.2497539e-38
-0.0047933199 -0.054096207 0.71900004 2.2866677e-38
-0.0034142816 -0.05394572 0.71699995 2.3135676e-38
-0.0020485604 -0.053945735 0.71700001 1.8164669e-38
-0.00068189763 -0.053870514 0.71600002 1.317968e-38
0.00068001263 -0.053720012 0.71400005 1.1222751e-38
0.0020400193 -0.053720042 0.71400011 9.2267811e-39
0.0034000259 -0.053720027 0.71400011 1.1260095e-38
0.0047533587 -0.053644791 0.71300006 1.3183242e-38
0.006111443 -0.053644761 0.71300006 1.2537147e-38
0.007469546 -0.053644791 0.71300006 1.1887799e-38
0.008827636 -0.053644791 0.71300006 1.0225391e-38
0.010185737 -0.053644791 0.71300006 8.4845553e-39
0.011511447 -0.053494304 0.71100003 1.1344821e-38
0.012901923 -0.053644776 0.71300006 1.4211854e-38
0.01422002 -0.053494304 0.71100003 1.854395e-38
0.015574299 -0.05349429 0.71100003 2.2773046e-38
0.016928591 -0.053494304 0.71100003 2.2499335e-38
0.018334318 -0.053644791 0.71300006 2.2125097e-38
0.019637153 -0.053494304 0.71100003 1.6140643e-38
0.020991446 -0.05349429 0.71100003 1.0160193e-38
0.022345738 -0.053494304 0.71100003 1.1171796e-38
0.023700019 -0.053494304 0.71100003 1.2185551e-38
0.0250543 -0.053494304 0.71100003 1.2738337e-38
0.026408592 -0.05349429 0.71100003 1.3291578e-38
0.027723832 -0.053419068 0.71000004 1.2005958e-38
0.029076206 -0.053419068 0.71000004 1.0713849e-38
0.030428583 -0.053419083 0.71000004 8.8664218e-39
0.031780973 -0.053419068 0.71000004 7.0293419e-39
0.033040017 -0.053268597 0.708 6.2024525e-39
0.034388587 -0.053268597 0.70800006 5.2801473e-39
0.035737164 -0.053268582 0.70800006 8.401115e-39
0.037085734 -0.053268597 0.708 1.1540028e-38
0.0385429 -0.053419083 0.7100001 1.4032145e-38
0.039951444 -0.053494304 0.71099997 1.6413735e-38
0.041305721 -0.053494304 0.71100003 1.4663445e-38
0.042780034 -0.053644776 0.71300006 1.2907736e-38
0.044200011 -0.053720027 0.71400005 1.1611203e-38
0.045560021 -0.053720027 0.71400005 1.0230401e-38
-0.029690472 -0.053166673 0.72500002 2.286596e-38
-0.028309522 -0.053166673 0.72500002 2.2681141e-38
-0.026928542 -0.053166687 0.72500002 1.9914166e-38
-0.025547592 -0.053166673 0.72500002 1.7248111e-38
-0.02416664 -0.053166687 0.72500002 1.7985349e-38
-0.02278571 -0.053166673 0.72500002 1.8816445e-38
-0.02140476 -0.053166673 0.72500002 1.834857e-38
-0.019968558 -0.053020015 0.72300005 1.7982415e-38
-0.018591417 -0.053020015 0.72300005 2.0472486e-38
-0.017190453 -0.052946687 0.72200012 2.2956353e-38
-0.015815215 -0.052946702 0.72200012 2.2773045e-38
-0.014399984 -0.05280003 0.72000003 2.2589013e-38
-0.013028556 -0.052800015 0.72000003 2.258901e-38
-0.011657127 -0.05280003 0.72000003 2.2589011e-38
-0.010285706 -0.052800015 0.72000009 2.2589011e-38
-0.0089142798 -0.05280003 0.72000003 2.2589013e-38
-0.007532361 -0.052726686 0.7190001 2.2589371e-38
-0.0061628362 -0.052726671 0.71900004 2.2589015e-38
-0.0047933264 -0.052726686 0.71900004 2.2866318e-38
-0.003423783 -0.052726701 0.7190001 2.3050313e-38
-0.0020542722 -0.052726686 0.71900004 1.9269954e-38
-0.00068188645 -0.052506685 0.71600008 1.548593e-38
0.0006819237 -0.05250667 0.71600002 1.2346905e-38
0.0020400137 -0.052360013 0.71400005 9.3192794e-39
0.0034000222 -0.052360013 0.71400011 1.1254358e-38
0.0047600288 -0.052360028 0.71400011 1.3097883e-38
0.0061200149 -0.052360028 0.71400005 1.3279043e-38
0.0074695349 -0.05228667 0.71300006 1.3456563e-38
0.0088276379 -0.052286699 0.71300006 1.1332814e-38
0.010185741 -0.052286685 0.71300006 9.3028001e-39
0.011543842 -0.052286685 0.71300006 1.0328827e-38
0.012901932 -0.052286685 0.71300012 1.1448505e-38
0.014260015 -0.052286685 0.71300006 1.6789746e-38
0.015618119 -0.052286685 0.71300006 2.2130557e-38
0.016976204 -0.052286685 0.71300006 2.2406423e-38
0.018334309 -0.05228667 0.71300006 2.2771509e-38
0.019692414 -0.052286699 0.71300006 1.6691966e-38
0.020991458 -0.052140012 0.71100003 1.0519581e-38
0.022345735 -0.052140042 0.71100003 1.1261403e-38
0.023700032 -0.052140012 0.71100003 1.2002872e-38
0.025054308 -0.052140042 0.71100003 1.2830796e-38
0.026408585 -0.052139997 0.71099997 1.3658881e-38
0.027762862 -0.052140027 0.71099997 1.2188566e-38
0.029076213 -0.052066699 0.7100001 1.0624176e-38
0.03042859 -0.052066684 0.7100001 8.8707322e-39
0.031780981 -0.052066684 0.71000004 7.2112192e-39
0.033133358 -0.052066684 0.71000004 5.5545748e-39
0.034485746 -0.052066669 0.71000004 3.89831e-39
0.035737157 -0.051920027 0.708 7.666438e-39
0.037190497 -0.052066684 0.71000004 1.1539316e-38
0.038542882 -0.052066699 0.71000004 1.2923666e-38
0.03995144 -0.052140012 0.71100003 1.4301159e-38
0.04142192 -0.052286685 0.71300006 1.3559618e-38
0.042840034 -0.052360013 0.71400011 1.2815536e-38
0.044200025 -0.052360043 0.71400011 1.1246726e-38
0.04556001 -0.052359998 0.71400005 9.7737387e-39
-0.029731395 -0.051857144 0.72600001 2.2773048e-38
-0.028309513 -0.051785737 0.72500002 2.2586085e-38
-0.026854286 -0.05164288 0.72300005 2.000602e-38
-0.025477145 -0.05164288 0.72300005 1.7431777e-38
-0.024100002 -0.05164285 0.72300005 1.6968675e-38
-0.022722831 -0.051642865 0.72300005 1.651342e-38
-0.021345718 -0.05164288 0.72300005 1.7792277e-38
-0.019968549 -0.051642865 0.72300005 1.909095e-38
-0.018591408 -0.05164288 0.72300005 2.093705e-38
-0.017214265 -0.05164285 0.72300005 2.2772684e-38
-0.015837122 -0.051642865 0.72300005 2.2680489e-38
-0.014439987 -0.051571444 0.72200012 2.2497176e-38
-0.013064749 -0.051571429 0.72200012 2.2588652e-38
-0.011689512 -0.051571444 0.72200006 2.2589011e-38
-0.010285694 -0.051428586 0.72000003 2.2680847e-38
-0.0089142676 -0.051428571 0.72000003 2.2681207e-38
-0.0075428393 -0.051428601 0.72000003 2.2682284e-38
-0.0061628418 -0.051357165 0.71900004 2.2681926e-38
-0.0047933189 -0.05135715 0.71900004 2.2866674e-38
-0.0034237746 -0.051357165 0.7190001 2.2955261e-38
-0.0020542657 -0.051357165 0.71900004 2.0378826e-38
-0.0006828364 -0.051214308 0.71700001 1.7696481e-38
0.00068193115 -0.051142901 0.71600008 1.3543334e-38
0.0020457488 -0.051142871 0.71600008 9.4111247e-39
0.003409544 -0.051142886 0.71600008 1.1248582e-38
0.0047600232 -0.051000029 0.71400011 1.3002814e-38
0.0061200317 -0.051000029 0.71400011 1.4024873e-38
0.0074695386 -0.050928593 0.71300006 1.5022098e-38
0.0088276416 -0.050928593 0.71300006 1.253065e-38
0.010185732 -0.050928593 0.71300006 1.0046075e-38
0.011543835 -0.050928593 0.71300006 9.3113971e-39
0.012901936 -0.050928578 0.71300006 8.5904514e-39
0.014260018 -0.050928593 0.71300006 1.5036262e-38
0.015618106 -0.050928578 0.71300006 2.1390133e-38
0.016976211 -0.050928593 0.71300006 2.24075e-38
0.018334314 -0.050928578 0.71300006 2.3411495e-38
0.019692415 -0.050928593 0.71300006 1.7152951e-38
0.021050485 -0.050928578 0.71300006 1.0893379e-38
0.022345727 -0.05078572 0.71099997 1.135107e-38
0.023700008 -0.050785735 0.71099997 1.1725927e-38
0.0250543 -0.050785705 0.71099997 1.2923356e-38
0.026408581 -0.050785735 0.71099997 1.4026587e-38
0.027762858 -0.050785735 0.71100003 1.2281483e-38
0.029117156 -0.050785735 0.71100003 1.0530904e-38
0.030428609 -0.050714314 0.7100001 8.9643557e-39
0.031780988 -0.050714329 0.7100001 7.302326e-39
0.033133361 -0.050714314 0.7100001 4.9066872e-39
0.034485754 -0.050714314 0.7100001 2.5157371e-39
0.035838127 -0.050714299 0.7100001 7.0102954e-39
0.037190504 -0.050714329 0.7100001 1.1441015e-38
0.038542893 -0.050714314 0.7100001 1.1822363e-38
0.039951451 -0.050785735 0.71100003 1.2182499e-38
0.041305743 -0.05078572 0.71100003 1.2457616e-38
0.042840026 -0.051000014 0.71400005 1.2632601e-38
0.044200018 -0.051000029 0.71400011 1.096944e-38
0.045560028 -0.051000029 0.71400011 9.3120571e-39
-0.029813316 -0.050613359 0.7280001 2.2865242e-38
-0.02834856 -0.050474301 0.72600001 2.277156e-38
-0.026854258 -0.050265744 0.72300005 2.019186e-38
-0.02554762 -0.050404772 0.72500002 1.7707996e-38
-0.024099972 -0.050265715 0.72300005 1.7615441e-38
-0.022722831 -0.050265729 0.72300005 1.7526516e-38
-0.021345688 -0.050265729 0.72300005 1.9275017e-38
-0.019968547 -0.050265729 0.72300005 2.1029952e-38
-0.018591406 -0.050265729 0.72300005 2.1947605e-38
-0.017214263 -0.050265715 0.72300005 2.2864162e-38
-0.01583712 -0.050265729 0.72300005 2.2772681e-38
-0.014439994 -0.050196186 0.72200006 2.2589011e-38
-0.013064737 -0.050196216 0.72200012 2.2589011e-38
-0.011689499 -0.050196201 0.72200012 2.2680488e-38
-0.010314262 -0.050196201 0.72200012 2.2680845e-38
-0.0089142844 -0.050057158 0.72000003 2.2681207e-38
-0.007542856 -0.050057173 0.72000003 2.2498255e-38
-0.0061714072 -0.050057158 0.72000009 2.2406419e-38
-0.0047933115 -0.049987629 0.71900004 2.2404624e-38
-0.003423783 -0.049987644 0.7190001 2.2310991e-38
-0.0020542582 -0.049987629 0.71900004 2.0928791e-38
-0.00068285502 -0.049848571 0.71700001 1.9541484e-38
0.00068286434 -0.049848586 0.71700001 1.6129133e-38
0.0020457357 -0.049779072 0.71600008 1.2716854e-38
0.0034095533 -0.049779072 0.71600008 1.244384e-38
0.0047733486 -0.049779072 0.71600008 1.217019e-38
0.0061200261 -0.04964003 0.71400011 1.3279094e-38
0.0074800123 -0.049640015 0.71400005 1.4382506e-38
0.0088276342 -0.049570501 0.71300006 1.2443865e-38
0.010185735 -0.049570486 0.71300006 1.0508822e-38
0.011543838 -0.049570501 0.71300006 9.2177035e-39
0.012901941 -0.049570501 0.71300006 7.9321452e-39
0.014260031 -0.049570501 0.71300012 1.2823242e-38
0.015618112 -0.049570486 0.71300006 1.77203e-38
0.016976217 -0.049570486 0.71300006 2.0569355e-38
0.018334303 -0.049570501 0.71300006 2.3415807e-38
0.019692408 -0.049570501 0.71300006 1.7520307e-38
0.021050511 -0.049570486 0.71300012 1.1621246e-38
0.022408592 -0.049570486 0.71300006 1.1717677e-38
0.023700014 -0.049431428 0.71100003 1.1819909e-38
0.025054295 -0.049431458 0.71100003 1.2832245e-38
0.026408587 -0.049431443 0.71100003 1.3844357e-38
0.027762868 -0.049431443 0.71100003 1.1637204e-38
0.029117161 -0.049431428 0.71100003 9.4270841e-39
0.030471442 -0.049431458 0.71100003 8.4079561e-39
0.031825736 -0.049431443 0.71100003 7.4841922e-39
0.033180017 -0.049431443 0.71100003 7.296187e-39
0.034534309 -0.049431428 0.71100003 7.103905e-39
0.03588859 -0.049431458 0.71100003 9.2272407e-39
0.037242882 -0.049431443 0.71100003 1.1351683e-38
0.038597163 -0.049431443 0.71100003 1.015211e-38
0.039951455 -0.049431443 0.71100003 8.862805e-39
0.04142195 -0.049570501 0.71300006 1.061519e-38
0.042840023 -0.04964003 0.71400005 1.2359266e-38
0.044200014 -0.04964003 0.71400005 1.0880847e-38
0.045560025 -0.04964003 0.71400011 9.406052e-39
-0.029731395 -0.049091458 0.72600007 2.2958513e-38
-0.028309513 -0.049023822 0.72500002 2.2862341e-38
-0.026965706 -0.049091443 0.72600001 2.0465261e-38
-0.025547611 -0.049023822 0.72500002 1.7984951e-38
-0.024166659 -0.049023822 0.72500002 1.8258273e-38
-0.02272285 -0.048888594 0.72300005 1.8538135e-38
-0.021345707 -0.048888579 0.72300005 2.0751566e-38
-0.019968567 -0.048888579 0.72300005 2.2956706e-38
-0.018642846 -0.049023822 0.72500002 2.2958513e-38
-0.017261896 -0.049023807 0.72500002 2.2957073e-38
-0.015837139 -0.048888594 0.72300005 2.2864875e-38
-0.014499966 -0.049023822 0.72500002 2.2681205e-38
-0.013082856 -0.048888564 0.72300005 2.2681565e-38
-0.011738066 -0.049023822 0.72500002 2.2681207e-38
-0.010314271 -0.048820958 0.72200012 2.2681207e-38
-0.0089390334 -0.048820958 0.72200012 2.258973e-38
-0.0075428449 -0.048685715 0.72000003 2.2406418e-38
-0.006171396 -0.048685759 0.72000003 2.2128757e-38
-0.0047999816 -0.04868573 0.72000003 2.1942933e-38
-0.0034237942 -0.048618093 0.71900004 2.1668144e-38
-0.0020542657 -0.048618123 0.7190001 2.1484115e-38
-0.00068284385 -0.04848288 0.71700001 2.1294651e-38
0.00068285689 -0.048482865 0.71699995 1.8715312e-38
0.0020485781 -0.04848288 0.71700001 1.6037317e-38
0.0034142938 -0.048482865 0.71699995 1.3639135e-38
0.0047733579 -0.048415259 0.71600008 1.1252167e-38
0.0061371531 -0.048415259 0.71600008 1.2446425e-38
0.0075009838 -0.048415259 0.71600008 1.3642784e-38
0.0088400152 -0.048280016 0.71400005 1.2261291e-38
0.010185741 -0.048212394 0.71300006 1.087617e-38
0.011543829 -0.048212379 0.71300006 9.1186849e-39
0.012901932 -0.048212409 0.71300006 7.2896093e-39
0.014260035 -0.048212394 0.71300006 1.0695873e-38
0.015618119 -0.048212394 0.71300006 1.4028183e-38
0.016976204 -0.048212379 0.71300006 1.873408e-38
0.018360032 -0.048280045 0.71400011 2.3320038e-38
0.019692414 -0.048212394 0.71300006 1.7891263e-38
0.021050515 -0.048212394 0.71300006 1.2364915e-38
0.022408584 -0.048212394 0.71300006 1.2170765e-38
0.02370001 -0.048077166 0.71100003 1.1909246e-38
0.025124788 -0.048212394 0.71300006 1.2832981e-38
0.026408585 -0.048077151 0.71100003 1.3659979e-38
0.027762877 -0.048077166 0.71100003 1.0995077e-38
0.029117158 -0.048077166 0.71100003 8.2299828e-39
0.03047145 -0.048077166 0.71100003 7.9394264e-39
0.031825732 -0.048077151 0.71100003 7.5795996e-39
0.033180024 -0.048077181 0.71100003 9.59817e-39
0.034534305 -0.048077166 0.71100003 1.162214e-38
0.035888597 -0.048077181 0.71100003 1.1442416e-38
0.037242882 -0.048077151 0.71100003 1.1250505e-38
0.038597174 -0.048077166 0.71100003 8.3881908e-39
0.039951451 -0.048077181 0.71100003 5.5563474e-39
0.041421942 -0.048212394 0.71300006 8.87246e-39
0.042840037 -0.04828003 0.71400011 1.2082326e-38
0.044200011 -0.048280016 0.71400005 1.0788667e-38
-0.029731395 -0.047708586 0.72600007 2.3049989e-38
-0.028309504 -0.047642857 0.72500002 2.305034e-38
-0.026965706 -0.047708586 0.72600001 2.0563598e-38
-0.025582822 -0.047708586 0.72600001 1.8171507e-38
-0.024166649 -0.047642872 0.72500002 1.7614332e-38
-0.022785719 -0.047642857 0.72500002 1.7064815e-38
-0.021404767 -0.047642857 0.72500002 1.9550892e-38
-0.020023789 -0.047642872 0.72500002 2.1943289e-38
-0.018642837 -0.047642872 0.72500002 2.249754e-38
-0.017261885 -0.047642872 0.72500002 2.2957073e-38
-0.015880935 -0.047642872 0.72500002 2.2864875e-38
-0.014459967 -0.047511429 0.72300005 2.2772682e-38
-0.013082827 -0.047511429 0.72300005 2.2773401e-38
-0.011738075 -0.047642872 0.72500002 2.2865597e-38
-0.010357124 -0.047642872 0.72500002 2.2497896e-38
-0.0089513995 -0.047511443 0.72300005 2.2130911e-38
-0.0075637838 -0.047445729 0.72200012 2.1944368e-38
-0.0061714128 -0.047314301 0.72000009 2.175926e-38
-0.0047999844 -0.047314301 0.72000003 2.1852169e-38
-0.003428556 -0.047314286 0.72000003 2.1852175e-38
-0.0020542582 -0.047248602 0.71900004 2.1761421e-38
-0.00068284199 -0.047117174 0.71700001 2.1672796e-38
0.00068287179 -0.047117174 0.71700001 1.9823512e-38
0.002048593 -0.047117159 0.71700001 1.7975228e-38
0.0034142938 -0.047117159 0.71700001 1.594614e-38
0.0047733467 -0.04705146 0.71600008 1.4008282e-38
0.0061371643 -0.047051445 0.71600008 1.318321e-38
0.0075009745 -0.04705146 0.71600002 1.2358507e-38
0.0088400282 -0.046920016 0.71400011 1.1802134e-38
0.010200016 -0.046920016 0.71400005 1.1340735e-38
0.011560023 -0.046920016 0.71400005 1.0232541e-38
0.012920016 -0.046920031 0.71400011 9.2173896e-39
0.014280023 -0.046920016 0.71400011 1.0230512e-38
0.015640011 -0.046920016 0.71400005 1.1258009e-38
0.01700002 -0.046920016 0.71400011 1.5593377e-38
0.018360028 -0.046920031 0.71400011 1.9922854e-38
0.019720012 -0.046920002 0.71400005 1.6514115e-38
0.021050505 -0.046854317 0.71300006 1.3103203e-38
0.02240861 -0.046854302 0.71300012 1.2457399e-38
0.023766691 -0.046854317 0.71300006 1.1822806e-38
0.025124794 -0.046854302 0.71300006 1.2649687e-38
0.026408596 -0.046722874 0.71100003 1.3477754e-38
0.027762873 -0.046722874 0.71100003 1.0809975e-38
0.029117169 -0.046722874 0.71100003 8.1402899e-39
0.030471446 -0.046722874 0.71100003 1.0067042e-38
0.031825744 -0.046722874 0.71100003 1.2092081e-38
0.033180002 -0.046722859 0.71099997 1.3010789e-38
0.034534298 -0.046722874 0.71099997 1.3936322e-38
0.035888575 -0.046722859 0.71099997 1.2733137e-38
0.037242871 -0.046722874 0.71099997 1.1614962e-38
0.038597148 -0.046722859 0.71099997 8.6690461e-39
0.039951444 -0.046722874 0.71099997 5.7439434e-39
0.041421935 -0.046854302 0.71300006 8.962492e-39
0.042780034 -0.046854302 0.71300012 1.2267794e-38
0.044138119 -0.046854287 0.71300006 1.042098e-38
0.045496207 -0.046854302 0.71300006 8.5763221e-39
-0.029731415 -0.046325728 0.72600001 2.3234019e-38
-0.02834856 -0.046325743 0.72600001 2.3233288e-38
-0.026965702 -0.046325713 0.72600001 2.0750845e-38
-0.025582822 -0.046325743 0.72600007 1.8258665e-38
-0.024166659 -0.046261922 0.72500002 1.6962141e-38
-0.022785708 -0.046261907 0.72500002 1.5593648e-38
-0.021404758 -0.046261922 0.72500002 1.825946e-38
-0.020023806 -0.046261922 0.72500002 2.0932742e-38
-0.018642828 -0.046261922 0.72500002 2.1947605e-38
-0.017261876 -0.046261922 0.72500002 2.2957434e-38
-0.015880926 -0.046261922 0.72500008 2.2864878e-38
-0.014499995 -0.046261907 0.72500002 2.2773042e-38
-0.013082845 -0.046134308 0.72300005 2.2865236e-38
-0.011705702 -0.046134293 0.72300005 2.2957071e-38
-0.010328561 -0.046134293 0.72300005 2.2313146e-38
-0.0089390306 -0.046070501 0.72200012 2.1576665e-38
-0.0075637922 -0.046070501 0.72200012 2.1480522e-38
-0.0061885556 -0.046070486 0.72200012 2.1391915e-38
-0.0047999863 -0.045942888 0.72000003 2.1762129e-38
-0.0034285579 -0.045942873 0.72000003 2.2036562e-38
-0.002057123 -0.045942888 0.72000009 2.2036206e-38
-0.0006828513 -0.045751438 0.71700001 2.2036197e-38
0.00068286806 -0.045751438 0.71700001 2.1022771e-38
0.0020485688 -0.045751452 0.71700001 1.9914235e-38
0.0034143049 -0.045751438 0.71700001 1.8346162e-38
0.0047800057 -0.045751452 0.71700001 1.6685202e-38
0.0061457269 -0.045751438 0.71700001 1.3918987e-38
0.0075009819 -0.045687646 0.71600008 1.1070988e-38
0.008864779 -0.045687646 0.71600002 1.1430776e-38
0.010228593 -0.045687646 0.71600008 1.1712365e-38
0.011592411 -0.045687661 0.71600008 1.1437561e-38
0.012956208 -0.045687646 0.71600008 1.1148428e-38
0.014320023 -0.045687661 0.71600008 9.750812e-39
0.015683834 -0.045687646 0.71600002 8.3995582e-39
0.017047651 -0.045687646 0.71600008 1.2458348e-38
0.018360019 -0.045560017 0.71400011 1.6418e-38
0.019720027 -0.045560017 0.71400011 1.5139084e-38
0.021050511 -0.045496196 0.71300006 1.3747111e-38
0.022408612 -0.04549621 0.71300006 1.2732526e-38
0.023766682 -0.045496196 0.71300006 1.1636612e-38
0.025124786 -0.045496225 0.71300006 1.2465298e-38
0.026482886 -0.045496196 0.71300006 1.319974e-38
0.027762866 -0.045368597 0.71099997 1.0626308e-38
0.029117158 -0.045368582 0.71099997 7.9609405e-39
0.030471439 -0.045368582 0.71099997 1.2280094e-38
0.031825721 -0.045368597 0.71100003 1.6598511e-38
0.033180013 -0.045368597 0.71099997 1.6416629e-38
0.034534294 -0.045368597 0.71099997 1.6231152e-38
0.03588859 -0.045368582 0.71100003 1.4121793e-38
0.037242867 -0.045368597 0.71100003 1.1892262e-38
0.038597159 -0.045368597 0.71100003 8.8372902e-39
0.039951455 -0.045368597 0.71100003 5.8300378e-39
0.041421935 -0.045496225 0.71300006 9.1493902e-39
0.042780042 -0.04549621 0.71300006 1.2357834e-38
0.044014309 -0.045368597 0.71100003 9.9589329e-39
0.045368589 -0.045368597 0.71100003 7.5629087e-39
-0.029813318 -0.045066684 0.7280001 2.3234019e-38
-0.02834856 -0.044942871 0.72600001 2.3233999e-38
-0.027039981 -0.045066684 0.7280001 2.0746887e-38
-0.025582822 -0.044942886 0.72600007 1.834403e-38
-0.024166651 -0.044880971 0.72500002 1.7057905e-38
-0.022785699 -0.044880942 0.72500002 1.5782336e-38
-0.021404749 -0.044880971 0.72500002 1.872474e-38
-0.020023795 -0.044880971 0.72500002 2.1672451e-38
-0.018642845 -0.044880971 0.72500008 2.2407141e-38
-0.017261887 -0.044880971 0.72500002 2.3141823e-38
-0.015880935 -0.044880956 0.72500002 2.3049268e-38
-0.014499985 -0.044880971 0.72500002 2.2956715e-38
-0.013119034 -0.044880971 0.72500002 2.2865236e-38
-0.011738082 -0.044880956 0.72500002 2.2774116e-38
-0.010328559 -0.044757158 0.72300005 2.2128753e-38
-0.0089514162 -0.044757143 0.72300005 2.148375e-38
-0.0075742742 -0.044757158 0.72300005 2.1482669e-38
-0.006188564 -0.044695258 0.72200006 2.1391914e-38
-0.00479999 -0.044571444 0.72000003 2.166886e-38
-0.0034285616 -0.044571459 0.72000003 2.203656e-38
-0.0020571146 -0.044571444 0.72000009 2.1944365e-38
-0.00068284012 -0.044385746 0.71700001 2.1851815e-38
0.00068286061 -0.044385716 0.71700001 2.139264e-38
0.0020485818 -0.044385731 0.71700001 2.0935605e-38
0.0034142826 -0.044385731 0.71700001 2.0193378e-38
0.0047800168 -0.044385731 0.71700001 1.9456469e-38
0.0061457176 -0.044385731 0.71700001 1.751673e-38
0.0075114388 -0.044385716 0.71700001 1.5575564e-38
0.0088771414 -0.044385746 0.71700001 1.4382713e-38
0.010242878 -0.044385731 0.71700001 1.3099925e-38
0.011592399 -0.044323847 0.71600008 1.2265553e-38
0.012956215 -0.044323832 0.71600008 1.1341408e-38
0.014320012 -0.044323832 0.71600008 9.9537803e-39
0.015683843 -0.044323847 0.71600008 8.5802878e-39
0.017047636 -0.044323847 0.71600002 1.0146607e-38
0.018411454 -0.044323832 0.71600008 1.1723588e-38
0.019720023 -0.044200018 0.71400011 1.2551894e-38
0.021080028 -0.044200018 0.71400011 1.3461903e-38
0.022408603 -0.044138104 0.71300006 1.3194552e-38
0.023766704 -0.044138134 0.71300012 1.2923734e-38
0.025124788 -0.044138104 0.71300006 1.310707e-38
0.026482878 -0.044138119 0.71300006 1.3290142e-38
0.027840978 -0.044138104 0.71300006 1.0717789e-38
0.029199082 -0.044138119 0.71300006 8.1431948e-39
0.030471437 -0.04401432 0.71100003 1.2005336e-38
0.031825729 -0.044014305 0.71100003 1.5870317e-38
0.033180013 -0.044014305 0.71100003 1.3931007e-38
0.034534305 -0.04401429 0.71100003 1.2000998e-38
0.035888586 -0.04401432 0.71100003 1.1905187e-38
0.037242878 -0.044014305 0.71100003 1.1708593e-38
0.038597159 -0.044014305 0.71100003 8.9427561e-39
0.039951451 -0.04401429 0.71100003 6.1102064e-39
0.041421942 -0.044138104 0.71300006 9.2390705e-39
0.042780034 -0.044138119 0.71300006 1.2360702e-38
0.04401432 -0.044014305 0.71100003 1.0052561e-38
0.045368597 -0.04401429 0.71100003 7.745149e-39
-0.02981331 -0.043680027 0.7280001 2.3234019e-38
-0.028426666 -0.043680012 0.72800004 2.323256e-38
-0.027039973 -0.043680012 0.72800004 2.0841585e-38
-0.025582818 -0.043560013 0.72600007 1.8349014e-38
-0.024199987 -0.043560013 0.72600001 1.71425e-38
-0.022785688 -0.043500006 0.72500002 1.5961656e-38
-0.021404738 -0.043500006 0.72500002 1.918461e-38
-0.020023808 -0.043500006 0.72500002 2.2312776e-38
-0.018642856 -0.043500006 0.72500002 2.2866677e-38
-0.017261906 -0.043500021 0.72500002 2.3325494e-38
-0.015880926 -0.043499991 0.72500002 2.3233299e-38
-0.014499974 -0.043500021 0.72500002 2.3141104e-38
-0.013119024 -0.043500006 0.72500002 2.2865239e-38
-0.011738072 -0.043500021 0.72500002 2.2589368e-38
-0.01032855 -0.043380007 0.72300005 2.2035481e-38
-0.0089514069 -0.043380007 0.72300005 2.1391195e-38
-0.0075742649 -0.043380022 0.72300005 2.1390835e-38
-0.0061885528 -0.043320015 0.72200012 2.1391554e-38
-0.0048133004 -0.04332003 0.72200012 2.1668139e-38
-0.0034285635 -0.043200001 0.72000003 2.1944005e-38
-0.0020571165 -0.043200016 0.72000009 2.1852887e-38
-0.00068474002 -0.043140024 0.71900004 2.16685e-38
0.00068286061 -0.043020025 0.71700001 2.1852172e-38
0.0020485967 -0.043020025 0.71700001 2.1944362e-38
0.0034142975 -0.04302001 0.71700001 2.2126954e-38
0.0047800187 -0.043020025 0.71700001 2.221768e-38
0.0061457194 -0.04302001 0.71700001 2.1207813e-38
0.0075114332 -0.04302001 0.71699995 2.0094606e-38
0.0088771544 -0.04302001 0.71700001 1.7332665e-38
0.010242855 -0.04302001 0.71700001 1.4480343e-38
0.011608589 -0.04302001 0.71700001 1.2999098e-38
0.01297429 -0.043019995 0.71699995 1.1528986e-38
0.014320035 -0.042960018 0.71600008 1.0143176e-38
0.01568383 -0.042960018 0.71600008 8.6706267e-39
0.017047646 -0.042960018 0.71600008 7.8244232e-39
0.018411445 -0.042960018 0.71600002 7.0252123e-39
0.019720016 -0.042840019 0.71400005 1.006623e-38
0.021080025 -0.042840019 0.71400011 1.3102498e-38
0.022408606 -0.042780012 0.71300006 1.3659926e-38
0.023766695 -0.042780012 0.71300006 1.4210912e-38
0.025124779 -0.042780012 0.71300006 1.3749199e-38
0.02648288 -0.042780012 0.71300006 1.3290856e-38
0.027840985 -0.042780012 0.71300006 1.08107e-38
0.029199073 -0.042780027 0.71300006 8.3279406e-39
0.030557176 -0.042780027 0.71300006 1.1727318e-38
0.031915262 -0.042780012 0.71300006 1.5032305e-38
0.033180021 -0.042660028 0.71100003 1.1435995e-38
0.034534298 -0.042660028 0.71100003 7.7650726e-39
0.035888594 -0.042660028 0.71100003 9.6975515e-39
0.037242886 -0.042660013 0.71100003 1.1524204e-38
0.038597167 -0.042660028 0.71100003 8.9309151e-39
0.039951444 -0.042660028 0.71100003 6.3799746e-39
0.041421935 -0.042780012 0.71300006 9.3355765e-39
0.042780034 -0.042780012 0.71300006 1.2265638e-38
0.044138141 -0.042780027 0.71300006 1.0144746e-38
0.045496207 -0.042780012 0.71300006 7.9316786e-39
-0.029813303 -0.042293355 0.7280001 2.2958154e-38
-0.02834856 -0.042177156 0.72600001 2.2681184e-38
-0.027039992 -0.042293355 0.72800004 2.0377018e-38
-0.025582841 -0.042177156 0.72600001 1.8170329e-38
-0.024199987 -0.042177156 0.72600001 1.7797121e-38
-0.022817129 -0.042177156 0.72600001 1.7430261e-38
-0.021434246 -0.042177141 0.72600001 1.9734163e-38
-0.020051392 -0.042177171 0.72600007 2.2129092e-38
-0.018642845 -0.042119071 0.72500002 2.2590094e-38
-0.017285699 -0.042177156 0.72600001 2.3141465e-38
-0.015880944 -0.042119056 0.72500002 2.3141463e-38
-0.014499964 -0.042119071 0.72500002 2.3142182e-38
-0.013119014 -0.042119071 0.72500002 2.3049989e-38
-0.011738082 -0.042119056 0.72500002 2.2866311e-38
-0.010328548 -0.042002872 0.72300005 2.2127673e-38
-0.0089514051 -0.042002857 0.72300005 2.1480878e-38
-0.007574263 -0.042002887 0.72300005 2.1390476e-38
-0.006197121 -0.042002857 0.72300005 2.1298642e-38
-0.0048133088 -0.041944772 0.72200012 2.1483389e-38
-0.0034380723 -0.041944787 0.72200006 2.1759256e-38
-0.0020571193 -0.041828603 0.72000009 2.1668138e-38
-0.00068473443 -0.041770488 0.7190001 2.1575944e-38
0.00068287365 -0.041654304 0.71700001 2.1575225e-38
0.0020485744 -0.041654289 0.71700001 2.1668141e-38
0.0034143087 -0.041654304 0.71700001 2.2036203e-38
0.0047800094 -0.041654304 0.71700001 2.2497178e-38
0.0061457306 -0.041654289 0.71700001 2.2037646e-38
0.0075114314 -0.041654304 0.71700001 2.1486219e-38
0.0088771675 -0.041654304 0.71700001 1.9731244e-38
0.010242868 -0.041654304 0.71700001 1.7979793e-38
0.011608589 -0.041654289 0.71700001 1.6135431e-38
0.01297429 -0.041654304 0.71700001 1.4204014e-38
0.014340024 -0.041654304 0.71700001 1.2544874e-38
0.015683839 -0.041596204 0.71600008 1.0797129e-38
0.017047632 -0.041596189 0.71600002 9.9598479e-39
0.01841145 -0.041596219 0.71600008 9.2306403e-39
0.019720012 -0.041480005 0.71400005 1.0894895e-38
0.021080021 -0.04148002 0.71400005 1.2650183e-38
0.022408597 -0.04142192 0.71300006 1.3845487e-38
0.023766702 -0.041421935 0.71300006 1.5041067e-38
0.025124783 -0.04142192 0.71300006 1.4210883e-38
0.026482871 -0.04142192 0.71300006 1.3384483e-38
0.027840976 -0.041421905 0.71300006 1.0808544e-38
0.029199077 -0.041421935 0.71300006 8.232159e-39
0.03055718 -0.04142192 0.71300006 1.1449301e-38
0.031915251 -0.04142192 0.71300006 1.466746e-38
0.033273354 -0.041421905 0.71300006 1.3925212e-38
0.034534309 -0.041305736 0.71100003 1.3078965e-38
0.035888601 -0.041305736 0.71100003 1.2637366e-38
0.037242882 -0.041305736 0.71100003 1.2178532e-38
0.038597159 -0.041305721 0.71100003 8.5764847e-39
0.039951436 -0.041305736 0.71099997 5.0924868e-39
0.041421935 -0.041421935 0.71300006 8.4993783e-39
0.042780042 -0.04142192 0.71300006 1.180359e-38
0.044014301 -0.041305721 0.71099997 1.0050391e-38
0.045368582 -0.041305736 0.71099997 8.2964997e-39
-0.029936178 -0.041075245 0.73100001 2.2774842e-38
-0.028426656 -0.040906668 0.7280001 2.2032939e-38
-0.027039984 -0.040906668 0.72800004 1.9998164e-38
-0.025582841 -0.040794313 0.72600001 1.7984925e-38
-0.024199985 -0.040794283 0.72600001 1.8445145e-38
-0.022817129 -0.040794298 0.72600001 1.8815059e-38
-0.021434246 -0.040794313 0.72600007 2.0375608e-38
-0.02005139 -0.040794313 0.72600007 2.1944719e-38
-0.018642837 -0.040738121 0.72500002 2.2406782e-38
-0.017285699 -0.040794283 0.72600001 2.2865599e-38
-0.015880935 -0.040738106 0.72500008 2.304891e-38
-0.014500002 -0.040738106 0.72500002 2.3141823e-38
-0.013119024 -0.040738106 0.72500002 2.3142183e-38
-0.011738073 -0.040738121 0.72500002 2.3141103e-38
-0.010328567 -0.040625721 0.72300005 2.2310992e-38
-0.0089514237 -0.040625721 0.72300005 2.1484111e-38
-0.007563808 -0.040569559 0.72200012 2.1391554e-38
-0.0061885696 -0.040569529 0.72200006 2.1207165e-38
-0.0048132986 -0.040569544 0.72200012 2.1390836e-38
-0.0034285514 -0.040457174 0.72000009 2.1483391e-38
-0.0020571221 -0.040457159 0.72000003 2.1484108e-38
-0.00068474188 -0.040400982 0.7190001 2.1390118e-38
0.00068478286 -0.040400967 0.71900004 2.1388323e-38
0.0020542946 -0.040400967 0.71900004 2.1300081e-38
0.0034238361 -0.040400967 0.7190001 2.203549e-38
0.0047933608 -0.040400982 0.71900004 2.2773046e-38
0.0061628707 -0.040400967 0.71900004 2.2866677e-38
0.0075324159 -0.040400967 0.7190001 2.2864497e-38
0.008877147 -0.040288582 0.71700001 2.2218391e-38
0.010242868 -0.040288582 0.71700001 2.1478248e-38
0.011608582 -0.040288582 0.71700001 1.917475e-38
0.012974301 -0.040288582 0.71700001 1.6875923e-38
0.014340002 -0.040288597 0.71700001 1.4943004e-38
0.01568383 -0.040232405 0.71600008 1.2914012e-38
0.017047647 -0.040232405 0.71600008 1.2170716e-38
0.018411445 -0.04023239 0.71600002 1.1350017e-38
0.01977526 -0.040232405 0.71600008 1.1723896e-38
0.021080012 -0.040120021 0.71400005 1.209591e-38
0.022408603 -0.040063828 0.71300006 1.4029845e-38
0.023766704 -0.040063843 0.71300006 1.5865788e-38
0.025124794 -0.040063828 0.71300012 1.4669365e-38
0.026482878 -0.040063828 0.71300006 1.3382702e-38
0.027840978 -0.040063828 0.71300006 1.0714561e-38
0.029199082 -0.040063828 0.71300006 8.0484866e-39
0.030557172 -0.040063828 0.71300006 1.1169485e-38
0.031915274 -0.040063828 0.71300012 1.4302641e-38
0.033180028 -0.039951459 0.71100003 1.6427042e-38
0.034534302 -0.039951444 0.71099997 1.8435937e-38
0.035888579 -0.039951429 0.71099997 1.559477e-38
0.037242875 -0.039951429 0.71099997 1.2725605e-38
0.038597152 -0.039951444 0.71099997 8.2877023e-39
0.039951447 -0.039951444 0.71099997 3.8039102e-39
0.041421928 -0.040063813 0.71300006 7.5813666e-39
0.042660005 -0.039951429 0.71100003 1.1343699e-38
0.044014297 -0.039951459 0.71100003 9.9571434e-39
0.045368597 -0.039951444 0.71100003 8.5734509e-39
-0.029854259 -0.039574295 0.72900003 2.2681571e-38
-0.02834853 -0.03941144 0.72600007 2.1850687e-38
-0.026965695 -0.039411426 0.72600001 2.0281172e-38
-0.025582841 -0.03941144 0.72600001 1.8631421e-38
-0.024199985 -0.039411455 0.72600001 1.992184e-38
-0.022817129 -0.039411455 0.72600007 2.1121801e-38
-0.021434246 -0.03941144 0.72600007 2.1853617e-38
-0.02005141 -0.039411426 0.72600001 2.2683006e-38
-0.018668555 -0.03941144 0.72600001 2.2774123e-38
-0.017285699 -0.039411455 0.72600001 2.2864882e-38
-0.015880944 -0.039357156 0.72500002 2.2957434e-38
-0.014499994 -0.039357156 0.72500002 2.3049988e-38
-0.013119042 -0.039357156 0.72500002 2.3049989e-38
-0.011738092 -0.039357156 0.72500002 2.3142183e-38
-0.010328565 -0.039248601 0.72300005 2.268157e-38
-0.0089514218 -0.039248586 0.72300005 2.2314222e-38
-0.007563768 -0.039194301 0.72200012 2.1668138e-38
-0.0061885295 -0.039194331 0.72200012 2.1022778e-38
-0.004813307 -0.039194316 0.72200012 2.0654359e-38
-0.0034380686 -0.039194301 0.72200012 2.0289529e-38
-0.0020571249 -0.039085746 0.72000003 2.0102989e-38
-0.00068473257 -0.039031461 0.7190001 2.0010431e-38
0.00068479218 -0.039031446 0.71900004 2.0745111e-38
0.0020543002 -0.039031461 0.71900004 2.1485905e-38
0.0034238454 -0.039031446 0.7190001 2.2222035e-38
0.0047933534 -0.039031461 0.71900004 2.3050348e-38
0.0061628781 -0.039031431 0.71900004 2.2958513e-38
0.0075324085 -0.039031446 0.7190001 2.2866677e-38
0.0088771582 -0.038922861 0.71700001 2.2589736e-38
0.010242859 -0.038922861 0.71700001 2.2407463e-38
0.01160858 -0.038922876 0.71700001 2.1022718e-38
0.012974294 -0.038922861 0.71700001 1.9733298e-38
0.014340015 -0.038922876 0.71700001 1.7705606e-38
0.015705716 -0.038922861 0.71700001 1.5765936e-38
0.017071437 -0.038922876 0.71700001 1.3834158e-38
0.018411448 -0.038868591 0.71600008 1.199859e-38
0.019775247 -0.038868591 0.71600002 1.1632031e-38
0.021080008 -0.038760006 0.71400005 1.1265415e-38
0.022440013 -0.038760021 0.71400005 1.2831648e-38
0.023800021 -0.038760021 0.71400011 1.430494e-38
0.025124796 -0.038705751 0.71300006 1.4120169e-38
0.026482876 -0.038705721 0.71300006 1.3844404e-38
0.027840966 -0.038705751 0.71300006 1.1175535e-38
0.029199073 -0.038705736 0.71300006 8.5062292e-39
0.030557176 -0.038705736 0.71300006 1.1076569e-38
0.031915266 -0.038705736 0.71300012 1.3753076e-38
0.033180017 -0.038597167 0.71099997 1.6335595e-38
0.034534294 -0.038597152 0.71100003 1.8908051e-38
0.03588859 -0.038597167 0.71099997 1.5407167e-38
0.037242867 -0.038597152 0.71100003 1.1902678e-38
0.038597167 -0.038597167 0.71100003 7.7460122e-39
0.039951444 -0.038597152 0.71100003 3.5298288e-39
0.041305725 -0.038597167 0.71100003 7.489157e-39
0.042660017 -0.038597167 0.71100003 1.1348724e-38
0.044014312 -0.038597167 0.71100003 9.9603945e-39
-0.029854288 -0.038185745 0.72900003 2.2591171e-38
-0.028426642 -0.038133353 0.72800004 2.1663788e-38
-0.027039977 -0.038133353 0.7280001 2.046126e-38
-0.025653331 -0.038133338 0.72800004 1.9275707e-38
-0.024199985 -0.038028598 0.72600001 2.1397308e-38
-0.022817101 -0.038028568 0.72600001 2.341769e-38
-0.021434247 -0.038028583 0.72600007 2.341769e-38
-0.02005141 -0.038028598 0.72600001 2.3325853e-38
-0.018668555 -0.038028583 0.72600001 2.3049628e-38
-0.017285701 -0.038028598 0.72600001 2.2773402e-38
-0.015880933 -0.03797619 0.72500002 2.2865595e-38
-0.014499984 -0.03797619 0.72500002 2.2957432e-38
-0.013119031 -0.03797622 0.72500002 2.3049628e-38
-0.011738081 -0.037976205 0.72500002 2.3049629e-38
-0.01035713 -0.03797622 0.72500008 2.3142183e-38
-0.0089514134 -0.037871435 0.72300005 2.3140744e-38
-0.0075742705 -0.03787145 0.72300005 2.2035486e-38
-0.0061971284 -0.037871435 0.72300005 2.0837307e-38
-0.0048199855 -0.037871435 0.72300005 1.991356e-38
-0.0034380779 -0.037819058 0.72200012 1.8997361e-38
-0.0020628395 -0.037819058 0.72200006 1.8811902e-38
-0.00068474747 -0.037661925 0.71900004 1.8536756e-38
0.00068478286 -0.037661925 0.71900004 2.009545e-38
0.0020543076 -0.037661925 0.71900004 2.1576307e-38
0.0034238156 -0.037661895 0.71900004 2.24075e-38
0.0047933627 -0.03766194 0.71900004 2.3234019e-38
0.0061628707 -0.037661925 0.71900004 2.3049988e-38
0.0075323954 -0.03766191 0.71900004 2.2774483e-38
0.0089019258 -0.03766191 0.71900004 2.3050348e-38
0.010242872 -0.037557155 0.71700001 2.3234001e-38
0.011608593 -0.037557155 0.71700001 2.2958476e-38
0.012974294 -0.03755717 0.71700001 2.2586761e-38
0.014339995 -0.037557155 0.71699995 2.0563443e-38
0.015705727 -0.037557155 0.71700001 1.8532947e-38
0.017071428 -0.03755714 0.71699995 1.5585532e-38
0.018437149 -0.037557155 0.71700001 1.264468e-38
0.019775257 -0.037504777 0.71600008 1.1540181e-38
0.021080021 -0.037400022 0.71400011 1.0438159e-38
0.022440009 -0.037400037 0.71400005 1.1634536e-38
0.023800017 -0.037400007 0.71400005 1.2740505e-38
0.025124788 -0.03734763 0.71300006 1.3569891e-38
0.026520031 -0.037400022 0.71400011 1.430287e-38
0.027880019 -0.037400037 0.71400005 1.163686e-38
0.029199073 -0.037347645 0.71300006 8.8710502e-39
0.030557161 -0.03734763 0.71300006 1.0969294e-38
0.03191527 -0.03734763 0.71300006 1.310484e-38
0.033180013 -0.037242875 0.71100003 1.6254521e-38
0.034534305 -0.037242875 0.71100003 1.936325e-38
0.035888586 -0.037242875 0.71100003 1.5223072e-38
0.037242878 -0.037242875 0.71100003 1.1054601e-38
0.038597159 -0.037242875 0.71100003 7.1723991e-39
0.039951455 -0.037242875 0.71100003 3.2510937e-39
0.041421931 -0.03734763 0.71300006 7.3123019e-39
0.042780027 -0.037347645 0.71300006 1.1347281e-38
0.044138126 -0.03734763 0.71300006 9.9600175e-39
-0.029854292 -0.036797136 0.72900003 2.2128764e-38
-0.028465694 -0.036797151 0.72900003 2.0925161e-38
-0.027077144 -0.036797151 0.72900003 1.9728372e-38
-0.025688576 -0.036797151 0.72900003 1.863322e-38
-0.024266658 -0.036746666 0.72800004 2.0290978e-38
-0.022879966 -0.036746696 0.7280001 2.1948322e-38
-0.021493321 -0.036746666 0.72800004 2.194617e-38
-0.02005141 -0.03664574 0.72600001 2.1948321e-38
-0.018668555 -0.03664574 0.72600001 2.2405702e-38
-0.017285671 -0.03664574 0.72600001 2.2771966e-38
-0.015880924 -0.03659524 0.72500002 2.2680845e-38
-0.014499974 -0.036595255 0.72500002 2.2589011e-38
-0.013119023 -0.036595255 0.72500002 2.2681205e-38
-0.011738092 -0.036595255 0.72500002 2.2773045e-38
-0.010357141 -0.036595255 0.72500002 2.2957436e-38
-0.0089761885 -0.03659524 0.72500002 2.3142182e-38
-0.0075742695 -0.0364943 0.72300005 2.2036566e-38
-0.0061971266 -0.0364943 0.72300005 2.0836942e-38
-0.0048199845 -0.0364943 0.72300005 1.9913184e-38
-0.0034380658 -0.03644383 0.72200012 1.9086673e-38
-0.0020628292 -0.03644383 0.72200012 1.8903369e-38
-0.00068570115 -0.036342874 0.72000003 1.8810823e-38
0.00068479031 -0.036292404 0.71900004 2.0194102e-38
0.0020571612 -0.036342874 0.72000009 2.1672807e-38
0.0034285896 -0.036342874 0.72000003 2.1762857e-38
0.0047933534 -0.036292404 0.7190001 2.1948321e-38
0.0061628781 -0.036292389 0.71900004 2.2406421e-38
0.007532388 -0.036292404 0.71900004 2.2773764e-38
0.0089019313 -0.036292389 0.7190001 2.2866318e-38
0.010271441 -0.036292374 0.71900004 2.3050348e-38
0.011640965 -0.036292389 0.71900004 2.2958513e-38
0.012974307 -0.036191449 0.71700001 2.2866677e-38
0.014340008 -0.036191449 0.71700001 2.1852899e-38
0.015705731 -0.036191449 0.71700001 2.093118e-38
0.017071446 -0.036191434 0.71700001 1.8351399e-38
0.01841145 -0.036140993 0.71600008 1.5678851e-38
0.019775258 -0.036140978 0.71600002 1.3010249e-38
0.021139074 -0.036140978 0.71600008 1.0342716e-38
0.022440024 -0.036040023 0.71400011 1.1540524e-38
0.02380001 -0.036040023 0.71400005 1.2738708e-38
0.025160016 -0.036040023 0.71400005 1.3845056e-38
0.026520027 -0.036040008 0.71400011 1.5037202e-38
0.02788003 -0.036040023 0.71400011 1.2370104e-38
0.029199064 -0.035989538 0.71300006 9.69792e-39
0.030557169 -0.035989538 0.71300006 9.0457571e-39
0.03191527 -0.035989538 0.71300006 8.5040894e-39
0.033273362 -0.035989538 0.71300012 1.1450736e-38
0.034534302 -0.035888597 0.71100003 1.4394414e-38
0.035888594 -0.035888597 0.71100003 1.2167323e-38
0.037242875 -0.035888597 0.71100003 9.9202571e-39
0.038597167 -0.035888582 0.71100003 6.9926741e-39
0.039951462 -0.035888597 0.71100003 4.1733947e-39
0.041421924 -0.035989523 0.71300006 8.0423223e-39
0.042780027 -0.035989538 0.71300006 1.1991913e-38
0.045252401 -0.036898106 0.73100001 1.0143312e-38
0.046644773 -0.036898091 0.73100001 8.2893068e-39
0.048037164 -0.036898121 0.73100001 8.0137246e-39
-0.029936172 -0.035505727 0.73100001 2.1764651e-38
-0.028543813 -0.035505727 0.73100001 2.0100409e-38
-0.027077125 -0.035408571 0.72900003 1.8985744e-38
-0.025688576 -0.035408571 0.72900003 1.789453e-38
-0.024299979 -0.035408586 0.72900003 1.9184939e-38
-0.022879986 -0.035360023 0.7280001 2.0377745e-38
-0.021493293 -0.035360008 0.7280001 2.0469962e-38
-0.020051412 -0.035262868 0.72600001 2.0565395e-38
-0.018668555 -0.035262883 0.72600001 2.1669584e-38
-0.017285671 -0.035262883 0.72600007 2.2772685e-38
-0.015902836 -0.035262868 0.72600001 2.2497177e-38
-0.014519981 -0.035262868 0.72600001 2.2221669e-38
-0.013119033 -0.035214305 0.72500002 2.2312787e-38
-0.011738081 -0.035214305 0.72500002 2.2405343e-38
-0.01035713 -0.035214305 0.72500002 2.2772686e-38
-0.0089761801 -0.03521429 0.72500002 2.3141463e-38
-0.0075742872 -0.035117164 0.72300005 2.2040156e-38
-0.0061971452 -0.035117149 0.72300005 2.0835865e-38
-0.0048199892 -0.035117164 0.72300005 1.9999633e-38
-0.0034428481 -0.035117149 0.72300005 1.9086314e-38
-0.0020657061 -0.035117149 0.72300005 1.9088123e-38
-0.00068570487 -0.034971446 0.72000003 1.9088845e-38
0.00068574399 -0.034971446 0.72000009 2.0380286e-38
0.0020571593 -0.034971446 0.72000003 2.1667416e-38
0.0034285877 -0.034971446 0.72000003 2.1206442e-38
0.0048000161 -0.034971446 0.72000003 2.0656514e-38
0.00617145 -0.034971461 0.72000009 2.1761777e-38
0.0075428784 -0.034971461 0.72000003 2.2773042e-38
0.0089142919 -0.034971446 0.72000003 2.277376e-38
0.010271449 -0.034922883 0.71900004 2.2773761e-38
0.011640973 -0.034922853 0.71900004 2.2958151e-38
0.013010503 -0.034922883 0.7190001 2.3049988e-38
0.014380027 -0.034922853 0.71900004 2.3234019e-38
0.015705721 -0.034825727 0.71700001 2.3323276e-38
0.017071443 -0.034825742 0.71700001 2.1025885e-38
0.018437142 -0.034825727 0.71700001 1.8716306e-38
0.019775268 -0.034777164 0.71600008 1.4479255e-38
0.021139083 -0.034777179 0.71600008 1.0252298e-38
0.022440016 -0.034680039 0.71400011 1.1446504e-38
0.023800025 -0.034680009 0.71400011 1.2647939e-38
0.025160013 -0.034680024 0.71400005 1.4218152e-38
0.026520019 -0.034680009 0.71400005 1.5772612e-38
0.027880026 -0.034680039 0.71400011 1.3199497e-38
0.029199069 -0.034631446 0.71300006 1.0524441e-38
0.030557161 -0.034631431 0.71300006 7.1957741e-39
0.031915262 -0.034631446 0.71300006 3.8079039e-39
0.033273369 -0.034631446 0.71300006 6.5575878e-39
0.034631446 -0.034631446 0.71300006 9.3258879e-39
0.035989553 -0.034631431 0.71300006 9.1314157e-39
0.037347641 -0.034631446 0.71300006 8.8401138e-39
0.038705744 -0.034631446 0.71300006 6.8882395e-39
0.040063847 -0.034631446 0.71300006 4.9948751e-39
0.042293355 -0.035360008 0.72800004 8.7834733e-39
0.043680031 -0.035360023 0.7280001 1.2542206e-38
0.045252398 -0.035505727 0.73100007 1.0331991e-38
0.04670858 -0.035554305 0.73200005 8.1131692e-39
0.048102893 -0.03555432 0.73200011 8.0126639e-39
-0.029936194 -0.034113333 0.73100001 2.2497541e-38
-0.028543787 -0.034113333 0.73100001 2.1664816e-38
-0.02715143 -0.034113333 0.73100001 2.0466899e-38
-0.025688577 -0.034020007 0.72899997 1.918196e-38
-0.024299981 -0.034020007 0.72900003 1.8995101e-38
-0.022879977 -0.033973351 0.72800004 1.8896853e-38
-0.021493314 -0.033973351 0.7280001 1.9638038e-38
-0.02005141 -0.03388001 0.72600001 2.0469243e-38
-0.018668555 -0.033880025 0.72600007 2.176142e-38
-0.017285671 -0.03388004 0.72600007 2.3050345e-38
-0.015902836 -0.033879995 0.72600001 2.2773761e-38
-0.014519981 -0.033880025 0.72600001 2.2589371e-38
-0.013119023 -0.033833355 0.72500002 2.258937e-38
-0.011738072 -0.033833355 0.72500002 2.2680848e-38
-0.01035712 -0.033833355 0.72500002 2.2865236e-38
-0.0089761689 -0.03383334 0.72500002 2.3049986e-38
-0.0075952178 -0.033833355 0.72500008 2.1944376e-38
-0.0062142871 -0.03383334 0.72500002 2.0834068e-38
-0.0048333229 -0.033833355 0.72500002 2.0557096e-38
-0.0034428332 -0.033739999 0.72300005 2.0283404e-38
-0.0020656912 -0.033740014 0.72300005 1.982353e-38
-0.00068570673 -0.033600017 0.72000003 1.9361845e-38
0.00068574212 -0.033600017 0.72000009 2.0562523e-38
0.0020571575 -0.033600017 0.72000003 2.1757448e-38
