# .PCD v0.7 - Point Cloud Data file format
VERSION 0.7
FIELDS x y z rgb
SIZE 4 4 4 4
TYPE F F F F
COUNT 1 1 1 1
WIDTH 979
HEIGHT 1
VIEWPOINT 0 0 0 1 0 0 0
POINTS 979
DATA ascii
-0.017666683 0.024733327 0.74199998 1.1995528e-38
-0.016253348 0.024733335 0.74199998 1.0326341e-38
-0.014859994 0.024766654 0.74300003 8.66253e-39
-0.013426682 0.024733327 0.74199998 7.1838252e-39
-0.012013349 0.024733327 0.74199998 5.786257e-39
-0.010571416 0.02466666 0.74000001 1.0599423e-38
-0.0091618923 0.024666667 0.74000001 1.5507262e-38
-0.0077523957 0.02466666 0.74000001 1.9279353e-38
-0.0063428711 0.024666674 0.73999995 2.3049631e-38
-0.004933347 0.024666674 0.73999995 2.1115345e-38
-0.0035190536 0.024633326 0.73899996 1.9178856e-38
-0.0021057054 0.024566665 0.73700005 1.1800753e-38
-0.00070190802 0.024566658 0.73700005 4.5181562e-39
0.0007018894 0.02456668 0.73699999 3.4222581e-39
0.0021057194 0.024566658 0.73700005 2.4257149e-39
0.0035095168 0.024566673 0.73700005 4.8220614e-39
0.0049133329 0.024566658 0.73700005 7.2184023e-39
0.0063171452 0.024566658 0.73700005 8.1382006e-39
0.0077104727 0.024533331 0.736 9.149826e-39
0.0091123655 0.024533331 0.736 8.2307535e-39
0.010514279 0.024533331 0.73600006 7.4045928e-39
0.011916185 0.024533324 0.736 7.4053103e-39
0.013318096 0.024533331 0.73600006 7.405669e-39
0.014719989 0.024533331 0.736 7.0358159e-39
0.0161219 0.024533331 0.73600006 6.6623642e-39
0.017523794 0.024533339 0.736 6.4761695e-39
0.018874271 0.024466671 0.73399997 6.3843368e-39
0.020272374 0.024466656 0.73400003 5.1890432e-39
0.021670457 0.024466671 0.73399997 3.9926665e-39
0.023131417 0.024533339 0.736 9.0525829e-39
0.024533344 0.024533324 0.73600006 1.4028574e-38
0.025970476 0.024566658 0.73700005 1.5318947e-38
0.027374288 0.024566673 0.73700005 1.6596731e-38
-0.048048563 0.026534274 0.75300002 9.698283e-39
-0.046614271 0.026534274 0.75299996 7.7517743e-39
-0.045180012 0.026534282 0.75299996 3.9631761e-39
-0.043687612 0.02649904 0.75200003 1.125607e-40
-0.04225523 0.02649904 0.75200009 4.8883834e-39
-0.040822845 0.02649904 0.75200003 9.6035916e-39
-0.039285719 0.026428565 0.75000006 1.55984e-38
-0.037857167 0.026428558 0.75 2.148089e-38
-0.036331411 0.02635809 0.74800003 2.1024219e-38
-0.034906652 0.02635809 0.74800003 2.0470692e-38
-0.033437137 0.026322842 0.74700004 2.0469256e-38
-0.032014299 0.026322849 0.74699998 2.0377061e-38
-0.030591441 0.026322857 0.74699998 2.1117487e-38
-0.029090481 0.026252382 0.745 2.1760341e-38
-0.027671432 0.026252382 0.745 2.1945093e-38
-0.026252387 0.026252374 0.745 2.2037642e-38
-0.02483334 0.026252382 0.745 2.2220592e-38
-0.023351431 0.026181906 0.74300003 2.2310979e-38
-0.021936193 0.026181899 0.74300003 2.2219131e-38
-0.020520955 0.026181906 0.74300003 2.2123337e-38
-0.019105718 0.026181899 0.74300003 2.1573747e-38
-0.01769048 0.026181899 0.74300003 2.0923362e-38
-0.016275242 0.026181906 0.74300003 1.9085216e-38
-0.014860004 0.026181899 0.74300003 1.7142663e-38
-0.013426682 0.026146665 0.74199998 1.428642e-38
-0.012013348 0.02614665 0.74199998 1.1425892e-38
-0.010600015 0.026146658 0.74199998 1.1320789e-38
-0.0091619184 0.02607619 0.73999995 1.1176978e-38
-0.0077523943 0.026076205 0.73999995 1.6979874e-38
-0.0063428497 0.026076183 0.74000001 2.2772329e-38
-0.0049333246 0.026076198 0.74000001 2.2591171e-38
-0.0035190498 0.026040949 0.73900002 2.230487e-38
-0.0021057148 0.025970466 0.73700005 1.558291e-38
-0.00070190337 0.025970474 0.73700005 8.8509318e-39
0.00070191454 0.025970459 0.73700005 4.9644179e-39
0.0021057092 0.025970474 0.73700005 1.1310356e-39
0.0035095196 0.025970481 0.73700005 2.8874217e-39
0.0049133375 0.025970481 0.73700005 4.6405526e-39
0.0063171349 0.025970481 0.73700005 5.3806246e-39
0.0077104755 0.025935225 0.736 6.0245492e-39
0.0091123665 0.025935225 0.736 6.5752035e-39
0.01051428 0.025935233 0.73600006 7.0365334e-39
0.011916186 0.025935225 0.736 7.2216393e-39
0.013318097 0.025935233 0.73600006 7.3138335e-39
0.01471999 0.025935233 0.736 6.8542973e-39
0.016121903 0.025935233 0.73600006 6.2968117e-39
0.017523794 0.025935233 0.736 6.2910552e-39
0.018925721 0.02593524 0.73600006 6.2003029e-39
0.020327611 0.02593524 0.736 5.2812389e-39
0.021670464 0.025864765 0.73399997 4.3617993e-39
0.023131417 0.02593524 0.736 9.0497074e-39
0.02453333 0.025935225 0.73600006 1.3749113e-38
0.025970481 0.025970481 0.73700005 1.5232126e-38
0.027374277 0.025970474 0.73700005 1.6686407e-38
-0.048176203 0.02804286 0.755 9.7879731e-39
-0.046738133 0.028042853 0.755 7.9429913e-39
-0.045300011 0.028042845 0.75500005 4.5310664e-39
-0.043745708 0.027968548 0.75300002 1.2239025e-39
-0.042311415 0.027968571 0.75299996 3.057374e-39
-0.040822845 0.027931422 0.75200003 4.9063299e-39
-0.039285723 0.027857125 0.75000006 1.2554913e-38
-0.037857145 0.027857147 0.75000006 2.0289182e-38
-0.036331397 0.027782857 0.74800003 2.0381375e-38
-0.034860015 0.027745724 0.74699998 2.0467463e-38
-0.033437159 0.027745716 0.74699998 1.7338592e-38
-0.032014273 0.027745709 0.74699998 1.4214752e-38
-0.030591438 0.027745709 0.74699998 1.5130596e-38
-0.029168582 0.027745716 0.74699998 1.6066178e-38
-0.027671417 0.027671412 0.74500006 1.7991143e-38
-0.026252389 0.027671434 0.745 1.9833593e-38
-0.024833342 0.027671427 0.745 2.0934184e-38
-0.023351412 0.027597144 0.74300003 2.1945451e-38
-0.021995248 0.027671419 0.745 2.2221316e-38
-0.020520937 0.027597137 0.74300003 2.2404271e-38
-0.019105699 0.027597137 0.74300003 2.2128764e-38
-0.017690461 0.027597137 0.74300003 2.1946887e-38
-0.016275223 0.027597129 0.74300003 2.0932392e-38
-0.014859986 0.027597137 0.74300003 2.0015449e-38
-0.013444748 0.027597137 0.74300003 1.8535656e-38
-0.012013348 0.027559996 0.74200004 1.706517e-38
-0.010600014 0.027559988 0.74199998 1.6502993e-38
-0.009161897 0.027485713 0.74000001 1.5869174e-38
-0.0077523729 0.027485706 0.73999995 1.9276833e-38
-0.0063428767 0.027485713 0.73999995 2.2774837e-38
-0.0049333526 0.027485706 0.73999995 2.2774842e-38
-0.0035190517 0.027448557 0.73900002 2.2774113e-38
-0.0021057101 0.02737429 0.73700005 1.8164748e-38
-0.00070191361 0.027374282 0.73700005 1.3552842e-38
0.0007019043 0.027374282 0.73700005 7.1035084e-39
0.0021057148 0.027374282 0.73700005 6.7435527e-40
0.0035095112 0.027374297 0.73699999 2.1491532e-39
0.0049133291 0.027374282 0.73700005 3.7186131e-39
0.0063171396 0.02737429 0.73700005 4.7345475e-39
0.0077209566 0.027374282 0.73700005 5.6554136e-39
0.0091123665 0.027337141 0.736 6.2082202e-39
0.01051428 0.027337126 0.73600006 6.6688326e-39
0.011916186 0.027337156 0.736 6.8542973e-39
0.013318099 0.027337141 0.73600006 7.0394032e-39
0.01471999 0.027337134 0.736 6.6695501e-39
0.016121903 0.027337134 0.73600006 6.3900779e-39
0.017523794 0.027337141 0.736 6.1102456e-39
0.018925721 0.027337141 0.73600006 5.9255111e-39
0.020327615 0.027337134 0.736 5.1886859e-39
0.021670474 0.027262859 0.73400003 4.4500461e-39
0.023131417 0.027337141 0.736 8.8663895e-39
0.024533344 0.027337141 0.73600006 1.3288135e-38
0.025935238 0.027337141 0.736 1.504127e-38
0.027374281 0.02737429 0.73699999 1.6780031e-38
-0.04824001 0.02951999 0.75599998 9.8808848e-39
-0.046738114 0.029480942 0.75500005 8.1270238e-39
-0.045300014 0.029480942 0.75500005 5.1778665e-39
-0.043745715 0.029402852 0.75299996 2.2333797e-39
-0.042311426 0.029402852 0.75299996 1.2109825e-39
-0.040822845 0.029363804 0.75200003 1.2514576e-40
-0.039285731 0.029285707 0.75000006 9.6090006e-39
-0.037857156 0.029285707 0.75000006 1.9087428e-38
-0.036428582 0.029285699 0.75000006 1.9836104e-38
-0.034906644 0.029207617 0.74800003 2.046494e-38
-0.033481885 0.02920761 0.74800003 1.4202884e-38
-0.032014299 0.029168561 0.74699998 7.9483737e-39
-0.030591438 0.029168576 0.74699998 9.1235698e-39
-0.029168556 0.029168569 0.74700004 1.0336475e-38
-0.027745722 0.029168569 0.74699998 1.4027862e-38
-0.02625237 0.029090457 0.74500006 1.7612678e-38
-0.024833344 0.029090486 0.745 1.9645619e-38
-0.023414297 0.029090472 0.745 2.1574163e-38
-0.02199525 0.029090464 0.745 2.2131992e-38
-0.020576203 0.029090479 0.745 2.2679775e-38
-0.019105708 0.029012367 0.74300003 2.2773045e-38
-0.01769047 0.029012375 0.74300003 2.2864882e-38
-0.016275233 0.029012367 0.74300003 2.2865601e-38
-0.014859995 0.029012367 0.74300003 2.2865231e-38
-0.013444757 0.029012375 0.74300003 2.2774819e-38
-0.012029519 0.02901236 0.74300003 2.267722e-38
-0.010600014 0.028973326 0.74200004 2.1665571e-38
-0.0091866795 0.028973326 0.74200004 2.0559986e-38
-0.0077523789 0.028895229 0.74000001 2.1666344e-38
-0.0063428544 0.028895222 0.74000001 2.2680129e-38
-0.0049333302 0.028895237 0.74000001 2.2958513e-38
-0.0035190331 0.028856166 0.73900002 2.3140384e-38
-0.0021057194 0.028778084 0.73700005 2.0656874e-38
-0.00070190895 0.028778099 0.73700005 1.8156463e-38
0.00070190895 0.028778084 0.73700005 9.1307095e-39
0.0021057045 0.028778099 0.73700005 1.2405275e-40
0.0035095364 0.028778076 0.73700005 1.4998294e-39
0.0049133319 0.028778099 0.73700005 2.7963023e-39
0.0063171294 0.028778091 0.73700005 4.091699e-39
0.0077104773 0.02873905 0.73600006 5.2873541e-39
0.0091123702 0.02873905 0.736 5.8408782e-39
0.010514282 0.02873905 0.73600006 6.3014907e-39
0.011916188 0.02873905 0.736 6.5787908e-39
0.013318101 0.028739035 0.73600006 6.7621031e-39
0.014719994 0.02873905 0.736 6.5777146e-39
0.016121905 0.028739035 0.73600006 6.3907982e-39
0.017523797 0.02873905 0.736 6.0176997e-39
0.018925723 0.028739043 0.73600006 5.5581719e-39
0.020327618 0.028739043 0.736 5.0982853e-39
0.021729529 0.028739043 0.73600006 4.5447514e-39
0.023131421 0.028739043 0.736 8.677339e-39
0.024533333 0.028739043 0.73600006 1.2828246e-38
0.025935242 0.028739043 0.736 1.4864425e-38
-0.048176218 0.030919045 0.755 9.973079e-39
-0.046738096 0.03091903 0.75500005 8.3124913e-39
-0.045300022 0.03091903 0.75500005 5.4566072e-39
-0.043745726 0.030837126 0.75299996 2.6057495e-39
-0.042311415 0.030837141 0.75300002 1.3096367e-39
-0.040822841 0.030796185 0.75199997 1.1043773e-40
-0.039285708 0.030714273 0.75000006 7.851209e-39
-0.03785716 0.030714266 0.75000006 1.5595168e-38
-0.03642856 0.030714259 0.75000006 1.826701e-38
-0.034906659 0.030632362 0.74800003 2.1016299e-38
-0.033481888 0.030632384 0.74800003 1.6226466e-38
-0.032057125 0.030632377 0.74800003 1.1516646e-38
-0.030591436 0.030591436 0.74699998 8.3802244e-39
-0.029168578 0.030591421 0.74699998 5.2510563e-39
-0.027745722 0.030591421 0.74700004 7.0132031e-39
-0.026322858 0.030591436 0.74699998 8.8624757e-39
-0.024900002 0.030591421 0.74699998 9.8837925e-39
-0.023414301 0.030509517 0.745 1.0910483e-38
-0.022054283 0.030591436 0.74699998 1.3849218e-38
-0.020576205 0.030509524 0.745 1.6797279e-38
-0.01915713 0.030509517 0.745 1.8265928e-38
-0.017690482 0.03042762 0.74300003 1.9832874e-38
-0.016319055 0.030509531 0.745 2.093562e-38
-0.014900009 0.030509517 0.745 2.2131993e-38
-0.013444739 0.030427612 0.74300003 2.2499335e-38
-0.012029501 0.030427612 0.74300003 2.2866671e-38
-0.010614263 0.030427597 0.74300003 2.1667423e-38
-0.0091990251 0.03042762 0.74300003 2.0467459e-38
-0.0077733449 0.030386657 0.74200004 2.0743678e-38
-0.0063600112 0.030386657 0.74200004 2.1116412e-38
-0.0049466779 0.030386649 0.74200004 2.2038005e-38
-0.0035237987 0.030304752 0.74000001 2.3049989e-38
-0.0021057157 0.0301819 0.73700005 2.1576675e-38
-0.00070191827 0.030181892 0.73699999 2.0193713e-38
0.00070191361 0.030181907 0.73700005 1.3278736e-38
0.0021057092 0.030181907 0.73700005 6.4560315e-39
0.0035095261 0.0301819 0.73700005 3.9750648e-39
0.0049133366 0.0301819 0.73700005 1.5080858e-39
0.006317134 0.030181915 0.73699999 3.2597986e-39
0.0077209519 0.0301819 0.73700005 5.0107715e-39
0.0091247614 0.030181907 0.73700005 5.6557723e-39
0.010514282 0.030140951 0.73600006 6.3004145e-39
0.011916175 0.030140951 0.736 6.6688326e-39
0.013318101 0.030140936 0.73600006 6.9443391e-39
0.014719994 0.030140951 0.736 6.9450566e-39
0.016121905 0.030140944 0.73600006 6.8524896e-39
0.017523797 0.030140951 0.736 6.3871997e-39
0.018925726 0.030140936 0.73600006 5.9251579e-39
0.020327618 0.030140951 0.736 5.2815976e-39
0.021729529 0.030140944 0.73600006 4.7291413e-39
0.023131421 0.030140951 0.736 8.5905271e-39
0.024566671 0.0301819 0.73700005 1.2462344e-38
0.025970481 0.0301819 0.73700005 1.4765782e-38
0.027374297 0.0301819 0.73700005 1.7148101e-38
-0.048240013 0.03239999 0.75599998 1.0069578e-38
-0.046738129 0.032357134 0.75500005 8.4046925e-39
-0.045300025 0.032357126 0.755 5.6388558e-39
-0.043861926 0.032357141 0.755 2.8809043e-39
-0.042311423 0.032271415 0.75299996 1.4954643e-39
-0.040877134 0.032271422 0.75299996 1.168725e-40
-0.03939046 0.032228559 0.75200003 6.0905014e-39
-0.037958104 0.032228567 0.75200003 1.2092478e-38
-0.036428567 0.032142833 0.75000006 1.6804095e-38
-0.035000019 0.03214284 0.75000006 2.1479792e-38
-0.0334819 0.032057129 0.74800003 1.8261584e-38
-0.032057133 0.032057159 0.74799997 1.5017171e-38
-0.030591438 0.032014281 0.74699998 7.5382795e-39
-0.02920761 0.032057129 0.74800003 1.0250218e-40
-0.027782841 0.032057144 0.74799997 9.5356959e-41
-0.026358081 0.032057136 0.74800003 1.1402366e-40
-0.024900006 0.032014288 0.74700004 2.0766683e-40
-0.023477143 0.032014288 0.74699998 2.2201752e-40
-0.022054287 0.032014273 0.74699998 5.557446e-39
-0.020576209 0.031928569 0.745 1.0888221e-38
-0.01915716 0.031928569 0.745 1.3844188e-38
-0.017738087 0.031928562 0.745 1.669468e-38
-0.016319038 0.031928554 0.745 1.9003846e-38
-0.014899991 0.031928562 0.74500006 2.1297939e-38
-0.013444748 0.031842835 0.74300003 2.2223826e-38
-0.01202951 0.03184285 0.74300003 2.304855e-38
-0.010614272 0.031842843 0.74300003 2.166994e-38
-0.0091990344 0.031842843 0.74300003 2.028342e-38
-0.0077523845 0.031714275 0.74000001 1.9907809e-38
-0.0063428599 0.03171429 0.74000001 1.9550173e-38
-0.004946677 0.031799987 0.74200004 2.1210051e-38
-0.0035238108 0.031714283 0.73999995 2.2865601e-38
-0.0021114266 0.031671405 0.73900002 2.2590094e-38
-0.00070189219 0.031585708 0.73700005 2.2215908e-38
0.00070190337 0.031585701 0.73700005 1.751864e-38
0.0021057008 0.031585723 0.73700005 1.2716276e-38
0.0035095308 0.031585701 0.73700005 6.4355767e-39
0.0049133282 0.031585716 0.73700005 1.2120531e-40
0.0063171443 0.031585701 0.73700005 2.4282499e-39
0.0077209566 0.031585716 0.73700005 4.7305972e-39
0.0091247512 0.031585716 0.73699999 5.5632194e-39
0.01052857 0.031585701 0.73700005 6.2993383e-39
0.01193238 0.031585723 0.73700005 6.7603094e-39
0.013336198 0.031585708 0.73700005 7.1290863e-39
0.014739995 0.031585716 0.73700005 7.2223567e-39
0.016121907 0.031542853 0.73600006 7.3109496e-39
0.017523801 0.031542845 0.736 6.7534655e-39
0.018925726 0.031542845 0.73600006 6.2010204e-39
0.020327618 0.03154286 0.736 5.5574572e-39
0.021729529 0.031542845 0.73600006 4.9131668e-39
0.023131425 0.03154286 0.736 8.493668e-39
0.024566675 0.031585708 0.73700005 1.1999933e-38
0.025970472 0.031585716 0.73700005 1.4771515e-38
0.027374288 0.031585708 0.73700005 1.751687e-38
-0.048240002 0.033840001 0.75599998 1.0064556e-38
-0.046800029 0.033839993 0.75599998 7.8529677e-39
-0.045360025 0.033839993 0.75599998 5.7357262e-39
-0.043861907 0.03379523 0.75500005 3.528066e-39
-0.042311434 0.033705704 0.75299996 2.6950683e-39
-0.040877122 0.033705689 0.75300002 1.9546362e-39
-0.03939046 0.033660948 0.75200003 4.0733e-39
-0.037958104 0.033660948 0.75200003 6.207088e-39
-0.036428593 0.033571407 0.75000006 1.366554e-38
-0.034999993 0.033571422 0.75000006 2.1112463e-38
-0.033571444 0.033571422 0.75000006 1.9549104e-38
-0.032142848 0.033571415 0.75000006 1.7976727e-38
-0.030632356 0.033481903 0.74800003 1.1149637e-38
-0.029207615 0.033481911 0.74800003 4.3312146e-39
-0.027782854 0.033481888 0.74800003 2.3072491e-39
-0.026358087 0.033481911 0.74799997 2.9011783e-40
-0.024933325 0.033481911 0.74800003 8.4402028e-40
-0.023477145 0.03343714 0.74700004 1.4768299e-39
-0.022054309 0.03343714 0.74699998 3.5101293e-39
-0.020631425 0.033437148 0.74699998 5.5165449e-39
-0.019157164 0.033347614 0.745 6.9199299e-39
-0.017738087 0.033347622 0.745 8.404373e-39
-0.01631904 0.033347614 0.745 9.6064923e-39
-0.014899994 0.033347614 0.745 1.0904025e-38
-0.013444758 0.03325808 0.74300003 1.366339e-38
-0.012029519 0.033258088 0.74300003 1.6433526e-38
-0.010614282 0.03325808 0.74300003 1.688589e-38
-0.0091990158 0.033258088 0.74300003 1.7343599e-38
-0.007773364 0.033213317 0.74199998 1.8255463e-38
-0.0063600298 0.033213325 0.74199998 1.9272503e-38
-0.0049466966 0.033213325 0.74199998 2.1025662e-38
-0.0035238033 0.033123806 0.74000001 2.2866677e-38
-0.0021114284 0.033079043 0.73900002 2.2682647e-38
-0.00070380792 0.033079036 0.73900002 2.2499329e-38
0.00070190895 0.032989517 0.73700005 1.9457273e-38
0.0021057064 0.032989509 0.73699999 1.6505572e-38
0.0035095224 0.032989524 0.73700005 9.774983e-39
0.0049133338 0.032989524 0.73699999 3.1531906e-39
0.0063171498 0.032989524 0.73700005 3.7103511e-39
0.0077209473 0.032989524 0.73700005 4.359305e-39
0.0091247577 0.032989517 0.73699999 5.1922887e-39
0.010528575 0.032989517 0.73700005 6.1142323e-39
0.011932372 0.032989517 0.73700005 6.5766384e-39
0.013336188 0.032989524 0.73700005 7.0379683e-39
0.01474 0.032989517 0.73700005 7.221998e-39
0.016143816 0.032989502 0.73700005 7.4049375e-39
0.017523801 0.032944761 0.736 6.9385714e-39
0.018925713 0.032944746 0.73600006 6.4761653e-39
0.020327618 0.032944761 0.736 5.7404037e-39
0.021729508 0.032944776 0.736 5.0046394e-39
0.02316287 0.032989524 0.73700005 8.2213873e-39
0.024566667 0.032989517 0.73700005 1.1445328e-38
0.025970461 0.032989532 0.73700005 1.4488109e-38
0.027374292 0.032989524 0.73700005 1.751722e-38
-0.048239995 0.035279982 0.75599998 1.0155681e-38
-0.046800021 0.035279997 0.75600004 7.3041085e-39
-0.045360018 0.035279997 0.75600004 5.7385933e-39
-0.043861914 0.035233319 0.75500005 4.1737969e-39
-0.042311423 0.035139985 0.75300002 3.9854554e-39
-0.04087713 0.035139993 0.75300002 3.7027546e-39
-0.039390486 0.03509333 0.75200003 1.9488923e-39
-0.0379581 0.035093337 0.75199997 2.2594677e-40
-0.036525693 0.03509333 0.75200003 1.0537757e-38
-0.035 0.034999996 0.75000006 2.0744768e-38
-0.033571452 0.034999982 0.75000006 2.084557e-38
-0.032142852 0.034999989 0.75000006 2.092231e-38
-0.030714301 0.034999996 0.75000006 1.4752083e-38
-0.029285705 0.034999989 0.75000006 8.4803444e-39
-0.027782859 0.03490667 0.74799997 4.4201928e-39
-0.026358072 0.034906663 0.74800003 3.8626372e-40
-0.02493331 0.034906656 0.74800003 1.5848055e-39
-0.023477139 0.034859993 0.74699998 2.7750838e-39
-0.022054283 0.034859985 0.74699998 1.489031e-39
-0.020631427 0.034859993 0.74700004 1.068448e-40
-0.019157166 0.034766667 0.745 9.8245035e-41
-0.017738119 0.034766667 0.745 1.1546839e-40
-0.016319044 0.034766667 0.745 2.969898e-40
-0.014899996 0.034766659 0.745 4.0388645e-40
-0.013444738 0.034673318 0.74300003 5.0917959e-39
-0.012029501 0.034673318 0.74300003 9.6957873e-39
-0.010614263 0.034673326 0.74300003 1.200425e-38
-0.0091990456 0.034673326 0.74300003 1.4294015e-38
-0.0077733346 0.034626663 0.74199998 1.6589161e-38
-0.0063600019 0.034626655 0.74199998 1.8901577e-38
-0.0049466677 0.03462667 0.74199998 2.0936694e-38
-0.0035238154 0.034533337 0.73999995 2.2864162e-38
-0.0021114303 0.034486659 0.73900002 2.2774836e-38
-0.00070380419 0.034486644 0.73900002 2.2680129e-38
0.00070381537 0.034486651 0.73900002 2.1489138e-38
0.0021057166 0.034393325 0.73700005 2.0182236e-38
0.0035095271 0.034393318 0.73700005 1.318871e-38
0.0049133236 0.03439334 0.73699999 6.0973173e-39
0.0063171415 0.03439334 0.73700005 4.9924523e-39
0.0077209519 0.034393333 0.73700005 3.8990471e-39
0.0091247698 0.034393325 0.73700005 4.9157074e-39
0.010528564 0.034393333 0.73700005 5.8380084e-39
0.011932377 0.03439334 0.73699999 6.3933262e-39
0.013336193 0.03439334 0.73700005 6.8539386e-39
0.014740005 0.03439334 0.73700005 7.2230742e-39
0.016143819 0.034393325 0.73700005 7.4949794e-39
0.017547617 0.034393333 0.73700005 7.1197313e-39
0.018951429 0.03439334 0.73699999 6.6591188e-39
0.020355245 0.03439334 0.73700005 5.9237174e-39
0.021759041 0.034393333 0.73700005 5.0982699e-39
0.023162875 0.034393318 0.73700005 7.9422963e-39
0.024566671 0.034393333 0.73700005 1.0802474e-38
0.025970465 0.034393333 0.73699999 1.4126494e-38
0.027374296 0.034393333 0.73700005 1.7425738e-38
0.028543808 0.034113325 0.73100001 1.2824616e-38
0.029936196 0.03411334 0.73100001 8.215974e-39
-0.046800032 0.03672 0.75599998 6.938563e-39
-0.045360029 0.036719993 0.75599998 5.7403841e-39
-0.043861918 0.036671415 0.755 4.6365729e-39
-0.042423818 0.03667143 0.755 4.2642171e-39
-0.040877141 0.036574282 0.75299996 3.9829415e-39
-0.039442848 0.036574289 0.75299996 2.140461e-39
-0.038008567 0.036574274 0.75300002 2.1016814e-40
-0.036525693 0.036525704 0.75200003 8.3218716e-39
-0.035093334 0.036525719 0.75200003 1.6432453e-38
-0.033660926 0.036525704 0.75200003 1.753376e-38
-0.03222857 0.036525704 0.75200003 1.8727615e-38
-0.03079618 0.036525711 0.75200003 1.4021757e-38
-0.029363802 0.036525689 0.75200003 9.4080586e-39
-0.02785716 0.036428563 0.75000006 4.9844873e-39
-0.026428584 0.036428571 0.75 5.7568003e-40
-0.025000015 0.036428556 0.75000006 1.5883956e-39
-0.023508554 0.036331438 0.74800003 2.6011e-39
-0.022083795 0.03633143 0.74800003 1.9553831e-39
-0.020631423 0.036282852 0.74699998 1.2214124e-39
-0.019157147 0.036185704 0.745 1.2142321e-39
-0.017738121 0.036185719 0.745 1.2131559e-39
-0.016319072 0.036185712 0.745 7.5541198e-40
-0.014899998 0.036185704 0.745 2.9120524e-40
-0.013480951 0.036185697 0.745 2.59677e-39
-0.012061904 0.036185704 0.745 4.8858765e-39
-0.010614293 0.036088564 0.74300003 7.9326259e-39
-0.009199054 0.036088571 0.74300003 1.0963901e-38
-0.0077838162 0.036088564 0.74300003 1.4564843e-38
-0.0063685784 0.036088571 0.74300003 1.8164743e-38
-0.0049533406 0.036088571 0.74300003 1.8906982e-38
-0.0035333466 0.036039986 0.74199998 1.9735292e-38
-0.0021142829 0.03594286 0.74000001 1.826054e-38
-0.0007047588 0.035942852 0.73999995 1.6794046e-38
0.00070379954 0.035894275 0.73900002 1.5591221e-38
0.00211142 0.03589429 0.73899996 1.4484147e-38
0.0035190592 0.035894267 0.73900002 9.6860749e-39
0.0049133282 0.035797141 0.73699999 4.8909114e-39
0.0063171461 0.035797149 0.73700005 3.6131178e-39
0.0077209417 0.035797141 0.73700005 2.4303938e-39
0.0091247745 0.035797141 0.73700005 3.4434696e-39
0.010528569 0.035797141 0.73700005 4.551594e-39
0.011932367 0.035797141 0.73699999 5.1047593e-39
0.013336197 0.035797141 0.73700005 5.6590009e-39
0.014739995 0.035797149 0.73700005 6.3025669e-39
0.016143812 0.035797141 0.73700005 6.9461188e-39
0.01754762 0.035797134 0.73700005 6.5694343e-39
0.01895144 0.035797134 0.73700005 6.1988652e-39
0.020355234 0.035797141 0.73700005 7.3044798e-39
0.021759046 0.035797156 0.73699999 8.5012069e-39
0.023162866 0.035797141 0.73700005 9.6943467e-39
0.02456666 0.035797141 0.73700005 1.0981836e-38
0.025970491 0.035797141 0.73700005 1.4118948e-38
0.027337139 0.035748579 0.736 1.7244212e-38
0.028582856 0.035554297 0.73200005 1.2638434e-38
0.02997713 0.035554297 0.73199999 8.1198422e-39
-0.046800025 0.038160004 0.75599998 6.567991e-39
-0.045360018 0.038159996 0.75599998 5.8318665e-39
-0.043861929 0.038109519 0.75500005 5.0035548e-39
-0.042311441 0.038008574 0.75299996 4.6347793e-39
-0.040877149 0.038008571 0.75299996 4.2602444e-39
-0.039442837 0.038008556 0.75300002 2.2359006e-39
-0.038008574 0.038008563 0.75300002 2.1589385e-40
-0.036525719 0.037958086 0.75200003 6.107373e-39
-0.035093334 0.0379581 0.75199997 1.2000284e-38
-0.033660956 0.037958082 0.75200003 1.4220493e-38
-0.032228567 0.037958093 0.75200003 1.6413064e-38
-0.03079618 0.037958086 0.75199997 1.3383207e-38
-0.029363802 0.037958074 0.75200003 1.0324263e-38
-0.02785714 0.037857126 0.75000006 5.5340752e-39
-0.02642859 0.037857134 0.75000006 6.7002806e-40
-0.024999993 0.037857134 0.75000006 1.5923361e-39
-0.023571443 0.037857134 0.75000006 2.417422e-39
-0.0220838 0.037756182 0.74800003 2.4177822e-39
-0.020631425 0.037705705 0.74700004 2.323074e-39
-0.01920859 0.037705716 0.74699998 2.3237901e-39
-0.017738104 0.037604745 0.74500006 2.2294434e-39
-0.016319055 0.037604738 0.74500006 1.2203306e-39
-0.014900001 0.037604764 0.745 2.0690732e-40
-0.013480954 0.037604757 0.745 2.1049184e-40
-0.012061907 0.037604764 0.745 1.1328797e-40
-0.01064286 0.03760476 0.745 3.8767623e-39
-0.0091990363 0.037503816 0.74300003 7.6570676e-39
-0.007783798 0.037503809 0.74300003 1.2540834e-38
-0.0063685598 0.037503812 0.74300003 1.73303e-38
-0.004953322 0.037503816 0.74300003 1.6974824e-38
-0.0035380842 0.037503805 0.74300003 1.6598867e-38
-0.0021200133 0.037453316 0.74200004 1.3737254e-38
-0.00070475135 0.037352376 0.74000001 1.080354e-38
0.0007047588 0.037352376 0.74000001 9.7804369e-39
0.0021114359 0.037301898 0.73900002 8.6805535e-39
0.0035190424 0.037301891 0.73900002 6.1801802e-39
0.0049266629 0.037301883 0.73899996 3.6123765e-39
0.006334289 0.037301891 0.73900002 2.3216601e-39
0.0077419076 0.037301891 0.73900002 9.5597983e-40
0.0091495132 0.037301898 0.73900002 2.0598135e-39
0.010557135 0.037301898 0.73899996 3.1679435e-39
0.011964774 0.037301883 0.73900002 3.8147436e-39
0.013336189 0.037200943 0.73700005 4.4604675e-39
0.014739985 0.03720095 0.73700005 5.3813392e-39
0.016143816 0.03720095 0.73700005 6.2978809e-39
0.017547613 0.037200958 0.73700005 6.012669e-39
0.018951429 0.037200943 0.73700005 5.7407555e-39
0.020355241 0.037200935 0.73700005 8.7781484e-39
0.021759039 0.037200958 0.73699999 1.1810512e-38
0.023162855 0.037200958 0.73700005 1.1443886e-38
0.024633337 0.037301883 0.73900002 1.1078699e-38
0.026040943 0.037301891 0.73900002 1.4031787e-38
0.027374281 0.03720095 0.73700005 1.6965488e-38
0.02873905 0.037150465 0.73600006 1.2548404e-38
0.030140942 0.03715048 0.736 8.0312339e-39
-0.046800014 0.039599989 0.75599998 5.1854349e-39
-0.04536001 0.0396 0.75599998 5.1836426e-39
-0.043861929 0.039547618 0.755 5.2787011e-39
-0.042423829 0.039547626 0.755 4.9974493e-39
-0.040985711 0.039547607 0.75500005 4.7183499e-39
-0.039442848 0.039442856 0.75299996 3.3347134e-39
-0.038008586 0.039442852 0.75299996 1.9521447e-39
-0.036574293 0.039442848 0.75299996 4.1629985e-39
-0.035093311 0.039390467 0.75200003 6.3738957e-39
-0.033705715 0.039442852 0.75300002 7.3844744e-39
-0.032228567 0.039390471 0.75200003 8.3917978e-39
-0.030796185 0.039390456 0.75200003 7.9333392e-39
-0.029363798 0.03939046 0.75200003 7.4615794e-39
-0.027931413 0.039390471 0.75200003 4.8890827e-39
-0.026428567 0.039285697 0.75000006 2.4159815e-39
-0.024999997 0.039285704 0.75000006 3.330389e-39
-0.023571448 0.039285701 0.75000006 4.2523327e-39
-0.022083785 0.039180949 0.74800003 4.3427332e-39
-0.020631419 0.039128575 0.74699998 4.5231756e-39
-0.019208563 0.039128561 0.74699998 4.525328e-39
-0.017785728 0.039128572 0.74699998 4.6196775e-39
-0.016362872 0.039128575 0.74699998 4.067231e-39
-0.014939988 0.039128564 0.74699998 3.6059025e-39
-0.013480956 0.039023813 0.745 3.788856e-39
-0.01206191 0.039023802 0.745 3.96929e-39
-0.010642862 0.039023802 0.745 5.5365821e-39
-0.0092238151 0.039023805 0.745 7.1949824e-39
-0.0077838078 0.03891905 0.74300003 1.0422119e-38
-0.00636857 0.038919043 0.74300003 1.3651465e-38
-0.0049533322 0.038919047 0.74300003 1.4938275e-38
-0.0035380945 0.038919047 0.74300003 1.613177e-38
-0.0021199984 0.038866661 0.74200004 1.5395643e-38
-0.00070666522 0.038866654 0.74200004 1.4564816e-38
0.00070475973 0.038761906 0.73999995 1.4198906e-38
0.0021142699 0.038761903 0.73999995 1.3828703e-38
0.0035238154 0.038761895 0.74000001 1.2447231e-38
0.0049333395 0.038761899 0.74000001 1.1067182e-38
0.0063428497 0.038761906 0.74000001 1.0054115e-38
0.0077419067 0.038709518 0.73900002 8.9506664e-39
0.0091495328 0.038709503 0.73900002 8.3074718e-39
0.010571429 0.038761906 0.74000001 7.6631996e-39
0.011980954 0.038761899 0.74000001 8.8653217e-39
0.013372377 0.038709506 0.73899996 1.0058478e-38
0.014780005 0.038709514 0.73900002 9.7923101e-39
0.016143806 0.038604759 0.73700005 9.6068202e-39
0.017547619 0.038604774 0.73700005 9.0493248e-39
0.018951435 0.038604759 0.73700005 8.5847762e-39
0.02035523 0.038604751 0.73700005 1.0061329e-38
0.021759061 0.038604755 0.73700005 1.1539307e-38
0.023162859 0.038604762 0.73700005 1.0983274e-38
0.024633324 0.03870951 0.73899996 1.0520159e-38
0.026040962 0.038709514 0.73900002 1.3656922e-38
0.027374284 0.038604755 0.73700005 1.6873663e-38
0.0287781 0.038604755 0.73700005 1.2822485e-38
0.030181911 0.038604759 0.73700005 8.7662752e-39
-0.04680001 0.041039992 0.75600004 3.7160389e-39
-0.045360003 0.041039988 0.75600004 4.622197e-39
-0.043920029 0.041039988 0.75600004 5.5516727e-39
-0.042423811 0.040985715 0.75500005 5.3575998e-39
-0.040985741 0.040985703 0.75500005 5.0885463e-39
-0.039547641 0.040985718 0.755 4.3405851e-39
-0.038109541 0.040985715 0.755 3.6112653e-39
-0.036574282 0.040877122 0.75300002 2.1264564e-39
-0.035139989 0.040877134 0.75299996 6.6966232e-40
-0.033705726 0.040877141 0.75299996 4.5982348e-40
-0.032271419 0.040877126 0.75300002 3.0305461e-40
-0.030796183 0.040822841 0.75200003 2.4959844e-39
-0.029363798 0.040822852 0.75200003 4.6196634e-39
-0.027931439 0.040822852 0.75200003 4.3287161e-39
-0.026428575 0.040714279 0.75000006 4.0668428e-39
-0.025000004 0.040714264 0.75000006 5.0612504e-39
-0.023571426 0.040714279 0.75000006 6.092969e-39
-0.022083791 0.040605728 0.74799997 6.3613065e-39
-0.020631444 0.040551439 0.74699998 6.6454254e-39
-0.019208588 0.040551428 0.74699998 6.8179784e-39
-0.017785704 0.040551417 0.74699998 7.0142065e-39
-0.016362866 0.040551435 0.74699998 7.0063172e-39
-0.014899985 0.04044285 0.745 6.9216521e-39
-0.013480938 0.040442843 0.745 7.3697047e-39
-0.012061911 0.04044285 0.745 7.7503212e-39
-0.010642864 0.040442858 0.745 7.1964397e-39
-0.0092238169 0.040442847 0.745 6.6536664e-39
-0.00780477 0.040442854 0.745 8.3013131e-39
-0.0063685793 0.040334284 0.74300003 9.9722985e-39
-0.0049533136 0.040334273 0.74300003 1.2811675e-38
-0.0035380898 0.040334284 0.74300003 1.5675091e-38
-0.0021199975 0.040279981 0.74200004 1.7056943e-38
-0.00070666336 0.040279984 0.74200004 1.8341555e-38
0.00070666987 0.040279992 0.74200004 1.8712835e-38
0.002120004 0.040279981 0.74200004 1.898296e-38
0.0035333373 0.040279999 0.74200004 1.8804311e-38
0.0049333274 0.040171433 0.73999995 1.8519115e-38
0.0063428571 0.040171415 0.74000001 1.7784785e-38
0.0077523803 0.04017143 0.74000001 1.6951442e-38
0.0091866571 0.040279992 0.74200004 1.455582e-38
0.01059999 0.040279981 0.74200004 1.2081319e-38
0.012013324 0.040279992 0.74200004 1.3924879e-38
0.013390465 0.04017143 0.73999995 1.5676226e-38
0.014780003 0.040117133 0.73900002 1.4306243e-38
0.016143812 0.040008564 0.73700005 1.2828246e-38
0.017547609 0.040008571 0.73699999 1.2084932e-38
0.01895144 0.040008578 0.73700005 1.1344513e-38
0.020355234 0.040008575 0.73700005 1.1251247e-38
0.021759054 0.04000856 0.73700005 1.1166589e-38
0.023162864 0.040008575 0.73700005 1.0521591e-38
0.02456666 0.040008575 0.73699999 9.8823211e-39
0.025970476 0.040008575 0.73700005 1.329314e-38
0.027374288 0.040008567 0.73700005 1.668962e-38
0.028778104 0.04000856 0.73700005 1.3101939e-38
0.030181902 0.040008575 0.73700005 9.4119949e-39
-0.046923812 0.042592369 0.75799996 1.1540684e-38
-0.045360018 0.042480003 0.75599998 1.1811881e-38
-0.04392001 0.042480003 0.75599998 1.2090623e-38
-0.042480033 0.042479999 0.75599998 1.1995566e-38
-0.041040029 0.042479992 0.75599998 1.181548e-38
-0.039600026 0.042480014 0.75599998 1.1533872e-38
-0.038109548 0.0424238 0.75500005 1.1260501e-38
-0.036671448 0.042423803 0.75500005 1.0520059e-38
-0.03514 0.042311419 0.75299996 9.7896883e-39
-0.033705689 0.042311408 0.75300002 9.6899677e-39
-0.032228544 0.042255223 0.75200003 9.7010828e-39
-0.030796183 0.042255219 0.75200003 1.0797721e-38
-0.029363798 0.042255234 0.75200003 1.1905841e-38
-0.027931416 0.042255227 0.75200003 1.1712837e-38
-0.02642858 0.042142857 0.75000006 1.1532399e-38
-0.025000002 0.042142857 0.75 1.2081262e-38
-0.023571433 0.042142846 0.75000006 1.2737751e-38
-0.022083804 0.042030469 0.74800003 1.2914256e-38
-0.020659015 0.042030469 0.74800003 1.3103674e-38
-0.019234275 0.04203048 0.74800003 1.318834e-38
-0.017785726 0.041974295 0.74699998 1.3377752e-38
-0.01636287 0.041974284 0.74699998 1.3373449e-38
-0.014900016 0.041861892 0.745 1.3469939e-38
-0.01348094 0.041861899 0.745 1.374185e-38
-0.012061894 0.041861895 0.745 1.4026696e-38
-0.010642867 0.041861914 0.745 1.3745461e-38
-0.0092238188 0.041861903 0.745 1.3472463e-38
-0.0078047719 0.041861899 0.745 1.4391173e-38
-0.0063685616 0.041749526 0.74300003 1.5318839e-38
-0.0049533239 0.041749518 0.74300003 1.6691691e-38
-0.0035380851 0.041749507 0.74300003 1.8076792e-38
-0.0021200161 0.041693319 0.74199998 1.853457e-38
-0.00070668291 0.04169333 0.74199998 1.90827e-38
0.00070665032 0.04169333 0.74199998 1.8622433e-38
0.0021199845 0.041693334 0.74199998 1.8066032e-38
0.0035333186 0.04169333 0.74199998 1.769617e-38
0.0049466705 0.041693311 0.74200004 1.7419585e-38
0.0063600037 0.041693326 0.74200004 1.714264e-38
0.0077733379 0.041693319 0.74200004 1.6963606e-38
0.0091866711 0.041693326 0.74200004 1.5762183e-38
0.010600004 0.041693326 0.74200004 1.4660934e-38
0.012013339 0.041693322 0.74200004 1.5676205e-38
0.013426672 0.041693311 0.74200004 1.6700765e-38
0.014779986 0.041524749 0.73900002 1.5593019e-38
0.016143801 0.04141238 0.73700005 1.4488468e-38
0.017547633 0.041412365 0.73700005 1.3006887e-38
0.018951429 0.041412376 0.73700005 1.1527832e-38
0.020355225 0.04141238 0.73700005 1.1622895e-38
0.021759057 0.04141238 0.73700005 1.1813386e-38
0.023162855 0.041412372 0.73700005 1.1075478e-38
0.024566671 0.041412365 0.73700005 1.0336824e-38
0.025970479 0.04141238 0.73700005 1.3473197e-38
0.027374279 0.041412391 0.73700005 1.6694271e-38
0.028778095 0.041412376 0.73700005 1.3374934e-38
0.030181905 0.041412376 0.73700005 1.004767e-38
-0.046800014 0.043919999 0.75599998 1.9359643e-38
-0.04536001 0.043919995 0.75599998 1.8993732e-38
-0.043920029 0.043919992 0.75599998 1.8621732e-38
-0.042480025 0.043919984 0.75599998 1.8626041e-38
-0.041040022 0.043919999 0.75599998 1.8530977e-38
-0.039547652 0.043861903 0.755 1.8718593e-38
-0.03810953 0.043861892 0.75500005 1.8899029e-38
-0.0365743 0.043745719 0.75299996 1.8904046e-38
-0.035139989 0.043745704 0.75300002 1.8806118e-38
-0.033705696 0.043745708 0.75299996 1.8901187e-38
-0.03222857 0.043687604 0.75200003 1.8991938e-38
-0.030796181 0.043687616 0.75200003 1.9087713e-38
-0.029363824 0.043687619 0.75200003 1.9083767e-38
-0.027931416 0.043687604 0.75200003 1.8993009e-38
-0.026428586 0.04357142 0.75000006 1.8896869e-38
-0.025000008 0.043571424 0.75 1.9085922e-38
-0.023571437 0.043571405 0.75000006 1.9268164e-38
-0.022142861 0.043571427 0.75000006 1.945471e-38
-0.02065905 0.043455232 0.74800003 1.9544039e-38
-0.019234261 0.043455232 0.74800003 1.9638031e-38
-0.01780952 0.043455247 0.74799997 1.9635164e-38
-0.016362865 0.043397147 0.74699998 1.9822783e-38
-0.014940009 0.043397151 0.74699998 1.9912461e-38
-0.013517153 0.04339714 0.74699998 2.010079e-38
-0.012061895 0.043280952 0.745 2.0281599e-38
-0.010642849 0.043280941 0.745 2.0285554e-38
-0.0092238216 0.043280944 0.745 2.0283397e-38
-0.0078047737 0.043280955 0.745 2.0471728e-38
-0.0063857278 0.043280948 0.745 2.0559251e-38
-0.0049533322 0.04316476 0.74300003 2.0468126e-38
-0.0035380805 0.043164752 0.74300003 2.0376655e-38
-0.0021200161 0.04310666 0.74200004 2.0104743e-38
-0.00070668198 0.043106653 0.74199998 1.982061e-38
0.00070665125 0.043106664 0.74199998 1.8536689e-38
0.0021199845 0.043106664 0.74199998 1.7141922e-38
0.0035333177 0.043106653 0.74199998 1.6677708e-38
0.0049466509 0.043106649 0.74199998 1.6216735e-38
0.0063599851 0.043106657 0.74199998 1.6586588e-38
0.0077733183 0.04310666 0.74199998 1.6864954e-38
0.0091866525 0.043106664 0.74199998 1.7051843e-38
0.010599986 0.043106657 0.74199998 1.7140115e-38
0.012013339 0.043106649 0.74200004 1.7418158e-38
0.013426674 0.043106653 0.74200004 1.7609407e-38
0.014800006 0.042990476 0.74000001 1.6876922e-38
0.016187623 0.042932369 0.73900002 1.6047513e-38
0.01759523 0.042932361 0.73900002 1.392595e-38
0.018951433 0.042816181 0.73700005 1.1716874e-38
0.02035523 0.042816192 0.73699999 1.2083139e-38
0.02175905 0.042816184 0.73700005 1.23626e-38
0.023162859 0.042816192 0.73700005 1.1537525e-38
0.024566675 0.042816177 0.73700005 1.0708466e-38
0.025970474 0.042816184 0.73700005 1.3752283e-38
0.027374284 0.042816196 0.73699999 1.6691036e-38
0.0287781 0.042816192 0.73700005 1.3655817e-38
-0.046800006 0.045360003 0.75599998 1.9457248e-38
-0.045359999 0.045359995 0.75599998 1.8535659e-38
-0.044036184 0.045480005 0.75799996 1.7705555e-38
-0.042480018 0.045359988 0.75599998 1.7334628e-38
-0.041040014 0.045359991 0.75599998 1.7065939e-38
-0.039600011 0.045359988 0.75599998 1.8261237e-38
-0.038160034 0.045359995 0.75599998 1.9549452e-38
-0.03672003 0.045359991 0.75599998 1.936471e-38
-0.03523336 0.045299999 0.755 1.9181042e-38
-0.03379526 0.045299996 0.755 1.9181045e-38
-0.03222857 0.045119986 0.75200003 1.91857e-38
-0.03079618 0.045120001 0.75200003 1.8997716e-38
-0.029363802 0.045119986 0.75200003 1.8817279e-38
-0.027931416 0.04511999 0.75200003 1.8812262e-38
-0.026428564 0.044999987 0.75000006 1.8904814e-38
-0.025000015 0.044999987 0.75000006 1.9088483e-38
-0.023571417 0.044999976 0.75000006 1.927431e-38
-0.022142867 0.044999991 0.75000006 1.9456907e-38
-0.020714298 0.044999979 0.75000006 1.9642373e-38
-0.01928572 0.044999987 0.75000006 1.9824252e-38
-0.017809505 0.044879995 0.74800003 2.0008646e-38
-0.016384745 0.044879999 0.74800003 2.0009368e-38
-0.014939983 0.044819996 0.74699998 2.0102994e-38
-0.013517148 0.044820003 0.74699998 2.0193032e-38
-0.012094292 0.044820007 0.74699998 2.0284514e-38
-0.010642851 0.044699982 0.745 2.0286671e-38
-0.0092238039 0.044699997 0.745 2.029133e-38
-0.007804757 0.044699989 0.74500006 2.0011873e-38
-0.0063857306 0.044700004 0.745 1.9733498e-38
-0.0049666837 0.0447 0.745 1.8078667e-38
-0.0035476359 0.044699993 0.745 1.6520313e-38
-0.0021200012 0.044519983 0.74200004 1.549575e-38
-0.00070666801 0.044520002 0.74200004 1.4486615e-38
0.00070665218 0.044519991 0.74200004 1.3642495e-38
0.0021199854 0.044519983 0.74200004 1.2899179e-38
0.0035333186 0.044519994 0.74200004 1.2800506e-38
0.0049466528 0.044519991 0.74200004 1.2713694e-38
0.006359986 0.044519998 0.74199998 1.3912579e-38
0.0077733202 0.044519994 0.74199998 1.5204381e-38
0.0091990652 0.04457999 0.74300003 1.511291e-38
0.010599985 0.044519983 0.74199998 1.5021065e-38
0.012013319 0.044519994 0.74199998 1.5116119e-38
0.013426652 0.044519987 0.74199998 1.512516e-38
0.014799993 0.044400007 0.73999995 1.4760401e-38
0.016187606 0.044339985 0.73900002 1.4307297e-38
0.017595248 0.044339985 0.73900002 1.328596e-38
0.018951423 0.044220001 0.73700005 1.2177117e-38
0.020410473 0.044339981 0.73900002 1.0981102e-38
0.021759054 0.044219997 0.73700005 9.7912017e-39
0.023162847 0.044220012 0.73700005 8.7749268e-39
0.024566678 0.044219997 0.73700005 7.8504411e-39
0.026040947 0.044339985 0.73900002 1.2183536e-38
0.027448565 0.044339988 0.73899996 1.6508075e-38
0.028856205 0.044339988 0.73900002 1.3834819e-38
-0.048240025 0.046800006 0.75599998 1.9454742e-38
-0.046799999 0.046799991 0.75600004 1.9455814e-38
-0.04536004 0.046799995 0.75599998 1.8078276e-38
-0.044036198 0.046923809 0.75799996 1.6689613e-38
-0.042480011 0.046799999 0.75600004 1.6124959e-38
-0.041040007 0.046799991 0.75600004 1.5497911e-38
-0.039600004 0.046799988 0.75600004 1.789426e-38
-0.038159996 0.046799988 0.75599998 2.0191583e-38
-0.036720019 0.04679998 0.75600004 1.9824241e-38
-0.035280015 0.046799999 0.75600004 1.9455828e-38
-0.033795241 0.046738084 0.75500005 1.936364e-38
-0.032271434 0.046614271 0.75300002 1.9272157e-38
-0.03079618 0.046552379 0.75199997 1.8899789e-38
-0.029363802 0.046552368 0.75200003 1.8535317e-38
-0.027931415 0.046552368 0.75200003 1.8717911e-38
-0.026499057 0.046552382 0.75200003 1.8811542e-38
-0.025000021 0.046428569 0.75000006 1.9088485e-38
-0.023571422 0.046428561 0.75000006 1.9273236e-38
-0.022142874 0.046428557 0.75000006 1.9456194e-38
-0.020714276 0.04642855 0.75000006 1.96413e-38
-0.019285725 0.046428565 0.75000006 2.0008282e-38
-0.01780949 0.046304759 0.74800003 2.0284153e-38
-0.016384749 0.046304762 0.74799997 2.028595e-38
-0.014959989 0.046304766 0.74800003 2.0284154e-38
-0.013517151 0.046242844 0.74699998 2.0283794e-38
-0.012094286 0.046242852 0.74699998 2.0191241e-38
-0.010642853 0.046119042 0.745 2.0192677e-38
-0.0092238057 0.046119038 0.745 2.0191593e-38
-0.0078047588 0.046119042 0.74500006 1.955089e-38
-0.006385712 0.046119038 0.74500006 1.8809726e-38
-0.0049666855 0.046119038 0.745 1.5775904e-38
-0.0035476377 0.046119049 0.745 1.2628712e-38
-0.0021228483 0.045995228 0.74300003 1.0871608e-38
-0.00070761051 0.045995232 0.74300003 9.0294965e-39
0.00070762727 0.045995232 0.74300003 8.830379e-39
0.0021200003 0.045933325 0.74200004 8.648845e-39
0.0035381047 0.045995235 0.74300003 8.9114231e-39
0.0049466677 0.045933329 0.74200004 9.1130363e-39
0.0063685933 0.045995228 0.74300003 1.1328575e-38
0.0077838311 0.045995235 0.74300003 1.3538386e-38
0.0091990698 0.045995224 0.74300003 1.3266129e-38
0.010599988 0.045933325 0.74200004 1.2894845e-38
0.012013321 0.045933336 0.74200004 1.2808036e-38
0.013426655 0.045933329 0.74199998 1.2629069e-38
0.0148 0.045809511 0.74000001 1.2639513e-38
0.016209526 0.045809522 0.74000001 1.2546248e-38
0.017595245 0.045747608 0.73900002 1.2640959e-38
0.019002853 0.045747604 0.73900002 1.2636656e-38
0.020410491 0.045747604 0.73900002 9.8729815e-39
0.021818096 0.045747597 0.73900002 7.1186326e-39
0.023225719 0.045747615 0.73900002 6.0123005e-39
0.024633337 0.045747608 0.73900002 4.9149268e-39
0.026040962 0.045747597 0.73900002 1.0622708e-38
0.027448585 0.045747612 0.73900002 1.6321906e-38
0.028856188 0.045747604 0.73900002 1.4022805e-38
-0.048240017 0.048239991 0.75599998 1.9362907e-38
-0.04680001 0.048239987 0.75599998 1.9547291e-38
-0.045360032 0.048240002 0.75599998 1.807469e-38
-0.044036184 0.048367612 0.75799996 1.6502344e-38
-0.042480025 0.048239999 0.75599998 1.6038838e-38
-0.041040022 0.048239991 0.75599998 1.5681214e-38
-0.039600015 0.048240006 0.75599998 1.7799561e-38
-0.038160037 0.048239999 0.75599998 2.0007912e-38
-0.036720034 0.048239999 0.75599998 1.9731324e-38
-0.035280026 0.048239995 0.75599998 1.9454749e-38
-0.033795252 0.048176177 0.75500005 1.9363638e-38
-0.032357153 0.048176184 0.75500005 1.936328e-38
-0.03083715 0.048048567 0.75299996 1.8810471e-38
-0.0293638 0.047984753 0.75200003 1.82573e-38
-0.027931413 0.047984753 0.75199997 1.8533876e-38
-0.026499035 0.047984753 0.75200003 1.8810822e-38
-0.025 0.047857132 0.75000006 1.9272156e-38
-0.02357143 0.047857121 0.75000006 1.9733134e-38
-0.022142852 0.047857143 0.75000006 1.9090291e-38
-0.020714302 0.047857139 0.75 1.8355963e-38
-0.019285733 0.047857132 0.75000006 1.7155642e-38
-0.017857155 0.047857128 0.75 1.5873896e-38
-0.016428584 0.047857136 0.75000006 1.5589067e-38
-0.014959974 0.047729518 0.74800003 1.5321093e-38
-0.013535234 0.047729518 0.74800003 1.5591575e-38
-0.012094291 0.047665711 0.74699998 1.5962861e-38
-0.010671433 0.047665704 0.74700004 1.5127727e-38
-0.0092485696 0.047665723 0.74699998 1.4303349e-38
-0.0078257136 0.047665715 0.74699998 1.411608e-38
-0.0063857138 0.047538079 0.745 1.4025633e-38
-0.0049666679 0.047538087 0.74500006 1.050678e-38
-0.0035476265 0.047538094 0.745 6.8882045e-39
-0.0021228427 0.04741047 0.74300003 7.5403366e-39
-0.00070760492 0.047410462 0.74300003 8.1738384e-39
0.00070763379 0.047410473 0.74300003 8.7334399e-39
0.0021228716 0.047410466 0.74300003 9.371978e-39
0.0035381094 0.047410458 0.74300003 9.5592293e-39
0.0049533471 0.04741047 0.74300009 9.8351058e-39
0.0063685849 0.047410462 0.74300009 1.0856068e-38
0.0077838171 0.047410484 0.74300003 1.1875262e-38
0.0091990558 0.047410477 0.74300003 1.1594767e-38
0.010600002 0.047346663 0.74200004 1.1309951e-38
0.012013323 0.047346659 0.74200004 1.1041279e-38
0.013426654 0.047346652 0.74200004 1.0861205e-38
0.014799987 0.047219049 0.73999995 1.0684717e-38
0.016209511 0.047219045 0.73999995 1.0505748e-38
0.017619057 0.047219045 0.74000001 1.1715788e-38
0.019002872 0.047155228 0.73900002 1.2916469e-38
0.020410476 0.047155224 0.73900002 1.0244991e-38
0.021818094 0.047155235 0.73900002 7.5734941e-39
0.0232257 0.047155231 0.73900002 5.9186433e-39
0.024633342 0.047155216 0.73900002 4.2652569e-39
0.02604096 0.047155231 0.73900002 1.0252512e-38
0.027448567 0.047155224 0.73900002 1.6327658e-38
0.028973324 0.047346659 0.74199998 1.4207919e-38
0.030386655 0.047346666 0.74199998 1.2179268e-38
-0.049680013 0.049679998 0.75599998 1.8904098e-38
-0.04824001 0.049679998 0.75599998 1.9270717e-38
-0.046800029 0.049679991 0.75599998 1.96402e-38
-0.045360025 0.049679991 0.75599998 1.7986791e-38
-0.043920022 0.049679987 0.75599998 1.631902e-38
-0.04259238 0.049811415 0.75799996 1.6030577e-38
-0.041040011 0.049679995 0.75599998 1.5770174e-38
-0.039600007 0.049679995 0.75599998 1.7798843e-38
-0.03816003 0.049679991 0.75599998 1.9732407e-38
-0.036720026 0.049679998 0.75599998 1.9546938e-38
-0.035280023 0.049679998 0.75599998 1.9363271e-38
-0.033840016 0.049679998 0.75599998 1.9456187e-38
-0.032357153 0.049614284 0.755 1.9456186e-38
-0.030919081 0.049614284 0.755 1.8720781e-38
-0.029363798 0.049417134 0.75200003 1.7891745e-38
-0.027931439 0.049417146 0.75200003 1.8349842e-38
-0.026499031 0.049417138 0.75200003 1.8811538e-38
-0.025066646 0.049417134 0.75200003 1.9547665e-38
-0.023571456 0.049285695 0.75000006 2.0192314e-38
-0.022142857 0.049285702 0.75000006 1.8631475e-38
-0.020714309 0.049285702 0.75000006 1.7056571e-38
-0.019285711 0.049285695 0.75000006 1.4291752e-38
-0.01785716 0.04928571 0.75000006 1.1431245e-38
-0.016428562 0.049285702 0.75000006 1.0875594e-38
-0.015000014 0.049285702 0.75000006 1.0236698e-38
-0.013535219 0.049154282 0.74800003 1.0981434e-38
-0.012110479 0.049154297 0.74800003 1.1712843e-38
-0.010671429 0.049088564 0.74699998 1.005115e-38
-0.0092485733 0.049088567 0.74699998 8.3034263e-39
-0.007825736 0.049088575 0.74699998 8.7672883e-39
-0.006402852 0.049088564 0.74699998 9.2138723e-39
-0.0049666688 0.048957128 0.745 5.245538e-39
-0.0035476079 0.048957143 0.74500006 1.2001042e-39
-0.002122839 0.048825711 0.74300003 4.2281547e-39
-0.00070759933 0.048825707 0.74300003 7.2648091e-39
0.00070763845 0.048825711 0.74300003 8.6487833e-39
0.0021228753 0.048825707 0.74300003 1.0023444e-38
0.0035381131 0.048825704 0.74300003 1.0301461e-38
0.0049533509 0.048825696 0.74300009 1.0479755e-38
0.0063685682 0.048825718 0.74300003 1.0385054e-38
0.0077838087 0.048825707 0.74300003 1.0207134e-38
0.0091990465 0.048825718 0.74300003 1.0019171e-38
0.010600003 0.048759993 0.74200004 9.743678e-39
0.012013337 0.048759986 0.74200004 9.3698929e-39
0.013426671 0.048759978 0.74200004 9.0111717e-39
0.01480001 0.048628572 0.74000001 8.732808e-39
0.01620952 0.048628569 0.74000001 8.4813926e-39
0.017619044 0.048628569 0.73999995 1.0891054e-38
0.019002853 0.048562843 0.73900002 1.3189094e-38
0.020410473 0.048562858 0.73900002 1.0616267e-38
0.021818114 0.04856284 0.73900002 7.9440605e-39
0.023225721 0.04856284 0.73900002 5.7321095e-39
0.024633339 0.048562851 0.73900002 3.5348833e-39
0.026040943 0.048562847 0.73900002 9.885893e-39
0.027448585 0.048562851 0.73900002 1.6229727e-38
0.029012391 0.0488257 0.74300003 1.448558e-38
0.030427629 0.048825711 0.74300003 1.2724177e-38
-0.049680006 0.051119987 0.75600004 1.9179609e-38
-0.048367623 0.051255241 0.75799996 1.9548737e-38
-0.046800021 0.051119994 0.75600004 1.9826737e-38
-0.045479994 0.051255234 0.75799996 1.8073593e-38
-0.04403621 0.051255237 0.75799996 1.622574e-38
-0.042592395 0.051255237 0.75799996 1.6132446e-38
-0.041148581 0.05125523 0.75799996 1.6049621e-38
-0.039704766 0.051255226 0.75800002 1.8077218e-38
-0.038260955 0.051255237 0.75800002 2.0014013e-38
-0.036720019 0.051119991 0.75599998 1.9732405e-38
-0.035280012 0.051119987 0.75599998 1.9454389e-38
-0.033840008 0.051120002 0.75599998 1.9548018e-38
-0.032357164 0.051052373 0.75500005 1.9733121e-38
-0.030919062 0.051052373 0.75500005 1.9180311e-38
-0.029402856 0.050917137 0.75299996 1.8626424e-38
-0.027931418 0.050849516 0.75200003 1.8718614e-38
