# .PCD v0.7 - Point Cloud Data file format
VERSION 0.7
FIELDS x y z rgb
SIZE 4 4 4 4
TYPE F F F F
COUNT 1 1 1 1
WIDTH 950
HEIGHT 1
VIEWPOINT 0 0 0 1 0 0 0
POINTS 950
DATA ascii
0.027931429 -0.076632373 0.75200003 9.3442085e-39
0.02940283 -0.076734297 0.75300002 8.5936912e-39
0.03091906 -0.076938115 0.755 7.7451644e-39
0.032357164 -0.0769381 0.75500005 7.8261146e-39
0.033839993 -0.077040009 0.75600004 7.8329627e-39
0.035279997 -0.077040009 0.75600004 7.5582073e-39
0.036817141 -0.077243812 0.75800002 7.2826967e-39
0.038361888 -0.07744763 0.76000005 7.5585577e-39
-0.061420009 -0.077700011 0.77700001 7.2963915e-39
-0.059785724 -0.077500008 0.77500004 8.4931285e-39
-0.058309563 -0.077500023 0.77500004 9.322522e-39
-0.056686647 -0.077300005 0.77300006 1.0152636e-38
-0.055142865 -0.077200003 0.77200001 1.0794414e-38
-0.053533334 -0.077 0.77000004 1.1528742e-38
-0.051931459 -0.076800011 0.76800001 1.1715284e-38
-0.050271418 -0.076500006 0.76499999 1.1994375e-38
-0.04868672 -0.076300018 0.76300001 1.1810342e-38
-0.046923798 -0.075800009 0.75800002 1.1717805e-38
-0.045299992 -0.075500004 0.75500005 1.1349761e-38
-0.043745734 -0.075300016 0.75300002 1.0982752e-38
-0.042255256 -0.075200014 0.75200003 1.0979138e-38
-0.040714294 -0.074999996 0.75 1.0980889e-38
-0.039128568 -0.074700005 0.74700004 1.0972236e-38
-0.03760476 -0.074500017 0.74500006 1.1058724e-38
-0.036088549 -0.074299999 0.74299997 1.0593123e-38
-0.034486659 -0.073900007 0.73900002 1.0129989e-38
-0.03298955 -0.073699988 0.73700005 9.4885646e-39
-0.031457152 -0.073400028 0.73400003 8.9375965e-39
-0.029977128 -0.073199995 0.73199999 1.2168385e-38
-0.028543821 -0.073100023 0.73100001 1.5409261e-38
-0.027077127 -0.07290002 0.72900003 1.2197258e-38
-0.025688585 -0.07290002 0.72900009 8.889745e-39
-0.024266679 -0.072799988 0.72800004 8.2454602e-39
-0.022817126 -0.072600015 0.72600001 7.6937297e-39
-0.021434296 -0.072600015 0.72600007 9.4425502e-39
-0.020023847 -0.072500028 0.72500002 1.1192807e-38
-0.018591436 -0.072300009 0.72300005 9.9953582e-39
-0.017214298 -0.072300009 0.72300005 8.8861576e-39
-0.015837129 -0.072300009 0.72300005 1.1650908e-38
-0.014459989 -0.072299995 0.72300005 1.4409559e-38
-0.013119078 -0.072500028 0.72500008 1.4224811e-38
-0.011754278 -0.0726 0.72600001 1.4040065e-38
-0.010399985 -0.072800003 0.72799999 1.5698843e-38
-0.0090133408 -0.072800018 0.72800004 1.7445511e-38
-0.0076371445 -0.07289999 0.72900003 1.7905764e-38
-0.006265705 -0.073100008 0.73100001 1.8366735e-38
-0.0048733153 -0.073100008 0.73099995 1.6158019e-38
-0.0034809546 -0.073099993 0.73100001 1.3856752e-38
-0.0020885649 -0.073100008 0.73100001 1.4503548e-38
-0.00069617527 -0.073100023 0.73099995 1.514281e-38
0.00069618365 -0.073100008 0.73100001 1.1649472e-38
0.0020971452 -0.073400013 0.73400003 8.1546981e-39
0.003504762 -0.073599987 0.73600006 8.246172e-39
0.0049133268 -0.073700018 0.73700005 8.3390879e-39
0.0063171168 -0.073699988 0.73700005 1.1195318e-38
0.0077419365 -0.073900007 0.73899996 1.4041501e-38
0.0091618709 -0.074000023 0.74000007 1.0728247e-38
0.010571406 -0.074000008 0.74000001 7.5118524e-39
0.011980911 -0.074000023 0.74000001 7.8791944e-39
0.01342669 -0.074200012 0.74200004 8.2450986e-39
0.014840014 -0.074200012 0.74200004 8.6142315e-39
0.016253337 -0.074200012 0.74200004 8.9865999e-39
0.017690476 -0.074300013 0.74300003 1.2299855e-38
0.019105697 -0.074299999 0.74300003 1.5608444e-38
0.020576172 -0.074500017 0.74500012 1.3950383e-38
0.022083789 -0.074800022 0.74800003 1.2387386e-38
0.023508573 -0.074800022 0.74800003 1.2293398e-38
0.024999987 -0.074999996 0.75000006 1.2102911e-38
0.026428558 -0.07500001 0.75000006 1.0819008e-38
0.027931431 -0.075200014 0.75200003 9.6276211e-39
0.029402856 -0.075300001 0.75300002 9.2397949e-39
0.030919053 -0.075500004 0.75500005 8.8468456e-39
0.03235713 -0.075500004 0.75500005 8.2910318e-39
0.033839986 -0.075600006 0.75600004 7.7436566e-39
0.035279986 -0.075600006 0.75600004 7.6504366e-39
0.036817174 -0.075800009 0.75800002 7.5582242e-39
0.03826097 -0.075800009 0.75799996 7.5582045e-39
-0.061419971 -0.076220013 0.77699995 6.4673764e-39
-0.059631437 -0.075827621 0.77300006 8.3087596e-39
-0.058159016 -0.075827621 0.77300006 9.6009236e-39
-0.056686677 -0.075827636 0.77300006 1.0794788e-38
-0.055142865 -0.075729527 0.77200001 1.207977e-38
-0.053533319 -0.075533338 0.76999998 1.3367285e-38
-0.051931441 -0.075337164 0.76800001 1.3738955e-38
-0.050271444 -0.075042851 0.76500005 1.4015166e-38
-0.048686706 -0.074846692 0.76300001 1.3648888e-38
-0.046923786 -0.074356206 0.75800002 1.3280475e-38
-0.045360021 -0.074160002 0.75600004 1.2175227e-38
-0.043745734 -0.073865704 0.75300002 1.1067424e-38
-0.042255279 -0.073767625 0.75200009 1.0969453e-38
-0.040605705 -0.073375262 0.74800003 1.0784327e-38
-0.039180953 -0.073375247 0.74800003 1.0959369e-38
-0.037705712 -0.073277138 0.74699998 1.1142329e-38
-0.036185708 -0.073080949 0.74500006 1.0677418e-38
-0.034533344 -0.072590478 0.74000001 1.0129261e-38
-0.033079043 -0.072492383 0.73899996 9.4874744e-39
-0.031542875 -0.072198115 0.73600006 8.8450407e-39
-0.029977148 -0.071805738 0.73199999 1.1880332e-38
-0.028543808 -0.071707629 0.73100001 1.484749e-38
-0.027077135 -0.071511425 0.72900003 1.2108292e-38
-0.025688592 -0.071511455 0.72900009 9.2581632e-39
-0.024266653 -0.071413346 0.72799999 8.9815805e-39
-0.022817139 -0.071217157 0.72600001 8.7049978e-39
-0.021434288 -0.071217157 0.72600007 9.5315172e-39
-0.020023834 -0.071119048 0.72500002 1.0363059e-38
-0.018642874 -0.071119063 0.72500002 9.8124047e-39
-0.017214278 -0.070922874 0.72300005 9.2603155e-39
-0.015880985 -0.071119063 0.72500002 1.1745255e-38
-0.014459995 -0.070922859 0.72300005 1.4225172e-38
-0.013119063 -0.071119063 0.72500002 1.4132976e-38
-0.0117543 -0.071217172 0.72600001 1.4043293e-38
-0.010400016 -0.071413361 0.72800004 1.5703148e-38
-0.0090133417 -0.071413331 0.72800004 1.7354751e-38
-0.0076371511 -0.07151144 0.72900003 1.735511e-38
-0.006265719 -0.071707629 0.73099995 1.7260763e-38
-0.0048733284 -0.071707614 0.73099995 1.5144959e-38
-0.0034809685 -0.071707629 0.73100001 1.3032385e-38
-0.002088578 -0.071707629 0.73099995 1.4232347e-38
-0.00069618924 -0.071707614 0.73099995 1.5421545e-38
0.00069617154 -0.071707644 0.73100001 1.1836372e-38
0.0020971452 -0.072001912 0.73400003 8.1550568e-39
0.0035047536 -0.072198115 0.73600006 8.152903e-39
0.0049133128 -0.072296195 0.73700005 8.159363e-39
0.0063171028 -0.072296225 0.73700005 1.1478358e-38
0.0077419155 -0.072492383 0.73899996 1.4776185e-38
0.0091495253 -0.072492398 0.73900002 1.1094514e-38
0.010571405 -0.072590493 0.74000007 7.3285415e-39
0.011980941 -0.072590493 0.74000001 7.6033306e-39
0.013426683 -0.072786681 0.74200004 7.8781168e-39
0.014840007 -0.072786681 0.74200004 8.1521855e-39
0.016275218 -0.072884761 0.74300003 8.3437514e-39
0.017690493 -0.072884761 0.74300003 1.1933589e-38
0.019157114 -0.073080964 0.74500012 1.5422262e-38
0.020631434 -0.073277153 0.74700004 1.3764558e-38
0.022083811 -0.073375262 0.74800003 1.2019685e-38
0.023508564 -0.073375247 0.74800009 1.2203715e-38
0.025000002 -0.073571436 0.75 1.2291604e-38
0.026428573 -0.073571436 0.75000006 1.1093797e-38
0.027931409 -0.073767625 0.75200003 9.8066356e-39
0.029402856 -0.073865719 0.75300002 9.8905495e-39
0.030919071 -0.074061908 0.755 9.8634989e-39
0.032357149 -0.074061923 0.755 8.7469793e-39
0.033839967 -0.074160002 0.75600004 7.6489288e-39
0.035279971 -0.074160032 0.75600004 7.7407951e-39
0.036817152 -0.074356221 0.75800002 7.7415098e-39
0.038260944 -0.074356206 0.75800002 7.6503904e-39
-0.06126193 -0.074547611 0.77500004 5.7301953e-39
-0.059785716 -0.074547626 0.77500004 8.2137152e-39
-0.05815905 -0.074355252 0.77300006 9.2296593e-39
-0.056613334 -0.074259035 0.77200001 1.0243437e-38
-0.054999989 -0.074066661 0.76999998 1.106888e-38
-0.05339428 -0.073874287 0.76800001 1.1896522e-38
-0.051931452 -0.073874302 0.76800001 1.2450809e-38
-0.05027144 -0.073585741 0.76500005 1.3097222e-38
-0.048686691 -0.073393337 0.76300001 1.3190827e-38
-0.046923783 -0.072912388 0.75799996 1.3284454e-38
-0.045360032 -0.072720014 0.75600004 1.1530607e-38
-0.043745734 -0.072431408 0.75300002 9.867117e-39
-0.042255245 -0.072335251 0.75200003 1.0046793e-38
-0.040714297 -0.072142847 0.75 1.0319792e-38
-0.039180957 -0.071950488 0.74800003 1.0500598e-38
-0.037705716 -0.071854286 0.74699998 1.0772137e-38
-0.03618573 -0.071661912 0.74500006 1.0588445e-38
-0.034626685 -0.071373336 0.74200004 1.0405473e-38
-0.03312381 -0.071180962 0.74000001 9.5775009e-39
-0.031585731 -0.070892401 0.73700011 8.7478201e-39
-0.029977169 -0.070411436 0.73199999 1.0686477e-38
-0.028543822 -0.070315234 0.73099995 1.2645236e-38
-0.027077138 -0.070122875 0.72900003 1.1182763e-38
-0.025688566 -0.07012286 0.72900003 9.7159057e-39
-0.024300026 -0.070122875 0.72900003 9.164534e-39
-0.022817165 -0.069834314 0.72600001 8.6131623e-39
-0.021434281 -0.069834299 0.72600007 9.3499986e-39
-0.020023854 -0.069738083 0.72500002 1.0180823e-38
-0.018642891 -0.069738112 0.72500002 9.720928e-39
-0.017261934 -0.069738097 0.72500002 9.2599568e-39
-0.015880972 -0.069738097 0.72500002 1.165055e-38
-0.014500013 -0.069738097 0.72500002 1.4132978e-38
-0.013119053 -0.069738097 0.72500002 1.404186e-38
-0.011754292 -0.069834314 0.72600001 1.40415e-38
-0.01039999 -0.070026673 0.72800004 1.5514812e-38
-0.0090257283 -0.07012286 0.72900009 1.698705e-38
-0.0076371566 -0.070122875 0.72900003 1.7260403e-38
-0.0062657059 -0.070315249 0.73099995 1.7441564e-38
-0.0048733461 -0.070315234 0.73100001 1.551266e-38
-0.0034809574 -0.070315234 0.73100001 1.3579452e-38
-0.0020885677 -0.070315249 0.73099995 1.431916e-38
-0.00069617713 -0.070315234 0.73099995 1.5148549e-38
0.00069618272 -0.070315264 0.73100001 1.1650189e-38
0.0021028784 -0.070796199 0.736 8.2418714e-39
0.0035047713 -0.070796199 0.73600006 8.1525443e-39
0.0049132989 -0.070892386 0.73700005 8.0642989e-39
0.0063171447 -0.070892401 0.73700005 1.1195318e-38
0.0077419207 -0.071084775 0.73899996 1.4225531e-38
0.00914953 -0.07108476 0.73900002 1.0820802e-38
0.010571409 -0.071180962 0.74000001 7.5122125e-39
0.011980914 -0.071180962 0.74000001 7.5118538e-39
0.013426675 -0.071373366 0.74200004 7.6036865e-39
0.014840002 -0.071373321 0.74199998 7.9713844e-39
0.016275233 -0.071469538 0.74300003 8.3426752e-39
0.017738109 -0.071661912 0.74500006 1.2115467e-38
0.019157147 -0.071661912 0.74500006 1.5882514e-38
0.020631406 -0.071854286 0.74700004 1.4133334e-38
0.022083808 -0.071950473 0.74800003 1.2478503e-38
0.02350856 -0.071950488 0.74800003 1.2571774e-38
0.024999985 -0.072142862 0.75000006 1.2755804e-38
0.026428558 -0.072142862 0.75000006 1.1004473e-38
0.027931411 -0.072335251 0.75200009 9.3492588e-39
0.02940283 -0.072431438 0.75300002 9.0579442e-39
0.030919064 -0.072623827 0.75500005 8.8464995e-39
0.032399982 -0.072720014 0.75600004 8.2892353e-39
0.033839986 -0.072720014 0.75600004 7.7421782e-39
0.035279986 -0.072720014 0.75600004 7.8333047e-39
0.03681716 -0.072912388 0.75800002 8.0162736e-39
0.038260952 -0.072912402 0.75800002 7.7415e-39
-0.061261944 -0.073071457 0.77500004 5.0877252e-39
-0.059785731 -0.073071443 0.77500004 8.0286218e-39
-0.05830954 -0.073071443 0.77500004 8.8608908e-39
-0.056686655 -0.072882868 0.773 9.5973741e-39
-0.054999981 -0.072600015 0.77000004 9.9643629e-39
-0.053394295 -0.07241144 0.76800001 1.0332809e-38
-0.051863827 -0.072317146 0.76700008 1.1254421e-38
-0.050271437 -0.072128586 0.76500005 1.2176712e-38
-0.048686709 -0.071940027 0.76300001 1.2732739e-38
-0.047047649 -0.071657158 0.76000011 1.3280499e-38
-0.045479983 -0.071468569 0.75800002 1.0979567e-38
-0.043861914 -0.071185715 0.75500005 8.5806844e-39
-0.042255241 -0.070902862 0.75200003 9.2145253e-39
-0.040714312 -0.070714287 0.75000006 9.8588241e-39
-0.039180961 -0.070525728 0.74800009 1.0135064e-38
-0.037705716 -0.070431419 0.74700004 1.0316939e-38
-0.036185697 -0.070242859 0.74500006 1.0498457e-38
-0.034626663 -0.069960006 0.74200004 1.0589882e-38
-0.03312384 -0.069771446 0.74000001 9.5774882e-39
-0.031585716 -0.069488592 0.73700005 8.5619476e-39
-0.029977161 -0.06901715 0.73200005 9.4728e-39
-0.028543809 -0.06892287 0.73099995 1.0332445e-38
-0.027151451 -0.068922855 0.73100001 1.0261538e-38
-0.025688576 -0.068734296 0.72900003 1.0172931e-38
-0.024300009 -0.068734311 0.72900009 9.3478463e-39
-0.022880005 -0.068640001 0.72799999 8.5213268e-39
-0.021493331 -0.068640016 0.72799999 9.257803e-39
-0.02005142 -0.068451442 0.72600001 9.903164e-39
-0.018642882 -0.068357132 0.72500002 9.5379744e-39
-0.01726192 -0.068357162 0.72500002 9.1681213e-39
-0.015880991 -0.068357162 0.72500002 1.164768e-38
-0.014500031 -0.068357162 0.72500002 1.404186e-38
-0.013137142 -0.068451442 0.72600001 1.4044012e-38
-0.011754285 -0.068451442 0.72600001 1.3950382e-38
-0.010399993 -0.068640016 0.72799999 1.5326838e-38
-0.0090257339 -0.068734311 0.72900009 1.6615762e-38
-0.0076371632 -0.068734296 0.72900003 1.7165699e-38
-0.0062657217 -0.068922855 0.73099995 1.7627029e-38
-0.004873361 -0.068922855 0.73100001 1.5885026e-38
-0.0034809713 -0.068922855 0.73100001 1.4041141e-38
-0.0020885807 -0.068922855 0.73099995 1.4407767e-38
-0.00069621997 -0.068922885 0.73100001 1.4776542e-38
0.00069616968 -0.06892284 0.73100001 1.1557278e-38
0.00210287 -0.069394298 0.736 8.2447399e-39
0.0035047638 -0.069394298 0.73600006 8.1511065e-39
0.0049133119 -0.069488592 0.73700011 7.9728207e-39
0.0063171308 -0.069488563 0.73700005 1.0828694e-38
0.0077419253 -0.069677137 0.73900002 1.3671648e-38
0.0091495346 -0.069677137 0.73900002 1.0634261e-38
0.010571408 -0.069771446 0.74000007 7.6036893e-39
0.011980943 -0.069771446 0.74000001 7.5118538e-39
0.013426667 -0.069960035 0.74200004 7.32818e-39
0.01484002 -0.069960006 0.74200004 7.7873547e-39
0.016275249 -0.0700543 0.74299997 8.2515572e-39
0.017738089 -0.070242845 0.74500006 1.2302366e-38
0.019208547 -0.070431449 0.74700004 1.6248782e-38
0.020659048 -0.070525728 0.74800003 1.4591436e-38
0.0220838 -0.070525728 0.74800009 1.2938758e-38
0.023508584 -0.070525743 0.74800003 1.3032387e-38
0.025 -0.070714287 0.75 1.3119559e-38
0.026428573 -0.070714287 0.75000006 1.1002679e-38
0.027931418 -0.070902877 0.75200003 8.796099e-39
0.029402832 -0.070997141 0.75300002 8.3282951e-39
0.030919056 -0.071185715 0.755 7.8409852e-39
0.032399971 -0.07128001 0.75600004 7.821821e-39
0.033839971 -0.071280025 0.75600004 7.7393238e-39
0.035373345 -0.071468569 0.75799996 8.0173526e-39
0.036817167 -0.071468569 0.75799996 8.2925102e-39
0.038260989 -0.071468569 0.75799996 7.9244619e-39
-0.059940003 -0.071780004 0.77699995 6.7379167e-39
-0.058459997 -0.071780019 0.77700001 8.307015e-39
-0.056833342 -0.071595244 0.77500004 9.8718184e-39
-0.054999974 -0.071133323 0.76999998 1.0054424e-38
-0.053324766 -0.070856191 0.76700002 1.0328507e-38
-0.051863804 -0.070856191 0.76700002 1.1160776e-38
-0.050271437 -0.070671447 0.76500005 1.199017e-38
-0.048686698 -0.070486687 0.76300001 1.2727369e-38
-0.047047649 -0.07020954 0.76000005 1.3461652e-38
-0.045480002 -0.070024766 0.75800002 1.1343654e-38
-0.043861896 -0.069747634 0.755 9.2210035e-39
-0.042255264 -0.069470473 0.75200003 9.5850861e-39
-0.040714297 -0.069285728 0.75 9.8581095e-39
-0.039285727 -0.069285713 0.75000006 1.0135795e-38
-0.037756216 -0.069100969 0.74800003 1.0412396e-38
-0.036185719 -0.068823822 0.74500006 1.077832e-38
-0.034673318 -0.068639062 0.74299997 1.1235261e-38
-0.033123814 -0.068361931 0.74000001 1.0313593e-38
-0.031671446 -0.068269528 0.73900002 9.4798948e-39
-0.030059079 -0.067807622 0.73400003 1.0125966e-38
-0.028582871 -0.067622863 0.73200005 1.0878393e-38
-0.027151436 -0.067530505 0.73100001 1.0622781e-38
-0.025688577 -0.067345716 0.72900003 1.0448437e-38
-0.024300013 -0.067345716 0.72900009 9.2549346e-39
-0.022879981 -0.067253359 0.72799999 8.0603542e-39
-0.021434298 -0.067068569 0.72600001 8.8893834e-39
-0.020051442 -0.067068569 0.72600001 9.7180567e-39
-0.018642899 -0.066976212 0.72500002 9.719493e-39
-0.017261937 -0.066976227 0.72500002 9.7162644e-39
-0.01588098 -0.066976212 0.72500002 1.1650191e-38
-0.014500017 -0.066976212 0.72500002 1.3587705e-38
-0.013137136 -0.067068569 0.72600001 1.3952535e-38
-0.011754278 -0.067068569 0.72600001 1.4408843e-38
-0.010400022 -0.067253344 0.72800004 1.5419391e-38
-0.0090257106 -0.067345716 0.72900003 1.6340257e-38
-0.0076371687 -0.067345716 0.72900009 1.7075657e-38
-0.0062657087 -0.067530476 0.73099995 1.7902895e-38
-0.0048733489 -0.06753049 0.73100001 1.6156227e-38
-0.0034809583 -0.06753049 0.73099995 1.4404178e-38
-0.0020828615 -0.067345731 0.72900009 1.4682913e-38
-0.00069620879 -0.06753049 0.73100001 1.5053125e-38
0.00069714012 -0.067622863 0.73200005 1.1832784e-38
0.0020914269 -0.067622863 0.73199999 8.6095694e-39
0.0035047815 -0.067992397 0.73600006 8.2415043e-39
0.0049066781 -0.067992367 0.736 7.7852023e-39
0.0063171177 -0.068084769 0.73700005 1.0732553e-38
0.0077209366 -0.068084754 0.73700005 1.367093e-38
0.0091495141 -0.068269528 0.73900002 1.0544576e-38
0.010557152 -0.068269528 0.73900002 7.4196596e-39
0.011980916 -0.068361945 0.74000001 7.4196596e-39
0.013390451 -0.068361916 0.74000001 7.5111335e-39
0.014839986 -0.068546675 0.74200004 7.6036837e-39
0.016275236 -0.068639062 0.74300003 7.7877162e-39
0.017738096 -0.068823807 0.74500006 1.1561943e-38
0.019208575 -0.069008552 0.74699998 1.5423338e-38
0.020631431 -0.069008581 0.74699998 1.4226248e-38
0.022083797 -0.069100969 0.74800003 1.312207e-38
0.023508549 -0.069100969 0.74800003 1.2937323e-38
0.024999985 -0.069285743 0.75000006 1.2840824e-38
0.026428558 -0.069285713 0.75000006 1.0727531e-38
0.027931424 -0.069470488 0.75200003 8.6156622e-39
0.029402858 -0.069562845 0.75300002 8.1392544e-39
0.030919047 -0.069747634 0.75500005 7.6533807e-39
0.032357153 -0.069747634 0.75500005 7.6471323e-39
0.033839986 -0.069840021 0.75600004 7.651091e-39
0.035373323 -0.070024766 0.75800002 7.465639e-39
0.036817145 -0.070024766 0.75800002 7.2830512e-39
0.038361877 -0.070209526 0.76000005 7.3745336e-39
-0.059939995 -0.070300005 0.77700001 5.4522211e-39
-0.05845999 -0.070300005 0.77699995 7.7574412e-39
-0.056833357 -0.070119075 0.77500004 1.0054413e-38
-0.055142883 -0.069847606 0.77200001 1.0144463e-38
-0.053324774 -0.069395252 0.76700002 1.0238817e-38
-0.051728573 -0.069214307 0.76500005 1.1070006e-38
-0.050271429 -0.069214292 0.76500005 1.1805771e-38
-0.048686687 -0.069033347 0.76300001 1.2724851e-38
-0.047047656 -0.068761908 0.76000005 1.3550621e-38
-0.045479972 -0.068580963 0.75799996 1.1712444e-38
-0.043861903 -0.068309538 0.75500005 9.8692442e-39
-0.04225523 -0.068038099 0.75200003 9.8634722e-39
-0.040714309 -0.067857124 0.75000006 9.8631345e-39
-0.039180946 -0.067676194 0.74800003 1.0229064e-38
-0.037705716 -0.067585699 0.74699998 1.050494e-38
-0.036185738 -0.067404784 0.74500012 1.1149953e-38
-0.034626681 -0.06713336 0.74200004 1.1789519e-38
-0.033123836 -0.0669524 0.74000001 1.1053707e-38
-0.031671409 -0.066861905 0.73899996 1.0312548e-38
-0.030059077 -0.066409551 0.73400003 1.0856368e-38
-0.02858286 -0.066228576 0.73199999 1.1337581e-38
-0.027151451 -0.066138111 0.73100001 1.0994428e-38
-0.025688589 -0.065957166 0.72900003 1.0631391e-38
-0.024299992 -0.065957151 0.72900003 9.0716223e-39
-0.022911448 -0.065957151 0.72900009 7.5104175e-39
-0.02149334 -0.065866686 0.72800004 8.5206079e-39
-0.020051433 -0.065685697 0.72600001 9.4425502e-39
-0.018642884 -0.065595232 0.72500002 9.9060339e-39
-0.017261926 -0.065595247 0.72500002 1.0270863e-38
-0.015880994 -0.065595262 0.72500002 1.1648394e-38
-0.014520012 -0.065685712 0.72600001 1.3033103e-38
-0.013137128 -0.065685697 0.72600001 1.3953612e-38
-0.011786672 -0.065866701 0.72800004 1.4869455e-38
-0.010414288 -0.065957151 0.72900003 1.5510152e-38
-0.0090504745 -0.066138096 0.73100001 1.606475e-38
-0.0076580844 -0.066138096 0.73100001 1.7077093e-38
-0.0062656947 -0.066138096 0.73099995 1.8086925e-38
-0.004873334 -0.066138096 0.73100001 1.6432811e-38
-0.0034809443 -0.066138096 0.73100001 1.4776903e-38
-0.0020885565 -0.066138096 0.73099995 1.5050615e-38
-0.00069619576 -0.066138096 0.73100001 1.5235363e-38
0.00069715129 -0.066228576 0.73199999 1.2111162e-38
0.0021028505 -0.066590495 0.73600006 8.9801399e-39
0.0035047731 -0.066590466 0.73600006 8.3276001e-39
0.0049133138 -0.06668096 0.73700005 7.6036837e-39
0.0063171335 -0.06668096 0.73700005 1.0645381e-38
0.007720924 -0.066680945 0.73700005 1.358053e-38
0.0091495477 -0.066861905 0.73899996 1.0361624e-38
0.010571411 -0.0669524 0.74000007 7.1445104e-39
0.011980945 -0.0669524 0.74000001 7.4189393e-39
0.013426681 -0.06713333 0.74200004 7.6948031e-39
0.014860006 -0.067223825 0.74299997 7.5114909e-39
0.016319064 -0.067404769 0.74500006 7.2395745e-39
0.017738078 -0.067404769 0.74500006 1.0918018e-38
0.019234281 -0.067676209 0.74800003 1.4595025e-38
0.020659035 -0.067676209 0.74800009 1.3951818e-38
0.022142854 -0.067857139 0.75000006 1.3214264e-38
0.023571398 -0.067857154 0.75000006 1.293804e-38
0.024999999 -0.067857154 0.75 1.2566393e-38
0.026499037 -0.068038099 0.75200003 1.0450948e-38
0.0279314 -0.068038113 0.75200003 8.3358551e-39
0.02940283 -0.068128578 0.75300002 7.8673436e-39
0.030919068 -0.068309523 0.755 7.384344e-39
0.032399975 -0.068400003 0.75600004 7.4627621e-39
0.033839975 -0.068400003 0.75600004 7.4645684e-39
0.035279978 -0.068400018 0.75600004 6.8188613e-39
0.036817152 -0.068580963 0.75800002 6.1803148e-39
0.038361903 -0.068761908 0.76000005 6.8249555e-39
0.039809518 -0.068761922 0.76000005 7.3756013e-39
-0.060094327 -0.068997137 0.77900004 4.8050678e-39
-0.058459982 -0.068820022 0.77700001 7.3875923e-39
-0.056980006 -0.068820007 0.77700001 1.0055491e-38
-0.055214278 -0.068465747 0.77300006 1.0146254e-38
-0.053324778 -0.067934312 0.76700008 1.0329928e-38
-0.051728599 -0.067757152 0.76500005 1.0976724e-38
-0.050271451 -0.067757152 0.76500005 1.1713569e-38
-0.048686702 -0.067580022 0.76300001 1.2264947e-38
-0.047047626 -0.06731429 0.76000005 1.2904905e-38
-0.045479994 -0.067137159 0.75800002 1.1711021e-38
-0.043861885 -0.066871442 0.75500005 1.0607885e-38
-0.042255256 -0.066605724 0.75200003 1.0419876e-38
-0.040714271 -0.066428579 0.75 1.0327697e-38
-0.039180983 -0.066251449 0.74800003 1.0508155e-38
-0.037705719 -0.066162862 0.74699998 1.0779004e-38
-0.036185727 -0.065985717 0.74500006 1.0870485e-38
-0.034673341 -0.065808572 0.74300003 1.105593e-38
-0.033213332 -0.065719999 0.74200004 1.0687132e-38
-0.031671405 -0.065454282 0.73899996 1.0319399e-38
-0.030059077 -0.065011449 0.73400003 1.0498733e-38
-0.028582877 -0.064834304 0.73199999 1.0784427e-38
-0.027151439 -0.064745702 0.73100001 1.0805376e-38
-0.025688568 -0.064568587 0.72900003 1.0817573e-38
-0.024299994 -0.064568572 0.72900003 9.531876e-39
-0.022911454 -0.064568587 0.72900009 8.2465378e-39
-0.021493338 -0.064479999 0.72799999 8.6138783e-39
-0.020051423 -0.064302839 0.72600001 9.0748509e-39
-0.018668568 -0.064302869 0.72600001 9.9964344e-39
-0.017261941 -0.064214297 0.72500002 1.1005905e-38
-0.01590286 -0.064302869 0.72600001 1.164875e-38
-0.014520003 -0.064302854 0.72600001 1.239097e-38
-0.013137148 -0.064302854 0.72600001 1.3585911e-38
-0.011786673 -0.064479999 0.72800004 1.4777979e-38
-0.010414294 -0.064568602 0.72900003 1.5053126e-38
-0.0090257227 -0.064568572 0.72900003 1.542298e-38
-0.0076580984 -0.064745717 0.73099995 1.6341692e-38
-0.0062657394 -0.064745717 0.73100001 1.7261842e-38
-0.0048733498 -0.064745717 0.73100001 1.6342411e-38
-0.0034809601 -0.064745702 0.73099995 1.5331503e-38
-0.0020885696 -0.064745717 0.73099995 1.5236797e-38
-0.00069620972 -0.064745732 0.73100001 1.5237156e-38
0.00069713267 -0.064834289 0.73199999 1.2570339e-38
0.0021028682 -0.065188579 0.73600006 9.9942764e-39
0.0035047657 -0.065188579 0.736 8.426969e-39
0.0049132998 -0.065277152 0.73700011 6.9619114e-39
0.0063171196 -0.065277152 0.73700005 1.0457764e-38
0.00772091 -0.065277152 0.73700005 1.3949666e-38
0.0091495533 -0.065454297 0.73899996 1.1832427e-38
0.010571415 -0.065542884 0.74000001 9.805586e-39
0.012013349 -0.065720014 0.74200004 8.6117204e-39
0.013426673 -0.065720014 0.74200004 7.4185792e-39
0.014859993 -0.065808572 0.74300003 8.9830126e-39
0.016319044 -0.065985717 0.74500012 1.0639282e-38
0.017785713 -0.066162862 0.74699998 1.2479939e-38
0.019234277 -0.066251449 0.74800003 1.4320954e-38
0.020659031 -0.066251449 0.74800003 1.3951459e-38
0.022083785 -0.066251434 0.74800009 1.3672007e-38
0.023571413 -0.066428579 0.75 1.2936247e-38
0.024999984 -0.066428579 0.75000006 1.2290169e-38
0.02649904 -0.066605724 0.75200009 1.0267995e-38
0.027931403 -0.066605739 0.75200009 8.246535e-39
0.029402833 -0.066694282 0.75300002 7.7715691e-39
0.030919056 -0.066871427 0.75500005 7.2882178e-39
0.03239999 -0.06696 0.75600004 7.280903e-39
0.033839993 -0.06696 0.75600004 7.2830666e-39
0.035373364 -0.067137145 0.75799996 7.0064951e-39
0.03681716 -0.067137145 0.75799996 6.6405769e-39
0.038361873 -0.067314275 0.76000005 7.1001019e-39
-0.061419986 -0.067340009 0.77700001 4.0635511e-39
-0.05994001 -0.067340009 0.77700001 4.165085e-39
-0.058309563 -0.067166694 0.77500004 7.1163892e-39
-0.056833349 -0.067166679 0.77500004 9.9632937e-39
-0.055142887 -0.066906668 0.77200001 1.0147326e-38
-0.053394273 -0.066560008 0.76800001 1.0331359e-38
-0.051863845 -0.066473357 0.76700002 1.0977081e-38
-0.050271422 -0.066299997 0.76500005 1.1529896e-38
-0.048686691 -0.066126697 0.76300001 1.1900477e-38
-0.047047656 -0.065866672 0.76000005 1.2173098e-38
-0.04536004 -0.065520026 0.75600004 1.1710676e-38
-0.04374573 -0.065260001 0.75300002 1.1250392e-38
-0.042255253 -0.06517335 0.75200003 1.0971627e-38
-0.040714286 -0.065000005 0.75000006 1.0696136e-38
-0.039180957 -0.064826675 0.74800003 1.0880898e-38
-0.037705719 -0.064739995 0.74700004 1.0965556e-38
-0.036185727 -0.064566679 0.74500012 1.0588884e-38
-0.034673326 -0.064393334 0.74299997 1.022583e-38
-0.033213343 -0.064306684 0.74200004 1.0227965e-38
-0.031671401 -0.064046673 0.73900002 1.0225068e-38
-0.030140949 -0.063786678 0.73600006 1.0218941e-38
-0.028582871 -0.063440003 0.73200005 1.0142305e-38
-0.027188588 -0.063440017 0.73199999 1.0533098e-38
-0.025759038 -0.063353337 0.73100001 1.0907615e-38
-0.024366677 -0.063353352 0.73100001 9.8999354e-39
-0.022911429 -0.063180022 0.72900003 8.8890275e-39
-0.021522865 -0.063180022 0.72900009 8.7964731e-39
-0.02010667 -0.063093357 0.72800004 8.6156734e-39
-0.018668562 -0.062919997 0.72600001 1.0182258e-38
-0.017285738 -0.062919997 0.72600001 1.1739871e-38
-0.015902855 -0.062920012 0.72600001 1.1733413e-38
-0.014519998 -0.062920012 0.72600001 1.1653775e-38
-0.013137142 -0.062919997 0.72600001 1.3128886e-38
-0.011786675 -0.063093342 0.72799999 1.4594666e-38
-0.0104143 -0.063180007 0.72900003 1.4684708e-38
-0.0090257283 -0.063180022 0.72900003 1.4778336e-38
-0.0076580872 -0.063353337 0.73099995 1.5605214e-38
-0.0062657273 -0.063353337 0.73100001 1.6434604e-38
-0.0048733377 -0.063353337 0.73100001 1.6159457e-38
-0.0034809471 -0.063353337 0.73099995 1.5882156e-38
-0.0020885873 -0.063353352 0.73100001 1.5511944e-38
-0.00069619669 -0.063353337 0.73100001 1.5144603e-38
0.00069713918 -0.063440003 0.73200005 1.3030952e-38
0.0021028607 -0.063786678 0.73600006 1.0912274e-38
0.0035047834 -0.063786678 0.73600006 8.6081316e-39
0.0049133156 -0.063873328 0.73700005 6.3183469e-39
0.0063171317 -0.063873343 0.73700005 1.0274093e-38
0.0077209519 -0.063873328 0.73700005 1.4223737e-38
0.0091495328 -0.064046673 0.73899996 1.33965e-38
0.010571388 -0.064133354 0.74000001 1.2473122e-38
0.011980947 -0.064133354 0.74000001 9.8030735e-39
0.013426669 -0.064306669 0.74199998 7.144509e-39
0.014839992 -0.064306669 0.74200004 1.054637e-38
0.016319051 -0.064566679 0.74500006 1.3948589e-38
0.017785709 -0.06474001 0.74700004 1.404186e-38
0.0192343 -0.064826675 0.74800003 1.4043295e-38
0.020659054 -0.06482666 0.74800003 1.4045088e-38
0.022083806 -0.06482669 0.74800003 1.4041142e-38
0.023571424 -0.065000005 0.75000006 1.3027723e-38
0.024999999 -0.065000005 0.75 1.1923545e-38
0.026499046 -0.065173335 0.75200003 1.0084324e-38
0.027931437 -0.06517335 0.75200003 8.151831e-39
0.02940286 -0.065260015 0.75300002 7.6836838e-39
0.030919077 -0.065433331 0.755 7.1099264e-39
0.032400005 -0.065520011 0.75600004 7.0889756e-39
0.033840004 -0.065520011 0.75600004 7.0968761e-39
0.035373341 -0.065693356 0.75800002 7.1001131e-39
0.036817137 -0.065693341 0.75800002 7.1001089e-39
0.038260959 -0.065693341 0.75800002 7.4663719e-39
0.039861891 -0.065953352 0.76100004 7.7429419e-39
-0.061578128 -0.066029541 0.77900004 3.6990706e-39
-0.060094334 -0.066029541 0.77900004 3.5218736e-39
-0.058459997 -0.065860011 0.77700001 6.284846e-39
-0.056833364 -0.065690495 0.77500004 9.0445772e-39
-0.055357151 -0.065690495 0.77500004 9.8714568e-39
-0.053672414 -0.065436192 0.77200001 1.0697981e-38
-0.051931452 -0.065097161 0.76800001 1.106712e-38
-0.050271444 -0.064842872 0.76500005 1.1436267e-38
-0.048686676 -0.064673357 0.76300001 1.2081997e-38
-0.047047634 -0.064419053 0.76000005 1.2726629e-38
-0.045299977 -0.06399525 0.755 1.2080901e-38
-0.043687638 -0.063740961 0.75200003 1.1526993e-38
-0.042255271 -0.063740976 0.75200003 1.1154961e-38
-0.040714301 -0.063571446 0.75000006 1.0879468e-38
-0.039180964 -0.0634019 0.74800003 1.1339377e-38
-0.037705723 -0.063317142 0.74700004 1.179675e-38
-0.036185715 -0.063147612 0.74500006 1.0686462e-38
-0.034673341 -0.062978111 0.74300003 9.6730302e-39
-0.033123832 -0.062723823 0.74000001 9.4875529e-39
-0.03167142 -0.06263905 0.73899996 9.3989222e-39
-0.030140955 -0.062384777 0.73600006 9.4867878e-39
-0.02858286 -0.062045716 0.73199999 9.6748869e-39
-0.027188579 -0.062045731 0.73200005 1.0250417e-38
-0.025759049 -0.061960958 0.73099995 1.0819008e-38
-0.02436669 -0.061960958 0.73100001 9.6247877e-39
-0.022974297 -0.061960973 0.73100001 8.5213268e-39
-0.02152287 -0.061791442 0.72900009 8.4298486e-39
-0.02010667 -0.061706685 0.72800004 8.3376558e-39
-0.018668588 -0.061537154 0.72600007 9.995717e-39
-0.017285731 -0.061537139 0.72600001 1.1741666e-38
-0.015902847 -0.061537154 0.72600001 1.1372169e-38
-0.01451999 -0.061537154 0.72600001 1.092268e-38
-0.013173323 -0.061706685 0.72799999 1.2759033e-38
-0.011786649 -0.06170667 0.72799999 1.4684708e-38
-0.010414308 -0.061791442 0.72900009 1.4593949e-38
-0.0090257106 -0.061791427 0.72900003 1.4594306e-38
-0.0076581012 -0.061960958 0.73099995 1.5882513e-38
-0.0062657152 -0.061960973 0.73100001 1.7262199e-38
-0.0048733247 -0.061960958 0.73100001 1.6802304e-38
-0.003480935 -0.061960958 0.73099995 1.6341692e-38
-0.0020885761 -0.061960958 0.73100001 1.5419748e-38
-0.00069618644 -0.061960973 0.73100001 1.4501753e-38
0.00069903908 -0.062215246 0.73400003 1.2662175e-38
0.0021028523 -0.062384777 0.73600006 1.0912993e-38
0.003504775 -0.062384762 0.736 9.2549276e-39
0.0049133287 -0.062469535 0.73700005 7.6940871e-39
0.0063171186 -0.062469535 0.73700011 1.073076e-38
0.007720938 -0.062469535 0.73700005 1.3764918e-38
0.0091495384 -0.06263905 0.73899996 1.3213188e-38
0.010571416 -0.062723823 0.74000001 1.2662175e-38
0.011980921 -0.062723838 0.74000001 1.1464366e-38
0.013426687 -0.062893353 0.74200004 1.026943e-38
0.01486 -0.062978081 0.74299997 1.1927491e-38
0.016319031 -0.063147642 0.74500006 1.3679181e-38
0.017785711 -0.063317142 0.74699998 1.3858189e-38
0.019234266 -0.063401915 0.74800003 1.4040425e-38
0.02065905 -0.063401915 0.74800003 1.4227683e-38
0.022083802 -0.063401915 0.74800003 1.4317366e-38
0.023571413 -0.063571431 0.75 1.3305741e-38
0.024999984 -0.063571431 0.75000006 1.2292322e-38
0.02649905 -0.063740961 0.75200003 1.0176877e-38
0.027968545 -0.063825704 0.75300002 8.1539848e-39
0.02940283 -0.063825719 0.75300002 7.8666401e-39
0.030919068 -0.06399525 0.75500005 7.4804955e-39
0.032357149 -0.063995264 0.75500005 7.191566e-39
0.033839963 -0.064080007 0.75600004 7.0068258e-39
0.035279967 -0.064080022 0.75600004 6.9139197e-39
0.036719996 -0.064080022 0.75600004 6.825317e-39
0.038260963 -0.064249538 0.75800002 7.3752566e-39
0.039809506 -0.064419053 0.76000005 7.9255409e-39
-0.061578128 -0.064545713 0.77900004 3.3288504e-39
-0.060094334 -0.064545728 0.77900004 2.7832422e-39
-0.05846002 -0.064380012 0.77700001 5.4568986e-39
-0.056833349 -0.064214297 0.77500004 8.0315183e-39
-0.055214282 -0.064048581 0.77300006 9.5044708e-39
-0.053672384 -0.063965715 0.77200001 1.0973849e-38
-0.052066647 -0.063799985 0.77000004 1.1157171e-38
-0.050402865 -0.063551448 0.76700002 1.125152e-38
-0.048814297 -0.063385732 0.76500005 1.2264942e-38
-0.047109529 -0.063054316 0.76100004 1.3185088e-38
-0.045360036 -0.062640019 0.75600004 1.2450401e-38
-0.04368766 -0.062308587 0.75200003 1.1710312e-38
-0.042255241 -0.062308572 0.75200003 1.1333619e-38
-0.040714286 -0.062142871 0.75000006 1.0969507e-38
-0.039180972 -0.06197717 0.74800009 1.1800334e-38
-0.037756186 -0.061977141 0.74800003 1.2530339e-38
-0.036282863 -0.061894305 0.74700004 1.0870829e-38
-0.034766667 -0.061728574 0.74500006 9.1194977e-39
-0.033123832 -0.061314307 0.74000001 8.8343068e-39
-0.031714298 -0.061314292 0.74000001 8.4716031e-39
-0.030059051 -0.06081716 0.73400003 8.8374849e-39
-0.028582852 -0.060651459 0.73199999 9.2189394e-39
-0.027188566 -0.060651429 0.73199999 9.9738343e-39
-0.025759036 -0.060568579 0.73099995 1.0629956e-38
-0.024366677 -0.060568593 0.73100001 9.3503574e-39
-0.022974286 -0.060568579 0.73100001 8.0632255e-39
-0.021522876 -0.060402878 0.72900009 8.0632255e-39
-0.020134306 -0.060402878 0.72900009 7.9728249e-39
-0.018720025 -0.060320012 0.72800004 9.9053164e-39
-0.017285723 -0.060154311 0.72600001 1.1739512e-38
-0.015902868 -0.060154296 0.72600001 1.0998726e-38
-0.014559999 -0.060319997 0.72799999 1.0182614e-38
-0.013173324 -0.060320012 0.72799999 1.2483885e-38
-0.01178668 -0.060320012 0.72800004 1.4686502e-38
-0.010414314 -0.060402863 0.72900009 1.4503547e-38
-0.0090257162 -0.060402893 0.72900009 1.4319876e-38
-0.0076581179 -0.060568579 0.73100001 1.6160173e-38
-0.0062657283 -0.060568579 0.73100001 1.7996883e-38
-0.0048733405 -0.060568564 0.73099995 1.744623e-38
-0.0034809499 -0.060568579 0.73099995 1.6799793e-38
-0.0020885901 -0.060568579 0.73100001 1.5323251e-38
-0.00069619948 -0.060568579 0.73099995 1.3857113e-38
0.00069903815 -0.06081716 0.73400003 1.2387027e-38
0.00210287 -0.060982876 0.73600006 1.0820081e-38
0.0035047927 -0.060982876 0.736 9.8963411e-39
0.0049133147 -0.061065711 0.73700005 8.9808602e-39
0.0063171345 -0.061065726 0.73700005 1.1097384e-38
0.0077209249 -0.061065726 0.73700005 1.3212112e-38
0.0091495421 -0.061231442 0.73900002 1.3028441e-38
0.01055715 -0.061231442 0.73900002 1.2753652e-38
0.011980951 -0.061314322 0.74000001 1.3030952e-38
0.013426653 -0.061480023 0.74200004 1.3305023e-38
0.014840006 -0.061480008 0.74200004 1.3306458e-38
0.01631904 -0.061728559 0.74500006 1.3306817e-38
0.017785709 -0.06189429 0.74699998 1.3671648e-38
0.019234288 -0.061977156 0.74800003 1.4043653e-38
0.020659041 -0.06197717 0.74800003 1.4324541e-38
0.022083793 -0.06197717 0.74800009 1.4597178e-38
0.023571424 -0.062142871 0.75000006 1.3585552e-38
0.024999969 -0.062142871 0.75000006 1.256747e-38
0.026499027 -0.062308587 0.75200003 1.0360548e-38
0.027968571 -0.062391423 0.75300002 8.1529086e-39
0.029402833 -0.062391438 0.75300002 8.0564096e-39
0.030919086 -0.062557168 0.755 7.8514248e-39
0.032357167 -0.062557153 0.755 7.373086e-39
0.033839978 -0.062640004 0.75600004 6.8209884e-39
0.035373326 -0.062805735 0.75800002 6.7237649e-39
0.036817174 -0.062805705 0.75799996 6.5469323e-39
0.03826097 -0.06280572 0.75799996 7.3756266e-39
0.039809477 -0.06297145 0.76000005 8.1099252e-39
-0.060094334 -0.063061915 0.77900004 1.8562777e-39
-0.05830954 -0.062738098 0.77500004 4.8072413e-39
-0.056686655 -0.062576212 0.77300006 7.8449803e-39
-0.05521426 -0.062576197 0.77300006 9.5952273e-39
-0.053533319 -0.062333323 0.76999998 1.134227e-38
-0.052066635 -0.062333353 0.76999998 1.1341926e-38
-0.050402869 -0.062090494 0.76700002 1.1341562e-38
-0.048814289 -0.061928578 0.76500005 1.1988351e-38
-0.047109529 -0.061604775 0.76100004 1.263515e-38
-0.045479991 -0.061361916 0.75800002 1.2267453e-38
-0.043687627 -0.060876213 0.75200003 1.1897219e-38
-0.042255238 -0.060876213 0.75200003 1.1062785e-38
-0.040714301 -0.060714297 0.75000006 1.0231592e-38
-0.039180975 -0.060552396 0.74800003 1.050673e-38
-0.03775622 -0.060552396 0.74800003 1.0694687e-38
-0.036185727 -0.060309537 0.74500006 9.9492233e-39
-0.034673329 -0.060147621 0.74299997 9.1194907e-39
-0.033123825 -0.059904777 0.74000001 9.0240819e-39
-0.031671412 -0.059823819 0.73900002 8.9279149e-39
-0.030140946 -0.059580959 0.73600006 8.9286058e-39
-0.028582875 -0.059257142 0.73200005 8.939847e-39
-0.027188588 -0.059257157 0.73199999 9.6943818e-39
-0.025759026 -0.059176199 0.73099995 1.0539555e-38
-0.024366666 -0.059176214 0.73100001 9.5322347e-39
-0.022911422 -0.059014298 0.72900003 8.522403e-39
-0.021522854 -0.059014298 0.72900003 8.2472552e-39
-0.020051425 -0.058771439 0.72599995 7.9721075e-39
-0.018668573 -0.058771439 0.72600007 9.995717e-39
-0.017285718 -0.058771439 0.72600001 1.2016452e-38
-0.015902862 -0.058771424 0.72600001 1.1279252e-38
-0.014520003 -0.058771439 0.72600001 1.0457043e-38
-0.013137121 -0.058771439 0.72600001 1.2573209e-38
-0.01178668 -0.058933355 0.72799999 1.4686501e-38
-0.010414264 -0.059014298 0.72900003 1.4043292e-38
-0.0090257227 -0.059014298 0.72900009 1.3491204e-38
-0.0076581077 -0.059176199 0.73100001 1.5423338e-38
-0.006265718 -0.059176199 0.73100001 1.7445513e-38
-0.0048733274 -0.059176199 0.73099995 1.707853e-38
-0.0034809676 -0.059176199 0.73100001 1.6710829e-38
-0.0020885752 -0.059176214 0.73100001 1.5236439e-38
-0.00069618458 -0.059176199 0.73099995 1.376743e-38
0.00069903815 -0.059419058 0.73400003 1.2385234e-38
0.0021028616 -0.059580959 0.73600006 1.1002676e-38
0.0035047554 -0.059580974 0.73600006 1.0357312e-38
0.0049133305 -0.059661917 0.73700005 9.6229912e-39
0.0063171214 -0.059661917 0.73700005 1.1741668e-38
0.0077209407 -0.059661902 0.73700005 1.3764201e-38
0.0091495216 -0.059823819 0.73900002 1.3395781e-38
0.01055713 -0.059823819 0.73900002 1.3027723e-38
0.011980925 -0.059904791 0.74000001 1.3397935e-38
0.013426645 -0.060066678 0.74200004 1.3766353e-38
0.014839998 -0.060066693 0.74200004 1.3489771e-38
0.016319046 -0.060309537 0.74500006 1.3305023e-38
0.017785707 -0.060471423 0.74699998 1.3490129e-38
0.019234285 -0.060552381 0.74800003 1.3770299e-38
0.020659037 -0.060552396 0.74800003 1.3955047e-38
0.022083789 -0.060552396 0.74800003 1.4232705e-38
0.023571437 -0.060714297 0.75000006 1.3581965e-38
0.024999984 -0.060714297 0.75000006 1.2929789e-38
0.026499031 -0.060876198 0.75200009 1.0450948e-38
0.027931426 -0.060876198 0.75200003 8.0607144e-39
0.02940286 -0.060957156 0.75300002 8.0528223e-39
0.030919053 -0.061119057 0.755 8.0365308e-39
0.032357156 -0.061119042 0.75500005 7.4706612e-39
0.033839967 -0.0612 0.75600004 6.9149637e-39
0.03537333 -0.061361901 0.75800002 7.0053433e-39
0.036817152 -0.061361901 0.75800002 7.0993732e-39
0.038260948 -0.061361931 0.75800002 7.4674733e-39
0.039809503 -0.061523817 0.76000005 7.926966e-39
-0.058309555 -0.061261915 0.77500004 4.2544136e-39
-0.056686655 -0.061103813 0.77300006 7.5683906e-39
-0.05521429 -0.061103813 0.77300006 9.5977482e-39
-0.053672411 -0.061024763 0.77200001 1.1618495e-38
-0.052066658 -0.060866676 0.77000004 1.1526306e-38
-0.050468586 -0.060708575 0.76800001 1.1342635e-38
-0.048814289 -0.060471438 0.76500005 1.1711053e-38
-0.047047637 -0.060076199 0.76000005 1.1990147e-38
-0.045479987 -0.059918098 0.75799996 1.1994453e-38
-0.043920029 -0.059760012 0.75600004 1.1989423e-38
-0.04225526 -0.059443824 0.75200003 1.078838e-38
-0.040822897 -0.059443824 0.75200003 9.4954759e-39
-0.039180953 -0.059127636 0.74800003 9.2080976e-39
-0.037756201 -0.059127636 0.74800003 8.8428813e-39
-0.036185723 -0.058890484 0.74500012 9.0204273e-39
-0.034673318 -0.058732368 0.74299997 9.1180137e-39
-0.033123828 -0.058495261 0.74000001 9.2138065e-39
-0.031714294 -0.058495246 0.74000001 9.2987952e-39
-0.030140929 -0.058179073 0.73600006 8.9170731e-39
-0.028660946 -0.058020972 0.73400003 8.5699561e-39
-0.027188577 -0.057862855 0.73200005 9.5071024e-39
-0.025759067 -0.05778382 0.73100001 1.0351211e-38
-0.024366679 -0.057783805 0.73100001 9.6247877e-39
-0.022974286 -0.05778382 0.73099995 8.889745e-39
-0.021522857 -0.057625733 0.72900003 8.4309262e-39
-0.020106675 -0.057546683 0.72800004 7.9728249e-39
-0.018668568 -0.057388581 0.72600001 1.0180105e-38
-0.01728571 -0.057388566 0.72600001 1.2291243e-38
-0.015902855 -0.057388581 0.72600001 1.1553326e-38
-0.014519997 -0.057388581 0.72600001 1.0732192e-38
-0.013137115 -0.057388566 0.72600001 1.2665762e-38
-0.011786656 -0.057546668 0.72799999 1.4595025e-38
-0.010414271 -0.057625718 0.72900003 1.3675234e-38
-0.0090257283 -0.057625733 0.72900009 1.2664686e-38
-0.0076581198 -0.05778382 0.73100001 1.4780131e-38
-0.0062657292 -0.05778382 0.73099995 1.6802306e-38
-0.0048733396 -0.05778382 0.73099995 1.6711186e-38
-0.0034809788 -0.05778382 0.73100001 1.6524645e-38
-0.0020885891 -0.057783805 0.73100001 1.5052766e-38
-0.00069714012 -0.057862855 0.73199999 1.3580889e-38
0.00069903722 -0.058020987 0.73400003 1.238344e-38
0.0021028803 -0.058179043 0.73600006 1.1186706e-38
0.0035047741 -0.058179088 0.73600006 1.0722861e-38
0.0049133175 -0.058258079 0.73700005 1.0270144e-38
0.0063171075 -0.058258109 0.73700005 1.229842e-38
0.0077209272 -0.058258094 0.73700005 1.4316649e-38
0.0091495262 -0.05841621 0.73900002 1.38546e-38
0.010571392 -0.058495261 0.74000001 1.3305023e-38
0.011980928 -0.058495261 0.74000001 1.3766712e-38
0.013426667 -0.058653332 0.74200004 1.4133337e-38
0.014860019 -0.058732368 0.74300003 1.3673442e-38
0.016362848 -0.059048586 0.74700004 1.3213905e-38
0.017785706 -0.059048571 0.74700004 1.3305382e-38
0.019234275 -0.059127636 0.74800009 1.3399729e-38
0.020659059 -0.059127621 0.74800003 1.3584117e-38
0.022083811 -0.059127651 0.74800003 1.3766712e-38
0.023571422 -0.059285723 0.75000006 1.3579812e-38
0.024999969 -0.059285723 0.75000006 1.3301795e-38
0.026499037 -0.059443824 0.75200003 1.0636772e-38
0.027931428 -0.059443809 0.75200003 7.8777609e-39
0.029402833 -0.05952286 0.75300002 8.0574858e-39
0.030919043 -0.059680976 0.75500005 8.2223584e-39
0.032357179 -0.059680946 0.755 7.6496785e-39
0.033839982 -0.059760027 0.75600004 7.0071762e-39
0.035279982 -0.059760012 0.75600004 7.3748643e-39
0.036719985 -0.059760027 0.75600004 7.6511036e-39
0.038260955 -0.059918098 0.75799996 7.6514792e-39
0.039809473 -0.060076214 0.76000005 7.6514554e-39
-0.058159031 -0.05963143 0.77300006 4.0656979e-39
-0.056686662 -0.059631445 0.77300006 7.3825616e-39
-0.055214267 -0.059631445 0.77300006 9.6885173e-39
-0.053672407 -0.059554286 0.77200001 1.1895436e-38
-0.052066673 -0.0594 0.77000004 1.1618851e-38
-0.050468571 -0.059245698 0.76800001 1.1250079e-38
-0.048814282 -0.059014298 0.76499999 1.1435191e-38
-0.047047667 -0.058628581 0.76000005 1.1620294e-38
-0.045479979 -0.05847431 0.75800002 1.162316e-38
-0.043920018 -0.058320008 0.75600004 1.171608e-38
-0.042480014 -0.058320023 0.75600004 1.0791275e-38
-0.040822864 -0.05801142 0.75200003 9.9582421e-39
-0.039285701 -0.057857133 0.75 9.5807995e-39
-0.037857156 -0.057857133 0.75 9.2955722e-39
-0.036282871 -0.057625718 0.74699998 9.023618e-39
-0.034766678 -0.057471432 0.74500006 8.7502723e-39
-0.033213321 -0.057240017 0.74200004 9.9513154e-39
-0.03171432 -0.057085745 0.74000001 1.1238412e-38
-0.03014094 -0.056777142 0.73600006 1.0680547e-38
-0.028660947 -0.05662287 0.73400003 1.0222241e-38
-0.027188569 -0.056468569 0.73199999 1.0700584e-38
-0.025759058 -0.05639144 0.73100001 1.1273501e-38
-0.024366669 -0.056391425 0.73100001 9.8985005e-39
-0.022974279 -0.056391425 0.73099995 8.5209681e-39
-0.021522868 -0.056237154 0.72900003 8.1543421e-39
-0.020106677 -0.056159995 0.72799999 7.878837e-39
-0.018720001 -0.056159995 0.72799999 9.8116873e-39
-0.017285705 -0.056005724 0.72600001 1.183386e-38
-0.015902847 -0.056005709 0.72600001 1.0912633e-38
-0.014519992 -0.056005709 0.72600001 1.0088986e-38
-0.013137165 -0.056005709 0.72600001 1.238918e-38
-0.011786686 -0.056160025 0.72800004 1.4689013e-38
-0.010414276 -0.056237154 0.72900003 1.3859265e-38
-0.0090504671 -0.056391411 0.73099995 1.3028799e-38
-0.0076581067 -0.05639144 0.73100001 1.4778696e-38
-0.0062657171 -0.05639144 0.73099995 1.6435321e-38
-0.0048733265 -0.05639144 0.73099995 1.652572e-38
-0.0034809685 -0.05639144 0.73100001 1.6522133e-38
-0.002088578 -0.05639144 0.73100001 1.4958418e-38
-0.00069715781 -0.056468584 0.73199999 1.3395423e-38
0.00069901021 -0.05662287 0.73400003 1.2751858e-38
0.0021028719 -0.056777142 0.736 1.2015019e-38
0.0035047648 -0.056777142 0.73600006 1.0727165e-38
0.0049133045 -0.056854285 0.73700005 9.5376129e-39
0.0063171233 -0.056854285 0.73700005 1.2113673e-38
0.0077419225 -0.057008587 0.73899996 1.4686502e-38
0.0091495309 -0.057008557 0.73900002 1.41319e-38
0.010571422 -0.05708573 0.74000001 1.3581247e-38
0.011980927 -0.057085745 0.74000001 1.4042577e-38
0.013426659 -0.057240017 0.74200004 1.4592514e-38
0.01486001 -0.05731713 0.74299997 1.385747e-38
0.016362846 -0.057625718 0.74700004 1.312207e-38
0.017785734 -0.057625704 0.74699998 1.3397218e-38
0.019234272 -0.057702877 0.74800003 1.3673083e-38
0.020659026 -0.057702877 0.74800003 1.3950383e-38
0.022083778 -0.057702877 0.74800009 1.4312703e-38
0.023571435 -0.057857133 0.75000006 1.3763482e-38
0.024999984 -0.057857148 0.75000006 1.3213905e-38
0.026428554 -0.057857148 0.75000006 1.0637489e-38
0.027931405 -0.05801145 0.75200003 8.0621493e-39
0.029363796 -0.05801145 0.75200009 8.5155871e-39
0.030837122 -0.058088578 0.75300002 9.0542644e-39
0.032357167 -0.058242865 0.75500005 7.5661023e-39
0.033839997 -0.058320008 0.75600004 6.1810322e-39
0.035279997 -0.058320008 0.75600004 6.9160707e-39
0.036817141 -0.05847428 0.75800002 7.6514638e-39
0.038260989 -0.05847428 0.75799996 7.6518141e-39
0.039809499 -0.058628596 0.76000005 7.7443628e-39
-0.058083851 -0.05808381 0.77200001 3.8769949e-39
-0.056613348 -0.058083825 0.77200001 7.1981675e-39
-0.055142876 -0.05808381 0.77200001 9.6946144e-39
-0.053533316 -0.057933323 0.77000004 1.2170941e-38
-0.052066661 -0.057933338 0.76999998 1.1711401e-38
-0.050468586 -0.057782881 0.76800001 1.1157884e-38
-0.048814308 -0.057557158 0.76500005 1.1251521e-38
-0.047047645 -0.057180963 0.76000005 1.1252963e-38
-0.045480002 -0.057030477 0.75799996 1.1345883e-38
-0.043920007 -0.056880005 0.75600004 1.1347316e-38
-0.042480003 -0.05688002 0.75600004 1.0885984e-38
-0.040877156 -0.056654282 0.75300002 1.0420295e-38
-0.039390497 -0.056579046 0.75200003 1.0045366e-38
-0.037958104 -0.056579046 0.75200003 9.6722469e-39
-0.036331426 -0.056278117 0.74800003 9.027927e-39
-0.034766663 -0.056052394 0.74500006 8.2971821e-39
-0.033213329 -0.055826686 0.74200004 1.0694942e-38
-0.031671423 -0.055600949 0.73900002 1.30805e-38
-0.030140946 -0.055375241 0.736 1.2528397e-38
-0.028660949 -0.055224784 0.73400003 1.1884613e-38
-0.027262874 -0.055224769 0.73400003 1.1982328e-38
-0.025794275 -0.055074297 0.73199999 1.209356e-38
-0.024400022 -0.055074282 0.73199999 1.0174724e-38
-0.022974292 -0.054999046 0.73099995 8.1539848e-39
-0.021581929 -0.054999046 0.73100001 7.9699537e-39
-0.020134274 -0.054848604 0.72900003 7.6962423e-39
-0.018720005 -0.054773353 0.72800004 9.537257e-39
-0.017285723 -0.054622866 0.72600001 1.1280695e-38
-0.01590284 -0.054622851 0.72600001 1.0358393e-38
-0.014519985 -0.054622851 0.72600001 9.3528671e-39
-0.013137157 -0.054622881 0.72600001 1.2112238e-38
-0.011786661 -0.054773353 0.72800004 1.4778696e-38
-0.010414283 -0.054848589 0.72900003 1.4136206e-38
-0.0090257106 -0.054848574 0.72900003 1.3399729e-38
-0.0076580965 -0.054999046 0.73100001 1.4778696e-38
-0.0062657059 -0.054999046 0.73100001 1.6066903e-38
-0.0048733163 -0.054999061 0.73099995 1.6342409e-38
-0.0034809555 -0.054999061 0.73100001 1.6522493e-38
-0.0020885658 -0.054999061 0.73100001 1.4863714e-38
-0.00069617527 -0.054999046 0.73099995 1.321211e-38
0.00069904001 -0.055224769 0.73399997 1.3030234e-38
0.0021028896 -0.055375241 0.736 1.2842613e-38
0.0035047573 -0.055375241 0.73600006 1.0817204e-38
0.0049132905 -0.055450492 0.73700005 8.7103746e-39
0.0063171363 -0.055450492 0.73700005 1.1839602e-38
0.0077419272 -0.055600934 0.73900002 1.4960932e-38
