# .PCD v0.7 - Point Cloud Data file format
VERSION 0.7
FIELDS x y z rgb
SIZE 4 4 4 4
TYPE F F F F
COUNT 1 1 1 1
WIDTH 957
HEIGHT 1
VIEWPOINT 0 0 0 1 0 0 0
POINTS 957
DATA ascii
0.030814292 -0.085595235 0.7190001 1.2091144e-38
0.032228585 -0.085714281 0.72000009 7.3683987e-39
0.033600006 -0.085714281 0.72000003 7.552036e-39
0.034971438 -0.085714281 0.72000003 7.7418181e-39
0.036443811 -0.085952386 0.72200012 7.8347424e-39
0.037819054 -0.085952386 0.72200006 7.8351067e-39
0.03919429 -0.085952401 0.72200006 7.742558e-39
0.040569521 -0.085952386 0.72200006 7.7422189e-39
-0.032993335 -0.082819998 0.70700002 2.2773118e-38
-0.03155715 -0.082585692 0.7050001 2.2125209e-38
-0.03017143 -0.082468584 0.70400012 2.1487393e-38
-0.028830478 -0.082468584 0.70400012 2.1488838e-38
-0.027450485 -0.082351431 0.70300007 2.1396281e-38
-0.02611143 -0.082351431 0.70300007 1.9835792e-38
-0.024772387 -0.082351416 0.70300007 1.8179887e-38
-0.023466667 -0.082468569 0.70400006 1.8176664e-38
-0.022125727 -0.082468584 0.70400012 1.8088429e-38
-0.020784767 -0.082468599 0.70400012 2.0570511e-38
-0.019471439 -0.082585722 0.70500004 2.2958214e-38
-0.018128568 -0.082585692 0.70500004 2.3233702e-38
-0.016833344 -0.082819998 0.70700008 2.3416636e-38
-0.015486676 -0.082820013 0.70700008 2.194438e-38
-0.014140001 -0.082819998 0.70700002 2.0477912e-38
-0.012793339 -0.082820013 0.70700008 2.1764355e-38
-0.011462861 -0.082937151 0.708 2.3050037e-38
-0.010114284 -0.082937151 0.70800006 2.3233692e-38
-0.008765717 -0.082937151 0.70800006 2.3417379e-38
-0.0074381018 -0.083171442 0.7100001 2.3417396e-38
-0.0060857227 -0.083171442 0.7100001 2.3417366e-38
-0.0047333324 -0.083171442 0.7100001 2.3417338e-38
-0.0033857275 -0.083288595 0.71100008 2.3417341e-38
-0.0020285726 -0.083171442 0.7100001 2.1213292e-38
-0.0006762009 -0.083171442 0.7100001 1.9008528e-38
0.00067618937 -0.083171442 0.71000004 2.1213303e-38
0.0020285768 -0.083171427 0.7100001 2.3417348e-38
0.0033857014 -0.083288595 0.71100008 2.3141835e-38
0.0047399928 -0.08328858 0.71100008 2.2866394e-38
0.0060942834 -0.08328858 0.71100008 2.2682789e-38
0.0074485745 -0.08328858 0.71100008 2.2407288e-38
0.0088028656 -0.08328858 0.71100003 2.2958308e-38
0.010157132 -0.083288595 0.71100008 2.3417445e-38
0.011511422 -0.083288595 0.71100008 2.047867e-38
0.012901911 -0.083522871 0.71300006 1.7538528e-38
0.014260003 -0.083522871 0.71300006 2.047873e-38
0.015618092 -0.083522871 0.71300006 2.341741e-38
0.016976194 -0.083522871 0.71300006 2.1580644e-38
0.018334283 -0.083522871 0.71300006 1.97418e-38
0.019720001 -0.083640009 0.71400011 2.047471e-38
0.02113905 -0.08387427 0.71600002 2.1120432e-38
0.022502853 -0.083874285 0.71600008 2.2315375e-38
0.023866678 -0.08387427 0.71600002 2.3417401e-38
0.025230478 -0.083874285 0.71600008 2.2039869e-38
0.026631435 -0.083991423 0.71700001 2.0569754e-38
0.027997149 -0.083991423 0.71700001 1.8733732e-38
0.029444756 -0.084225714 0.71900004 1.6797679e-38
0.030814281 -0.084225729 0.7190001 1.1912487e-38
0.032228585 -0.084342852 0.72000003 7.0114557e-39
0.03369334 -0.084577143 0.72200006 7.5531122e-39
0.035068575 -0.084577158 0.72200012 8.1091601e-39
0.036443811 -0.084577158 0.72200012 8.1113251e-39
0.037819039 -0.084577158 0.72200012 8.0187707e-39
0.03919429 -0.084577143 0.72200012 8.0180504e-39
0.040569518 -0.084577143 0.72200012 8.0180715e-39
-0.032993346 -0.081473321 0.70700008 2.3141928e-38
-0.031557146 -0.081242859 0.7050001 2.2221736e-38
-0.030171433 -0.081127644 0.70400012 2.1305172e-38
-0.028830482 -0.081127629 0.70400012 2.1304451e-38
-0.02748953 -0.081127629 0.70400012 2.1301917e-38
-0.026148571 -0.081127629 0.70400006 2.0568287e-38
-0.024807623 -0.081127614 0.70400006 1.9830393e-38
-0.023466671 -0.081127629 0.70400006 2.0199546e-38
-0.022125712 -0.081127614 0.70400006 2.0658767e-38
-0.02081429 -0.081242859 0.70500004 2.1304529e-38
-0.019471431 -0.081242859 0.7050001 2.1948038e-38
-0.018180009 -0.081473336 0.70700008 2.2682663e-38
-0.016833344 -0.081473321 0.70700002 2.3417341e-38
-0.015486677 -0.081473336 0.70700008 2.2590099e-38
-0.01414001 -0.081473321 0.70700008 2.1764316e-38
-0.012811432 -0.081588566 0.70800006 2.16725e-38
-0.011462854 -0.081588566 0.708 2.1580662e-38
-0.010114287 -0.081588566 0.708 2.2315343e-38
-0.0087904753 -0.081819043 0.7100001 2.3050017e-38
-0.0074380971 -0.081819043 0.7100001 2.2958172e-38
-0.0060857236 -0.081819057 0.7100001 2.2866331e-38
-0.0047399988 -0.081934288 0.71100003 2.2223477e-38
-0.0033857257 -0.081934303 0.71100008 2.1580635e-38
-0.0020285745 -0.081819043 0.7100001 2.139697e-38
-0.00067619438 -0.081819043 0.7100001 2.1213312e-38
0.00067618472 -0.081819043 0.7100001 2.2223513e-38
0.0020314299 -0.081934288 0.71100003 2.3325525e-38
0.0033857108 -0.081934288 0.71100008 2.2315319e-38
0.0047399872 -0.081934303 0.71100008 2.1397011e-38
0.0060942778 -0.081934288 0.71100008 2.0937878e-38
0.0074485689 -0.081934273 0.71100003 2.0478728e-38
0.0088276183 -0.08216475 0.71300006 2.0937934e-38
0.010185721 -0.08216475 0.71300006 2.1488939e-38
0.011543809 -0.082164764 0.71300006 1.9283801e-38
0.012901912 -0.082164764 0.71300006 1.7167984e-38
0.014260001 -0.082164764 0.71300006 1.8824238e-38
0.015618104 -0.08216475 0.71300006 2.0570502e-38
0.016999999 -0.082279995 0.71400005 1.9467355e-38
0.018360002 -0.082279995 0.71400011 1.8361787e-38
0.019775247 -0.082510471 0.71600002 1.8730966e-38
0.021139046 -0.082510471 0.71600008 1.9009314e-38
0.02250286 -0.082510456 0.71600002 1.9651057e-38
0.023899997 -0.082625717 0.71700001 2.0294971e-38
0.025265722 -0.082625702 0.71699995 1.919114e-38
0.026631432 -0.082625702 0.71700001 1.8179143e-38
0.028075235 -0.082856178 0.71900004 1.7629911e-38
0.02944476 -0.082856178 0.7190001 1.716968e-38
0.030814284 -0.082856193 0.7190001 1.2457751e-38
0.032228578 -0.082971424 0.72000003 7.7321449e-39
0.033693325 -0.08320193 0.72200012 7.7360658e-39
0.035068572 -0.083201915 0.72200012 7.7439705e-39
0.036443818 -0.083201915 0.72200012 7.9276541e-39
0.037871432 -0.083317131 0.72300005 8.0187637e-39
0.039194282 -0.0832019 0.72200006 8.2020662e-39
0.040569518 -0.083201915 0.72200012 8.4772377e-39
-0.031557154 -0.079899997 0.7050001 2.2313903e-38
-0.030214285 -0.079899997 0.70500004 2.1121144e-38
-0.028830478 -0.079786688 0.70400012 2.1121529e-38
-0.027528573 -0.079899997 0.70500004 2.1119366e-38
-0.026148571 -0.079786688 0.70400012 2.1305178e-38
-0.024807619 -0.079786658 0.70400006 2.1487407e-38
-0.023500005 -0.079900011 0.7050001 2.2315353e-38
-0.022220014 -0.080126673 0.70700008 2.3141169e-38
-0.020873349 -0.080126673 0.70700008 2.2039876e-38
-0.019526673 -0.080126673 0.70700008 2.0936412e-38
-0.018180007 -0.080126673 0.70700002 2.2223543e-38
-0.016833343 -0.080126673 0.70700008 2.3417376e-38
-0.015486675 -0.080126673 0.70700002 2.3233677e-38
-0.014140011 -0.080126658 0.70700008 2.2958187e-38
-0.012811434 -0.080239996 0.708 2.1580672e-38
-0.011462858 -0.080239996 0.70800006 2.011129e-38
-0.010114292 -0.080239996 0.70800006 2.1396974e-38
-0.008765717 -0.080240011 0.70800006 2.2590829e-38
-0.007417148 -0.080239996 0.70800006 2.2498988e-38
-0.0060857181 -0.080466688 0.7100001 2.231534e-38
-0.004733339 -0.080466688 0.7100001 2.1029667e-38
-0.0033857247 -0.080580011 0.71100008 1.965143e-38
-0.0020285763 -0.080466688 0.7100001 2.1580704e-38
-0.00067619624 -0.080466673 0.7100001 2.341741e-38
0.00067618379 -0.080466688 0.7100001 2.3325571e-38
0.0020285633 -0.080466673 0.7100001 2.3141882e-38
0.0033857047 -0.080580026 0.71100008 2.1488826e-38
0.004739996 -0.080580011 0.71100008 1.983473e-38
0.0060942867 -0.080580011 0.71100008 1.9192976e-38
0.0074485629 -0.080580026 0.71100003 1.8457222e-38
0.0088028433 -0.080580011 0.71100008 1.900932e-38
0.010185722 -0.080806673 0.71300006 1.9559606e-38
0.011543811 -0.080806673 0.71300006 1.8182424e-38
0.012901913 -0.080806673 0.71300006 1.6711972e-38
0.014260001 -0.080806673 0.71300006 1.717186e-38
0.015618104 -0.080806673 0.71300006 1.7631015e-38
0.016976191 -0.080806673 0.71300006 1.7356204e-38
0.018359991 -0.080920011 0.71400011 1.6985657e-38
0.019775255 -0.081146657 0.71600002 1.6986398e-38
0.021139054 -0.081146672 0.71600002 1.6894548e-38
0.022502868 -0.081146657 0.71600002 1.7076767e-38
0.023899995 -0.081259981 0.71700001 1.7169673e-38
0.025265722 -0.081259996 0.71700001 1.6434266e-38
0.026631432 -0.081259996 0.71700001 1.570102e-38
0.027997155 -0.081259981 0.71700001 1.6620095e-38
0.029362867 -0.081259981 0.71700001 1.7532367e-38
0.030814284 -0.081486672 0.7190001 1.3015941e-38
0.0323181 -0.081826672 0.72200006 8.388984e-39
0.033693325 -0.081826702 0.72200012 7.915432e-39
0.035068568 -0.081826687 0.72200012 7.3734153e-39
0.036494289 -0.08194001 0.72300011 7.7443727e-39
0.037871446 -0.08194001 0.72300005 8.0191491e-39
0.039248578 -0.08194001 0.72300005 8.4772363e-39
0.040625721 -0.08193998 0.72300005 8.8453126e-39
-0.032993335 -0.078779995 0.70700008 2.1029694e-38
-0.031646676 -0.078779995 0.70700008 1.9832523e-38
-0.030300016 -0.078779995 0.70700008 1.8733783e-38
-0.028871426 -0.078557134 0.70500004 1.8915357e-38
-0.027606675 -0.078779981 0.70700008 1.9187994e-38
-0.026260009 -0.078779981 0.70700002 1.946637e-38
-0.024948584 -0.078891426 0.70800006 1.9835831e-38
-0.023566676 -0.078779995 0.70700002 2.0478646e-38
-0.022220014 -0.07878001 0.70700008 2.1213316e-38
-0.020873345 -0.078779995 0.70700008 1.9742139e-38
-0.019554285 -0.078891441 0.708 1.8360356e-38
-0.018205717 -0.078891441 0.70800006 1.9191234e-38
-0.016857151 -0.078891441 0.70800006 2.0111333e-38
-0.015508575 -0.078891426 0.70800006 2.0019089e-38
-0.014160006 -0.078891426 0.70800006 1.9927626e-38
-0.012811439 -0.078891426 0.70800006 1.9100043e-38
-0.011511432 -0.079225719 0.71100003 1.8366411e-38
-0.010157142 -0.079225719 0.71100003 1.8917042e-38
-0.0088028675 -0.079225719 0.71100008 1.9468412e-38
-0.0074485773 -0.079225719 0.71100008 1.9375856e-38
-0.0060942871 -0.079225719 0.71100008 1.9284791e-38
-0.0047400035 -0.079225704 0.71100003 1.8640202e-38
-0.0033857229 -0.079225719 0.71100008 1.7996296e-38
-0.0020285707 -0.079114288 0.71000004 1.8915744e-38
-0.00067619066 -0.079114288 0.7100001 1.9835873e-38
0.00067618937 -0.079114288 0.7100001 1.97433e-38
0.0020285684 -0.079114288 0.7100001 1.9652163e-38
0.0033856991 -0.079225719 0.71100008 1.8824189e-38
0.00473999 -0.079225719 0.71100008 1.7995148e-38
0.0060942806 -0.079225719 0.71100008 1.7720708e-38
0.0074485717 -0.079225704 0.71100003 1.7443754e-38
0.0088028526 -0.079225719 0.71100008 1.7720683e-38
0.010185709 -0.079448581 0.71300006 1.8087658e-38
0.011543811 -0.079448581 0.71300006 1.7447311e-38
0.0129019 -0.079448581 0.71300006 1.6897015e-38
0.014260002 -0.079448581 0.71300006 1.7079969e-38
0.015640004 -0.079559982 0.71400011 1.7354399e-38
0.016999993 -0.079559997 0.71400011 1.7170728e-38
0.018411437 -0.079782858 0.71600002 1.6983474e-38
0.019775236 -0.079782858 0.71600002 1.6892717e-38
0.021139046 -0.079782858 0.71600002 1.6893073e-38
0.022534294 -0.079894304 0.71700001 1.6985263e-38
0.023900004 -0.079894304 0.71700001 1.6984905e-38
0.025265718 -0.079894304 0.71700001 1.6527162e-38
0.026631428 -0.079894304 0.71700001 1.6161632e-38
0.02799714 -0.079894304 0.71700001 1.6895974e-38
0.029444767 -0.080117151 0.7190001 1.7721786e-38
0.030857155 -0.080228582 0.72000003 1.3011997e-38
0.032228578 -0.080228567 0.72000003 8.2899752e-39
0.033693332 -0.080451444 0.72200012 7.8279013e-39
0.035068579 -0.080451429 0.72200012 7.3748657e-39
0.036494285 -0.08056286 0.72300005 7.6522093e-39
0.037871435 -0.08056286 0.72300011 7.9276989e-39
0.039248575 -0.080562845 0.72300005 7.927322e-39
0.04062571 -0.08056286 0.72300011 7.9273318e-39
0.042002868 -0.08056286 0.72300005 7.835146e-39
-0.032993346 -0.077433348 0.70700008 1.8545089e-38
-0.031691439 -0.077542856 0.70800006 1.7435831e-38
-0.030342868 -0.077542856 0.70800006 1.6340292e-38
-0.02895334 -0.077433363 0.70700008 1.6801651e-38
-0.027606672 -0.077433348 0.70700002 1.7168294e-38
-0.026260007 -0.077433348 0.70700008 1.7720403e-38
-0.024913343 -0.077433333 0.70700002 1.8179929e-38
-0.02356668 -0.077433333 0.70700008 1.8733802e-38
-0.022251433 -0.077542856 0.70800006 1.9191522e-38
-0.020902865 -0.077542856 0.70800006 1.7447343e-38
-0.019554297 -0.077542856 0.70800006 1.5699614e-38
-0.018205712 -0.077542856 0.708 1.6252436e-38
-0.016857143 -0.077542841 0.708 1.6803424e-38
-0.015508568 -0.077542841 0.708 1.6803399e-38
-0.014160001 -0.077542856 0.708 1.6802695e-38
-0.012901895 -0.078090474 0.71300006 1.670944e-38
-0.011543809 -0.078090489 0.71300006 1.6619383e-38
-0.010157151 -0.077871442 0.71100008 1.6527532e-38
-0.0087904846 -0.077761918 0.7100001 1.6343855e-38
-0.0074485764 -0.077871427 0.71100008 1.6342774e-38
-0.0060942927 -0.077871427 0.71100003 1.6251705e-38
-0.0047400016 -0.077871427 0.71100003 1.6250319e-38
-0.003385721 -0.077871427 0.71100008 1.6251381e-38
-0.0020285819 -0.077761918 0.7100001 1.6249575e-38
-0.00067619252 -0.077761918 0.71000004 1.6252435e-38
0.00067618658 -0.077761918 0.7100001 1.6159513e-38
0.0020314276 -0.077871427 0.71100003 1.6069103e-38
0.003385708 -0.077871442 0.71100008 1.6159854e-38
0.0047399988 -0.077871457 0.71100008 1.6159848e-38
0.006094275 -0.077871427 0.71100008 1.6250961e-38
0.0074485671 -0.077871427 0.71100003 1.6342433e-38
0.008802847 -0.077871427 0.71100008 1.643319e-38
0.010185721 -0.078090459 0.71300006 1.6527887e-38
0.011543824 -0.078090459 0.71300006 1.680518e-38
0.012901902 -0.078090474 0.71300006 1.7079969e-38
0.014260005 -0.078090489 0.71300006 1.707961e-38
0.015639996 -0.078200012 0.71400011 1.6987416e-38
0.017047618 -0.07841903 0.71600002 1.6988135e-38
0.018411433 -0.078419045 0.71600008 1.6893789e-38
0.019775243 -0.078419045 0.71600002 1.689128e-38
0.021168577 -0.078528568 0.71700001 1.6893788e-38
0.02253429 -0.078528568 0.71700001 1.6894863e-38
0.0239 -0.078528583 0.71700001 1.680231e-38
0.025265712 -0.078528583 0.71700001 1.6711193e-38
0.026631426 -0.078528583 0.71700001 1.6528258e-38
0.028075246 -0.078747615 0.7190001 1.717256e-38
0.029444756 -0.078747615 0.7190001 1.7809663e-38
0.030857159 -0.078857154 0.72000003 1.3019503e-38
0.032318093 -0.079076171 0.72200006 8.1116726e-39
0.03369334 -0.079076186 0.72200006 7.731761e-39
0.035117157 -0.079185694 0.72300005 7.2815826e-39
0.0364943 -0.079185694 0.72300005 7.561066e-39
0.037871432 -0.079185709 0.72300005 7.7440069e-39
0.039248582 -0.079185709 0.72300011 7.3766509e-39
0.040625725 -0.079185709 0.72300005 7.0089572e-39
-0.031825725 -0.076517165 0.71100008 1.6704376e-38
-0.030428583 -0.076409534 0.71000016 1.6246635e-38
-0.028953349 -0.076086685 0.70700008 1.6064041e-38
-0.027606675 -0.07608667 0.70700008 1.5972602e-38
-0.026260007 -0.07608667 0.70700002 1.6247429e-38
-0.024913343 -0.07608667 0.70700008 1.6521516e-38
-0.023600003 -0.076194286 0.708 1.6983578e-38
-0.022251435 -0.076194286 0.708 1.7443442e-38
-0.020902859 -0.076194301 0.708 1.680128e-38
-0.019554291 -0.076194301 0.708 1.6156974e-38
-0.018205715 -0.076194301 0.70800006 1.6433892e-38
-0.016857149 -0.076194286 0.70800006 1.6709039e-38
-0.015508579 -0.076194286 0.70800006 1.6801592e-38
-0.014160004 -0.076194286 0.70800006 1.680089e-38
-0.01286572 -0.07651715 0.71100008 1.6801623e-38
-0.011543806 -0.076732397 0.71300006 1.67105e-38
-0.010157156 -0.07651715 0.71100008 1.6619016e-38
-0.0088028656 -0.07651715 0.71100008 1.6618649e-38
-0.0074485736 -0.07651715 0.71100008 1.6527162e-38
-0.0060942909 -0.076517165 0.71100003 1.6526848e-38
-0.0047399998 -0.07651715 0.71100003 1.652725e-38
-0.0033857275 -0.076517165 0.71100008 1.6621554e-38
-0.0020285773 -0.076409549 0.7100001 1.6528597e-38
-0.00067618786 -0.076409534 0.71000004 1.6529315e-38
0.0006761931 -0.076409549 0.7100001 1.6528238e-38
0.0020314113 -0.07651715 0.71100008 1.6436763e-38
0.0033857024 -0.07651715 0.71100008 1.6436764e-38
0.0047399933 -0.07651715 0.71100008 1.6437122e-38
0.0060942853 -0.07651715 0.71100008 1.652788e-38
0.0074485759 -0.07651715 0.71100003 1.6619721e-38
0.0088276193 -0.076732367 0.71300006 1.6619726e-38
0.010185723 -0.076732367 0.71300006 1.6529679e-38
0.01154381 -0.076732367 0.71300006 1.6712268e-38
0.012901914 -0.076732382 0.71300006 1.689558e-38
0.014260016 -0.076732382 0.71300006 1.6711909e-38
0.015618094 -0.076732397 0.71300006 1.6527881e-38
0.016999999 -0.076839998 0.71400011 1.6711552e-38
0.018411441 -0.077055231 0.71600002 1.6895223e-38
0.01977524 -0.077055246 0.71600008 1.6894504e-38
0.021139052 -0.077055246 0.71600002 1.6987416e-38
0.02253429 -0.077162847 0.71700007 1.7078175e-38
0.023900013 -0.077162847 0.71700001 1.7169295e-38
0.025265725 -0.077162862 0.71700001 1.7169653e-38
0.026631435 -0.077162862 0.71700001 1.7169673e-38
0.028075235 -0.077378109 0.7190001 1.8641211e-38
0.029444756 -0.077378094 0.7190001 2.0019083e-38
0.030814292 -0.077378079 0.71900004 1.5029813e-38
0.032318093 -0.077700958 0.72200012 9.9257684e-39
0.03369334 -0.077700958 0.72200012 8.372457e-39
0.035117153 -0.077808544 0.72300005 6.9174566e-39
0.036494289 -0.077808559 0.72300011 7.2848168e-39
0.037871432 -0.077808559 0.72300005 7.7436272e-39
0.039248578 -0.077808574 0.72300005 7.5599464e-39
0.04062571 -0.077808574 0.72300011 7.3766383e-39
-0.031825721 -0.075162858 0.71100008 1.5878596e-38
-0.030342855 -0.074845731 0.708 1.6154464e-38
-0.028953338 -0.074740008 0.70700008 1.5419067e-38
-0.027606681 -0.074740022 0.70700008 1.4685106e-38
-0.02629715 -0.074845716 0.708 1.4775155e-38
-0.024948575 -0.074845701 0.70800006 1.4867743e-38
-0.023600006 -0.074845716 0.70800006 1.5326598e-38
-0.022251438 -0.074845716 0.70800006 1.5696778e-38
-0.020902863 -0.074845731 0.70800006 1.6157359e-38
-0.019554285 -0.074845716 0.708 1.661724e-38
-0.018205717 -0.074845716 0.708 1.6617585e-38
-0.016857142 -0.074845716 0.708 1.6617577e-38
-0.015508573 -0.074845716 0.708 1.6709763e-38
-0.014159998 -0.074845716 0.70800006 1.6801613e-38
-0.012865719 -0.075162873 0.71100008 1.6802348e-38
-0.011543805 -0.07537429 0.71300006 1.6802342e-38
-0.010185709 -0.075374275 0.71300006 1.6803054e-38
-0.00879048 -0.075057149 0.7100001 1.6803041e-38
-0.0074485801 -0.075162873 0.71100008 1.6803386e-38
-0.006094289 -0.075162873 0.71100008 1.6710867e-38
-0.0047399988 -0.075162858 0.71100003 1.680166e-38
-0.0033857257 -0.075162858 0.71100008 1.6895984e-38
-0.0020285791 -0.075057149 0.7100001 1.6897039e-38
-0.00067715085 -0.075162873 0.71100003 1.6804473e-38
0.00067713932 -0.075162858 0.71100003 1.6804104e-38
0.0020314201 -0.075162888 0.71100008 1.6804111e-38
0.0033857112 -0.075162888 0.71100008 1.6713001e-38
0.0047399886 -0.075162873 0.71100008 1.6620798e-38
0.0060942792 -0.075162858 0.71100003 1.6804104e-38
0.0074485699 -0.075162873 0.71100003 1.6895942e-38
0.0088028507 -0.075162873 0.71100008 1.6712632e-38
0.010185723 -0.07537429 0.71300006 1.6527887e-38
0.011543812 -0.075374275 0.71300006 1.6619006e-38
0.012901914 -0.075374275 0.71300006 1.6619721e-38
0.014260003 -0.075374275 0.71300006 1.6343853e-38
0.015618105 -0.075374275 0.71300006 1.5976169e-38
0.016999988 -0.075479999 0.71400011 1.6434287e-38
0.018411433 -0.075691432 0.71600002 1.6803778e-38
0.019775234 -0.075691417 0.71600008 1.6988164e-38
0.021139061 -0.075691417 0.71600002 1.7079644e-38
0.022534287 -0.075797141 0.71700001 1.7353359e-38
0.023899999 -0.075797141 0.71700001 1.7537383e-38
0.02526571 -0.075797141 0.71700001 1.7719614e-38
0.026631434 -0.075797111 0.71700001 1.781151e-38
0.028075237 -0.076008573 0.7190001 2.0019568e-38
0.029444762 -0.076008573 0.7190001 2.2218568e-38
0.030814296 -0.076008573 0.71900004 1.7063554e-38
0.032318104 -0.076325715 0.72200006 1.1784046e-38
0.033693325 -0.076325715 0.72200012 9.0988902e-39
0.035117142 -0.076431438 0.72300011 6.451473e-39
0.0364943 -0.076431423 0.72300005 7.1000878e-39
0.037871432 -0.076431423 0.72300011 7.6510784e-39
0.039248575 -0.076431423 0.72300005 7.6506987e-39
0.040625725 -0.076431423 0.72300011 7.6510672e-39
-0.031825718 -0.073808581 0.71100008 1.5970812e-38
-0.030342866 -0.073497146 0.70800006 1.6063372e-38
-0.028994298 -0.073497131 0.70800006 1.5511647e-38
-0.027645724 -0.073497131 0.70800006 1.5052444e-38
-0.026297143 -0.073497131 0.708 1.50517e-38
-0.024948569 -0.073497131 0.708 1.5143952e-38
-0.023600001 -0.073497146 0.708 1.5419874e-38
-0.022251433 -0.073497146 0.708 1.5787902e-38
-0.020902865 -0.073497146 0.708 1.6065885e-38
-0.019554289 -0.073497146 0.70800006 1.6435376e-38
-0.018205723 -0.073497117 0.70800006 1.6434294e-38
-0.016857147 -0.073497131 0.70800006 1.6342084e-38
-0.01557429 -0.073808596 0.71100008 1.6342067e-38
-0.014220008 -0.073808581 0.71100008 1.6434637e-38
-0.012865716 -0.073808581 0.71100003 1.63421e-38
-0.01154381 -0.074016199 0.71300006 1.6342813e-38
-0.010157151 -0.073808596 0.71100008 1.6343167e-38
-0.0088028684 -0.073808581 0.71100008 1.6436062e-38
-0.0074485783 -0.073808596 0.71100008 1.6343491e-38
-0.0061114216 -0.074016184 0.71300006 1.6343514e-38
-0.0047400035 -0.073808566 0.71100003 1.6343536e-38
-0.003395241 -0.074016199 0.71300012 1.6437167e-38
-0.0020314318 -0.073808596 0.71100008 1.6344255e-38
-0.00067714899 -0.073808566 0.71100008 1.6344232e-38
0.00067714305 -0.073808581 0.71100003 1.634385e-38
0.0020314155 -0.073808596 0.71100008 1.6344581e-38
0.003385707 -0.073808581 0.71100008 1.6344235e-38
0.0047399984 -0.073808581 0.71100008 1.6345299e-38
0.006094289 -0.073808596 0.71100003 1.652788e-38
0.0074485652 -0.073808581 0.71100003 1.6804104e-38
0.0088276332 -0.074016184 0.71300006 1.6711192e-38
0.01018571 -0.074016199 0.71300006 1.6709407e-38
0.011543813 -0.074016184 0.71300006 1.7078549e-38
0.012901901 -0.074016184 0.71300006 1.7447322e-38
0.014260004 -0.074016184 0.71300006 1.7630629e-38
0.015640005 -0.074120015 0.71400011 1.7813256e-38
0.017047631 -0.074327618 0.71600002 1.8089512e-38
0.01841143 -0.074327633 0.71600008 1.836609e-38
0.019775242 -0.074327633 0.71600002 1.8366086e-38
0.021139057 -0.074327648 0.71600008 1.8458286e-38
0.022534283 -0.074431434 0.71700001 1.8180633e-38
0.023899995 -0.074431434 0.71700001 1.7998384e-38
0.025265707 -0.074431449 0.71700001 1.7801786e-38
0.026631419 -0.074431434 0.71700001 1.7713999e-38
0.028075241 -0.074639037 0.7190001 1.992461e-38
0.02944475 -0.074639052 0.7190001 2.2220817e-38
0.03085715 -0.074742854 0.72000003 1.760712e-38
0.032318104 -0.074950486 0.72200012 1.2976874e-38
0.033693332 -0.074950472 0.72200012 9.5681122e-39
0.035117138 -0.075054303 0.72300005 6.1788448e-39
0.036494289 -0.075054303 0.72300011 6.9153589e-39
0.037871432 -0.075054288 0.72300005 7.7425608e-39
0.039248578 -0.075054273 0.72300011 7.6506902e-39
0.040625721 -0.075054273 0.72300005 7.6503483e-39
-0.031960003 -0.072760001 0.71400011 1.5970129e-38
-0.030428579 -0.07235238 0.7100001 1.5970847e-38
-0.028994292 -0.072148576 0.708 1.569534e-38
-0.027645716 -0.072148576 0.70800006 1.5327268e-38
-0.026297146 -0.072148576 0.70800006 1.5418734e-38
-0.02494858 -0.072148561 0.70800006 1.5420889e-38
-0.023600006 -0.072148576 0.70800006 1.5604563e-38
-0.022251438 -0.072148576 0.70800006 1.5789652e-38
-0.020902852 -0.072148576 0.708 1.6066218e-38
-0.019554285 -0.072148576 0.708 1.6250245e-38
-0.018205717 -0.072148576 0.708 1.615769e-38
-0.016857149 -0.072148576 0.708 1.6065488e-38
-0.015508573 -0.072148591 0.70800006 1.6065838e-38
-0.014160004 -0.072148576 0.70800006 1.5974011e-38
-0.012901912 -0.072658107 0.71300006 1.5972226e-38
-0.011543809 -0.072658122 0.71300006 1.5882898e-38
-0.01015715 -0.072454289 0.71100008 1.5974732e-38
-0.0088028675 -0.072454304 0.71100008 1.5975081e-38
-0.0074485755 -0.072454289 0.71100008 1.5974714e-38
-0.0061114272 -0.072658092 0.71300006 1.5883249e-38
-0.0047533317 -0.072658092 0.71300006 1.5882901e-38
-0.0033952298 -0.072658092 0.71300006 1.5883619e-38
-0.0020314383 -0.072454304 0.71100008 1.5882185e-38
-0.00067714619 -0.072454304 0.71100008 1.5791054e-38
0.00067714491 -0.072454304 0.71100003 1.5881803e-38
0.0020314252 -0.072454289 0.71100008 1.5882541e-38
0.0033857014 -0.072454289 0.71100008 1.5974396e-38
0.0047399923 -0.072454304 0.71100008 1.5975132e-38
0.0060942834 -0.072454289 0.71100003 1.6342133e-38
0.0074485741 -0.072454289 0.71100003 1.6619429e-38
0.0088276193 -0.072658092 0.71300006 1.6710186e-38
0.010185722 -0.072658092 0.71300006 1.6803109e-38
0.011559989 -0.072760001 0.71400011 1.753888e-38
0.012920003 -0.072759986 0.71400011 1.818245e-38
0.014279992 -0.072760001 0.71400011 1.8917498e-38
0.015640005 -0.072760001 0.71400011 1.9651845e-38
0.017047627 -0.072963819 0.71600008 1.9835895e-38
0.018411437 -0.072963819 0.71600002 1.9926604e-38
0.01977524 -0.072963804 0.71600008 1.9835795e-38
0.02113905 -0.072963804 0.71600002 1.973789e-38
0.022534294 -0.073065713 0.71700001 1.9096506e-38
0.023900006 -0.073065713 0.71700001 1.8436063e-38
0.025265718 -0.073065713 0.71700001 1.7959289e-38
0.026705721 -0.073269516 0.7190001 1.7518138e-38
0.028075231 -0.073269531 0.7190001 1.9927835e-38
0.029485717 -0.073371425 0.72000003 2.2217591e-38
0.03085714 -0.07337144 0.72000003 1.8258231e-38
0.032318097 -0.073575243 0.72200006 1.4178634e-38
0.033693332 -0.073575258 0.72200012 1.0017604e-38
0.035117153 -0.073677137 0.72300005 5.8983105e-39
0.036494285 -0.073677123 0.72300005 6.8238709e-39
0.037871432 -0.073677137 0.72300011 7.742558e-39
0.039248578 -0.073677123 0.72300005 7.7425327e-39
0.04062571 -0.073677123 0.72300011 7.6510658e-39
-0.031960014 -0.071400017 0.71400011 1.6982507e-38
-0.030428575 -0.070999995 0.7100001 1.7165095e-38
-0.028994298 -0.070799991 0.70800006 1.7166164e-38
-0.027645729 -0.070799991 0.70800006 1.7255132e-38
-0.026297145 -0.070799991 0.708 1.7442752e-38
-0.024948573 -0.070799991 0.708 1.7627806e-38
-0.023599999 -0.070800006 0.708 1.7719589e-38
-0.022251433 -0.070800006 0.708 1.7811783e-38
-0.020902865 -0.070800006 0.70800006 1.7904336e-38
-0.019554297 -0.070799991 0.70800006 1.7995095e-38
-0.018205721 -0.070800006 0.70800006 1.7994736e-38
-0.016904771 -0.070999995 0.7100001 1.7992225e-38
-0.015508566 -0.070800006 0.708 1.7995095e-38
-0.014200001 -0.070999995 0.71000004 1.8086213e-38
-0.012847621 -0.070999995 0.7100001 1.8179484e-38
-0.011511429 -0.071099997 0.71100003 1.836459e-38
-0.010157149 -0.071100026 0.71100008 1.863902e-38
-0.0088028647 -0.071100011 0.71100008 1.8912015e-38
-0.0074695209 -0.071299985 0.71300006 1.9189315e-38
-0.0061114263 -0.0713 0.71300006 1.9463746e-38
-0.0047533307 -0.071299985 0.71300006 1.9557016e-38
-0.0033952354 -0.071299985 0.71300006 1.955594e-38
-0.0020314355 -0.071100011 0.71100008 1.9557016e-38
-0.00067714433 -0.071099997 0.71100003 1.9555581e-38
0.00067713932 -0.071099997 0.71100003 1.955594e-38
0.0020314197 -0.071100011 0.71100008 1.9644933e-38
0.0033857103 -0.071100011 0.71100008 1.9555994e-38
0.0047400012 -0.071100011 0.71100008 1.9554969e-38
0.0060942778 -0.071099997 0.71100003 1.9741917e-38
0.0074695321 -0.0713 0.71300006 1.9835898e-38
0.0088276211 -0.071299985 0.71300006 1.9835172e-38
0.010185723 -0.071299985 0.71300006 1.9835905e-38
0.011560005 -0.071400002 0.71400011 2.0111067e-38
0.012919994 -0.071400002 0.71400011 2.0386948e-38
0.014280007 -0.071399987 0.71400011 2.0019262e-38
0.015639996 -0.071399987 0.71400011 1.9652289e-38
0.017047619 -0.07159999 0.71600002 1.9919553e-38
0.018411431 -0.07159999 0.71600002 2.0291463e-38
0.019775247 -0.07159999 0.71600002 1.9818198e-38
0.021139057 -0.071599975 0.71600002 1.944804e-38
0.02253429 -0.071699977 0.71700001 1.907537e-38
0.023966676 -0.071899995 0.71900004 1.8689352e-38
0.025336185 -0.071899995 0.7190001 1.8047557e-38
0.026705708 -0.071899995 0.7190001 1.7501645e-38
0.028114287 -0.071999997 0.72000003 1.9818416e-38
0.029485723 -0.071999997 0.72000003 2.2034282e-38
0.030942861 -0.072200015 0.72200012 1.8342543e-38
0.032318097 -0.072200015 0.72200012 1.4634588e-38
0.033693328 -0.072200015 0.72200012 1.011769e-38
0.035117157 -0.072300002 0.72300011 5.7149926e-39
0.036494296 -0.072300002 0.72300005 6.7309466e-39
0.037871432 -0.072300002 0.72300005 7.7429139e-39
0.039248589 -0.072299987 0.72300005 7.7432558e-39
0.040738087 -0.072500005 0.72500008 7.7439789e-39
0.042119056 -0.07249999 0.72500008 7.7432656e-39
-0.031915244 -0.069941908 0.71300012 1.7997406e-38
-0.030428575 -0.06964761 0.7100001 1.8271838e-38
-0.02899429 -0.069451436 0.708 1.8732451e-38
-0.027645724 -0.069451436 0.70800006 1.9098724e-38
-0.026297148 -0.069451436 0.70800006 1.9468586e-38
-0.024948576 -0.069451421 0.70800006 1.9742631e-38
-0.02360001 -0.069451436 0.70800006 1.9742245e-38
-0.022251444 -0.069451436 0.70800006 1.974261e-38
-0.020902859 -0.069451436 0.708 1.9744052e-38
-0.019554289 -0.069451421 0.708 1.9650791e-38
-0.018257147 -0.06964761 0.7100001 1.9742636e-38
-0.016904766 -0.069647625 0.7100001 1.9833757e-38
-0.015552384 -0.069647625 0.7100001 2.0019582e-38
-0.014200006 -0.069647625 0.7100001 2.0202185e-38
-0.012865718 -0.069745719 0.71100003 2.0478778e-38
-0.011511428 -0.069745705 0.71100003 2.0753925e-38
-0.010157154 -0.069745719 0.71100008 2.1305297e-38
-0.0088276127 -0.069941908 0.71300006 2.176304e-38
-0.0074695172 -0.069941908 0.71300006 2.2407323e-38
-0.0061114309 -0.069941908 0.71300006 2.3049095e-38
-0.0047533363 -0.069941893 0.71300006 2.3142007e-38
-0.0033952401 -0.069941893 0.71300006 2.3232766e-38
-0.0020314336 -0.069745734 0.71100008 2.3233842e-38
-0.0006771434 -0.069745719 0.71100003 2.3232766e-38
0.00067714025 -0.069745719 0.71100003 2.3325678e-38
0.0020314136 -0.069745719 0.71100008 2.3323897e-38
0.0033857047 -0.069745719 0.71100008 2.3233869e-38
0.0047399956 -0.069745719 0.71100008 2.3140624e-38
0.0061114323 -0.069941908 0.71300012 2.3142083e-38
0.00746952 -0.069941908 0.71300006 2.3050212e-38
0.008827622 -0.069941893 0.71300006 2.2958342e-38
0.010200006 -0.070039988 0.71400011 2.2773625e-38
0.011559995 -0.070039988 0.71400011 2.2682895e-38
0.01292001 -0.070040002 0.71400011 2.2589611e-38
0.014320001 -0.070236176 0.71600002 2.1120589e-38
0.015683815 -0.070236191 0.71600008 1.9542843e-38
0.017047627 -0.070236191 0.71600002 2.0082336e-38
0.01843714 -0.070334271 0.71700001 2.0531807e-38
0.019802852 -0.070334285 0.71700001 1.9880685e-38
0.021168564 -0.070334285 0.71700001 1.915356e-38
0.02253429 -0.070334285 0.71700001 1.9067848e-38
0.023966664 -0.070530474 0.71900004 1.8877344e-38
0.025336189 -0.070530474 0.7190001 1.822336e-38
0.026705712 -0.070530474 0.7190001 1.7501254e-38
0.028114295 -0.070628569 0.72000003 1.9717525e-38
0.02948573 -0.070628569 0.72000003 2.1837292e-38
0.030942855 -0.070824757 0.72200006 1.8442266e-38
0.032318104 -0.070824742 0.72200006 1.5006232e-38
0.033739995 -0.070922852 0.72300011 1.0195176e-38
0.035117153 -0.070922852 0.72300005 5.4366163e-39
0.036494285 -0.070922866 0.72300011 6.5497895e-39
0.03797619 -0.07111904 0.72500008 7.6517987e-39
0.039357148 -0.07111904 0.72500002 7.7428999e-39
0.040738087 -0.07111904 0.72500008 7.8351039e-39
0.042119045 -0.071119055 0.72500008 7.8351151e-39
-0.031915236 -0.068583801 0.71300006 1.5975635e-38
-0.030471431 -0.068391427 0.71100003 1.6896869e-38
-0.028994294 -0.068102866 0.70800006 1.7355697e-38
-0.027645716 -0.068102866 0.708 1.7815604e-38
-0.026297148 -0.068102866 0.708 1.8642136e-38
-0.024948573 -0.068102852 0.708 1.937682e-38
-0.023600003 -0.068102866 0.708 2.001931e-38
-0.022251436 -0.068102866 0.70800006 2.0754365e-38
-0.020902861 -0.068102866 0.70800006 2.0846212e-38
-0.019554295 -0.068102852 0.70800006 2.1029904e-38
-0.018257147 -0.068295226 0.71000004 2.1213236e-38
-0.016904766 -0.068295226 0.7100001 2.1489105e-38
-0.015552388 -0.06829524 0.7100001 2.1672781e-38
-0.014200007 -0.06829524 0.7100001 2.185647e-38
-0.012847627 -0.06829524 0.7100001 2.1948322e-38
-0.011511436 -0.068391442 0.71100008 2.2131993e-38
-0.010157153 -0.068391442 0.71100008 2.2315664e-38
-0.0088276183 -0.068583831 0.71300006 2.2591171e-38
-0.0074695144 -0.068583816 0.71300006 2.2958513e-38
-0.0061114198 -0.068583816 0.71300006 2.3234019e-38
-0.0047533242 -0.068583801 0.71300006 2.3325854e-38
-0.0033952401 -0.068583801 0.71300012 2.3325854e-38
-0.0020314327 -0.068391442 0.71100008 2.3325854e-38
-0.00067714899 -0.068391427 0.71100003 2.3325854e-38
0.00067714212 -0.068391442 0.71100003 2.3325854e-38
0.0020314225 -0.068391442 0.71100008 2.341769e-38
0.0033857136 -0.068391427 0.71100008 2.3325854e-38
0.00473999 -0.068391442 0.71100003 2.3325854e-38
0.0061114286 -0.068583816 0.71300006 2.2407498e-38
0.0074695321 -0.068583816 0.71300006 2.1489082e-38
0.0088276239 -0.068583801 0.71300012 2.046986e-38
0.010199997 -0.068679988 0.71400011 1.9372902e-38
0.011560011 -0.068679973 0.71400011 2.0195879e-38
0.012919999 -0.068679988 0.71400011 2.1025226e-38
0.014319998 -0.068872377 0.71600008 2.0093914e-38
0.015683822 -0.068872377 0.71600002 1.915251e-38
0.017071439 -0.068968579 0.71700001 1.9604423e-38
0.018437153 -0.068968579 0.71700001 2.0036032e-38
0.019802863 -0.068968564 0.71700001 1.9594125e-38
0.021168575 -0.068968564 0.71700001 1.9227139e-38
0.022597143 -0.069160938 0.71900004 1.8690113e-38
0.023966668 -0.069160938 0.71900004 1.8151287e-38
0.025371442 -0.06925714 0.72000003 1.7774249e-38
0.026742863 -0.06925714 0.72000003 1.7500504e-38
0.028114287 -0.069257155 0.72000009 1.8512455e-38
0.029567624 -0.069449544 0.72200012 1.9623868e-38
0.030942855 -0.069449544 0.72200012 1.6770928e-38
0.032362875 -0.069545686 0.72300005 1.3905281e-38
0.03374001 -0.069545701 0.72300005 9.9376065e-39
0.035117138 -0.069545701 0.72300011 6.0826947e-39
0.036595229 -0.06973809 0.72500008 6.9153393e-39
0.037976198 -0.069738105 0.72500008 7.8365473e-39
0.039357152 -0.069738075 0.72500002 7.74326e-39
0.040738098 -0.069738105 0.72500008 7.5585296e-39
0.042119052 -0.06973809 0.72500002 7.6510994e-39
-0.031780962 -0.066942856 0.7100001 1.3949947e-38
-0.030428583 -0.066942871 0.7100001 1.5421113e-38
-0.028994294 -0.066754282 0.708 1.5977152e-38
-0.02764572 -0.066754282 0.70800006 1.652566e-38
-0.026297152 -0.066754282 0.70800006 1.7815309e-38
-0.024948578 -0.066754282 0.70800006 1.900666e-38
-0.023600001 -0.066754282 0.708 2.0387065e-38
-0.022251429 -0.066754282 0.708 2.1672048e-38
-0.020902863 -0.066754282 0.708 2.204011e-38
-0.019609531 -0.066942886 0.7100001 2.231491e-38
-0.01825715 -0.066942856 0.7100001 2.2774816e-38
-0.016904762 -0.066942871 0.71000004 2.3142162e-38
-0.015552381 -0.066942871 0.7100001 2.3325838e-38
-0.014200008 -0.066942871 0.7100001 2.3417682e-38
-0.012865715 -0.06703715 0.71100003 2.341769e-38
-0.011511442 -0.06703715 0.71100008 2.341769e-38
-0.010157152 -0.06703715 0.71100008 2.341769e-38
-0.0088276174 -0.067225724 0.71300006 2.341769e-38
-0.0074695218 -0.06722571 0.71300006 2.341769e-38
-0.0061114263 -0.06722571 0.71300006 2.341769e-38
-0.0047533307 -0.067225695 0.71300006 2.341769e-38
-0.0033952354 -0.06722571 0.71300006 2.341769e-38
-0.0020314308 -0.06703715 0.71100008 2.341769e-38
-0.00067714712 -0.06703715 0.71100003 2.341769e-38
0.00067713374 -0.067037165 0.71100008 2.341769e-38
0.0020314169 -0.06703715 0.71100008 2.341769e-38
0.0033857075 -0.067037165 0.71100008 2.341769e-38
0.0047399988 -0.067037165 0.71100008 2.3417683e-38
0.00611143 -0.06722571 0.71300006 2.1672802e-38
0.0074695325 -0.06722571 0.71300006 1.9912029e-38
0.0088276211 -0.06722571 0.71300006 1.7967229e-38
0.010200001 -0.067320004 0.71400011 1.5956256e-38
0.01156 -0.067320004 0.71400011 1.7702648e-38
0.012919989 -0.067319989 0.71400011 1.9449668e-38
0.014320007 -0.067508578 0.71600002 1.9168416e-38
0.015683806 -0.067508593 0.71600008 1.8790635e-38
0.017071435 -0.067602843 0.71700001 1.9147178e-38
0.018437149 -0.067602843 0.71700001 1.9511646e-38
0.019802859 -0.067602843 0.71700001 1.9415502e-38
0.021227611 -0.067791432 0.7190001 1.923252e-38
0.022597147 -0.067791417 0.71900004 1.8314139e-38
0.023999998 -0.067885727 0.72000003 1.7404748e-38
0.025371434 -0.067885742 0.72000003 1.7405462e-38
0.02674287 -0.067885742 0.72000003 1.7401841e-38
0.028114291 -0.067885742 0.72000003 1.7391044e-38
0.029567618 -0.068074301 0.72200006 1.7405796e-38
0.030942867 -0.068074286 0.72200006 1.5112104e-38
0.032318089 -0.068074286 0.72200012 1.2794264e-38
0.033740006 -0.068168551 0.72300005 9.7514258e-39
0.035117138 -0.068168566 0.72300005 6.6358615e-39
0.036595233 -0.068357155 0.72500008 7.3759531e-39
0.037976202 -0.06835714 0.72500008 8.0191491e-39
0.039357133 -0.06835714 0.72500008 7.6517959e-39
0.040738102 -0.06835714 0.72500008 7.284119e-39
0.042119056 -0.06835714 0.72500002 7.4670963e-39
-0.031780954 -0.065590471 0.7100001 1.0542064e-38
-0.030471446 -0.065682873 0.71100008 1.1279257e-38
-0.029076198 -0.065590486 0.7100001 1.1464721e-38
-0.027723813 -0.065590456 0.71000004 1.1646955e-38
-0.026297146 -0.065405726 0.708 1.1926048e-38
-0.02494858 -0.065405712 0.708 1.2202993e-38
-0.023600005 -0.065405726 0.70800006 1.5789245e-38
-0.022314297 -0.065590486 0.7100001 1.9465888e-38
-0.020961914 -0.065590471 0.7100001 1.937333e-38
-0.019609533 -0.065590486 0.7100001 1.9373332e-38
-0.018257154 -0.065590471 0.7100001 2.0568271e-38
-0.016904775 -0.065590486 0.7100001 2.1856484e-38
-0.015552383 -0.065590486 0.71000004 2.2315664e-38
-0.014200003 -0.065590471 0.7100001 2.2774842e-38
-0.012847625 -0.065590471 0.7100001 2.2590812e-38
-0.01151144 -0.065682858 0.71100008 2.24075e-38
-0.010157148 -0.065682873 0.71100008 2.2220959e-38
-0.0088028647 -0.065682858 0.71100008 2.2131993e-38
-0.0074695284 -0.065867618 0.71300006 2.2683006e-38
-0.0061114253 -0.065867618 0.71300006 2.3234019e-38
-0.0047533289 -0.065867618 0.71300006 2.323366e-38
-0.0033952345 -0.065867618 0.71300006 2.3325854e-38
-0.0020314355 -0.065682888 0.71100008 2.3325854e-38
-0.00067714433 -0.065682858 0.71100003 2.341769e-38
0.0006771356 -0.065682873 0.71100008 2.341769e-38
0.0020314266 -0.065682873 0.71100008 2.341769e-38
0.0033857028 -0.065682858 0.71100008 2.341769e-38
0.0047533289 -0.065867633 0.71300006 2.3417677e-38
0.0061114309 -0.065867618 0.71300006 2.0194811e-38
0.0074695195 -0.065867633 0.71300006 1.7049999e-38
0.008827622 -0.065867618 0.71300006 1.6310488e-38
0.010200001 -0.065960005 0.71400011 1.567027e-38
0.01155999 -0.06596002 0.71400011 1.7420644e-38
0.012920004 -0.065960005 0.71400011 1.9075506e-38
0.014320004 -0.066144764 0.71600008 1.8612412e-38
0.015683813 -0.06614475 0.71600002 1.8062135e-38
0.01707142 -0.066237152 0.71700001 1.8979071e-38
0.018437134 -0.066237152 0.71700001 1.9999246e-38
0.01980287 -0.066237122 0.71700001 1.9801882e-38
0.021227626 -0.066421896 0.71900004 1.9605245e-38
0.022597151 -0.066421896 0.71900004 1.8413842e-38
0.024000017 -0.066514283 0.72000003 1.7308951e-38
0.025371427 -0.066514298 0.72000003 1.7310747e-38
0.026742861 -0.066514298 0.72000003 1.7310712e-38
0.028192371 -0.066699043 0.72200012 1.7492553e-38
0.029567616 -0.066699058 0.72200012 1.7588363e-38
0.030985717 -0.06679143 0.72300011 1.5191339e-38
0.03236286 -0.066791415 0.72300005 1.2866707e-38
0.03374001 -0.066791415 0.72300011 9.2890211e-39
0.035117153 -0.066791415 0.72300005 5.812572e-39
0.036595237 -0.06697619 0.72500008 6.8245814e-39
0.037976194 -0.06697619 0.72500008 7.8347676e-39
0.039357137 -0.066976175 0.72500008 7.6514497e-39
0.040738109 -0.06697619 0.72500008 7.4688858e-39
0.042119037 -0.06697619 0.72500008 7.5596745e-39
-0.031780947 -0.064238101 0.7100001 7.1387707e-39
-0.030428579 -0.064238101 0.7100001 7.0501638e-39
-0.028994292 -0.064057142 0.70800006 6.8639803e-39
-0.027645724 -0.064057142 0.70800006 6.6824603e-39
-0.02629715 -0.064057142 0.70800006 6.0381755e-39
-0.024948584 -0.064057142 0.70800006 5.3088753e-39
-0.023599999 -0.064057142 0.708 1.1284643e-38
-0.022314297 -0.064238116 0.7100001 1.7165699e-38
-0.020961909 -0.064238101 0.71000004 1.6797278e-38
-0.019609528 -0.064238101 0.7100001 1.6340251e-38
-0.01825715 -0.064238116 0.7100001 1.8452108e-38
-0.016928578 -0.064328596 0.71100008 2.0477156e-38
-0.015574294 -0.064328581 0.71100008 2.1305474e-38
-0.014220002 -0.064328581 0.71100008 2.2039799e-38
-0.012865718 -0.064328596 0.71100003 2.1763575e-38
-0.011543809 -0.064509541 0.71300006 2.1392637e-38
-0.010185707 -0.064509526 0.71300006 2.1109949e-38
-0.0088276118 -0.064509526 0.71300006 2.0750508e-38
-0.0074695153 -0.064509511 0.71300006 2.1948322e-38
-0.0061114309 -0.064509541 0.71300012 2.3049989e-38
-0.0047533354 -0.064509526 0.71300006 2.3141106e-38
-0.0033952401 -0.064509526 0.71300006 2.3141825e-38
-0.0020314336 -0.064328581 0.71100003 2.323366e-38
-0.0006771434 -0.064328581 0.71100003 2.3325854e-38
0.00067905319 -0.064509526 0.71300006 2.341769e-38
0.0020371492 -0.064509526 0.71300006 2.341769e-38
0.0033952517 -0.064509526 0.71300006 2.341769e-38
0.0047533405 -0.064509526 0.71300006 2.3416597e-38
0.0061114328 -0.064509541 0.71300012 1.8821578e-38
0.007479988 -0.064600021 0.71400011 1.4115924e-38
0.0088400031 -0.064600006 0.71400011 1.4738164e-38
0.010199992 -0.064600006 0.71400011 1.5393683e-38
0.011560005 -0.064600021 0.71400011 1.7050424e-38
0.012956196 -0.064780951 0.71600002 1.8705645e-38
0.014320011 -0.064780965 0.71600008 1.8052065e-38
0.015705721 -0.06487143 0.71700001 1.7323863e-38
0.017071432 -0.06487143 0.71700001 1.889119e-38
0.018437145 -0.064871445 0.71700001 2.0366269e-38
0.019858096 -0.06505239 0.7190001 2.0187233e-38
0.02122763 -0.06505239 0.71900004 1.9899484e-38
0.022628574 -0.065142855 0.72000003 1.8519035e-38
0.024000008 -0.065142855 0.72000003 1.7134277e-38
0.025371443 -0.065142855 0.72000003 1.7218172e-38
0.026817149 -0.065323815 0.72200012 1.7222121e-38
0.02819238 -0.065323815 0.72200006 1.7496196e-38
0.029608583 -0.06541428 0.72300005 1.7772783e-38
0.030985715 -0.06541428 0.72300005 1.5381837e-38
0.032362849 -0.065414295 0.72300011 1.2878563e-38
0.033740006 -0.065414295 0.72300005 8.9084327e-39
0.035117142 -0.065414295 0.72300011 4.9785304e-39
0.036595244 -0.065595239 0.72500008 6.3664759e-39
0.037976194 -0.065595239 0.72500002 7.6514427e-39
0.039357141 -0.065595254 0.72500008 7.6503539e-39
0.040738098 -0.065595239 0.72500002 7.6514582e-39
0.042119045 -0.065595254 0.72500008 7.652205e-39
0.043499999 -0.065595239 0.72500008 7.6510938e-39
0.044880945 -0.065595239 0.72500008 7.8347298e-39
-0.031780951 -0.062885717 0.71000004 7.7834142e-39
-0.030342856 -0.062708572 0.708 7.6940899e-39
-0.02899429 -0.062708572 0.708 7.4160722e-39
-0.027645718 -0.062708586 0.708 7.2316824e-39
-0.026297143 -0.062708586 0.708 6.7717846e-39
-0.024948576 -0.062708572 0.70800006 6.2189794e-39
-0.02360001 -0.062708586 0.70800006 1.1004112e-38
-0.022314291 -0.062885717 0.7100001 1.5880362e-38
-0.020961912 -0.062885731 0.7100001 1.6614687e-38
-0.01960952 -0.062885717 0.71000004 1.7350084e-38
-0.01825715 -0.062885717 0.7100001 1.8820883e-38
-0.016928585 -0.062974289 0.71100008 2.0294919e-38
-0.015574291 -0.062974289 0.71100008 2.1213637e-38
-0.01422 -0.062974289 0.71100003 2.2131633e-38
-0.012901904 -0.063151434 0.71300006 2.167102e-38
-0.011511436 -0.062974289 0.71100008 2.1299718e-38
-0.010157153 -0.062974289 0.71100008 2.0927698e-38
-0.0088276165 -0.063151419 0.71300006 2.0658305e-38
-0.0074695228 -0.063151419 0.71300006 2.185541e-38
-0.0061114188 -0.063151419 0.71300006 2.3142182e-38
-0.0047533242 -0.063151419 0.71300006 2.3141822e-38
-0.0033952391 -0.063151434 0.71300012 2.3141823e-38
-0.0020314327 -0.062974289 0.71100008 2.3141825e-38
-0.00067714154 -0.062974274 0.71100003 2.3234019e-38
0.0006790476 -0.063151434 0.71300006 2.3325854e-38
0.0020371501 -0.063151419 0.71300006 2.341769e-38
0.0033952387 -0.063151419 0.71300006 2.3325854e-38
0.0047533414 -0.063151434 0.71300006 2.3325835e-38
0.0061199907 -0.063240007 0.71400011 2.0380263e-38
0.0074800048 -0.063240007 0.71400011 1.7516704e-38
0.0088399937 -0.063240021 0.71400011 1.7329288e-38
0.010200008 -0.063240007 0.71400011 1.7145727e-38
0.011592391 -0.063417137 0.71600002 1.7972356e-38
0.012956192 -0.063417122 0.71600008 1.8900069e-38
0.014320004 -0.063417122 0.71600002 1.9077672e-38
0.015705716 -0.063505709 0.71700001 1.9248463e-38
0.017071428 -0.063505709 0.71700001 1.9161324e-38
0.018488577 -0.063682854 0.7190001 1.9172807e-38
0.019858083 -0.063682869 0.7190001 1.9723464e-38
0.021227619 -0.063682869 0.71900004 2.0275871e-38
0.022628581 -0.063771427 0.72000003 1.95372e-38
0.024000013 -0.063771427 0.72000003 1.8888869e-38
0.025371434 -0.063771412 0.72000003 1.8791548e-38
0.026817132 -0.063948572 0.72200012 1.8699398e-38
0.028231436 -0.064037114 0.72300005 1.8329228e-38
0.02960857 -0.064037129 0.72300011 1.8053704e-38
0.030985726 -0.064037129 0.72300005 1.5656995e-38
0.03236286 -0.064037129 0.72300005 1.3162698e-38
0.033740006 -0.064037129 0.72300005 9.5710381e-39
0.035214279 -0.064214289 0.72500008 5.990167e-39
0.036595233 -0.064214274 0.72500008 6.9146148e-39
0.037976187 -0.064214289 0.72500002 7.8361773e-39
0.039357148 -0.064214289 0.72500008 7.7428859e-39
0.040738102 -0.064214289 0.72500002 7.6503609e-39
0.042119045 -0.064214304 0.72500008 7.3755999e-39
0.043500002 -0.064214274 0.72500008 7.1000752e-39
-0.030428575 -0.061533317 0.71000004 8.2425917e-39
-0.028994294 -0.061360002 0.70800006 8.0574858e-39
-0.027645728 -0.061360016 0.70800006 7.7819779e-39
-0.026297156 -0.061360016 0.70800006 7.5061113e-39
-0.024948571 -0.061360016 0.708 7.1394868e-39
-0.023599995 -0.061360016 0.708 1.0816493e-38
-0.022314295 -0.061533332 0.7100001 1.449673e-38
-0.020961912 -0.061533332 0.7100001 1.6431018e-38
-0.019609535 -0.061533347 0.7100001 1.8269876e-38
-0.018257143 -0.061533332 0.7100001 1.9186434e-38
-0.016928582 -0.061620012 0.71100008 2.001726e-38
-0.015574289 -0.061619997 0.71100008 2.11218e-38
-0.014220005 -0.061619997 0.71100003 2.2223827e-38
-0.01290191 -0.061793342 0.71300006 2.1672816e-38
-0.011543813 -0.061793342 0.71300006 2.1115334e-38
-0.010185712 -0.061793342 0.71300006 2.0826904e-38
-0.0088276165 -0.061793357 0.71300006 2.0472846e-38
-0.00746952 -0.061793327 0.71300006 2.1856487e-38
-0.0061114253 -0.061793327 0.71300006 2.3234019e-38
-0.0047533298 -0.061793327 0.71300006 2.3141823e-38
-0.0033952345 -0.061793342 0.71300006 2.3049989e-38
-0.0020314308 -0.061620012 0.71100003 2.3141825e-38
-0.00067713967 -0.061619997 0.71100003 2.3142183e-38
0.00067904853 -0.061793342 0.71300006 2.3325854e-38
0.002037137 -0.061793342 0.71300006 2.341769e-38
0.0033952391 -0.061793342 0.71300006 2.3325854e-38
0.004759992 -0.061880007 0.71400011 2.31393e-38
0.0061200056 -0.061879992 0.71400011 2.2039772e-38
0.0074799946 -0.061879992 0.71400011 2.0837584e-38
0.0088400086 -0.061879992 0.71400011 1.9917361e-38
0.010199997 -0.061880007 0.71400011 1.8900014e-38
0.011592373 -0.062053338 0.71600008 1.8976801e-38
0.012956199 -0.062053338 0.71600002 1.8993355e-38
0.01432 -0.062053338 0.71600008 2.0109423e-38
0.015705729 -0.062139988 0.71700001 2.1190646e-38
0.017071439 -0.062139988 0.71700001 1.9516087e-38
0.018488564 -0.062313348 0.7190001 1.7873818e-38
0.019858098 -0.062313333 0.71900004 1.9258175e-38
0.021227622 -0.062313318 0.71900004 2.0641075e-38
0.022628572 -0.062400013 0.72000003 2.0648235e-38
0.024000006 -0.062400013 0.72000003 2.0546648e-38
0.025371427 -0.062399998 0.72000003 2.0360041e-38
0.026817141 -0.062573329 0.72200006 2.0079496e-38
0.028231425 -0.062659994 0.72300011 1.9250808e-38
0.029608566 -0.062659979 0.72300005 1.8330646e-38
0.030985715 -0.062659994 0.72300011 1.5937887e-38
0.032452382 -0.062833324 0.72500008 1.3443224e-38
0.033833336 -0.062833339 0.72500008 1.0222846e-38
0.035214283 -0.062833339 0.72500008 7.0039448e-39
0.036595237 -0.062833354 0.72500008 7.5578332e-39
0.037976183 -0.062833354 0.72500008 8.0184316e-39
0.039357137 -0.062833354 0.72500008 7.8347466e-39
0.040738095 -0.062833339 0.72500002 7.5592541e-39
0.042119052 -0.062833354 0.72500008 7.0078964e-39
-0.030471439 -0.060265735 0.71100008 8.242233e-39
-0.028994294 -0.060011417 0.708 7.9660076e-39
-0.02764572 -0.060011432 0.708 7.7819779e-39
-0.02629715 -0.060011432 0.70800006 7.7819779e-39
-0.024948575 -0.060011432 0.70800006 7.7812576e-39
-0.023666667 -0.060180947 0.7100001 9.6211933e-39
-0.022314288 -0.060180962 0.7100001 1.1461495e-38
-0.020961914 -0.060180962 0.7100001 1.542011e-38
-0.019609535 -0.060180962 0.7100001 1.9376567e-38
-0.018257156 -0.060180977 0.7100001 1.9466247e-38
-0.01692858 -0.06026572 0.71100008 1.9649559e-38
-0.015574287 -0.06026572 0.71100008 2.1028885e-38
-0.014220004 -0.06026572 0.71100008 2.2315661e-38
-0.012901898 -0.060435221 0.71300006 2.1948322e-38
-0.011543802 -0.060435221 0.71300006 2.1672092e-38
-0.010185716 -0.06043525 0.71300006 2.1300081e-38
