# .PCD v0.7 - Point Cloud Data file format
VERSION 0.7
FIELDS x y z rgb
SIZE 4 4 4 4
TYPE F F F F
COUNT 1 1 1 1
WIDTH 968
HEIGHT 1
VIEWPOINT 0 0 0 1 0 0 0
POINTS 968
DATA ascii
-0.00071616698 0.029363804 0.75200003 2.1761055e-38
0.00071428769 0.029285721 0.75000006 1.9833234e-38
0.0021428722 0.029285707 0.75000006 1.779563e-38
0.0035714353 0.029285707 0.75000006 1.2917584e-38
0.0049999976 0.029285721 0.75000006 7.959905e-39
0.0064285812 0.029285707 0.75000006 7.9570393e-39
0.0078571448 0.029285714 0.75000006 7.9595518e-39
0.0092857089 0.029285707 0.75000006 7.1333911e-39
0.010714307 0.029285707 0.75000006 6.20427e-39
0.012142872 0.029285714 0.75000006 3.701031e-39
0.013535243 0.029207624 0.74800003 1.1425515e-39
0.014959996 0.029207617 0.74800003 3.629286e-39
0.016384769 0.029207617 0.74800003 6.024545e-39
0.017809525 0.02920761 0.74800003 7.1333911e-39
0.019208604 0.029168561 0.74700004 8.2325332e-39
0.020631475 0.029168554 0.7470001 8.7799448e-39
0.022054344 0.029168554 0.7470001 9.2283309e-39
0.023477193 0.029168554 0.7470001 6.1787187e-39
0.024900053 0.029168561 0.7470001 3.1517445e-39
0.026252387 0.029090486 0.74500006 3.8954079e-39
0.027745768 0.029168554 0.7470001 4.5418493e-39
0.029207628 0.029207617 0.74800003 6.9371112e-39
0.030632386 0.029207617 0.74800003 9.235514e-39
-0.040071394 0.031328559 0.7650001 8.6960295e-39
-0.03851331 0.031246655 0.76300007 7.9581169e-39
-0.037059993 0.031246662 0.76300001 6.9457741e-39
-0.035606656 0.031246647 0.76300007 6.0277778e-39
-0.034063786 0.03116475 0.76100004 6.1196133e-39
-0.032614283 0.031164765 0.76100004 6.3029256e-39
-0.031123782 0.031123787 0.76000011 6.3951198e-39
-0.029676178 0.031123802 0.76000005 6.5787908e-39
-0.028228555 0.031123787 0.76000011 6.487314e-39
-0.026780922 0.031123795 0.76000005 6.3036431e-39
-0.0253333 0.031123795 0.76000005 6.3954785e-39
-0.023822844 0.031041898 0.75800002 6.4869553e-39
-0.022379033 0.031041883 0.75800008 6.487314e-39
-0.020935219 0.03104189 0.75800008 6.4876728e-39
-0.019491425 0.03104189 0.75800002 6.1196133e-39
-0.018047582 0.03104189 0.75800002 5.8415845e-39
-0.016603768 0.031041883 0.75800008 6.8445891e-39
-0.015119992 0.030959979 0.7560001 7.946985e-39
-0.013679987 0.030959994 0.7560001 1.2277614e-38
-0.012239982 0.030959979 0.7560001 1.6698269e-38
-0.010799978 0.030959986 0.7560001 1.8999891e-38
-0.0093475673 0.030919045 0.75500011 2.1297925e-38
-0.0079095159 0.030919045 0.75500005 2.0745471e-38
-0.0064714155 0.030919053 0.75500005 2.0187282e-38
-0.0050333161 0.030919045 0.75500005 2.0099391e-38
-0.0035856767 0.030837134 0.75300002 2.0009354e-38
-0.0021485589 0.030796185 0.75199997 2.0838746e-38
-0.00071618095 0.030796185 0.75200003 2.176213e-38
0.00071429607 0.030714288 0.75000006 1.9828569e-38
0.0021428592 0.030714281 0.75000006 1.7885671e-38
0.0035714437 0.030714281 0.75000012 1.2919016e-38
0.0050000059 0.030714288 0.75000006 8.0506629e-39
0.006428584 0.030714281 0.75000006 7.4975017e-39
0.0078571476 0.030714296 0.75000006 7.0379669e-39
0.0092857312 0.030714266 0.75000006 6.9461328e-39
0.010714294 0.030714281 0.75000006 6.7567137e-39
0.012142858 0.030714296 0.75000006 5.0864472e-39
0.013535249 0.030632384 0.74800003 3.3365519e-39
0.014960025 0.030632369 0.74800009 5.0028639e-39
0.01638478 0.030632377 0.74800003 6.6641621e-39
0.017809518 0.030632392 0.74800003 7.4071039e-39
0.019208608 0.030591421 0.74700004 8.2325276e-39
0.020631479 0.030591406 0.7470001 7.8551201e-39
0.02205433 0.030591413 0.74700004 7.4719813e-39
0.023477184 0.030591413 0.7470001 5.9111225e-39
0.024900056 0.030591413 0.7470001 4.3513638e-39
0.026252398 0.030509524 0.74500006 4.7237379e-39
0.027745774 0.030591413 0.7470001 5.0943141e-39
0.029285729 0.030714281 0.75000006 6.6601852e-39
0.030714292 0.030714296 0.75000006 8.3146507e-39
-0.040071413 0.032785699 0.7650001 8.9729709e-39
-0.038614284 0.032785706 0.76500005 8.6917233e-39
-0.037059989 0.032699987 0.76300001 7.2173303e-39
-0.035699986 0.032785699 0.7650001 5.7501175e-39
-0.034153335 0.032699995 0.76300007 6.0274191e-39
-0.032614283 0.032614291 0.76100004 6.3032843e-39
-0.031123791 0.03257142 0.76000005 6.487314e-39
-0.029676169 0.032571413 0.76000005 6.670985e-39
-0.028228544 0.032571398 0.76000011 6.5795083e-39
-0.026780944 0.03257142 0.76000005 6.487314e-39
-0.025266629 0.032485701 0.75800008 6.6706263e-39
-0.023822818 0.032485686 0.75800008 6.854656e-39
-0.022379022 0.032485709 0.75800002 6.7631793e-39
-0.020935209 0.032485694 0.75800002 6.6713438e-39
-0.019491397 0.032485694 0.75800008 6.3040018e-39
-0.018047582 0.032485701 0.75800008 5.8397908e-39
-0.016603788 0.032485701 0.75800002 6.9324785e-39
-0.01511999 0.03239999 0.7560001 7.9480612e-39
-0.013679986 0.032399982 0.7560001 1.2277614e-38
-0.012239981 0.032399982 0.7560001 1.6512446e-38
-0.010799976 0.032399975 0.7560001 1.8353456e-38
-0.0093475841 0.032357149 0.75500011 2.0101912e-38
-0.0079094833 0.032357134 0.75500011 1.9826043e-38
-0.0064713834 0.032357141 0.75500011 1.9456188e-38
-0.0050199637 0.032271408 0.75300008 1.9732052e-38
-0.0035952036 0.032357156 0.75500005 1.9917878e-38
-0.0021485449 0.032228567 0.75200003 2.0836954e-38
-0.0007161856 0.032228582 0.75200003 2.1668502e-38
0.00071428303 0.032142848 0.75000006 1.9833234e-38
0.0021428666 0.032142848 0.75000012 1.7888542e-38
0.0035714437 0.032142855 0.75000006 1.3006188e-38
0.0050000069 0.032142863 0.75000006 8.0492279e-39
0.0064285896 0.032142855 0.75000012 7.1280087e-39
0.007857156 0.032142855 0.75000006 6.1196119e-39
0.0092857191 0.032142848 0.75000006 6.7638967e-39
0.010714282 0.032142863 0.75000006 7.3052169e-39
0.012142866 0.032142855 0.75000006 6.4593189e-39
0.013535243 0.032057144 0.74800003 5.5470624e-39
0.014960018 0.032057144 0.74800009 6.381474e-39
0.016384773 0.032057136 0.74800003 7.2173275e-39
0.017809547 0.032057136 0.74800009 7.7812618e-39
0.019208614 0.032014281 0.74700004 8.2318171e-39
0.020631485 0.032014266 0.7470001 7.0282559e-39
0.022054318 0.032014273 0.74700004 5.7353675e-39
0.023477187 0.032014281 0.7470001 5.6420802e-39
0.02490006 0.032014258 0.7470001 5.5513293e-39
0.026252393 0.031928569 0.745 5.554209e-39
0.027745767 0.032014266 0.7470001 5.5556439e-39
0.029168615 0.032014266 0.7470001 6.4775876e-39
0.030714301 0.032142863 0.75000006 7.3062511e-39
-0.040071405 0.034242839 0.7650001 1.062027e-38
-0.038614251 0.034242846 0.7650001 1.0159653e-38
-0.037059963 0.03415332 0.76300007 7.2151737e-39
-0.035606645 0.034153335 0.76300007 4.2782357e-39
-0.034153331 0.034153327 0.76300001 5.1987472e-39
-0.032614261 0.034063809 0.76100004 6.0284953e-39
-0.031123783 0.034019031 0.76000005 6.2114488e-39
-0.029676162 0.034019016 0.76000011 6.3036431e-39
-0.028228559 0.034019038 0.76000005 5.8441068e-39
-0.026816187 0.034063816 0.76100004 5.2927351e-39
-0.025333334 0.034019038 0.76000005 5.476046e-39
-0.023885682 0.034019023 0.76000005 5.6604358e-39
-0.022438059 0.034019031 0.76000011 5.5682416e-39
-0.020935208 0.033929504 0.75800008 5.5689591e-39
-0.019491415 0.033929519 0.75800002 5.4764061e-39
-0.018047601 0.033929512 0.75800002 5.382407e-39
-0.016603786 0.033929512 0.75800008 6.7513173e-39
-0.015119988 0.033839986 0.75600004 8.125275e-39
-0.013679984 0.033839993 0.75600004 1.2460209e-38
-0.01223998 0.033839986 0.75600004 1.67919e-38
-0.010799974 0.033839986 0.7560001 1.8724387e-38
-0.0093599698 0.033839986 0.7560001 2.0655081e-38
-0.0079199933 0.033839986 0.7560001 2.0102268e-38
-0.0064713992 0.033795238 0.75500011 1.9640937e-38
-0.0050199791 0.033705711 0.75300002 1.9641653e-38
-0.0035952199 0.033795238 0.75500005 1.964345e-38
-0.002148557 0.033660941 0.75200003 2.0839466e-38
-0.0007161707 0.033660948 0.75200003 2.2037281e-38
0.00071430538 0.033571422 0.75000006 2.0105872e-38
0.0021428685 0.03357143 0.75000006 1.8073648e-38
0.0035714316 0.03357143 0.75000006 1.319524e-38
0.0050000143 0.033571415 0.75000012 8.3276057e-39
0.0064285775 0.033571422 0.75000006 7.2223553e-39
0.0078571429 0.033571422 0.75000006 6.0277778e-39
0.0092857266 0.033571422 0.75000012 7.0394032e-39
0.010685709 0.033481911 0.74800003 7.954524e-39
0.012142866 0.033571422 0.75000006 7.1125734e-39
0.013535237 0.033481903 0.74800003 6.286054e-39
0.014960011 0.033481903 0.74800003 6.4751045e-39
0.016384766 0.033481903 0.74800003 6.7570752e-39
0.017809544 0.033481896 0.74800009 7.4071039e-39
0.019234298 0.033481911 0.74800003 8.1407061e-39
0.020631474 0.033437133 0.7470001 7.0304223e-39
0.022054322 0.033437133 0.74700004 5.9219195e-39
0.023477193 0.03343714 0.7470001 5.7371513e-39
0.02490003 0.033437125 0.74700004 5.5549237e-39
0.026322898 0.03343714 0.7470001 5.5549307e-39
0.027745772 0.033437118 0.7470001 5.4634511e-39
0.029168621 0.033437133 0.7470001 6.1095254e-39
-0.04007142 0.035699986 0.7650001 1.2268608e-38
-0.038614266 0.035699978 0.76500005 1.1534289e-38
-0.037157141 0.035699993 0.76500005 7.2051138e-39
-0.035699967 0.035699978 0.7650001 2.8034783e-39
-0.034153305 0.035606638 0.76300007 4.277521e-39
-0.032699987 0.035606652 0.76300007 5.7501175e-39
-0.03116475 0.035513334 0.76099998 5.8430306e-39
-0.029715225 0.035513334 0.76100004 5.9355822e-39
-0.028265718 0.035513327 0.76100004 5.0172258e-39
-0.026816163 0.035513334 0.76100004 4.0981534e-39
-0.025366656 0.035513327 0.76099998 4.2807482e-39
-0.023917127 0.035513334 0.76100004 4.3750948e-39
-0.022438072 0.035466656 0.76000005 4.3718662e-39
-0.020935226 0.035373315 0.75800002 4.3736599e-39
-0.019491414 0.035373323 0.75800008 4.6498853e-39
-0.018047571 0.035373315 0.75800008 4.9210785e-39
-0.016603779 0.035373315 0.75800002 6.5651422e-39
-0.015159965 0.035373323 0.75800002 8.2242865e-39
-0.013679962 0.035279989 0.7560001 1.2645672e-38
-0.012240006 0.035280004 0.75600004 1.7064176e-38
-0.0108 0.035279989 0.7560001 1.9096392e-38
-0.0093475878 0.035233334 0.75500011 2.1114617e-38
-0.0079094879 0.035233326 0.75500011 2.0469969e-38
-0.0064713876 0.035233334 0.75500011 1.9825325e-38
-0.0050199749 0.035140015 0.75300002 1.954946e-38
-0.0035951878 0.035233326 0.75500011 1.927575e-38
-0.0021514208 0.035140008 0.75300002 2.0839826e-38
-0.0007161558 0.03509333 0.75200003 2.2404981e-38
0.00071621645 0.035093322 0.75200003 2.0387119e-38
0.0021428564 0.035000004 0.75000006 1.8256243e-38
0.00357144 0.034999996 0.75000012 1.3465723e-38
0.0050000022 0.034999989 0.75000006 8.6013171e-39
0.0064285803 0.035000004 0.75000006 7.3141908e-39
0.0078571644 0.034999989 0.75000012 5.9384535e-39
0.0092857275 0.034999989 0.75000006 7.319932e-39
0.010714291 0.035000004 0.75000006 8.5959361e-39
0.012142874 0.034999996 0.75000012 7.7507556e-39
0.013535247 0.034906663 0.74800003 6.9303374e-39
0.014960008 0.03490667 0.74800003 6.5676617e-39
0.016384762 0.034906656 0.74800003 6.2057049e-39
0.017809536 0.034906663 0.74800003 7.1330324e-39
0.019234292 0.03490667 0.74800003 7.9573966e-39
0.020659067 0.034906656 0.74800003 7.0311468e-39
0.022083823 0.034906663 0.74800003 6.1088247e-39
0.023508593 0.03490667 0.74800009 5.8293512e-39
0.024900034 0.034859993 0.74700004 5.5549251e-39
0.026322901 0.034859978 0.7470001 5.4638113e-39
0.027745754 0.034859985 0.74700004 5.3723289e-39
0.029168624 0.034859993 0.7470001 5.8318609e-39
-0.040071409 0.037157133 0.76500005 1.5222731e-38
-0.038715221 0.037254259 0.76700008 1.5861293e-38
-0.037157137 0.037157118 0.7650001 1.1077613e-38
-0.035699986 0.037157133 0.7650001 6.2899888e-39
-0.034242857 0.037157126 0.76500005 5.1872636e-39
-0.03269998 0.037059993 0.76300001 4.1874792e-39
-0.031246647 0.037059985 0.76300007 4.6488105e-39
-0.029715225 0.036962859 0.76100004 5.2008968e-39
-0.028265692 0.036962852 0.76099998 6.6699018e-39
-0.026816163 0.036962859 0.76100004 8.2296717e-39
-0.025366656 0.036962859 0.76100004 9.9827984e-39
-0.023917129 0.036962859 0.76100004 1.1819867e-38
-0.022438064 0.036914282 0.76000005 1.0808599e-38
-0.020990439 0.036914267 0.76000011 9.8830708e-39
-0.019542838 0.036914267 0.76000005 7.2202001e-39
-0.018047592 0.036817133 0.75800002 4.5562505e-39
-0.016603777 0.036817119 0.75800008 5.7414996e-39
-0.015159983 0.036817126 0.75800002 7.0304279e-39
-0.013679989 0.036719985 0.7560001 1.1630815e-38
-0.012239984 0.036719985 0.7560001 1.6324827e-38
-0.0108 0.036719993 0.75600004 1.8447087e-38
-0.0093599949 0.036719985 0.75600004 2.0655439e-38
-0.0079199905 0.036719985 0.75600004 2.0194104e-38
-0.0064799855 0.036719993 0.7560001 1.9732774e-38
-0.0050333044 0.036671422 0.75500011 1.9457625e-38
-0.0035999771 0.036719993 0.7560001 1.9274674e-38
-0.0021514161 0.036574297 0.75300002 2.0839826e-38
-0.00071712438 0.036574289 0.75300002 2.2407135e-38
0.0007171664 0.036574297 0.75300002 2.0197349e-38
0.0021485905 0.036525697 0.75200003 1.7976071e-38
0.0035809767 0.036525704 0.75200003 1.3377832e-38
0.005013349 0.036525711 0.75200003 8.6956637e-39
0.0064457362 0.036525704 0.75200003 7.4992968e-39
0.0078781089 0.036525711 0.75200003 6.2139599e-39
0.0092857145 0.036428571 0.75000006 7.8702275e-39
0.010714298 0.036428571 0.75000012 9.6132998e-39
0.012142862 0.036428563 0.75000006 8.4050793e-39
0.013535261 0.036331415 0.74800009 7.2079962e-39
0.015000024 0.036428556 0.75000012 6.750618e-39
0.016428586 0.036428563 0.75000006 6.2939545e-39
0.017809531 0.036331415 0.74800003 7.4996569e-39
0.019234285 0.036331438 0.74800003 8.6056289e-39
0.020659059 0.036331415 0.74800003 7.5868289e-39
0.022083815 0.03633143 0.74800003 6.4786834e-39
0.023508588 0.036331408 0.74800003 6.0155389e-39
0.024933346 0.03633143 0.74800003 5.4638084e-39
0.026322907 0.036282837 0.7470001 5.2804962e-39
0.027782874 0.03633143 0.74800003 5.1893711e-39
0.029207632 0.036331415 0.74800009 5.5563474e-39
0.030796219 0.036525704 0.75200003 5.9226202e-39
0.032228589 0.036525704 0.75200003 5.6474794e-39
-0.038614277 0.038614273 0.7650001 2.0190853e-38
-0.037157126 0.038614277 0.76500005 1.4954077e-38
-0.035699978 0.038614266 0.7650001 9.6835918e-39
-0.034242824 0.038614277 0.7650001 6.1780713e-39
-0.03269998 0.038513333 0.76300001 2.6187354e-39
-0.03124664 0.038513314 0.76300007 3.5471418e-39
-0.029793326 0.038513314 0.76300007 4.3736599e-39
-0.02833998 0.038513329 0.76300001 8.4147805e-39
-0.026886644 0.038513325 0.76300007 1.2376262e-38
-0.025433328 0.038513318 0.76300007 1.5784222e-38
-0.023917131 0.038412381 0.76100004 1.9179264e-38
-0.022467598 0.038412377 0.76100004 1.7251436e-38
-0.020990431 0.038361885 0.76000011 1.531464e-38
-0.019542828 0.038361892 0.76000005 9.6994026e-39
-0.018095206 0.0383619 0.76000011 4.0927682e-39
-0.016603798 0.038260933 0.75800002 4.9052915e-39
-0.015159983 0.038260944 0.75800008 5.7404248e-39
-0.013679987 0.038159989 0.7560001 1.061381e-38
-0.012239983 0.038159993 0.7560001 1.5497232e-38
-0.010799978 0.038159989 0.7560001 1.7895356e-38
-0.0093599735 0.038159978 0.7560001 2.0193751e-38
-0.0079199886 0.038159993 0.75600004 1.991788e-38
-0.0064799851 0.038159989 0.75600004 1.954946e-38
-0.0050399797 0.038159985 0.75600004 1.9456549e-38
-0.0035999753 0.038159989 0.7560001 1.9274315e-38
-0.0021570916 0.038109522 0.75500011 2.0837315e-38
-0.00071902055 0.038109526 0.75500011 2.2313147e-38
0.00071717106 0.038008582 0.75300002 2.0019059e-38
0.0021514478 0.038008571 0.75300002 1.7703795e-38
0.0035809572 0.037958104 0.75200003 1.3281334e-38
0.0050133648 0.037958078 0.75200003 8.7846294e-39
0.0064457362 0.037958086 0.75200003 7.6811727e-39
0.0078571392 0.037857141 0.75000006 6.489465e-39
0.0092857359 0.037857141 0.75000006 8.5166633e-39
0.010714301 0.037857145 0.75000006 1.0529857e-38
0.012142864 0.037857145 0.75000006 8.9557265e-39
0.013571448 0.037857145 0.75000012 7.3909456e-39
0.015000011 0.037857134 0.75000006 6.9328541e-39
0.016428575 0.037857141 0.75000006 6.3893773e-39
0.017857157 0.037857149 0.75000012 7.8738148e-39
0.019285735 0.037857138 0.75000006 9.2481186e-39
0.020659054 0.037756179 0.74800003 8.0485175e-39
0.022083808 0.03775619 0.74800003 6.847459e-39
0.023508582 0.03775619 0.74800003 6.1066527e-39
0.024933338 0.037756197 0.74800003 5.3719701e-39
0.026322896 0.037705693 0.7470001 5.1890194e-39
0.027782869 0.037756193 0.74800003 4.9135101e-39
0.029285721 0.037857138 0.75000006 5.2808493e-39
0.030714283 0.037857141 0.75000006 5.5545649e-39
0.0322286 0.037958093 0.75200003 4.9110018e-39
-0.038614273 0.040071402 0.7650001 2.0566465e-38
-0.037157118 0.040071413 0.7650001 1.622686e-38
-0.035699997 0.04007142 0.7650001 1.1954364e-38
-0.034242842 0.040071417 0.76500005 6.7272794e-39
-0.032785695 0.040071398 0.7650001 1.612484e-39
-0.031246636 0.039966643 0.76300007 4.094206e-39
-0.02979332 0.039966658 0.76300001 6.5769957e-39
-0.028339982 0.039966654 0.76300007 1.1276392e-38
-0.026886638 0.039966647 0.76300007 1.5973993e-38
-0.02536666 0.039861906 0.76100004 1.5048104e-38
-0.023979988 0.03996665 0.76300007 1.4137641e-38
-0.022467598 0.039861899 0.76100004 1.5606651e-38
-0.020990472 0.03980951 0.76000005 1.7170006e-38
-0.019542821 0.039809518 0.76000005 1.0904027e-38
-0.018095218 0.039809514 0.76000005 4.6484447e-39
-0.016603768 0.039704747 0.75800008 5.5535182e-39
-0.015159974 0.039704759 0.75800002 6.5647918e-39
-0.01371616 0.039704744 0.75800002 1.1262757e-38
-0.012272346 0.039704755 0.75800002 1.5961074e-38
-0.010799977 0.039599985 0.7560001 1.7986833e-38
-0.0093599716 0.039599974 0.7560001 2.001008e-38
-0.0079199672 0.039599977 0.7560001 1.973385e-38
-0.0064799623 0.039599981 0.7560001 1.9457625e-38
-0.0050399788 0.039599989 0.75600004 1.9364712e-38
-0.0036000013 0.039599992 0.75600004 1.927288e-38
-0.0021571084 0.039547618 0.75500011 2.0839468e-38
-0.00071900844 0.039547607 0.75500011 2.2498971e-38
0.00071717572 0.03944286 0.75300002 2.0197708e-38
0.0021514525 0.03944286 0.75300002 1.7885672e-38
0.0035857442 0.03944286 0.75300002 1.3009058e-38
0.005020021 0.039442867 0.75300002 8.1432158e-39
0.0064457175 0.039390471 0.75199997 7.677584e-39
0.0078571597 0.039285712 0.75000006 7.3109622e-39
0.0092857238 0.039285712 0.75000006 9.0637302e-39
0.010714287 0.039285708 0.75000006 1.0900782e-38
0.012142872 0.039285716 0.75000012 8.4036289e-39
0.013571436 0.039285704 0.75000006 6.0073105e-39
0.014999999 0.039285712 0.75000006 5.7361214e-39
0.016428595 0.039285712 0.75000012 5.467435e-39
0.017857146 0.039285708 0.75000006 7.5925686e-39
0.019285724 0.039285716 0.75000006 9.7087311e-39
0.020659063 0.039180953 0.74800003 8.324024e-39
0.022083817 0.039180957 0.74800003 7.0311271e-39
0.02350859 0.039180953 0.74800003 6.1995602e-39
0.024933333 0.039180957 0.74800003 5.4630868e-39
0.026358105 0.039180942 0.74800003 5.1883006e-39
0.027782861 0.039180957 0.74800003 4.8206012e-39
0.029285725 0.039285712 0.75000006 4.0844837e-39
0.030714307 0.039285712 0.75000006 3.4405591e-39
-0.038614262 0.041528564 0.7650001 2.0837315e-38
-0.037157137 0.041528553 0.76500005 1.752405e-38
-0.035699964 0.041528553 0.7650001 1.4182091e-38
-0.034242839 0.04152856 0.7650001 7.3475123e-39
-0.032785714 0.041528556 0.7650001 4.9466536e-40
-0.031246658 0.041419983 0.76300007 4.640554e-39
-0.029793315 0.04141999 0.76300001 8.7889384e-39
-0.028339978 0.041419983 0.76300007 1.4231988e-38
-0.026886661 0.041419998 0.76300007 1.9550909e-38
-0.025433298 0.041419975 0.76300007 1.4296553e-38
-0.023917109 0.041311413 0.76100004 8.9880334e-39
-0.0224676 0.041311432 0.76100004 1.4050469e-38
-0.021018073 0.041311428 0.76100004 1.899954e-38
-0.019568566 0.041311432 0.76100004 1.2097529e-38
-0.01809521 0.041257124 0.76000005 5.1937166e-39
-0.016603786 0.041148562 0.75800002 6.2795926e-39
-0.015159973 0.041148566 0.75800002 7.3034219e-39
-0.013716159 0.041148558 0.75800008 1.1911705e-38
-0.012272365 0.041148555 0.75800002 1.6420251e-38
-0.010828552 0.041148558 0.75800002 1.8080821e-38
-0.0093599698 0.041039996 0.7560001 1.9733856e-38
-0.0079199933 0.041039973 0.7560001 1.9549463e-38
-0.0064799897 0.041039988 0.7560001 1.9365073e-38
-0.0050399844 0.041039988 0.7560001 1.9363637e-38
-0.0035999804 0.041039981 0.7560001 1.9275033e-38
-0.0021570954 0.040985726 0.75500005 2.0932022e-38
-0.00071902428 0.040985707 0.75500011 2.2589013e-38
0.00071909052 0.040985711 0.75500011 2.0387119e-38
0.0021571764 0.040985703 0.75500011 1.8071138e-38
0.0035857479 0.040877145 0.75300002 1.2817856e-38
0.0050200257 0.040877137 0.75300002 7.4935486e-39
0.0064543174 0.040877145 0.75300002 7.7579344e-39
0.007878107 0.04082286 0.75200003 8.0431323e-39
0.0092857108 0.040714294 0.75000006 9.6186892e-39
0.010714294 0.040714279 0.75000006 1.1168762e-38
0.012142859 0.040714286 0.75000006 7.8418666e-39
0.013571436 0.040714283 0.75000006 4.5368719e-39
0.015000019 0.040714283 0.75000006 4.5368803e-39
0.016428582 0.040714286 0.75000006 4.5515912e-39
0.017857149 0.040714286 0.75000006 7.3202907e-39
0.019285731 0.040714279 0.75000012 1.0073558e-38
0.020714294 0.040714275 0.75000006 8.5998822e-39
0.02208383 0.040605702 0.74800009 7.1222424e-39
0.023508584 0.040605705 0.74800003 6.3803627e-39
0.024933342 0.040605724 0.74800003 5.5542048e-39
0.026358098 0.040605705 0.74800003 5.1879418e-39
0.027782856 0.040605716 0.74800003 4.7273266e-39
0.029285729 0.040714283 0.75000006 2.9788621e-39
0.030714292 0.04071429 0.75000006 1.2390155e-39
-0.038614254 0.042985708 0.7650001 2.0192321e-38
-0.037157133 0.042985696 0.7650001 1.8719718e-38
-0.035699978 0.042985693 0.7650001 1.7239565e-38
-0.034242854 0.042985708 0.7650001 9.0410726e-39
-0.032785699 0.042985719 0.76500005 9.5993289e-40
-0.031246655 0.042873327 0.76300001 4.1817339e-39
-0.029793318 0.042873323 0.76300007 7.502524e-39
-0.028339975 0.042873323 0.76300007 1.3305023e-38
-0.026886657 0.042873316 0.76300001 1.9099262e-38
-0.025433321 0.042873319 0.76300007 1.6331275e-38
-0.023917129 0.042760968 0.76099998 1.3579088e-38
-0.022467602 0.042760953 0.76100004 1.6155511e-38
-0.021018075 0.042760938 0.76100004 1.8812282e-38
-0.01956854 0.042760953 0.76100004 1.1910985e-38
-0.018095203 0.04270475 0.76000005 4.9121102e-39
-0.016647579 0.042704746 0.76000011 6.1020186e-39
-0.015199976 0.04270475 0.76000005 7.3037806e-39
-0.013716178 0.042592369 0.75800002 1.1724447e-38
-0.012272364 0.042592354 0.75800008 1.6145821e-38
-0.010828551 0.042592362 0.75800008 1.7895356e-38
-0.0093847569 0.042592362 0.75800002 1.9733138e-38
-0.0079409434 0.042592362 0.75800002 1.9549104e-38
-0.0064799883 0.042479992 0.7560001 1.9456191e-38
-0.0050532874 0.042592365 0.75800008 1.9365072e-38
-0.0035999785 0.042479984 0.7560001 1.9276469e-38
-0.0021571121 0.042423811 0.75500005 2.0472486e-38
-0.00071901217 0.042423815 0.75500005 2.1762493e-38
0.00071908772 0.042423803 0.75500005 1.9921843e-38
0.0021571745 0.042423807 0.75500011 1.8071139e-38
0.0035952744 0.042423807 0.75500011 1.2826467e-38
0.0050333743 0.042423803 0.75500011 7.6840341e-39
0.0064543192 0.042311423 0.75300002 7.5785626e-39
0.0078885984 0.042311423 0.75300002 7.5760599e-39
0.0093104914 0.042255234 0.75200003 9.1501847e-39
0.010742866 0.042255227 0.75200003 1.0712101e-38
0.01214286 0.042142853 0.75000006 8.4018605e-39
0.013571444 0.042142853 0.75000006 6.0973649e-39
0.015000007 0.042142853 0.75000006 5.92087e-39
0.016428571 0.042142864 0.75000006 5.840158e-39
0.017857153 0.042142849 0.75000012 7.5918511e-39
0.01928572 0.042142861 0.75000006 9.4307064e-39
0.020714294 0.042142853 0.75000006 8.2307381e-39
0.022083826 0.042030476 0.74800009 7.119727e-39
0.023508579 0.042030476 0.74800003 5.64532e-39
0.024933355 0.042030469 0.74800009 4.1752374e-39
0.026358109 0.042030472 0.74800003 5.1847118e-39
0.027782883 0.042030465 0.74800009 6.2885244e-39
0.029285716 0.042142861 0.75000006 7.2108185e-39
0.030796211 0.04225523 0.75200003 8.2224565e-39
0.032228597 0.042255238 0.75200003 1.2457664e-38
-0.038614273 0.044442847 0.7650001 1.9457279e-38
-0.037157118 0.044442847 0.76500005 1.9831435e-38
-0.035699993 0.044442836 0.76500005 2.0184754e-38
-0.034242846 0.04444284 0.7650001 1.0800641e-38
-0.032785695 0.044442847 0.7650001 1.32547e-39
-0.031246629 0.044326656 0.76300007 3.8079277e-39
-0.029793313 0.044326652 0.76300007 6.2118005e-39
-0.028339997 0.044326648 0.76300001 1.2385592e-38
-0.026886631 0.044326648 0.76300007 1.8538208e-38
-0.025433317 0.044326659 0.76300007 1.834987e-38
-0.023979999 0.044326656 0.76300001 1.8082976e-38
-0.022467606 0.044210475 0.76100004 1.836315e-38
-0.021018099 0.044210475 0.76100004 1.8631122e-38
-0.019568544 0.044210479 0.76100004 1.1638351e-38
-0.018095221 0.044152372 0.76000011 4.6401925e-39
-0.01664759 0.044152368 0.76000005 5.9118932e-39
-0.015199969 0.044152357 0.76000005 7.2097927e-39
-0.013716149 0.04403618 0.75800008 1.153683e-38
-0.012272356 0.04403618 0.75800002 1.5775968e-38
-0.010828542 0.044036184 0.75800002 1.7713839e-38
-0.009384728 0.044036187 0.75800008 1.964238e-38
-0.0079409145 0.044036176 0.75800008 1.9549464e-38
-0.0064971214 0.044036176 0.75800002 1.9457628e-38
-0.0050533069 0.04403618 0.75800002 1.9364354e-38
-0.0035999767 0.043919988 0.7560001 1.9273957e-38
-0.0021571009 0.043861903 0.75500005 2.0102272e-38
-0.00071902893 0.0438619 0.75500005 2.0841265e-38
0.00071908586 0.043861903 0.75500005 1.9466967e-38
0.0021571717 0.043861907 0.75500011 1.7977866e-38
0.0035952716 0.043861896 0.75500005 1.2916149e-38
0.0050333715 0.043861911 0.75500011 7.7686964e-39
0.0064714714 0.043861896 0.75500011 7.4795567e-39
0.0078886021 0.043745719 0.75300002 7.1204711e-39
0.0093228938 0.043745711 0.75300002 8.6931596e-39
0.010757172 0.043745719 0.75300002 1.0158577e-38
0.012175252 0.043687619 0.75200003 8.8635477e-39
0.013607639 0.043687612 0.75200003 7.5739047e-39
0.014999995 0.043571435 0.75000006 7.3012695e-39
0.016428594 0.043571431 0.75000006 7.0322244e-39
0.017857157 0.043571427 0.75000006 7.9595518e-39
0.01928572 0.043571439 0.75000006 8.786423e-39
0.020714303 0.04357142 0.75000006 7.956668e-39
0.022083819 0.043455221 0.74800003 7.026814e-39
0.023508571 0.043455236 0.74800003 4.9052495e-39
0.024933349 0.043455232 0.74800009 2.7948281e-39
0.026358102 0.043455228 0.74800003 5.2700845e-39
0.027782878 0.043455224 0.74800009 7.763981e-39
0.029285738 0.043571427 0.75000012 1.1445283e-38
0.030714303 0.043571435 0.75000006 1.5125544e-38
0.032142863 0.043571424 0.75000006 1.7792027e-38
-0.038614288 0.045899987 0.76500005 1.9544451e-38
-0.037157115 0.045899987 0.7650001 1.98257e-38
-0.03569999 0.045899983 0.7650001 2.0010046e-38
-0.034242835 0.04589998 0.76500005 1.3557125e-38
-0.03278571 0.045899987 0.76500005 6.9980943e-39
-0.031246655 0.045779977 0.76300007 5.0785495e-39
-0.029793307 0.045779992 0.76300007 3.1708217e-39
-0.028339991 0.045779988 0.76300001 7.685839e-39
-0.026886655 0.045779988 0.76300007 1.2104346e-38
-0.025433309 0.045779984 0.76300001 1.4405256e-38
-0.023979973 0.045779984 0.76300007 1.6713699e-38
-0.022467606 0.04566 0.76100004 1.5972916e-38
-0.021018099 0.045659997 0.76100004 1.5240744e-38
-0.019568544 0.04566 0.76100004 9.8005666e-39
-0.018095212 0.045599978 0.76000011 4.4550894e-39
-0.016647611 0.045599993 0.76000005 6.0123397e-39
-0.015199959 0.045599982 0.76000011 7.5764186e-39
-0.013752357 0.045599997 0.76000005 1.1630816e-38
-0.012304734 0.045599997 0.76000011 1.5778481e-38
-0.010828541 0.045479972 0.75800008 1.7620211e-38
-0.0093847476 0.045479991 0.75800002 1.9551981e-38
-0.0079409331 0.045479991 0.75800002 1.9550542e-38
-0.00649712 0.045479983 0.75800008 1.9552333e-38
-0.005053306 0.045479968 0.75800008 1.9364713e-38
-0.0036095129 0.045479983 0.75800002 1.9178891e-38
-0.0021571158 0.045300007 0.75500005 1.991824e-38
-0.00071901683 0.045299996 0.75500005 2.0747992e-38
0.000719084 0.045300007 0.75500005 1.8537487e-38
0.0021571708 0.045299996 0.75500005 1.6406257e-38
0.0035952698 0.045299999 0.75500005 1.2271506e-38
0.0050333706 0.045300003 0.75500005 8.2289515e-39
0.0064714714 0.045299999 0.75500005 8.0388233e-39
0.0078886086 0.045179985 0.75300002 7.855874e-39
0.0093228994 0.045179997 0.75300002 9.1494672e-39
0.010757175 0.04518 0.75300002 1.0528788e-38
0.012175268 0.045120005 0.75200003 8.8646225e-39
0.013607641 0.045119997 0.75200003 7.2991143e-39
0.015000017 0.045000006 0.75000006 6.2899986e-39
0.016428581 0.044999994 0.75000006 5.3745205e-39
0.017857144 0.045000009 0.75000006 7.13088e-39
0.019285727 0.044999991 0.75000006 8.9726066e-39
0.02071429 0.044999998 0.75000006 7.7697698e-39
0.022142868 0.045000009 0.75000006 6.5636876e-39
0.02350858 0.044879992 0.74800003 6.192017e-39
0.024933342 0.044879999 0.74800003 5.8286225e-39
0.026358094 0.044879992 0.74800003 9.2340706e-39
0.027782872 0.044879988 0.74800003 1.264381e-38
0.029285725 0.045000002 0.75000006 1.5775529e-38
0.030714292 0.045000009 0.75000006 1.8909095e-38
0.032142874 0.044999991 0.75000012 2.0379217e-38
0.033571437 0.045000002 0.75000006 2.1948318e-38
-0.038614254 0.047357123 0.7650001 1.9639516e-38
-0.037157129 0.047357131 0.76500005 1.9733145e-38
-0.035700005 0.047357142 0.76500005 1.9823875e-38
-0.034242831 0.047357123 0.7650001 1.6327281e-38
-0.032785706 0.047357123 0.7650001 1.2710197e-38
-0.031246647 0.047233324 0.76300007 6.4291686e-39
-0.02979333 0.047233317 0.76300007 1.2733039e-40
-0.028339967 0.047233321 0.76300007 2.8985522e-39
-0.026886649 0.047233313 0.76300007 5.6661742e-39
-0.025433332 0.047233328 0.76300001 1.0452741e-38
-0.023979969 0.04723331 0.76300007 1.5227826e-38
-0.022526652 0.047233324 0.76300007 1.3482592e-38
-0.021018073 0.047109526 0.76100004 1.173162e-38
-0.019568548 0.047109507 0.76100004 7.9591931e-39
-0.018119041 0.047109526 0.76100004 4.1842464e-39
-0.016647602 0.0470476 0.76000011 6.0137761e-39
-0.01519998 0.047047604 0.76000011 7.8551537e-39
-0.013752349 0.047047615 0.76000005 1.1815205e-38
-0.012304725 0.047047604 0.76000011 1.5684133e-38
-0.010857123 0.0470476 0.76000005 1.7620569e-38
-0.0093847467 0.04692379 0.75800008 1.9457992e-38
-0.0079409322 0.046923783 0.75800008 1.9548747e-38
-0.0064971116 0.046923798 0.75800002 1.9641297e-38
-0.0050532976 0.046923805 0.75800002 1.9362559e-38
-0.0036094836 0.04692379 0.75800008 1.9088492e-38
-0.0021571047 0.046738096 0.75500005 1.9826766e-38
-0.00071900472 0.046738099 0.75500005 2.0562169e-38
0.0007190812 0.046738103 0.75500005 1.7712041e-38
0.002157168 0.046738096 0.75500005 1.4756088e-38
0.003595267 0.046738099 0.75500005 1.1718343e-38
0.0050333678 0.046738092 0.75500005 8.6881304e-39
0.0064714677 0.046738096 0.75500005 8.6827494e-39
0.007909555 0.046738103 0.75500011 8.5930691e-39
0.0093476539 0.046738092 0.75500011 9.7040675e-39
0.010757182 0.046614282 0.75300008 1.0800347e-38
0.012191473 0.046614278 0.75300002 8.9499966e-39
0.013607643 0.046552382 0.75200003 7.0221686e-39
0.015040029 0.046552371 0.75200003 5.368771e-39
0.01642859 0.046428565 0.75000012 3.6314369e-39
0.017857153 0.046428576 0.75000006 6.4001421e-39
0.019285727 0.046428565 0.75000006 9.061568e-39
0.020714279 0.046428576 0.75000006 7.5853743e-39
0.022142876 0.046428576 0.75000006 6.0137158e-39
0.023508575 0.046304759 0.74800003 7.4701189e-39
0.024933351 0.046304759 0.74800003 8.8588099e-39
0.026358103 0.046304766 0.74800003 1.3193413e-38
0.027782865 0.046304762 0.74800003 1.7428609e-38
0.029285714 0.04642858 0.75000006 2.0104395e-38
0.0307143 0.046428576 0.75000012 2.2679036e-38
0.032057147 0.046304755 0.74800003 2.3050344e-38
0.033481922 0.046304755 0.74800009 2.3417687e-38
-0.038614273 0.048814282 0.76500005 1.8999539e-38
-0.037157126 0.048814263 0.7650001 1.9551984e-38
-0.035699971 0.048814274 0.7650001 2.010298e-38
-0.034242846 0.048814271 0.7650001 1.7889942e-38
-0.032785691 0.048814282 0.76500005 1.5668312e-38
-0.031328548 0.048814263 0.7650001 7.9336825e-39
-0.029793326 0.048686661 0.76300001 1.3342323e-40
-0.028339989 0.048686642 0.76300007 2.7102149e-39
-0.026886644 0.048686653 0.76300001 5.1991018e-39
-0.025433309 0.048686642 0.76300007 7.4996541e-39
-0.023979992 0.048686653 0.76300007 9.7923101e-39
-0.022526648 0.04868665 0.76300001 9.1508938e-39
-0.021073312 0.04868665 0.76300007 8.4994399e-39
-0.019568548 0.048559051 0.76100004 6.5759195e-39
-0.018119041 0.048559047 0.76100004 4.6455763e-39
-0.016669516 0.048559047 0.76100004 6.2921524e-39
-0.015219979 0.048559047 0.76100004 7.9441193e-39
-0.01375234 0.048495226 0.76000005 1.1814487e-38
-0.012304738 0.048495226 0.76000005 1.5685567e-38
-0.010857115 0.048495226 0.76000005 1.7619132e-38
-0.0093847383 0.048367612 0.75800002 1.9641303e-38
-0.0079409238 0.048367601 0.75800002 1.9825687e-38
-0.0064971102 0.048367605 0.75800008 2.0101549e-38
-0.0050532962 0.048367593 0.75800008 1.9640217e-38
-0.0036095027 0.048367605 0.75800002 1.9271804e-38
-0.0021571214 0.048176192 0.75500005 2.0009722e-38
-0.00071902148 0.048176203 0.75500005 2.0746916e-38
0.00071907934 0.048176192 0.75500005 1.7890327e-38
0.0021571792 0.048176195 0.75500005 1.5024778e-38
0.0035952651 0.048176199 0.75500005 1.1812334e-38
0.005033365 0.048176195 0.75500005 8.602036e-39
0.0064714658 0.048176184 0.75500005 8.5012308e-39
0.0079095531 0.048176188 0.75500005 8.4054534e-39
0.0093476521 0.048176192 0.75500011 9.240944e-39
0.010757185 0.048048574 0.75300008 1.0161442e-38
0.012191475 0.048048563 0.75300008 8.5862377e-39
0.013607637 0.04798476 0.75200003 7.021447e-39
0.015000011 0.047857136 0.75000012 5.4613197e-39
0.01642859 0.047857143 0.75000006 3.8108017e-39
0.017857153 0.047857136 0.75000006 7.5886225e-39
0.019285735 0.047857136 0.75000012 1.1359245e-38
0.0207143 0.047857147 0.75000006 1.0804989e-38
0.022142863 0.04785715 0.75000006 1.0240985e-38
0.023508588 0.047729518 0.74800009 9.2120618e-39
0.024933346 0.047729515 0.74800003 8.2084042e-39
0.026358098 0.047729522 0.74800003 1.2916483e-38
0.027782874 0.047729515 0.74800003 1.761984e-38
0.029207628 0.047729522 0.74800003 1.9920049e-38
0.030632399 0.047729522 0.74800003 2.2223829e-38
0.032057144 0.047729533 0.74800003 2.2774842e-38
0.033481918 0.047729518 0.74800003 2.3325854e-38
-0.038715232 0.050402842 0.76700002 1.826091e-38
-0.03725427 0.050402842 0.76700002 1.9280426e-38
-0.035699986 0.050271414 0.76500005 2.0287737e-38
-0.034242839 0.050271414 0.7650001 1.9461208e-38
-0.032785688 0.050271407 0.7650001 1.8616736e-38
-0.031328563 0.050271418 0.7650001 9.41129e-39
-0.029871408 0.050271414 0.76500005 1.2946316e-40
-0.028414285 0.050271425 0.76500005 2.4264422e-39
-0.026886668 0.050139997 0.76300001 4.7313077e-39
-0.025433302 0.050139982 0.76300007 4.5541023e-39
-0.023979988 0.050139993 0.76300007 4.3718662e-39
-0.02252667 0.05013999 0.76300001 4.8296074e-39
-0.021073304 0.05013999 0.76300007 5.289145e-39
-0.01961999 0.050139986 0.76300007 5.199106e-39
-0.018119045 0.050008573 0.76100004 5.0111246e-39
-0.016669489 0.050008573 0.76100004 6.5644317e-39
-0.015219982 0.050008573 0.76100004 8.0391848e-39
-0.013770454 0.050008569 0.76100004 1.1904531e-38
-0.01230473 0.049942851 0.76000005 1.5684133e-38
-0.010857106 0.049942855 0.76000011 1.7712763e-38
-0.0093847364 0.049811404 0.75800008 1.973314e-38
-0.0079409229 0.049811412 0.75800008 2.010263e-38
-0.0064971303 0.049811423 0.75800002 2.0469252e-38
-0.0050533162 0.049811415 0.75800002 1.9916443e-38
-0.0036095018 0.0498114 0.75800008 1.9365435e-38
-0.0021571093 0.049614295 0.75500005 2.0193393e-38
-0.00071901031 0.049614288 0.75500005 2.0929152e-38
0.00071907655 0.049614292 0.75500005 1.8077228e-38
0.0021571773 0.049614284 0.75500005 1.5215984e-38
0.0035952623 0.049614288 0.75500005 1.1903812e-38
0.0050333631 0.049614292 0.75500005 8.5062544e-39
0.0064714639 0.049614284 0.75500005 8.4058065e-39
0.0079095662 0.049614292 0.75500005 8.2250096e-39
0.0093476502 0.04961428 0.75500005 8.8764719e-39
0.010757168 0.049482867 0.75300002 9.4210165e-39
0.01219146 0.049482856 0.75300002 8.2117183e-39
0.013607639 0.049417142 0.75200003 7.0207267e-39
0.01504001 0.049417138 0.75200003 5.5524364e-39
0.016428577 0.049285717 0.75000006 3.9969825e-39
0.01785716 0.049285706 0.75000012 8.8764719e-39
0.019285724 0.04928571 0.75000006 1.3660153e-38
0.020714287 0.049285721 0.75000006 1.4033578e-38
0.02214287 0.049285702 0.75000012 1.4369261e-38
0.02357145 0.049285717 0.75000006 1.0928926e-38
0.025000012 0.049285706 0.75000006 7.4726244e-39
0.026428577 0.049285717 0.75000006 1.2643839e-38
0.027857158 0.049285714 0.75000006 1.7706645e-38
0.029285725 0.04928571 0.75000006 1.9732065e-38
0.030632393 0.049154285 0.74800003 2.1759622e-38
0.032014333 0.049088545 0.7470001 2.2499329e-38
0.033437185 0.049088556 0.74700004 2.3233299e-38
-0.038715217 0.051863797 0.76700002 1.5050973e-38
-0.037254255 0.051863804 0.76700002 1.7623444e-38
-0.035793319 0.051863797 0.76700002 2.0193759e-38
-0.034332357 0.051863793 0.76700002 1.9825697e-38
-0.032785706 0.051728565 0.76500005 1.954801e-38
-0.031328578 0.051728562 0.76500005 1.4384027e-38
-0.029871404 0.051728562 0.7650001 9.301162e-39
-0.028414249 0.051728554 0.7650001 7.7561141e-39
-0.026957126 0.051728565 0.7650001 6.286763e-39
-0.0255 0.051728558 0.76500005 5.6521822e-39
-0.02397998 0.051593319 0.76300001 5.0157923e-39
-0.022526644 0.051593322 0.76300007 5.4746125e-39
-0.0210733 0.051593319 0.76300007 5.9337899e-39
-0.019619985 0.05159333 0.76300001 5.8415957e-39
-0.018119019 0.051458098 0.76100004 5.8397978e-39
-0.016669491 0.051458083 0.76100004 6.4765423e-39
-0.015219983 0.051458098 0.76100004 7.1211886e-39
-0.013770455 0.051458098 0.76100004 1.1447506e-38
-0.012304749 0.051390473 0.76000011 1.568808e-38
-0.010857099 0.051390462 0.76000011 1.7618058e-38
-0.0094094956 0.051390458 0.76000005 1.9547675e-38
-0.0079409424 0.051255226 0.75800002 1.9733853e-38
-0.0065142713 0.051390473 0.76000005 2.0011871e-38
-0.0050532869 0.051255222 0.75800008 1.9366151e-38
-0.0036094934 0.051255237 0.75800002 1.8814423e-38
-0.0021599731 0.051119991 0.7560001 1.9550185e-38
-0.00071902521 0.051052388 0.75500005 2.0382085e-38
0.00071907468 0.051052392 0.75500005 1.7892841e-38
0.0021571754 0.051052384 0.75500005 1.5399298e-38
0.0035952614 0.051052388 0.75500005 1.1998877e-38
0.0050333613 0.05105238 0.75500005 8.6023947e-39
0.0064714602 0.051052384 0.75500005 8.4083163e-39
0.0079095624 0.051052392 0.75500005 8.3139753e-39
0.0093476484 0.05105238 0.75500005 9.2413027e-39
0.010785748 0.051052373 0.75500005 1.0250763e-38
0.01219145 0.050917141 0.75300002 8.7702605e-39
0.013607651 0.050849512 0.75200003 7.2058298e-39
0.015000001 0.050714288 0.75000006 5.1854503e-39
0.016428584 0.050714269 0.75000006 3.073964e-39
0.017857149 0.050714284 0.75000006 8.9686661e-39
0.019285727 0.050714288 0.75000006 1.4768994e-38
0.020714309 0.050714273 0.75000012 1.5132373e-38
0.022142872 0.050714284 0.75000006 1.5569205e-38
0.023571435 0.050714277 0.75000006 1.159291e-38
0.025000021 0.050714273 0.75000012 7.6595058e-39
0.026428584 0.050714284 0.75000006 1.2640602e-38
0.027857147 0.050714292 0.75000006 1.7707713e-38
0.029207636 0.050579049 0.74800009 1.8260176e-38
0.030632392 0.050579045 0.74800003 1.8909843e-38
0.03192858 0.050376192 0.74500006 1.9277547e-38
0.03334764 0.050376184 0.74500006 1.9740677e-38
-0.037302837 0.053394288 0.76799995 1.5967893e-38
-0.035793312 0.053324748 0.76700002 2.0102278e-38
-0.034332346 0.053324755 0.76700002 2.0283075e-38
-0.032871414 0.053324748 0.76700002 2.0376694e-38
-0.031328544 0.053185694 0.7650001 1.9458688e-38
-0.029871419 0.053185701 0.7650001 1.8521682e-38
-0.028414266 0.053185698 0.76500005 1.3193075e-38
-0.026957121 0.053185698 0.7650001 7.7629525e-39
-0.025433321 0.053046647 0.76300007 6.660579e-39
-0.023979984 0.053046647 0.76300007 5.5642942e-39
-0.02252664 0.053046644 0.76300007 6.1185371e-39
-0.021073325 0.053046655 0.76300007 6.5769971e-39
-0.01961996 0.053046644 0.76300007 6.5773559e-39
-0.01811902 0.052907616 0.76100004 6.5726882e-39
-0.016669512 0.052907635 0.76099998 6.380402e-39
-0.015219985 0.052907616 0.76100004 6.2013973e-39
-0.013770478 0.052907616 0.76099998 1.0983662e-38
-0.012304741 0.052838076 0.76000011 1.5681263e-38
-0.010857138 0.05283808 0.76000005 1.7523711e-38
-0.0094218887 0.05290762 0.76100004 1.9273245e-38
-0.0079723615 0.052907605 0.76100004 1.9365435e-38
-0.0065142624 0.052838083 0.76000005 1.9457986e-38
-0.0050666397 0.052838072 0.76000011 1.8813701e-38
-0.0036094924 0.052699026 0.75800008 1.8170496e-38
-0.0021600001 0.052559987 0.7560001 1.8994505e-38
-0.00071901403 0.052490488 0.75500005 1.9825331e-38
0.00071907282 0.05249048 0.75500005 1.7712757e-38
0.0021571727 0.05249048 0.75500005 1.5586196e-38
0.0035952586 0.052490488 0.75500005 1.2089278e-38
0.0050333594 0.05249048 0.75500005 8.5973725e-39
0.0064714602 0.052490473 0.75500005 8.4944135e-39
0.0079095606 0.052490473 0.75500005 8.3161276e-39
0.0093476465 0.052490484 0.75500005 9.7072961e-39
0.010757179 0.052351434 0.75300002 1.1076564e-38
0.012191457 0.052351423 0.75300002 9.2287177e-39
0.013607632 0.052281909 0.75200003 7.3905756e-39
0.015040005 0.052281916 0.75200003 4.8181083e-39
0.01647241 0.052281898 0.75200003 2.1599124e-39
0.017904785 0.052281905 0.75200003 9.0633715e-39
0.019285735 0.052142855 0.75000012 1.5872459e-38
0.020714298 0.052142866 0.75000006 1.6340593e-38
0.022142861 0.052142859 0.75000006 1.6666185e-38
0.023571443 0.052142859 0.75000012 1.2214537e-38
0.025000021 0.052142851 0.75000006 7.7498742e-39
0.026428573 0.052142862 0.75000006 1.2734939e-38
0.02785717 0.052142859 0.75000012 1.7611201e-38
0.029207628 0.052003808 0.74800009 1.6783258e-38
0.030632384 0.052003808 0.74800003 1.5962119e-38
0.03201434 0.051934265 0.7470001 1.6143997e-38
0.033437178 0.05193428 0.7470001 1.6249094e-38
-0.037302837 0.054857142 0.76800001 1.6418817e-38
-0.035793297 0.054785695 0.76700008 2.010658e-38
-0.034332361 0.054785702 0.76700008 2.019518e-38
-0.032871403 0.054785699 0.76700002 2.0379936e-38
-0.031410441 0.054785706 0.76700002 2.0011885e-38
-0.029949505 0.054785699 0.76700002 1.9736372e-38
-0.028414262 0.054642845 0.7650001 1.3378551e-38
-0.026957136 0.054642841 0.7650001 7.1154461e-39
-0.025433315 0.054499991 0.76300001 6.1084884e-39
-0.023979979 0.054499976 0.76300007 5.1973109e-39
-0.022526663 0.054499984 0.76300007 5.8415957e-39
-0.021073319 0.054499999 0.76300001 6.4844442e-39
-0.019619983 0.054499984 0.76300007 6.5766384e-39
-0.018119022 0.054357134 0.76100004 6.7588703e-39
-0.016669516 0.054357141 0.76100004 6.2917951e-39
-0.015219987 0.054357141 0.76100004 5.8301079e-39
-0.013770453 0.054357141 0.76099998 1.0800347e-38
-0.012320925 0.054357141 0.76100004 1.5774532e-38
-0.01085713 0.054285701 0.76000005 1.7710252e-38
-0.0094095077 0.054285705 0.76000011 1.9737444e-38
-0.0079618767 0.054285705 0.76000005 1.9826406e-38
-0.0065142545 0.05428569 0.76000005 1.9915727e-38
-0.0050533051 0.05414284 0.75800008 1.9457265e-38
-0.0036095115 0.054142844 0.75800002 1.8905894e-38
-0.0021599983 0.053999986 0.75600004 1.9640221e-38
-0.00071902986 0.053928588 0.75500005 2.0466384e-38
0.00071907003 0.05392858 0.75500005 1.8075795e-38
0.0021571708 0.053928569 0.75500005 1.5766279e-38
0.0035952558 0.053928576 0.75500005 1.2458053e-38
0.0050333566 0.05392858 0.75500005 9.1526902e-39
0.0064714584 0.053928573 0.75500005 8.3136123e-39
0.0079095587 0.053928576 0.75500005 7.4835097e-39
0.0093476446 0.053928569 0.75500005 8.873602e-39
0.010757183 0.053785719 0.75300008 1.0251478e-38
0.01219146 0.053785712 0.75300002 8.7724072e-39
0.013607647 0.053714275 0.75200003 7.2987387e-39
0.01504002 0.053714283 0.75200003 4.909225e-39
0.016472392 0.05371429 0.75200003 2.5204385e-39
0.017904781 0.053714287 0.75199997 9.153772e-39
0.01928572 0.053571433 0.75000006 1.5786727e-38
0.020714285 0.053571429 0.75000006 1.6237287e-38
0.022142883 0.053571425 0.75000006 1.6662574e-38
0.02357143 0.053571418 0.75000006 1.2694465e-38
0.02500001 0.053571429 0.75000006 8.6760876e-39
0.026428591 0.053571429 0.75000012 1.3378136e-38
0.027857156 0.053571433 0.75000006 1.8076463e-38
0.029285718 0.053571433 0.75000006 1.7615141e-38
0.030632379 0.053428568 0.74800003 1.7246362e-38
0.032057151 0.053428568 0.74800009 1.6700726e-38
0.033481907 0.053428575 0.74800003 1.61626e-38
-0.037302837 0.056320004 0.76800001 1.6874409e-38
-0.035839997 0.056319997 0.76800001 2.0007931e-38
-0.034377132 0.056320004 0.76800001 2.0195186e-38
-0.032871388 0.056246661 0.76700008 2.0288103e-38
-0.031410456 0.056246649 0.76700008 2.0655809e-38
-0.029949492 0.056246649 0.76700008 2.0925559e-38
-0.028488558 0.056246653 0.76700008 1.3652602e-38
-0.026957104 0.056099989 0.7650001 6.3800292e-39
-0.025499979 0.056099981 0.7650001 5.6439201e-39
-0.023979973 0.055953316 0.76300007 4.8260173e-39
-0.022526657 0.055953331 0.76300007 5.6579247e-39
-0.021073293 0.055953313 0.76300007 6.3926087e-39
-0.019619975 0.055953328 0.76300007 6.6691914e-39
-0.018166661 0.05595332 0.76300001 6.848552e-39
-0.016669517 0.055806667 0.76100004 6.1981645e-39
-0.01521999 0.055806667 0.76100004 5.465277e-39
-0.013770455 0.055806667 0.76100004 1.0612731e-38
-0.012320927 0.055806667 0.76100004 1.5773456e-38
-0.010871421 0.055806667 0.76100004 1.7988987e-38
-0.0094218925 0.055806667 0.76100004 2.0101558e-38
-0.0079723578 0.055806667 0.76099998 2.0286658e-38
-0.0065142466 0.055733316 0.76000011 2.0377059e-38
-0.0050666435 0.055733327 0.76000005 2.0009359e-38
-0.0036094827 0.055586651 0.75800008 1.9642375e-38
-0.0021599769 0.055439979 0.7560001 2.0377776e-38
-0.0007189982 0.055366661 0.75500011 2.1020627e-38
0.00071906816 0.055366676 0.75500005 1.8541073e-38
0.002157168 0.055366673 0.75500005 1.5954615e-38
0.0035952548 0.055366673 0.75500005 1.282396e-38
0.0050333547 0.055366665 0.75500005 9.6064867e-39
0.0064714546 0.055366669 0.75500005 8.1238429e-39
0.007909555 0.05536668 0.75500005 6.6598601e-39
0.0093476409 0.055366665 0.75500005 8.0517461e-39
0.010785741 0.055366658 0.75500005 9.3309732e-39
0.012191463 0.055219997 0.75300008 8.2181727e-39
0.013625754 0.05522 0.75300008 7.113637e-39
0.015040021 0.055146664 0.75200003 4.999271e-39
0.016472407 0.055146657 0.75200003 2.8009686e-39
0.017904781 0.055146668 0.75200003 9.2438139e-39
0.019285722 0.055000011 0.75000006 1.5598394e-38
0.020714305 0.054999996 0.75000006 1.6158729e-38
0.022142872 0.055000003 0.75000006 1.6666163e-38
0.023571432 0.055 0.75000006 1.3132836e-38
0.025000017 0.054999996 0.75000012 9.5926629e-39
0.02642858 0.055000003 0.75000006 1.402424e-38
0.027857143 0.055 0.75000006 1.8442031e-38
0.029285725 0.055 0.75000012 1.8537814e-38
0.030632388 0.054853339 0.74800003 1.8535652e-38
0.032014336 0.054779988 0.7470001 1.7249586e-38
0.033437185 0.054779984 0.7470001 1.5974636e-38
-0.037302833 0.057782862 0.76800001 1.6055066e-38
-0.035839967 0.057782862 0.76800001 1.7988631e-38
-0.034377128 0.057782851 0.76800001 1.6606791e-38
-0.032871395 0.057707604 0.76700002 1.5145318e-38
-0.031410463 0.057707611 0.76700002 1.5690235e-38
-0.029949479 0.057707611 0.76700008 1.6341308e-38
-0.028488547 0.0577076 0.76700008 1.3102285e-38
-0.026957121 0.057557128 0.7650001 9.8525435e-39
-0.025499996 0.057557125 0.76500005 6.4650474e-39
-0.023979969 0.057406656 0.76300007 3.080061e-39
-0.022526652 0.057406653 0.76300001 4.6455819e-39
-0.021073315 0.057406653 0.76300007 6.2082202e-39
-0.019619972 0.057406649 0.76300001 6.4837267e-39
-0.018166635 0.057406649 0.76300007 6.8496282e-39
-0.016669519 0.057256192 0.76100004 6.1088387e-39
-0.015219964 0.057256192 0.76100004 5.4642008e-39
-0.013770456 0.057256192 0.76100004 1.0526278e-38
-0.012320929 0.057256192 0.76100004 1.5687361e-38
-0.010871422 0.057256188 0.76100004 1.7711328e-38
-0.0094218664 0.057256192 0.76100004 1.9730268e-38
-0.0079618888 0.057180934 0.76000011 1.9824609e-38
-0.0065142582 0.057180949 0.76000005 2.0010437e-38
-0.0050666356 0.057180937 0.76000005 1.9550904e-38
-0.0036095022 0.057030473 0.75800002 1.9184635e-38
-0.0021599741 0.056879982 0.7560001 1.9549104e-38
-0.00071996957 0.056879986 0.7560001 2.0013308e-38
0.00071908679 0.056804754 0.75500011 1.7985398e-38
0.0021600057 0.056879994 0.75600004 1.5952104e-38
0.003595266 0.056804776 0.75500005 1.3285648e-38
0.0050333529 0.056804769 0.75500005 1.0529864e-38
0.0064714528 0.056804758 0.75500005 8.7720723e-39
0.0079095531 0.056804765 0.75500005 6.9296269e-39
0.009347639 0.056804769 0.75500005 8.3207954e-39
0.010785741 0.056804761 0.75500005 9.7001117e-39
0.012191449 0.056654289 0.75300002 8.3114487e-39
0.01362574 0.056654297 0.75300002 6.928178e-39
0.015060036 0.056654278 0.75300008 4.6326493e-39
0.016494326 0.056654286 0.75300008 2.3385653e-39
0.017904781 0.056579035 0.75200003 8.8764719e-39
0.019285731 0.056428563 0.75000006 1.5510506e-38
0.020714294 0.056428574 0.75000006 1.6331999e-38
0.022142857 0.056428567 0.75000006 1.7220766e-38
0.023571439 0.056428567 0.75000006 1.3985543e-38
