# .PCD v0.7 - Point Cloud Data file format
VERSION 0.7
FIELDS x y z rgb
SIZE 4 4 4 4
TYPE F F F F
COUNT 1 1 1 1
WIDTH 959
HEIGHT 1
VIEWPOINT 0 0 0 1 0 0 0
POINTS 959
DATA ascii
0.016904732 -0.096695282 0.71000004 2.3234005e-38
0.018257132 -0.096695252 0.71000004 2.3138942e-38
0.019609502 -0.096695267 0.71000004 2.3050335e-38
0.020991407 -0.096831448 0.71100008 2.2859494e-38
0.022345683 -0.096831448 0.71100008 2.3142181e-38
0.023699984 -0.096831448 0.71100008 2.3417689e-38
0.025124738 -0.097103842 0.71300012 2.341769e-38
0.026482821 -0.097103857 0.71300012 2.341769e-38
0.027840935 -0.097103827 0.71300012 2.341769e-38
0.029239981 -0.097240023 0.71400011 2.341769e-38
0.030685702 -0.097512417 0.71600008 2.341769e-38
0.032094274 -0.097648583 0.71700001 2.341769e-38
0.033459984 -0.097648583 0.71700007 2.341769e-38
0.034825712 -0.097648554 0.71700001 2.341769e-38
0.036292374 -0.097920977 0.7190001 2.341769e-38
0.037661891 -0.097920991 0.7190001 2.341769e-38
0.039085679 -0.098057173 0.72000009 2.341769e-38
0.040569507 -0.098329552 0.72200012 2.341769e-38
0.041944738 -0.098329552 0.72200012 2.3234019e-38
0.043379981 -0.098465748 0.72300005 2.2958154e-38
0.044757146 -0.098465733 0.72300005 2.3049631e-38
0.046134282 -0.098465733 0.72300005 2.3141825e-38
0.04764282 -0.098738112 0.72500008 2.3142183e-38
0.049091421 -0.098874323 0.72600001 2.304819e-38
0.050474271 -0.098874293 0.72600001 2.2860927e-38
0.05199999 -0.099146686 0.72800004 2.2680486e-38
0.05345998 -0.099282883 0.72900009 2.2590089e-38
0.054848537 -0.099282883 0.72900009 2.2498256e-38
0.056237109 -0.099282898 0.72900009 2.2866677e-38
0.057625677 -0.099282883 0.72900009 2.3132415e-38
0.059176173 -0.099555247 0.73100001 1.483808e-38
0.060568556 -0.099555261 0.73100007 6.5394339e-39
0.062045708 -0.099691443 0.73200005 6.9956505e-39
0.06361331 -0.099963821 0.73400009 7.3730524e-39
0.065011397 -0.099963836 0.73400009 7.6521616e-39
0.066409491 -0.099963836 0.73400009 7.9276891e-39
0.067807607 -0.099963821 0.73400009 8.2035768e-39
-0.025366705 -0.10219147 0.7610001 6.4654384e-39
-0.023885731 -0.10205717 0.76000011 6.5576312e-39
-0.022379074 -0.1017886 0.75800002 6.742377e-39
-0.020935263 -0.10178859 0.75800002 7.0193184e-39
-0.019440021 -0.10152002 0.7560001 7.1107952e-39
-0.017976228 -0.10138573 0.75500011 7.2937487e-39
-0.01653813 -0.10138573 0.75500011 7.2941074e-39
-0.01500001 -0.1007143 0.75000012 7.2941088e-39
-0.013480978 -0.10004287 0.74500012 7.3870219e-39
-0.011980979 -0.099371456 0.74000007 7.4784987e-39
-0.010514305 -0.098834299 0.73600006 7.5717677e-39
-0.00906289 -0.098297171 0.73200005 7.6636032e-39
-0.0076371729 -0.097894318 0.72900009 4.4429023e-39
-0.0062400168 -0.097759999 0.72800004 1.2194954e-39
-0.0048333602 -0.097357161 0.72500008 1.1631149e-38
-0.0034524144 -0.097357161 0.72500008 2.2131979e-38
-0.002071454 -0.097357176 0.72500008 2.2774842e-38
-0.00068574946 -0.096685745 0.72000009 2.341769e-38
0.00068189122 -0.096148618 0.71600002 2.2774483e-38
0.0020399832 -0.095880039 0.71400011 2.2131969e-38
0.003395213 -0.09574575 0.71300012 1.6690692e-38
0.0047399933 -0.095477141 0.71100003 1.1279234e-38
0.006068524 -0.095074318 0.70800006 1.3110581e-38
0.0074171135 -0.095074303 0.70800006 1.4968461e-38
0.0087656751 -0.095074303 0.70800006 1.9189311e-38
0.010099983 -0.094940014 0.70700002 2.3325854e-38
0.011446639 -0.094940014 0.70700002 2.341769e-38
0.012793323 -0.094940029 0.70700008 2.341769e-38
0.014140001 -0.094940014 0.70700002 2.341769e-38
0.015508557 -0.095074303 0.70800006 2.3325854e-38
0.016857117 -0.095074303 0.70800006 2.0475367e-38
0.018257124 -0.095342897 0.7100001 1.762379e-38
0.019609494 -0.095342897 0.7100001 1.456953e-38
0.020961866 -0.095342882 0.7100001 1.1542197e-38
0.022345707 -0.095477171 0.71100003 1.7066684e-38
0.02369998 -0.095477156 0.71100003 2.2591168e-38
0.025054283 -0.095477156 0.71100003 2.2958513e-38
0.026482817 -0.09574575 0.71300012 2.341769e-38
0.027840927 -0.09574575 0.71300012 2.341769e-38
0.029239986 -0.095880024 0.71400011 2.341769e-38
0.030600002 -0.095880039 0.71400011 2.341769e-38
0.031959973 -0.095880024 0.71400011 2.341769e-38
0.033459991 -0.096282892 0.71700001 2.341769e-38
0.034825694 -0.096282862 0.71700001 2.341769e-38
0.036292352 -0.09655147 0.7190001 2.341769e-38
0.037714243 -0.096685745 0.72000009 2.341769e-38
0.039085671 -0.09668576 0.72000009 2.341769e-38
0.040569492 -0.096954308 0.72200012 2.341769e-38
0.04194475 -0.096954308 0.72200012 2.3233302e-38
0.04338 -0.097088598 0.72300005 2.3049631e-38
0.044757139 -0.097088583 0.72300005 2.3141465e-38
0.046261892 -0.097357176 0.72500008 2.3232943e-38
0.047642834 -0.097357146 0.72500008 2.3049272e-38
0.049091399 -0.097491451 0.72600007 2.2863443e-38
0.050613321 -0.097760014 0.72800004 2.277196e-38
0.051999986 -0.097760029 0.72800004 2.2682995e-38
0.053459987 -0.097894333 0.72900009 2.2497171e-38
0.054848548 -0.097894318 0.72900009 2.2404265e-38
0.056237139 -0.097894318 0.72900009 2.2774124e-38
0.057783797 -0.098162882 0.73100007 2.323354e-38
0.059176173 -0.098162882 0.73100001 1.4926253e-38
0.060568552 -0.098162897 0.73100007 6.6125803e-39
0.062045701 -0.098297171 0.73200011 7.0878517e-39
0.06343998 -0.098297141 0.73200005 7.5596086e-39
0.064834267 -0.098297156 0.73200011 7.7433021e-39
0.066409498 -0.09856572 0.73400009 7.9273542e-39
-0.025366699 -0.10074193 0.76100004 6.1892298e-39
-0.023822885 -0.10034477 0.75800002 6.4661628e-39
-0.022379072 -0.10034478 0.75800002 6.6509016e-39
-0.020935267 -0.10034478 0.75800008 6.8345726e-39
-0.019440012 -0.10008004 0.7560001 7.0186023e-39
-0.017976243 -0.099947669 0.75500011 7.2022719e-39
-0.016494304 -0.099682875 0.75300008 7.2941074e-39
-0.015000013 -0.099285744 0.75000012 7.2944676e-39
-0.013517158 -0.098888598 0.7470001 7.2951864e-39
-0.011980981 -0.097961925 0.74000007 7.2959053e-39
-0.010514301 -0.097432412 0.73600006 7.4806539e-39
-0.0090876445 -0.097167633 0.73400009 7.6625284e-39
-0.0076581305 -0.096770518 0.73100007 4.3517842e-39
-0.0062400177 -0.096373342 0.72800004 1.048736e-39
-0.0048533427 -0.096373357 0.72800004 1.1819838e-38
-0.0034523986 -0.095976211 0.72500008 2.2584697e-38
-0.0020657105 -0.095711447 0.72300005 2.3050348e-38
-0.00068479206 -0.095181935 0.7190001 2.341769e-38
0.00068189029 -0.094784774 0.71600002 2.341769e-38
0.0020371184 -0.094387658 0.71300012 2.3412645e-38
0.00338568 -0.094122879 0.71100008 1.6142911e-38
0.0047333017 -0.093990497 0.7100001 8.7673668e-39
0.0060685305 -0.093725748 0.70800006 7.7377992e-39
0.007406651 -0.093593352 0.70700002 6.7520277e-39
0.0087533072 -0.093593366 0.70700002 1.5045587e-38
0.010099992 -0.093593381 0.70700008 2.3230429e-38
0.011446669 -0.093593352 0.70700002 2.3325854e-38
0.012793327 -0.093593366 0.70700002 2.341769e-38
0.014159961 -0.093725748 0.70800006 2.341769e-38
0.015508549 -0.093725748 0.70800006 2.3416252e-38
0.016928546 -0.094122864 0.71100008 1.7809979e-38
0.018282849 -0.094122864 0.71100008 1.2074894e-38
0.019637125 -0.094122879 0.71100003 6.0617901e-39
0.020991426 -0.094122864 0.71100003 1.2838136e-40
0.022408526 -0.094387658 0.71300012 1.0899707e-38
0.023766639 -0.094387658 0.71300012 2.1664558e-38
0.025124751 -0.094387658 0.71300012 2.2591171e-38
0.026482835 -0.094387643 0.71300012 2.341769e-38
0.027840927 -0.094387658 0.71300018 2.341769e-38
0.029239964 -0.094520025 0.71400011 2.341769e-38
0.0306857 -0.094784789 0.71600008 2.341769e-38
0.032094292 -0.094917156 0.71700001 2.341769e-38
0.033459999 -0.094917156 0.71700001 2.341769e-38
0.034825683 -0.094917171 0.71700007 2.341769e-38
0.036292382 -0.095181935 0.7190001 2.341769e-38
0.037714258 -0.095314316 0.72000003 2.341769e-38
0.039085679 -0.095314331 0.72000003 2.341769e-38
0.040569503 -0.095579065 0.72200012 2.3416971e-38
0.041944735 -0.095579065 0.72200012 2.3231505e-38
0.043379996 -0.095711447 0.72300005 2.304927e-38
0.044757135 -0.095711432 0.72300005 2.3142182e-38
0.046134271 -0.095711447 0.72300005 2.323366e-38
0.047642853 -0.095976226 0.72500002 2.2958513e-38
0.049091425 -0.096108593 0.72600001 2.2589373e-38
0.050474271 -0.096108593 0.72600001 2.2587935e-38
0.052000005 -0.096373342 0.72800004 2.2588648e-38
0.053386647 -0.096373372 0.72800004 2.2402462e-38
0.054848559 -0.096505739 0.72900009 2.2220593e-38
0.056237124 -0.096505754 0.72900009 2.2774842e-38
0.057625692 -0.096505754 0.72900009 2.322386e-38
0.059176154 -0.096770503 0.73100007 1.4929134e-38
0.060568552 -0.096770503 0.73100001 6.6308813e-39
0.061960906 -0.096770503 0.73100007 7.1839934e-39
0.063439973 -0.096902899 0.73200011 7.7414804e-39
0.065011412 -0.097167633 0.73400009 7.8336928e-39
0.066409484 -0.097167663 0.73400009 7.9266213e-39
0.067807578 -0.097167663 0.73400009 7.6511331e-39
0.069394268 -0.097432412 0.73600012 7.2841316e-39
0.070796177 -0.097432412 0.73600012 7.6510966e-39
-0.025433362 -0.099553369 0.76300007 6.7409743e-39
-0.023885746 -0.099161945 0.76000011 6.650201e-39
-0.022438131 -0.09916193 0.76000011 6.6501856e-39
-0.020935263 -0.098900981 0.75800002 6.6498268e-39
-0.019440014 -0.098640032 0.7560001 6.7423784e-39
-0.01792858 -0.098248594 0.75300002 6.9267668e-39
-0.016494304 -0.098248594 0.75300002 7.2022719e-39
-0.014960034 -0.097596221 0.74800003 7.5699741e-39
-0.013480985 -0.097204782 0.74500012 7.4784973e-39
-0.012013342 -0.096813358 0.74200004 7.4795777e-39
-0.010528577 -0.096160971 0.73700005 7.3881051e-39
-0.0091124056 -0.096030511 0.73600006 7.3891771e-39
-0.0076581147 -0.095378108 0.73100007 4.075919e-39
-0.0062400196 -0.094986685 0.72800004 7.6246611e-40
-0.0048400406 -0.09472575 0.72600007 1.1634009e-38
-0.0034523967 -0.094595261 0.72500002 2.2591151e-38
-0.0020628765 -0.094203837 0.72200006 2.2958513e-38
-0.00068477623 -0.093812399 0.7190001 2.341769e-38
0.00068188843 -0.093420975 0.71600002 2.2683006e-38
0.0020399673 -0.093160041 0.71400011 2.1948301e-38
0.0033952112 -0.093029536 0.71300012 1.5204111e-38
0.0047333138 -0.092638098 0.71000004 8.5413443e-39
0.006068523 -0.092377163 0.70800006 7.2613563e-39
0.0074171191 -0.092377163 0.70800006 6.0621587e-39
0.0087533388 -0.092246704 0.70700002 1.4012072e-38
0.010099995 -0.092246689 0.70700002 2.1948316e-38
0.011446651 -0.092246689 0.70700002 2.2683006e-38
0.012793336 -0.092246689 0.70700002 2.341769e-38
0.014139992 -0.092246704 0.70700002 2.341769e-38
0.015508542 -0.092377149 0.70800006 2.3417684e-38
0.016904723 -0.092638113 0.7100001 1.6863636e-38
0.018257122 -0.092638113 0.7100001 1.0201926e-38
0.019637126 -0.092768602 0.71100008 5.1527188e-39
0.020991402 -0.092768587 0.71100008 1.1113698e-40
0.022408541 -0.093029566 0.71300012 9.7818886e-39
0.023699978 -0.092768587 0.71100008 1.9464089e-38
0.025124718 -0.093029566 0.71300012 2.1396233e-38
0.02648283 -0.093029566 0.71300012 2.341769e-38
0.027840942 -0.093029551 0.71300012 2.341769e-38
0.029239971 -0.093160041 0.71400011 2.341769e-38
0.0306857 -0.09342099 0.71600008 2.341769e-38
0.032094281 -0.093551435 0.71700007 2.341769e-38
0.03355331 -0.093812414 0.7190001 2.341769e-38
0.034922846 -0.093812414 0.7190001 2.341769e-38
0.036342826 -0.093942888 0.72000003 2.341769e-38
0.03771425 -0.093942888 0.72000003 2.341769e-38
0.039194256 -0.094203837 0.72200012 2.341769e-38
0.040569484 -0.094203837 0.72200012 2.3417687e-38
0.042002857 -0.094334312 0.72300005 2.3324773e-38
0.043379992 -0.094334297 0.72300005 2.3232581e-38
0.044757128 -0.094334297 0.72300005 2.3233659e-38
0.046261873 -0.094595291 0.72500008 2.3325854e-38
0.047642849 -0.094595261 0.72500008 2.3141825e-38
0.049091399 -0.09472575 0.72600007 2.2957435e-38
0.050613321 -0.094986685 0.72800004 2.2957073e-38
0.05207143 -0.095117174 0.72900009 2.2956349e-38
0.053459976 -0.095117174 0.72900009 2.286307e-38
0.054848537 -0.095117189 0.72900009 2.2862004e-38
0.056391399 -0.095378123 0.73100007 2.3048913e-38
0.057783801 -0.095378108 0.73100001 2.3325028e-38
0.059176154 -0.095378123 0.73100007 1.4374185e-38
0.060568556 -0.095378123 0.73100001 5.5112844e-39
0.062045701 -0.095508598 0.73200011 6.8145004e-39
0.063613333 -0.095769562 0.73400009 8.2049584e-39
0.065011397 -0.095769547 0.73400009 8.0198637e-39
0.066409498 -0.095769562 0.73400009 7.926966e-39
0.067807607 -0.095769562 0.73400009 7.7436664e-39
-0.027239054 -0.099385731 0.77300006 7.6600229e-39
-0.02573335 -0.099257179 0.77200007 7.2916131e-39
-0.023885734 -0.097714312 0.76000011 6.8335034e-39
-0.022733362 -0.099000014 0.7700001 6.6494667e-39
-0.020990487 -0.097714297 0.76000011 6.3746777e-39
-0.019491449 -0.097457163 0.75800002 6.5579899e-39
-0.017976223 -0.097071461 0.75500011 6.6505415e-39
-0.016494291 -0.096814312 0.75300002 7.2015545e-39
-0.014960031 -0.096171446 0.74800009 7.7532849e-39
-0.013444791 -0.095528595 0.74300003 7.6614508e-39
-0.011980979 -0.095142879 0.74000007 7.5703356e-39
-0.010557188 -0.095014311 0.73900008 7.2951906e-39
-0.0091124009 -0.09462861 0.73600006 7.0193212e-39
-0.0076686023 -0.094114311 0.73200011 3.8004125e-39
-0.0062400205 -0.093599997 0.72800004 4.9735866e-40
-0.0048533464 -0.093600027 0.72800004 1.1545753e-38
-0.0034571642 -0.093342878 0.72600001 2.2493214e-38
-0.0020657422 -0.092957161 0.72300005 2.2958513e-38
-0.00068575412 -0.092571475 0.72000009 2.341769e-38
0.00068188098 -0.092057191 0.71600008 2.1948322e-38
0.0020399794 -0.091800041 0.71400011 2.0366993e-38
0.0033952084 -0.091671459 0.71300012 1.4366798e-38
0.0047399867 -0.091414295 0.71100003 8.3827678e-39
0.0060685296 -0.091028593 0.70800006 6.8882732e-39
0.0074171117 -0.091028593 0.70800006 5.3421799e-39
0.0087656993 -0.091028593 0.70800006 1.2991476e-38
0.010100004 -0.090900041 0.70700002 2.0558584e-38
0.011446662 -0.090900026 0.70700002 2.2040158e-38
0.012793317 -0.090900026 0.70700002 2.341769e-38
0.014139974 -0.090900026 0.70700002 2.341769e-38
0.015508534 -0.091028579 0.70800006 2.3406198e-38
0.016904738 -0.091285743 0.71000004 1.5932712e-38
0.018257136 -0.091285743 0.71000004 8.3835091e-39
0.019637123 -0.09141431 0.71100008 4.236526e-39
0.020991424 -0.09141431 0.71100008 1.0504133e-40
0.022408538 -0.091671459 0.71300012 8.652955e-39
0.023699975 -0.091414295 0.71100003 1.7153491e-38
0.025124732 -0.091671444 0.71300012 2.0295283e-38
0.026482824 -0.091671459 0.71300018 2.341769e-38
0.027840937 -0.091671459 0.71300012 2.341769e-38
0.029239997 -0.091800027 0.71400011 2.341769e-38
0.030685699 -0.092057161 0.71600002 2.341769e-38
0.032094289 -0.092185713 0.71700007 2.341769e-38
0.03355331 -0.092442892 0.7190001 2.341769e-38
0.034922827 -0.092442892 0.7190001 2.341769e-38
0.036342818 -0.092571445 0.72000003 2.341769e-38
0.037714243 -0.092571445 0.72000009 2.341769e-38
0.039194267 -0.092828594 0.72200012 2.341769e-38
0.040625714 -0.092957161 0.72300005 2.3417689e-38
0.042002849 -0.092957161 0.72300005 2.3417687e-38
0.043379985 -0.092957161 0.72300005 2.3325493e-38
0.044880942 -0.093214296 0.72500008 2.3325134e-38
0.046261888 -0.093214311 0.72500008 2.3325494e-38
0.047642834 -0.093214311 0.72500008 2.3325853e-38
0.049091402 -0.093342878 0.72600001 2.3325136e-38
0.050613314 -0.093600012 0.72800004 2.3325853e-38
0.052071411 -0.093728609 0.72900009 2.3324773e-38
0.053459954 -0.093728609 0.72900009 2.3415528e-38
0.054848544 -0.093728594 0.72900009 2.3415891e-38
0.056237139 -0.093728594 0.72900009 2.341769e-38
0.057783782 -0.093985729 0.73100007 2.3314622e-38
0.059176184 -0.093985744 0.73100001 1.3823169e-38
0.060568534 -0.093985744 0.73100007 4.3339191e-39
0.062045686 -0.094114296 0.73200011 6.4496626e-39
0.063613318 -0.094371475 0.73400009 8.5697781e-39
0.065011412 -0.09437146 0.73400009 8.2971499e-39
0.066590466 -0.094628595 0.73600006 7.9283884e-39
0.067992374 -0.09462861 0.73600012 7.928045e-39
0.069394276 -0.094628595 0.73600012 7.9269745e-39
-0.027239067 -0.097913362 0.77300012 8.4883276e-39
-0.025500052 -0.096900038 0.7650001 8.3954159e-39
-0.023980014 -0.096646704 0.76300001 8.3032217e-39
-0.022733359 -0.097533368 0.7700001 8.2117449e-39
-0.021018133 -0.096393369 0.7610001 8.1206269e-39
-0.019491468 -0.096013375 0.75800008 8.1213444e-39
-0.018000018 -0.095760025 0.7560001 8.1195507e-39
-0.016494298 -0.095380001 0.75300008 8.3039392e-39
-0.01494002 -0.094620027 0.74700004 8.4886863e-39
-0.013444791 -0.094113342 0.74300003 8.3968508e-39
-0.011980962 -0.093733348 0.74000001 8.304658e-39
-0.010557165 -0.093606688 0.73900008 8.0295117e-39
-0.009124768 -0.093353339 0.73700005 7.8476329e-39
-0.0076895505 -0.092973374 0.73400009 4.3496318e-39
-0.0062400224 -0.092213355 0.7280001 8.4963108e-40
-0.0048400378 -0.091960035 0.72600007 1.1817666e-38
-0.0034524004 -0.091833346 0.72500008 2.286665e-38
-0.0020657338 -0.091580026 0.72300005 2.3142183e-38
-0.00068574294 -0.091200016 0.72000003 2.341769e-38
0.00068187912 -0.090693362 0.71600008 2.2216654e-38
0.002039985 -0.090440042 0.71400011 2.1000499e-38
0.0033856875 -0.090060018 0.71100008 1.6313966e-38
0.0047333064 -0.089933343 0.7100001 1.1723985e-38
0.0060685426 -0.089680009 0.70800006 8.2866107e-39
0.0074171023 -0.089680023 0.70800006 4.8855122e-39
0.0087656919 -0.089680009 0.70800006 1.3464998e-38
0.010099986 -0.089553364 0.70700002 2.2040148e-38
0.011446644 -0.089553379 0.70700002 2.2683006e-38
0.012793327 -0.089553364 0.70700008 2.341769e-38
0.014159965 -0.089680023 0.70800006 2.341769e-38
0.015508525 -0.089680023 0.70800006 2.341767e-38
0.016904751 -0.089933343 0.71000004 1.7788779e-38
0.018257119 -0.089933343 0.71000004 1.2162754e-38
0.019637117 -0.090060003 0.71100003 8.0032247e-39
0.021050442 -0.090313353 0.71300012 3.8584613e-39
0.022408554 -0.090313368 0.71300012 1.2077052e-38
0.023766644 -0.090313368 0.71300018 2.0293115e-38
0.025124729 -0.090313368 0.71300012 2.1856128e-38
0.026482841 -0.090313353 0.71300012 2.341769e-38
0.027879987 -0.090440027 0.71400011 2.341769e-38
0.029321872 -0.090693347 0.71600008 2.341769e-38
0.030685697 -0.090693362 0.71600002 2.341769e-38
0.03209427 -0.090820007 0.71700001 2.341769e-38
0.033553287 -0.091073371 0.7190001 2.341769e-38
0.034922861 -0.091073371 0.7190001 2.341769e-38
0.036342811 -0.091200046 0.72000009 2.341769e-38
0.037714254 -0.091200031 0.72000003 2.3417331e-38
0.039194252 -0.091453366 0.72200012 2.341769e-38
0.040625706 -0.091580026 0.72300005 2.341769e-38
0.042002846 -0.091580011 0.72300005 2.341769e-38
0.043379981 -0.091580011 0.72300005 2.3417689e-38
0.044880956 -0.091833346 0.72500002 2.3233297e-38
0.046261903 -0.09183336 0.72500002 2.3049628e-38
0.047642849 -0.091833346 0.72500002 2.2957434e-38
0.049091406 -0.091960035 0.72600007 2.2865241e-38
0.05061331 -0.092213355 0.72800004 2.3141825e-38
0.052071422 -0.09234003 0.72900009 2.341769e-38
0.053459965 -0.092340045 0.72900009 2.3416971e-38
0.054848559 -0.09234003 0.72900009 2.341769e-38
0.056391433 -0.09259335 0.73100001 2.3325854e-38
0.057783782 -0.092593335 0.73100007 2.3141711e-38
0.059176184 -0.09259335 0.73100001 1.3913924e-38
0.060568538 -0.092593335 0.73100007 4.5922008e-39
0.062045697 -0.092720024 0.73200005 6.6311741e-39
0.063613303 -0.092973389 0.73400009 8.5715619e-39
0.065011412 -0.092973359 0.73400009 8.2042228e-39
0.066590473 -0.093226679 0.73600006 7.8365403e-39
0.067992374 -0.093226694 0.73600012 7.835841e-39
0.069394276 -0.093226708 0.73600012 7.9258941e-39
-0.025566699 -0.095692404 0.76700008 9.4978006e-39
-0.024042901 -0.095442869 0.7650001 9.6814716e-39
-0.022585765 -0.095442869 0.7650001 9.7729484e-39
-0.021018125 -0.094943829 0.76100004 9.7754595e-39
-0.019491464 -0.094569542 0.75800008 9.6868526e-39
-0.017976234 -0.094195269 0.75500011 9.5914298e-39
-0.016494298 -0.093945719 0.75300002 9.4052476e-39
-0.014960031 -0.093321927 0.74800003 9.2244465e-39
-0.013480997 -0.09294764 0.74500012 9.132611e-39
-0.011980977 -0.092323832 0.74000007 9.0407769e-39
-0.010571455 -0.092323847 0.74000007 8.8545948e-39
-0.0091495607 -0.092199065 0.73900008 8.5805232e-39
-0.0076895654 -0.091575272 0.73400009 4.9010035e-39
-0.0062400047 -0.090826698 0.72800004 1.2316895e-39
-0.0048400257 -0.090577163 0.72600001 1.2191482e-38
-0.0034524051 -0.09045241 0.72500008 2.3136784e-38
-0.0020657235 -0.090202875 0.72300005 2.3325854e-38
-0.00068478461 -0.089703836 0.7190001 2.341769e-38
0.00068187818 -0.089329578 0.71600008 2.2499335e-38
0.0020399767 -0.089080028 0.71400011 2.1568751e-38
0.0033856968 -0.088705726 0.71100008 1.8347659e-38
0.0047333045 -0.088580973 0.7100001 1.5020022e-38
0.0060685473 -0.088331454 0.70800006 9.7408796e-39
0.0074171228 -0.088331468 0.70800006 4.447846e-39
0.0087656844 -0.088331454 0.70800006 1.394248e-38
0.010099997 -0.088206686 0.70700008 2.3413738e-38
0.011446653 -0.088206671 0.70700008 2.341769e-38
0.012793329 -0.088206701 0.70700002 2.341769e-38
0.014159956 -0.088331454 0.70800006 2.341769e-38
0.015508546 -0.088331454 0.70800006 2.341481e-38
0.016904734 -0.088580973 0.71000004 1.9641294e-38
0.018257113 -0.088580988 0.7100001 1.5845866e-38
0.019637121 -0.088705726 0.71100008 1.1663725e-38
0.021050436 -0.088955261 0.71300012 7.56776e-39
0.022408549 -0.088955276 0.71300012 1.5503679e-38
0.023766661 -0.088955261 0.71300012 2.3413019e-38
0.025124725 -0.088955261 0.71300018 2.341769e-38
0.026519995 -0.089080028 0.71400011 2.341769e-38
0.027879965 -0.089080043 0.71400011 2.341769e-38
0.029321872 -0.089329563 0.71600008 2.341769e-38
0.030728547 -0.089454316 0.71700001 2.341769e-38
0.0321838 -0.089703836 0.7190001 2.341769e-38
0.033553321 -0.089703836 0.7190001 2.341769e-38
0.034971379 -0.089828603 0.72000009 2.341769e-38
0.036342848 -0.089828603 0.72000003 2.341769e-38
0.037819032 -0.090078108 0.72200012 2.3325854e-38
0.039194264 -0.090078108 0.72200012 2.341769e-38
0.040625703 -0.090202875 0.72300005 2.341769e-38
0.042002868 -0.090202875 0.72300005 2.341769e-38
0.043380003 -0.090202875 0.72300005 2.341733e-38
0.044880927 -0.09045241 0.72500008 2.3141106e-38
0.046261899 -0.090452395 0.72500008 2.2773761e-38
0.047708552 -0.090577163 0.72600001 2.2588654e-38
0.049226671 -0.090826698 0.72800004 2.2313509e-38
0.050613329 -0.090826683 0.72800004 2.2866318e-38
0.0520714 -0.09095145 0.72900009 2.3417689e-38
0.053459972 -0.090951465 0.72900009 2.341733e-38
0.054999031 -0.091200955 0.73100001 2.3417689e-38
0.056391411 -0.09120097 0.73100007 2.3234019e-38
0.057783786 -0.091200955 0.73100001 2.2945836e-38
0.059176169 -0.091200985 0.73100007 1.3914628e-38
0.060568567 -0.09120097 0.73100007 4.8852768e-39
0.062045686 -0.091325738 0.73200011 6.7280305e-39
0.06361331 -0.091575272 0.73400009 8.5697753e-39
0.065011397 -0.091575272 0.73400009 8.1113279e-39
0.066590473 -0.091824807 0.73600006 7.6525231e-39
0.067992382 -0.091824777 0.73600012 7.7443727e-39
0.069394283 -0.091824792 0.73600012 7.8351432e-39
-0.025600035 -0.094354309 0.76800001 9.4070413e-39
-0.024105748 -0.094231449 0.76700008 9.5903536e-39
-0.022585765 -0.093985744 0.7650001 9.8665775e-39
-0.02107334 -0.093740039 0.76300001 1.0052042e-38
-0.019542878 -0.093371458 0.76000011 9.8683712e-39
-0.017976228 -0.092757173 0.75500011 9.6847002e-39
-0.016494302 -0.092511453 0.75300008 9.6847002e-39
-0.014960026 -0.091897182 0.74800003 9.7786881e-39
-0.013480991 -0.091528602 0.74500012 9.8701648e-39
-0.012013352 -0.091160037 0.7420001 1.0054195e-38
-0.010571458 -0.090914302 0.74000007 9.5939409e-39
-0.0091495533 -0.090791456 0.73900008 9.1365571e-39
-0.0077104978 -0.090422891 0.73600012 5.5445695e-39
-0.0062400075 -0.089440025 0.72800004 2.045303e-39
-0.004840035 -0.08919432 0.72600007 1.2646371e-38
-0.0034524051 -0.08907146 0.72500008 2.3234009e-38
-0.00206573 -0.08882574 0.72300005 2.3325854e-38
-0.00068480324 -0.088334315 0.7190001 2.341769e-38
0.00068187725 -0.087965749 0.71600008 2.2958513e-38
0.0020399692 -0.087720029 0.71400011 2.2499322e-38
0.0033951991 -0.087597169 0.71300012 2.0557849e-38
0.0047399942 -0.087351434 0.71100003 1.8522329e-38
0.0060685398 -0.086982869 0.70800006 1.6217044e-38
0.0074171154 -0.086982869 0.70800006 1.3925545e-38
0.008765677 -0.086982884 0.70800006 1.872188e-38
0.010114238 -0.086982869 0.70800006 2.3417689e-38
0.011462828 -0.086982869 0.70800006 2.341769e-38
0.012811387 -0.086982869 0.70800006 2.341769e-38
0.014159977 -0.086982884 0.70800006 2.341769e-38
0.015508538 -0.086982884 0.70800006 2.341769e-38
0.016904727 -0.087228589 0.7100001 2.157524e-38
0.018257126 -0.087228589 0.7100001 1.9639827e-38
0.019637115 -0.087351449 0.71100008 1.7601099e-38
0.020991419 -0.087351434 0.71100008 1.5500055e-38
0.022408545 -0.087597184 0.71300012 1.9459795e-38
0.023766628 -0.087597169 0.71300012 2.341769e-38
0.02512474 -0.087597169 0.71300012 2.341769e-38
0.026519973 -0.087720029 0.71400011 2.341769e-38
0.027879991 -0.087720029 0.71400011 2.341769e-38
0.029362848 -0.088088579 0.71700001 2.341769e-38
0.03072856 -0.088088579 0.71700001 2.341769e-38
0.032183781 -0.088334329 0.7190001 2.341769e-38
0.033599995 -0.088457175 0.72000003 2.341769e-38
0.03497139 -0.08845719 0.72000003 2.341769e-38
0.036342841 -0.088457175 0.72000009 2.341769e-38
0.037819017 -0.08870288 0.72200012 2.3325854e-38
0.039248571 -0.088825725 0.72300011 2.3325854e-38
0.040625706 -0.08882574 0.72300011 2.341769e-38
0.042002864 -0.08882571 0.72300005 2.341769e-38
0.04338 -0.088825725 0.72300005 2.341769e-38
0.044880942 -0.089071445 0.72500008 2.323366e-38
0.046261888 -0.089071445 0.72500002 2.3141821e-38
0.04770853 -0.089194305 0.72600007 2.2864875e-38
0.049226668 -0.08944001 0.72800004 2.258722e-38
0.050682813 -0.0895629 0.72900009 2.2957435e-38
0.052071407 -0.089562885 0.72900009 2.3417689e-38
0.053606629 -0.089808606 0.73100007 2.3417687e-38
0.054999031 -0.089808591 0.73100001 2.3417689e-38
0.056391414 -0.089808591 0.73100007 2.3048913e-38
0.057783786 -0.089808591 0.73100001 2.2584586e-38
0.059257135 -0.089931451 0.73200011 1.3543324e-38
0.060651392 -0.089931451 0.73200011 4.5921854e-39
0.062215224 -0.090177156 0.73400009 6.540412e-39
0.063786671 -0.090422891 0.73600006 8.5722934e-39
0.065188579 -0.090422876 0.73600006 8.1120608e-39
0.066590458 -0.090422876 0.73600006 7.7447286e-39
0.068084776 -0.090545751 0.73700005 7.8358564e-39
0.069394261 -0.090422876 0.73600012 8.018824e-39
-0.027239071 -0.093496211 0.77300012 9.0404378e-39
-0.025666699 -0.093133368 0.7700001 9.3177604e-39
-0.024137188 -0.092891462 0.76800007 9.5003342e-39
-0.022674324 -0.092891462 0.76800007 9.9594906e-39
-0.021128615 -0.092528604 0.7650001 1.0326831e-38
-0.019671477 -0.092528604 0.7650001 1.0050249e-38
-0.01797623 -0.091319062 0.75500011 9.7765357e-39
-0.016494291 -0.091077156 0.75300002 1.0053479e-38
-0.014960016 -0.090472393 0.74800003 1.0238226e-38
-0.013480983 -0.090109549 0.74500012 1.0698121e-38
-0.012013361 -0.089746691 0.7420001 1.1065104e-38
-0.010571455 -0.089504786 0.74000007 1.0330779e-38
-0.0091247857 -0.089141913 0.73700011 9.5932234e-39
-0.0077105076 -0.089020975 0.73600012 6.1877767e-39
-0.0062486064 -0.088174321 0.72900009 2.7950495e-39
-0.0048400229 -0.087811433 0.72600001 1.3022316e-38
-0.0034523883 -0.08769051 0.72500002 2.3229702e-38
-0.0020657217 -0.087448604 0.72300005 2.3325854e-38
-0.0006847874 -0.086964794 0.7190001 2.341769e-38
0.00068187539 -0.086601935 0.71600008 2.341769e-38
0.0020371194 -0.086239062 0.71300012 2.3416607e-38
0.0033856931 -0.085997172 0.71100008 2.2770524e-38
0.0047333175 -0.085876204 0.71000004 2.203114e-38
0.0060685324 -0.085634314 0.70800006 2.2771529e-38
0.0074171079 -0.085634314 0.70800006 2.3408678e-38
0.0087656695 -0.085634328 0.70800006 2.3417689e-38
0.010114258 -0.085634314 0.70800006 2.341769e-38
0.011462821 -0.085634299 0.70800006 2.341769e-38
0.01281138 -0.085634314 0.70800006 2.341769e-38
0.014159969 -0.085634314 0.70800006 2.341769e-38
0.015552343 -0.085876204 0.7100001 2.341769e-38
0.016928561 -0.085997157 0.71100008 2.341769e-38
0.018282834 -0.085997142 0.71100003 2.3414436e-38
0.019692337 -0.086239077 0.71300012 2.3417638e-38
0.021050449 -0.086239077 0.71300012 2.3412643e-38
0.022408562 -0.086239077 0.71300012 2.341769e-38
0.023799997 -0.08636003 0.71400011 2.341769e-38
0.025159985 -0.086360045 0.71400011 2.341769e-38
0.026594266 -0.08660195 0.71600008 2.341769e-38
0.027958091 -0.086601935 0.71600002 2.341769e-38
0.029362837 -0.086722888 0.71700007 2.341769e-38
0.030814273 -0.086964808 0.7190001 2.341769e-38
0.032228563 -0.087085731 0.72000003 2.341769e-38
0.033599988 -0.087085761 0.72000009 2.341769e-38
0.034971382 -0.087085731 0.72000009 2.341769e-38
0.036342833 -0.087085746 0.72000009 2.341769e-38
0.037819028 -0.087327637 0.72200012 2.3325853e-38
0.039248563 -0.087448604 0.72300005 2.3325853e-38
0.040625699 -0.08744859 0.72300005 2.3325494e-38
0.042002834 -0.087448604 0.72300005 2.341769e-38
0.04337997 -0.08744859 0.72300005 2.341769e-38
0.044880956 -0.087690495 0.72500002 2.341769e-38
0.046261899 -0.08769051 0.72500002 2.3417689e-38
0.047708556 -0.087811448 0.72600001 2.3142179e-38
0.049226642 -0.088053353 0.72800004 2.2865598e-38
0.050613329 -0.088053338 0.72800004 2.3142183e-38
0.052071415 -0.088174306 0.72900009 2.3325853e-38
0.053606659 -0.088416211 0.73100001 2.341733e-38
0.054999016 -0.088416211 0.73100007 2.341769e-38
0.056391414 -0.088416196 0.73100001 2.2866677e-38
0.057862818 -0.088537179 0.73200005 2.2207212e-38
0.059419025 -0.088779084 0.73400009 1.3265334e-38
0.060817145 -0.088779069 0.73400009 4.2410004e-39
0.062384725 -0.08902099 0.73600012 6.4528827e-39
0.063786656 -0.089020975 0.73600006 8.5701452e-39
0.065188557 -0.08902099 0.73600006 8.2035459e-39
0.066590458 -0.089020975 0.73600006 7.7443741e-39
0.068084747 -0.089141943 0.73700011 7.9276905e-39
0.069394268 -0.08902099 0.73600012 8.1110098e-39
-0.030418096 -0.092738099 0.77900004 8.6712811e-39
-0.028860034 -0.092500038 0.77700001 8.5805218e-39
-0.027239066 -0.092023812 0.77300006 8.4905234e-39
-0.02566671 -0.091666691 0.7700001 8.6742365e-39
-0.024200037 -0.091666706 0.7700001 8.9497009e-39
-0.022674307 -0.0914286 0.76800001 9.3170009e-39
-0.021128615 -0.091071464 0.7650001 9.6847016e-39
-0.019542878 -0.090476222 0.76000011 9.7765357e-39
-0.018000012 -0.090000026 0.75600004 9.9598493e-39
-0.016494311 -0.08964289 0.75300008 1.0145673e-38
-0.01500003 -0.089285739 0.75000012 1.0239302e-38
-0.013480976 -0.088690512 0.74500006 1.0330779e-38
-0.011980979 -0.08809527 0.74000007 1.0421897e-38
-0.010571457 -0.088095255 0.74000007 9.9630779e-39
-0.0091247708 -0.087738104 0.73700011 9.5035417e-39
-0.0077105029 -0.087619074 0.73600012 6.2796122e-39
-0.006248598 -0.086785741 0.72900009 2.9654446e-39
-0.0048400303 -0.086428605 0.72600007 1.3107687e-38
-0.0034524079 -0.08630953 0.72500008 2.3234002e-38
-0.0020657263 -0.086071439 0.72300005 2.3325854e-38
-0.00068574108 -0.085714333 0.72000009 2.341769e-38
0.00068187446 -0.085238136 0.71600008 2.341769e-38
0.0020399878 -0.085000031 0.71400011 2.341769e-38
0.0033856884 -0.084642865 0.71100008 2.3049272e-38
0.0047399765 -0.08464285 0.71100008 2.2774842e-38
0.0060856994 -0.084523834 0.71000004 2.3049631e-38
0.0074171005 -0.084285744 0.70800006 2.341769e-38
0.0087656891 -0.084285744 0.70800006 2.341769e-38
0.010114251 -0.084285729 0.70800006 2.341769e-38
0.011495217 -0.084523834 0.7100001 2.341769e-38
0.012847587 -0.084523834 0.7100001 2.341769e-38
0.014199984 -0.084523819 0.7100001 2.341769e-38
0.015552355 -0.084523834 0.7100001 2.341769e-38
0.016928555 -0.08464288 0.71100003 2.341769e-38
0.018282859 -0.084642865 0.71100003 2.341769e-38
0.019692352 -0.084880985 0.71300012 2.341769e-38
0.021050444 -0.08488097 0.71300018 2.341769e-38
0.022439957 -0.08500006 0.71400011 2.341769e-38
0.023799974 -0.085000031 0.71400011 2.341769e-38
0.025230438 -0.085238121 0.71600008 2.341769e-38
0.026631406 -0.085357167 0.71700001 2.341769e-38
0.027997136 -0.085357152 0.71700001 2.341769e-38
0.029362846 -0.085357152 0.71700001 2.341769e-38
0.030814275 -0.085595272 0.7190001 2.341769e-38
0.032228556 -0.085714318 0.72000009 2.341769e-38
0.03359998 -0.085714318 0.72000009 2.341769e-38
0.034971394 -0.085714303 0.72000003 2.3325854e-38
0.036443781 -0.085952409 0.72200012 2.323366e-38
0.037819013 -0.085952409 0.72200012 2.3142182e-38
0.039248556 -0.086071454 0.72300005 2.2771967e-38
0.040625691 -0.086071454 0.72300005 2.249754e-38
0.042002834 -0.086071439 0.72300005 2.2957795e-38
0.043499976 -0.086309545 0.72500008 2.3416973e-38
0.044880923 -0.08630956 0.72500008 2.3417331e-38
0.046261899 -0.086309545 0.72500008 2.341769e-38
0.047839999 -0.086666696 0.72800004 2.2958154e-38
0.049226638 -0.086666696 0.72800004 2.2498976e-38
0.050682828 -0.086785756 0.72900009 2.2682289e-38
0.052071422 -0.086785741 0.72900009 2.2866677e-38
0.053606663 -0.087023847 0.73100001 2.3142183e-38
0.054999016 -0.087023847 0.73100007 2.341769e-38
0.056391418 -0.087023832 0.73100001 2.2221317e-38
0.057862855 -0.087142877 0.73200005 2.102018e-38
0.059419028 -0.087380983 0.73400009 1.2803672e-38
0.060817122 -0.087380968 0.73400009 4.5922134e-39
0.062384732 -0.087619089 0.73600012 6.5414896e-39
0.063786656 -0.087619074 0.73600006 8.5719445e-39
0.065188564 -0.087619089 0.73600006 8.1117188e-39
0.066680953 -0.087738104 0.73700011 7.7440181e-39
0.068084754 -0.087738119 0.73700011 7.8358536e-39
0.069394276 -0.087619089 0.73600012 8.0195246e-39
-0.03034002 -0.09102004 0.77700001 7.3841521e-39
-0.028785769 -0.090785749 0.7750001 7.6610963e-39
-0.027239047 -0.090551458 0.77300006 7.9373455e-39
-0.025666708 -0.090200044 0.7700001 8.1221179e-39
-0.024200035 -0.090200044 0.7700001 8.305765e-39
-0.022674326 -0.089965723 0.76800001 8.6741594e-39
-0.02118383 -0.089848585 0.76700002 8.949303e-39
-0.019542888 -0.089028604 0.76000011 9.5946598e-39
-0.018000016 -0.088560008 0.75600004 1.0145314e-38
-0.016494298 -0.088208593 0.75300002 1.0238226e-38
-0.014960024 -0.087622888 0.74800003 1.0238584e-38
-0.013480988 -0.087271459 0.74500012 9.9634367e-39
-0.012013346 -0.08692003 0.74200004 9.6879442e-39
-0.010571456 -0.086685739 0.74000001 9.5964828e-39
-0.0091247689 -0.086334296 0.73700011 9.4088504e-39
-0.0077104988 -0.086217172 0.73600012 6.2774598e-39
-0.0062400261 -0.085280024 0.7280001 3.1627362e-39
-0.0048400201 -0.085045733 0.72600001 1.3208111e-38
-0.0034523921 -0.084928609 0.72500008 2.3230046e-38
-0.0020657179 -0.084694318 0.72300005 2.3325854e-38
-0.00068574946 -0.084342889 0.72000009 2.341769e-38
0.00068283093 -0.083991461 0.71700007 2.341769e-38
0.0020399794 -0.083640032 0.71400011 2.341769e-38
0.0033952075 -0.083522893 0.71300012 2.341769e-38
0.0047399867 -0.083288573 0.71100003 2.341769e-38
0.0060856789 -0.083171465 0.7100001 2.341769e-38
0.0074170921 -0.082937188 0.70800006 2.341769e-38
0.0087656816 -0.082937188 0.70800006 2.341769e-38
0.010114241 -0.082937159 0.70800006 2.341769e-38
0.011462803 -0.082937174 0.70800006 2.341769e-38
0.012811393 -0.082937174 0.70800006 2.341769e-38
0.01419997 -0.08317145 0.71000004 2.341769e-38
0.015552368 -0.08317145 0.71000004 2.341769e-38
0.016928559 -0.083288603 0.71100008 2.341769e-38
0.018282834 -0.083288573 0.71100008 2.341769e-38
0.01969235 -0.083522893 0.71300012 2.341769e-38
0.021079967 -0.083640032 0.71400011 2.341769e-38
0.022439983 -0.083640046 0.71400011 2.341769e-38
0.023866659 -0.083874322 0.71600002 2.341769e-38
0.025230438 -0.083874308 0.71600008 2.341769e-38
0.026631415 -0.083991431 0.71700001 2.341769e-38
0.027997145 -0.083991431 0.71700001 2.341769e-38
0.029362854 -0.083991446 0.71700001 2.341769e-38
0.030814257 -0.084225737 0.7190001 2.341769e-38
0.032228544 -0.084342904 0.72000009 2.341769e-38
0.033693299 -0.084577151 0.72200012 2.3325854e-38
0.03506856 -0.084577166 0.72200012 2.323366e-38
0.036443762 -0.084577151 0.72200012 2.3048912e-38
0.037819047 -0.084577166 0.72200006 2.2863441e-38
0.039248552 -0.084694304 0.72300005 2.2305247e-38
0.040625691 -0.084694289 0.72300005 2.1669221e-38
0.042002857 -0.084694304 0.72300005 2.2591171e-38
0.043499991 -0.084928609 0.72500008 2.3417331e-38
0.044880938 -0.084928609 0.72500002 2.3417331e-38
0.046261884 -0.084928595 0.72500002 2.3417327e-38
0.047839999 -0.085280009 0.72800004 2.2774117e-38
0.049226657 -0.085280024 0.72800004 2.2038e-38
0.050682839 -0.085397176 0.72900009 2.2220954e-38
0.052214261 -0.085631453 0.73100001 2.2406063e-38
0.053606644 -0.085631467 0.73100007 2.2958513e-38
0.055074275 -0.085748605 0.73200005 2.341769e-38
0.056468561 -0.085748591 0.73200005 2.1672816e-38
0.058020949 -0.085982867 0.73400009 1.9812652e-38
0.059419014 -0.085982881 0.73400009 1.2428368e-38
0.060982831 -0.086217172 0.73600012 4.9742424e-39
0.06238474 -0.086217202 0.73600012 6.7320046e-39
0.063786663 -0.086217172 0.73600006 8.4786895e-39
0.065188564 -0.086217172 0.73600006 8.1110056e-39
0.066680938 -0.086334296 0.73700011 7.6521854e-39
0.068084739 -0.08633431 0.73700011 7.8362152e-39
-0.030340023 -0.089540027 0.77700001 6.6476772e-39
-0.028600033 -0.088733353 0.7700001 6.9242641e-39
-0.027203817 -0.088963814 0.77200001 7.2916145e-39
-0.025666706 -0.088733368 0.7700001 7.4767274e-39
-0.024137158 -0.088502862 0.76800001 7.660753e-39
-0.022674311 -0.088502862 0.76800001 7.8444184e-39
-0.021128604 -0.088157155 0.7650001 8.0270061e-39
-0.01954288 -0.087580971 0.76000011 8.1213458e-39
-0.018000005 -0.087120004 0.7560001 8.2164098e-39
-0.016494306 -0.086774297 0.75300008 8.3071691e-39
-0.014960034 -0.086198129 0.74800009 8.4926338e-39
-0.013480982 -0.085852392 0.74500012 8.6759447e-39
-0.011980979 -0.085276209 0.74000007 8.7692445e-39
-0.01055718 -0.085161008 0.73900008 8.8607507e-39
-0.009124767 -0.084930487 0.73700005 8.952198e-39
-0.0076895505 -0.08458478 0.73400009 6.094865e-39
-0.0062486101 -0.084008597 0.72900009 3.3316894e-39
-0.0048533538 -0.083893351 0.72800004 1.329311e-38
-0.0034523911 -0.083547629 0.72500002 2.3325817e-38
-0.0020657226 -0.083317168 0.72300005 2.341769e-38
-0.00068573735 -0.082971446 0.72000003 2.341769e-38
0.00068188657 -0.082510494 0.71600008 2.341769e-38
0.0020399711 -0.082280032 0.71400011 2.341769e-38
0.0033952103 -0.082164787 0.71300012 2.341769e-38
0.0047399756 -0.081934296 0.71100008 2.341769e-38
0.0060856771 -0.081819065 0.7100001 2.341769e-38
0.0074170986 -0.081588589 0.70800006 2.341769e-38
0.0087904455 -0.081819065 0.71000004 2.341769e-38
0.010142844 -0.081819065 0.7100001 2.341769e-38
0.011495216 -0.081819065 0.71000004 2.341769e-38
0.012847584 -0.081819065 0.71000004 2.341769e-38
0.014199983 -0.081819065 0.71000004 2.341769e-38
0.015574252 -0.081934296 0.71100008 2.341769e-38
0.016928554 -0.08193431 0.71100008 2.341769e-38
0.018334253 -0.082164772 0.71300012 2.341769e-38
0.019692345 -0.082164802 0.71300012 2.341769e-38
0.021079972 -0.082280032 0.71400011 2.341769e-38
0.022502834 -0.082510523 0.71600008 2.341769e-38
0.023866659 -0.082510494 0.71600002 2.341769e-38
0.025265694 -0.082625739 0.71700007 2.341769e-38
0.026631424 -0.082625724 0.71700001 2.341769e-38
0.027997134 -0.082625724 0.71700007 2.341769e-38
0.029444747 -0.08285623 0.7190001 2.341769e-38
0.030814257 -0.082856216 0.7190001 2.341769e-38
0.032228559 -0.082971431 0.72000003 2.341769e-38
0.03359998 -0.082971461 0.72000009 2.341769e-38
0.035068545 -0.083201908 0.72200012 2.3325853e-38
0.036443777 -0.083201922 0.72200012 2.3048552e-38
0.037871409 -0.083317168 0.72300005 2.2681917e-38
0.039248548 -0.083317183 0.72300005 2.2218065e-38
0.04062571 -0.083317153 0.72300005 2.1762846e-38
0.042119034 -0.083547644 0.72500002 2.2590812e-38
0.043500006 -0.083547629 0.72500002 2.341769e-38
0.044880934 -0.083547659 0.72500008 2.3325853e-38
0.046325684 -0.08366289 0.72600007 2.3325847e-38
0.047839992 -0.083893351 0.72800004 2.2680122e-38
0.049294278 -0.084008582 0.72900009 2.212696e-38
0.05068282 -0.084008597 0.72900009 2.2312427e-38
0.052214291 -0.084239058 0.73100001 2.2496461e-38
0.053606644 -0.084239073 0.73100007 2.2957795e-38
0.055074267 -0.084354304 0.73200011 2.341769e-38
0.056468569 -0.084354289 0.73200005 2.1207898e-38
0.058020927 -0.08458478 0.73400009 1.8893903e-38
0.059580937 -0.084815256 0.73600012 1.1781862e-38
0.060982838 -0.084815256 0.73600012 4.5928888e-39
0.06238474 -0.084815271 0.73600012 6.5415457e-39
0.063786671 -0.084815256 0.73600006 8.3872281e-39
0.065188572 -0.084815256 0.73600006 8.1113671e-39
0.066590443 -0.084815271 0.73600006 7.8355005e-39
0.068084762 -0.084930502 0.73700011 7.9273346e-39
-0.028674303 -0.087493353 0.77200001 6.188141e-39
-0.027203821 -0.087493338 0.77200001 6.5569221e-39
-0.025666684 -0.087266691 0.7700001 6.8327916e-39
-0.024137178 -0.08704 0.76800001 7.0168185e-39
-0.022674315 -0.087040015 0.76800001 7.107575e-39
-0.021128606 -0.086700015 0.7650001 7.1079323e-39
-0.019542892 -0.086133368 0.76000011 6.6476786e-39
-0.018000009 -0.08568 0.7560001 6.1906578e-39
-0.016494306 -0.085340016 0.75300002 6.4650937e-39
-0.015000026 -0.085000031 0.75000012 6.7438203e-39
-0.013517167 -0.084660016 0.7470001 7.2944662e-39
-0.011980975 -0.083866678 0.74000001 7.8476526e-39
-0.010557173 -0.08375337 0.73900008 8.1242577e-39
-0.0091247652 -0.083526678 0.73700005 8.3965131e-39
-0.0076895505 -0.083186693 0.73400009 5.9097591e-39
-0.0062657362 -0.082846694 0.73100007 3.4418371e-39
-0.0048533557 -0.082506694 0.7280001 1.3490805e-38
-0.0034524088 -0.082166709 0.72500008 2.3415517e-38
-0.0020628914 -0.081826679 0.72200012 2.341769e-38
-0.00068477902 -0.081486695 0.7190001 2.341769e-38
0.0006818847 -0.081146695 0.71600002 2.341769e-38
0.0020399627 -0.080920018 0.71400011 2.341769e-38
0.0033952047 -0.080806695 0.71300012 2.341769e-38
0.0047399849 -0.080580018 0.71100008 2.341769e-38
0.006085691 -0.080466695 0.71000004 2.341769e-38
0.0074171051 -0.080240019 0.70800006 2.341769e-38
0.0087656649 -0.080240019 0.70800006 2.341769e-38
0.010114226 -0.080240034 0.70800006 2.341769e-38
0.011462837 -0.080240019 0.70800006 2.341769e-38
0.012847597 -0.080466695 0.71000004 2.341769e-38
0.014199975 -0.080466695 0.7100001 2.341769e-38
0.015574276 -0.080580018 0.71100003 2.341769e-38
0.01692855 -0.080580004 0.71100003 2.341769e-38
0.018334247 -0.08080671 0.71300012 2.341769e-38
0.019692359 -0.08080668 0.71300012 2.341769e-38
0.021050451 -0.08080671 0.71300018 2.341769e-38
0.022439968 -0.080920048 0.71400011 2.341769e-38
0.023866657 -0.081146695 0.71600002 2.341769e-38
0.025230462 -0.081146695 0.71600008 2.341769e-38
0.026631434 -0.081260018 0.71700001 2.341769e-38
0.027997144 -0.081260033 0.71700001 2.341769e-38
0.029362844 -0.081260003 0.71700001 2.341769e-38
0.030814268 -0.081486709 0.7190001 2.341769e-38
0.032228552 -0.081600033 0.72000009 2.341769e-38
0.033693328 -0.081826694 0.72200012 2.341769e-38
0.035068557 -0.081826709 0.72200012 2.3416614e-38
0.036443811 -0.081826694 0.72200006 2.2953848e-38
0.037871405 -0.081940033 0.72300005 2.2495381e-38
0.039248571 -0.081940003 0.72300005 2.2122292e-38
0.040625706 -0.081940033 0.72300005 2.1761414e-38
0.042002842 -0.081940018 0.72300005 2.2591171e-38
0.043499976 -0.082166709 0.72500008 2.341769e-38
0.044880919 -0.082166694 0.72500008 2.3325854e-38
0.046325713 -0.082280017 0.72600007 2.3140742e-38
0.047905695 -0.082620017 0.72900009 2.2677611e-38
0.049294256 -0.082620002 0.72900009 2.2219511e-38
0.050821889 -0.082846679 0.73100001 2.2405695e-38
0.052214272 -0.082846694 0.73100007 2.2497536e-38
0.053606644 -0.082846679 0.73100001 2.2958513e-38
0.055074282 -0.082960017 0.73200005 2.3417687e-38
0.056622844 -0.083186679 0.73400009 2.0754454e-38
0.058020912 -0.083186693 0.73400009 1.7962987e-38
0.059580937 -0.08341337 0.73600012 1.1120356e-38
0.060982846 -0.083413355 0.73600012 4.2384668e-39
0.062469542 -0.083526678 0.73700005 6.2696447e-39
0.063873321 -0.083526663 0.73700005 8.2939703e-39
0.065277129 -0.083526678 0.73700005 8.1113741e-39
0.066680968 -0.083526678 0.73700011 7.927343e-39
-0.028600028 -0.085800029 0.7700001 6.4647181e-39
-0.027133355 -0.085800029 0.7700001 6.5572725e-39
-0.025666695 -0.085800029 0.7700001 6.832779e-39
-0.024137182 -0.085577153 0.76800007 7.0164499e-39
-0.022644799 -0.085465752 0.76700008 7.0164499e-39
-0.021073358 -0.085020013 0.76300007 7.0160968e-39
-0.01954288 -0.084685721 0.76000011 6.8320713e-39
-0.018000014 -0.084240012 0.7560001 6.6476927e-39
-0.016494293 -0.083905719 0.75300002 6.8328084e-39
-0.015000029 -0.083571456 0.75000012 7.0182576e-39
-0.013517154 -0.083237149 0.74700004 7.2941074e-39
-0.012061942 -0.083014317 0.74500012 7.6618222e-39
-0.010600016 -0.082680024 0.7420001 7.754029e-39
-0.009186672 -0.082680024 0.74200004 7.8440582e-39
-0.0076685892 -0.081565745 0.73200005 6.0030295e-39
-0.0062657353 -0.081454314 0.73100007 4.2586876e-39
-0.004853338 -0.081120007 0.72800004 1.3849212e-38
-0.0034428767 -0.080562882 0.72300011 2.3417686e-38
-0.0020628932 -0.080451451 0.72200012 2.341769e-38
-0.00068479765 -0.080117173 0.7190001 2.341769e-38
0.00068188284 -0.079782896 0.71600002 2.341769e-38
0.0020399897 -0.079560019 0.71400011 2.341769e-38
0.0033952 -0.079448603 0.71300018 2.341769e-38
0.0047399942 -0.079225726 0.71100003 2.341769e-38
0.0060856892 -0.079114296 0.71000004 2.341769e-38
0.0074170958 -0.078891464 0.70800006 2.341769e-38
0.0087656574 -0.078891449 0.70800006 2.341769e-38
0.010114267 -0.078891449 0.70800006 2.341769e-38
0.011495192 -0.079114325 0.7100001 2.341769e-38
0.012865694 -0.079225712 0.71100003 2.341769e-38
0.014219996 -0.079225726 0.71100003 2.341769e-38
0.01557425 -0.079225741 0.71100008 2.341769e-38
0.016976181 -0.079448603 0.71300012 2.341769e-38
0.018334245 -0.079448588 0.71300012 2.341769e-38
0.019692358 -0.079448618 0.71300012 2.341769e-38
0.021079978 -0.079560034 0.71400011 2.341769e-38
0.022502828 -0.079782896 0.71600008 2.341769e-38
0.023866657 -0.079782881 0.71600002 2.341769e-38
0.025265712 -0.079894312 0.71700001 2.341769e-38
0.026631422 -0.079894297 0.71700007 2.341769e-38
0.027997125 -0.079894312 0.71700001 2.2864883e-38
0.029362831 -0.079894297 0.71700001 2.2315664e-38
0.03081427 -0.080117173 0.7190001 2.2866677e-38
0.032228544 -0.080228604 0.72000009 2.341769e-38
0.033599984 -0.080228604 0.72000003 2.3325854e-38
0.035068564 -0.080451451 0.72200006 2.3142183e-38
0.036443792 -0.080451436 0.72200006 2.3049272e-38
0.037819028 -0.080451451 0.72200006 2.2958508e-38
0.039248563 -0.080562867 0.72300005 2.2771963e-38
0.040625699 -0.080562852 0.72300005 2.2589014e-38
0.042002838 -0.080562867 0.72300005 2.2865599e-38
0.043499991 -0.080785729 0.72500002 2.3141466e-38
0.044880934 -0.080785729 0.72500002 2.3141825e-38
0.046325691 -0.080897175 0.72600007 2.3141459e-38
0.047708541 -0.08089716 0.72600007 2.2863792e-38
0.049294263 -0.081231467 0.72900009 2.2586492e-38
0.050682813 -0.081231467 0.72900009 2.2403179e-38
0.052214269 -0.081454299 0.73100007 2.2312787e-38
0.053606644 -0.081454299 0.73100001 2.286596e-38
0.055074267 -0.081565745 0.73200011 2.3417683e-38
0.056622829 -0.081788592 0.73400009 1.982533e-38
0.058020942 -0.081788577 0.73400009 1.6308149e-38
0.059419036 -0.081788592 0.73400009 1.0674804e-38
0.06098282 -0.082011469 0.73600012 5.0725267e-39
0.062384725 -0.082011439 0.73600012 6.6387986e-39
0.063786648 -0.082011439 0.73600006 8.2028649e-39
0.065277144 -0.082122885 0.73700005 7.9277087e-39
0.066680953 -0.082122885 0.73700005 7.7436776e-39
0.068084762 -0.08212287 0.73700005 7.9269885e-39
0.06948857 -0.082122885 0.73700011 8.2017789e-39
-0.03014477 -0.0845524 0.77200001 6.8313426e-39
-0.028600026 -0.084333353 0.7700001 6.7405833e-39
-0.027133366 -0.084333383 0.7700001 6.5569123e-39
-0.025666691 -0.084333383 0.7700001 6.832779e-39
-0.024137167 -0.084114291 0.76800001 7.0168143e-39
-0.022644781 -0.084004782 0.76700002 6.9257033e-39
-0.021073349 -0.083566688 0.76300007 6.8335048e-39
-0.019491458 -0.083019085 0.75800002 6.9249774e-39
-0.018000018 -0.082800008 0.7560001 7.0164598e-39
-0.016494298 -0.082471453 0.75300002 7.108661e-39
-0.015000032 -0.082142897 0.75000012 7.2012055e-39
-0.013517161 -0.081814297 0.7470001 7.2933928e-39
-0.012029549 -0.081376217 0.74300003 7.3855954e-39
-0.010571457 -0.081047662 0.74000007 7.3856038e-39
-0.0091247857 -0.080719061 0.73700011 7.2919648e-39
-0.0076895515 -0.080390491 0.73400009 6.1834719e-39
-0.0062486129 -0.079842888 0.72900009 5.0055698e-39
-0.0048533389 -0.079733349 0.72800004 1.4229114e-38
-0.0034524126 -0.079404794 0.72500008 2.3416612e-38
-0.0020628942 -0.079076223 0.72200012 2.341769e-38
-0.00068478181 -0.078747638 0.7190001 2.341769e-38
0.00068189495 -0.078419082 0.71600002 2.341769e-38
0.0020399822 -0.07820002 0.71400011 2.341769e-38
0.0033952177 -0.078090511 0.71300012 2.341769e-38
0.004739983 -0.077871434 0.71100008 2.341769e-38
0.0060857031 -0.077761926 0.71000004 2.341769e-38
0.0074171228 -0.077542894 0.70800006 2.341769e-38
0.0087656984 -0.077542879 0.70800006 2.341769e-38
