# .PCD v0.7 - Point Cloud Data file format
VERSION 0.7
FIELDS x y z rgb
SIZE 4 4 4 4
TYPE F F F F
COUNT 1 1 1 1
WIDTH 956
HEIGHT 1
VIEWPOINT 0 0 0 1 0 0 0
POINTS 956
DATA ascii
0.00069430389 -0.00069428235 0.72900009 7.3077323e-39
0.0020828703 -0.00069428235 0.72900009 6.8503498e-39
0.0034714071 -0.00069426745 0.72900003 7.4989394e-39
0.0048600016 -0.00069426745 0.72900003 8.145734e-39
0.0062400149 -0.00069335103 0.72800004 8.6038352e-39
0.0076371348 -0.00069426745 0.72900003 9.153772e-39
0.0090133296 -0.00069335103 0.72800004 1.035158e-38
0.01041427 -0.00069426745 0.72900003 1.1638711e-38
0.011802864 -0.00069428235 0.72900003 1.1915294e-38
0.013227607 -0.0006961748 0.73099995 1.2191159e-38
0.014640038 -0.00069715083 0.73200011 1.2467742e-38
0.016034294 -0.00069714338 0.73200005 1.2834725e-38
0.017523821 -0.00070095062 0.73600006 1.2096095e-38
0.018951438 -0.00070189685 0.73700005 1.1359618e-38
0.020355254 -0.00070191175 0.73700005 1.1545082e-38
0.02208383 -0.00071237236 0.74800003 1.1731982e-38
0.023571439 -0.00071427971 0.75000006 1.1638353e-38
0.025066685 -0.00071619451 0.75200009 1.1453605e-38
0.026499044 -0.00071619451 0.75200009 1.1728753e-38
0.027968589 -0.00071715564 0.75300002 1.1911348e-38
0.029598104 -0.0007218942 0.75800008 1.1729112e-38
0.031328589 -0.00072857738 0.76500005 1.1637972e-38
0.033000059 -0.00073333085 0.7700001 8.8681762e-39
0.034600981 -0.00073619932 0.77300006 6.0914528e-39
0.036166694 -0.00073808432 0.77500004 6.2678133e-39
0.037837166 -0.00074189901 0.77900004 6.3610837e-39
0.039371435 -0.00074285269 0.78000003 6.637665e-39
0.041066691 -0.00074666739 0.78400004 6.9138889e-39
0.042559989 -0.00074665248 0.78400004 6.91317e-39
0.044053342 -0.00074665993 0.78400004 7.0043021e-39
-0.054142874 0.00072190166 0.75800002 2.6071957e-39
-0.052559987 0.00072000921 0.75600004 1.132074e-39
-0.051052392 0.00071903318 0.75500005 6.6391279e-40
-0.049614288 0.00071905553 0.75500005 1.1940044e-40
-0.048048578 0.00071714073 0.75300002 8.5894747e-39
-0.046614289 0.00071713328 0.75300008 1.6966948e-38
-0.045119993 0.00071618706 0.75200003 1.8173363e-38
-0.04357142 0.00071430206 0.75000006 1.9359303e-38
-0.042142849 0.00071429461 0.75000006 1.9083049e-38
-0.040714283 0.00071429461 0.75000006 1.8712842e-38
-0.039180961 0.00071239471 0.74800003 1.8901539e-38
-0.037756182 0.00071239471 0.74800003 1.8988355e-38
-0.036331434 0.00071238726 0.74800003 1.9084141e-38
-0.034766637 0.00070951134 0.74500006 1.908272e-38
-0.033347573 0.00070951134 0.74500012 1.9457611e-38
-0.031842858 0.00070762634 0.74299997 1.9823169e-38
-0.030509472 0.00070952624 0.74500012 1.9732778e-38
-0.029012363 0.00070761889 0.74300003 1.9639495e-38
-0.027597148 0.00070763379 0.74300003 2.0004672e-38
-0.026181903 0.00070761144 0.74300003 2.0371648e-38
-0.024766687 0.00070761889 0.74300003 2.0562846e-38
-0.023320001 0.00070666522 0.74200004 2.0651092e-38
-0.021906652 0.00070667267 0.74200004 2.0930186e-38
-0.020493329 0.00070667267 0.7420001 2.1108778e-38
-0.019028556 0.00070476532 0.74000001 1.7062937e-38
-0.017595196 0.0007038191 0.73900002 1.2993862e-38
-0.016187588 0.00070381165 0.73900008 6.531326e-39
-0.014740011 0.0007019043 0.73700005 1.1830883e-40
-0.013336196 0.0007019043 0.73700005 2.2441991e-39
-0.011916186 0.00070095062 0.73600006 4.3639573e-39
-0.010514292 0.00070095807 0.73600006 4.4550851e-39
-0.009112373 0.00070095062 0.73600006 4.5483556e-39
-0.0076895235 0.00069904327 0.73400009 5.1861832e-39
-0.0062914239 0.00069904327 0.73400009 5.7407723e-39
-0.0048933523 0.00069905072 0.73400003 8.3168199e-39
-0.0034856657 0.00069713593 0.73200011 1.0887502e-38
-0.0020885756 0.00069621205 0.73099995 9.4170648e-39
-0.00069619052 0.0006962046 0.73099995 7.9491374e-39
0.00069427036 0.0006942898 0.72900003 7.3073721e-39
0.0020828387 0.00069429725 0.72900003 6.6673949e-39
0.0034714313 0.00069429725 0.72900003 7.4074627e-39
0.0048599979 0.00069429725 0.72900003 8.0528223e-39
0.0062485663 0.00069429725 0.72900003 8.3286875e-39
0.0076371329 0.00069429725 0.72900003 8.604194e-39
0.009013324 0.00069332123 0.72800004 1.0261179e-38
0.010414294 0.00069429725 0.72900003 1.1822741e-38
0.011802861 0.00069429725 0.72900003 1.1914577e-38
0.013227615 0.00069619715 0.73099995 1.1915653e-38
0.014640021 0.00069715828 0.73200005 1.2101476e-38
0.016034305 0.00069713593 0.73200011 1.2282636e-38
0.017523821 0.00070095807 0.73600006 1.1728752e-38
0.018951446 0.0007019043 0.73700005 1.1177023e-38
0.020355232 0.00070191175 0.73699999 1.1637276e-38
0.0220838 0.00071238726 0.74800003 1.2006053e-38
0.023571417 0.00071429461 0.75000006 1.1822741e-38
0.025000013 0.00071429461 0.75000006 1.1546158e-38
0.026499061 0.00071618706 0.75200009 1.1912424e-38
0.02796858 0.00071714073 0.75300002 1.2187931e-38
0.029520009 0.00071999431 0.75600004 1.1821306e-38
0.031451434 0.00073143095 0.76800001 1.1451794e-38
0.033000045 0.0007333234 0.77000004 8.9661185e-39
0.034600951 0.00073618442 0.77300006 6.3727102e-39
0.036166675 0.00073809922 0.77500004 6.4461173e-39
0.037837133 0.00074190646 0.77900004 6.5433324e-39
0.039371442 0.00074285269 0.78000003 6.8206311e-39
0.040961921 0.00074476004 0.78200006 7.0057258e-39
0.042451426 0.00074477494 0.78200006 7.0053573e-39
0.044053361 0.00074666739 0.78400004 6.9135302e-39
-0.054142833 0.0021657199 0.75800008 3.064934e-39
-0.052560009 0.0021599904 0.75600004 1.86783e-39
-0.051052362 0.0021571293 0.75500005 1.0326869e-39
-0.049614284 0.0021571368 0.75500005 1.0899159e-40
-0.048048556 0.0021514222 0.75300002 7.0210882e-39
-0.046614297 0.0021514297 0.75300002 1.3848493e-38
-0.045119975 0.0021485686 0.75200009 1.6977008e-38
-0.043687612 0.0021485761 0.75200009 2.0100843e-38
-0.042142846 0.0021428689 0.75000006 1.9824971e-38
-0.040714271 0.002142854 0.75000006 1.9554489e-38
-0.039285704 0.0021428689 0.75000006 1.9641664e-38
-0.037857138 0.0021428764 0.75 1.9732426e-38
-0.036331404 0.0021371469 0.74800003 1.9826416e-38
-0.034859993 0.0021342859 0.7470001 2.0016545e-38
-0.033347588 0.0021285638 0.74500006 2.0196272e-38
-0.031928524 0.0021285564 0.74500012 2.0470342e-38
-0.030509491 0.0021285713 0.74500006 2.0564328e-38
-0.02901236 0.0021228567 0.74300003 2.0658675e-38
-0.027597116 0.0021228492 0.74300003 2.0747282e-38
-0.026181899 0.0021228641 0.74300003 2.0930954e-38
-0.024766654 0.0021228641 0.74300003 2.0931313e-38
-0.023351438 0.0021228716 0.74300003 2.0932749e-38
-0.02190665 0.0021199957 0.74200004 2.1208616e-38
-0.02049333 0.0021200031 0.74200004 2.1394424e-38
-0.019028593 0.0021142811 0.74000001 1.8904447e-38
-0.017619036 0.0021142885 0.74000001 1.6501248e-38
-0.016187573 0.0021114275 0.73900008 9.495871e-39
-0.014740004 0.0021057129 0.73700005 2.5874514e-39
-0.013336189 0.0021057054 0.73700005 3.0585147e-39
-0.011932374 0.0021057054 0.73700005 3.4323208e-39
-0.010514294 0.0021028668 0.73600006 4.0834272e-39
-0.009112373 0.0021028593 0.73600006 4.7302259e-39
-0.0076895049 0.0020971298 0.73400009 5.1904824e-39
-0.0062914053 0.0020971373 0.73400009 5.6518081e-39
-0.0048933355 0.0020971447 0.73400003 7.7647363e-39
-0.0034856824 0.0020914301 0.73200005 9.8762367e-39
-0.00208857 0.0020885915 0.73099995 8.8660476e-39
-0.00069618493 0.0020885915 0.73099995 7.9487759e-39
0.00069617585 0.0020885766 0.73100001 7.2148164e-39
0.002082861 0.0020828843 0.72900003 6.5737658e-39
0.0034714295 0.0020828769 0.72900003 7.3152684e-39
0.004859996 0.0020828769 0.72900003 8.0535397e-39
0.0062485626 0.0020828694 0.72900003 8.2357744e-39
0.007637131 0.002082862 0.72900003 8.4183706e-39
0.0090257237 0.002082862 0.72900003 1.0167909e-38
0.010414292 0.0020828545 0.72900003 1.1822741e-38
0.011835263 0.0020885766 0.73100001 1.1822382e-38
0.013227618 0.002088584 0.73099995 1.1913859e-38
0.014619981 0.002088584 0.73099995 1.2099683e-38
0.016034318 0.0020914227 0.73200011 1.22812e-38
0.017523821 0.0021028668 0.73600006 1.172875e-38
0.01895142 0.0021057129 0.73699999 1.1268498e-38
0.020493342 0.0021200031 0.74200004 1.1453605e-38
0.0220543 0.0021342933 0.74700004 1.1638353e-38
0.023571452 0.0021428689 0.75000006 1.1453605e-38
0.025066687 0.0021485686 0.75200003 1.1362487e-38
0.026534291 0.0021514148 0.75300002 1.1452529e-38
0.028042877 0.0021571517 0.75500005 1.1545082e-38
0.029520014 0.0021599904 0.75600004 1.1453247e-38
0.031246707 0.0021799952 0.76300001 1.1361756e-38
0.033000056 0.0022 0.7700001 8.8717803e-39
0.034600951 0.0022085831 0.77300006 6.3741564e-39
0.036166683 0.0022142977 0.77500004 6.177082e-39
0.037885729 0.0022285655 0.78000003 5.9944844e-39
0.039371442 0.002228573 0.78000003 6.362541e-39
0.040961903 0.0022342801 0.78200006 6.8231338e-39
0.042451438 0.002234295 0.78200006 6.6390845e-39
0.043940946 0.002234295 0.78200001 6.4557764e-39
-0.052560002 0.0036000088 0.75600004 2.5992811e-39
-0.051052388 0.0035952255 0.75500005 1.397515e-39
-0.049614288 0.0035952404 0.75500005 1.104055e-40
-0.048048563 0.0035857037 0.75300002 5.4458536e-39
-0.046614304 0.0035857111 0.75300002 1.0709195e-38
-0.045120016 0.0035809502 0.75200003 1.5785278e-38
-0.043687597 0.0035809577 0.75200009 2.0744041e-38
-0.042255238 0.0035809502 0.75200003 2.056181e-38
-0.040714294 0.0035714358 0.75000006 2.0285227e-38
-0.039285727 0.0035714433 0.75 2.0378499e-38
-0.037857126 0.0035714433 0.75000006 2.0376706e-38
-0.036428586 0.0035714433 0.75000006 2.0655441e-38
-0.034860004 0.0035571456 0.74700004 2.0838752e-38
-0.033347573 0.0035476163 0.74500012 2.0932021e-38
-0.031928539 0.0035476238 0.74500006 2.1022781e-38
-0.030509476 0.0035476089 0.74500012 2.139479e-38
-0.02909044 0.0035476163 0.74500006 2.1665633e-38
-0.027597141 0.0035381094 0.74300003 2.1577743e-38
-0.026252368 0.0035476238 0.74500006 2.1388691e-38
-0.024766654 0.0035380945 0.74300003 2.1298651e-38
-0.023351409 0.0035380945 0.74300003 2.1205382e-38
-0.021906678 0.0035333335 0.74200004 2.1484477e-38
-0.02049333 0.0035333335 0.74200004 2.166634e-38
-0.019028572 0.0035238117 0.74000001 2.0842319e-38
-0.017619042 0.0035238117 0.74000007 1.9905988e-38
-0.016187562 0.0035190433 0.73900008 1.2546913e-38
-0.014779984 0.0035190508 0.73900002 5.0802871e-39
-0.013336189 0.0035095289 0.73699999 3.7863701e-39
-0.011932371 0.0035095215 0.73699999 2.5121652e-39
-0.010528556 0.0035095215 0.73700005 3.7160852e-39
-0.0091123749 0.0035047606 0.73600006 4.9142556e-39
-0.0077104559 0.0035047755 0.73600006 5.1933536e-39
-0.0063085603 0.003504768 0.73600006 5.4684958e-39
-0.0049066711 0.0035047606 0.73600006 7.1215305e-39
-0.003485675 0.0034857243 0.73200011 8.7738478e-39
-0.0020885905 0.0034809634 0.73099995 8.31395e-39
-0.00069620355 0.0034809634 0.73099995 7.8558614e-39
0.00069618144 0.0034809709 0.73100001 7.1215487e-39
0.0020828592 0.0034714416 0.72900003 6.3915297e-39
0.0034714257 0.0034714416 0.72900003 7.2259441e-39
0.0048599942 0.0034714341 0.72900003 8.0521048e-39
0.0062485626 0.0034714341 0.72900003 8.1428641e-39
0.0076371534 0.0034714416 0.72900003 8.2361345e-39
0.0090257218 0.0034714416 0.72900003 1.0076791e-38
0.01041429 0.0034714416 0.72900003 1.1822382e-38
0.011802857 0.0034714416 0.72900003 1.1822024e-38
0.013227629 0.003480956 0.73100001 1.18231e-38
0.014640043 0.0034857169 0.73200011 1.2009999e-38
0.016034327 0.0034857169 0.73200011 1.2190083e-38
0.017523821 0.003504768 0.73600006 1.1820587e-38
0.018951425 0.0035095289 0.73700005 1.1361411e-38
0.020493336 0.003533341 0.74200004 1.1362129e-38
0.022054296 0.003557153 0.7470001 1.1269576e-38
0.023571432 0.0035714284 0.75000006 1.1174512e-38
0.025066677 0.0035809577 0.75200009 1.108447e-38
0.026534282 0.0035857037 0.75300002 1.0990123e-38
0.028042849 0.0035952479 0.75500005 1.090044e-38
0.02952002 0.0035999864 0.75600004 1.1085187e-38
0.03124672 0.0036333203 0.76300007 1.1268131e-38
0.032914296 0.0036571547 0.76800001 8.8760949e-39
0.034600977 0.0036809444 0.77300012 6.3752284e-39
0.036260013 0.0036999956 0.77700007 5.8940253e-39
0.037885729 0.0037142858 0.78000003 5.3498282e-39
0.039472379 0.0037238151 0.78200006 5.9959067e-39
0.040961914 0.0037238076 0.78200006 6.6394572e-39
0.042451419 0.0037238151 0.78200001 6.3639367e-39
0.044053346 0.0037333518 0.78400004 5.99625e-39
-0.054142855 0.0050533414 0.75800002 4.258064e-39
-0.052559998 0.0050400048 0.75600004 3.3336008e-39
-0.051052358 0.0050333217 0.75500005 1.854896e-39
-0.04961428 0.0050333291 0.75500005 2.8508576e-40
-0.048048571 0.0050199926 0.75300002 2.8686794e-39
-0.046614282 0.0050199926 0.75300008 5.4616266e-39
-0.045119997 0.0050133318 0.75200009 1.0068139e-38
-0.043687612 0.0050133318 0.75200003 1.4680737e-38
-0.042255223 0.0050133243 0.75200009 1.4119336e-38
-0.040714286 0.005000025 0.75 1.3666614e-38
-0.03928569 0.0050000101 0.75000006 1.3658721e-38
-0.037857149 0.0050000101 0.75000006 1.3760241e-38
-0.036428552 0.0050000101 0.75000006 1.3752347e-38
-0.034860007 0.0049800053 0.7470001 1.3669835e-38
-0.033437122 0.0049799979 0.7470001 1.3753056e-38
-0.031928528 0.0049666613 0.74500012 1.3855659e-38
-0.030509492 0.0049666688 0.74500006 1.3750914e-38
-0.029090429 0.0049666539 0.74500012 1.3664461e-38
-0.027671393 0.0049666688 0.74500006 1.3658004e-38
-0.026252355 0.0049666539 0.74500012 1.3665178e-38
-0.024766676 0.0049533397 0.74300003 1.3842392e-38
-0.023351431 0.0049533397 0.74300003 1.4034674e-38
-0.021906653 0.0049466789 0.74200004 1.4301931e-38
-0.02049333 0.004946664 0.74200004 1.4586755e-38
-0.019028585 0.0049333349 0.74000001 1.3382838e-38
-0.017619055 0.0049333274 0.74000001 1.2284012e-38
-0.016187601 0.0049266741 0.73900002 7.7574972e-39
-0.014779967 0.0049266741 0.73900002 3.3289597e-39
-0.013336183 0.0049133375 0.73700005 3.2403654e-39
-0.011932367 0.0049133375 0.73700005 3.1542906e-39
-0.010528551 0.0049133375 0.73700005 3.9901567e-39
-0.0090875961 0.0048933327 0.73400009 4.8227789e-39
-0.0076894946 0.0048933253 0.73400009 4.9164122e-39
-0.0063085603 0.0049066544 0.73600006 5.1004377e-39
-0.0048933243 0.0048933402 0.73400003 6.9371435e-39
-0.0034952471 0.0048933402 0.73400003 8.6809333e-39
-0.0020913808 0.0048799962 0.73200011 8.3139402e-39
-0.00069620169 0.0048733428 0.73099995 7.9473339e-39
0.00069618516 0.0048733428 0.73099995 6.6630901e-39
0.00208857 0.0048733428 0.73099995 5.3799057e-39
0.0034714257 0.0048600063 0.72900003 6.579867e-39
0.0048599904 0.0048600063 0.72900003 7.6840454e-39
0.0062657027 0.0048733428 0.73100001 8.9711772e-39
0.0076371534 0.0048600137 0.72900003 1.0163962e-38
0.0090257199 0.0048600063 0.72900003 1.0902234e-38
0.010414287 0.0048599988 0.72900003 1.1546876e-38
0.011835246 0.0048733428 0.73100001 1.1546876e-38
0.013227633 0.0048733279 0.73100001 1.1638711e-38
0.014640025 0.0048800036 0.73200005 1.1914935e-38
0.016034307 0.0048800036 0.73200005 1.2280842e-38
0.017523821 0.0049066767 0.73600006 1.1637276e-38
0.018925715 0.0049066618 0.73600006 1.1085905e-38
0.020438112 0.0049333423 0.74000007 1.1178099e-38
0.022142868 0.0050000176 0.75 1.1362129e-38
0.023571441 0.0050000176 0.75000006 1.1268858e-38
0.025066664 0.0050133243 0.75200003 1.1178099e-38
0.026534274 0.00502 0.75300002 1.108447e-38
0.028042881 0.005033344 0.75500005 1.0991558e-38
0.029520024 0.0050399974 0.75600004 1.1177023e-38
0.031246701 0.0050866529 0.76300007 1.145396e-38
0.032871444 0.0051133335 0.76700002 9.1490987e-39
0.034556188 0.0051466674 0.77200001 6.9273134e-39
0.036400016 0.0051999986 0.78000003 6.4561408e-39
0.037885729 0.0052000061 0.77999997 5.9948151e-39
0.03947239 0.0052133426 0.78200006 6.3628787e-39
0.040961899 0.0052133426 0.78200001 6.7312885e-39
0.04245143 0.0052133352 0.78200006 6.6387257e-39
0.044053338 0.0052266791 0.78400004 6.6376734e-39
-0.05414287 0.0064971521 0.75800002 5.0881722e-39
-0.052699022 0.0064971298 0.75800008 4.0682749e-39
-0.051255234 0.0064971447 0.75800008 2.3119014e-39
-0.049679995 0.0064800009 0.75600004 4.7699079e-40
-0.048176177 0.0064714253 0.75500005 2.8184456e-40
-0.046738077 0.0064714178 0.75500005 1.1862972e-40
-0.045180008 0.006454289 0.75300002 4.3452233e-39
-0.043687619 0.0064457133 0.75200003 8.4925469e-39
-0.042255234 0.0064457133 0.75200003 7.751424e-39
-0.040822841 0.0064457133 0.75200009 6.932075e-39
-0.039285712 0.0064285845 0.75 7.0124282e-39
-0.037857138 0.006428577 0.75000006 7.1175368e-39
-0.036282867 0.0064028725 0.74700004 6.8312698e-39
-0.034859985 0.0064028502 0.7470001 6.4754072e-39
-0.033437133 0.0064028576 0.74700004 6.5550472e-39
-0.031928539 0.0063857138 0.74500006 6.5654532e-39
-0.030509476 0.0063857138 0.74500012 6.0879846e-39
-0.029090444 0.0063857138 0.74500006 5.5531188e-39
-0.027671378 0.0063857213 0.74500012 5.7249558e-39
-0.026252346 0.0063857138 0.74500006 5.8307819e-39
-0.024766643 0.0063685626 0.74300003 6.2788387e-39
-0.023351427 0.0063685775 0.74300003 6.7509305e-39
-0.021906652 0.0063600019 0.74200004 7.1021295e-39
-0.020493332 0.0063600168 0.74200004 7.3937482e-39
-0.019028565 0.0063428655 0.74000001 6.001837e-39
-0.017619034 0.0063428655 0.74000007 4.5314013e-39
-0.016187588 0.0063342899 0.73900002 3.0530734e-39
-0.01477998 0.0063342899 0.73900002 1.5862334e-39
-0.013336176 0.0063171387 0.73700005 2.6922237e-39
-0.011932361 0.0063171387 0.73700005 3.7070916e-39
-0.010514293 0.0063085705 0.73600006 4.1759689e-39
-0.0091123739 0.0063085854 0.73600006 4.6369513e-39
-0.0077104811 0.0063085705 0.73600006 4.732028e-39
-0.0062914314 0.0062914267 0.73400003 4.7334573e-39
-0.0048933299 0.0062914267 0.73400003 6.6619971e-39
-0.0034952285 0.0062914342 0.73400003 8.5901782e-39
-0.0020913975 0.0062742829 0.73200005 8.3139486e-39
-0.00069711625 0.0062742829 0.73200005 7.9476955e-39
0.00069616467 0.0062657222 0.73099995 6.2031924e-39
0.0020885514 0.0062657222 0.73099995 4.37079e-39
0.0034809364 0.0062657222 0.73099995 5.8462592e-39
0.0048600165 0.0062485859 0.72900003 7.3181383e-39
0.0062657101 0.0062657297 0.73100001 9.7094485e-39
0.0076371497 0.0062485859 0.72900003 1.2097171e-38
0.0090257181 0.0062485859 0.72900003 1.1729471e-38
0.010414285 0.0062485784 0.72900003 1.1271011e-38
0.011802851 0.0062485859 0.72900003 1.1362846e-38
0.013227637 0.0062657297 0.73100001 1.1362846e-38
0.01462 0.0062657222 0.73100001 1.1822382e-38
0.016034318 0.0062742904 0.73200011 1.2281919e-38
0.017428603 0.0062742904 0.73200011 1.1545441e-38
0.018874269 0.0062914267 0.73400003 1.0718563e-38
0.020631427 0.0064028651 0.74700004 1.1085905e-38
0.022054285 0.0064028651 0.7470001 1.1453605e-38
0.023571445 0.0064285845 0.75000006 1.1361053e-38
0.025000017 0.0064285696 0.75000006 1.1269217e-38
0.026499042 0.0064457133 0.75200003 1.1177382e-38
0.028042857 0.0064714402 0.75500005 1.1084829e-38
0.029520003 0.0064799935 0.75600004 1.1360694e-38
0.03132857 0.0065571368 0.76500005 1.1545079e-38
0.03287141 0.0065742955 0.76700002 9.5225447e-39
0.034377161 0.0065828636 0.76800001 7.390804e-39
0.03584002 0.0065828562 0.76800001 7.0089614e-39
0.037982866 0.0067028552 0.78200006 6.6380349e-39
0.039472371 0.0067028627 0.78200001 6.7287956e-39
0.040961906 0.0067028627 0.78200006 6.7298634e-39
0.042560004 0.0067200214 0.78400004 7.0057188e-39
0.044165738 0.0067371503 0.78600001 7.1879703e-39
0.045662854 0.0067371428 0.78600001 6.8195675e-39
0.047160026 0.0067371577 0.78600001 6.3618152e-39
-0.052699037 0.0079409406 0.75800008 3.7030769e-39
-0.051255219 0.0079409555 0.75800002 6.0943563e-39
-0.04981143 0.0079409629 0.75800002 8.4885434e-39
-0.048176177 0.0079095364 0.75500005 7.7502791e-39
-0.046738103 0.0079095215 0.75500005 7.0084079e-39
-0.045180015 0.0078885704 0.75300002 7.9224455e-39
-0.043687604 0.0078780875 0.75200009 8.9376778e-39
-0.042255245 0.0078780949 0.75200009 1.0694051e-38
-0.040714301 0.0078571588 0.75000006 1.2521787e-38
-0.039285704 0.0078571588 0.75000006 1.2350308e-38
-0.037857134 0.0078571513 0.75 1.2253811e-38
-0.036282849 0.0078257248 0.7470001 1.2075883e-38
-0.034859993 0.0078257173 0.74700004 1.1977596e-38
-0.03343714 0.0078257173 0.7470001 1.2076253e-38
-0.031928524 0.0078047439 0.74500012 1.2252393e-38
-0.030509492 0.0078047588 0.74500006 1.2166299e-38
-0.029090429 0.0078047588 0.74500012 1.2070884e-38
-0.027671395 0.0078047663 0.74500006 1.2261378e-38
-0.026252329 0.0078047588 0.74500012 1.2439668e-38
-0.024833295 0.0078047588 0.74500006 1.2723426e-38
-0.023351451 0.0077838227 0.74300003 1.3087896e-38
-0.021936178 0.0077838227 0.74300003 1.3367348e-38
-0.020520933 0.0077838004 0.74300003 1.3639576e-38
-0.019079983 0.0077733397 0.74200004 1.013794e-38
-0.017619045 0.0077523813 0.74000001 6.6134407e-39
-0.016187601 0.0077419057 0.73900002 3.7777059e-39
-0.014779967 0.0077419057 0.73900002 9.4338215e-40
-0.013372334 0.0077419132 0.73900008 1.9561048e-39
-0.011932384 0.0077209696 0.73699999 3.0602915e-39
-0.010528569 0.0077209547 0.73700005 3.7113978e-39
-0.0091123991 0.0077104867 0.73600006 4.358212e-39
-0.0077104801 0.0077104792 0.73600006 4.9157018e-39
-0.0063085612 0.0077104792 0.73600006 5.4702951e-39
-0.0049066423 0.0077104717 0.73600006 6.8474618e-39
-0.0035047485 0.0077104643 0.73600006 8.3164696e-39
-0.0020971363 0.0076895133 0.73400009 8.132437e-39
-0.00069710694 0.0076685697 0.73200011 8.0409673e-39
0.00069717609 0.0076685697 0.73200011 6.7556361e-39
0.0020885551 0.0076581091 0.73099995 5.4717384e-39
0.003480942 0.0076581016 0.73099995 6.3958373e-39
0.004873327 0.0076581091 0.73099995 7.318497e-39
0.0062657138 0.0076581091 0.73099995 9.8945544e-39
0.0076371478 0.0076371506 0.72900003 1.2561012e-38
0.0090257144 0.0076371506 0.72900003 1.200713e-38
0.010414283 0.0076371506 0.72900003 1.145504e-38
0.011802875 0.0076371506 0.72900003 1.1179175e-38
0.013191442 0.0076371506 0.72900003 1.0995145e-38
0.014620003 0.0076581091 0.73100001 1.200713e-38
0.016012389 0.0076581016 0.73100001 1.3019831e-38
0.017428612 0.0076685697 0.73200011 1.2189724e-38
0.018822862 0.0076685771 0.73200005 1.1269217e-38
0.020631447 0.0078257248 0.74700004 1.1637276e-38
0.022083793 0.0078362003 0.74800003 1.2004618e-38
0.023571454 0.0078571513 0.75000006 1.1728395e-38
0.02506667 0.0078780875 0.75200009 1.1452171e-38
0.026534289 0.007888563 0.75300002 1.1360335e-38
0.028042857 0.0079095289 0.75500005 1.1359976e-38
0.029520011 0.0079199895 0.75600004 1.1545441e-38
0.031164773 0.0079723746 0.76100004 1.1822741e-38
0.03287144 0.00803525 0.76700002 9.4264087e-39
0.034377165 0.0080457255 0.76800001 7.1142312e-39
0.036493342 0.0081923902 0.78200006 6.7352626e-39
0.038080022 0.0082133338 0.7840001 6.4522227e-39
0.039573345 0.0082133412 0.78400004 6.544417e-39
0.041066699 0.0082133412 0.78400004 6.6366028e-39
0.042559996 0.0082133338 0.78400004 6.7291459e-39
0.044165738 0.0082342923 0.78600001 6.8199122e-39
0.045662854 0.0082342997 0.78600001 6.4522185e-39
-0.054499984 0.0094466507 0.76300001 4.9988394e-39
-0.052838091 0.0094095245 0.76000011 3.249656e-39
-0.051390484 0.009409532 0.76000005 9.8732869e-39
-0.049811415 0.0093847588 0.75800008 1.6406177e-38
-0.048240013 0.0093600079 0.75600004 1.5222733e-38
-0.046799988 0.0093599856 0.75600004 1.3911888e-38
-0.045179993 0.0093228444 0.75300008 1.1581886e-38
-0.043745711 0.0093228519 0.75300002 9.3158168e-39
-0.042255227 0.0093104765 0.75200009 1.3749075e-38
-0.040822841 0.0093104616 0.75200003 1.815574e-38
-0.039390482 0.0093104765 0.75200003 1.7797361e-38
-0.037857126 0.0092857108 0.75000006 1.7330291e-38
-0.036331415 0.0092609674 0.74800003 1.7424996e-38
-0.03486 0.0092485696 0.74700004 1.7515043e-38
-0.033437114 0.0092485771 0.7470001 1.7703021e-38
-0.032014288 0.0092485771 0.74700004 1.788203e-38
-0.030591406 0.0092485771 0.7470001 1.8254396e-38
-0.029090445 0.0092238039 0.74500006 1.8619588e-38
-0.027671382 0.0092238039 0.74500012 1.8810079e-38
-0.026252346 0.0092238113 0.74500006 1.8988371e-38
-0.024833284 0.0092238113 0.74500012 1.9270336e-38
-0.02335142 0.0091990456 0.74300003 1.9449703e-38
-0.021936202 0.0091990456 0.74300003 1.9730949e-38
-0.020520959 0.009199053 0.74300003 1.9905241e-38
-0.019080011 0.0091866851 0.74200004 1.4388603e-38
-0.01759522 0.009149529 0.73900002 8.7504307e-39
-0.016209524 0.0091619045 0.74000001 4.5005545e-39
-0.014779954 0.0091495216 0.73900002 2.9264016e-40
-0.013372375 0.0091495216 0.73900002 1.3125318e-39
-0.011932379 0.0091247633 0.73700005 2.3270425e-39
-0.010528563 0.0091247559 0.73700005 3.2515113e-39
-0.0091247475 0.0091247559 0.73700005 4.0837873e-39
-0.0077209622 0.0091247708 0.73700005 5.1026042e-39
-0.0063171461 0.0091247559 0.73700005 6.1124303e-39
-0.0049133291 0.0091247484 0.73700005 7.1244088e-39
-0.0035095131 0.0091247559 0.73700005 8.0416861e-39
-0.0020971177 0.0090876147 0.73400009 8.0424022e-39
-0.00069904595 0.0090876222 0.73400003 8.041689e-39
0.00069905363 0.0090876147 0.73400003 7.305933e-39
0.0020914404 0.0090628564 0.73200005 6.4819289e-39
0.0034809774 0.0090504736 0.73100001 6.854656e-39
0.0048733344 0.009050481 0.73099995 7.227379e-39
0.0062656933 0.009050481 0.73099995 1.0172931e-38
0.0076371459 0.0090257227 0.72900003 1.302019e-38
0.0090257144 0.0090257227 0.72900009 1.2375189e-38
0.010414305 0.0090257302 0.72900003 1.1638353e-38
0.011802874 0.0090257078 0.72900003 1.1086622e-38
0.01319144 0.0090257153 0.72900003 1.0536327e-38
0.014620009 0.009050481 0.73100001 1.2191518e-38
0.016034311 0.0090628713 0.73200005 1.375308e-38
0.017476181 0.0090876147 0.73400003 1.2831855e-38
0.018951446 0.0091247633 0.73700005 1.1820947e-38
0.020576246 0.0092238113 0.74500012 1.2189007e-38
0.022054296 0.0092485771 0.74700004 1.2464155e-38
0.023508571 0.0092609674 0.74800003 1.200426e-38
0.025000028 0.0092857257 0.75000006 1.1544365e-38
0.026534284 0.0093228519 0.75300002 1.1544006e-38
0.028080018 0.009359993 0.75600004 1.1545441e-38
0.029520016 0.0093600005 0.75600004 1.1821665e-38
0.031410478 0.0094961971 0.76700002 1.200426e-38
0.032914288 0.0095085874 0.76800001 9.4296372e-39
0.034377143 0.00950858 0.76800001 6.74978e-39
0.036073335 0.0095704794 0.77300006 6.4572884e-39
0.03808004 0.0097066686 0.7840001 6.1788756e-39
0.039472394 0.0096819028 0.78200006 6.3596403e-39
0.041066691 0.0097066686 0.7840001 6.4536394e-39
0.042560015 0.009706676 0.78400004 6.4540094e-39
0.044165738 0.0097314417 0.78600001 6.4532905e-39
0.045662858 0.0097314343 0.78600001 6.1770652e-39
-0.054499976 0.010899998 0.76300001 5.2703914e-39
-0.052838095 0.01085715 0.76000005 3.6988072e-39
-0.051390491 0.010857143 0.76000005 1.0154218e-38
-0.049942851 0.010857135 0.76000011 1.6611063e-38
-0.048240006 0.010799997 0.75600004 1.5868866e-38
-0.04679998 0.010800004 0.75600004 1.5222012e-38
-0.045299992 0.010785706 0.75500005 1.1889329e-38
-0.043745719 0.010757133 0.75300002 8.5969521e-39
-0.042311408 0.010757133 0.75300002 1.3660527e-38
-0.040822849 0.010742851 0.75200009 1.8727618e-38
-0.039390463 0.010742858 0.75200003 1.8722951e-38
-0.037857149 0.010714307 0.75000006 1.8722589e-38
-0.036428552 0.010714285 0.75000006 1.8906257e-38
-0.034906663 0.01068572 0.74800003 1.9097104e-38
-0.033437148 0.010671437 0.74700004 1.9183201e-38
-0.032014266 0.010671429 0.7470001 1.9369025e-38
-0.030591439 0.010671437 0.74700004 1.9642379e-38
-0.029168557 0.010671437 0.7470001 1.9832148e-38
-0.027671397 0.010642856 0.74500006 2.0011515e-38
-0.026252331 0.010642841 0.74500012 2.0106223e-38
-0.024833299 0.010642856 0.74500006 2.0288103e-38
-0.023351416 0.010614283 0.74300003 2.0475005e-38
-0.021936171 0.010614291 0.74300003 2.0748003e-38
-0.020520955 0.010614298 0.74300003 2.1116726e-38
-0.01910571 0.010614283 0.74300003 1.7057612e-38
-0.017666662 0.010600001 0.74200004 1.3080353e-38
-0.016209505 0.010571428 0.74000001 6.7254157e-39
-0.014779967 0.010557137 0.73900008 3.8303793e-40
-0.013372363 0.010557145 0.73900002 1.4011317e-39
-0.011964729 0.010557152 0.73900002 2.4181605e-39
-0.010528589 0.010528572 0.73699999 2.9742182e-39
-0.0091494862 0.010557145 0.73900008 3.6221043e-39
-0.0077418815 0.01055716 0.73900002 4.455095e-39
-0.0063342471 0.010557145 0.73900002 5.2830451e-39
-0.0049133245 0.010528572 0.73700005 6.8463968e-39
-0.0035095392 0.010528579 0.73700005 8.4083163e-39
-0.0021028286 0.010514282 0.73600006 8.3168381e-39
-0.00069905526 0.010485724 0.73400003 8.317557e-39
0.00069904618 0.010485701 0.73400003 7.0304265e-39
0.0020914497 0.010457143 0.73200005 5.7440163e-39
0.0034857588 0.010457143 0.73200005 6.2103726e-39
0.0048733419 0.01044286 0.73100001 6.5830956e-39
0.0062656971 0.01044286 0.73099995 9.8034364e-39
0.0076580821 0.010442868 0.73099995 1.3021984e-38
0.0090257367 0.010414295 0.72900003 1.2375189e-38
0.010414305 0.010414295 0.72900003 1.1727677e-38
0.01180287 0.010414295 0.72900009 1.1269216e-38
0.013227628 0.010442868 0.73099995 1.081004e-38
0.014620011 0.01044286 0.73099995 1.1914577e-38
0.016034322 0.010457143 0.73200005 1.3019831e-38
0.017523823 0.010514274 0.73600006 1.2281919e-38
0.01895145 0.010528579 0.73700005 1.1545082e-38
0.020520967 0.010614291 0.74300003 1.1729471e-38
0.022054292 0.010671429 0.74700004 1.1913142e-38
0.023508566 0.010685727 0.74800003 1.1912783e-38
0.025000008 0.0107143 0.75000006 1.1911707e-38
0.026534274 0.010757148 0.75300002 1.0810398e-38
0.028080024 0.010799989 0.75600004 9.7112422e-39
0.02952002 0.010800004 0.75600004 9.6154606e-39
0.031410478 0.010957159 0.76700002 9.5247013e-39
0.032914288 0.010971442 0.76800001 8.2321885e-39
0.034377147 0.010971434 0.76800001 6.8448666e-39
0.036073331 0.011042856 0.77300006 6.4627114e-39
0.037982874 0.011171438 0.78200006 5.9966452e-39
0.039573357 0.011200011 0.78400004 6.2710026e-39
0.041066658 0.011200003 0.78400004 6.455782e-39
0.042560011 0.011200011 0.7840001 6.3629026e-39
0.044165738 0.011228584 0.78600001 6.1781456e-39
0.045662854 0.011228576 0.78600001 5.9011943e-39
-0.054499961 0.012353323 0.76300007 5.5469741e-39
-0.052907612 0.012320958 0.76100004 4.07763e-39
-0.051458083 0.012320951 0.76100004 1.0433676e-38
-0.049942855 0.012304768 0.76000005 1.6691068e-38
-0.048367623 0.01227238 0.75800002 1.6603201e-38
-0.046799999 0.012239993 0.75600004 1.6411956e-38
-0.045299996 0.01222381 0.75500005 1.2064796e-38
-0.043861918 0.012223817 0.75500005 7.7636335e-39
-0.042311415 0.012191415 0.75300002 1.3567604e-38
-0.040877134 0.012191422 0.75300002 1.9273247e-38
-0.039390475 0.01217524 0.75200009 1.9643462e-38
-0.037958086 0.012175247 0.75200003 2.0010444e-38
-0.036428571 0.012142859 0.75000006 2.0288459e-38
-0.034906667 0.012110494 0.74800003 2.0563249e-38
-0.033481888 0.012110479 0.74800003 2.074692e-38
-0.032014299 0.012094289 0.74700004 2.083947e-38
-0.030591419 0.012094304 0.74700004 2.0930586e-38
-0.029168565 0.012094311 0.74700004 2.1022781e-38
-0.027671382 0.012061909 0.74500012 2.1113901e-38
-0.02625235 0.012061901 0.74500006 2.120825e-38
-0.024833284 0.012061894 0.74500012 2.1392643e-38
-0.02335144 0.012029544 0.74300003 2.148448e-38
-0.021936193 0.012029521 0.74300003 2.185254e-38
-0.020520922 0.012029529 0.74300003 2.2218778e-38
-0.019105708 0.012029536 0.74300003 1.9828876e-38
-0.017666664 0.012013339 0.74200004 1.7321673e-38
-0.016209517 0.011980958 0.74000001 8.8462403e-39
-0.014799987 0.011980951 0.74000001 3.8913638e-40
-0.01337235 0.011964768 0.73900002 1.3989793e-39
-0.01196474 0.011964761 0.73900002 2.4160067e-39
-0.010557107 0.011964761 0.73900008 2.7880332e-39
-0.009149502 0.011964776 0.73900002 3.0700137e-39
-0.0077418676 0.011964776 0.73900002 3.8118878e-39
-0.0063342592 0.011964768 0.73900008 4.4558082e-39
-0.0049266256 0.011964753 0.73900008 6.5694554e-39
-0.0035095317 0.01193238 0.73700005 8.6831053e-39
-0.0021028304 0.011916183 0.73600006 8.5909111e-39
-0.00069906085 0.011883818 0.73400003 8.5005133e-39
0.00069903873 0.01188381 0.73400003 6.7542068e-39
0.0020914609 0.011851422 0.73200011 5.0118449e-39
0.003485742 0.011851422 0.73200011 5.4756887e-39
0.0048733475 0.011835247 0.73100001 5.9388122e-39
0.0062657325 0.011835247 0.73100001 9.5268537e-39
0.0076581193 0.011835247 0.73100001 1.3019831e-38
0.009025733 0.01180286 0.72900009 1.2467383e-38
0.010414301 0.011802852 0.72900009 1.1821305e-38
0.011802868 0.011802852 0.72900009 1.1452528e-38
0.013191436 0.01180286 0.72900009 1.1085545e-38
0.014619994 0.011835247 0.73100001 1.1728753e-38
0.016034333 0.011851437 0.73200011 1.2282995e-38
0.017523827 0.01191619 0.73600006 1.1822382e-38
0.018951427 0.01193238 0.73699999 1.1270652e-38
0.020493364 0.012013331 0.74200004 1.136177e-38
0.022054315 0.012094289 0.7470001 1.1362846e-38
0.023508593 0.012110479 0.74800003 1.1822024e-38
0.024999987 0.012142867 0.75 1.2187572e-38
0.026499052 0.01217524 0.75200003 1.0074997e-38
0.028080001 0.01224 0.75600004 7.8684338e-39
0.029598102 0.01227238 0.75800002 7.4964283e-39
0.031410478 0.012418099 0.76700002 7.0386858e-39
0.032914296 0.012434289 0.76800001 7.0372508e-39
0.034466684 0.012466662 0.77000004 6.9345567e-39
0.036073361 0.012515239 0.77300006 6.368739e-39
0.037740003 0.012580007 0.77700001 5.8144203e-39
0.039320964 0.01261238 0.7790001 6.1795314e-39
0.041066676 0.012693346 0.78400004 6.4557764e-39
0.04256003 0.012693338 0.7840001 6.180291e-39
0.044165738 0.012725718 0.78600001 5.9022761e-39
0.045662854 0.012725726 0.78600001 5.7171716e-39
-0.05449998 0.013806656 0.76300007 6.19054e-39
-0.052907612 0.013770483 0.76100004 4.9884544e-39
-0.051458083 0.013770469 0.76100004 7.9408487e-39
-0.049942859 0.013752393 0.76000005 1.0993328e-38
-0.048367605 0.013716191 0.75800008 1.2837236e-38
-0.046799995 0.013679989 0.75600004 1.4778316e-38
-0.045359999 0.013679996 0.75600004 1.1342355e-38
-0.043861888 0.013661906 0.75500005 7.845084e-39
-0.042311423 0.013625719 0.75300002 1.1535733e-38
-0.040877108 0.013625704 0.75300002 1.5327904e-38
-0.03939046 0.013607621 0.75200009 1.5783147e-38
-0.037958071 0.013607606 0.75200003 1.633667e-38
-0.036428563 0.013571434 0.75000006 1.6608229e-38
-0.034999996 0.013571434 0.75000006 1.688517e-38
-0.033481892 0.013535246 0.74800003 1.6976288e-38
-0.03205714 0.013535239 0.74800003 1.7076369e-38
-0.030632362 0.013535246 0.74800003 1.6976994e-38
-0.029168569 0.013517156 0.74700004 1.688839e-38
-0.027745688 0.013517141 0.7470001 1.6977e-38
-0.026252335 0.013480954 0.74500012 1.7076732e-38
-0.024833299 0.013480961 0.74500006 1.7070636e-38
-0.023414236 0.013480939 0.74500006 1.70753e-38
-0.021936189 0.013444774 0.74300003 1.7346143e-38
-0.020520946 0.013444774 0.74300003 1.7536631e-38
-0.019105729 0.013444759 0.74300003 1.6240172e-38
-0.017690483 0.013444759 0.74300003 1.5041239e-38
-0.016253317 0.013426669 0.74200004 8.1212407e-39
-0.014799998 0.013390489 0.74000001 1.3056963e-39
-0.013372363 0.013372384 0.73900002 1.3049914e-39
-0.011964729 0.013372384 0.73900002 1.3143381e-39
-0.010557093 0.013372377 0.73900008 2.0522703e-39
-0.0091495141 0.013372384 0.73900002 2.8841889e-39
-0.0077418797 0.013372391 0.73900002 3.6253469e-39
-0.0063342452 0.013372384 0.73900008 4.3628965e-39
-0.0049133161 0.013336182 0.73700005 6.6620069e-39
-0.0035095019 0.013336182 0.73700005 8.9589719e-39
-0.0021028528 0.013318092 0.73600006 9.1433604e-39
-0.00069904409 0.013281904 0.73400003 9.3284705e-39
0.0006990555 0.013281912 0.73400003 7.5825227e-39
0.002091472 0.013245709 0.73200011 5.9302026e-39
0.0034857253 0.013245717 0.73200005 5.9337899e-39
0.0048800325 0.013245724 0.73200005 6.0270604e-39
0.0062743155 0.013245724 0.73200005 9.4328658e-39
0.0076580988 0.013227627 0.73100001 1.2837954e-38
0.0090504857 0.013227627 0.73100001 1.2375548e-38
0.010442841 0.013227634 0.73099995 1.2004976e-38
0.011835226 0.013227634 0.73099995 1.172875e-38
0.013227613 0.013227642 0.73099995 1.1452887e-38
0.014619998 0.013227619 0.73099995 1.2282277e-38
0.016034344 0.013245709 0.73200011 1.320422e-38
0.017523825 0.013318099 0.73600006 1.2191518e-38
0.018951435 0.013336182 0.73700005 1.1271369e-38
0.020438112 0.013390481 0.74000007 1.0902593e-38
0.022054277 0.013517149 0.74700004 1.0537762e-38
0.023508592 0.013535254 0.74800003 9.5218315e-39
0.024999997 0.013571441 0.75000006 8.604194e-39
0.026428565 0.013571449 0.75 7.4960696e-39
0.028080011 0.013679996 0.75600004 6.4862378e-39
0.029520009 0.013680004 0.75600004 6.8525036e-39
0.031451441 0.013897136 0.76800001 7.2187694e-39
0.033000048 0.013933346 0.77000004 7.1262165e-39
0.034466699 0.013933331 0.7700001 7.028553e-39
0.036073357 0.013987616 0.77300006 6.4648947e-39
0.037642866 0.014023811 0.77500004 5.9062656e-39
0.03922002 0.014059991 0.77700007 6.0880603e-39
0.041066691 0.01418668 0.78400004 6.2724586e-39
0.042560019 0.014186665 0.7840001 6.0870037e-39
0.044278115 0.014259055 0.78800005 5.8090001e-39
0.045779049 0.014259048 0.78800005 5.5324314e-39
0.047280014 0.014259048 0.78800005 5.2555096e-39
-0.054499973 0.015260004 0.76300001 6.8366283e-39
-0.052907612 0.015220001 0.76100004 5.9096596e-39
-0.051458083 0.015220009 0.76100004 5.53155e-39
-0.049942836 0.015200019 0.76000005 5.1872005e-39
-0.04836762 0.015160009 0.75800008 9.1576859e-39
-0.046923805 0.015160002 0.75800002 1.3094745e-38
-0.045359991 0.015120007 0.75600004 1.0497135e-38
-0.043861914 0.01510001 0.75500005 7.9275364e-39
-0.042423785 0.015099987 0.75500005 9.5852402e-39
-0.040877141 0.01506 0.75300008 1.1256601e-38
-0.03944286 0.01506 0.75300002 1.2007455e-38
-0.037958082 0.015039988 0.75200009 1.2640264e-38
-0.036525693 0.015039995 0.75200003 1.2921876e-38
-0.035000015 0.015000008 0.75 1.3096939e-38
-0.033571418 0.015000015 0.75000006 1.3196308e-38
-0.032057114 0.014960013 0.74800003 1.3284552e-38
-0.030591432 0.014940009 0.74700004 1.301227e-38
-0.02916855 0.014940009 0.7470001 1.2638476e-38
-0.027671386 0.014899991 0.74500012 1.2736774e-38
-0.026252352 0.014899999 0.74500006 1.2822157e-38
-0.024833288 0.014899999 0.74500012 1.2738218e-38
-0.023414252 0.014900006 0.74500006 1.2635619e-38
-0.02193616 0.014859997 0.74300003 1.2735705e-38
-0.020520944 0.014859997 0.74300003 1.2827894e-38
-0.019105699 0.014860004 0.74300003 1.273713e-38
-0.017690483 0.014860012 0.74300003 1.2637012e-38
-0.016253345 0.014839999 0.74200004 7.3833449e-39
-0.014800006 0.014799997 0.74000007 2.1368709e-39
-0.013390449 0.014799997 0.74000007 1.1083738e-39
-0.011964715 0.01478 0.73900002 1.1327817e-40
-0.010557107 0.01478 0.73900008 1.4058205e-39
-0.009149502 0.014780007 0.73900002 2.6987103e-39
-0.0077418676 0.014780007 0.73900002 3.4420234e-39
-0.0063342331 0.014780007 0.73900008 4.1795801e-39
-0.0049266545 0.014780015 0.73900002 6.7563591e-39
-0.0035095243 0.014740005 0.73699999 9.2351973e-39
-0.0021028547 0.014719993 0.73600006 9.694372e-39
-0.00070093467 0.01472 0.73600006 1.015463e-38
0.00069904991 0.014679998 0.73400003 8.5005203e-39
0.0020971512 0.014679991 0.73400009 6.7577969e-39
0.0034952527 0.014679991 0.73400009 6.4862364e-39
0.0048933225 0.014680006 0.73400003 6.1199721e-39
0.0062743267 0.014639996 0.73200011 9.4310722e-39
0.0076686097 0.014639996 0.73200011 1.2650337e-38
0.0090504894 0.014620014 0.73100001 1.237483e-38
0.010442876 0.014620006 0.73100001 1.2098248e-38
0.011835231 0.014620021 0.73099995 1.2004258e-38
0.013227618 0.014620021 0.73099995 1.1821665e-38
0.014640016 0.014640003 0.73200005 1.2926202e-38
0.016078101 0.014679998 0.73400003 1.4030739e-38
0.017523825 0.014720008 0.73600006 1.2651772e-38
0.018951437 0.014739998 0.73700005 1.117774e-38
0.020438099 0.014800005 0.74000001 1.0439468e-38
0.0220543 0.014940009 0.74700004 9.609358e-39
0.023508564 0.014960006 0.74800003 7.3073693e-39
0.025000002 0.015000015 0.75 4.9185716e-39
0.026499055 0.015039995 0.75200003 5.0028737e-39
0.028080015 0.015119992 0.75600004 5.1043978e-39
0.029520012 0.01512 0.75600004 6.2085776e-39
0.031451445 0.015360005 0.76800001 7.3109636e-39
0.033000033 0.015400007 0.77000004 7.2205631e-39
0.034556203 0.015439995 0.77200007 7.0278341e-39
0.036073327 0.015459999 0.77300006 6.4638171e-39
0.037642874 0.015500024 0.77500004 5.9051894e-39
0.039220005 0.015539989 0.77700001 5.9933563e-39
0.040857174 0.015600003 0.78000003 6.0866352e-39
0.042342864 0.015599996 0.78000003 5.9026139e-39
0.044334285 0.015780002 0.78900003 5.7175149e-39
0.045837171 0.015779994 0.78900009 5.3473087e-39
0.047340006 0.015780002 0.78900003 4.9767619e-39
-0.053046614 0.016713314 0.76300007 6.2812853e-39
-0.051458083 0.016669527 0.76100004 4.4287548e-39
-0.049942866 0.016647622 0.76000005 2.6878698e-39
-0.048367605 0.01660382 0.75800002 8.401803e-39
-0.046799984 0.016559996 0.75600004 1.4088394e-38
-0.045359984 0.016560011 0.75600004 1.2526078e-38
-0.043920014 0.016560011 0.75600004 1.1036973e-38
-0.042423811 0.016538091 0.75500005 1.0590344e-38
-0.040877149 0.016494289 0.75300002 1.0126186e-38
-0.039442867 0.016494296 0.75300002 8.293463e-39
-0.037958093 0.016472377 0.75200003 6.355606e-39
-0.036525704 0.016472369 0.75200009 6.4539127e-39
-0.034999982 0.016428582 0.75000006 6.6286168e-39
-0.033571437 0.016428575 0.75000006 6.6390214e-39
-0.032057144 0.016384766 0.74800003 6.7308541e-39
-0.030632392 0.016384773 0.74800003 6.548974e-39
-0.029168583 0.016362876 0.74700004 6.3556256e-39
-0.0276714 0.016319051 0.74500006 6.4539267e-39
-0.026252337 0.016319051 0.74500012 6.4410179e-39
-0.024833303 0.016319044 0.74500006 6.4496317e-39
-0.023414237 0.016319044 0.74500012 6.3405757e-39
-0.021995204 0.016319051 0.74500006 8.4768244e-39
-0.02057614 0.016319044 0.74500006 1.0689117e-38
-0.019105723 0.016275249 0.74300003 1.3372785e-38
-0.01769045 0.016275235 0.74300003 1.612102e-38
-0.016253319 0.016253337 0.74200004 1.2907122e-38
-0.014839997 0.01625333 0.74200004 9.678854e-39
-0.013390485 0.016209513 0.74000001 4.8940447e-39
-0.011980954 0.01620952 0.74000007 1.1469067e-40
-0.010557123 0.016187631 0.73900002 1.4954881e-39
-0.0091494881 0.016187623 0.73900002 2.8787813e-39
-0.0077418797 0.016187623 0.73900008 3.1625597e-39
-0.0063342452 0.016187631 0.73900008 3.5349351e-39
-0.0049266405 0.016187631 0.73900002 6.110645e-39
-0.003519007 0.016187631 0.73900002 8.6845444e-39
-0.0021028547 0.016121902 0.73600006 9.7879997e-39
-0.00070093467 0.016121902 0.73600006 1.089039e-38
0.00070098334 0.016121902 0.73600006 8.7767443e-39
0.0021028491 0.016121909 0.73600006 6.5734084e-39
0.0034952397 0.016078092 0.73400003 6.0252639e-39
0.0048933392 0.016078092 0.73400003 5.4742523e-39
0.0062914146 0.016078092 0.73400003 8.9704598e-39
0.007668619 0.016034283 0.73200011 1.2467383e-38
0.009050495 0.016012385 0.73100001 1.2467742e-38
0.010442882 0.016012393 0.73100001 1.2559219e-38
0.011851461 0.016034283 0.73200005 1.228156e-38
0.013245742 0.01603429 0.73200005 1.19135e-38
0.014640025 0.016034283 0.73200011 1.2376624e-38
0.016078092 0.016078092 0.73400003 1.2748271e-38
0.017547628 0.016143806 0.73700005 1.0534892e-38
0.018951416 0.016143806 0.73700005 8.3279686e-39
0.02043812 0.016209535 0.74000007 7.9512982e-39
0.021936201 0.016275235 0.74300003 7.5810807e-39
0.023508588 0.016384758 0.74800003 9.6958027e-39
0.025000012 0.016428575 0.75000006 1.1891964e-38
0.026499044 0.016472377 0.75200009 1.1259879e-38
0.02808002 0.016560003 0.75600004 1.0617035e-38
0.029598093 0.016603805 0.75800008 8.7796113e-39
0.031451423 0.016822867 0.76800001 7.0347383e-39
0.033000048 0.016866662 0.7700001 6.667039e-39
0.034556195 0.016910478 0.77200001 6.3874968e-39
0.036166675 0.016976207 0.77500004 5.7298492e-39
0.037642881 0.016976207 0.77500004 5.0729303e-39
0.039320953 0.017063804 0.77900004 5.1650446e-39
0.040961899 0.017129533 0.78200006 5.1682802e-39
0.042451438 0.017129518 0.78200006 5.1664936e-39
0.044278108 0.017260961 0.78800005 5.2601213e-39
0.045779042 0.017260961 0.78799999 4.8906255e-39
-0.053046629 0.018166654 0.76300007 6.6421715e-39
-0.051458083 0.01811906 0.76100004 3.3984851e-39
-0.049942844 0.01809524 0.76000005 1.1613261e-40
-0.04836762 0.018047631 0.75800002 7.6735973e-39
-0.046923798 0.018047608 0.75800008 1.5118351e-38
-0.045360006 0.017999999 0.75600004 1.4665613e-38
-0.043920007 0.018000007 0.75599998 1.4099871e-38
-0.042423781 0.01797618 0.75500005 1.1612759e-38
-0.040985703 0.017976195 0.75500005 9.0334706e-39
-0.039442845 0.017928571 0.75300008 4.5930794e-39
-0.038008563 0.017928563 0.75300002 1.0858101e-40
-0.036525719 0.017904766 0.75200003 9.2452067e-41
-0.035093326 0.017904751 0.75200009 9.8910652e-41
-0.033660941 0.017904758 0.75200009 9.245487e-41
-0.032142863 0.017857157 0.75000006 1.0214625e-40
-0.030632365 0.017809518 0.74800003 9.6412137e-41
-0.029168561 0.017785728 0.74700004 1.0251759e-40
-0.027745705 0.017785728 0.7470001 9.8938678e-41
-0.026322853 0.017785721 0.74700004 1.0216867e-40
-0.024833288 0.017738089 0.74500012 9.5354157e-41
-0.023414256 0.017738096 0.74500006 9.9663149e-41
-0.021995191 0.017738089 0.74500006 4.3258924e-39
-0.020576159 0.017738096 0.74500006 8.4897191e-39
-0.019105719 0.01769048 0.74300003 1.40361e-38
-0.017690472 0.01769048 0.74300003 1.9542277e-38
-0.016253319 0.017666683 0.74200004 1.8444549e-38
-0.014839998 0.017666675 0.74200004 1.7231966e-38
-0.013390467 0.017619051 0.74000007 8.6743374e-39
-0.011980966 0.017619051 0.74000001 1.1574585e-40
-0.010571435 0.017619058 0.74000001 1.5819328e-39
-0.0091619045 0.017619044 0.74000007 3.0610118e-39
-0.0077418676 0.017595239 0.73900008 2.9781684e-39
-0.0063342629 0.017595246 0.73900002 2.7980974e-39
-0.0049266284 0.017595254 0.73900002 5.4660029e-39
-0.00351902 0.017595254 0.73900008 8.1335287e-39
-0.0021056989 0.017547607 0.73700005 9.8830568e-39
-0.00070093281 0.01752381 0.73600006 1.1626147e-38
0.00070095912 0.01752381 0.73600006 9.0511746e-39
0.0020971606 0.017476194 0.73400009 6.3897374e-39
0.0034952341 0.017476186 0.73400003 5.5668039e-39
0.0048800083 0.017428569 0.73200005 4.7410033e-39
0.0062743174 0.017428569 0.73200005 8.5084124e-39
0.0076685986 0.017428577 0.73200005 1.2191159e-38
0.0090628816 0.017428569 0.73200011 1.2652848e-38
0.010457163 0.017428569 0.73200011 1.3018755e-38
0.011851472 0.017428577 0.73200011 1.2556708e-38
0.013245753 0.017428569 0.73200011 1.2006771e-38
0.014640038 0.017428569 0.73200011 1.173521e-38
0.016121905 0.017523803 0.73600006 1.1451809e-38
0.01754763 0.017547622 0.73699999 8.4119092e-39
0.018951422 0.017547615 0.73700005 5.3763072e-39
0.020410512 0.017595239 0.73900002 5.4559388e-39
0.021936204 0.017690495 0.74300003 5.5642815e-39
0.023477171 0.017785721 0.74700004 1.218577e-38
0.024999991 0.017857149 0.75000006 1.8804384e-38
0.026499061 0.017904751 0.75200009 1.7435821e-38
0.028079998 0.017999999 0.75600004 1.6045735e-38
0.029519996 0.018000007 0.75600004 1.1350289e-38
0.031451456 0.018285729 0.76800001 6.6681138e-39
0.033085722 0.01838094 0.77200001 6.2082202e-39
0.034600962 0.018404759 0.77300012 5.739989e-39
0.036166679 0.018452398 0.77499998 4.9951764e-39
0.037740014 0.018499993 0.77700007 4.2474898e-39
0.039320979 0.018547624 0.77900004 4.2416618e-39
0.040961914 0.018619053 0.78200006 4.2445344e-39
0.042560026 0.018666677 0.78400004 4.5182501e-39
0.044278089 0.018761918 0.78800005 4.7055084e-39
0.045779079 0.01876191 0.78800005 4.5221947e-39
-0.054499973 0.019620001 0.76300001 8.2181026e-39
-0.053046647 0.019619986 0.76300007 7.6624065e-39
-0.051458105 0.01956857 0.76100004 3.872379e-39
-0.049942873 0.019542865 0.76000005 1.1220057e-40
-0.048367605 0.019491427 0.75800008 7.3945231e-39
-0.046923786 0.019491419 0.75800008 1.477006e-38
-0.045359999 0.01944001 0.75600004 1.5593349e-38
-0.043919973 0.019439995 0.75600004 1.6512029e-38
-0.042423807 0.019414283 0.75500005 1.5217688e-38
-0.040985703 0.019414291 0.75500005 1.393374e-38
-0.039442852 0.019362852 0.75300002 1.1434765e-38
-0.038008571 0.019362874 0.75300002 8.9537871e-39
-0.036574259 0.019362845 0.75300002 7.9278264e-39
-0.035093341 0.01933714 0.75200003 6.9904601e-39
-0.033660952 0.019337133 0.75200009 5.5236047e-39
-0.032142855 0.019285716 0.75000006 4.141064e-39
-0.030632369 0.0192343 0.74800003 2.1206971e-39
-0.029207619 0.019234292 0.74800003 1.0391049e-40
-0.027745713 0.019208573 0.74700004 1.0212243e-40
-0.026322855 0.019208573 0.7470001 1.0965441e-40
-0.024833305 0.019157149 0.74500006 1.0391329e-40
-0.023414241 0.019157141 0.74500012 1.0571676e-40
-0.021995205 0.019157149 0.74500006 2.2208114e-39
-0.020576142 0.019157134 0.74500006 4.3560358e-39
-0.019105688 0.019105725 0.74300003 1.1820589e-38
-0.01769047 0.01910571 0.74300003 1.9281505e-38
-0.016275227 0.01910571 0.74300003 1.9553066e-38
-0.014839997 0.019080013 0.74200004 1.9915286e-38
-0.013426649 0.019079998 0.74200004 1.2815155e-38
-0.011980946 0.019028567 0.74000007 5.7033422e-39
-0.010571445 0.019028582 0.74000001 3.5965642e-39
-0.0091619147 0.019028582 0.74000001 1.5902019e-39
-0.0077418536 0.019002862 0.73900008 1.8714761e-39
-0.006334275 0.019002862 0.73900002 2.2434957e-39
