# .PCD v0.7 - Point Cloud Data file format
VERSION 0.7
FIELDS x y z rgb
SIZE 4 4 4 4
TYPE F F F F
COUNT 1 1 1 1
WIDTH 961
HEIGHT 1
VIEWPOINT 0 0 0 1 0 0 0
POINTS 961
DATA ascii
0.011608568 -0.056677125 0.71700001 2.341769e-38
0.012974284 -0.056677125 0.71700001 2.341769e-38
0.014339995 -0.05667714 0.71700001 2.341769e-38
0.015749512 -0.056835242 0.71900004 2.341769e-38
0.017119033 -0.056835242 0.71900004 2.341769e-38
0.018514277 -0.056914277 0.72000003 2.341769e-38
0.019858094 -0.056835227 0.71900004 2.1856487e-38
0.021257149 -0.056914307 0.72000003 2.0273709e-38
0.022628574 -0.056914292 0.72000003 1.5556329e-38
0.023999996 -0.056914277 0.72000009 1.0799201e-38
0.0254419 -0.057072349 0.72200006 1.3654734e-38
0.026817137 -0.057072379 0.72200012 1.6407973e-38
0.028231429 -0.057151414 0.72299999 1.5116504e-38
0.029608577 -0.057151414 0.72299999 1.3825722e-38
0.030985722 -0.057151414 0.72299999 1.3079497e-38
0.032362871 -0.057151414 0.72299999 1.2345952e-38
0.033740003 -0.057151414 0.72299999 1.252861e-38
0.035117149 -0.0571514 0.72299999 1.2644177e-38
0.03659524 -0.057309516 0.72500002 1.7993292e-38
0.037976183 -0.057309516 0.72500002 2.3324417e-38
0.039357141 -0.057309516 0.72500002 2.341769e-38
0.040738102 -0.057309501 0.72500002 2.3417673e-38
0.042177152 -0.057388552 0.72599995 1.9835355e-38
0.043559998 -0.057388552 0.72600001 1.6146041e-38
0.045066666 -0.057546638 0.72800004 1.4848038e-38
0.046517141 -0.057625704 0.72899997 1.3479494e-38
0.047905721 -0.057625689 0.72900003 1.4495442e-38
0.049294289 -0.057625704 0.72900003 1.5504574e-38
0.050821915 -0.05778379 0.73099995 1.3573896e-38
0.052214295 -0.057783805 0.73100001 1.1624846e-38
0.053606659 -0.05778382 0.73100001 9.0304367e-39
0.05499905 -0.057783805 0.73099995 6.3632725e-39
0.056468569 -0.057862841 0.73199999 7.1004788e-39
0.057862863 -0.057862841 0.73199999 7.835862e-39
0.059176199 -0.057783805 0.73099995 8.0198749e-39
0.060568579 -0.057783805 0.73100001 8.1117062e-39
0.061960943 -0.057783805 0.73100001 8.1113447e-39
-0.0047733453 -0.055234276 0.71600002 2.2958154e-38
-0.0034000049 -0.055079989 0.71400005 2.258971e-38
-0.0020371457 -0.055002846 0.71300006 2.1945043e-38
-0.00067905383 -0.055002861 0.71300006 2.1397277e-38
0.00067904079 -0.055002846 0.71300006 2.1119277e-38
0.0020371363 -0.055002831 0.71300006 2.0842339e-38
0.0034000049 -0.055079974 0.71400005 2.2129472e-38
0.0047733346 -0.055234276 0.71600002 2.3417686e-38
0.006137135 -0.055234276 0.71600002 2.341769e-38
0.0075114244 -0.055311434 0.71700001 2.341769e-38
0.0088771358 -0.055311419 0.71700001 2.341769e-38
0.010242851 -0.055311419 0.71700001 2.341769e-38
0.011608563 -0.055311434 0.71700001 2.341769e-38
0.012974289 -0.055311434 0.71700001 2.341769e-38
0.01434 -0.055311434 0.71700001 2.341769e-38
0.015749523 -0.055465706 0.71900004 2.341769e-38
0.017119046 -0.055465706 0.71900004 2.341769e-38
0.018514277 -0.055542849 0.72000003 2.341769e-38
0.019858083 -0.055465721 0.7190001 2.2681571e-38
0.021257136 -0.055542849 0.72000003 2.1849958e-38
0.022628574 -0.055542849 0.72000003 1.6956059e-38
0.023999998 -0.055542879 0.72000009 1.198369e-38
0.025441909 -0.055697136 0.72200006 1.327407e-38
0.02681713 -0.055697151 0.72200012 1.4570542e-38
0.028192377 -0.055697136 0.72200006 1.5400661e-38
0.029608572 -0.055774279 0.72299999 1.6225306e-38
0.03098572 -0.055774279 0.72299999 1.4561065e-38
0.032452367 -0.055928566 0.72500002 1.2990913e-38
0.033739999 -0.055774279 0.72299999 1.2349517e-38
0.035214294 -0.055928566 0.72499996 1.1712863e-38
0.03659524 -0.055928551 0.72499996 1.6603198e-38
0.037976198 -0.055928566 0.72499996 2.1397303e-38
0.039357141 -0.055928551 0.72499996 2.24075e-38
0.040794283 -0.056005694 0.72599995 2.3417673e-38
0.042177152 -0.056005679 0.72599995 1.9738495e-38
0.043679997 -0.056159981 0.72800004 1.6139894e-38
0.045066662 -0.056159995 0.72800004 1.4850452e-38
0.046517141 -0.056237124 0.72899997 1.3664517e-38
0.047905706 -0.056237124 0.72900003 1.4771956e-38
0.049429528 -0.056391396 0.73099995 1.5876175e-38
0.050821908 -0.056391425 0.73100001 1.3663553e-38
0.052214287 -0.05639144 0.73100001 1.1535511e-38
0.053606678 -0.056391425 0.73099995 9.0365408e-39
0.054999039 -0.056391425 0.73100001 6.5465862e-39
0.056468561 -0.056468569 0.73200005 7.0997571e-39
0.057862855 -0.056468554 0.73200005 7.7440237e-39
0.059176192 -0.056391411 0.73100001 7.9273192e-39
0.060568571 -0.056391425 0.73100001 8.1113265e-39
0.061960962 -0.056391425 0.73099995 8.0187497e-39
-0.004773336 -0.053870462 0.71600002 2.2958513e-38
-0.0034000059 -0.05371999 0.71400005 2.2497872e-38
-0.0020371494 -0.053644754 0.71300006 2.268044e-38
-0.00067905756 -0.053644769 0.71300006 2.2864839e-38
0.00067904452 -0.053644754 0.71300006 2.231563e-38
0.0020371461 -0.053644754 0.71300006 2.1668844e-38
0.003400004 -0.053719975 0.71400005 2.2589001e-38
0.0047733262 -0.053870462 0.71600002 2.3417323e-38
0.0061371257 -0.053870492 0.71600002 2.341769e-38
0.00751143 -0.053945713 0.71700001 2.341769e-38
0.0088771312 -0.053945713 0.71700001 2.341769e-38
0.010242857 -0.053945713 0.71700001 2.341769e-38
0.011608569 -0.053945713 0.71700001 2.341769e-38
0.01297428 -0.053945713 0.71700001 2.341769e-38
0.014379998 -0.054096185 0.71900004 2.341769e-38
0.01574952 -0.054096185 0.71900004 2.341769e-38
0.017119044 -0.0540962 0.71900004 2.341769e-38
0.018514279 -0.054171436 0.72000003 2.341769e-38
0.019885702 -0.054171436 0.72000009 2.341769e-38
0.021257138 -0.054171406 0.72000003 2.3410102e-38
0.022628576 -0.054171421 0.72000003 1.8342233e-38
0.024066666 -0.054321878 0.72200006 1.3182556e-38
0.025441902 -0.054321893 0.72200012 1.2979123e-38
0.026817149 -0.054321893 0.72200006 1.2729851e-38
0.028231423 -0.054397143 0.72300005 1.5689438e-38
0.029608572 -0.054397143 0.72300005 1.8526595e-38
0.030985717 -0.054397129 0.72300005 1.6039805e-38
0.032452382 -0.0545476 0.72500002 1.3548758e-38
0.03383334 -0.0545476 0.72500002 1.2165118e-38
0.035214283 -0.0545476 0.72500002 1.0795208e-38
0.036595229 -0.0545476 0.72500002 1.5125198e-38
0.037976187 -0.054547615 0.72500002 1.9457267e-38
0.039411433 -0.054622851 0.72599995 2.1489145e-38
0.040906668 -0.054773323 0.72800004 2.3417659e-38
0.042293333 -0.054773323 0.72799999 1.9744208e-38
0.043679994 -0.054773323 0.72800004 1.6050195e-38
0.045128573 -0.054848544 0.72899997 1.4933676e-38
0.046517141 -0.054848544 0.72900003 1.3846742e-38
0.047905721 -0.054848544 0.72900003 1.5051749e-38
0.049429517 -0.054999046 0.73100001 1.62435e-38
0.050821908 -0.054999046 0.73099995 1.3851514e-38
0.052214287 -0.054999046 0.73100001 1.1347886e-38
0.053606667 -0.054999031 0.73100001 9.033308e-39
0.054999053 -0.054999031 0.73099995 6.640909e-39
0.056468569 -0.055074267 0.73200005 7.191552e-39
0.057862859 -0.055074252 0.73199999 7.6507295e-39
0.059257139 -0.055074267 0.73199999 7.8340431e-39
0.060651429 -0.055074267 0.73199999 8.0184372e-39
-0.0047733444 -0.052506678 0.71600002 2.3141825e-38
-0.003409537 -0.052506663 0.71600002 2.2865213e-38
-0.0020371466 -0.052286662 0.71300006 2.2035434e-38
-0.00067906315 -0.052286677 0.71300006 2.1209276e-38
0.00067903986 -0.052286662 0.71300006 2.1207485e-38
0.0020400006 -0.052359991 0.71400005 2.1295031e-38
0.0034095179 -0.052506663 0.71600002 2.231241e-38
0.0047733174 -0.052506678 0.71600008 2.3417677e-38
0.0061456989 -0.052579992 0.71700001 2.341769e-38
0.0075114253 -0.052579992 0.71700001 2.341769e-38
0.0088771367 -0.052579977 0.71700001 2.341769e-38
0.010242863 -0.052579977 0.71700001 2.341769e-38
0.011608563 -0.052579992 0.71700001 2.341769e-38
0.013010472 -0.052726664 0.71900004 2.341769e-38
0.014379995 -0.052726679 0.71900004 2.341769e-38
0.015749518 -0.052726664 0.71900004 2.341769e-38
0.017142856 -0.052799977 0.72000003 2.341769e-38
0.018514281 -0.052799977 0.72000003 2.341769e-38
0.019885702 -0.052800007 0.72000003 2.341769e-38
0.021257138 -0.052799992 0.72000003 2.3417651e-38
0.022691423 -0.052946649 0.72200006 1.9913513e-38
0.024066659 -0.052946649 0.72200012 1.6404313e-38
0.025441894 -0.052946664 0.72200012 1.4468512e-38
0.026817141 -0.052946649 0.72200006 1.2639055e-38
0.028231429 -0.053019993 0.72299999 1.4759242e-38
0.029608577 -0.053020008 0.72299999 1.687573e-38
0.030985722 -0.053019993 0.72299999 1.5489554e-38
0.032452378 -0.053166665 0.72499996 1.4101223e-38
0.03383334 -0.05316665 0.72499996 1.2164389e-38
0.035214283 -0.05316665 0.72499996 1.0330274e-38
0.036595244 -0.053166635 0.72500002 1.3278779e-38
0.038028583 -0.053239979 0.72600001 1.6143286e-38
0.039411437 -0.053239994 0.72599995 1.9739607e-38
0.040906664 -0.053386651 0.72800004 2.3417645e-38
0.042293329 -0.053386651 0.72799999 2.0013588e-38
0.043740001 -0.05345998 0.72899997 1.6596889e-38
0.045128569 -0.05345998 0.72900003 1.521743e-38
0.046517134 -0.05345998 0.72900003 1.3848883e-38
0.048037127 -0.053606667 0.73100001 1.4957024e-38
0.049429521 -0.053606667 0.73099995 1.6153083e-38
0.0508219 -0.053606667 0.73100001 1.3659937e-38
0.05221428 -0.053606652 0.73100001 1.1063043e-38
0.053680006 -0.053679995 0.73200005 8.9393159e-39
0.055074297 -0.053679995 0.73199999 6.7302109e-39
0.056468572 -0.05367998 0.73199999 7.1907925e-39
0.057862852 -0.053679995 0.73200005 7.6496295e-39
0.059257131 -0.05367998 0.73200005 7.8340361e-39
0.060568579 -0.053606682 0.73100001 8.1095777e-39
-0.0047733462 -0.051142864 0.71600008 2.3325854e-38
-0.0034095277 -0.051142849 0.71600002 2.3230764e-38
-0.0020371513 -0.05092857 0.71300006 2.1386135e-38
-0.00067905849 -0.05092857 0.71300006 1.9553743e-38
0.00067904359 -0.050928555 0.71300006 2.0193018e-38
0.0020399997 -0.050999992 0.71400005 2.0841254e-38
0.0034000021 -0.050999992 0.71400005 2.213198e-38
0.0047733197 -0.051142864 0.71600002 2.3417684e-38
0.006137134 -0.051142864 0.71600002 2.341769e-38
0.0075114304 -0.051214285 0.71700001 2.341769e-38
0.0088771321 -0.051214285 0.71700001 2.341769e-38
0.010271424 -0.051357143 0.7190001 2.341769e-38
0.011640947 -0.051357158 0.71900004 2.341769e-38
0.01301047 -0.051357143 0.71900004 2.341769e-38
0.014379993 -0.051357128 0.71900004 2.341769e-38
0.015771423 -0.051428579 0.72000003 2.341769e-38
0.017142856 -0.051428564 0.72000003 2.341769e-38
0.018565703 -0.051571436 0.72200012 2.341769e-38
0.01994095 -0.051571406 0.72200006 2.341769e-38
0.021316184 -0.051571436 0.72200012 2.341767e-38
0.022691431 -0.051571421 0.72200006 2.1489105e-38
0.024066651 -0.051571406 0.72200012 1.954252e-38
0.025477149 -0.051642857 0.72300005 1.6035449e-38
0.026854279 -0.051642828 0.72300005 1.2547542e-38
0.028231427 -0.051642857 0.72300005 1.3831851e-38
0.029608572 -0.051642857 0.72300005 1.5123651e-38
0.03098572 -0.051642843 0.72300005 1.4849944e-38
0.032362863 -0.051642857 0.72300005 1.4560762e-38
0.033833329 -0.051785715 0.72500002 1.2244744e-38
0.035214283 -0.0517857 0.72499996 9.8642317e-39
0.03659524 -0.0517857 0.72499996 1.1332201e-38
0.037976198 -0.051785685 0.72499996 1.2827827e-38
0.03941144 -0.051857121 0.72599995 1.8091217e-38
0.040906675 -0.051999994 0.72800004 2.3325812e-38
0.04229334 -0.051999979 0.72799999 2.0295213e-38
0.043739997 -0.052071415 0.72899997 1.7154728e-38
0.045128565 -0.052071415 0.72900003 1.5490425e-38
0.046517134 -0.052071415 0.72900003 1.3756347e-38
0.04790571 -0.052071415 0.72899997 1.4957775e-38
0.049429525 -0.052214287 0.73100001 1.6057331e-38
0.050821885 -0.052214272 0.73100001 1.347988e-38
0.05221428 -0.052214287 0.73099995 1.0790053e-38
0.053680003 -0.052285708 0.73200005 8.8388568e-39
0.055074293 -0.052285694 0.73200005 6.8216947e-39
0.056468569 -0.052285694 0.73200005 7.191538e-39
0.057862859 -0.052285694 0.73200005 7.5592443e-39
0.059257139 -0.052285694 0.73200005 7.9269506e-39
0.060651429 -0.052285694 0.73199999 8.2024711e-39
-0.0061628646 -0.049987622 0.71900004 2.341769e-38
-0.0047800024 -0.049848579 0.71700001 2.341769e-38
-0.0034095361 -0.04977905 0.71600002 2.3325115e-38
-0.0020371466 -0.049570464 0.71300006 2.1758865e-38
-0.00067999912 -0.049639978 0.71400005 2.0293108e-38
0.00067999633 -0.049639992 0.71400005 2.1210409e-38
0.0020399988 -0.049640007 0.71400005 2.2131993e-38
0.0034095114 -0.04977905 0.71600002 2.2774842e-38
0.0047733258 -0.049779065 0.71600002 2.341769e-38
0.0061457106 -0.049848564 0.71700001 2.341769e-38
0.0075114253 -0.049848564 0.71700001 2.341769e-38
0.0089018987 -0.049987622 0.7190001 2.341769e-38
0.010271422 -0.049987622 0.71900004 2.341769e-38
0.011640945 -0.049987637 0.71900004 2.341769e-38
0.013028566 -0.05005715 0.72000009 2.341769e-38
0.014400001 -0.050057121 0.72000003 2.341769e-38
0.015815241 -0.050196178 0.72200006 2.341769e-38
0.017190462 -0.050196178 0.72200012 2.341769e-38
0.018591436 -0.050265707 0.72299999 2.341769e-38
0.019940944 -0.050196163 0.72200012 2.341769e-38
0.021316187 -0.050196178 0.72200006 2.341769e-38
0.022722861 -0.050265692 0.72299999 2.2498618e-38
0.024099998 -0.050265707 0.72300005 2.1486149e-38
0.025477143 -0.050265722 0.72300005 1.8715173e-38
0.026854277 -0.050265707 0.72300005 1.6041199e-38
0.028231423 -0.050265707 0.72300005 1.5211468e-38
0.029608572 -0.050265722 0.72300005 1.4477186e-38
0.030985717 -0.050265722 0.72300005 1.4201364e-38
0.032452382 -0.050404735 0.72500002 1.401621e-38
0.033833329 -0.050404735 0.72500002 1.3179597e-38
0.035214286 -0.050404765 0.72500002 1.2345535e-38
0.036645714 -0.050474279 0.72600001 1.1607254e-38
0.038028587 -0.050474264 0.72599995 1.0886671e-38
0.039520003 -0.050613336 0.72800004 1.5593349e-38
0.040906671 -0.050613321 0.72800004 2.0203408e-38
0.042351432 -0.050682835 0.72899997 1.854426e-38
0.043740001 -0.050682835 0.72900003 1.687959e-38
0.045128569 -0.050682835 0.72900003 1.5314647e-38
0.046517149 -0.05068282 0.72899997 1.3851069e-38
0.048037134 -0.050821908 0.73100001 1.4864538e-38
0.049429521 -0.050821878 0.73099995 1.5965526e-38
0.0508219 -0.050821878 0.73100001 1.3199018e-38
0.052214283 -0.050821893 0.73100001 1.0421642e-38
0.053606674 -0.050821908 0.73099995 8.661629e-39
0.055074297 -0.050891422 0.73200005 7.0057314e-39
0.056468572 -0.050891407 0.73199999 7.3748783e-39
0.057862867 -0.050891407 0.73199999 7.7440069e-39
0.059257131 -0.050891422 0.73200005 7.9276695e-39
0.060817156 -0.051030464 0.73399997 8.2031718e-39
0.062215235 -0.051030479 0.73400003 7.8354669e-39
0.063613325 -0.051030479 0.73400003 7.5599576e-39
-0.0061628674 -0.048618086 0.71900004 2.341769e-38
-0.004780008 -0.048482843 0.71700001 2.341769e-38
-0.0034095361 -0.048415236 0.71600008 2.3415514e-38
-0.0020371513 -0.048212372 0.71300006 2.221517e-38
-0.00067904918 -0.048212372 0.71300006 2.0933436e-38
0.0006799954 -0.048279993 0.71400005 2.2223812e-38
0.0020399992 -0.048279978 0.71400005 2.3417323e-38
0.0034095026 -0.048415236 0.71600008 2.341769e-38
0.0047733281 -0.048415236 0.71600002 2.341769e-38
0.0061457059 -0.048482873 0.71700001 2.341769e-38
0.0075323726 -0.048618086 0.7190001 2.341769e-38
0.008901896 -0.048618101 0.71900004 2.341769e-38
0.010271419 -0.048618086 0.71900004 2.341769e-38
0.011640942 -0.048618101 0.71900004 2.341769e-38
0.013028568 -0.048685722 0.72000009 2.341769e-38
0.014439998 -0.048820935 0.72200006 2.341769e-38
0.015815234 -0.04882095 0.72200006 2.341769e-38
0.017214285 -0.048888557 0.72299999 2.341769e-38
0.018591432 -0.048888542 0.72299999 2.341769e-38
0.019968579 -0.048888557 0.72299999 2.341769e-38
0.021345712 -0.048888572 0.72299999 2.341769e-38
0.022722859 -0.048888557 0.72299999 2.341769e-38
0.024100006 -0.048888557 0.72299999 2.3415116e-38
0.025477152 -0.048888572 0.72299999 2.1482203e-38
0.026854286 -0.048888557 0.72299999 1.9451011e-38
0.028231433 -0.048888542 0.72299999 1.6679036e-38
0.029608579 -0.048888572 0.72299999 1.3835744e-38
0.031071441 -0.049023785 0.72499996 1.3645278e-38
0.032452382 -0.0490238 0.72499996 1.3373715e-38
0.033833329 -0.049023785 0.72499996 1.4111625e-38
0.035214286 -0.049023785 0.72499996 1.4831194e-38
0.036645718 -0.049091406 0.72599995 1.1864788e-38
0.03802859 -0.049091406 0.72599995 8.9501788e-39
0.039519995 -0.049226679 0.72800004 1.3007533e-38
0.040906664 -0.049226664 0.72800004 1.7063739e-38
0.042351428 -0.049294256 0.72900003 1.6799014e-38
0.043739997 -0.049294285 0.72900003 1.6512264e-38
0.045128576 -0.049294271 0.72899997 1.5221421e-38
0.046644762 -0.049429543 0.73100001 1.3942187e-38
0.048037149 -0.049429514 0.73099995 1.4867006e-38
0.049429528 -0.049429514 0.73100001 1.5782191e-38
0.050821897 -0.049429514 0.73100001 1.2928175e-38
0.052214287 -0.049429514 0.73099995 1.0055014e-38
0.05368001 -0.04949712 0.73199999 8.5633335e-39
0.055074293 -0.049497135 0.73200005 7.0968494e-39
0.056622855 -0.049632363 0.73399997 7.5581947e-39
0.058020949 -0.049632378 0.73400003 7.9266045e-39
0.05941904 -0.049632378 0.73400003 8.0195078e-39
0.060817141 -0.049632378 0.73400003 8.1113391e-39
0.062215231 -0.049632378 0.73400003 7.9276625e-39
0.06335333 -0.049429528 0.73100001 7.7432712e-39
-0.0061628609 -0.04724858 0.71900004 2.341769e-38
-0.004793338 -0.047248565 0.71900004 2.341769e-38
-0.0034095352 -0.047051422 0.71600002 2.3417665e-38
-0.002040003 -0.046919994 0.71400005 2.1664872e-38
-0.00068000751 -0.046919994 0.71400005 1.982853e-38
0.00067999633 -0.046919994 0.71400011 2.1484089e-38
0.0020399983 -0.046919994 0.71400011 2.3140014e-38
0.0034095198 -0.047051422 0.71600002 2.323366e-38
0.0047733197 -0.047051437 0.71600002 2.341769e-38
0.0061628469 -0.047248565 0.7190001 2.341769e-38
0.0075323698 -0.047248565 0.71900004 2.341769e-38
0.0089018932 -0.047248565 0.71900004 2.341769e-38
0.010271417 -0.04724858 0.71900004 2.341769e-38
0.011657144 -0.047314279 0.72000003 2.341769e-38
0.013064746 -0.047445722 0.72200012 2.341769e-38
0.014460003 -0.047511436 0.72300005 2.341769e-38
0.015837135 -0.047511421 0.72300005 2.341769e-38
0.017214281 -0.047511421 0.72300005 2.341769e-38
0.018591428 -0.047511406 0.72300005 2.341769e-38
0.019968575 -0.047511421 0.72300005 2.341769e-38
0.021345707 -0.047511421 0.72300005 2.341769e-38
0.022722853 -0.047511421 0.72300005 2.341769e-38
0.0241 -0.047511421 0.72300005 2.341769e-38
0.025477136 -0.047511421 0.72300005 2.2405706e-38
0.026854282 -0.047511406 0.72300005 2.1488671e-38
0.028231429 -0.047511421 0.72300005 1.9822603e-38
0.029608576 -0.047511421 0.72300005 1.8163823e-38
0.03107143 -0.047642849 0.72500002 1.6595442e-38
0.032452371 -0.047642834 0.72500002 1.5119301e-38
0.033833332 -0.047642864 0.72500002 1.4847784e-38
0.035214275 -0.047642849 0.72500002 1.466618e-38
0.036645722 -0.047708549 0.72599995 1.2441954e-38
0.038133338 -0.047839977 0.72800004 1.0327299e-38
0.039520003 -0.047839992 0.72799999 1.1341148e-38
0.040906675 -0.047839992 0.72800004 1.2367172e-38
0.042351425 -0.047905706 0.72900003 1.3935598e-38
0.043739993 -0.047905706 0.72900003 1.5495631e-38
0.045128573 -0.047905691 0.72899997 1.5039947e-38
0.046644758 -0.048037134 0.73100001 1.4583602e-38
0.048037142 -0.048037134 0.73100001 1.5323986e-38
0.049429532 -0.048037134 0.73099995 1.6062339e-38
0.050821912 -0.048037149 0.73099995 1.3199734e-38
0.052285716 -0.048102848 0.73200005 1.032765e-38
0.053680003 -0.048102848 0.73200005 8.6598297e-39
0.055224758 -0.048234276 0.73400003 7.0961334e-39
0.056622863 -0.048234276 0.73400003 7.4660033e-39
0.058179051 -0.04836569 0.73600006 7.8340544e-39
0.059580967 -0.048365705 0.73600006 7.9269576e-39
0.060817141 -0.048234276 0.73400003 7.9276695e-39
0.062384766 -0.048365705 0.73600006 7.6517987e-39
-0.0062142876 -0.046261884 0.72500002 2.341769e-38
-0.0047933436 -0.045879044 0.7190001 2.341769e-38
-0.0034142961 -0.04575143 0.71700001 2.3414051e-38
-0.0020400039 -0.045559995 0.71400005 2.1106631e-38
-0.00068000844 -0.045559995 0.71400005 1.8724331e-38
0.00068189716 -0.045687623 0.71600002 2.0744395e-38
0.0020456966 -0.045687623 0.71600002 2.2771962e-38
0.0034142793 -0.045751415 0.71700001 2.3142183e-38
0.004779995 -0.045751415 0.71700007 2.341769e-38
0.0061628451 -0.045879044 0.71900004 2.341769e-38
0.0075323684 -0.045879044 0.71900004 2.341769e-38
0.0089019062 -0.045879059 0.71900004 2.341769e-38
0.010285722 -0.04594285 0.72000003 2.341769e-38
0.011689518 -0.046070449 0.72200012 2.341769e-38
0.013064764 -0.046070464 0.72200006 2.341769e-38
0.01446001 -0.046134271 0.72299999 2.341769e-38
0.015837142 -0.046134271 0.72299999 2.341769e-38
0.017214291 -0.046134286 0.72299999 2.341769e-38
0.018591437 -0.046134256 0.72299999 2.341769e-38
0.019968569 -0.046134256 0.72299999 2.341769e-38
0.021345716 -0.046134286 0.72299999 2.341769e-38
0.022722863 -0.046134271 0.72299999 2.341769e-38
0.024100009 -0.046134271 0.72299999 2.341769e-38
0.025477156 -0.046134271 0.72299999 2.341769e-38
0.02685429 -0.046134271 0.72299999 2.3417633e-38
0.028231435 -0.046134286 0.72299999 2.2958398e-38
0.029690485 -0.046261884 0.72499996 2.2398761e-38
0.03107143 -0.046261884 0.72499996 1.9636507e-38
0.032452375 -0.046261899 0.72500002 1.6877106e-38
0.033833332 -0.046261884 0.72500002 1.5677832e-38
0.03521429 -0.046261869 0.72500002 1.438852e-38
0.036645725 -0.046325676 0.72599995 1.3093468e-38
0.038028587 -0.046325706 0.72600001 1.1708401e-38
0.039519995 -0.046453305 0.72799999 9.6625499e-39
0.040906671 -0.046453319 0.72800004 7.6702061e-39
0.042351425 -0.046517126 0.72900003 1.1080731e-38
0.043740004 -0.046517111 0.72899997 1.4486497e-38
0.045128573 -0.046517126 0.72899997 1.485954e-38
0.046644755 -0.04664474 0.73100001 1.5137877e-38
0.048037145 -0.046644755 0.73099995 1.5691003e-38
0.049429525 -0.04664477 0.73100001 1.6241e-38
0.050821904 -0.046644755 0.73100001 1.3388062e-38
0.052285716 -0.046708561 0.73200005 1.0511315e-38
0.053680006 -0.046708561 0.73199999 8.8352457e-39
0.055224754 -0.04683619 0.73400003 7.0961306e-39
0.056622859 -0.04683619 0.73400003 7.4667222e-39
0.058179051 -0.046963803 0.73600006 7.7422189e-39
0.059580952 -0.046963803 0.73600006 7.7429279e-39
0.060982868 -0.046963789 0.73600006 7.7436398e-39
0.062384769 -0.046963803 0.73600006 7.3755747e-39
-0.0076266653 -0.045066647 0.72800004 2.341769e-38
-0.0062228595 -0.044942833 0.72600001 2.341769e-38
-0.0048000128 -0.044571422 0.72000009 2.341769e-38
-0.0034142905 -0.044385709 0.71700001 2.3417612e-38
-0.0020457269 -0.044323809 0.71600002 2.1206664e-38
-0.00068191951 -0.044323824 0.71600002 1.9003764e-38
0.00068188785 -0.044323824 0.71600008 2.0840548e-38
0.0020457134 -0.044323809 0.71600002 2.2774837e-38
0.0034142742 -0.044385709 0.71700001 2.3050348e-38
0.0047800001 -0.044385709 0.71700001 2.341769e-38
0.0061628572 -0.044509523 0.71900004 2.341769e-38
0.0075323805 -0.044509523 0.71900004 2.341769e-38
0.0089142742 -0.044571452 0.72000003 2.341769e-38
0.010314276 -0.044695236 0.72200006 2.341769e-38
0.01168951 -0.044695221 0.72200012 2.341769e-38
0.013082861 -0.044757135 0.72300005 2.341769e-38
0.014459993 -0.04475712 0.72300005 2.341769e-38
0.01583714 -0.044757135 0.72300005 2.341769e-38
0.017214285 -0.044757135 0.72300005 2.341769e-38
0.018591432 -0.044757135 0.72300005 2.341769e-38
0.019968566 -0.044757135 0.72300005 2.341769e-38
0.021345712 -0.044757135 0.72300005 2.341769e-38
0.022722861 -0.04475712 0.72300005 2.341769e-38
0.024100007 -0.044757135 0.72300005 2.341769e-38
0.025477139 -0.04475712 0.72300005 2.341769e-38
0.026928572 -0.044880934 0.72500002 2.341769e-38
0.028309515 -0.044880949 0.72500002 2.3142183e-38
0.029690476 -0.044880934 0.72500002 2.2958486e-38
0.03107143 -0.044880934 0.72499996 2.1575546e-38
0.032452386 -0.044880934 0.72499996 2.0197548e-38
0.033880003 -0.044942833 0.72600001 1.8810941e-38
0.035262857 -0.044942833 0.72599995 1.7422676e-38
0.036645718 -0.044942848 0.72600001 1.5952979e-38
0.038133338 -0.045066647 0.72800004 1.4576091e-38
0.039520007 -0.045066632 0.72799999 1.2355104e-38
0.04096286 -0.045128547 0.72900003 1.0244028e-38
0.042351436 -0.045128562 0.72899997 1.2368148e-38
0.043740004 -0.045128547 0.72899997 1.4488989e-38
0.045128573 -0.045128562 0.72900003 1.4675904e-38
0.046644755 -0.04525239 0.73099995 1.4957468e-38
0.048037134 -0.04525239 0.73100001 1.5599917e-38
0.049429514 -0.045252375 0.73100001 1.6241013e-38
0.0508219 -0.04525236 0.73099995 1.3286892e-38
0.052285723 -0.04531426 0.73199999 1.0320464e-38
0.053680003 -0.045314275 0.73200005 8.6576675e-39
0.05522475 -0.045438103 0.73400003 7.0986403e-39
0.056622855 -0.045438074 0.73400003 7.4663648e-39
0.058179058 -0.045561902 0.73600006 7.7407853e-39
0.059580959 -0.045561902 0.73600006 7.7432852e-39
0.060982857 -0.045561887 0.73600006 7.7450747e-39
0.062384773 -0.045561887 0.73600006 7.4684864e-39
0.06361334 -0.045438088 0.73400003 7.2844819e-39
-0.0076057189 -0.043559991 0.72600001 2.341769e-38
-0.0062142918 -0.043499984 0.72500002 2.341769e-38
-0.0048000119 -0.043200009 0.72000009 2.341769e-38
-0.0034238189 -0.043140002 0.71900004 2.34162e-38
-0.0020457278 -0.04296001 0.71600008 2.1390743e-38
-0.0006819102 -0.042959996 0.71600002 1.9277842e-38
0.00068189716 -0.042959996 0.71600002 2.1022749e-38
0.0020457045 -0.042959996 0.71600002 2.2680474e-38
0.0034142798 -0.043020003 0.71700001 2.3050348e-38
0.0047800057 -0.043020003 0.71700001 2.341769e-38
0.0061628548 -0.043140002 0.71900004 2.341769e-38
0.0075323777 -0.043139987 0.71900004 2.341769e-38
0.0089142751 -0.043200009 0.72000003 2.341769e-38
0.010314284 -0.043319993 0.72200012 2.341769e-38
0.011689514 -0.043319993 0.72200006 2.341769e-38
0.013082856 -0.043380015 0.72300005 2.341769e-38
0.014459989 -0.04338 0.72300005 2.341769e-38
0.015837137 -0.04338 0.72300005 2.341769e-38
0.017214283 -0.04338 0.72300005 2.341769e-38
0.01859143 -0.043379985 0.72300005 2.341769e-38
0.019968562 -0.043379985 0.72300005 2.341769e-38
0.02134571 -0.043379985 0.72300005 2.341769e-38
0.022722857 -0.04338 0.72300005 2.341769e-38
0.024100004 -0.04338 0.72300005 2.341769e-38
0.025477136 -0.04338 0.72300005 2.341769e-38
0.02692857 -0.043499984 0.72500002 2.341769e-38
0.02830953 -0.043499984 0.72500002 2.341769e-38
0.029690472 -0.043499999 0.72500002 2.3417677e-38
0.031071432 -0.043499984 0.72500002 2.3417663e-38
0.032497153 -0.043559976 0.72600001 2.3415458e-38
0.033880007 -0.043559976 0.72599995 2.1945319e-38
0.035360008 -0.04367999 0.72799999 2.0376194e-38
0.036746666 -0.04367999 0.72800004 1.8902851e-38
0.038133334 -0.04367999 0.72800004 1.7335826e-38
0.039520003 -0.043679975 0.72799999 1.5121649e-38
0.040962849 -0.043739967 0.72899997 1.2826891e-38
0.042351432 -0.043739997 0.72899997 1.3659204e-38
0.043740001 -0.043739982 0.72900003 1.4397493e-38
0.045128569 -0.043739982 0.72900003 1.4581539e-38
0.046644758 -0.043859996 0.73100001 1.477056e-38
0.048037149 -0.043859996 0.73099995 1.5509877e-38
0.049429528 -0.043859996 0.73100001 1.6147755e-38
0.050821893 -0.043859996 0.73100001 1.3106472e-38
0.052285716 -0.043920003 0.73200005 1.0049992e-38
0.05382666 -0.044040002 0.73400003 8.5597378e-39
0.055224761 -0.044039987 0.73400003 7.0968466e-39
0.056777146 -0.044159986 0.73600006 7.4667194e-39
0.058179043 -0.044159986 0.73600006 7.7429349e-39
0.059580959 -0.044160001 0.73600006 7.7440027e-39
0.060982861 -0.044159986 0.73600006 7.6525147e-39
-0.0076057161 -0.042177118 0.72600001 2.341769e-38
-0.0061714356 -0.041828565 0.72000003 2.341769e-38
-0.0048000109 -0.04182858 0.72000009 2.3050348e-38
-0.0034238133 -0.041770466 0.71900004 2.2682977e-38
-0.0020457259 -0.041596197 0.71600002 2.1759569e-38
-0.00068191858 -0.041596197 0.71600002 2.0928018e-38
0.00068188878 -0.041596197 0.71600002 2.2035057e-38
0.0020456961 -0.041596197 0.71600008 2.3047798e-38
0.0034142747 -0.041654296 0.71700001 2.3233302e-38
0.0047799861 -0.041654296 0.71700001 2.341769e-38
0.0061628525 -0.041770466 0.71900004 2.341769e-38
0.0075323652 -0.041770481 0.7190001 2.341769e-38
0.0089390408 -0.04194475 0.72200006 2.341769e-38
0.010328571 -0.042002834 0.72299999 2.341769e-38
0.011705718 -0.042002849 0.72299999 2.341769e-38
0.013082865 -0.042002849 0.72299999 2.341769e-38
0.014459996 -0.042002849 0.72299999 2.341769e-38
0.015837144 -0.042002849 0.72299999 2.341769e-38
0.017214289 -0.042002834 0.72299999 2.341769e-38
0.018591421 -0.042002834 0.72299999 2.3325854e-38
0.019968569 -0.042002849 0.72299999 2.3325854e-38
0.021345716 -0.042002834 0.72299999 2.341769e-38
0.022722863 -0.042002864 0.72299999 2.3232943e-38
0.024100009 -0.042002864 0.72299999 2.3050348e-38
0.025547625 -0.042119019 0.72499996 2.3234019e-38
0.026928587 -0.042119019 0.72499996 2.341769e-38
0.02830953 -0.042119034 0.72499996 2.341769e-38
0.029690474 -0.042119034 0.72499996 2.341769e-38
0.031114286 -0.042177118 0.72600001 2.341769e-38
0.032497153 -0.042177118 0.72599995 2.341769e-38
0.03397334 -0.042293318 0.72800004 2.2682289e-38
0.035360005 -0.042293318 0.72799999 2.1948234e-38
0.036797136 -0.042351417 0.72900003 2.1023332e-38
0.038185701 -0.042351417 0.72900003 2.0191343e-38
0.039574295 -0.042351402 0.72899997 1.7428657e-38
0.040962864 -0.042351417 0.72899997 1.4670765e-38
0.042351432 -0.042351417 0.72900003 1.4397095e-38
0.043740001 -0.042351402 0.72900003 1.4124835e-38
0.045128569 -0.042351417 0.72900003 1.430673e-38
0.046644762 -0.042467587 0.73099995 1.458437e-38
0.048037142 -0.042467616 0.73100001 1.550665e-38
0.049429521 -0.042467616 0.73100001 1.6427577e-38
0.050821912 -0.042467602 0.73099995 1.3196178e-38
0.052285723 -0.042525686 0.73199999 1.0050006e-38
0.053826671 -0.0426419 0.73400003 8.5676341e-39
0.055375233 -0.042758085 0.73600006 7.0982816e-39
0.056777149 -0.042758085 0.73600006 7.4667152e-39
0.058179047 -0.042758085 0.73600006 7.8358452e-39
0.059580948 -0.042758085 0.73600006 7.7440027e-39
0.060982868 -0.042758085 0.73600006 7.7443446e-39
-0.0075952471 -0.040738083 0.72500002 2.341769e-38
-0.0061971513 -0.040625714 0.72300005 2.341769e-38
-0.004793338 -0.04040096 0.71900004 2.2683006e-38
-0.0034142942 -0.040288575 0.71700001 2.1854677e-38
-0.0020457269 -0.040232383 0.71600002 2.2219494e-38
-0.00068190927 -0.040232383 0.71600002 2.2587548e-38
0.00068189809 -0.040232368 0.71600002 2.3050309e-38
0.0020485693 -0.04028856 0.71700001 2.3416953e-38
0.0034142802 -0.04028856 0.71700001 2.341769e-38
0.0047933278 -0.04040096 0.71900004 2.341769e-38
0.0061628395 -0.040400974 0.7190001 2.341769e-38
0.0075323773 -0.040400945 0.7190001 2.341769e-38
0.0089390343 -0.040569507 0.72200012 2.341769e-38
0.010328568 -0.040625699 0.72300005 2.341769e-38
0.011705715 -0.040625699 0.72300005 2.341769e-38
0.013082862 -0.040625714 0.72300005 2.341769e-38
0.014459994 -0.040625714 0.72300005 2.341769e-38
0.01583714 -0.040625714 0.72300005 2.341769e-38
0.017214289 -0.040625714 0.72300005 2.3325854e-38
0.018591436 -0.040625714 0.72300005 2.323366e-38
0.019968567 -0.040625699 0.72300005 2.3325854e-38
0.021345714 -0.040625699 0.72300005 2.3324777e-38
0.022722861 -0.040625714 0.72300005 2.2954565e-38
0.024099993 -0.040625714 0.72300005 2.2590093e-38
0.025547614 -0.040738083 0.72500002 2.3050348e-38
0.026928576 -0.040738083 0.72500002 2.341769e-38
0.028309518 -0.040738083 0.72500002 2.341769e-38
0.029731443 -0.040794246 0.72599995 2.341769e-38
0.03111429 -0.040794246 0.72600001 2.341769e-38
0.032586668 -0.04090666 0.72800004 2.341769e-38
0.033973336 -0.04090666 0.72800004 2.341769e-38
0.035408568 -0.040962838 0.72900003 2.3417645e-38
0.036797136 -0.040962838 0.72900003 2.3233931e-38
0.038185701 -0.040962838 0.72900003 2.3044097e-38
0.03957428 -0.040962823 0.72899997 1.9822974e-38
0.040962849 -0.040962853 0.72900003 1.6515055e-38
0.042351428 -0.040962853 0.72900003 1.513353e-38
0.043860007 -0.041075237 0.73099995 1.3754238e-38
0.045252386 -0.041075222 0.73100001 1.4027267e-38
0.046644762 -0.041075222 0.73100001 1.4308158e-38
0.048037142 -0.041075222 0.73099995 1.5505253e-38
0.049429521 -0.041075237 0.73099995 1.660696e-38
0.050891425 -0.041131429 0.73200005 1.3291596e-38
0.052285716 -0.041131414 0.73200005 9.9595971e-39
0.053826667 -0.041243799 0.73400003 8.4707651e-39
0.055224754 -0.041243799 0.73400003 7.0053503e-39
0.056777149 -0.041356184 0.73600006 7.4663284e-39
0.058179066 -0.041356169 0.73600006 7.834755e-39
0.059580967 -0.041356184 0.73600006 7.835841e-39
0.061065719 -0.041412376 0.73700005 7.8354865e-39
-0.0076057096 -0.039411403 0.72599995 2.341769e-38
-0.0062142895 -0.039357133 0.72500002 2.341769e-38
-0.0047933408 -0.039031439 0.71900004 2.2681928e-38
-0.0034238207 -0.039031424 0.7190001 2.1853258e-38
-0.0020485702 -0.038922854 0.71700001 2.2405706e-38
-0.00068191765 -0.038868569 0.71600002 2.3050348e-38
0.00068284804 -0.038922854 0.71700001 2.3234019e-38
0.0020485739 -0.038922839 0.71700001 2.341769e-38
0.0034238021 -0.039031424 0.71900004 2.341769e-38
0.0047933147 -0.039031453 0.7190001 2.341769e-38
0.0061628525 -0.039031424 0.7190001 2.341769e-38
0.0075428546 -0.039085709 0.72000003 2.341769e-38
0.0089390418 -0.039194293 0.72200012 2.341769e-38
0.010328575 -0.039248548 0.72299999 2.341769e-38
0.011705722 -0.039248563 0.72299999 2.341769e-38
0.013082868 -0.039248548 0.72299999 2.341769e-38
0.01446 -0.039248563 0.72299999 2.341769e-38
0.015837148 -0.039248548 0.72299999 2.341769e-38
0.017214295 -0.039248548 0.72299999 2.323366e-38
0.018591428 -0.039248548 0.72299999 2.3049272e-38
0.019968575 -0.039248563 0.72299999 2.323366e-38
0.021345722 -0.039248548 0.72299999 2.3417689e-38
0.022785712 -0.039357118 0.72499996 2.3232939e-38
0.024166672 -0.039357103 0.72499996 2.304927e-38
0.025547614 -0.039357118 0.72499996 2.323366e-38
0.026928572 -0.039357133 0.72500002 2.341769e-38
0.028348574 -0.039411388 0.72599995 2.341769e-38
0.029731436 -0.039411403 0.72600001 2.341769e-38
0.031200008 -0.039519973 0.72799999 2.341769e-38
0.03258666 -0.039520003 0.72800004 2.341769e-38
0.034019995 -0.039574258 0.72900003 2.341769e-38
0.035408564 -0.039574273 0.72900003 2.341769e-38
0.036797132 -0.039574273 0.72900003 2.3325854e-38
0.038185708 -0.039574258 0.72899997 2.323398e-38
0.039574292 -0.039574273 0.72900003 2.1576237e-38
0.04107523 -0.039682858 0.73100001 2.001382e-38
0.04246762 -0.039682858 0.73099995 1.6607159e-38
0.04386 -0.039682843 0.73100001 1.3292164e-38
0.045252375 -0.039682858 0.73100001 1.3660631e-38
0.04664477 -0.039682843 0.73099995 1.4125935e-38
0.048102848 -0.039737143 0.73200005 1.5507083e-38
0.049497142 -0.039737143 0.73200005 1.6886787e-38
0.050891429 -0.039737128 0.73200005 1.4297476e-38
0.052428566 -0.039845698 0.73399997 1.1607247e-38
0.053826667 -0.039845698 0.73399997 9.304448e-39
0.055375252 -0.039954267 0.73600006 7.0975249e-39
0.056777153 -0.039954282 0.73600006 7.4659403e-39
0.058179054 -0.039954267 0.73600006 7.8340249e-39
0.059661895 -0.040008567 0.73700005 7.7432894e-39
0.061065722 -0.040008552 0.73700005 7.7425986e-39
-0.0075952411 -0.037976168 0.72499996 2.341769e-38
-0.0062142895 -0.037976168 0.72499996 2.3417684e-38
-0.0048000072 -0.03771428 0.72000009 2.2682277e-38
-0.0034238235 -0.037661903 0.7190001 2.1854329e-38
-0.0020485832 -0.037557147 0.71700001 2.2683006e-38
-0.0006828648 -0.037557133 0.71700001 2.341769e-38
0.00068285363 -0.037557133 0.71700001 2.341769e-38
0.0020485548 -0.037557133 0.71700001 2.341769e-38
0.0034237891 -0.037661918 0.7190001 2.341769e-38
0.0047933268 -0.037661903 0.7190001 2.341769e-38
0.0061628497 -0.037661903 0.71900004 2.341769e-38
0.0075428556 -0.03771428 0.72000003 2.341769e-38
0.0089390455 -0.037819035 0.72200006 2.341769e-38
0.010314282 -0.03781902 0.72200012 2.341769e-38
0.011689527 -0.037819035 0.72200006 2.341769e-38
0.013082851 -0.037871398 0.72300005 2.341769e-38
0.014459997 -0.037871428 0.72299999 2.341769e-38
0.015837144 -0.037871428 0.72299999 2.341769e-38
0.017214291 -0.037871428 0.72299999 2.3142183e-38
0.018591423 -0.037871428 0.72299999 2.286596e-38
0.019968569 -0.037871413 0.72299999 2.3141825e-38
0.021404756 -0.037976183 0.72500002 2.3417689e-38
0.022785716 -0.037976183 0.72500002 2.3417687e-38
0.02416666 -0.037976168 0.72500002 2.341733e-38
0.025547629 -0.037976168 0.72499996 2.341769e-38
0.026965724 -0.038028546 0.72599995 2.341769e-38
0.028348578 -0.038028531 0.72599995 2.341769e-38
0.029731425 -0.038028561 0.72600001 2.341769e-38
0.031200001 -0.038133301 0.72799999 2.341769e-38
0.032586657 -0.038133331 0.72800004 2.341769e-38
0.034019995 -0.038185708 0.72900003 2.341769e-38
0.035408564 -0.038185708 0.72900003 2.341769e-38
0.036797144 -0.038185693 0.72899997 2.341769e-38
0.038290475 -0.038290478 0.73100001 2.341767e-38
0.039682861 -0.038290463 0.73099995 2.3417651e-38
0.041075245 -0.038290478 0.73099995 2.341357e-38
0.042467609 -0.038290463 0.73100001 1.8081239e-38
0.043859985 -0.038290463 0.73100001 1.2740813e-38
0.045314286 -0.038342841 0.73200005 1.3288621e-38
0.046708561 -0.038342841 0.73200005 1.3849701e-38
0.048102852 -0.038342856 0.73200005 1.5510297e-38
0.049497142 -0.038342841 0.73199999 1.715979e-38
0.051030476 -0.038447611 0.73399997 1.522088e-38
0.052428573 -0.038447611 0.73399997 1.3271782e-38
0.053826679 -0.038447611 0.73399997 1.0225321e-38
0.055375241 -0.038552366 0.73600006 7.0982634e-39
0.056777142 -0.038552381 0.73600006 7.4659781e-39
0.058179058 -0.038552366 0.73600006 7.7429237e-39
0.059661917 -0.038604774 0.73700005 7.65217e-39
0.061231434 -0.038709514 0.73900002 7.5592765e-39
-0.0075952448 -0.036595233 0.72500002 2.341769e-38
-0.0062142932 -0.036595233 0.72500002 2.341768e-38
-0.0048000072 -0.036342852 0.72000009 2.2129102e-38
-0.0034238179 -0.036292382 0.71900004 2.0932741e-38
-0.0020485767 -0.036191426 0.71700001 2.1669946e-38
-0.00068286946 -0.036191441 0.71700007 2.2499335e-38
0.00068475818 -0.036292367 0.71900004 2.2866318e-38
0.0020542778 -0.036292382 0.7190001 2.3325854e-38
0.0034238012 -0.036292382 0.7190001 2.341769e-38
0.0047999979 -0.036342852 0.72000003 2.341769e-38
0.0061714225 -0.036342852 0.72000003 2.341769e-38
0.0075637931 -0.036443807 0.72200012 2.341769e-38
0.008939039 -0.036443792 0.72200006 2.341769e-38
0.010314276 -0.036443807 0.72200012 2.341769e-38
0.01168952 -0.036443792 0.72200006 2.341769e-38
0.013082847 -0.036494277 0.72300005 2.341769e-38
0.014459995 -0.036494277 0.72300005 2.341769e-38
0.015837142 -0.036494292 0.72300005 2.341769e-38
0.017214289 -0.036494277 0.72300005 2.3141825e-38
0.018591421 -0.036494277 0.72300005 2.2957078e-38
0.020023812 -0.036595218 0.72499996 2.3141823e-38
0.021404756 -0.036595218 0.72500002 2.3417689e-38
0.022785714 -0.036595218 0.72500002 2.3325494e-38
0.024166673 -0.036595233 0.72500002 2.3325854e-38
0.025547618 -0.036595218 0.72500002 2.3141825e-38
0.026928576 -0.036595233 0.72500002 2.3050348e-38
0.028348571 -0.036645703 0.72600001 2.3234019e-38
0.029731426 -0.036645703 0.72599995 2.341769e-38
0.031114297 -0.036645703 0.72599995 2.341769e-38
0.032631427 -0.036797114 0.72900003 2.341769e-38
0.034019992 -0.036797144 0.72900003 2.341769e-38
0.035408571 -0.036797114 0.72899997 2.341769e-38
0.036898099 -0.036898099 0.73100001 2.341769e-38
0.038290475 -0.036898084 0.73099995 2.341769e-38
0.039682854 -0.036898099 0.73100001 2.341769e-38
0.041075233 -0.036898084 0.73100001 2.3417561e-38
0.042525712 -0.036948569 0.73200005 1.7984428e-38
0.043920003 -0.036948569 0.73200005 1.2546042e-38
0.045314293 -0.036948554 0.73199999 1.3473722e-38
0.04683619 -0.037049495 0.73399997 1.4310305e-38
0.048234291 -0.037049524 0.73399997 1.5507772e-38
0.049632378 -0.037049524 0.73399997 1.6612369e-38
0.051030483 -0.03704951 0.73399997 1.3934851e-38
0.052428562 -0.037049539 0.73400003 1.1257516e-38
0.053826664 -0.037049524 0.73400003 9.1243784e-39
0.055375248 -0.037150465 0.73600006 6.9099513e-39
0.056777149 -0.037150465 0.73600006 7.2819848e-39
0.058179066 -0.037150465 0.73600006 7.7440181e-39
0.059580959 -0.037150465 0.73600006 7.7436454e-39
0.060982861 -0.037150465 0.73600006 7.7432951e-39
-0.0061971419 -0.035117127 0.72299999 2.34166e-38
-0.0047933436 -0.034922861 0.71900004 2.1667765e-38
-0.0034238207 -0.034922861 0.71900004 1.9921463e-38
-0.0020485823 -0.034825735 0.71700001 2.0748705e-38
-0.00068286387 -0.03482572 0.71700001 2.1484824e-38
0.00068474608 -0.034922861 0.7190001 2.2406048e-38
0.0020542764 -0.034922861 0.7190001 2.3233293e-38
0.003428576 -0.034971423 0.72000003 2.3325854e-38
0.0047999993 -0.034971438 0.72000003 2.341769e-38
0.0061885649 -0.035068579 0.72200012 2.341769e-38
0.0075638113 -0.035068564 0.72200006 2.341769e-38
0.0089514293 -0.035117127 0.72299999 2.341769e-38
0.010328576 -0.035117142 0.72299999 2.341769e-38
0.011705723 -0.035117127 0.72299999 2.341769e-38
0.013082854 -0.035117127 0.72299999 2.341769e-38
0.014499996 -0.035214283 0.72500002 2.341769e-38
0.015880954 -0.035214268 0.72500002 2.341769e-38
0.017261898 -0.035214268 0.72500002 2.3234019e-38
0.018642858 -0.035214268 0.72500002 2.2958154e-38
0.020023812 -0.035214268 0.72499996 2.3142183e-38
0.021404771 -0.035214253 0.72499996 2.3325496e-38
0.022785714 -0.035214283 0.72499996 2.3232943e-38
0.024166672 -0.035214268 0.72499996 2.3141466e-38
0.025582859 -0.035262845 0.72599995 2.295636e-38
0.026965721 -0.03526286 0.72600001 2.2682289e-38
0.028348574 -0.035262845 0.72600001 2.3050348e-38
0.02985429 -0.035408549 0.72899997 2.341769e-38
0.031242857 -0.035408549 0.72900003 2.341769e-38
0.032631423 -0.035408549 0.72900003 2.341769e-38
0.034020003 -0.035408549 0.72899997 2.341769e-38
0.035408571 -0.035408549 0.72899997 2.341769e-38
0.036898099 -0.035505705 0.73099995 2.341769e-38
0.038290478 -0.035505705 0.73100001 2.341769e-38
0.039682861 -0.035505705 0.73100001 2.341769e-38
0.041131437 -0.035554267 0.73199999 2.3413991e-38
0.042641908 -0.035651423 0.73399997 1.7893344e-38
0.044039994 -0.035651438 0.73399997 1.2371359e-38
0.0454381 -0.035651423 0.73399997 1.3566639e-38
0.046963822 -0.035748549 0.73600006 1.4768046e-38
0.04836572 -0.035748534 0.73600006 1.5414137e-38
0.049767621 -0.035748549 0.73600006 1.605559e-38
0.051169537 -0.035748549 0.73600006 1.264839e-38
0.052571435 -0.035748564 0.73600006 9.2249216e-39
0.053973336 -0.035748564 0.73600006 8.0133981e-39
0.055375252 -0.035748564 0.73600006 6.7302277e-39
0.056777149 -0.035748564 0.73600006 7.1915744e-39
0.058179051 -0.035748549 0.73600006 7.6514624e-39
0.059580967 -0.035748564 0.73600006 7.7432909e-39
-0.0062142876 -0.033833303 0.72499996 2.3417673e-38
-0.0048000128 -0.033599995 0.72000009 2.2587548e-38
-0.0034285705 -0.033599995 0.72000003 2.1663456e-38
-0.0020485767 -0.033459984 0.71700001 2.1483015e-38
-0.00068285828 -0.033459984 0.71700001 2.1203561e-38
0.00068475073 -0.03355334 0.7190001 2.2035102e-38
0.0020542741 -0.03355334 0.71900004 2.2865584e-38
0.003428577 -0.033599995 0.72000003 2.3141825e-38
0.0048000007 -0.033599995 0.72000003 2.341769e-38
0.0061885687 -0.033693321 0.72200006 2.341769e-38
0.0075638047 -0.033693336 0.72200006 2.341769e-38
0.0089514256 -0.033739991 0.72300005 2.341769e-38
0.010328572 -0.033739991 0.72300005 2.341769e-38
0.01170572 -0.033739991 0.72300005 2.341769e-38
0.013082852 -0.033739991 0.72300005 2.341769e-38
0.014499995 -0.033833303 0.72499996 2.341769e-38
0.015880954 -0.033833332 0.72500002 2.341769e-38
0.017261913 -0.033833317 0.72500002 2.3325854e-38
0.018642856 -0.033833317 0.72500002 2.3141825e-38
0.020023817 -0.033833303 0.72500002 2.3234019e-38
0.02140476 -0.033833317 0.72500002 2.341769e-38
0.022785718 -0.033833317 0.72500002 2.3325496e-38
0.024200007 -0.033879988 0.72600001 2.3325854e-38
0.025582863 -0.033879973 0.72599995 2.3141466e-38
0.027077138 -0.034019984 0.72899997 2.2957795e-38
0.02846572 -0.034019969 0.72899997 2.3142183e-38
0.029854288 -0.034019969 0.72900003 2.341769e-38
0.031242857 -0.034019984 0.72900003 2.341769e-38
0.032720938 -0.034113325 0.73100001 2.341769e-38
0.034113333 -0.034113325 0.73099995 2.341769e-38
0.035505712 -0.03411334 0.73100001 2.341769e-38
0.036898091 -0.03411334 0.73100001 2.341769e-38
0.038290482 -0.03411331 0.73099995 2.341769e-38
0.039682861 -0.03411331 0.73100001 2.341769e-38
0.041131429 -0.034159996 0.73200005 2.3417595e-38
0.042641904 -0.034253322 0.73399997 1.8168525e-38
0.044039994 -0.034253322 0.73399997 1.3009923e-38
0.04556191 -0.034346648 0.73600006 1.4029051e-38
0.046963811 -0.034346648 0.73600006 1.5138258e-38
0.048365712 -0.034346648 0.73600006 1.5506325e-38
0.049767625 -0.034346662 0.73600006 1.5966239e-38
0.051169526 -0.034346648 0.73600006 1.1994732e-38
0.052571427 -0.034346662 0.73600006 8.0109557e-39
0.053973339 -0.034346662 0.73600006 7.5549521e-39
0.055375241 -0.034346648 0.73600006 7.1929953e-39
0.056777138 -0.034346648 0.73600006 7.3759517e-39
0.058179054 -0.034346662 0.73600006 7.6511008e-39
0.059580956 -0.034346662 0.73600006 7.8347718e-39
-0.0089885695 -0.032497115 0.72600001 2.341769e-38
-0.0075952415 -0.032452367 0.72500002 2.341769e-38
-0.0062228618 -0.03249713 0.72600001 2.3417682e-38
-0.0048333392 -0.032452367 0.72500002 2.3417673e-38
-0.003428576 -0.032228552 0.72000003 2.3415514e-38
-0.0020542978 -0.032183819 0.7190001 2.2223799e-38
-0.00068477495 -0.032183819 0.7190001 2.0932007e-38
0.00068474794 -0.032183819 0.71900004 2.1756376e-38
0.0020571295 -0.032228582 0.72000003 2.249717e-38
0.0034285677 -0.032228567 0.72000009 2.2958513e-38
0.0048133167 -0.032318078 0.72200012 2.341769e-38
0.0061885617 -0.032318078 0.72200006 2.341769e-38
0.0075637982 -0.032318093 0.72200012 2.341769e-38
0.008951433 -0.032362856 0.72299999 2.341769e-38
0.01032858 -0.032362856 0.72299999 2.341769e-38
0.011705716 -0.032362841 0.72300005 2.341769e-38
0.013082849 -0.032362841 0.72300005 2.341769e-38
0.014459996 -0.032362856 0.72300005 2.341769e-38
0.015880954 -0.032452337 0.72499996 2.341769e-38
0.017261911 -0.032452382 0.72499996 2.341769e-38
0.018642856 -0.032452367 0.72499996 2.3325854e-38
0.02005144 -0.032497115 0.72600001 2.341769e-38
0.02140476 -0.032452352 0.72500002 2.341769e-38
0.02281714 -0.03249713 0.72600001 2.341769e-38
0.024200009 -0.032497115 0.72599995 2.341769e-38
0.025582854 -0.032497145 0.72600001 2.3325854e-38
0.027040007 -0.032586642 0.72800004 2.3141825e-38
0.028426675 -0.032586627 0.72799999 2.3325854e-38
0.029854288 -0.03263142 0.72900003 2.341769e-38
0.031328566 -0.032720946 0.73100001 2.341769e-38
0.032720942 -0.032720931 0.73099995 2.341769e-38
0.034113321 -0.032720946 0.73100001 2.341769e-38
0.035505701 -0.032720961 0.73100001 2.341769e-38
0.036898091 -0.032720931 0.73099995 2.341769e-38
0.038290471 -0.032720946 0.73100001 2.341769e-38
0.03968285 -0.032720961 0.73100001 2.341769e-38
0.041075245 -0.032720946 0.73099995 2.3414368e-38
0.042641904 -0.032855235 0.73400003 1.8536588e-38
0.044039994 -0.03285522 0.73400003 1.3570249e-38
0.04556191 -0.032944746 0.73600006 1.4493577e-38
0.046963811 -0.032944761 0.73600006 1.5413748e-38
0.048365712 -0.032944746 0.73600006 1.5690712e-38
0.049767625 -0.032944746 0.73600006 1.5869386e-38
0.051169526 -0.032944731 0.73600006 1.1353329e-38
0.052571431 -0.032944746 0.73600006 6.7360165e-39
0.053973339 -0.032944746 0.73600006 7.1861584e-39
0.055375241 -0.032944746 0.73600006 7.6496519e-39
0.056777142 -0.032944761 0.73600006 7.6518155e-39
0.058179058 -0.032944761 0.73600006 7.558908e-39
0.059580959 -0.032944761 0.73600006 8.0180911e-39
-0.0089885648 -0.031114243 0.72599995 2.341769e-38
-0.0076057217 -0.031114273 0.72600001 2.341769e-38
-0.0062228586 -0.031114273 0.72600001 2.341769e-38
-0.0048133419 -0.030942835 0.72200012 2.2774483e-38
-0.0034285751 -0.030857138 0.72000003 2.2040144e-38
-0.0020543006 -0.030814297 0.7190001 2.1486245e-38
-0.00068477029 -0.030814297 0.71900004 2.0931652e-38
0.00068475259 -0.030814283 0.71900004 2.1483031e-38
0.0020571304 -0.030857138 0.72000003 2.2131986e-38
0.0034285686 -0.030857153 0.72000009 2.2774842e-38
0.0048133349 -0.030942835 0.72200006 2.341769e-38
0.0061885701 -0.03094285 0.72200006 2.341769e-38
0.0075742817 -0.030985706 0.72299999 2.341769e-38
0.0089514302 -0.030985706 0.72299999 2.341769e-38
0.010328577 -0.030985706 0.72299999 2.341769e-38
0.011705709 -0.030985691 0.72299999 2.341769e-38
0.013082855 -0.030985706 0.72299999 2.341769e-38
0.014460002 -0.030985706 0.72299999 2.341769e-38
0.015880957 -0.031071417 0.72500002 2.341769e-38
0.017261902 -0.031071402 0.72500002 2.3325854e-38
0.018642845 -0.031071402 0.72500002 2.3142183e-38
0.020051444 -0.031114258 0.72599995 2.3325854e-38
0.021434287 -0.031114273 0.72600001 2.341769e-38
0.022817142 -0.031114273 0.72599995 2.341769e-38
0.024266668 -0.031199999 0.72800004 2.341769e-38
0.025653334 -0.031199999 0.72800004 2.3234019e-38
0.027039999 -0.031199999 0.72800004 2.3049631e-38
0.028465703 -0.031242855 0.72900003 2.3234019e-38
0.029854285 -0.03124284 0.72900003 2.341769e-38
0.031328566 -0.031328566 0.73100001 2.341769e-38
0.03272095 -0.031328566 0.73100001 2.341769e-38
