# .PCD v0.7 - Point Cloud Data file format
VERSION 0.7
FIELDS x y z rgb
SIZE 4 4 4 4
TYPE F F F F
COUNT 1 1 1 1
WIDTH 954
HEIGHT 1
VIEWPOINT 0 0 0 1 0 0 0
POINTS 954
DATA ascii
0.065012395 -0.053324766 0.76700008 7.9273136e-39
0.06647338 -0.053324766 0.76700008 7.8351306e-39
0.068022877 -0.053394265 0.76800001 7.8344229e-39
0.069485746 -0.053394265 0.76800001 7.8333453e-39
-0.032485686 -0.051255248 0.75800008 1.3163803e-38
-0.031041898 -0.051255248 0.75800008 1.3530065e-38
-0.029598106 -0.051255234 0.75800008 1.3901349e-38
-0.028080026 -0.051120006 0.75600004 1.4275861e-38
-0.026640005 -0.05112002 0.7560001 1.4543816e-38
-0.025166664 -0.051052399 0.75500011 1.4637427e-38
-0.023728583 -0.051052399 0.75500005 1.4636711e-38
-0.022231406 -0.050917156 0.75300008 1.4637431e-38
-0.02079713 -0.050917141 0.75300008 1.4637449e-38
-0.019337101 -0.050849549 0.75200009 1.4547066e-38
-0.017904712 -0.050849549 0.75200009 1.4362314e-38
-0.01642856 -0.050714292 0.75000012 1.4361591e-38
-0.01499998 -0.050714277 0.75000012 1.4356192e-38
-0.013535228 -0.050579064 0.74800009 1.4071699e-38
-0.012094294 -0.050511412 0.7470001 1.3706865e-38
-0.010642854 -0.050376199 0.74500012 1.4533022e-38
-0.0091990214 -0.050240956 0.74300009 1.5364603e-38
-0.0077837864 -0.050240956 0.74300003 1.5188865e-38
-0.0063600084 -0.050173335 0.74200004 1.5012433e-38
-0.0049332948 -0.050038092 0.74000007 1.492712e-38
-0.0035237921 -0.050038077 0.74000001 1.4738046e-38
-0.0021113995 -0.049970485 0.73900008 1.4083338e-38
-0.00070190232 -0.049835272 0.73700005 1.3442959e-38
0.00070097588 -0.049767621 0.73600006 1.3725957e-38
0.0021028975 -0.049767636 0.73600012 1.4010403e-38
0.0034952639 -0.049632393 0.73400009 1.4110819e-38
0.0048933392 -0.049632393 0.73400009 1.4107237e-38
0.0062914789 -0.049632393 0.73400009 1.3553003e-38
0.0076581007 -0.049429514 0.73100001 1.2905105e-38
0.0090504838 -0.049429543 0.73100007 1.2347609e-38
0.010414306 -0.049294315 0.72900009 1.1805645e-38
0.011802906 -0.049294315 0.72900009 1.4288874e-38
0.013173317 -0.049226679 0.72800004 1.6691022e-38
0.014520005 -0.049091451 0.72600007 1.7255026e-38
0.015902877 -0.049091451 0.72600007 1.7805313e-38
0.0172619 -0.049023829 0.72500008 1.8995939e-38
0.01864288 -0.049023829 0.72500008 2.0105865e-38
0.019968569 -0.048888586 0.72300005 2.1764651e-38
0.021345707 -0.048888586 0.72300005 2.341769e-38
0.022691444 -0.04882095 0.72200006 2.341769e-38
0.02400006 -0.048685722 0.72000009 2.3417323e-38
0.025371443 -0.048685707 0.72000003 2.1671724e-38
0.026705753 -0.048618101 0.7190001 1.9917515e-38
0.028075274 -0.048618101 0.7190001 2.0737572e-38
0.029444773 -0.048618101 0.7190001 2.1484467e-38
0.03081429 -0.048618115 0.7190001 2.2499335e-38
0.032183811 -0.048618115 0.7190001 2.341769e-38
0.033600025 -0.048685707 0.72000003 2.3325854e-38
0.034971468 -0.048685707 0.72000003 2.32333e-38
0.036797147 -0.049294285 0.72900009 2.3140386e-38
0.038290489 -0.049429543 0.73100001 2.3049628e-38
0.039845742 -0.049632408 0.73400009 2.3142182e-38
0.041356217 -0.049767621 0.73600006 2.3234011e-38
0.042816211 -0.049835242 0.73700011 2.2682991e-38
0.044400025 -0.050038107 0.74000007 2.2032198e-38
0.045933366 -0.050173335 0.74200004 1.9361744e-38
0.047665708 -0.050511427 0.74700004 1.6690168e-38
0.049154323 -0.050579049 0.74800009 1.4294458e-38
0.050714295 -0.050714292 0.75000006 1.1905708e-38
0.052281946 -0.050849549 0.75200009 1.2545377e-38
0.05378573 -0.050917171 0.75300008 1.3104636e-38
0.05536671 -0.051052399 0.75500011 1.3753938e-38
0.057030484 -0.051255234 0.75800008 1.4388862e-38
0.058628596 -0.051390477 0.76000011 1.0973697e-38
0.060155235 -0.051458113 0.76100004 7.4721116e-39
0.061766673 -0.051593326 0.76300001 7.8355103e-39
0.063385747 -0.051728569 0.7650001 8.1113587e-39
0.065097161 -0.051931433 0.76800001 7.9276709e-39
0.06656003 -0.051931433 0.76800007 7.6514554e-39
0.068022862 -0.051931418 0.76800001 7.7425804e-39
-0.032485697 -0.04981143 0.75800002 1.4540243e-38
-0.031123791 -0.049942873 0.76000005 1.4449482e-38
-0.029598076 -0.049811445 0.75800008 1.4453061e-38
-0.028154286 -0.04981143 0.75800002 1.4543094e-38
-0.026710454 -0.049811445 0.75800008 1.4636359e-38
-0.025200013 -0.049680002 0.75600004 1.4726394e-38
-0.023728527 -0.049614318 0.75500011 1.4820383e-38
-0.02223143 -0.049482875 0.75300002 1.4911862e-38
-0.020797141 -0.049482875 0.75300008 1.4911532e-38
-0.019337118 -0.04941716 0.75200009 1.4818291e-38
-0.017904751 -0.049417146 0.75200009 1.4729662e-38
-0.016472362 -0.04941716 0.75200009 1.4815377e-38
-0.015000001 -0.049285717 0.75000012 1.490575e-38
-0.01353521 -0.049154289 0.74800009 1.4808866e-38
-0.012094305 -0.049088575 0.74700004 1.4715587e-38
-0.010642844 -0.048957147 0.74500012 1.4990009e-38
-0.0091989925 -0.048825733 0.74300009 1.5267428e-38
-0.0077837594 -0.048825718 0.74300009 1.4914912e-38
-0.0063599721 -0.048759989 0.74200004 1.4559052e-38
-0.0049333386 -0.048628561 0.74000001 1.4555827e-38
-0.0035237977 -0.048628576 0.74000001 1.4646565e-38
-0.0021114117 -0.048562847 0.73900002 1.4738021e-38
-0.00070191815 -0.048431434 0.73700005 1.4916973e-38
0.00070096657 -0.04836572 0.73600006 1.3998204e-38
0.0021028509 -0.04836572 0.73600006 1.3083426e-38
0.0035047755 -0.04836572 0.73600012 1.290656e-38
0.0048933718 -0.048234291 0.73400009 1.2816173e-38
0.0062914509 -0.048234306 0.73400009 1.2719328e-38
0.0076580988 -0.048037134 0.73100007 1.261994e-38
0.0090505062 -0.048037164 0.73100007 1.3180618e-38
0.010414285 -0.047905706 0.72900009 1.3832205e-38
0.011802886 -0.047905721 0.72900009 1.5313181e-38
0.013191424 -0.047905706 0.72900009 1.6799063e-38
0.014560019 -0.047840022 0.72800004 1.6610382e-38
0.015902843 -0.047708564 0.72600001 1.6423833e-38
0.017285712 -0.047708578 0.72600001 1.7710598e-38
0.018642861 -0.047642864 0.72500008 1.9094597e-38
0.019968564 -0.047511451 0.72300005 2.130368e-38
0.021345738 -0.047511451 0.72300011 2.341769e-38
0.022691447 -0.047445722 0.72200012 2.341769e-38
0.024000043 -0.047314294 0.72000003 2.3417686e-38
0.025371464 -0.047314294 0.72000009 2.1576308e-38
0.026705723 -0.047248594 0.7190001 1.9639855e-38
0.028075267 -0.047248594 0.7190001 2.0651465e-38
0.029444765 -0.04724858 0.7190001 2.176212e-38
0.030814286 -0.047248594 0.7190001 2.2590453e-38
0.032228604 -0.047314294 0.72000003 2.341769e-38
0.03369334 -0.047445722 0.72200012 2.3325854e-38
0.035360005 -0.047840007 0.7280001 2.3141462e-38
0.036797166 -0.047905721 0.72900009 2.3048905e-38
0.038290489 -0.048037149 0.73100007 2.2957431e-38
0.039845735 -0.048234276 0.73400009 2.3049986e-38
0.041356206 -0.04836572 0.73600006 2.3234018e-38
0.042816214 -0.048431449 0.73700005 2.2958513e-38
0.044400044 -0.048628561 0.74000007 2.2774833e-38
0.045933343 -0.048760019 0.74200004 2.1206805e-38
0.047538087 -0.048957162 0.74500006 1.9639372e-38
0.049154304 -0.049154274 0.74800003 1.6966323e-38
0.050714273 -0.049285717 0.75000012 1.4384912e-38
0.052281942 -0.049417175 0.75200009 1.3469453e-38
0.053714335 -0.049417146 0.75200009 1.2644732e-38
0.055366702 -0.049614288 0.75500011 1.3474484e-38
0.057030495 -0.049811415 0.75800008 1.4301682e-38
0.058628585 -0.049942859 0.76000011 1.0882205e-38
0.06015525 -0.050008573 0.7610001 7.4631433e-39
0.061766669 -0.050140016 0.76300001 7.7422539e-39
0.063551471 -0.050402857 0.76700008 8.019889e-39
0.065097153 -0.050468571 0.76800001 7.8351165e-39
0.06656003 -0.050468571 0.76800007 7.7425692e-39
0.068022899 -0.050468586 0.76800007 7.6507379e-39
0.069485731 -0.050468571 0.76800001 7.5588968e-39
-0.031123828 -0.048495226 0.76000005 1.5458221e-38
-0.029598095 -0.048367627 0.75800008 1.4995441e-38
-0.028154258 -0.048367612 0.75800002 1.4806375e-38
-0.026710467 -0.048367627 0.75800002 1.4627021e-38
-0.025200013 -0.048240013 0.7560001 1.4811063e-38
-0.023728553 -0.048176207 0.75500011 1.4998319e-38
-0.022290494 -0.048176207 0.75500005 1.5094815e-38
-0.020797126 -0.048048593 0.75300008 1.5180908e-38
-0.019362852 -0.048048578 0.75300002 1.51766e-38
-0.017904729 -0.047984786 0.75200009 1.5085132e-38
-0.016428556 -0.047857158 0.75000006 1.5263789e-38
-0.015 -0.047857128 0.75000012 1.5358122e-38
-0.013535227 -0.047729529 0.74800009 1.5542855e-38
-0.012094297 -0.047665723 0.7470001 1.5633969e-38
-0.010642859 -0.047538109 0.74500012 1.5352361e-38
-0.009223816 -0.047538079 0.74500012 1.5092378e-38
-0.0077837938 -0.047410481 0.74300003 1.4552227e-38
-0.0063599981 -0.047346674 0.74200004 1.4003005e-38
-0.0049466491 -0.047346659 0.7420001 1.4274564e-38
-0.0035237819 -0.04721906 0.74000001 1.4560835e-38
-0.0021114098 -0.047155254 0.73900008 1.5488878e-38
-0.00070187531 -0.04702761 0.73700011 1.6303127e-38
0.00070189417 -0.04702761 0.73700005 1.4173977e-38
0.0021028658 -0.046963818 0.73600006 1.2068921e-38
0.0035047904 -0.046963818 0.73600006 1.1799499e-38
0.0048933448 -0.046836205 0.73400009 1.1525465e-38
0.0062914612 -0.04683622 0.73400009 1.1887823e-38
0.007658097 -0.04664477 0.73100007 1.2262012e-38
0.0090504671 -0.046644755 0.73100001 1.4014811e-38
0.010414326 -0.046517141 0.72900009 1.577123e-38
0.011802863 -0.046517141 0.72900009 1.6332354e-38
0.013191462 -0.046517126 0.72900009 1.6792613e-38
0.014560006 -0.046453349 0.72800004 1.5872113e-38
0.015902847 -0.046325721 0.72600001 1.4950879e-38
0.017285716 -0.046325721 0.72600001 1.6510998e-38
0.018642874 -0.046261929 0.72500008 1.8082254e-38
0.019968558 -0.046134286 0.72300005 2.0754461e-38
0.021345735 -0.046134301 0.72300011 2.341769e-38
0.022691453 -0.046070479 0.72200012 2.341769e-38
0.024000064 -0.04594285 0.72000009 2.3416249e-38
0.025371447 -0.045942865 0.72000003 2.1391917e-38
0.026705716 -0.045879059 0.7190001 1.9366502e-38
0.028075259 -0.045879059 0.7190001 2.0649676e-38
0.029444797 -0.045879073 0.7190001 2.1944359e-38
0.030814318 -0.045879088 0.7190001 2.2683006e-38
0.032228626 -0.04594288 0.72000009 2.341769e-38
0.033693343 -0.046070479 0.72200012 2.3234019e-38
0.035359994 -0.046453364 0.72800004 2.3049268e-38
0.036797166 -0.046517141 0.72900009 2.2955633e-38
0.038290486 -0.04664477 0.73100007 2.27734e-38
0.039845746 -0.046836205 0.73400009 2.2957791e-38
0.041356198 -0.046963818 0.73600006 2.3141823e-38
0.042816196 -0.047027625 0.73700005 2.3325854e-38
0.044399999 -0.047219045 0.74000001 2.3417686e-38
0.04593334 -0.047346674 0.74200004 2.305034e-38
0.047538135 -0.047538109 0.74500012 2.2584261e-38
0.049154304 -0.047729544 0.74800009 1.972974e-38
0.050714273 -0.047857143 0.75000006 1.6784851e-38
0.052281927 -0.047984771 0.75200009 1.4485679e-38
0.053785719 -0.048048593 0.75300002 1.2186246e-38
0.055440024 -0.048239999 0.75600004 1.3197912e-38
0.057030499 -0.048367627 0.75800008 1.4204109e-38
0.058705702 -0.048559032 0.76100004 1.0789645e-38
0.06031334 -0.048686676 0.76300001 7.3784754e-39
0.0619286 -0.048814289 0.7650001 7.6504128e-39
0.063551471 -0.048941903 0.76700008 7.8340516e-39
0.065097168 -0.049005724 0.76800001 7.8333033e-39
0.066733338 -0.049133323 0.77000004 7.8340305e-39
0.068022884 -0.049005724 0.76800007 7.6507295e-39
0.069485717 -0.04900571 0.76800001 7.3748531e-39
-0.03112378 -0.047047623 0.76000011 1.5085121e-38
-0.029598067 -0.046923809 0.75800008 1.526375e-38
-0.028154273 -0.046923809 0.75800008 1.5172611e-38
-0.026639987 -0.04680001 0.75600004 1.5080808e-38
-0.025200002 -0.046799995 0.75600004 1.5174468e-38
-0.023728583 -0.04673811 0.75500011 1.5267372e-38
-0.022231404 -0.046614297 0.75300008 1.5360276e-38
-0.020797115 -0.046614282 0.75300008 1.5357012e-38
-0.019362839 -0.046614282 0.75300008 1.5356977e-38
-0.017904745 -0.046552382 0.75200009 1.5354146e-38
-0.016428577 -0.046428584 0.75000012 1.5355262e-38
-0.014999998 -0.046428584 0.75000012 1.5444944e-38
-0.013535229 -0.046304785 0.74800009 1.5541441e-38
-0.012094307 -0.046242855 0.74700004 1.5731212e-38
-0.010642848 -0.046119057 0.74500012 1.5553282e-38
-0.0092238057 -0.046119057 0.74500006 1.5380812e-38
-0.0077837668 -0.045995243 0.74300009 1.4921713e-38
-0.0063685318 -0.045995243 0.74300003 1.4554005e-38
-0.00494665 -0.045933343 0.74200004 1.5387333e-38
-0.0035237884 -0.045809515 0.74000007 1.6312174e-38
-0.0021142866 -0.045809515 0.74000001 1.6499458e-38
-0.00070189394 -0.045623817 0.73700011 1.6775231e-38
0.00070191466 -0.045623817 0.73700011 1.4549563e-38
0.0021028584 -0.045561917 0.73600006 1.2432307e-38
0.0035047811 -0.045561917 0.73600012 1.2623495e-38
0.0049066674 -0.045561902 0.73600006 1.2904804e-38
0.0062914547 -0.045438088 0.73400009 1.3367272e-38
0.0076685799 -0.045314305 0.73200005 1.3830837e-38
0.0090504643 -0.045252375 0.73100001 1.466856e-38
0.010442874 -0.04525239 0.73100007 1.5599473e-38
0.011802881 -0.045128576 0.72900009 1.5412218e-38
0.013191442 -0.045128576 0.72900009 1.5319665e-38
0.014559994 -0.045066692 0.72800004 1.4673946e-38
0.015902855 -0.044942878 0.72600007 1.3934949e-38
0.017285721 -0.044942863 0.72600007 1.5315343e-38
0.01864285 -0.044880964 0.72500008 1.6794764e-38
0.019968551 -0.04475715 0.72300005 2.0109101e-38
0.021345727 -0.04475715 0.72300011 2.341769e-38
0.022691457 -0.044695236 0.72200012 2.341769e-38
0.024066646 -0.044695236 0.72200006 2.3417683e-38
0.02537147 -0.044571437 0.72000009 2.1207526e-38
0.026742876 -0.044571437 0.72000003 1.908992e-38
0.028114319 -0.044571437 0.72000009 2.0285208e-38
0.02944479 -0.044509552 0.7190001 2.1580965e-38
0.030814311 -0.044509552 0.7190001 2.2499335e-38
0.032228611 -0.044571452 0.72000003 2.341769e-38
0.033693347 -0.044695251 0.72200012 2.3325496e-38
0.035360001 -0.045066677 0.72800004 2.3232578e-38
0.036797184 -0.045128576 0.72900009 2.2772319e-38
0.038290486 -0.04525239 0.73100007 2.2222026e-38
0.039845712 -0.045438103 0.73400009 2.2221312e-38
0.04135621 -0.045561902 0.73600006 2.2315302e-38
0.042816181 -0.045623802 0.73700005 2.2866318e-38
0.044400014 -0.04580953 0.74000001 2.341769e-38
0.045933351 -0.045933329 0.7420001 2.3234019e-38
0.047538083 -0.046119057 0.74500006 2.3050309e-38
0.049154323 -0.04630477 0.74800009 2.1482608e-38
0.050714314 -0.046428569 0.75000012 2.000808e-38
0.052281946 -0.046552397 0.75200009 1.6508149e-38
0.05392861 -0.04673811 0.75500011 1.2915881e-38
0.055439986 -0.04680001 0.75600004 1.3840413e-38
0.057180956 -0.047047637 0.76000005 1.4761222e-38
0.058705717 -0.047109522 0.76100004 1.1159491e-38
0.060313337 -0.047233336 0.76300001 7.5589122e-39
0.061928585 -0.047357149 0.76500005 7.833718e-39
0.063551471 -0.047480963 0.76700008 8.1084692e-39
0.065266669 -0.047666676 0.77000004 8.0176707e-39
0.066733345 -0.047666676 0.77000004 7.8340165e-39
0.068200029 -0.047666661 0.77000004 7.4670487e-39
0.069666706 -0.047666661 0.7700001 7.0078572e-39
-0.031041913 -0.045479991 0.75800008 1.4716714e-38
-0.029598083 -0.045480005 0.75800008 1.5449941e-38
-0.028154247 -0.045479991 0.75800002 1.5539242e-38
-0.026710454 -0.045480005 0.75800002 1.5540343e-38
-0.025200002 -0.045360021 0.7560001 1.5538931e-38
-0.023728566 -0.045299999 0.75500005 1.553893e-38
-0.022290468 -0.045300014 0.75500011 1.553821e-38
-0.020852346 -0.045300014 0.75500011 1.5539985e-38
-0.019362848 -0.04518003 0.75300008 1.5539607e-38
-0.017904723 -0.045120008 0.75200009 1.5539988e-38
-0.016428573 -0.044999994 0.75000012 1.5541088e-38
-0.014999994 -0.045000009 0.75000006 1.5449258e-38
-0.013535209 -0.044879995 0.74800009 1.5630066e-38
-0.012094277 -0.044819988 0.7470001 1.573699e-38
-0.010671425 -0.044820003 0.74700004 1.5657013e-38
-0.0092238216 -0.044700019 0.74500012 1.5568447e-38
-0.0077837612 -0.044580005 0.74300009 1.5291905e-38
-0.0063685281 -0.04458002 0.74300009 1.5020717e-38
-0.004953295 -0.044580005 0.74300009 1.6500861e-38
-0.0035333261 -0.044520013 0.74200004 1.7969887e-38
-0.002114269 -0.044399999 0.74000001 1.7604356e-38
-0.00070188835 -0.044220023 0.73700005 1.7226879e-38
0.00070192025 -0.044220023 0.73700005 1.5000496e-38
0.0021028491 -0.044159986 0.73600006 1.2710727e-38
0.003504795 -0.044160001 0.73600006 1.3540495e-38
0.0049066823 -0.044160001 0.73600006 1.4288158e-38
0.0062914649 -0.044040017 0.73400009 1.4845694e-38
0.0076685688 -0.043920003 0.73200011 1.5403206e-38
0.0090504652 -0.043859996 0.73100007 1.5412215e-38
0.010442871 -0.043860011 0.73100007 1.5318587e-38
0.011835217 -0.043859996 0.73100001 1.4581035e-38
0.01319146 -0.043740027 0.72900009 1.3846349e-38
0.014559983 -0.043680005 0.72800004 1.3385737e-38
0.015902858 -0.043560006 0.72600007 1.2923324e-38
0.017285727 -0.043560006 0.72600007 1.4204707e-38
0.018642887 -0.043500014 0.72500008 1.5414362e-38
0.019968551 -0.043380015 0.72300005 1.9468764e-38
0.021345722 -0.043380015 0.72300005 2.341769e-38
0.02269146 -0.043320008 0.72200012 2.341769e-38
0.024066672 -0.043319993 0.72200006 2.3415522e-38
0.025371453 -0.043200009 0.72000009 2.1113521e-38
0.026742896 -0.043200009 0.72000009 1.8721492e-38
0.028114302 -0.043200009 0.72000003 2.0003241e-38
0.029485745 -0.043200009 0.72000003 2.1208958e-38
0.030857189 -0.043200009 0.72000009 2.2315664e-38
0.032228593 -0.043199994 0.72000003 2.341769e-38
0.033739984 -0.04338 0.72300005 2.341769e-38
0.03535999 -0.043680005 0.72800004 2.3416608e-38
0.036797162 -0.043739997 0.72900009 2.2587572e-38
0.038342863 -0.043920003 0.73200011 2.1668138e-38
0.039954316 -0.044160001 0.73600006 2.1574149e-38
0.041412394 -0.044220008 0.73700011 2.1393713e-38
0.042932432 -0.044340007 0.73900008 2.2406063e-38
0.044400007 -0.044399984 0.74000001 2.341733e-38
0.045995273 -0.04457999 0.74300009 2.341769e-38
0.047665723 -0.044819988 0.74700004 2.341767e-38
0.0491543 -0.04488001 0.74800003 2.3325815e-38
0.050849546 -0.045120023 0.75200009 2.3226345e-38
0.05249048 -0.045300029 0.75500011 1.8439678e-38
0.054000024 -0.045360021 0.7560001 1.3657793e-38
0.055733349 -0.045600004 0.76000005 1.4486842e-38
0.057256214 -0.045660011 0.7610001 1.5217197e-38
0.058705695 -0.045659997 0.76100004 1.1528688e-38
0.060313337 -0.045780011 0.76300001 7.7472705e-39
0.061928563 -0.04590001 0.76500005 8.1088546e-39
0.063634321 -0.046080001 0.76800007 8.3850589e-39
0.065266706 -0.0462 0.77000004 8.1106104e-39
0.06673336 -0.046200015 0.7700001 7.8347536e-39
0.0682 -0.0462 0.77000004 7.2837504e-39
0.069666684 -0.0462 0.77000004 6.6412495e-39
-0.031041887 -0.044036172 0.75800002 1.3437484e-38
-0.029598057 -0.044036202 0.75800008 1.5361342e-38
-0.028154265 -0.044036202 0.75800008 1.5452076e-38
-0.026710473 -0.044036202 0.75800008 1.5451017e-38
-0.025199994 -0.043920003 0.75600004 1.5724029e-38
-0.02376001 -0.043920003 0.75600004 1.5995235e-38
-0.022290472 -0.043861918 0.75500005 1.5815871e-38
-0.020852374 -0.043861903 0.75500011 1.5632556e-38
-0.019362837 -0.043745734 0.75300008 1.5540718e-38
-0.01790474 -0.043687619 0.75200009 1.5449248e-38
-0.016428571 -0.043571435 0.75000006 1.5635077e-38
-0.015000015 -0.043571435 0.75000012 1.5823067e-38
-0.013535229 -0.043455251 0.74800009 1.6198674e-38
-0.012110478 -0.043455251 0.74800009 1.6572515e-38
-0.01067146 -0.043397136 0.74700004 1.6028717e-38
-0.0092238104 -0.043280967 0.74500012 1.5484164e-38
-0.0077837724 -0.043164782 0.74300009 1.4559712e-38
-0.0063685374 -0.043164767 0.74300003 1.373538e-38
-0.0049533043 -0.043164767 0.74300003 1.4752779e-38
-0.003533327 -0.043106683 0.74200004 1.5860552e-38
-0.0021142764 -0.042990483 0.74000001 1.5488553e-38
-0.00070190511 -0.042816184 0.73700005 1.5210808e-38
0.00070190348 -0.042816184 0.73700005 1.4097215e-38
0.002102864 -0.0427581 0.73600006 1.3084211e-38
0.0035047857 -0.0427581 0.73600012 1.3645682e-38
0.0049066739 -0.042758115 0.73600006 1.4208602e-38
0.006291437 -0.042641915 0.73400009 1.4393776e-38
0.0076685818 -0.042525701 0.73200005 1.4492786e-38
0.0090504838 -0.042467631 0.73100001 1.4214051e-38
0.010442871 -0.042467616 0.73100007 1.3936392e-38
0.01183524 -0.042467616 0.73100001 1.3660167e-38
0.013191436 -0.042351432 0.72900009 1.3476855e-38
0.014559992 -0.042293333 0.72800004 1.2924764e-38
0.015946649 -0.042293347 0.72800004 1.2463427e-38
0.017285697 -0.042177148 0.72600001 1.4669266e-38
0.018642867 -0.042119049 0.72500002 1.6975206e-38
0.019968582 -0.042002864 0.72300011 2.019986e-38
0.02134572 -0.042002864 0.72300005 2.341769e-38
0.022691425 -0.041944765 0.72200006 2.3325854e-38
0.024066679 -0.041944765 0.72200006 2.3233995e-38
0.025371436 -0.041828565 0.72000003 2.1664517e-38
0.026742881 -0.041828565 0.72000009 2.0188698e-38
0.028114324 -0.04182858 0.72000009 2.1205349e-38
0.029485729 -0.041828565 0.72000003 2.2313135e-38
0.030857172 -0.041828565 0.72000003 2.286596e-38
0.032228615 -0.041828565 0.72000009 2.341769e-38
0.033739977 -0.042002864 0.72300005 2.341769e-38
0.035359979 -0.042293333 0.72800004 2.3417684e-38
0.036898121 -0.042467616 0.73100007 2.2311705e-38
0.038342878 -0.042525716 0.73200005 2.1206804e-38
0.039954308 -0.042758115 0.73600012 2.1206438e-38
0.041412394 -0.042816199 0.73700005 2.1299361e-38
0.042932399 -0.042932384 0.73900002 2.2313149e-38
0.044400025 -0.042990483 0.74000001 2.3325853e-38
0.045995299 -0.043164782 0.74300009 2.341769e-38
0.047665689 -0.043397151 0.74700004 2.341769e-38
0.049154297 -0.043455236 0.74800009 2.341769e-38
0.050849564 -0.043687634 0.75200009 2.3325791e-38
0.052490477 -0.043861918 0.75500005 1.8627409e-38
0.054142874 -0.044036202 0.75800008 1.3839724e-38
0.055733375 -0.044152372 0.76000011 1.4394282e-38
0.057256196 -0.044210486 0.76100004 1.4948894e-38
0.058860004 -0.044326685 0.76300001 1.1160331e-38
0.060313359 -0.04432667 0.76300001 7.3734966e-39
0.062090486 -0.044559054 0.76700008 7.8333355e-39
0.063634306 -0.044617154 0.76800007 8.2932318e-39
0.065266676 -0.044733323 0.77000004 8.1106384e-39
0.066733353 -0.044733338 0.77000004 7.9273276e-39
0.068377182 -0.044849552 0.77200007 7.5596283e-39
0.069847673 -0.044849537 0.77200007 7.283756e-39
-0.031041902 -0.042592369 0.75800008 1.2252606e-38
-0.029598072 -0.042592399 0.75800008 1.5278146e-38
-0.028154282 -0.042592399 0.75800008 1.5365309e-38
-0.026710443 -0.042592384 0.75800002 1.5363864e-38
-0.025200032 -0.042480014 0.75600004 1.5910564e-38
-0.02376001 -0.042480014 0.7560001 1.6462663e-38
-0.022290479 -0.042423822 0.75500005 1.6096766e-38
-0.020852381 -0.042423822 0.75500011 1.5727995e-38
-0.019362863 -0.042311423 0.75300002 1.5541101e-38
-0.01790474 -0.042255245 0.75200009 1.5362463e-38
-0.016428556 -0.042142846 0.75000012 1.5818783e-38
-0.015000014 -0.042142861 0.75000006 1.6204089e-38
-0.01353523 -0.042030476 0.74800009 1.6769119e-38
-0.012110458 -0.042030491 0.74800009 1.7318701e-38
-0.01067143 -0.041974269 0.7470001 1.6309592e-38
-0.0092238029 -0.041861914 0.74500006 1.5294388e-38
-0.0077837687 -0.04174953 0.74300009 1.3819646e-38
-0.0063685356 -0.041749544 0.74300009 1.2356749e-38
-0.004946663 -0.041693337 0.74200004 1.3006068e-38
-0.0035333531 -0.041693352 0.74200004 1.3651447e-38
-0.0021142606 -0.041580953 0.74000001 1.337022e-38
-0.00070190139 -0.041412391 0.73700005 1.3095409e-38
0.00070190907 -0.041412376 0.73700005 1.3276546e-38
0.0021028565 -0.041356184 0.73600006 1.3464914e-38
0.0035047783 -0.041356198 0.73600012 1.384126e-38
0.004906687 -0.041356184 0.73600006 1.4118235e-38
0.0063085742 -0.041356198 0.73600006 1.3843481e-38
0.0076895459 -0.041243829 0.73400009 1.356869e-38
0.0090504838 -0.041075252 0.73100007 1.3105926e-38
0.01044287 -0.041075252 0.73100007 1.255563e-38
0.011835239 -0.041075237 0.73100001 1.2829703e-38
0.013191476 -0.040962867 0.72900009 1.3016242e-38
0.014560019 -0.040906675 0.72800004 1.2465229e-38
0.015946671 -0.04090666 0.7280001 1.1912058e-38
0.017285703 -0.040794276 0.72600007 1.5216697e-38
0.01864288 -0.040738098 0.72500008 1.8448164e-38
0.019968577 -0.040625714 0.72300011 2.0938132e-38
0.021345714 -0.040625714 0.72300005 2.341769e-38
0.022691429 -0.040569521 0.72200006 2.3234019e-38
0.024000037 -0.040457152 0.72000003 2.3047461e-38
0.025371458 -0.040457137 0.72000009 2.2305587e-38
0.026742902 -0.040457152 0.72000009 2.1574856e-38
0.028114308 -0.040457152 0.72000003 2.2499317e-38
0.029485751 -0.040457137 0.72000009 2.3325127e-38
0.030857194 -0.040457137 0.72000009 2.341769e-38
0.032318108 -0.040569521 0.72200012 2.341769e-38
0.033833358 -0.040738098 0.72500008 2.341769e-38
0.035360001 -0.040906675 0.7280001 2.3416249e-38
0.036898118 -0.041075252 0.73100007 2.2126599e-38
0.038342867 -0.041131444 0.73200005 2.0746908e-38
0.039954323 -0.041356198 0.73600006 2.0928778e-38
0.04141238 -0.041412391 0.73700005 2.1115329e-38
0.042932421 -0.04152476 0.73900008 2.2220953e-38
0.044400018 -0.041580953 0.74000001 2.3233299e-38
0.045995262 -0.04174953 0.74300009 2.3325854e-38
0.047665719 -0.041974269 0.7470001 2.341769e-38
0.049154319 -0.042030476 0.74800009 2.341769e-38
0.050849549 -0.042255245 0.75200009 2.3414407e-38
0.052490506 -0.042423822 0.75500011 1.8721056e-38
0.053999994 -0.042480014 0.75600004 1.4026629e-38
0.05573336 -0.042704768 0.76000005 1.4393558e-38
0.057256211 -0.042760946 0.7610001 1.4664733e-38
0.05886 -0.042873345 0.76300001 1.0881874e-38
0.060471445 -0.04298573 0.76500005 7.0093552e-39
0.062090486 -0.043098085 0.76700008 7.6496911e-39
0.063800007 -0.043266661 0.77000004 8.2014132e-39
0.065436229 -0.043379046 0.77200007 8.1113643e-39
0.066906713 -0.043379061 0.77200007 7.9284108e-39
0.068377174 -0.043379061 0.77200007 7.9269745e-39
0.069847666 -0.043379061 0.77200007 7.8347774e-39
-0.031123791 -0.041257165 0.76000005 1.1979984e-38
-0.029598083 -0.041148566 0.75800002 1.5193874e-38
-0.028154252 -0.041148581 0.75800008 1.5284639e-38
-0.026710462 -0.041148566 0.75800008 1.5462537e-38
-0.025199987 -0.041040011 0.75600004 1.5829485e-38
-0.023760002 -0.041040011 0.75600004 1.6194691e-38
-0.022290446 -0.040985741 0.75500011 1.6013906e-38
-0.020852387 -0.040985711 0.75500005 1.5916345e-38
-0.01936285 -0.040877141 0.75300008 1.5828468e-38
-0.017904757 -0.040822841 0.75200009 1.5742031e-38
-0.016428554 -0.040714301 0.75000012 1.6023653e-38
-0.014999973 -0.040714301 0.75000012 1.6313907e-38
-0.013535211 -0.040605731 0.74800009 1.5760781e-38
-0.012110475 -0.040605716 0.74800009 1.5215118e-38
-0.010671438 -0.040551417 0.74700004 1.4468206e-38
-0.009223816 -0.040442862 0.74500012 1.372672e-38
-0.0077837808 -0.040334277 0.74300009 1.2627936e-38
-0.0063685458 -0.040334292 0.74300003 1.1528414e-38
-0.0049533127 -0.040334292 0.74300003 1.2916341e-38
-0.0035333149 -0.040279992 0.74200004 1.4297852e-38
-0.0021142662 -0.040171422 0.74000007 1.3835837e-38
-0.0007018809 -0.040008582 0.73700011 1.3463156e-38
0.00070192956 -0.040008582 0.73700011 1.3376742e-38
0.0021057008 -0.040008582 0.73700005 1.3382137e-38
0.003504795 -0.039954297 0.73600006 1.3567257e-38
0.0049066795 -0.039954282 0.73600006 1.3661245e-38
0.0063085658 -0.039954282 0.73600006 1.3383943e-38
0.0076895561 -0.039845742 0.73400009 1.310736e-38
0.0090504838 -0.039682873 0.73100007 1.2831135e-38
0.010442853 -0.039682873 0.73100001 1.2554554e-38
0.011835238 -0.039682858 0.73100001 1.3567974e-38
0.013191456 -0.039574273 0.72900009 1.4670359e-38
0.014560007 -0.039520018 0.72800004 1.4486687e-38
0.015946683 -0.039520018 0.72800004 1.4390904e-38
0.017285731 -0.039411433 0.72600007 1.6601769e-38
0.018642858 -0.039357148 0.72500002 1.8917389e-38
0.019968571 -0.039248578 0.72300011 2.1121803e-38
0.021345709 -0.039248578 0.72300005 2.341769e-38
0.022722846 -0.039248578 0.72300005 2.3141825e-38
0.024066687 -0.039194293 0.72200012 2.2773039e-38
0.025371443 -0.039085709 0.72000003 2.2310265e-38
0.026742887 -0.039085723 0.72000009 2.1948314e-38
0.02811433 -0.039085709 0.72000009 2.2683006e-38
0.029485736 -0.039085709 0.72000003 2.341769e-38
0.030942883 -0.039194293 0.72200012 2.3325854e-38
0.032318097 -0.039194293 0.72200006 2.3325854e-38
0.033833373 -0.039357148 0.72500008 2.3325854e-38
0.035360016 -0.039520003 0.72800004 2.3417684e-38
0.03689808 -0.039682858 0.73100001 2.2219511e-38
0.038342856 -0.039737128 0.73200005 2.1020979e-38
0.039954316 -0.039954297 0.73600012 2.1113165e-38
0.041524809 -0.040117137 0.73900008 2.1206086e-38
0.042990495 -0.040171422 0.74000001 2.2036562e-38
0.044520009 -0.040279992 0.74200004 2.2866314e-38
0.045995291 -0.040334292 0.74300009 2.3142182e-38
0.047665711 -0.040551431 0.74700004 2.341769e-38
0.0491543 -0.040605716 0.74800003 2.341769e-38
0.050849572 -0.040822856 0.75200009 2.3417644e-38
0.052490503 -0.040985741 0.75500011 1.8903668e-38
0.054000016 -0.041040011 0.75600004 1.4386801e-38
0.055733345 -0.04125715 0.76000005 1.429992e-38
0.057256188 -0.041311421 0.76100004 1.4209458e-38
0.058859996 -0.041420005 0.76300001 1.0511222e-38
0.060471468 -0.04152859 0.76500005 6.8163305e-39
0.062090509 -0.041637145 0.76700008 7.3716987e-39
0.063800044 -0.0418 0.77000004 8.0163254e-39
0.065436222 -0.041908585 0.77200007 7.651119e-39
0.066906705 -0.04190857 0.77200007 7.3802733e-39
0.068377197 -0.041908585 0.77200007 7.4688774e-39
0.069847681 -0.04190857 0.77200007 7.6507575e-39
-0.031123828 -0.039809518 0.76000005 1.1706981e-38
-0.0295981 -0.039704777 0.75800008 1.501741e-38
-0.028154269 -0.039704777 0.75800008 1.5300496e-38
-0.026710432 -0.039704777 0.75800002 1.5475876e-38
-0.025200022 -0.039600007 0.75600004 1.5749549e-38
-0.023759978 -0.039600007 0.7560001 1.5933592e-38
-0.022319995 -0.039600007 0.7560001 1.6030822e-38
-0.020852391 -0.03954763 0.75500005 1.6022566e-38
-0.019414268 -0.039547615 0.75500005 1.6113678e-38
-0.017928548 -0.03944286 0.75300008 1.6116562e-38
-0.016428553 -0.039285712 0.75000012 1.6220251e-38
-0.014999971 -0.039285712 0.75000012 1.630852e-38
-0.013535229 -0.039180957 0.74800009 1.4745187e-38
-0.012110457 -0.039180957 0.74800009 1.3091063e-38
-0.010671434 -0.039128579 0.7470001 1.2621116e-38
-0.0092238085 -0.039023824 0.74500012 1.2078345e-38
-0.0077837519 -0.038919069 0.74300009 1.1436207e-38
-0.0063685188 -0.038919054 0.74300009 1.0710169e-38
-0.004953308 -0.038919054 0.74300009 1.2833544e-38
-0.0035333196 -0.038866661 0.74200004 1.4946503e-38
-0.0021199696 -0.038866661 0.74200004 1.4396233e-38
-0.00070378452 -0.038709514 0.73900008 1.3750175e-38
0.00070383132 -0.038709529 0.73900008 1.3569036e-38
0.0021057436 -0.038604788 0.73700011 1.3291743e-38
0.003509515 -0.038604774 0.73700005 1.3292109e-38
0.0049066711 -0.038552381 0.73600006 1.3200272e-38
0.0063085798 -0.038552381 0.73600006 1.2924047e-38
0.0077105053 -0.038552411 0.73600006 1.2556705e-38
0.0090628816 -0.038342856 0.73200011 1.2556348e-38
0.01044285 -0.038290478 0.73100001 1.2466306e-38
0.011835235 -0.038290478 0.73100007 1.4400591e-38
0.013191434 -0.038185708 0.72900009 1.6327694e-38
0.014580033 -0.038185708 0.72900009 1.6603553e-38
0.015946671 -0.038133346 0.72800004 1.6780765e-38
0.017285734 -0.03802859 0.72600007 1.8065384e-38
0.018642873 -0.037976213 0.72500008 1.9274321e-38
0.019968566 -0.037871428 0.72300011 2.1397309e-38
0.021345703 -0.037871443 0.72300005 2.341769e-38
0.02272284 -0.037871443 0.72300005 2.2958513e-38
0.02406669 -0.03781905 0.72200012 2.2496446e-38
0.025441939 -0.037819065 0.72200012 2.2397775e-38
0.026817132 -0.03781905 0.72200012 2.2219501e-38
0.028114313 -0.03771428 0.72000009 2.2866671e-38
0.029485757 -0.037714295 0.72000009 2.3417687e-38
0.030942887 -0.03781905 0.72200012 2.3325854e-38
0.03236283 -0.037871428 0.72300005 2.3142183e-38
0.033880025 -0.03802859 0.72600007 2.3325854e-38
0.035408597 -0.038185723 0.72900009 2.3416967e-38
0.036898077 -0.038290478 0.73100001 2.2312067e-38
0.038290486 -0.038290478 0.73100001 2.1207524e-38
0.039845735 -0.038447611 0.73400009 2.120429e-38
0.041412406 -0.038604774 0.73700011 2.1206088e-38
0.042932414 -0.038709514 0.73900002 2.1852528e-38
0.044520024 -0.038866661 0.7420001 2.2497893e-38
0.046119042 -0.039023824 0.74500012 2.2958154e-38
0.047729544 -0.039180942 0.74800009 2.341769e-38
0.049285721 -0.039285697 0.75000012 2.341769e-38
0.050917167 -0.03944286 0.75300008 2.3414412e-38
0.052490495 -0.03954763 0.75500011 1.9088768e-38
0.053999983 -0.039600007 0.75600004 1.4669098e-38
0.055733372 -0.039809503 0.76000011 1.4209473e-38
0.057256203 -0.03986191 0.76100004 1.3648744e-38
0.058860019 -0.039966665 0.76300001 1.0137799e-38
0.060471445 -0.040071435 0.76500005 6.5476427e-39
0.062090509 -0.040176205 0.76700008 7.1873005e-39
0.063800015 -0.040333323 0.77000004 7.8322733e-39
0.065436237 -0.040438108 0.77200001 7.2805162e-39
0.066906698 -0.040438108 0.77200007 6.733099e-39
0.068377189 -0.040438108 0.77200007 7.1004508e-39
0.069847673 -0.040438108 0.77200007 7.3756041e-39
-0.031164756 -0.038412385 0.7610001 1.1986067e-38
-0.029676178 -0.038361914 0.76000005 1.4837e-38
-0.02815428 -0.038260959 0.75800002 1.5024703e-38
-0.026710451 -0.038260959 0.75800008 1.5299088e-38
-0.025199974 -0.038160019 0.75600004 1.5388366e-38
-0.023759993 -0.038160019 0.75600004 1.54838e-38
-0.022320008 -0.038160019 0.75600004 1.4469673e-38
-0.020880025 -0.038160004 0.75600004 1.3457665e-38
-0.019414298 -0.038109519 0.75500005 1.3635573e-38
-0.017904712 -0.037958093 0.75200009 1.3911091e-38
-0.016428551 -0.037857153 0.75000012 1.4742285e-38
-0.014999994 -0.037857153 0.75000012 1.5567015e-38
-0.013535208 -0.037756182 0.74800009 1.5483434e-38
-0.012094294 -0.037705712 0.7470001 1.5476991e-38
-0.010671443 -0.037705727 0.74700004 1.5208673e-38
-0.0092238206 -0.037604757 0.74500012 1.4937085e-38
-0.0077837864 -0.037503831 0.74300009 1.3928659e-38
-0.0063685533 -0.037503831 0.74300003 1.301218e-38
-0.004953281 -0.037503816 0.74300009 1.3845239e-38
-0.0035333429 -0.037453331 0.74200004 1.4676441e-38
-0.0021199938 -0.037453331 0.74200004 1.4030739e-38
-0.00070378266 -0.037301891 0.73900008 1.3480444e-38
0.00070385553 -0.037301891 0.73900008 1.3109156e-38
0.0021057269 -0.03720095 0.73700011 1.2831855e-38
0.0035048006 -0.037150465 0.73600006 1.2923689e-38
0.0049066851 -0.03715048 0.73600006 1.3014806e-38
0.0063085714 -0.037150465 0.73600006 1.3382863e-38
0.007710496 -0.037150495 0.73600012 1.3750925e-38
0.0091124056 -0.037150495 0.73600006 1.4396287e-38
0.010485738 -0.037049524 0.73400009 1.50377e-38
0.011883817 -0.037049524 0.73400009 1.5683775e-38
0.013227604 -0.036898099 0.73100001 1.6330198e-38
0.014580012 -0.036797144 0.72900009 1.5957461e-38
0.015946658 -0.036746688 0.72800004 1.5675496e-38
0.017285705 -0.036645718 0.72600001 1.7332121e-38
0.018642846 -0.036595248 0.72500002 1.9084546e-38
0.020023834 -0.036595248 0.72500008 2.1301169e-38
0.021345697 -0.036494292 0.72300005 2.341769e-38
0.022722835 -0.036494292 0.72300005 2.3142183e-38
0.024066694 -0.036443807 0.72200012 2.286593e-38
0.025441907 -0.036443807 0.72200006 2.1387922e-38
0.026817136 -0.036443822 0.72200012 1.9919655e-38
0.02819239 -0.036443807 0.72200012 2.0932381e-38
0.029567638 -0.036443822 0.72200012 2.2040152e-38
0.030942854 -0.036443807 0.72200006 2.2683006e-38
0.032362863 -0.036494277 0.72300011 2.3325496e-38
0.033880029 -0.036645733 0.72600007 2.3325853e-38
0.035408616 -0.036797144 0.72900009 2.3417686e-38
0.036797155 -0.036797144 0.72900009 2.2588292e-38
0.038342856 -0.036948569 0.73200005 2.1762129e-38
0.03995432 -0.03715048 0.73600006 2.1759255e-38
0.041356206 -0.037150495 0.73600006 2.1755666e-38
0.043106675 -0.037453331 0.74200004 2.2219506e-38
0.044700008 -0.037604757 0.74500012 2.2681563e-38
0.046304796 -0.037756182 0.74800009 2.3049989e-38
0.047729544 -0.037756197 0.74800009 2.341769e-38
0.049417187 -0.037958108 0.75200009 2.341769e-38
0.050849557 -0.037958093 0.75200009 2.3417638e-38
0.052560024 -0.038160019 0.7560001 1.8996568e-38
0.054142892 -0.038260944 0.75800008 1.4665125e-38
0.05573336 -0.038361914 0.76000005 1.3839215e-38
0.057256177 -0.038412385 0.76100004 1.3099509e-38
0.058860019 -0.03851334 0.76300001 9.6818654e-39
0.06047146 -0.038614295 0.7650001 6.1817385e-39
0.062171467 -0.038765721 0.76800007 7.0075657e-39
0.063800029 -0.038866676 0.77000004 7.9262402e-39
0.065436229 -0.038967632 0.77200007 7.5585002e-39
0.066906691 -0.038967632 0.77200007 7.1915394e-39
0.068377182 -0.038967617 0.77200007 7.3759489e-39
0.069847666 -0.038967632 0.77200007 7.651105e-39
-0.031164754 -0.036962859 0.76100004 1.2269562e-38
-0.029676214 -0.036914282 0.76000005 1.4659827e-38
-0.028228577 -0.036914296 0.76000011 1.4844962e-38
-0.026710467 -0.036817156 0.75800008 1.5024637e-38
-0.025266629 -0.036817156 0.75800002 1.5021356e-38
-0.02376003 -0.036720015 0.75600004 1.5020283e-38
-0.022319986 -0.036720015 0.7560001 1.2905917e-38
-0.020880003 -0.036720015 0.75600004 1.0790497e-38
-0.019414265 -0.036671422 0.75500011 1.124396e-38
-0.017904729 -0.036525719 0.75200009 1.1620958e-38
-0.016428571 -0.036428578 0.75000012 1.3178188e-38
-0.014999992 -0.036428578 0.75000012 1.4754871e-38
-0.013535212 -0.036331452 0.74800009 1.6328328e-38
-0.012110476 -0.036331423 0.74800009 1.7793757e-38
-0.010642855 -0.036185734 0.74500012 1.7799503e-38
-0.0092238132 -0.036185704 0.74500012 1.7795905e-38
-0.007804771 -0.036185704 0.74500006 1.6513427e-38
-0.0063685263 -0.036088578 0.74300009 1.5224542e-38
-0.0049532913 -0.036088578 0.74300003 1.4766482e-38
-0.0035380581 -0.036088578 0.74300003 1.4306596e-38
-0.0021199966 -0.036040001 0.74200004 1.3753798e-38
-0.0007037957 -0.035894282 0.73900002 1.3201348e-38
0.00070189976 -0.035797156 0.73700005 1.2739301e-38
0.0021057306 -0.035797156 0.73700005 1.2280124e-38
0.0035047913 -0.035748579 0.73600012 1.255563e-38
0.0049066758 -0.035748579 0.73600006 1.2740376e-38
0.0063085631 -0.035748579 0.73600006 1.3842042e-38
0.0077105109 -0.035748579 0.73600006 1.4949809e-38
0.0090876324 -0.035651438 0.73400003 1.6239813e-38
0.010485748 -0.035651453 0.73400009 1.7521189e-38
0.011851424 -0.035554282 0.73200011 1.6965855e-38
0.013227602 -0.035505719 0.73100001 1.6322295e-38
0.01458003 -0.035408594 0.72900009 1.5403587e-38
0.015946649 -0.035360001 0.72800004 1.4481643e-38
0.017285712 -0.035262875 0.72600001 1.6686413e-38
0.018668581 -0.03526286 0.72600001 1.8905901e-38
0.02002381 -0.035214312 0.72500002 2.1213638e-38
0.021345692 -0.035117142 0.72300005 2.341769e-38
0.022722866 -0.035117142 0.72300011 2.3325854e-38
0.024066698 -0.035068564 0.72200012 2.3229329e-38
0.025441911 -0.035068549 0.72200006 2.036877e-38
0.026817139 -0.035068564 0.72200012 1.7526543e-38
0.028192393 -0.035068564 0.72200012 1.9085963e-38
0.029567642 -0.035068579 0.72200012 2.0566468e-38
0.030985702 -0.035117127 0.72300005 2.2040158e-38
0.032362878 -0.035117142 0.72300005 2.341769e-38
0.033879999 -0.03526289 0.72600001 2.341769e-38
0.035408597 -0.035408564 0.72900009 2.341661e-38
0.036898099 -0.035505705 0.73100001 2.2861646e-38
0.038342848 -0.035554297 0.73200005 2.2313144e-38
0.040008586 -0.035797141 0.73700005 2.2314221e-38
0.041693337 -0.036040001 0.74200004 2.2219871e-38
0.043106686 -0.036040001 0.7420001 2.2588647e-38
0.044819999 -0.036282875 0.7470001 2.2865595e-38
0.046428561 -0.036428578 0.75000006 2.3142183e-38
0.047984779 -0.036525719 0.75200009 2.341769e-38
0.049417149 -0.036525704 0.75200009 2.341769e-38
0.051052406 -0.036671437 0.75500011 2.3415131e-38
0.052560009 -0.03672 0.75600004 1.8998729e-38
0.0541429 -0.036817156 0.75800008 1.4577955e-38
0.055733345 -0.036914282 0.76000005 1.3565856e-38
0.057256199 -0.036962874 0.76100004 1.2542751e-38
0.058860019 -0.037060015 0.76300001 9.2165838e-39
0.060471445 -0.037157141 0.76500005 5.8154629e-39
0.062171455 -0.037302859 0.76800007 6.91787e-39
0.0638 -0.0374 0.77000004 7.9276751e-39
0.065436222 -0.03749714 0.77200007 7.8358144e-39
0.066906713 -0.037497155 0.77200007 7.6518015e-39
0.068377197 -0.037497155 0.77200007 7.7436552e-39
-0.032699984 -0.03560669 0.76300007 1.1727275e-38
-0.03124667 -0.035606675 0.76300001 1.3196623e-38
-0.029676165 -0.035466664 0.76000011 1.4758519e-38
-0.028228566 -0.035466678 0.76000005 1.4939293e-38
-0.026710477 -0.035373338 0.75800002 1.5025333e-38
-0.025266647 -0.035373323 0.75800008 1.4835506e-38
-0.023760006 -0.035279997 0.7560001 1.4557483e-38
-0.02232 -0.035280012 0.75600004 1.3549439e-38
-0.020880017 -0.035280012 0.75600004 1.262542e-38
-0.01941427 -0.035233356 0.75500011 1.383227e-38
-0.017904729 -0.035093345 0.75200009 1.503826e-38
-0.01647234 -0.03509336 0.75200009 1.5955469e-38
-0.01499999 -0.035000004 0.75000012 1.6884692e-38
-0.013535231 -0.034906678 0.74800009 1.7803154e-38
-0.012110456 -0.034906678 0.74800009 1.8722586e-38
-0.010671445 -0.034860007 0.7470001 1.8076868e-38
-0.0092485948 -0.034860007 0.74700004 1.743295e-38
-0.0078047607 -0.034766652 0.74500006 1.623802e-38
-0.0063857036 -0.034766667 0.74500012 1.5136711e-38
-0.0049666613 -0.034766681 0.74500012 1.4674305e-38
-0.0035380535 -0.034673341 0.74300009 1.4212616e-38
-0.0021228194 -0.034673356 0.74300009 1.3660167e-38
-0.00070379197 -0.034486674 0.73900008 1.3198837e-38
0.00070190348 -0.034393333 0.73700005 1.2554911e-38
0.002105712 -0.034393348 0.73700005 1.1911345e-38
0.003504782 -0.034346662 0.73600012 1.3106642e-38
0.0049066925 -0.034346662 0.73600006 1.4303373e-38
0.006308577 -0.034346677 0.73600006 1.5961075e-38
0.0077105025 -0.034346692 0.73600012 1.7618779e-38
0.0090876427 -0.034253351 0.73400009 1.8261986e-38
0.010457143 -0.034160025 0.73200011 1.8902293e-38
0.011835256 -0.03411334 0.73100007 1.7424285e-38
0.013227625 -0.034113325 0.73100001 1.5945974e-38
0.014580008 -0.034019999 0.72900009 1.4757158e-38
0.01596861 -0.034020014 0.72900009 1.3650111e-38
0.017333347 -0.033973344 0.72800004 1.632482e-38
0.018668585 -0.033880018 0.72600007 1.8914875e-38
0.020023823 -0.033833347 0.72500008 2.1212921e-38
0.02134569 -0.033740006 0.72300005 2.341769e-38
0.022722863 -0.033740006 0.72300011 2.341769e-38
0.024099998 -0.033740006 0.72300005 2.3325832e-38
0.025441915 -0.033693321 0.72200006 2.0836923e-38
0.026817143 -0.033693336 0.72200012 1.8262295e-38
0.028192397 -0.033693336 0.72200012 2.0009316e-38
0.02956761 -0.033693336 0.72200006 2.1670994e-38
0.030985698 -0.033739991 0.72300005 2.2590812e-38
0.032452375 -0.033833332 0.72500008 2.341769e-38
0.033880003 -0.033880018 0.72600007 2.341769e-38
0.035408612 -0.034020014 0.72900009 2.3417686e-38
0.036898095 -0.03411334 0.73100007 2.2772679e-38
0.038342874 -0.034160011 0.73200011 2.2130911e-38
0.039954327 -0.034346662 0.73600006 2.2129838e-38
0.041580953 -0.034533344 0.74000001 2.2129478e-38
0.043106686 -0.03462667 0.74200004 2.2497176e-38
0.044700023 -0.034766681 0.74500012 2.2958151e-38
0.046428598 -0.035000004 0.75000012 2.3234019e-38
0.047984801 -0.03509333 0.75200009 2.341769e-38
0.049417172 -0.035093345 0.75200009 2.341769e-38
0.051052399 -0.035233356 0.75500011 2.3417647e-38
0.052559994 -0.035280012 0.75600004 1.8905107e-38
0.054142866 -0.035373323 0.75800002 1.4388545e-38
0.055733372 -0.035466664 0.76000011 1.3470068e-38
0.057256177 -0.035513334 0.76100004 1.2636374e-38
0.058860019 -0.035606675 0.76300001 9.4967468e-39
0.06047146 -0.035700031 0.7650001 6.3632389e-39
0.062090509 -0.035793327 0.76700008 7.1926464e-39
0.063965753 -0.036026679 0.77200001 8.0198707e-39
0.065520972 -0.036073335 0.77300006 7.5599618e-39
0.066993363 -0.036073349 0.77300012 7.1933513e-39
0.068377189 -0.036026679 0.77200007 7.5596297e-39
-0.032699965 -0.03415335 0.76300007 1.3475759e-38
-0.031246692 -0.034153335 0.76300001 1.4214021e-38
-0.029715262 -0.034063809 0.76100004 1.4853617e-38
-0.028228557 -0.034019046 0.76000005 1.4944712e-38
-0.026710495 -0.033929534 0.75800008 1.5030055e-38
-0.025266621 -0.033929534 0.75800008 1.455434e-38
-0.023760021 -0.033840023 0.75600004 1.4106643e-38
-0.022319978 -0.033840023 0.7560001 1.4292109e-38
-0.020852376 -0.033795245 0.75500005 1.4389017e-38
-0.019362848 -0.033705734 0.75300008 1.642057e-38
-0.017904747 -0.033660956 0.75200009 1.8442349e-38
-0.016428567 -0.03357143 0.75000012 1.8721406e-38
-0.014999988 -0.03357143 0.75000006 1.89984e-38
-0.01353521 -0.033481903 0.74800009 1.927647e-38
-0.012094303 -0.03343714 0.74700004 1.954839e-38
-0.010671453 -0.03343714 0.74700004 1.8352018e-38
-0.0092238151 -0.033347644 0.74500012 1.706561e-38
-0.0078047747 -0.033347629 0.74500012 1.6052912e-38
-0.0063856933 -0.033347629 0.74500012 1.4950528e-38
-0.004966652 -0.033347614 0.74500012 1.4489199e-38
-0.0035380637 -0.033258088 0.74300003 1.4027509e-38
-0.0021228306 -0.033258103 0.74300003 1.3566538e-38
-0.00070376589 -0.033079036 0.73900008 1.3106643e-38
0.00070192583 -0.032989539 0.73700011 1.2369448e-38
0.0021056971 -0.032989524 0.73700005 1.1544363e-38
0.0035047969 -0.032944776 0.73600012 1.365658e-38
0.0049066832 -0.032944776 0.73600006 1.5777404e-38
0.0063085686 -0.032944746 0.73600006 1.7988628e-38
0.0077105155 -0.032944776 0.73600006 2.019304e-38
0.0090876129 -0.03285525 0.73400009 2.0194835e-38
0.010457157 -0.032765709 0.73200005 2.0188361e-38
0.011835215 -0.032720961 0.73100001 1.788313e-38
0.013227623 -0.032720961 0.73100001 1.5494702e-38
0.014580026 -0.032631435 0.72900009 1.4211889e-38
0.01594666 -0.032586671 0.72800004 1.2831485e-38
0.01733334 -0.032586671 0.72800004 1.586385e-38
0.018668592 -0.03249716 0.72600007 1.8909853e-38
0.0200238 -0.032452397 0.72500002 2.1213638e-38
0.021404784 -0.032452397 0.72500008 2.341769e-38
0.022722859 -0.032362871 0.72300011 2.341769e-38
0.024099994 -0.032362871 0.72300005 2.3416233e-38
0.02547713 -0.032362856 0.72300005 2.1207136e-38
0.026854306 -0.032362871 0.72300005 1.8996984e-38
0.028192401 -0.032318093 0.72200012 2.0926244e-38
0.029567614 -0.032318108 0.72200006 2.2771589e-38
0.030985733 -0.032362841 0.72300011 2.3142183e-38
0.032452412 -0.032452382 0.72500008 2.341769e-38
0.033973336 -0.032586657 0.72800004 2.341769e-38
0.03540859 -0.03263142 0.72900009 2.3416967e-38
0.036898099 -0.032720961 0.73100007 2.2679766e-38
0.038342886 -0.032765709 0.73200011 2.1852889e-38
0.040008571 -0.032989509 0.73700005 2.1944368e-38
0.041580964 -0.033123814 0.74000001 2.1944366e-38
0.04310666 -0.033213325 0.74200004 2.2496097e-38
0.044700012 -0.033347629 0.74500012 2.3049266e-38
0.046304792 -0.033481903 0.74800009 2.3234019e-38
0.047984801 -0.033660971 0.75200009 2.341769e-38
0.049482845 -0.033705704 0.75300008 2.341769e-38
0.051052392 -0.03379526 0.75500005 2.3415134e-38
0.052560017 -0.033839993 0.75600004 1.8815064e-38
0.054285735 -0.03401906 0.76000011 1.420812e-38
0.05580667 -0.034063809 0.76100004 1.3473332e-38
0.057256192 -0.034063824 0.76100004 1.2633537e-38
0.058860015 -0.03415335 0.76300001 9.7712065e-39
0.060471442 -0.034242876 0.76500005 6.8260177e-39
0.062090531 -0.034332402 0.76700008 7.468869e-39
0.063965745 -0.034556203 0.77200001 8.0195036e-39
0.065521002 -0.034600966 0.77300012 7.3748432e-39
0.066993371 -0.034600951 0.77300012 6.6412495e-39
-0.032699987 -0.032700025 0.76300007 1.4669283e-38
-0.031246632 -0.03270001 0.76300007 1.4853671e-38
-0.029715218 -0.032614298 0.76100004 1.4945846e-38
-0.028265718 -0.032614298 0.7610001 1.5407515e-38
-0.026780954 -0.032571428 0.76000005 1.5779865e-38
-0.025266636 -0.032485716 0.75800008 1.5495734e-38
-0.023822846 -0.032485731 0.75800008 1.5318887e-38
-0.022319991 -0.032400019 0.75600004 1.5590456e-38
-0.020880008 -0.032400005 0.75600004 1.5871011e-38
-0.019414281 -0.032357149 0.75500005 1.6974497e-38
-0.017928584 -0.032271437 0.75300008 1.8170508e-38
-0.016472358 -0.032228582 0.75200009 1.8538922e-38
-0.015000008 -0.03214287 0.75000012 1.890698e-38
-0.013535251 -0.032057159 0.74800009 1.9089572e-38
-0.012142845 -0.032142855 0.75000006 1.9178539e-38
-0.010671425 -0.032014288 0.74700004 1.816835e-38
-0.0092485985 -0.032014273 0.74700004 1.715888e-38
-0.0078047663 -0.031928591 0.74500006 1.5869599e-38
-0.0063856859 -0.031928577 0.74500012 1.4673945e-38
-0.0049666436 -0.031928577 0.74500012 1.4303374e-38
-0.0035380619 -0.03184288 0.74300009 1.4025357e-38
-0.0021228269 -0.031842865 0.74300009 1.3750208e-38
-0.00070380315 -0.031671427 0.73900008 1.347542e-38
0.00070192956 -0.031585716 0.73700005 1.3750928e-38
0.0021057418 -0.031585716 0.73700011 1.4117194e-38
0.0035047894 -0.031542875 0.73600012 1.4946583e-38
0.0049066739 -0.03154286 0.73600006 1.5690948e-38
0.0063085826 -0.03154286 0.73600006 1.770989e-38
0.0077105081 -0.03154286 0.73600012 1.9643461e-38
0.0090876464 -0.031457148 0.73400009 1.955055e-38
0.010457146 -0.031371422 0.73200005 1.9548754e-38
0.011835237 -0.031328566 0.73100001 1.7245689e-38
0.013227621 -0.031328581 0.73100007 1.4948368e-38
0.014580027 -0.031242855 0.72900009 1.402858e-38
0.015946671 -0.031199999 0.72800004 1.3109506e-38
0.017333325 -0.031200014 0.72800004 1.6052904e-38
0.018668557 -0.031114288 0.72600001 1.9004201e-38
0.020051427 -0.031114288 0.72600001 2.1212203e-38
0.021404762 -0.031071417 0.72500002 2.341769e-38
0.022785742 -0.031071432 0.72500008 2.341769e-38
0.024099991 -0.030985706 0.72300005 2.3325833e-38
