# .PCD v0.7 - Point Cloud Data file format
VERSION 0.7
FIELDS x y z rgb
SIZE 4 4 4 4
TYPE F F F F
COUNT 1 1 1 1
WIDTH 951
HEIGHT 1
VIEWPOINT 0 0 0 1 0 0 0
POINTS 951
DATA ascii
-0.016143804 -0.058258079 0.73700005 1.5610955e-38
-0.014739994 -0.058258079 0.73700005 1.7077812e-38
-0.013336178 -0.058258079 0.73699999 1.7077453e-38
-0.011964753 -0.05841618 0.73900002 1.6984539e-38
-0.010557133 -0.05841618 0.73900002 1.4957341e-38
-0.0091495197 -0.058416195 0.73900002 1.2846562e-38
-0.0077418983 -0.05841618 0.73900002 1.3307535e-38
-0.0063342764 -0.05841618 0.73900002 1.3763841e-38
-0.0049266652 -0.05841618 0.73900002 1.0541346e-38
-0.0035190433 -0.05841618 0.73900002 7.2352669e-39
-0.0021057012 -0.058258079 0.73700005 1.0359467e-38
-0.00070380926 -0.05841618 0.73900002 1.3489052e-38
0.00070381264 -0.05841618 0.73900002 1.3586628e-38
0.0021143002 -0.058495231 0.74000001 1.3582682e-38
0.0035238229 -0.058495216 0.74000001 1.3396141e-38
0.0049466854 -0.058653302 0.74200004 1.3214264e-38
0.0063428786 -0.058495216 0.73999995 1.4135848e-38
0.0077733397 -0.058653317 0.74200004 1.4960932e-38
0.00916191 -0.058495231 0.74000001 1.3489771e-38
0.01060002 -0.058653317 0.74200004 1.2018968e-38
0.01201334 -0.058653317 0.74200004 1.2386668e-38
0.013426685 -0.058653317 0.74200004 1.2664327e-38
0.014860015 -0.058732383 0.74300003 1.3859982e-38
0.016275261 -0.058732353 0.74300003 1.4962367e-38
0.017690491 -0.058732353 0.74300003 1.441243e-38
0.019157153 -0.058890469 0.74500006 1.3765995e-38
0.020576194 -0.058890469 0.74500006 1.385496e-38
0.021995239 -0.058890454 0.74500006 1.3855676e-38
0.023477152 -0.059048571 0.74700004 1.0911201e-38
0.024900008 -0.059048556 0.74700004 7.9713886e-39
0.026322862 -0.059048541 0.74700004 8.9837329e-39
0.02778287 -0.059127621 0.74800003 9.9834598e-39
0.029207624 -0.059127606 0.74800003 8.8612832e-39
0.030632393 -0.059127606 0.74800003 7.650452e-39
0.032057144 -0.059127592 0.74800003 7.5488215e-39
0.033481915 -0.059127606 0.74800003 7.4645432e-39
0.034906682 -0.059127606 0.74800003 7.7429447e-39
0.036282875 -0.059048541 0.74699998 8.0180981e-39
-0.030181896 -0.05685427 0.73700005 9.8095349e-39
-0.02873905 -0.056777127 0.73600006 1.2200126e-38
-0.027337143 -0.056777127 0.73600006 1.0360904e-38
-0.02586475 -0.056622826 0.73400003 8.5213254e-39
-0.024466654 -0.05662284 0.73400003 1.1375043e-38
-0.023068553 -0.05662284 0.73400003 1.4323465e-38
-0.021729525 -0.056777127 0.73600006 1.4228401e-38
-0.020327618 -0.056777127 0.73600006 1.4042219e-38
-0.018951412 -0.056854255 0.73699999 1.3858905e-38
-0.017547613 -0.05685427 0.73700005 1.3677388e-38
-0.016143803 -0.056854255 0.73699999 1.5149625e-38
-0.014739996 -0.05685427 0.73700005 1.6711546e-38
-0.013336178 -0.05685427 0.73700005 1.6893781e-38
-0.011964753 -0.057008557 0.73900002 1.7169288e-38
-0.010557141 -0.057008542 0.73900002 1.5051689e-38
-0.0091495197 -0.057008557 0.73900002 1.293768e-38
-0.0077418974 -0.057008557 0.73900002 1.3399011e-38
-0.0063342853 -0.057008557 0.73900002 1.3948948e-38
-0.0049266634 -0.057008557 0.73900002 1.0728965e-38
-0.0035190415 -0.057008557 0.73900002 7.5114923e-39
-0.0021056989 -0.056854255 0.73699999 1.036162e-38
-0.00070189912 -0.05685427 0.73700005 1.3310762e-38
0.00070382195 -0.057008557 0.73900002 1.3401881e-38
0.0021142978 -0.057085715 0.74000001 1.3583759e-38
0.0035238205 -0.0570857 0.74000001 1.3214623e-38
0.0049466752 -0.057240002 0.74200004 1.2847281e-38
0.0063600102 -0.057239987 0.74200004 1.3951101e-38
0.0077733444 -0.057240002 0.74200004 1.5146397e-38
0.0091866897 -0.057240002 0.74200004 1.3673442e-38
0.01060001 -0.057239987 0.74200004 1.2291963e-38
0.012013344 -0.057239987 0.74200004 1.2571057e-38
0.013426689 -0.057240002 0.74200004 1.2849433e-38
0.014860019 -0.057317115 0.74299997 1.3675235e-38
0.016275253 -0.05731713 0.74300003 1.4501396e-38
0.017738104 -0.057471417 0.74500006 1.3858548e-38
0.019157147 -0.057471417 0.74500006 1.3213188e-38
0.020576205 -0.057471402 0.74500006 1.3581965e-38
0.021995239 -0.057471417 0.74500012 1.4043653e-38
0.02341428 -0.057471417 0.74500012 1.0913713e-38
0.02490001 -0.057625704 0.74700004 7.8781196e-39
0.026322866 -0.057625689 0.74700004 8.9805043e-39
0.02774572 -0.057625689 0.74700004 1.0078524e-38
0.029207617 -0.057702832 0.74800003 9.0503366e-39
0.030632382 -0.057702832 0.74800003 8.0210184e-39
0.032057151 -0.057702832 0.74800003 7.738221e-39
0.033481903 -0.057702847 0.74800003 7.5581681e-39
0.03490667 -0.057702832 0.74800003 7.6511106e-39
0.036331438 -0.057702832 0.74800003 7.8344131e-39
-0.030181896 -0.055450477 0.73699999 9.4407565e-39
-0.028739043 -0.055375226 0.73600006 1.1832067e-38
-0.027337138 -0.055375226 0.73600006 1.0452023e-38
-0.025864752 -0.055224754 0.73400003 8.9837315e-39
-0.024466649 -0.055224724 0.73400003 1.1461855e-38
-0.023068555 -0.055224724 0.73400003 1.3858548e-38
-0.021670461 -0.055224739 0.73400003 1.3954329e-38
-0.020327611 -0.055375211 0.73600006 1.4043652e-38
-0.01895142 -0.055450462 0.73700005 1.3675234e-38
-0.017547609 -0.055450462 0.73699999 1.3308609e-38
-0.016143803 -0.055450477 0.73700005 1.4782282e-38
-0.014739992 -0.055450477 0.73699999 1.6250215e-38
-0.013336184 -0.055450462 0.73700005 1.6800152e-38
-0.011964751 -0.055600934 0.73899996 1.7351524e-38
-0.010557139 -0.055600949 0.73900002 1.5141732e-38
-0.009149516 -0.055600934 0.73900002 1.2938758e-38
-0.0077419053 -0.055600934 0.73900002 1.3493358e-38
-0.0063342834 -0.055600934 0.73900002 1.4041501e-38
-0.0049266615 -0.055600934 0.73900002 1.0913712e-38
-0.0035190396 -0.055600934 0.73899996 7.6951619e-39
-0.0021057064 -0.055450477 0.73700005 1.0448073e-38
-0.00070189632 -0.055450462 0.73699999 1.3123143e-38
0.00070380612 -0.055600934 0.73900002 1.3309687e-38
0.0021142962 -0.05567617 0.74000001 1.3491923e-38
0.0035238189 -0.05567617 0.74000001 1.3031668e-38
0.0049466798 -0.055826657 0.74200004 1.2480656e-38
0.0063600149 -0.055826671 0.74200004 1.3858906e-38
0.0077733453 -0.055826642 0.74200004 1.5237874e-38
0.0091866795 -0.055826642 0.74200004 1.3857471e-38
0.010600015 -0.055826671 0.74200004 1.2478504e-38
0.012013345 -0.055826642 0.74200004 1.2755804e-38
0.013444781 -0.055901878 0.74300003 1.3030952e-38
0.014860012 -0.055901878 0.74300003 1.3582324e-38
0.016319048 -0.056052364 0.74500006 1.4042577e-38
0.017738089 -0.056052364 0.74500006 1.3399011e-38
0.019157147 -0.056052364 0.74500006 1.2663251e-38
0.020631447 -0.056202836 0.74699998 1.3399011e-38
0.022054303 -0.056202836 0.74699998 1.4132619e-38
0.023477156 -0.056202851 0.74699998 1.1005549e-38
0.024900012 -0.056202836 0.74699998 7.7870016e-39
0.026322868 -0.056202851 0.74699998 8.9819392e-39
0.027782867 -0.056278072 0.74800003 1.0079253e-38
0.029207632 -0.056278072 0.74800003 9.2397697e-39
0.03063239 -0.056278087 0.74800003 8.3919575e-39
0.032057155 -0.056278072 0.74800003 8.0083451e-39
0.033481911 -0.056278072 0.74800003 7.556373e-39
0.034906678 -0.056278087 0.74800003 7.6521854e-39
0.036331445 -0.056278087 0.74800003 7.6514483e-39
0.037756201 -0.056278087 0.74800003 7.6514287e-39
-0.029977143 -0.053679995 0.73200005 9.2570842e-39
-0.028582852 -0.053679995 0.73200005 1.1377553e-38
-0.027188566 -0.053679995 0.73200005 1.2846563e-38
-0.025794277 -0.053679995 0.73200005 1.4407765e-38
-0.0244 -0.053679995 0.73200011 1.4131181e-38
-0.023005718 -0.05367998 0.73200011 1.3949664e-38
-0.021611428 -0.053679995 0.73200005 1.4043295e-38
-0.020272363 -0.053826638 0.73400003 1.4227323e-38
-0.01892571 -0.05397331 0.73600006 1.3857827e-38
-0.01752381 -0.053973325 0.73600006 1.3487615e-38
-0.016143801 -0.054046638 0.73699999 1.5606289e-38
-0.014739992 -0.054046653 0.73700005 1.7717071e-38
-0.013336184 -0.054046653 0.73700005 1.7995447e-38
-0.011964759 -0.054193325 0.73900002 1.8366736e-38
-0.010557136 -0.054193325 0.73900002 1.5696334e-38
-0.0091495141 -0.054193325 0.73900002 1.3028799e-38
-0.0077419034 -0.054193325 0.73900002 1.3675953e-38
-0.0063342806 -0.05419334 0.73900002 1.4320595e-38
-0.0049266587 -0.054193296 0.73900002 1.1006265e-38
-0.0035190396 -0.05419331 0.73900002 7.6926507e-39
-0.0021057138 -0.054046653 0.73700005 1.017651e-38
-0.00070188934 -0.054046638 0.73700005 1.2760463e-38
0.00070381543 -0.054193325 0.73900002 1.4045806e-38
0.0021142939 -0.054266654 0.73999995 1.5328632e-38
0.0035238168 -0.054266639 0.74000001 1.3857827e-38
0.0049466849 -0.054413326 0.74200004 1.2296267e-38
0.0063600149 -0.054413326 0.74199998 1.3952535e-38
0.00777335 -0.054413326 0.74200004 1.5516609e-38
0.0091866851 -0.054413326 0.74200004 1.4042577e-38
0.010600004 -0.054413326 0.74200004 1.2569981e-38
0.012029553 -0.054486625 0.74299997 1.2477785e-38
0.013444774 -0.054486655 0.74300003 1.247635e-38
0.01486002 -0.05448664 0.74300003 1.3305739e-38
0.01636287 -0.054779969 0.74699998 1.4227683e-38
0.0177381 -0.054633327 0.74500006 1.376743e-38
0.01920858 -0.054779954 0.74699998 1.3305023e-38
0.020631449 -0.054779969 0.74699998 1.3764918e-38
0.022054305 -0.054779984 0.74699998 1.4225531e-38
0.023477159 -0.054779984 0.74699998 1.1004114e-38
0.024900015 -0.054779969 0.74699998 7.8745323e-39
0.026358107 -0.054853342 0.74800003 9.257087e-39
0.027782859 -0.054853313 0.74800003 1.0638528e-38
0.029207639 -0.054853313 0.74800003 1.0068463e-38
0.03063238 -0.054853328 0.74800003 9.5840351e-39
0.032057147 -0.054853328 0.74800003 8.474337e-39
0.033481903 -0.054853328 0.74800003 7.3741356e-39
0.034906682 -0.054853328 0.74800003 7.4670767e-39
0.036331434 -0.054853313 0.74800003 7.5599604e-39
0.037857179 -0.054999985 0.75 7.4677367e-39
-0.033213321 -0.052999996 0.74200004 7.9703138e-39
-0.031842846 -0.053071417 0.74300003 7.0501624e-39
-0.030263808 -0.052785687 0.73900002 8.9787064e-39
-0.028660942 -0.052428566 0.73400003 1.091658e-38
-0.027188562 -0.052285708 0.73200005 1.5332938e-38
-0.02579429 -0.052285708 0.73200011 1.9738889e-38
-0.024400001 -0.052285694 0.73200005 1.6889118e-38
-0.023068553 -0.052428551 0.73400003 1.3950383e-38
-0.021670461 -0.052428566 0.73400003 1.4133337e-38
-0.020272365 -0.052428551 0.73400003 1.4317724e-38
-0.018925712 -0.052571423 0.73600006 1.404114e-38
-0.017547609 -0.052642845 0.73699999 1.3675234e-38
-0.016143801 -0.052642845 0.73700005 1.6438191e-38
-0.014739992 -0.052642845 0.73699999 1.9190743e-38
-0.013372378 -0.052785702 0.73900002 1.9281861e-38
-0.011964757 -0.052785702 0.73900002 1.9282221e-38
-0.010557136 -0.052785702 0.73900002 1.6248423e-38
-0.0091495235 -0.052785702 0.73900002 1.3124222e-38
-0.0077419016 -0.052785702 0.73900002 1.3861059e-38
-0.0063342797 -0.052785687 0.73900002 1.4501396e-38
-0.004926668 -0.052785702 0.73900002 1.109846e-38
-0.0035190387 -0.052785702 0.73900002 7.6040438e-39
-0.002105711 -0.052642845 0.73700005 9.9885353e-39
-0.00070188608 -0.05264283 0.73699999 1.2296981e-38
0.00070381031 -0.052785702 0.73900002 1.4784077e-38
0.0021114324 -0.052785702 0.73900002 1.7167137e-38
0.0035238152 -0.052857138 0.74000001 1.4683272e-38
0.0049466752 -0.052999996 0.74200004 1.2113314e-38
0.00636002 -0.052999966 0.74200004 1.3954688e-38
0.0077838232 -0.053071417 0.74300003 1.5790322e-38
0.0091990689 -0.053071417 0.74300003 1.4226248e-38
0.0106143 -0.053071417 0.74300003 1.2570697e-38
0.012029545 -0.053071402 0.74300003 1.2200844e-38
0.013444778 -0.053071402 0.74299997 1.1834578e-38
0.0149 -0.053214274 0.74500012 1.3119918e-38
0.016362863 -0.053357132 0.74700004 1.4410278e-38
0.017785728 -0.053357132 0.74699998 1.4229118e-38
0.019208582 -0.053357117 0.74699998 1.3949307e-38
0.020631451 -0.053357117 0.74699998 1.4130467e-38
0.022054292 -0.053357117 0.74699998 1.4223378e-38
0.023477161 -0.053357117 0.74699998 1.1094513e-38
0.024900017 -0.053357117 0.74699998 7.8774021e-39
0.026322873 -0.053357117 0.74699998 9.5325934e-39
0.027745727 -0.053357132 0.74699998 1.118597e-38
0.02920763 -0.053428553 0.74800003 1.0994745e-38
0.030632388 -0.053428568 0.74800003 1.0693973e-38
0.032057151 -0.053428553 0.74800003 8.9302901e-39
0.033481907 -0.053428553 0.74800003 7.0964823e-39
0.034906674 -0.053428568 0.74800003 7.2812631e-39
0.036331441 -0.053428553 0.74800003 7.3752286e-39
0.03785716 -0.053571425 0.75 7.2844483e-39
0.039285734 -0.05357141 0.75 7.1919023e-39
-0.033213325 -0.05158665 0.74200004 8.1547023e-39
-0.031842843 -0.051656164 0.74300003 7.2341921e-39
-0.030304749 -0.051447608 0.73999995 8.7049908e-39
-0.028660933 -0.05103045 0.73399997 1.0180461e-38
-0.027262848 -0.051030464 0.73400003 1.5240385e-38
-0.025794286 -0.050891422 0.73200005 2.0387119e-38
-0.02446666 -0.051030464 0.73400003 1.7351884e-38
-0.023068558 -0.051030464 0.73400003 1.4318442e-38
-0.021670464 -0.051030464 0.73400003 1.4409919e-38
-0.020272369 -0.051030464 0.73400003 1.4501036e-38
-0.018925708 -0.051169492 0.73600006 1.4133692e-38
-0.017547615 -0.051239036 0.73700005 1.3764917e-38
-0.016143799 -0.051239021 0.73699999 1.6435681e-38
-0.014739998 -0.051239051 0.73700005 1.910142e-38
-0.013372378 -0.051378094 0.73900002 1.88234e-38
-0.011964757 -0.051378079 0.73900002 1.8548255e-38
-0.010557143 -0.051378064 0.73900002 1.5512663e-38
-0.0091495216 -0.051378079 0.73900002 1.2572492e-38
-0.0077418997 -0.051378079 0.73900002 1.3307535e-38
-0.0063342871 -0.051378079 0.73900002 1.4133337e-38
-0.0049266652 -0.051378079 0.73900002 1.2201921e-38
-0.0035190359 -0.051378094 0.73900002 1.026871e-38
-0.0021057045 -0.051239036 0.73700005 1.1279972e-38
-0.00070380181 -0.051378094 0.73900002 1.2297341e-38
0.00070669042 -0.05158665 0.74200004 1.4413507e-38
0.0021200103 -0.05158665 0.74200004 1.6433887e-38
0.0035333447 -0.05158665 0.74200004 1.4132978e-38
0.0049466901 -0.05158665 0.74200004 1.1742744e-38
0.0063685961 -0.051656164 0.74300003 1.3859624e-38
0.0077838274 -0.051656179 0.74299997 1.5973993e-38
0.0091990624 -0.051656164 0.74300003 1.4410278e-38
0.010614295 -0.051656179 0.74300003 1.2847279e-38
0.01202954 -0.051656164 0.74300003 1.266289e-38
0.013480953 -0.051795222 0.74500006 1.2571414e-38
0.01490001 -0.051795237 0.74500006 1.3582324e-38
0.016362865 -0.05193428 0.74700004 1.4595025e-38
0.017809538 -0.052003793 0.74800003 1.4226966e-38
0.019208586 -0.051934265 0.74699998 1.3948231e-38
0.020631455 -0.051934265 0.74699998 1.4040784e-38
0.022054296 -0.05193428 0.74699998 1.4228399e-38
0.023477163 -0.051934265 0.74699998 1.100447e-38
0.024900019 -0.05193428 0.74699998 7.8748896e-39
0.026322875 -0.051934265 0.74699998 9.5329522e-39
0.027782872 -0.052003779 0.74800003 1.1190293e-38
0.029207636 -0.052003793 0.74800003 1.117594e-38
0.030632392 -0.052003793 0.74800003 1.1153887e-38
0.032057144 -0.052003793 0.74800003 8.9345977e-39
0.033571448 -0.052142851 0.75 6.8206241e-39
0.035000026 -0.052142836 0.75 7.1897962e-39
0.036428582 -0.052142851 0.75000006 7.5589164e-39
0.037857156 -0.052142836 0.75000006 7.4670655e-39
-0.033079039 -0.049970455 0.73899996 8.3394495e-39
-0.031671427 -0.049970455 0.73900002 7.3263849e-39
-0.03005903 -0.049632363 0.73399997 8.3340615e-39
-0.028660934 -0.049632363 0.73399997 9.3539405e-39
-0.02726284 -0.049632363 0.73399997 1.5152137e-38
-0.025864748 -0.049632363 0.73400003 2.0937414e-38
-0.024466654 -0.049632363 0.73400003 1.7812855e-38
-0.02306856 -0.049632363 0.73400003 1.4595743e-38
-0.021670459 -0.049632363 0.73400003 1.4686143e-38
-0.020327616 -0.049767606 0.73600006 1.4686142e-38
-0.018951423 -0.049835242 0.73700005 1.4319876e-38
-0.017547607 -0.049835227 0.73699999 1.3859981e-38
-0.016187608 -0.049970455 0.73899996 1.6438192e-38
-0.014779996 -0.04997047 0.73900002 1.8916673e-38
-0.013372375 -0.049970455 0.73900002 1.836243e-38
-0.011964753 -0.049970441 0.73900002 1.7809623e-38
-0.01055714 -0.04997047 0.73900002 1.4864791e-38
-0.0091495179 -0.049970455 0.73900002 1.1927848e-38
-0.0077418969 -0.049970455 0.73899996 1.2846205e-38
-0.0063342853 -0.049970455 0.73900002 1.3674518e-38
-0.0049266634 -0.049970455 0.73900002 1.3307176e-38
-0.0035190331 -0.049970455 0.73900002 1.2844048e-38
-0.0021057012 -0.049835213 0.73700005 1.256495e-38
-0.0007018912 -0.049835213 0.73699999 1.2296264e-38
0.00070667971 -0.05017332 0.74200004 1.4046523e-38
0.002120015 -0.050173335 0.74200004 1.569741e-38
0.0035333347 -0.050173305 0.74200004 1.3579812e-38
0.0049533434 -0.050240941 0.74300003 1.1376119e-38
0.0063685896 -0.050240941 0.74300003 1.3766353e-38
0.0077838353 -0.050240926 0.74300003 1.6064393e-38
0.0091990661 -0.050240926 0.74300003 1.459359e-38
0.010614312 -0.050240926 0.74299997 1.3032028e-38
0.012061905 -0.050376184 0.74500006 1.3124221e-38
0.013480963 -0.050376184 0.74500006 1.3214623e-38
0.014940011 -0.050511412 0.74700004 1.3950742e-38
0.016384764 -0.050579034 0.74800003 1.4686861e-38
0.017809529 -0.050579049 0.74800003 1.4319519e-38
0.019234285 -0.050579049 0.74800003 1.3857471e-38
0.020659052 -0.050579034 0.74800003 1.403899e-38
0.022054298 -0.050511397 0.74699998 1.4224455e-38
0.023477167 -0.050511383 0.74699998 1.1003395e-38
0.024900023 -0.050511397 0.74699998 7.7862841e-39
0.026358096 -0.050579034 0.74800003 9.5333109e-39
0.027782861 -0.050579034 0.74800003 1.1185988e-38
0.029207626 -0.050579019 0.74800003 1.1364634e-38
0.030632384 -0.050579049 0.74800003 1.1524098e-38
0.032057151 -0.050579034 0.74800003 9.0178223e-39
0.033481918 -0.050579019 0.74800003 6.5440442e-39
0.035000023 -0.050714277 0.75 7.1901605e-39
0.036428601 -0.050714247 0.75 7.7415168e-39
0.037857164 -0.050714247 0.75 7.6500246e-39
-0.033079043 -0.048562847 0.73900002 8.5220443e-39
-0.031671423 -0.048562832 0.73900002 7.8773979e-39
-0.030059032 -0.048234262 0.73399997 8.3369299e-39
-0.028660931 -0.048234262 0.73399997 8.8004164e-39
-0.027262835 -0.048234276 0.73399997 1.5056714e-38
-0.025864743 -0.048234262 0.73399997 2.1213638e-38
-0.02446666 -0.048234276 0.73400003 1.7905406e-38
-0.023068557 -0.048234276 0.73400003 1.4687935e-38
-0.021670461 -0.048234276 0.73400003 1.4593589e-38
-0.02032762 -0.048365705 0.73600006 1.4502112e-38
-0.018951412 -0.048431389 0.73699999 1.4042217e-38
-0.017547613 -0.048431404 0.73700005 1.3579812e-38
-0.016143803 -0.048431389 0.73699999 1.6434964e-38
-0.014779994 -0.048562832 0.73900002 1.9285093e-38
-0.013372373 -0.048562832 0.73900002 1.7719224e-38
-0.011964761 -0.048562847 0.73900002 1.6156943e-38
-0.010557139 -0.048562847 0.73900002 1.4316286e-38
-0.0091495179 -0.048562847 0.73900002 1.2478861e-38
-0.0077419053 -0.048562847 0.73900002 1.3214982e-38
-0.0063342759 -0.048562862 0.73900002 1.3859982e-38
-0.004926654 -0.048562847 0.73900002 1.4042936e-38
-0.0035190424 -0.048562847 0.73900002 1.4225168e-38
-0.0021057087 -0.048431419 0.73700005 1.3671997e-38
-0.00070379808 -0.048562832 0.73900002 1.3123142e-38
0.00070668483 -0.048760004 0.74200004 1.4228042e-38
0.0021200047 -0.048759989 0.74200004 1.5422621e-38
0.0035333498 -0.048759975 0.74200004 1.3580889e-38
0.004953362 -0.048825689 0.74299997 1.1833862e-38
0.0063685826 -0.048825704 0.74300003 1.4134771e-38
0.0077838283 -0.048825689 0.74300003 1.643317e-38
0.0091990596 -0.048825704 0.74300003 1.477762e-38
0.010614306 -0.048825689 0.74300003 1.3216058e-38
0.012061905 -0.048957132 0.74500006 1.3306817e-38
0.013480948 -0.048957117 0.74500006 1.3487977e-38
0.014900006 -0.048957132 0.74500006 1.422589e-38
0.016384769 -0.049154274 0.74800003 1.5055279e-38
0.017809534 -0.049154274 0.74800003 1.4502831e-38
0.01923429 -0.049154274 0.74800003 1.4041501e-38
0.020659057 -0.049154274 0.74800003 1.4133695e-38
0.02205429 -0.04908856 0.74700004 1.4229118e-38
0.023477169 -0.049088545 0.74699998 1.1189578e-38
0.024933346 -0.049154274 0.74800003 8.1521911e-39
0.026358102 -0.049154274 0.74800003 9.4403992e-39
0.027782869 -0.049154274 0.74800003 1.0818646e-38
0.029207634 -0.049154274 0.74800003 1.1545794e-38
0.030632388 -0.049154274 0.74800003 1.2264521e-38
0.032057155 -0.049154259 0.74800003 9.3977185e-39
0.033481922 -0.049154274 0.74800003 6.5458393e-39
0.034906678 -0.049154274 0.74800003 7.0979719e-39
0.036428586 -0.049285673 0.75 7.7400875e-39
0.037756201 -0.049154274 0.74800003 7.557836e-39
-0.033079047 -0.047155254 0.73900002 8.7964745e-39
-0.031671423 -0.047155224 0.73900002 8.4284109e-39
-0.030059028 -0.046836175 0.73399997 8.3358537e-39
-0.028660933 -0.046836175 0.73399997 8.2515558e-39
-0.027262837 -0.046836175 0.73399997 1.4876989e-38
-0.025864743 -0.046836175 0.73399997 2.1488786e-38
-0.024466654 -0.046836175 0.73400003 1.8090155e-38
-0.023131426 -0.046963789 0.73600006 1.468614e-38
-0.021670464 -0.04683619 0.73400003 1.4497444e-38
-0.020327613 -0.046963789 0.73600006 1.4224811e-38
-0.01895142 -0.04702761 0.73700005 1.3766353e-38
-0.017547611 -0.047027595 0.73699999 1.3307533e-38
-0.016143803 -0.04702761 0.73700005 1.6436756e-38
-0.014779994 -0.047155224 0.73900002 1.9558087e-38
-0.013372381 -0.047155224 0.73900002 1.6980237e-38
-0.011964759 -0.047155224 0.73900002 1.4410277e-38
-0.010557136 -0.047155224 0.73900002 1.3764916e-38
-0.0091495253 -0.047155224 0.73900002 1.3030592e-38
-0.0077419034 -0.047155239 0.73900002 1.35834e-38
-0.0063342741 -0.047155209 0.73900002 1.4042936e-38
-0.0049333293 -0.047219045 0.74000001 1.4778696e-38
-0.0035190396 -0.047155224 0.73900002 1.5510863e-38
-0.0021114252 -0.047155224 0.73900002 1.4682905e-38
-0.00070475688 -0.047219045 0.74000001 1.385639e-38
0.00070667505 -0.047346659 0.74200004 1.4502831e-38
0.0021200199 -0.047346659 0.74200004 1.5052409e-38
0.0035333545 -0.047346644 0.74200004 1.367093e-38
0.0049533551 -0.047410451 0.74300003 1.229555e-38
0.0063685863 -0.047410466 0.74299997 1.4597178e-38
0.007783832 -0.047410436 0.74299997 1.6799795e-38
0.009199068 -0.047410451 0.74300003 1.5050974e-38
0.010642858 -0.047538079 0.74500006 1.3306458e-38
0.0120619 -0.047538064 0.74500006 1.3490129e-38
0.013480959 -0.047538079 0.74500006 1.3673442e-38
0.014900002 -0.047538079 0.74500006 1.4501037e-38
0.01638476 -0.0477295 0.74800003 1.532935e-38
0.017809525 -0.047729515 0.74800003 1.4779055e-38
0.019234281 -0.047729515 0.74800003 1.4133695e-38
0.020659048 -0.0477295 0.74800003 1.4225531e-38
0.022083815 -0.0477295 0.74800003 1.4224455e-38
0.023508571 -0.047729515 0.74800003 1.1373967e-38
0.024933336 -0.0477295 0.74800003 8.5216855e-39
0.026358103 -0.047729485 0.74800003 9.4403992e-39
0.027782857 -0.0477295 0.74800003 1.0358387e-38
0.029207624 -0.0477295 0.74800003 1.1734476e-38
0.03063238 -0.047729515 0.74800003 1.2996692e-38
0.032057147 -0.0477295 0.74800003 9.7625549e-39
0.033481915 -0.047729515 0.74800003 6.4543597e-39
0.034906685 -0.0477295 0.74800003 7.0986781e-39
0.036331434 -0.047729515 0.74800003 7.650026e-39
0.037756197 -0.047729515 0.74800003 7.5585254e-39
0.039180953 -0.047729515 0.74800003 7.3752244e-39
-0.031928565 -0.046119027 0.74500006 8.3362167e-39
-0.030181896 -0.045623802 0.73700005 8.0599871e-39
-0.028739046 -0.045561887 0.73600006 7.7884323e-39
-0.027337139 -0.045561872 0.73600006 1.4413507e-38
-0.025935235 -0.045561872 0.73600006 2.1121803e-38
-0.024533335 -0.045561887 0.73600006 1.7904332e-38
-0.023131423 -0.045561887 0.73600006 1.468255e-38
-0.021729523 -0.045561887 0.73600006 1.4223008e-38
-0.020327616 -0.045561902 0.73600006 1.3857107e-38
-0.018951416 -0.045623787 0.73699999 1.3581606e-38
-0.017547611 -0.045623802 0.73700005 1.3303946e-38
-0.016143801 -0.045623802 0.73699999 1.6157659e-38
-0.014779991 -0.0457476 0.73899996 1.910142e-38
-0.013372379 -0.045747615 0.73900002 1.7903255e-38
-0.011964757 -0.045747615 0.73900002 1.6616481e-38
-0.010571424 -0.045809515 0.74000001 1.4685064e-38
-0.0091618914 -0.045809485 0.73999995 1.2754368e-38
-0.0077418941 -0.0457476 0.73900002 1.3030234e-38
-0.0063342713 -0.0457476 0.73899996 1.3398294e-38
-0.0049333228 -0.0458095 0.74000001 1.4317008e-38
-0.0035190377 -0.045747615 0.73900002 1.5233922e-38
-0.0021114158 -0.0457476 0.73899996 1.4405962e-38
-0.0007038046 -0.045747615 0.73900002 1.357622e-38
0.00070667971 -0.045933314 0.74200004 1.4315931e-38
0.0021200101 -0.045933314 0.74200004 1.5143886e-38
0.0035381028 -0.045995228 0.74300003 1.3856394e-38
0.0049533485 -0.045995213 0.74300003 1.2477428e-38
0.0063685947 -0.045995228 0.74300003 1.3766712e-38
0.0077838255 -0.045995228 0.74300003 1.4965237e-38
0.0091990717 -0.045995228 0.74300003 1.404186e-38
0.010642868 -0.046119027 0.74500006 1.3029158e-38
0.012061911 -0.046119027 0.74500006 1.3213547e-38
0.013480954 -0.046119042 0.74500006 1.33061e-38
0.014900012 -0.046119027 0.74500006 1.358053e-38
0.016362876 -0.046242841 0.74699998 1.3859624e-38
0.017809533 -0.046304755 0.74800003 1.3767071e-38
0.019234288 -0.046304755 0.74800003 1.3672724e-38
0.020659054 -0.046304755 0.74800003 1.358053e-38
0.022083819 -0.046304755 0.74800003 1.3579812e-38
0.023508575 -0.04630477 0.74800003 1.1004112e-38
0.024933342 -0.04630474 0.74800003 8.5184569e-39
0.026358105 -0.04630474 0.74800003 9.2552933e-39
0.027782863 -0.046304755 0.74800003 1.0082157e-38
0.029207628 -0.046304755 0.74800003 1.0990453e-38
0.030632384 -0.046304755 0.74800003 1.1887845e-38
0.032057151 -0.04630474 0.74800003 9.1193519e-39
0.033481918 -0.046304755 0.74800003 6.2670972e-39
0.03490667 -0.04630477 0.74800003 6.8220828e-39
0.036331438 -0.046304755 0.74800003 7.4677689e-39
0.037705719 -0.046242841 0.74699998 7.283707e-39
0.039180964 -0.046304755 0.74800003 7.1926086e-39
-0.031714279 -0.044399999 0.74000001 8.2440224e-39
-0.030263806 -0.044339977 0.73900002 7.7794598e-39
-0.028856179 -0.044339992 0.73900002 7.2395717e-39
-0.027374279 -0.044219978 0.73699999 1.3958634e-38
-0.02597047 -0.044219978 0.73700005 2.0662266e-38
-0.02456666 -0.044219993 0.73699999 1.7630617e-38
-0.023162853 -0.044219993 0.73700005 1.4591432e-38
-0.021759043 -0.044219993 0.73699999 1.4038264e-38
-0.020355225 -0.044219993 0.73699999 1.3489049e-38
-0.018951423 -0.044219978 0.73700005 1.3398653e-38
-0.017547607 -0.044219963 0.73699999 1.3214263e-38
-0.016143801 -0.044219978 0.73700005 1.5971837e-38
-0.01478 -0.044339992 0.73900002 1.8638295e-38
-0.013372377 -0.044339992 0.73900002 1.8730491e-38
-0.011964755 -0.044339977 0.73900002 1.8821609e-38
-0.01057142 -0.044399999 0.74000001 1.5604855e-38
-0.0091495216 -0.044339977 0.73900002 1.2387026e-38
-0.0077418922 -0.044339992 0.73900002 1.2568544e-38
-0.0063342806 -0.044339992 0.73900002 1.2754728e-38
-0.0049333251 -0.044399969 0.74000001 1.3857471e-38
-0.0035190359 -0.044339977 0.73900002 1.486694e-38
-0.0021114321 -0.044339977 0.73900002 1.403898e-38
-0.0007047457 -0.044399984 0.73999995 1.3211749e-38
0.00070667971 -0.044519968 0.74200004 1.4224096e-38
0.0021200147 -0.044519983 0.74200004 1.5236439e-38
0.003538121 -0.04457996 0.74299997 1.3950024e-38
0.0049533523 -0.044579975 0.74299997 1.2661815e-38
0.0063685877 -0.04457999 0.74300003 1.293481e-38
0.007783819 -0.04457999 0.74300003 1.3122787e-38
0.0091990642 -0.044579975 0.74300003 1.2938758e-38
0.010642853 -0.044699989 0.74500006 1.2753652e-38
0.012061911 -0.044699974 0.74500006 1.2844411e-38
0.013517153 -0.044819988 0.74699998 1.2936964e-38
0.014940007 -0.044819973 0.74699998 1.2655e-38
0.016362876 -0.044819973 0.74699998 1.2294474e-38
0.017785732 -0.044819988 0.74699998 1.2757239e-38
0.019208586 -0.044819988 0.74699998 1.3213905e-38
0.020631442 -0.044819988 0.74699998 1.3027006e-38
0.022054296 -0.044819988 0.74700004 1.2842976e-38
0.023508566 -0.04487998 0.74800003 1.0635337e-38
0.024933346 -0.04487998 0.74800003 8.4287738e-39
0.026358098 -0.04487998 0.74800003 9.071981e-39
0.027782869 -0.044879995 0.74800003 9.71231e-39
0.029207621 -0.04487998 0.74800003 1.0257217e-38
0.030632392 -0.044879995 0.74800003 1.0787626e-38
0.032142881 -0.044999979 0.75 8.4686226e-39
0.033481922 -0.04487998 0.74800003 6.0848709e-39
0.034906678 -0.044879995 0.74800003 6.638779e-39
0.036331445 -0.04487998 0.74800003 7.1915632e-39
0.037705727 -0.044819973 0.74699998 7.100064e-39
-0.031928569 -0.043280937 0.74500006 8.3369341e-39
-0.030263808 -0.042932369 0.73900002 7.6930053e-39
-0.028856196 -0.042932369 0.73900002 7.1463013e-39
-0.027374277 -0.042816184 0.73700005 1.3769582e-38
-0.025970466 -0.04281617 0.73699999 2.0387117e-38
-0.024566669 -0.04281617 0.73700005 1.7718864e-38
-0.023162851 -0.042816155 0.73699999 1.5136348e-38
-0.021759044 -0.04281617 0.73700005 1.4036831e-38
-0.020355232 -0.04281617 0.73700005 1.2936961e-38
-0.018951416 -0.04281617 0.73699999 1.3121352e-38
-0.017547609 -0.04281617 0.73700005 1.3304665e-38
-0.016187619 -0.042932369 0.73900002 1.5604138e-38
-0.014779998 -0.042932354 0.73900002 1.7994012e-38
-0.013372376 -0.042932354 0.73900002 1.8086922e-38
-0.011964757 -0.042932369 0.73900002 1.8180913e-38
-0.010557136 -0.042932354 0.73900002 1.551338e-38
-0.0091495123 -0.042932369 0.73900002 1.2936245e-38
-0.0077523654 -0.042990454 0.73999995 1.3213185e-38
-0.0063342778 -0.042932369 0.73900002 1.3490845e-38
-0.00493332 -0.042990454 0.74000001 1.4225172e-38
-0.0035238038 -0.042990454 0.74000001 1.4959134e-38
-0.0021142811 -0.042990468 0.74000001 1.4407758e-38
-0.00070474803 -0.042990468 0.73999995 1.3762762e-38
0.00070668437 -0.043106653 0.74200004 1.4317366e-38
0.0021200047 -0.043106653 0.74200004 1.4963802e-38
0.0035333391 -0.043106653 0.74200004 1.3950024e-38
0.0049533457 -0.043164738 0.74300003 1.3029157e-38
0.0063685915 -0.043164723 0.74299997 1.3120991e-38
0.0077838376 -0.043164738 0.74299997 1.3213904e-38
0.0091990586 -0.043164738 0.74300003 1.2846563e-38
0.010642864 -0.043280922 0.74500006 1.2478145e-38
0.012061907 -0.043280937 0.74500006 1.2754728e-38
0.013517153 -0.043397121 0.74699998 1.3125298e-38
0.014940009 -0.043397121 0.74699998 1.2936245e-38
0.016362878 -0.043397121 0.74699998 1.2752217e-38
0.017785734 -0.043397121 0.74699998 1.3030593e-38
0.019208588 -0.043397106 0.74699998 1.3397935e-38
0.020631444 -0.043397121 0.74699998 1.3119559e-38
0.022054298 -0.043397121 0.74699998 1.2935888e-38
0.023477154 -0.043397121 0.74699998 1.0819725e-38
0.024933338 -0.043455206 0.74800003 8.7950396e-39
0.026358103 -0.043455206 0.74800003 9.1630991e-39
0.027782861 -0.043455236 0.74800003 9.5297222e-39
0.029207624 -0.043455221 0.74800003 9.8880945e-39
0.030632392 -0.043455206 0.74800003 1.0332766e-38
0.032142878 -0.04357142 0.75000006 8.2035305e-39
0.033571441 -0.043571405 0.75 6.1785099e-39
0.03490667 -0.043455236 0.74800003 6.7313404e-39
0.036428586 -0.043571405 0.75000006 7.1915814e-39
0.037857164 -0.04357142 0.75000006 7.1915688e-39
-0.031842835 -0.0417495 0.74299997 8.3365754e-39
-0.030304754 -0.041580923 0.74000001 7.6922892e-39
-0.028895231 -0.041580938 0.74000001 7.0544658e-39
-0.027448568 -0.041524731 0.73900002 1.3585552e-38
-0.025970476 -0.041412361 0.73700005 2.0109818e-38
-0.024566658 -0.041412361 0.73699999 1.7905406e-38
-0.023162849 -0.041412376 0.73700005 1.5602343e-38
-0.021759039 -0.041412361 0.73699999 1.4036116e-38
-0.02035524 -0.041412376 0.73700005 1.2385231e-38
-0.018951423 -0.041412361 0.73700005 1.284477e-38
-0.017547604 -0.041412346 0.73699999 1.33061e-38
-0.016187618 -0.041524746 0.73900002 1.532899e-38
-0.014779994 -0.041524746 0.73900002 1.7350087e-38
-0.013372372 -0.041524731 0.73899996 1.744192e-38
-0.011964761 -0.041524746 0.73900002 1.7535552e-38
-0.010557139 -0.041524746 0.73900002 1.5515174e-38
-0.0091495095 -0.041524731 0.73899996 1.3398653e-38
-0.0077418978 -0.04152476 0.73900002 1.3856752e-38
-0.0063342759 -0.041524746 0.73900002 1.4225172e-38
-0.0049266531 -0.041524746 0.73899996 1.4685067e-38
-0.0035190419 -0.041524746 0.73900002 1.5052764e-38
-0.002111428 -0.041524746 0.73900002 1.4686133e-38
-0.00070475036 -0.041580923 0.73999995 1.4316645e-38
0.00070667459 -0.041693322 0.74200004 1.4501755e-38
0.0021200094 -0.041693337 0.74200004 1.4593949e-38
0.0035333545 -0.041693322 0.74200004 1.4040425e-38
0.0049466742 -0.041693307 0.74200004 1.3396859e-38
0.0063685849 -0.041749515 0.74300003 1.3397216e-38
0.0077838311 -0.0417495 0.74300003 1.3305739e-38
0.0091990624 -0.0417495 0.74300003 1.2754728e-38
0.01064286 -0.041861899 0.74500006 1.2111162e-38
0.012061917 -0.041861884 0.74500006 1.2662534e-38
0.013480948 -0.041861899 0.74500012 1.3213905e-38
0.014900007 -0.041861899 0.74500012 1.3211753e-38
0.016362866 -0.041974254 0.74699998 1.3120635e-38
0.017738093 -0.041861899 0.74500006 1.3306458e-38
0.019208591 -0.041974254 0.74699998 1.3488694e-38
0.020631447 -0.041974269 0.74699998 1.3209601e-38
0.0220543 -0.041974269 0.74699998 1.2933735e-38
0.023477156 -0.041974269 0.74699998 1.1003755e-38
0.024933342 -0.042030476 0.74800003 9.0730572e-39
0.026358109 -0.042030461 0.74800003 9.2560108e-39
0.027782865 -0.042030476 0.74800003 9.3449764e-39
0.02920763 -0.042030461 0.74800003 9.615818e-39
0.030632384 -0.042030461 0.74800003 9.7821101e-39
0.03214287 -0.042142831 0.75 8.0173442e-39
0.033571437 -0.042142846 0.75000006 6.2710559e-39
0.034906674 -0.042030476 0.74800003 6.732048e-39
0.036428597 -0.042142816 0.75 7.1912213e-39
0.037756205 -0.042030476 0.74800003 7.190501e-39
-0.036817137 -0.041148551 0.75800002 7.5929273e-39
-0.03537333 -0.041148566 0.75800002 8.7067914e-39
-0.032014284 -0.040551417 0.74700004 8.3362181e-39
-0.030386664 -0.040279992 0.74200004 7.5086182e-39
-0.028973326 -0.040279992 0.7420001 6.6810267e-39
-0.027448567 -0.040117122 0.73900002 1.3214982e-38
-0.026040949 -0.040117137 0.73900002 1.9836106e-38
-0.024633326 -0.040117122 0.73900002 1.7813931e-38
-0.023162847 -0.040008552 0.73699999 1.5882156e-38
-0.021759048 -0.040008552 0.73700005 1.4591435e-38
-0.02035523 -0.040008567 0.73700005 1.3396858e-38
-0.018951412 -0.040008552 0.73699999 1.3764918e-38
-0.017547615 -0.040008537 0.73700005 1.4041142e-38
-0.016187616 -0.040117137 0.73900002 1.5236437e-38
-0.014779994 -0.040117122 0.73900002 1.6523208e-38
-0.013372382 -0.040117137 0.73900002 1.6706876e-38
-0.011964753 -0.040117137 0.73900002 1.6892345e-38
-0.01055713 -0.040117137 0.73900002 1.5330427e-38
-0.0091495188 -0.040117152 0.73900002 1.36738e-38
-0.007741896 -0.040117107 0.73900002 1.4040784e-38
-0.0063342741 -0.040117122 0.73900002 1.4316649e-38
-0.0049266624 -0.040117122 0.73900002 1.4869455e-38
-0.003519041 -0.040117122 0.73900002 1.5421898e-38
-0.0021114186 -0.040117122 0.73900002 1.4500309e-38
-0.00070476247 -0.040171407 0.74000001 1.3580524e-38
0.00070667971 -0.040279977 0.74200004 1.3950024e-38
0.002120014 -0.040279977 0.7420001 1.431916e-38
0.0035333445 -0.040279977 0.74200004 1.3857113e-38
0.0049533574 -0.040334262 0.74299997 1.3487977e-38
0.0063685784 -0.040334262 0.74300003 1.3489053e-38
0.0077838241 -0.040334262 0.74300003 1.3489053e-38
0.0091990698 -0.040334262 0.74300003 1.3029516e-38
0.010642859 -0.040442832 0.74500006 1.2569979e-38
0.012061903 -0.040442862 0.74500006 1.2845845e-38
0.01348096 -0.040442847 0.74500006 1.321247e-38
0.014900004 -0.040442847 0.74500006 1.3304306e-38
0.016362868 -0.040551402 0.74699998 1.3396141e-38
0.017738104 -0.040442847 0.74500006 1.3765995e-38
0.01923429 -0.040605702 0.74800003 1.4224813e-38
0.020659046 -0.040605702 0.74800003 1.3669854e-38
0.022083811 -0.040605702 0.74800003 1.3116689e-38
0.023508579 -0.040605687 0.74800003 1.1095949e-38
0.024933334 -0.040605702 0.74800003 9.0737747e-39
0.0263581 -0.040605687 0.74800003 9.1634578e-39
0.027782857 -0.040605702 0.74800003 9.2542171e-39
0.029207623 -0.040605702 0.74800003 9.6143844e-39
0.030632388 -0.040605702 0.74800003 1.0059768e-38
0.032142885 -0.040714271 0.75 8.1116866e-39
0.033571448 -0.040714256 0.75 6.2688965e-39
0.035000011 -0.040714286 0.75000006 6.6387678e-39
0.036428593 -0.040714256 0.75 7.0075503e-39
0.037857167 -0.040714256 0.75 7.1912255e-39
0.039285734 -0.040714271 0.75 7.2834057e-39
-0.036817137 -0.039704747 0.75800002 7.5965146e-39
-0.03528 -0.039599977 0.75600004 8.5206093e-39
-0.033795234 -0.0395476 0.75500005 8.4305675e-39
-0.032014277 -0.039128549 0.74699998 8.2451e-39
-0.030509526 -0.039023779 0.74500006 7.2334718e-39
-0.029012371 -0.038919024 0.74300003 6.2257953e-39
-0.02748571 -0.038761877 0.74000001 1.2849433e-38
-0.026040949 -0.038709514 0.73900002 1.946697e-38
-0.024633326 -0.038709514 0.73900002 1.7815725e-38
-0.023162855 -0.038604744 0.73700005 1.6065827e-38
-0.021759037 -0.038604729 0.73699999 1.5234284e-38
-0.020355236 -0.038604744 0.73700005 1.4407765e-38
-0.01895142 -0.038604729 0.73700005 1.4592873e-38
-0.017547609 -0.038604744 0.73699999 1.4776185e-38
-0.016143803 -0.038604744 0.73700005 1.5235363e-38
-0.014780002 -0.038709529 0.73900002 1.5604138e-38
-0.01337238 -0.038709514 0.73900002 1.5969326e-38
-0.011964751 -0.038709514 0.73900002 1.6248421e-38
-0.010557139 -0.038709514 0.73900002 1.5147832e-38
-0.009149516 -0.038709499 0.73900002 1.3949307e-38
-0.0077418941 -0.038709514 0.73900002 1.4224453e-38
-0.0063342825 -0.038709514 0.73900002 1.4409202e-38
-0.0049266596 -0.038709514 0.73900002 1.5146038e-38
-0.0035237954 -0.038761877 0.74000001 1.5787087e-38
-0.0021114191 -0.038709514 0.73900002 1.4312692e-38
-0.00070474989 -0.038761877 0.74000001 1.2753646e-38
0.00070666993 -0.038866661 0.74200004 1.3398653e-38
0.0021200147 -0.038866647 0.74200004 1.3950024e-38
0.0035333491 -0.038866661 0.74200004 1.376456e-38
0.0049466696 -0.038866661 0.74200004 1.3581247e-38
0.0063685966 -0.038919039 0.74299997 1.3581606e-38
0.0077838278 -0.038919039 0.74299997 1.3581606e-38
0.0091990633 -0.038919024 0.74300003 1.3304665e-38
0.010642869 -0.039023809 0.74500006 1.2937323e-38
0.012061913 -0.039023809 0.74500006 1.3121352e-38
0.013480956 -0.039023779 0.74500006 1.3213188e-38
0.014940005 -0.039128549 0.74700004 1.3487977e-38
0.01636287 -0.039128534 0.74699998 1.3673442e-38
0.0177381 -0.039023794 0.74500006 1.4319877e-38
0.019208595 -0.039128549 0.74699998 1.4867662e-38
0.020659052 -0.039180957 0.74800003 1.4128673e-38
0.022083819 -0.039180927 0.74800003 1.3302512e-38
0.023508584 -0.039180927 0.74800003 1.118922e-38
0.02493334 -0.039180927 0.74800003 8.9815805e-39
0.026428593 -0.039285682 0.75000006 9.0701874e-39
0.027782861 -0.039180942 0.74800003 9.1623816e-39
0.029207628 -0.039180942 0.74800003 9.7112422e-39
0.030632395 -0.039180927 0.74800003 1.0240216e-38
0.032142866 -0.039285697 0.75000006 8.1927727e-39
0.033571444 -0.039285682 0.75 6.1766924e-39
0.035000023 -0.039285697 0.75 6.5461826e-39
0.036525737 -0.039390467 0.75199997 6.8231394e-39
0.037958119 -0.039390482 0.75200003 7.0993788e-39
0.039390493 -0.039390452 0.75200003 7.3752384e-39
-0.036817141 -0.038260929 0.75799996 8.0524635e-39
-0.035280004 -0.038159974 0.75600004 8.7968333e-39
-0.033795226 -0.038109504 0.75500005 8.613521e-39
-0.032014281 -0.037705697 0.74699998 8.3372943e-39
-0.030509531 -0.037604742 0.74500006 7.1416363e-39
-0.029012371 -0.037503801 0.74300003 5.9456253e-39
-0.027485713 -0.037352346 0.74000001 1.2662534e-38
-0.026040945 -0.037301876 0.73900002 1.9468764e-38
-0.024633333 -0.037301891 0.73900002 1.8181632e-38
-0.02322571 -0.037301876 0.73900002 1.6891987e-38
-0.021759044 -0.03720095 0.73700005 1.5417953e-38
-0.020355228 -0.037200935 0.73700005 1.3948228e-38
-0.018951418 -0.03720092 0.73699999 1.4316647e-38
-0.017547611 -0.03720095 0.73700005 1.4775826e-38
-0.016143799 -0.037200935 0.73699999 1.5144244e-38
-0.014779998 -0.037301891 0.73900002 1.5606292e-38
-0.013372369 -0.037301876 0.73900002 1.5880722e-38
-0.011964758 -0.037301891 0.73900002 1.6249858e-38
-0.010557136 -0.037301876 0.73900002 1.5053844e-38
-0.0091495132 -0.037301891 0.73900002 1.3944642e-38
-0.0077523766 -0.037352361 0.74000001 1.4130823e-38
-0.0063428534 -0.037352361 0.74000001 1.4316647e-38
-0.00493332 -0.037352361 0.73999995 1.4776544e-38
-0.0035237977 -0.037352376 0.74000001 1.5236433e-38
-0.0021142745 -0.037352376 0.74000001 1.4314485e-38
-0.00070475129 -0.037352346 0.74000001 1.3487613e-38
0.00070668437 -0.037453301 0.74200004 1.3765277e-38
0.0021200194 -0.037453316 0.74200004 1.4133337e-38
0.0035381126 -0.037503801 0.74300003 1.404186e-38
0.0049533439 -0.037503801 0.74300003 1.3950024e-38
0.0063685896 -0.037503786 0.74300003 1.4225531e-38
0.0077838209 -0.037503801 0.74300003 1.4409561e-38
0.0092238113 -0.037604742 0.74500012 1.3948948e-38
0.010642854 -0.037604757 0.74500006 1.3396141e-38
0.012061898 -0.037604757 0.74500006 1.3489053e-38
0.013480956 -0.037604742 0.74500006 1.3489412e-38
0.014899999 -0.037604757 0.74500006 1.3672365e-38
0.016362863 -0.037705697 0.74700004 1.376456e-38
0.0177381 -0.037604742 0.74500006 1.3858906e-38
0.019208584 -0.037705697 0.74699998 1.3950742e-38
0.020659044 -0.037756182 0.74800003 1.3671648e-38
0.022054307 -0.037705712 0.74699998 1.3489412e-38
0.023477163 -0.037705682 0.74699998 1.1281773e-38
0.024933346 -0.037756167 0.74800003 9.071981e-39
0.026358098 -0.037756182 0.74800003 9.1634578e-39
0.027782869 -0.037756167 0.74800003 9.2563695e-39
0.029207619 -0.037756197 0.74800003 9.7998491e-39
0.030632384 -0.037756182 0.74800003 1.0241657e-38
0.032057144 -0.037756197 0.74800003 8.2021124e-39
0.033571444 -0.037857123 0.75000006 6.1777588e-39
0.035093352 -0.037958063 0.75200003 6.6387033e-39
0.036525723 -0.037958093 0.75200003 7.0986249e-39
0.038008586 -0.038008548 0.75300002 7.4667096e-39
0.039442867 -0.038008548 0.75299996 7.7429363e-39
0.040877163 -0.038008563 0.75300002 7.6503862e-39
-0.036817141 -0.036817126 0.75800002 8.6059876e-39
-0.035280004 -0.036719985 0.75600004 9.0709048e-39
-0.033795226 -0.036671408 0.75500005 8.797192e-39
-0.032014281 -0.03628283 0.74699998 8.428771e-39
-0.030509522 -0.036185689 0.74500006 7.0505183e-39
-0.028973326 -0.036040001 0.74200004 5.5815119e-39
-0.027485706 -0.035942845 0.74000001 1.2477428e-38
-0.026040941 -0.035894252 0.73899996 1.9374058e-38
-0.024633331 -0.035894267 0.73900002 1.8550409e-38
-0.023162851 -0.035797127 0.73700005 1.7718148e-38
-0.021759035 -0.035797127 0.73699999 1.5597678e-38
-0.020355236 -0.035797127 0.73700005 1.3396497e-38
-0.018951416 -0.035797127 0.73700005 1.4041142e-38
-0.017547606 -0.035797112 0.73699999 1.4684708e-38
-0.016187619 -0.035894267 0.73900002 1.5143527e-38
-0.014779996 -0.035894267 0.73900002 1.5512663e-38
-0.013372375 -0.035894267 0.73900002 1.5880363e-38
-0.011964756 -0.035894267 0.73900002 1.6158022e-38
-0.010557134 -0.035894267 0.73900002 1.5057073e-38
-0.0091495123 -0.035894267 0.73900002 1.3856036e-38
-0.0077523706 -0.03594286 0.74000001 1.4037554e-38
-0.0063428483 -0.03594283 0.74000001 1.4223378e-38
-0.0049333149 -0.035942815 0.73999995 1.4498885e-38
-0.0035333182 -0.036039986 0.74200004 1.468291e-38
-0.0021142759 -0.035942845 0.74000001 1.4405246e-38
-0.00070665631 -0.036039986 0.74200004 1.4131539e-38
0.00070667412 -0.036039986 0.74200004 1.4225172e-38
0.0021228709 -0.036088549 0.74299997 1.4225531e-38
0.0035381166 -0.036088534 0.74299997 1.4318801e-38
0.0049533476 -0.036088549 0.74299997 1.4318084e-38
0.0063685831 -0.036088564 0.74300003 1.477762e-38
0.0077838292 -0.036088564 0.74300003 1.5237156e-38
0.0092238076 -0.036185704 0.74500006 1.4592873e-38
0.010642866 -0.036185704 0.74500006 1.3857471e-38
0.012061909 -0.036185704 0.74500006 1.385783e-38
0.01353524 -0.036331423 0.74800003 1.376456e-38
0.01494001 -0.036282845 0.74700004 1.3855319e-38
0.016362865 -0.03628283 0.74700004 1.3856754e-38
0.017785721 -0.03628283 0.74700004 1.3400446e-38
0.019208575 -0.03628283 0.74700004 1.2936964e-38
0.020631442 -0.03628283 0.74699998 1.3301795e-38
0.022054311 -0.03628283 0.74699998 1.3580171e-38
0.023508582 -0.036331408 0.74800003 1.1376119e-38
0.024933336 -0.036331408 0.74800003 9.0744922e-39
0.026358103 -0.036331423 0.74800003 9.255652e-39
0.027782859 -0.036331423 0.74800003 9.3471288e-39
0.029285729 -0.036428563 0.75000006 9.8063063e-39
0.030714307 -0.036428548 0.75000006 1.0243095e-38
0.032228585 -0.036525704 0.75200003 8.1967398e-39
0.033660959 -0.036525689 0.75200003 6.178856e-39
0.035140026 -0.036574267 0.75300002 6.8234841e-39
0.036574312 -0.036574267 0.75299996 7.3745055e-39
0.038109552 -0.036671422 0.75500005 7.7418559e-39
0.039547648 -0.036671422 0.755 8.1099168e-39
-0.035373326 -0.035373323 0.75799996 9.2567282e-39
-0.033929523 -0.035373323 0.75800002 8.7968333e-39
-0.031928565 -0.034766637 0.74500006 8.3362181e-39
-0.030427605 -0.034673311 0.74300003 7.1405602e-39
-0.028973328 -0.034626655 0.74200004 5.9434729e-39
-0.02744857 -0.034486644 0.73900002 1.1649473e-38
-0.026040951 -0.034486659 0.73900002 1.7264712e-38
-0.024566667 -0.034393333 0.73700005 1.7355471e-38
-0.023162851 -0.034393318 0.73699999 1.7536271e-38
-0.021759043 -0.034393318 0.73700005 1.5417594e-38
-0.020355232 -0.034393303 0.73700005 1.3396499e-38
-0.018951425 -0.034393318 0.73700005 1.4041501e-38
-0.017547607 -0.034393333 0.73700005 1.4777979e-38
-0.016187612 -0.034486659 0.73900002 1.5513737e-38
-0.014779989 -0.034486644 0.73900002 1.6338823e-38
-0.013372378 -0.034486674 0.73900002 1.6433529e-38
-0.011964754 -0.034486659 0.73900002 1.6617917e-38
-0.01057141 -0.0345333 0.73999995 1.5421186e-38
-0.0091618961 -0.0345333 0.73999995 1.4313779e-38
-0.0077523729 -0.034533329 0.74000001 1.3763483e-38
-0.0063428502 -0.034533314 0.74000001 1.3213905e-38
-0.004933327 -0.034533329 0.74000001 1.33965e-38
-0.003533321 -0.034626655 0.74200004 1.3580884e-38
-0.0021142783 -0.034533314 0.74000001 1.3488327e-38
-0.00070665538 -0.03462664 0.74200004 1.3397931e-38
0.00070667925 -0.03462664 0.74200004 1.3305382e-38
0.002120014 -0.034626655 0.74200004 1.3214264e-38
0.0035381103 -0.034673326 0.74300003 1.3123146e-38
0.004953356 -0.034673311 0.74300003 1.3123864e-38
0.0063685873 -0.034673326 0.74299997 1.3307535e-38
0.007783833 -0.034673311 0.74299997 1.349551e-38
0.009199054 -0.034673326 0.74300003 1.2756522e-38
0.010642861 -0.034766652 0.74500006 1.2021838e-38
0.012061919 -0.034766637 0.74500006 1.1742026e-38
0.013480962 -0.034766652 0.74500006 1.1376119e-38
0.014900004 -0.034766652 0.74500006 1.1282131e-38
0.016319063 -0.034766652 0.745 1.119209e-38
0.017785722 -0.034859993 0.74700004 1.0914072e-38
0.019208577 -0.034859993 0.74700004 1.0635696e-38
0.020631433 -0.034859978 0.74700004 1.0821878e-38
0.022083821 -0.034906633 0.74800003 1.1102406e-38
0.023508586 -0.034906648 0.74800003 9.9028053e-39
0.024933344 -0.034906663 0.74800003 8.6142385e-39
0.026358109 -0.034906648 0.74800003 8.7042803e-39
0.027782876 -0.034906633 0.74800003 8.8865164e-39
0.029285738 -0.034999974 0.75 1.0077867e-38
0.03071429 -0.034999989 0.75000006 1.134943e-38
0.032228589 -0.03509333 0.75200003 8.7585218e-39
0.033660978 -0.035093315 0.75200003 6.180312e-39
0.03514003 -0.03513997 0.75300002 6.7291712e-39
0.036574312 -0.035139985 0.75299996 7.2826868e-39
0.038008593 -0.03513997 0.75299996 7.5585423e-39
0.039547641 -0.035233296 0.755 7.7429293e-39
-0.036817141 -0.033929519 0.75800002 9.7080136e-39
-0.035373334 -0.033929504 0.75800002 9.3460526e-39
-0.033795223 -0.033795215 0.755 8.7968333e-39
-0.032142844 -0.033571415 0.75 8.2440238e-39
-0.030427614 -0.033258073 0.74300003 7.3235151e-39
-0.028895227 -0.033123784 0.73999995 6.3140435e-39
-0.02744857 -0.03307905 0.73900002 1.0728249e-38
-0.026040949 -0.033079036 0.73900002 1.5148191e-38
-0.024566658 -0.032989495 0.73699999 1.6254521e-38
-0.023162851 -0.032989495 0.73700005 1.7258612e-38
-0.021759041 -0.032989495 0.73699999 1.5323609e-38
-0.020355232 -0.032989509 0.73700005 1.3305739e-38
-0.018951416 -0.032989495 0.73700005 1.4041501e-38
-0.017547606 -0.032989495 0.73699999 1.4779772e-38
-0.016187608 -0.033079021 0.73900002 1.5978656e-38
-0.014780004 -0.03307905 0.73900002 1.7170365e-38
-0.013372375 -0.033079036 0.73900002 1.7081041e-38
-0.011964752 -0.033079036 0.73900002 1.6982748e-38
-0.010571413 -0.033123784 0.73999995 1.5880005e-38
-0.0091495179 -0.033079021 0.73900002 1.4682556e-38
-0.0077523673 -0.033123799 0.74000001 1.3488336e-38
-0.0063428516 -0.033123784 0.74000001 1.2200486e-38
-0.0049333293 -0.033123784 0.74000001 1.229232e-38
-0.0035333233 -0.03321331 0.74200004 1.2383436e-38
-0.0021142806 -0.033123799 0.73999995 1.2477781e-38
-0.00070665072 -0.03321331 0.74200004 1.2567465e-38
0.00070763665 -0.033258088 0.74299997 1.2383797e-38
0.002122872 -0.033258088 0.74300003 1.2108649e-38
0.0035381033 -0.033258103 0.74300003 1.2019685e-38
0.004953349 -0.033258073 0.74300003 1.1925337e-38
0.0063685803 -0.033258088 0.74300003 1.1833502e-38
0.0077838264 -0.033258058 0.74300003 1.1742384e-38
0.0091990717 -0.033258058 0.74300003 1.10077e-38
0.010642861 -0.033347614 0.74500006 1.0177234e-38
0.012061904 -0.033347614 0.74500006 9.6208402e-39
0.013480961 -0.033347599 0.74500006 8.9815791e-39
0.014900004 -0.033347599 0.74500006 8.7964731e-39
0.01636287 -0.03343711 0.74699998 8.5224016e-39
0.017785724 -0.03343711 0.74700004 8.4276962e-39
0.01923429 -0.033481888 0.74800003 8.2461776e-39
