# .PCD v0.7 - Point Cloud Data file format
VERSION 0.7
FIELDS x y z rgb
SIZE 4 4 4 4
TYPE F F F F
COUNT 1 1 1 1
WIDTH 955
HEIGHT 1
VIEWPOINT 0 0 0 1 0 0 0
POINTS 955
DATA ascii
0.054857142 -0.047542863 0.76800001 9.8427148e-39
0.056320008 -0.047542877 0.76800007 8.3746094e-39
0.057782847 -0.047542877 0.76800007 6.9152986e-39
0.059245717 -0.047542892 0.76800007 7.1908177e-39
0.060708556 -0.047542877 0.76800007 7.4659837e-39
0.062171426 -0.047542877 0.76800007 7.5592723e-39
0.063634261 -0.047542892 0.76800007 7.7432937e-39
-0.042560045 -0.047040023 0.7840001 5.5516502e-39
-0.04106671 -0.047040023 0.7840001 7.3036909e-39
-0.039573371 -0.047040023 0.7840001 9.0460556e-39
-0.037837114 -0.046740018 0.77900004 7.942236e-39
-0.036353312 -0.046740018 0.77900004 6.841645e-39
-0.034780018 -0.046620019 0.77700007 8.4046421e-39
-0.033300009 -0.046620019 0.77700007 9.9636931e-39
-0.031738143 -0.04650002 0.7750001 8.9513489e-39
-0.030183835 -0.046380021 0.77300006 7.8489572e-39
-0.028599991 -0.046200015 0.7700001 7.7567545e-39
-0.027027626 -0.046020009 0.76700008 7.6656435e-39
-0.025500026 -0.045900024 0.7650001 7.6660092e-39
-0.024042843 -0.04590001 0.76500005 7.5741765e-39
-0.022585716 -0.04590001 0.76500005 7.5741793e-39
-0.021073304 -0.045780011 0.76300001 7.4823453e-39
-0.019542901 -0.045600019 0.76000011 7.4823467e-39
-0.018047635 -0.04548002 0.75800008 7.3901496e-39
-0.016538108 -0.045300014 0.75500011 7.390507e-39
-0.015060041 -0.045180015 0.75300008 7.2979484e-39
-0.013571478 -0.045000009 0.75000012 5.6438263e-39
-0.012110472 -0.044880025 0.74800003 3.892873e-39
-0.010642845 -0.044700019 0.74500006 8.3867335e-39
-0.009199068 -0.044580005 0.74300009 1.2829668e-38
-0.0077733416 -0.044520013 0.74200004 1.790756e-38
-0.0063342871 -0.044340022 0.73900002 2.2948322e-38
-0.0049266694 -0.044339992 0.73900002 1.6591438e-38
-0.0034952525 -0.044040017 0.73400009 1.0138251e-38
-0.0020914504 -0.043920003 0.73200005 1.4624611e-38
-0.00069429522 -0.043740012 0.72900009 1.9130263e-38
0.00069425273 -0.043740012 0.72900009 2.0143298e-38
0.0020885721 -0.043860011 0.73100001 2.1064513e-38
0.0034809683 -0.043859996 0.73100001 2.0690347e-38
0.0048733335 -0.043860011 0.73100001 2.0233664e-38
0.0062742718 -0.043920003 0.73200005 2.1058733e-38
0.0076895198 -0.044040002 0.73400009 2.1795595e-38
0.0090876315 -0.044040017 0.73400009 2.1426125e-38
0.01051428 -0.044160016 0.73600012 2.10613e-38
0.011916184 -0.044160001 0.73600012 2.0964449e-38
0.013336161 -0.044220023 0.73700011 2.0780387e-38
0.014739987 -0.044220008 0.73700011 2.0963309e-38
0.016209528 -0.044400029 0.74000001 2.1059093e-38
0.01761904 -0.044400014 0.74000001 2.1063401e-38
0.01907998 -0.044520013 0.7420001 2.0973037e-38
0.020493338 -0.044520013 0.74200004 2.1337545e-38
0.021906642 -0.044520028 0.7420001 2.1639671e-38
0.023351433 -0.04458002 0.74300003 2.1661625e-38
0.024766658 -0.04458002 0.74300009 2.1562238e-38
0.026181884 -0.044580005 0.74300009 2.0640279e-38
0.027671427 -0.044700019 0.74500006 1.972517e-38
0.029168582 -0.044820018 0.74700004 1.9826711e-38
0.030591449 -0.044820018 0.74700004 1.9822418e-38
0.032142833 -0.045000009 0.75000006 1.917456e-38
0.033660952 -0.045120008 0.75200003 1.8529493e-38
0.035093319 -0.045120023 0.75200009 1.8614088e-38
0.036671411 -0.045299999 0.75500005 1.8719639e-38
0.0381095 -0.045300014 0.75500005 1.9465528e-38
0.039600004 -0.045360006 0.7560001 2.0109813e-38
0.041040014 -0.045360006 0.75600004 1.9466966e-38
0.042479996 -0.045359991 0.75600004 1.8823397e-38
0.043920007 -0.045360006 0.7560001 1.7901812e-38
0.045479994 -0.04548002 0.75800002 1.6893417e-38
0.047047619 -0.045600004 0.76000011 1.8731563e-38
0.04868665 -0.045780025 0.76300001 2.0477516e-38
0.050402854 -0.046020009 0.76700002 2.1764651e-38
0.051863801 -0.046020009 0.76700002 2.3044227e-38
0.05339428 -0.046080031 0.76800007 1.6414112e-38
0.054857124 -0.046080031 0.76800007 9.7601895e-39
0.056466673 -0.046200015 0.7700001 8.3710221e-39
0.057933364 -0.046200015 0.77000004 7.0039153e-39
0.059400026 -0.046200015 0.77000004 7.1911961e-39
0.060866684 -0.046200015 0.77000004 7.2834057e-39
0.062333342 -0.046200015 0.77000004 7.5592863e-39
0.063800022 -0.04620003 0.77000004 7.7433021e-39
-0.041066714 -0.045546688 0.7840001 7.4841319e-39
-0.039573375 -0.045546673 0.7840001 8.7701904e-39
-0.037837129 -0.045256205 0.77900004 8.1266259e-39
-0.036400009 -0.045314305 0.78000009 7.4841333e-39
-0.034780022 -0.045140021 0.77700007 8.4039204e-39
-0.033300009 -0.045140006 0.77700007 9.4141109e-39
-0.031738132 -0.045023821 0.77500004 8.6772745e-39
-0.030183818 -0.044907622 0.77300006 7.9407899e-39
-0.02867429 -0.044849537 0.77200007 7.9411402e-39
-0.027133327 -0.044733338 0.77000004 7.8500306e-39
-0.025566692 -0.044559069 0.76700008 7.6663666e-39
-0.024042873 -0.04444287 0.7650001 7.4823411e-39
-0.022585722 -0.044442885 0.7650001 7.3905084e-39
-0.021073328 -0.044326685 0.76300007 7.3905154e-39
-0.019542882 -0.044152386 0.76000011 7.2061339e-39
-0.018047633 -0.044036217 0.75800008 7.0217399e-39
-0.016538093 -0.043861918 0.75500005 7.1142858e-39
-0.015060045 -0.043745734 0.75300008 7.2975939e-39
-0.013571468 -0.043571435 0.75000006 5.6420396e-39
-0.01211048 -0.043455236 0.74800003 3.9843582e-39
-0.010642841 -0.043280952 0.74500006 7.9383264e-39
-0.0091866581 -0.043106683 0.74200004 1.2006383e-38
-0.0077523757 -0.042990498 0.74000007 1.7072431e-38
-0.0063343113 -0.042932399 0.73900002 2.2029578e-38
-0.0049266675 -0.042932399 0.73900002 1.6406987e-38
-0.0035095343 -0.042816229 0.73700011 1.0778208e-38
-0.0020914448 -0.042525731 0.73200011 1.3623404e-38
-0.00069618021 -0.042467616 0.73100001 1.6554934e-38
0.00069427508 -0.042351447 0.72900003 1.86725e-38
0.0020885805 -0.042467631 0.73100001 2.0787226e-38
0.0034809785 -0.042467631 0.73100001 2.0784712e-38
0.0048733177 -0.042467616 0.73100001 2.0778206e-38
0.0062742755 -0.042525731 0.73200011 2.114801e-38
0.0076895161 -0.042641915 0.73400009 2.1516834e-38
0.0091123953 -0.042758115 0.73600012 2.1424686e-38
0.010514269 -0.0427581 0.73600012 2.1422188e-38
0.011932348 -0.042816214 0.73700011 2.1242115e-38
0.013336174 -0.042816214 0.73700005 2.1053393e-38
0.01473997 -0.042816214 0.73700011 2.1150938e-38
0.016209526 -0.042990483 0.74000007 2.134355e-38
0.01761904 -0.042990483 0.74000001 2.1255273e-38
0.019079998 -0.043106668 0.74200004 2.1160317e-38
0.020493329 -0.043106683 0.7420001 2.1365261e-38
0.021906661 -0.043106668 0.74200004 2.1572634e-38
0.023351416 -0.043164782 0.74300009 2.0369112e-38
0.024766671 -0.043164782 0.74300003 1.9265249e-38
0.026252383 -0.043280952 0.74500012 1.8891406e-38
0.027745711 -0.043397151 0.74700004 1.8618422e-38
0.029168576 -0.043397151 0.74700004 1.9546833e-38
0.030632371 -0.043455251 0.74800003 2.0461983e-38
0.032142844 -0.043571435 0.75000006 1.9821309e-38
0.033660948 -0.043687634 0.75200009 1.9171686e-38
0.035139967 -0.043745734 0.75300008 1.9181052e-38
0.036671426 -0.043861918 0.75500005 1.9193253e-38
0.038109515 -0.043861903 0.75500005 1.8915957e-38
0.039599989 -0.043920018 0.7560001 1.8639729e-38
0.041040026 -0.043919988 0.75600004 1.8639365e-38
0.042480007 -0.043920018 0.75600004 1.854717e-38
0.044036191 -0.044036202 0.75800008 1.9006348e-38
0.045599986 -0.044152386 0.76000011 1.9465529e-38
0.047109533 -0.044210486 0.76100004 2.0385682e-38
0.048686657 -0.04432667 0.76300001 2.1397309e-38
0.050271418 -0.04444287 0.7650001 2.2038005e-38
0.05186379 -0.044559054 0.76700008 2.2774802e-38
0.053394265 -0.044617154 0.76800007 1.6035615e-38
0.054857131 -0.044617154 0.76800007 9.3723816e-39
0.056466676 -0.044733353 0.77000004 8.0958744e-39
0.057933338 -0.044733338 0.77000004 6.9149595e-39
0.059399996 -0.044733338 0.77000004 7.1915744e-39
0.060866658 -0.044733338 0.77000004 7.4681697e-39
0.062333342 -0.044733338 0.7700001 7.6511359e-39
0.0638 -0.044733338 0.7700001 7.8340712e-39
-0.04096194 -0.043940969 0.78200012 7.5777695e-39
-0.03947242 -0.043940984 0.78200012 8.4035673e-39
-0.037885722 -0.043828599 0.78000003 8.3099339e-39
-0.036399994 -0.043828599 0.78000003 8.1273391e-39
-0.034869503 -0.043772392 0.77900004 8.4957587e-39
-0.033300009 -0.043660022 0.77700007 8.7705435e-39
-0.031738099 -0.043547623 0.77500004 8.4024813e-39
-0.030183833 -0.043435253 0.77300012 8.0336931e-39
-0.028674267 -0.043379061 0.77200001 8.0336819e-39
-0.027133297 -0.043266676 0.77000004 8.0340505e-39
-0.025566677 -0.043098129 0.76700002 7.7592727e-39
-0.02404285 -0.04298573 0.76500005 7.3912174e-39
-0.022585722 -0.04298573 0.7650001 7.2990288e-39
-0.02099051 -0.042704783 0.76000011 7.2068388e-39
-0.01949143 -0.042592384 0.75800002 6.9299016e-39
-0.018047631 -0.042592384 0.75800002 6.5625568e-39
-0.016538078 -0.042423807 0.75500005 6.9302547e-39
-0.015060022 -0.042311452 0.75300008 7.2054024e-39
-0.013571434 -0.042142861 0.75000006 5.642048e-39
-0.012110492 -0.042030491 0.74800009 3.9836365e-39
-0.01064284 -0.041861899 0.74500006 7.5594909e-39
-0.0091866683 -0.041693352 0.7420001 1.1174115e-38
-0.0077523775 -0.041580968 0.74000001 1.6161968e-38
-0.0063342797 -0.041524775 0.73900002 2.1111296e-38
-0.0049133468 -0.041412406 0.73700011 1.6320678e-38
-0.0035095511 -0.041412406 0.73700011 1.1440454e-38
-0.0020914373 -0.041131429 0.73200005 1.271895e-38
-0.00069617276 -0.041075252 0.73100001 1.3908518e-38
0.00069426763 -0.040962867 0.72900009 1.7204205e-38
0.0020885656 -0.041075252 0.73100001 2.0514945e-38
0.0034809608 -0.041075237 0.73100001 2.0974481e-38
0.0048733279 -0.041075267 0.73100001 2.1336413e-38
0.0062742839 -0.041131429 0.73200005 2.1238808e-38
0.0076895431 -0.041243829 0.73400003 2.1149876e-38
0.0091123842 -0.041356198 0.73600012 2.1516536e-38
0.010514257 -0.041356213 0.73600012 2.179958e-38
0.011932331 -0.041412406 0.73700011 2.1528024e-38
0.013336157 -0.041412391 0.73700011 2.1246424e-38
0.014739983 -0.041412391 0.73700011 2.142759e-38
0.016209526 -0.041580983 0.74000001 2.162884e-38
0.017619036 -0.041580968 0.74000007 2.1545257e-38
0.019079985 -0.041693337 0.7420001 2.1371686e-38
0.020493319 -0.041693337 0.74200004 2.1390757e-38
0.021906648 -0.041693352 0.7420001 2.1378522e-38
0.023351427 -0.041749544 0.74300009 1.9160799e-38
0.024833368 -0.041861914 0.74500006 1.6869174e-38
0.026252387 -0.041861929 0.74500006 1.7133878e-38
0.027745733 -0.041974284 0.74700004 1.7428491e-38
0.02916857 -0.041974284 0.74700004 1.9280721e-38
0.030632364 -0.042030476 0.74800003 2.1116007e-38
0.032142822 -0.042142875 0.75000006 2.0477476e-38
0.033660945 -0.042255275 0.75200009 1.9830342e-38
0.035139959 -0.042311452 0.75300008 1.9744266e-38
0.036671411 -0.042423822 0.75500005 1.9559519e-38
0.03810953 -0.042423807 0.75500005 1.8364581e-38
0.039599996 -0.042479999 0.7560001 1.7169282e-38
0.041040007 -0.042479999 0.75600004 1.7719576e-38
0.042480014 -0.042480014 0.75600004 1.8272384e-38
0.044036195 -0.042592399 0.75800002 2.0110173e-38
0.045599978 -0.042704768 0.76000011 2.194724e-38
0.047109548 -0.042760946 0.76100004 2.2131987e-38
0.048686661 -0.04287333 0.76300001 2.231028e-38
0.05027144 -0.04298573 0.76500005 2.2398531e-38
0.051863778 -0.043098129 0.76700008 2.2397776e-38
0.053394277 -0.043154307 0.76800007 1.5673299e-38
0.054857146 -0.043154292 0.76800007 8.9275562e-39
0.056466706 -0.043266676 0.77000004 7.908616e-39
0.057933368 -0.043266676 0.77000004 6.819178e-39
0.059400026 -0.043266676 0.77000004 7.2830512e-39
0.060866687 -0.043266676 0.77000004 7.6507547e-39
0.062495232 -0.043379061 0.77200007 7.742593e-39
-0.040857136 -0.042342864 0.78000003 7.6692532e-39
-0.039371438 -0.042342849 0.78000003 9.1393288e-39
-0.037885707 -0.042342849 0.78000003 8.4946769e-39
-0.036400013 -0.042342864 0.78000009 7.9436681e-39
-0.034869514 -0.042288579 0.77900004 8.3113716e-39
-0.033300012 -0.042180009 0.77700007 8.6776318e-39
-0.031738121 -0.042071439 0.7750001 8.1255356e-39
-0.030183842 -0.041962869 0.77300012 7.665984e-39
-0.028674277 -0.04190857 0.77200001 7.7578041e-39
-0.027133323 -0.041800015 0.77000004 7.9414891e-39
-0.025600007 -0.04169146 0.76800007 7.6667141e-39
-0.02404288 -0.041528575 0.7650001 7.3912132e-39
-0.02252665 -0.041420005 0.76300001 7.3908601e-39
-0.021018088 -0.04131145 0.76100004 7.299026e-39
-0.019542899 -0.041257165 0.76000011 7.1139215e-39
-0.018047629 -0.041148596 0.75800002 6.9288169e-39
-0.016538119 -0.040985711 0.75500005 7.205401e-39
-0.015060026 -0.040877171 0.75300008 7.5738248e-39
-0.013571454 -0.040714286 0.75000012 5.733173e-39
-0.012061909 -0.040442877 0.74500006 3.9825575e-39
-0.010614286 -0.040334307 0.74300009 7.3854903e-39
-0.0091866776 -0.040280007 0.74200004 1.0897167e-38
-0.0077523766 -0.040171422 0.74000001 1.6520701e-38
-0.0063342787 -0.040117152 0.73900002 2.2218417e-38
-0.004926689 -0.040117152 0.73900002 1.9179204e-38
-0.003509538 -0.040008582 0.73700011 1.6229919e-38
-0.0020971221 -0.039845727 0.73400003 1.4940847e-38
-0.00069618766 -0.039682873 0.73100001 1.3655565e-38
0.00069618056 -0.039682858 0.73100007 1.5841376e-38
0.0020885749 -0.039682873 0.73100001 1.8134754e-38
0.0034809711 -0.039682858 0.73100001 1.9881422e-38
0.0048733382 -0.039682873 0.73100007 2.1619112e-38
0.0062657073 -0.039682858 0.73100001 2.1157055e-38
0.0076895393 -0.039845727 0.73400009 2.0785789e-38
0.009112373 -0.039954312 0.73600006 2.1529464e-38
0.010514272 -0.039954312 0.73600012 2.2271677e-38
0.011932344 -0.040008582 0.73700011 2.171779e-38
0.013336141 -0.040008582 0.73700011 2.1252196e-38
0.014779998 -0.040117152 0.73900002 2.1264434e-38
0.016209524 -0.040171422 0.74000001 2.1371726e-38
0.017619034 -0.040171452 0.74000001 2.1101631e-38
0.019080004 -0.040280007 0.74200004 2.0839405e-38
0.020493334 -0.040280007 0.7420001 2.0184006e-38
0.021906668 -0.040279992 0.74200004 1.9624281e-38
0.02335144 -0.040334307 0.74300009 1.8893441e-38
0.024833346 -0.040442877 0.74500006 1.8161946e-38
0.026252393 -0.040442862 0.74500006 1.8345577e-38
0.027745726 -0.040551446 0.74700004 1.84462e-38
0.029168563 -0.040551446 0.7470001 1.983216e-38
0.030632382 -0.040605716 0.74800003 2.1213638e-38
0.032142833 -0.040714286 0.75000006 2.0203089e-38
0.033660948 -0.040822886 0.75200009 1.9193257e-38
0.035139985 -0.040877156 0.75300008 1.8915597e-38
0.036671426 -0.040985711 0.75500005 1.8731563e-38
0.038109511 -0.040985726 0.75500005 1.8546094e-38
0.039600004 -0.041040011 0.7560001 1.8453184e-38
0.041040014 -0.041039996 0.75600004 1.9649558e-38
0.042479996 -0.041040011 0.75600004 2.0844858e-38
0.044036195 -0.041148581 0.75800002 2.1763934e-38
0.045599971 -0.04125715 0.76000011 2.2683e-38
0.047109533 -0.04131145 0.76100004 2.2125883e-38
0.048686668 -0.041420005 0.76300001 2.1660254e-38
0.050271407 -0.04152859 0.7650001 2.194294e-38
0.051863793 -0.041637145 0.76700008 2.2223792e-38
0.053324763 -0.04163716 0.76700008 1.5390263e-38
0.054857153 -0.041691445 0.76800007 8.6330383e-39
0.05646668 -0.041800015 0.77000004 7.7260212e-39
0.057933342 -0.041800015 0.77000004 6.7316472e-39
0.0594 -0.0418 0.7700001 7.1912157e-39
0.061024774 -0.04190857 0.77200001 7.7418629e-39
0.062495254 -0.04190857 0.77200001 7.7422147e-39
-0.040857155 -0.040857159 0.78000009 7.8572192e-39
-0.039371453 -0.040857159 0.78000003 9.7825332e-39
-0.037885725 -0.040857159 0.78000003 8.7691114e-39
-0.036493346 -0.040961914 0.78200012 7.6670854e-39
-0.0349143 -0.040857159 0.78000003 8.1276992e-39
-0.033300012 -0.040700026 0.77700007 8.4936021e-39
-0.031738114 -0.040595256 0.77500004 7.8475208e-39
-0.030183826 -0.040490471 0.77300012 7.2060961e-39
-0.028599979 -0.040333323 0.77000004 7.4823102e-39
-0.02713332 -0.040333338 0.77000004 7.7581853e-39
-0.025566703 -0.040176205 0.76700008 7.5748814e-39
-0.024042856 -0.04007145 0.7650001 7.3912146e-39
-0.022526644 -0.03996668 0.76300001 7.3908601e-39
-0.021018077 -0.039861925 0.7610001 7.3904985e-39
-0.019542878 -0.039809532 0.76000011 7.3897797e-39
-0.018047629 -0.039704762 0.75800002 7.2968736e-39
-0.016538104 -0.03954763 0.75500005 7.5727444e-39
-0.015060004 -0.039442874 0.75300008 7.8478936e-39
-0.013535243 -0.039180957 0.74800003 5.9175559e-39
-0.012061879 -0.039023809 0.74500006 3.891801e-39
-0.010614301 -0.038919069 0.74300009 7.1942985e-39
-0.0091866888 -0.038866676 0.74200004 1.0531267e-38
-0.0077523803 -0.038761921 0.74000001 1.689737e-38
-0.0063343029 -0.038709529 0.73900002 2.3232569e-38
-0.0049266592 -0.038709529 0.73900002 2.2131603e-38
-0.0035095548 -0.038604774 0.73700011 2.0928646e-38
-0.002097124 -0.038447641 0.73400009 1.7159677e-38
-0.00069617649 -0.038290478 0.73100001 1.3286078e-38
0.00069618988 -0.038290493 0.73100007 1.4462713e-38
0.002088588 -0.038290493 0.73100001 1.5664528e-38
0.0034809571 -0.038290478 0.73100001 1.8797402e-38
0.0048733223 -0.038290493 0.73100007 2.1913696e-38
0.0062657194 -0.038290478 0.73100001 2.1168596e-38
0.0076895123 -0.038447626 0.73400009 2.0343527e-38
0.0090876222 -0.038447641 0.73400003 2.154422e-38
0.010514262 -0.038552396 0.73600012 2.274167e-38
0.011916192 -0.038552396 0.73600012 2.20034e-38
0.013336153 -0.038604774 0.73700011 2.1178325e-38
0.014739949 -0.038604759 0.73700011 2.109762e-38
0.01620952 -0.038761921 0.74000001 2.1007251e-38
0.017619062 -0.038761906 0.74000001 2.0650344e-38
0.019079993 -0.038866676 0.7420001 2.0183282e-38
0.020493295 -0.038866691 0.7420001 1.8973284e-38
0.021936169 -0.038919054 0.74300009 1.7795891e-38
0.023351425 -0.038919054 0.74300003 1.8627399e-38
0.02483335 -0.039023809 0.74500006 1.9456769e-38
0.026252395 -0.039023824 0.74500012 1.945639e-38
0.027745718 -0.039128594 0.7470001 1.9462577e-38
0.02920761 -0.039180957 0.74800003 2.0387119e-38
0.030632371 -0.039180972 0.74800009 2.1213278e-38
0.032142814 -0.039285742 0.75000012 1.9836103e-38
0.033660945 -0.039390497 0.75200009 1.8456058e-38
0.035139982 -0.03944286 0.75300008 1.8176244e-38
0.036671411 -0.039547645 0.75500011 1.7901455e-38
0.038109526 -0.03954763 0.75500005 1.8818732e-38
0.039599989 -0.039600007 0.7560001 1.96492e-38
0.041040022 -0.039600022 0.75600004 2.1489142e-38
0.042480007 -0.039600007 0.75600004 2.3325494e-38
0.044036169 -0.039704777 0.75800008 2.341769e-38
0.04559999 -0.039809547 0.76000011 2.3414456e-38
0.047109548 -0.03986191 0.76100004 2.2211262e-38
0.048686676 -0.03996668 0.76300001 2.0931669e-38
0.050271433 -0.04007145 0.7650001 2.1489145e-38
0.051863778 -0.040176205 0.76700008 2.194111e-38
0.053324752 -0.040176235 0.76700008 1.5214841e-38
0.054857165 -0.040228598 0.76800007 8.3794131e-39
0.056466684 -0.040333353 0.77000004 7.5394804e-39
0.057933372 -0.040333338 0.77000004 6.6351608e-39
0.05955429 -0.040438108 0.77200001 7.1912409e-39
0.061024766 -0.040438108 0.77200001 7.7422357e-39
0.062495247 -0.040438108 0.77200001 7.7418587e-39
-0.038080033 -0.039573334 0.7840001 8.3102954e-39
-0.036493368 -0.039472394 0.78200012 7.847888e-39
-0.035003822 -0.039472394 0.78200012 8.4943224e-39
-0.033385705 -0.039320968 0.7790001 9.2293623e-39
-0.031820003 -0.039220013 0.77700007 8.4010463e-39
-0.030261943 -0.039119057 0.7750001 7.5734465e-39
-0.028674262 -0.038967632 0.77200001 7.6656351e-39
-0.02713332 -0.038866691 0.7700001 7.849669e-39
-0.025600011 -0.038765721 0.76800007 7.666361e-39
-0.024042858 -0.038614295 0.76500005 7.3908573e-39
-0.022526667 -0.038513355 0.76300007 7.6660064e-39
-0.021018088 -0.0384124 0.76100004 8.0329855e-39
-0.019542888 -0.038361914 0.76000011 7.6649204e-39
-0.018047631 -0.038260974 0.75800008 7.3883476e-39
-0.016494304 -0.038008593 0.75300008 7.4809089e-39
-0.015040012 -0.037958123 0.75200009 7.6645785e-39
-0.013535254 -0.037756227 0.74800009 5.8249959e-39
-0.01209426 -0.037705727 0.74700004 4.0747573e-39
-0.010642855 -0.037604772 0.74500006 7.202562e-39
-0.0091990614 -0.037503831 0.74300009 1.0442665e-38
-0.0077733416 -0.037453331 0.74200004 1.6431735e-38
-0.0063343011 -0.037301905 0.73900002 2.2315664e-38
-0.0049133664 -0.037200965 0.73700011 2.2131993e-38
-0.0035047939 -0.03715051 0.73600012 2.1948216e-38
-0.0020971519 -0.037049554 0.73400009 1.734306e-38
-0.00069619139 -0.036898099 0.73100001 1.264216e-38
0.00069620478 -0.036898099 0.73100001 1.3459283e-38
0.0020885712 -0.036898129 0.73100001 1.4294178e-38
0.0034809674 -0.036898114 0.73100001 1.8254349e-38
0.0048733624 -0.036898099 0.73100001 2.2212227e-38
0.0062742736 -0.036948584 0.73200005 2.118731e-38
0.0077104736 -0.03715051 0.73600012 2.0263584e-38
0.0091123767 -0.037150495 0.73600012 2.100581e-38
0.010528542 -0.03720098 0.73700011 2.1840587e-38
0.011932367 -0.03720098 0.73700011 2.0451224e-38
0.013336164 -0.037200995 0.73700011 1.9165506e-38
0.014780006 -0.03730192 0.73900002 1.9072572e-38
0.016187621 -0.037301905 0.73900002 1.8980052e-38
0.017619032 -0.037352405 0.74000001 2.0367662e-38
0.019079981 -0.037453346 0.7420001 2.1739103e-38
0.020493316 -0.037453331 0.74200004 2.1198141e-38
0.021906644 -0.037453346 0.7420001 2.066259e-38
0.023351436 -0.037503816 0.74300003 2.102638e-38
0.024833355 -0.037604757 0.74500006 2.1489145e-38
0.026252398 -0.037604772 0.74500006 2.1118933e-38
0.027745718 -0.037705727 0.74700004 2.0754461e-38
0.029168582 -0.037705727 0.7470001 2.0478595e-38
0.03063236 -0.037756227 0.74800003 2.0202369e-38
0.032142848 -0.037857153 0.75000012 1.9099264e-38
0.0335714 -0.037857153 0.75000012 1.8087277e-38
0.035140004 -0.038008578 0.75300008 1.7900732e-38
0.036574271 -0.038008593 0.75300008 1.7807464e-38
0.038109511 -0.038109533 0.75500011 1.9556646e-38
0.039599996 -0.038160019 0.7560001 2.1397306e-38
0.041040007 -0.038160004 0.75600004 2.24075e-38
0.042592369 -0.038260959 0.75800002 2.341769e-38
0.04415236 -0.0383619 0.76000011 2.3417331e-38
0.045660023 -0.0384124 0.76100004 2.3416608e-38
0.047109533 -0.038412385 0.76100004 2.1944365e-38
0.048686653 -0.03851334 0.76300001 2.047859e-38
0.050140016 -0.03851334 0.76300001 2.1121803e-38
0.051728584 -0.03861431 0.76500005 2.1764613e-38
0.05332477 -0.038715251 0.76700008 1.4935385e-38
0.05485712 -0.038765736 0.76800007 8.0988829e-39
0.056466658 -0.038866676 0.77000004 7.455537e-39
0.057933345 -0.038866676 0.7700001 6.7305963e-39
0.059400003 -0.038866691 0.7700001 7.2823828e-39
0.060866695 -0.038866676 0.77000004 7.8344439e-39
0.062333353 -0.038866676 0.77000004 7.8347732e-39
0.063965693 -0.038967632 0.77200007 7.8351067e-39
0.06543617 -0.038967632 0.77200007 7.5588562e-39
-0.038080037 -0.038080029 0.7840001 7.9429549e-39
-0.036493339 -0.037982889 0.78200006 7.9433178e-39
-0.035003819 -0.037982874 0.78200006 8.9556649e-39
-0.033385713 -0.03783714 0.7790001 9.8736513e-39
-0.031820003 -0.037740029 0.77700007 8.8613e-39
-0.030261932 -0.037642874 0.77500004 7.8493117e-39
-0.028674269 -0.037497155 0.77200007 7.9404269e-39
-0.027133318 -0.0374 0.77000004 7.9407899e-39
-0.025566699 -0.037254311 0.76700008 7.6656463e-39
-0.024042863 -0.037157156 0.7650001 7.3901426e-39
-0.022526661 -0.037060015 0.76300001 8.0326352e-39
-0.021018099 -0.036962859 0.76100004 8.583288e-39
-0.019542869 -0.036914296 0.76000011 8.0315562e-39
-0.018047629 -0.036817141 0.75800008 7.389435e-39
-0.016538104 -0.036671422 0.75500005 7.3901636e-39
-0.015060042 -0.036574297 0.75300008 7.3894378e-39
-0.013571453 -0.036428563 0.75000012 5.8267924e-39
-0.012094292 -0.036282875 0.74700004 4.166597e-39
-0.010642825 -0.036185719 0.74500006 7.2818475e-39
-0.0091990503 -0.036088608 0.74300009 1.0348322e-38
-0.007752385 -0.035942875 0.74000007 1.5887179e-38
-0.0063428441 -0.03594286 0.74000001 2.1397309e-38
-0.0049266806 -0.035894297 0.73900002 2.2223829e-38
-0.0035095576 -0.035797141 0.73700011 2.2956301e-38
-0.0021028758 -0.035748579 0.73600012 1.7530773e-38
-0.00069618021 -0.035505719 0.73100001 1.2001182e-38
0.00069621409 -0.035505719 0.73100001 1.2438029e-38
0.0020885805 -0.035505719 0.73100001 1.2920269e-38
0.0034809515 -0.035505705 0.73100001 1.7713754e-38
0.0048733465 -0.035505719 0.73100001 2.2486318e-38
0.0062742541 -0.035554297 0.73200011 2.1288498e-38
0.0076895356 -0.035651453 0.73400003 2.008962e-38
0.0091123665 -0.035748594 0.73600006 2.055777e-38
0.010528555 -0.035797156 0.73700005 2.0917189e-38
0.011932351 -0.035797171 0.73700011 1.8978927e-38
0.013372362 -0.035894297 0.73900002 1.7052215e-38
0.014800006 -0.03594286 0.74000001 1.6955398e-38
0.016209517 -0.035942875 0.74000007 1.687901e-38
0.017666642 -0.036040001 0.7420001 2.0101526e-38
0.019079998 -0.036040001 0.74200004 2.3225011e-38
0.020493302 -0.036040016 0.7420001 2.3325819e-38
0.021936195 -0.036088578 0.74300009 2.3417672e-38
0.023414308 -0.036185719 0.74500006 2.341769e-38
0.024833353 -0.036185719 0.74500006 2.341769e-38
0.026322873 -0.03628286 0.74700004 2.2774842e-38
0.027745711 -0.036282875 0.74700004 2.2039796e-38
0.029207617 -0.036331423 0.74800003 2.0661903e-38
0.030632379 -0.036331438 0.74800003 1.9191458e-38
0.032228578 -0.036525734 0.75200009 1.8455338e-38
0.0337057 -0.036574326 0.75300008 1.7627024e-38
0.035233326 -0.036671437 0.75500011 1.7624153e-38
0.036671441 -0.036671437 0.75500005 1.7628101e-38
0.038159996 -0.036720015 0.75600004 2.0387114e-38
0.039600004 -0.036720015 0.7560001 2.3142181e-38
0.04114854 -0.036817156 0.75800008 2.3325854e-38
0.042592395 -0.036817156 0.75800002 2.341769e-38
0.04421049 -0.036962859 0.76100004 2.341769e-38
0.045660034 -0.036962859 0.76100004 2.3416968e-38
0.047233351 -0.037060015 0.76300001 2.1670655e-38
0.048686661 -0.037060015 0.76300001 1.9926861e-38
0.050271425 -0.03715717 0.7650001 2.0754461e-38
0.051728554 -0.037157156 0.7650001 2.1481568e-38
0.053324755 -0.037254296 0.76700008 1.4662739e-38
0.054857139 -0.037302874 0.76800007 7.8305455e-39
0.056466687 -0.037400015 0.77000004 7.3615491e-39
0.057933349 -0.0374 0.77000004 6.8199094e-39
0.059400007 -0.0374 0.77000004 7.3734812e-39
0.060866665 -0.037400015 0.77000004 7.8344327e-39
0.062333353 -0.037400015 0.7700001 7.8351306e-39
-0.037982881 -0.036493339 0.78200012 7.1153606e-39
-0.036493361 -0.036493339 0.78200006 7.2100758e-39
-0.035003815 -0.036493354 0.78200012 7.7607398e-39
-0.033385698 -0.036353357 0.77900004 8.4075189e-39
-0.031820033 -0.036260016 0.77700007 7.7585552e-39
-0.030183833 -0.036073364 0.77300012 7.2050297e-39
-0.028674306 -0.036026679 0.77200007 7.2046682e-39
-0.027133344 -0.035933353 0.7700001 7.2965079e-39
-0.025566656 -0.035793342 0.76700002 7.2972295e-39
-0.024042865 -0.035700001 0.76500005 7.2053982e-39
-0.022526655 -0.03560666 0.76300001 7.5734619e-39
-0.020990498 -0.035466678 0.76000011 7.9404465e-39
-0.019542875 -0.035466678 0.76000005 7.573106e-39
-0.018047629 -0.035373352 0.75800002 7.2983295e-39
-0.016538091 -0.035233341 0.75500005 7.2986995e-39
-0.015060019 -0.035140015 0.75300008 7.2068514e-39
-0.013571445 -0.035000004 0.75000006 5.6420466e-39
-0.012110513 -0.034906693 0.74800003 4.0751245e-39
-0.01064285 -0.034766667 0.74500006 7.0196197e-39
-0.0091990624 -0.034673341 0.74300009 1.007784e-38
-0.007752385 -0.034533359 0.74000001 1.5696692e-38
-0.0063342927 -0.034486659 0.73900002 2.1397309e-38
-0.004913344 -0.034393348 0.73700011 2.2223829e-38
-0.0035047603 -0.034346692 0.73600006 2.3050337e-38
-0.0021028609 -0.034346692 0.73600012 1.9276819e-38
-0.0006961709 -0.03411334 0.73100001 1.5587507e-38
0.00069619919 -0.034113325 0.73100001 1.5676722e-38
0.0020885637 -0.034113355 0.73100001 1.5776173e-38
0.0034809618 -0.03411334 0.73100001 1.862997e-38
0.0048733568 -0.03411334 0.73100001 2.1476148e-38
0.0062742624 -0.034160011 0.73200005 2.0185421e-38
0.0076895319 -0.034253351 0.73400009 1.8982952e-38
0.0091123814 -0.034346692 0.73600012 1.9076222e-38
0.01052854 -0.034393348 0.73700011 1.9168706e-38
0.011932366 -0.034393348 0.73700011 1.9169713e-38
0.013372365 -0.034486704 0.73900002 1.9170174e-38
0.014779983 -0.034486674 0.73900002 1.963842e-38
0.016209517 -0.034533344 0.74000001 2.0203436e-38
0.017666658 -0.03462667 0.74200004 2.176214e-38
0.019079989 -0.03462667 0.7420001 2.3325854e-38
0.020493321 -0.034626655 0.74200004 2.341769e-38
0.021936182 -0.034673356 0.74300003 2.341769e-38
0.023414284 -0.034766681 0.74500006 2.341769e-38
0.024900004 -0.034860007 0.74700004 2.341769e-38
0.026322866 -0.034860022 0.7470001 2.2406781e-38
0.027745735 -0.034859993 0.74700004 2.1488064e-38
0.02920758 -0.034906678 0.74800009 2.0385317e-38
0.030714257 -0.035000019 0.75000006 1.9191096e-38
0.032228578 -0.035093345 0.75200009 1.9006708e-38
0.0337057 -0.035140015 0.75300008 1.8913082e-38
0.035233337 -0.035233341 0.75500005 1.9649202e-38
0.036671396 -0.035233326 0.75500005 2.0387116e-38
0.038160007 -0.035280012 0.75600004 2.1485913e-38
0.039599989 -0.035280012 0.7560001 2.2591169e-38
0.041148566 -0.035373352 0.75800008 2.3050348e-38
0.04270475 -0.035466678 0.76000011 2.341769e-38
0.044210505 -0.035513349 0.76100004 2.2958513e-38
0.045660023 -0.035513349 0.76100004 2.2499332e-38
0.047233354 -0.035606675 0.76300001 2.1671734e-38
0.048686665 -0.035606675 0.76300001 2.0752664e-38
0.050139997 -0.03560669 0.76300001 2.0294924e-38
0.051728576 -0.035700016 0.7650001 1.9927892e-38
0.05332474 -0.035793357 0.76700008 1.383011e-38
0.054857146 -0.035840012 0.76800007 7.8104523e-39
0.056319986 -0.035840012 0.76800007 7.4548195e-39
0.057933349 -0.035933338 0.77000004 7.1911877e-39
0.059400037 -0.035933353 0.77000004 7.5589248e-39
0.060866695 -0.035933338 0.77000004 7.9273332e-39
0.062333357 -0.035933338 0.77000004 8.0195162e-39
-0.039573386 -0.035093345 0.7840001 6.377811e-39
-0.038080048 -0.03509336 0.7840001 6.3760103e-39
-0.036586709 -0.03509333 0.7840001 6.3778082e-39
-0.035093371 -0.035093345 0.7840001 6.6529615e-39
-0.033385705 -0.034869529 0.77900004 6.8380605e-39
-0.031820007 -0.034780033 0.77700007 6.6522301e-39
-0.030261921 -0.034690492 0.7750001 6.4685563e-39
-0.028674284 -0.034556188 0.77200001 6.5603904e-39
-0.027133314 -0.034466676 0.77000004 6.6522273e-39
-0.025566669 -0.034332402 0.76700008 6.8373346e-39
-0.024042869 -0.034242876 0.7650001 7.0217258e-39
-0.02252665 -0.034153335 0.76300001 7.1149991e-39
-0.020990504 -0.034019046 0.76000011 7.2057598e-39
-0.019542886 -0.03401906 0.76000011 7.2050437e-39
-0.018047627 -0.033929549 0.75800002 7.2061269e-39
-0.016538106 -0.03379526 0.75500005 7.1157333e-39
-0.015060022 -0.033705734 0.75300008 7.0228118e-39
-0.013535254 -0.033481903 0.74800003 5.4598049e-39
-0.012094275 -0.033437155 0.74700004 3.8921681e-39
-0.010642843 -0.033347644 0.74500006 6.8266217e-39
-0.0091990512 -0.033258118 0.74300009 9.7051171e-39
-0.0077733453 -0.03321334 0.7420001 1.551625e-38
-0.006342873 -0.033123814 0.74000001 2.1304756e-38
-0.0049266722 -0.03307905 0.73900002 2.2223829e-38
-0.0035095352 -0.032989524 0.73700011 2.3050342e-38
-0.0020971333 -0.03285525 0.73400009 2.1121791e-38
-0.00069618766 -0.032720961 0.73100001 1.9091311e-38
0.0006962085 -0.032720961 0.73100001 1.881324e-38
0.0020885749 -0.032720976 0.73100007 1.8540644e-38
0.0034809702 -0.032720961 0.73100001 1.9461192e-38
0.0048800046 -0.032765724 0.73200005 2.0378107e-38
0.0062742662 -0.032765739 0.73200011 1.9178141e-38
0.0076895272 -0.03285525 0.73400009 1.7885976e-38
0.0091123702 -0.032944776 0.73600012 1.7595752e-38
0.010528553 -0.032989539 0.73700005 1.7337442e-38
0.011932349 -0.032989539 0.73700011 1.9269912e-38
0.013336175 -0.032989539 0.73700011 2.1204248e-38
0.014779985 -0.033079065 0.73900002 2.2315653e-38
0.016209543 -0.033123828 0.74000001 2.3417684e-38
0.017666647 -0.033213325 0.7420001 2.341769e-38
0.019080006 -0.03321334 0.74200004 2.341769e-38
0.020493308 -0.03321334 0.7420001 2.341769e-38
0.021936193 -0.033258103 0.74300003 2.341769e-38
0.023414316 -0.033347644 0.74500006 2.341769e-38
0.024899997 -0.033437155 0.74700004 2.3325494e-38
0.026322862 -0.033437155 0.74700004 2.2130555e-38
0.027745726 -0.033437155 0.74700004 2.0935974e-38
0.029207597 -0.033481903 0.74800003 2.0107658e-38
0.030714238 -0.033571444 0.75000012 1.9190739e-38
0.032228544 -0.033660971 0.75200009 1.9650635e-38
0.033705693 -0.033705719 0.75300002 2.0110173e-38
0.035233352 -0.033795245 0.75500005 2.1672811e-38
0.036671415 -0.03379526 0.75500005 2.3137512e-38
0.038160015 -0.033839993 0.75600004 2.2578601e-38
0.039599996 -0.033840008 0.7560001 2.2035487e-38
0.041148569 -0.033929519 0.75800008 2.2774842e-38
0.042704746 -0.034019075 0.76000011 2.341769e-38
0.044210497 -0.034063809 0.76100004 2.2499334e-38
0.045660008 -0.034063824 0.76100004 2.1580619e-38
0.047233362 -0.034153335 0.76300001 2.1580976e-38
0.048814293 -0.034242876 0.7650001 2.158026e-38
0.050271418 -0.034242876 0.7650001 1.9927941e-38
0.051728547 -0.034242861 0.7650001 1.8266248e-38
0.053324755 -0.034332402 0.76700008 1.3103325e-38
0.054857157 -0.03437715 0.76800007 7.8273155e-39
0.05632 -0.034377165 0.76800007 7.639208e-39
0.057933349 -0.034466691 0.77000004 7.4649089e-39
0.059400011 -0.034466691 0.7700001 7.7440476e-39
0.060708575 -0.034377165 0.76800007 7.9273444e-39
0.062333331 -0.034466676 0.7700001 8.1120762e-39
-0.039573364 -0.03360001 0.78400004 6.5618365e-39
-0.038080025 -0.033600025 0.78400004 6.3763662e-39
-0.036586713 -0.033600025 0.7840001 6.2823783e-39
-0.035093378 -0.03360004 0.7840001 6.1916176e-39
-0.03338569 -0.033385716 0.77900004 6.1901855e-39
-0.03182001 -0.033300005 0.77700007 5.9153979e-39
-0.030183828 -0.033128567 0.77300006 5.6395313e-39
-0.028674291 -0.033085741 0.77200001 5.6395299e-39
-0.02713331 -0.033 0.77000004 5.6395285e-39
-0.025600022 -0.032914288 0.76800007 5.8246316e-39
-0.024042871 -0.032785736 0.76500005 6.0111752e-39
-0.022526642 -0.032699995 0.76300001 6.1019359e-39
-0.021018084 -0.032614283 0.76100004 6.1033723e-39
-0.019542867 -0.032571442 0.76000011 6.1015786e-39
-0.018047627 -0.032485716 0.75800002 6.1944931e-39
-0.016538093 -0.032357149 0.75500005 5.9197055e-39
-0.015040013 -0.032228582 0.75200009 5.6456283e-39
-0.013535237 -0.032057144 0.74800003 4.446739e-39
-0.012110504 -0.032057159 0.74800003 3.1564052e-39
-0.010642841 -0.031928562 0.74500006 6.559366e-39
-0.0091990391 -0.03184285 0.74300003 1.0073177e-38
-0.0077733286 -0.031799994 0.74200004 1.5695616e-38
-0.0063428488 -0.031714283 0.74000001 2.1305474e-38
-0.0049266722 -0.031671427 0.73900002 2.2040158e-38
-0.003509552 -0.031585716 0.73700011 2.2866677e-38
-0.0021028833 -0.03154286 0.73600012 2.0936697e-38
-0.00069617835 -0.031328566 0.73100001 1.9098193e-38
0.0006961936 -0.031328566 0.73100001 1.964813e-38
0.0020885582 -0.031328596 0.73100001 2.0295283e-38
0.0034809543 -0.031328581 0.73100001 2.0659397e-38
0.0048733512 -0.031328566 0.73100001 2.1121798e-38
0.0062742746 -0.031371452 0.73200005 2.0840189e-38
0.0076895235 -0.031457134 0.73400009 2.056179e-38
0.009112359 -0.031542875 0.73600012 2.0375586e-38
0.010514288 -0.03154286 0.73600006 2.0294539e-38
0.011932362 -0.031585716 0.73700005 2.1301528e-38
0.013336158 -0.031585731 0.73700011 2.2315664e-38
0.014779986 -0.031671442 0.73900008 2.2866677e-38
0.016209511 -0.031714298 0.74000001 2.341769e-38
0.017666662 -0.031800009 0.74200004 2.341769e-38
0.019079993 -0.031800009 0.7420001 2.341769e-38
0.02052095 -0.031842865 0.74300009 2.341769e-38
0.021995245 -0.031928562 0.74500006 2.341769e-38
0.023477152 -0.032014303 0.7470001 2.3325854e-38
0.024900019 -0.032014288 0.74700004 2.3233657e-38
0.026322855 -0.032014303 0.74700004 2.2038717e-38
0.027782856 -0.032057144 0.74800003 2.0843778e-38
0.029207615 -0.032057159 0.74800003 2.0659745e-38
0.030714272 -0.03214287 0.75000012 2.0476437e-38
0.032228574 -0.032228582 0.75200009 2.0845217e-38
0.033705689 -0.032271452 0.75300008 2.11218e-38
0.035233315 -0.032357149 0.75500005 2.1575595e-38
0.03667143 -0.032357134 0.75500005 2.2125163e-38
0.03816 -0.032400005 0.75600004 2.1757451e-38
0.039600004 -0.032400019 0.7560001 2.1483392e-38
0.041148569 -0.032485716 0.75800002 2.1762499e-38
0.042704735 -0.032571442 0.76000011 2.1948321e-38
0.044210508 -0.032614298 0.76100004 2.1396948e-38
0.045660023 -0.032614298 0.76100004 2.0936694e-38
0.047233339 -0.03270001 0.76300007 1.9925785e-38
0.048814289 -0.032785721 0.76500005 1.8915956e-38
0.050271418 -0.032785721 0.76500005 1.8456421e-38
0.051863801 -0.032871433 0.76700008 1.7993973e-38
0.053394269 -0.032914318 0.76800007 1.2356451e-38
0.054857139 -0.032914318 0.76800007 6.6126518e-39
0.056320008 -0.032914303 0.76800001 7.0871188e-39
0.057933357 -0.033 0.77000004 7.5599814e-39
0.059400015 -0.033000015 0.77000004 7.6511513e-39
0.060866673 -0.033000015 0.77000004 7.8344439e-39
0.06233336 -0.033 0.77000004 8.0184526e-39
-0.039674293 -0.032188587 0.78600001 6.6525916e-39
-0.038080033 -0.032106675 0.78400004 6.3774382e-39
-0.036586691 -0.032106675 0.78400004 6.1004982e-39
-0.035093386 -0.03210669 0.7840001 5.8242757e-39
-0.033385701 -0.031901918 0.77900004 5.5480531e-39
-0.031738125 -0.031738095 0.7750001 5.179279e-39
-0.030183813 -0.031656213 0.77300006 4.8119356e-39
-0.028674299 -0.03161525 0.77200007 4.7190211e-39
-0.027133336 -0.031533338 0.77000004 4.6279031e-39
-0.025600011 -0.031451441 0.76800007 4.810858e-39
-0.02410572 -0.031410508 0.76700008 4.9959639e-39
-0.022526665 -0.031246684 0.76300007 4.9941717e-39
-0.020990497 -0.031123824 0.76000011 4.9963213e-39
-0.01949143 -0.031041913 0.75800008 5.0867204e-39
-0.018047629 -0.031041913 0.75800008 5.0892358e-39
-0.016538106 -0.030919053 0.75500011 4.7222567e-39
-0.015060004 -0.030837156 0.75300002 4.2630764e-39
-0.013571445 -0.030714296 0.75000006 3.3414901e-39
-0.012142893 -0.030714296 0.75000006 2.419573e-39
-0.01064284 -0.030509524 0.74500006 6.3642184e-39
-0.0092237908 -0.030509524 0.74500006 1.0348684e-38
-0.0077733388 -0.030386679 0.7420001 1.5887179e-38
-0.0063428488 -0.030304767 0.74000001 2.1305474e-38
-0.0049266703 -0.030263819 0.73900002 2.1947963e-38
-0.0035095389 -0.030181922 0.73700011 2.2590453e-38
-0.0021028684 -0.030140974 0.73600012 2.0843785e-38
-0.00069619325 -0.029936202 0.73100001 1.9098908e-38
0.00069620105 -0.029936202 0.73100001 2.0569708e-38
0.0020885693 -0.029936202 0.73100007 2.1946523e-38
0.0034809636 -0.029936202 0.73100001 2.1851459e-38
0.0048733335 -0.029936187 0.73100001 2.1762493e-38
0.0062742531 -0.02997715 0.73200005 2.2499331e-38
0.0076895244 -0.030059047 0.73400003 2.3140016e-38
0.0091123739 -0.030140974 0.73600012 2.3233992e-38
0.010528546 -0.030181907 0.73700011 2.3234005e-38
0.011932345 -0.030181907 0.73700011 2.3325854e-38
0.013372373 -0.030263834 0.73900002 2.341769e-38
0.014779991 -0.030263804 0.73900002 2.341769e-38
0.016209511 -0.030304767 0.74000001 2.341769e-38
0.017666653 -0.030386694 0.7420001 2.341769e-38
0.019080009 -0.030386694 0.74200004 2.341769e-38
0.020520963 -0.030427627 0.74300009 2.341769e-38
0.021995252 -0.030509539 0.74500006 2.341769e-38
0.02347715 -0.030591421 0.74700004 2.3325854e-38
0.024900014 -0.030591436 0.74700004 2.3141463e-38
0.026322851 -0.030591451 0.7470001 2.1946882e-38
0.027782874 -0.030632384 0.74800003 2.0751944e-38
0.029207606 -0.030632399 0.74800003 2.1302957e-38
0.030796176 -0.030796207 0.75200009 2.1763571e-38
0.032271419 -0.030837156 0.75300008 2.1948319e-38
0.033795211 -0.030919053 0.75500011 2.2125167e-38
0.03523333 -0.030919068 0.75500005 2.1565896e-38
0.036671411 -0.030919068 0.75500005 2.1022777e-38
0.038160007 -0.030960016 0.75600004 2.1026366e-38
0.03970474 -0.031041928 0.75800008 2.0934536e-38
0.041148569 -0.031041928 0.75800002 2.0751588e-38
0.042704757 -0.031123824 0.76000011 2.0478234e-38
0.044210497 -0.031164758 0.76100004 2.0387117e-38
0.045660015 -0.031164773 0.76100004 2.0200216e-38
0.047233347 -0.031246684 0.76300001 1.8269518e-38
0.048814286 -0.031328581 0.7650001 1.6250215e-38
0.05027141 -0.031328581 0.7650001 1.6988129e-38
0.05186379 -0.031410508 0.76700008 1.7709857e-38
0.053394284 -0.031451441 0.76800007 1.1623559e-38
0.054857124 -0.031451441 0.76800007 5.4367298e-39
0.056319993 -0.031451441 0.76800007 6.5371919e-39
0.057933357 -0.031533338 0.7700001 7.5560311e-39
0.059399989 -0.031533353 0.77000004 7.6489821e-39
0.060866673 -0.031533353 0.7700001 7.6504044e-39
0.062333364 -0.031533338 0.77000004 7.833704e-39
-0.039674282 -0.030691452 0.78600007 6.6522301e-39
-0.038080037 -0.030613355 0.78400004 6.3770739e-39
-0.036586698 -0.030613326 0.78400004 6.1934071e-39
-0.03509336 -0.03061334 0.78400004 6.1004982e-39
-0.033299997 -0.030340008 0.77700007 6.0997836e-39
-0.031738117 -0.030261911 0.77500004 5.7328031e-39
-0.03018385 -0.030183829 0.77300012 5.3633059e-39
-0.028674277 -0.030144788 0.77200001 4.8115727e-39
-0.0272038 -0.030144788 0.77200001 4.259845e-39
-0.025599999 -0.029988579 0.76800007 4.6275486e-39
-0.024105733 -0.029949538 0.76700008 4.9945318e-39
-0.022526661 -0.02979333 0.76300001 4.9945318e-39
-0.021018082 -0.029715247 0.76100004 4.9945262e-39
-0.019542882 -0.029676206 0.76000011 5.1792678e-39
-0.018047629 -0.029598124 0.75800008 5.2711103e-39
-0.016538093 -0.029480956 0.75500005 4.9963283e-39
-0.015060037 -0.029402889 0.75300008 4.7197456e-39
-0.013607642 -0.029363818 0.75200009 3.6162847e-39
-0.012142884 -0.029285721 0.75000006 2.602172e-39
-0.010671427 -0.029168569 0.74700004 6.2842239e-39
-0.0092237899 -0.029090501 0.74500012 9.896683e-39
-0.0077733519 -0.028973348 0.7420001 1.5698127e-38
-0.0063428516 -0.028895251 0.74000001 2.1397309e-38
-0.0049266936 -0.028856196 0.73900002 2.2131993e-38
-0.0035095548 -0.028778113 0.73700011 2.2866677e-38
-0.0021028796 -0.028739043 0.73600012 2.1763215e-38
-0.00069618208 -0.028543822 0.73100001 2.0751585e-38
0.00069621409 -0.028543808 0.73100001 2.1025292e-38
0.0020885544 -0.028543822 0.73100001 2.1395863e-38
0.0034809506 -0.028543837 0.73100001 2.1852887e-38
0.0048733456 -0.028543822 0.73100001 2.2219877e-38
0.0062742876 -0.028582864 0.73200005 2.2590094e-38
0.0076895207 -0.02866096 0.73400003 2.3050348e-38
0.0091123627 -0.028739072 0.73600012 2.3050348e-38
0.010528559 -0.028778113 0.73700011 2.3050348e-38
0.011932328 -0.028778099 0.73700011 2.3234018e-38
0.013372375 -0.02885621 0.73900008 2.341769e-38
0.014779992 -0.028856196 0.73900002 2.341769e-38
0.016253309 -0.028973363 0.74200004 2.341769e-38
0.01766664 -0.028973348 0.7420001 2.341769e-38
0.019105719 -0.029012404 0.74300009 2.341769e-38
0.02052095 -0.029012404 0.74300003 2.341769e-38
0.021995252 -0.029090472 0.74500012 2.341769e-38
0.023477143 -0.029168569 0.74700004 2.3142183e-38
0.024900006 -0.029168583 0.7470001 2.2957792e-38
0.026322873 -0.029168583 0.74700004 2.2406059e-38
0.027782833 -0.029207624 0.74800003 2.1945089e-38
0.029207624 -0.029207624 0.74800003 2.203872e-38
0.030796176 -0.029363833 0.75200009 2.2223826e-38
0.032271415 -0.02940286 0.75300008 2.1849668e-38
0.033795226 -0.029480971 0.75500005 2.1476213e-38
0.035233311 -0.029480956 0.75500011 2.1020609e-38
0.036720008 -0.029519998 0.75600004 2.0566827e-38
0.038160015 -0.029520027 0.75600004 2.0660111e-38
0.03970474 -0.029598109 0.75800008 2.0752304e-38
0.04114854 -0.029598095 0.75800008 2.0110172e-38
0.04270475 -0.029676206 0.76000005 1.9560596e-38
0.044210512 -0.029715233 0.76100004 1.8363508e-38
0.045660026 -0.029715262 0.76100004 1.7167135e-38
0.047233351 -0.029793359 0.76300001 1.652285e-38
0.048814286 -0.029871441 0.76500005 1.5786015e-38
0.05027141 -0.029871441 0.76500005 1.5880722e-38
0.051931426 -0.029988579 0.76800007 1.6060045e-38
0.053394292 -0.029988594 0.76800007 1.0976046e-38
0.054857131 -0.029988579 0.76800007 5.8819209e-39
0.056466695 -0.030066676 0.77000004 6.6297532e-39
0.057933357 -0.030066662 0.77000004 7.3752258e-39
0.059400018 -0.030066676 0.77000004 7.4670865e-39
0.060866676 -0.030066676 0.77000004 7.651112e-39
0.062333338 -0.030066662 0.77000004 7.8344201e-39
-0.039573353 -0.029120006 0.7840001 6.5607561e-39
-0.03808004 -0.029120021 0.7840001 6.3770781e-39
-0.036586706 -0.029120021 0.78400004 6.1934099e-39
-0.035093363 -0.029120021 0.78400004 6.376725e-39
-0.033385724 -0.028934292 0.7790001 6.5614736e-39
-0.031738136 -0.028785743 0.7750001 6.1966441e-39
-0.030183837 -0.028711431 0.77300012 5.8253547e-39
-0.028674286 -0.028674312 0.77200007 4.8119356e-39
-0.027203808 -0.028674312 0.77200007 3.801748e-39
-0.025666673 -0.028600015 0.7700001 4.3531225e-39
-0.024105716 -0.028488569 0.76700002 4.9037739e-39
-0.022526653 -0.028340004 0.76300001 4.9952493e-39
-0.021018093 -0.028265737 0.76100004 4.9959625e-39
-0.019542864 -0.028228574 0.76000005 5.2725424e-39
-0.018047627 -0.028154291 0.75800002 5.4558575e-39
-0.016560005 -0.028080009 0.7560001 5.271832e-39
-0.015100017 -0.02804286 0.75500005 5.088161e-39
-0.013607614 -0.027931429 0.75200009 3.9850588e-39
-0.012142876 -0.027857162 0.75000012 2.7879912e-39
-0.010671433 -0.027745716 0.74700004 6.0901454e-39
-0.0092237853 -0.027671419 0.74500006 9.4306882e-39
-0.0077733323 -0.027560018 0.7420001 1.5519837e-38
-0.0063428534 -0.027485706 0.74000001 2.1488786e-38
-0.004926662 -0.027448587 0.73900002 2.2315664e-38
-0.0035095408 -0.02737432 0.73700005 2.3142183e-38
-0.0021028908 -0.027337171 0.73600012 2.2774842e-38
-0.00069716369 -0.027188562 0.73200005 2.2310994e-38
0.00069619733 -0.027151428 0.73100001 2.1568053e-38
0.0020885936 -0.027151428 0.73100001 2.0841264e-38
0.0034809599 -0.027151443 0.73100001 2.1760698e-38
0.0048733559 -0.027151443 0.73100001 2.268121e-38
0.0062742643 -0.027188592 0.73200005 2.2774842e-38
0.0076895179 -0.027262874 0.73400009 2.2866318e-38
0.0091123795 -0.027337156 0.73600012 2.2865958e-38
0.010514282 -0.027337156 0.73600006 2.2774481e-38
0.011932367 -0.027374305 0.73700011 2.3141823e-38
0.01337238 -0.027448572 0.73900002 2.341769e-38
0.014779996 -0.027448572 0.73900002 2.341769e-38
0.0162533 -0.027560018 0.7420001 2.341769e-38
0.017666658 -0.027560018 0.7420001 2.341769e-38
0.019105706 -0.027597152 0.74300009 2.341769e-38
0.020520933 -0.027597152 0.74300009 2.341769e-38
0.021995256 -0.027671434 0.74500006 2.341769e-38
0.023477135 -0.027745716 0.7470001 2.3050348e-38
0.024900004 -0.027745716 0.74700004 2.2682646e-38
0.026322866 -0.027745716 0.7470001 2.2865957e-38
0.027782852 -0.02778288 0.74800003 2.3049269e-38
0.029207613 -0.02778285 0.74800003 2.2866674e-38
0.0307962 -0.027931444 0.75200009 2.2583629e-38
0.032271411 -0.027968563 0.75300002 2.1658454e-38
0.033795241 -0.02804286 0.75500005 2.0745836e-38
0.03523333 -0.02804286 0.75500005 2.0381362e-38
0.036720015 -0.028080009 0.75600004 2.0017256e-38
0.03826097 -0.028154291 0.75800002 2.0294922e-38
0.039704744 -0.028154306 0.75800002 2.0477516e-38
0.041148569 -0.028154291 0.75800008 1.9559519e-38
0.042704739 -0.028228574 0.76000011 1.85461e-38
0.044210497 -0.028265722 0.76100004 1.6339538e-38
0.045660015 -0.028265722 0.76100004 1.4134769e-38
0.047233358 -0.028340004 0.76300001 1.4776901e-38
0.048814278 -0.028414316 0.7650001 1.5327915e-38
0.050271437 -0.028414302 0.76500005 1.4872684e-38
0.051931437 -0.028525718 0.76800001 1.4305469e-38
0.053394306 -0.028525732 0.76800007 1.033819e-38
0.054857146 -0.028525732 0.76800007 6.3604573e-39
0.056466673 -0.028600015 0.77000004 6.7241055e-39
0.057933334 -0.028600015 0.7700001 7.097927e-39
0.059400022 -0.028600015 0.77000004 7.3763272e-39
0.06086668 -0.0286 0.77000004 7.6511106e-39
0.062333368 -0.028600015 0.77000004 7.9262528e-39
-0.03957336 -0.027626686 0.7840001 6.9291771e-39
-0.038080048 -0.027626701 0.7840001 6.2856055e-39
-0.036586709 -0.027626671 0.7840001 5.7342352e-39
-0.035093371 -0.027626686 0.7840001 6.1937728e-39
-0.033385705 -0.027450465 0.77900004 6.745862e-39
-0.031819988 -0.027379997 0.77700007 6.3792375e-39
-0.03018382 -0.027239062 0.77300012 6.010462e-39
-0.028674264 -0.027203806 0.77200001 5.1807153e-39
-0.027203811 -0.027203806 0.77200001 4.3527651e-39
-0.025666643 -0.027133338 0.77000004 4.6286332e-39
-0.024105728 -0.027027644 0.76700008 4.9041354e-39
-0.022526646 -0.026886679 0.76300001 4.9959653e-39
-0.021018082 -0.026816197 0.76100004 5.1807125e-39
-0.019542873 -0.026780985 0.76000011 5.4562176e-39
-0.018047625 -0.026710488 0.75800002 5.7320828e-39
-0.016560022 -0.02664002 0.7560001 5.7324402e-39
-0.015100032 -0.026604779 0.75500011 5.6416823e-39
-0.013607616 -0.02649907 0.75200009 4.7215336e-39
-0.012142869 -0.026428573 0.75000006 3.7088545e-39
-0.010671411 -0.026322849 0.74700004 6.1016207e-39
-0.0092238104 -0.026252396 0.74500012 8.6038072e-39
-0.0077733453 -0.026146688 0.7420001 1.2935888e-38
-0.0063428562 -0.026076205 0.74000007 1.7263277e-38
-0.004926662 -0.026040949 0.73900002 2.0203089e-38
-0.003519071 -0.026040979 0.73900002 2.3234019e-38
-0.0021057322 -0.025970496 0.73700005 2.2771972e-38
-0.00069715997 -0.025794305 0.73200011 2.2312428e-38
0.0006962085 -0.025759049 0.73100001 2.2218792e-38
0.0020886029 -0.025759064 0.73100001 2.2037639e-38
0.003480945 -0.025759064 0.73100001 2.2497899e-38
0.00487334 -0.025759049 0.73100001 2.2958513e-38
