# .PCD v0.7 - Point Cloud Data file format
VERSION 0.7
FIELDS x y z rgb
SIZE 4 4 4 4
TYPE F F F F
COUNT 1 1 1 1
WIDTH 969
HEIGHT 1
VIEWPOINT 0 0 0 1 0 0 0
POINTS 969
DATA ascii
-0.035793331 0.035793304 0.76700002 1.3066506e-39
-0.034242839 0.035699978 0.76500005 6.2826754e-39
-0.032700036 0.035606645 0.76300001 1.1254726e-38
-0.031123845 0.035466656 0.76000005 1.0159896e-38
-0.029598111 0.0353733 0.75800002 8.9279079e-39
-0.028154304 0.035373315 0.75800002 4.5921686e-39
-0.026640007 0.035279974 0.75600004 1.8624658e-40
-0.025166677 0.035233296 0.75500011 9.2203617e-40
-0.023728585 0.035233319 0.75500005 1.6549335e-39
-0.022231447 0.035139978 0.75300002 2.5718619e-39
-0.020769516 0.035093322 0.75200003 3.5154066e-39
-0.019337146 0.035093315 0.75200003 8.9750336e-39
-0.017857138 0.034999982 0.75000006 1.4291438e-38
-0.016428575 0.034999989 0.75000006 9.4119515e-39
-0.014959994 0.034906641 0.74800003 4.5292307e-39
-0.013535213 0.034906648 0.74800003 2.2964661e-39
-0.012094266 0.034859963 0.7470001 1.0496426e-40
-0.010671418 0.03485997 0.7470001 4.4086713e-39
-0.0092238439 0.034766644 0.74500006 8.6715082e-39
-0.007804784 0.034766644 0.74500006 1.5319557e-38
-0.0063857166 0.034766652 0.74500006 2.1936425e-38
-0.0049666762 0.034766659 0.745 2.240749e-38
-0.0035476165 0.034766644 0.74500006 2.2772681e-38
-0.0021228625 0.034673311 0.74300003 2.1299009e-38
-0.00070761261 0.034673318 0.74300003 1.9823184e-38
0.00070761773 0.034673303 0.74300003 1.9919325e-38
0.0021228695 0.034673303 0.74300003 1.9916815e-38
0.0035380858 0.034673318 0.74300003 1.6777908e-38
0.0049533369 0.034673303 0.74300003 1.3658352e-38
0.0063685672 0.034673303 0.74300003 1.410388e-38
0.0077838171 0.034673311 0.74300003 1.4477686e-38
0.0091990475 0.034673318 0.74300003 1.5692721e-38
0.010642839 0.034766652 0.745 1.6773488e-38
0.012094276 0.034859978 0.74700004 8.4744786e-39
0.013517159 0.034859978 0.7470001 9.8763516e-41
0.01496001 0.034906648 0.74800003 3.6778199e-40
0.016384775 0.034906648 0.74800003 6.5048555e-40
0.017857144 0.034999989 0.75000006 1.5731691e-39
0.019285705 0.034999996 0.75000006 2.4943967e-39
0.02076952 0.035093322 0.75200003 3.2308772e-39
0.022201905 0.035093307 0.75200003 3.8748061e-39
0.023665706 0.035139985 0.75300002 4.0591987e-39
0.02516667 0.035233304 0.75500011 4.2414096e-39
0.02664 0.035279982 0.75600004 2.214905e-39
0.028080018 0.035279982 0.75600004 1.0669907e-40
0.029676182 0.035466649 0.76000005 7.1135249e-39
0.031123796 0.035466664 0.75999999 1.4025281e-38
0.032614283 0.035513319 0.76100004 1.6059711e-38
0.034153324 0.035606652 0.76300001 1.798215e-38
0.035606656 0.035606652 0.76300001 1.7427182e-38
0.03706 0.035606652 0.76300001 1.6876165e-38
0.038765721 0.035839982 0.76800001 1.6783967e-38
-0.078280009 0.038759977 0.79800004 9.2658058e-41
-0.076760009 0.038759984 0.79800004 9.2302129e-41
-0.075428583 0.038857128 0.80000001 5.8937254e-39
-0.073720023 0.03875998 0.79800004 1.1723965e-38
-0.072380982 0.038857117 0.80000001 1.7532321e-38
-0.07085716 0.038857121 0.80000001 2.3417687e-38
-0.069160037 0.038759977 0.79800004 2.341769e-38
-0.067809552 0.038857125 0.80000001 2.341769e-38
-0.066285759 0.038857128 0.80000001 2.341769e-38
-0.041691426 0.037302829 0.76800007 9.2248879e-41
-0.040333353 0.037399992 0.77000004 3.5063388e-39
-0.038765714 0.037302822 0.76800001 6.917168e-39
-0.037254285 0.037254266 0.76700002 4.6137472e-39
-0.035839982 0.037302829 0.76800007 2.3082384e-39
-0.034242846 0.037157118 0.76500005 6.4591956e-39
-0.03278571 0.037157126 0.76500005 1.0705519e-38
-0.031246675 0.037059985 0.76300001 1.0148774e-38
-0.029715257 0.03696283 0.76100004 9.5668132e-39
-0.028228575 0.036914267 0.76000005 4.8719841e-39
-0.02671049 0.036817119 0.75800002 1.8554032e-40
-0.025200009 0.036719985 0.75600004 5.5291874e-40
-0.023728572 0.0366714 0.75500011 9.1883701e-40
-0.022231463 0.036574259 0.75300002 4.0563218e-39
-0.020769522 0.036525704 0.75200003 7.2900311e-39
-0.019337151 0.036525689 0.75200003 8.221753e-39
-0.017857149 0.036428548 0.75000012 9.0478212e-39
-0.01642856 0.036428556 0.75000012 7.002954e-39
-0.014999996 0.036428548 0.75000006 4.8677647e-39
-0.013571406 0.036428548 0.75000006 5.7082608e-39
-0.012142844 0.036428556 0.75000006 6.613061e-39
-0.010685719 0.036331408 0.74800003 1.0597577e-38
-0.0092485705 0.03628283 0.74700004 1.4682151e-38
-0.007825722 0.03628283 0.74700004 1.8451757e-38
-0.0064028539 0.03628283 0.7470001 2.2315664e-38
-0.0049800053 0.036282822 0.7470001 2.1211127e-38
-0.0035571281 0.03628283 0.74700004 2.0108735e-38
-0.0021285873 0.036185697 0.74500006 1.861927e-38
-0.00070954789 0.036185704 0.74500006 1.7227748e-38
0.00070951297 0.036185682 0.74500006 1.8250853e-38
0.0021285524 0.036185697 0.74500006 1.9368307e-38
0.0035475919 0.036185689 0.74500006 1.8166914e-38
0.0049666511 0.036185682 0.74500006 1.6961206e-38
0.0063856915 0.036185697 0.74500006 1.7338943e-38
0.0078047449 0.036185697 0.745 1.7628454e-38
0.0092238048 0.036185689 0.74500006 1.651819e-38
0.010671427 0.03628283 0.74700004 1.5319567e-38
0.012094274 0.036282837 0.74700004 7.745191e-39
0.013517156 0.036282822 0.7470001 9.2321747e-41
0.014960011 0.036331415 0.74800003 2.7847304e-40
0.016384764 0.0363314 0.74800003 5.5973186e-40
0.017809549 0.036331408 0.74800009 1.4820455e-39
0.019234305 0.036331408 0.74800009 2.4954701e-39
0.020714281 0.036428556 0.75000006 3.2312345e-39
0.022201901 0.036525697 0.75200003 3.876241e-39
0.023634287 0.036525697 0.75200003 4.0599176e-39
0.025099974 0.036574274 0.75299996 4.2435577e-39
0.02660476 0.036671393 0.75500011 2.2166888e-39
0.028079996 0.036719985 0.75600004 1.8919771e-40
0.029520014 0.036719978 0.75600004 6.9237456e-39
0.031123782 0.036914289 0.75999999 1.365721e-38
0.032614291 0.036962844 0.76099998 1.5592988e-38
0.034153324 0.037059993 0.76300001 1.7519727e-38
0.035606652 0.037059985 0.76300001 1.7243849e-38
0.037157156 0.037157111 0.76500005 1.6967258e-38
0.038715236 0.037254266 0.76699996 1.7059443e-38
0.040176198 0.037254252 0.76700002 1.7241344e-38
-0.078279987 0.040279973 0.7980001 9.2306332e-41
-0.076760001 0.040279977 0.79800004 9.2295122e-41
-0.075428575 0.04038094 0.80000001 3.6738697e-39
-0.073720016 0.040279984 0.79800004 7.2950267e-39
-0.072200023 0.040279977 0.79800004 1.5426526e-38
-0.070680015 0.04027997 0.7980001 2.341731e-38
-0.069160037 0.04027997 0.79800004 2.341769e-38
-0.067639999 0.040279966 0.79800004 2.341769e-38
-0.066120014 0.040279981 0.79800004 2.341769e-38
-0.040228587 0.038765699 0.76800001 3.050708e-39
-0.038765702 0.038765687 0.76800001 5.9030174e-39
-0.037254296 0.038715214 0.76700002 4.6177072e-39
-0.035840001 0.038765687 0.76800007 3.2330352e-39
-0.034332391 0.038715221 0.76699996 6.7238953e-39
-0.032785699 0.038614262 0.76500005 1.0147668e-38
-0.03124669 0.038513333 0.76300001 1.0254244e-38
-0.029676223 0.0383619 0.75999999 1.0222929e-38
-0.028228588 0.038361892 0.76000005 5.1431745e-39
-0.026710482 0.038260933 0.75800002 9.3320873e-41
-0.025200007 0.038159981 0.7560001 9.2985962e-41
-0.023728581 0.038109489 0.75500011 9.9112439e-41
-0.022231452 0.038008548 0.75300002 5.6286418e-39
-0.020769548 0.037958082 0.75199997 1.1058825e-38
-0.019337149 0.037958086 0.75199997 7.4819543e-39
-0.017904777 0.037958086 0.75200003 3.7894824e-39
-0.016472379 0.037958082 0.75200003 4.5004508e-39
-0.015000002 0.037857123 0.75000006 5.2653033e-39
-0.01357144 0.03785713 0.75000006 9.2393773e-39
-0.012142849 0.037857138 0.75000006 1.3088254e-38
-0.010685683 0.037756171 0.74800003 1.6870047e-38
-0.0092609292 0.037756164 0.74800003 2.0561074e-38
-0.0078257257 0.037705697 0.74700004 2.1672816e-38
-0.0064028562 0.037705678 0.7470001 2.2679414e-38
-0.0049800063 0.037705682 0.7470001 2.0103713e-38
-0.0035571309 0.037705671 0.74700004 1.7430434e-38
-0.0021342824 0.037705682 0.74700004 1.6024556e-38
-0.0007114124 0.037705678 0.7470001 1.4562367e-38
0.00070949714 0.037604738 0.745 1.6670998e-38
0.0021285571 0.037604742 0.74500006 1.8721157e-38
0.0035475956 0.037604749 0.74500006 1.9560595e-38
0.0049666567 0.037604745 0.74500006 2.0284513e-38
0.0063856961 0.037604734 0.74500006 2.0570777e-38
0.0078047346 0.037604753 0.74500006 2.0747275e-38
0.0092485752 0.037705686 0.74700004 1.7339677e-38
0.010671425 0.037705697 0.74700004 1.3831891e-38
0.012094294 0.037705678 0.7470001 7.002961e-39
0.013535244 0.037756175 0.74800003 9.9480981e-41
0.014959998 0.037756179 0.74800003 2.7809609e-40
0.016384784 0.037756175 0.74800009 3.7497626e-40
0.017857136 0.037857141 0.75000006 1.4834832e-39
0.019285714 0.03785713 0.75000006 2.4936807e-39
0.020714277 0.037857134 0.75000006 3.2308814e-39
0.022201909 0.037958082 0.75200003 3.8748061e-39
0.023665698 0.038008552 0.75300002 4.0602693e-39
0.025166649 0.038109493 0.75500005 4.1499216e-39
0.026604747 0.0381095 0.75500011 2.2184755e-39
0.028079992 0.038159996 0.75600004 2.8820646e-40
0.029715238 0.038412366 0.76100004 6.8261746e-39
0.031164758 0.038412362 0.76100004 1.3283777e-38
0.03261428 0.03841237 0.76099998 1.5227451e-38
0.034153309 0.038513333 0.76300001 1.7062352e-38
0.035513341 0.038412366 0.76100004 1.7060903e-38
0.03706 0.038513303 0.76300007 1.696978e-38
0.038715243 0.038715214 0.76700002 1.7428236e-38
-0.075145714 0.041747604 0.79700005 1.9311266e-39
-0.073627613 0.0417476 0.79700011 3.7736814e-39
-0.072200015 0.041799974 0.79800004 1.3559646e-38
-0.070680015 0.041799977 0.7980001 2.3325817e-38
-0.069073312 0.041747607 0.79700005 2.3325854e-38
-0.067385741 0.041642837 0.79500002 2.341769e-38
-0.06587147 0.04164286 0.79499996 2.341769e-38
-0.040228575 0.040228546 0.76800001 2.8623315e-39
-0.038715251 0.040176172 0.76700002 5.5360202e-39
-0.037302844 0.040228546 0.76800007 4.3404211e-39
-0.035839994 0.040228549 0.76800007 3.0468376e-39
-0.034332402 0.040176172 0.76699996 6.2668239e-39
-0.032785732 0.040071405 0.76500005 9.5094622e-39
-0.031246686 0.039966643 0.76300007 1.0799877e-38
-0.029715246 0.039861884 0.76099998 1.2070397e-38
-0.028228574 0.039809506 0.76000005 6.0733565e-39
-0.026710473 0.03970474 0.75800002 9.473198e-41
-0.0252 0.039599985 0.75600004 9.2946726e-41
-0.023728589 0.039547589 0.75500005 9.2274103e-41
-0.022231439 0.039442837 0.75300002 5.7244177e-39
-0.020797165 0.039442837 0.75300002 1.1437238e-38
-0.019337155 0.03939046 0.75200003 9.6744343e-39
-0.017904755 0.03939046 0.75200003 7.9030277e-39
-0.016472384 0.039390463 0.75200003 8.9447992e-39
-0.014999987 0.03928569 0.75000006 9.8919382e-39
-0.013571424 0.039285697 0.75000006 1.0613793e-38
-0.012142862 0.03928569 0.75000006 1.1364976e-38
-0.010714272 0.039285693 0.75000006 1.6607489e-38
-0.0092609422 0.039180927 0.74800003 2.1856474e-38
-0.0078257071 0.039128546 0.7470001 2.2314229e-38
-0.0064028581 0.039128534 0.7470001 2.2860213e-38
-0.00498001 0.039128546 0.7470001 2.1114613e-38
-0.0035571337 0.039128542 0.74700004 1.9362202e-38
-0.0021285771 0.039023787 0.74500006 1.88015e-38
-0.00071141613 0.039128538 0.7470001 1.8243678e-38
0.00070950086 0.039023791 0.74500006 1.9542295e-38
0.002134281 0.039128538 0.74700004 2.0846292e-38
0.0035571305 0.039128546 0.74700004 1.8173381e-38
0.0049666408 0.039023787 0.745 1.5596247e-38
0.0063856998 0.039023783 0.74500006 1.6885173e-38
0.0078047412 0.039023794 0.74500006 1.8265924e-38
0.0092237797 0.039023802 0.745 1.6694665e-38
0.010671422 0.039128557 0.74700004 1.5114707e-38
0.012094292 0.039128534 0.7470001 7.6511779e-39
0.013535267 0.039180938 0.74800009 9.551951e-41
0.014960021 0.039180927 0.74800003 4.6210619e-40
0.016384786 0.039180942 0.74800003 8.3127687e-40
0.01780954 0.039180931 0.74800003 1.6614173e-39
0.019285716 0.039285697 0.75000006 2.4890214e-39
0.020714292 0.039285686 0.75000006 3.1354642e-39
0.022201898 0.039390467 0.75199997 3.6886225e-39
0.023728563 0.039547585 0.75500011 3.9655569e-39
0.025166642 0.0395476 0.75500005 4.3328681e-39
0.026640004 0.039599974 0.75600004 2.3063565e-39
0.028154286 0.039704751 0.75800002 3.6784225e-40
0.029715242 0.039861895 0.76100004 6.8279711e-39
0.031164762 0.039861884 0.76100004 1.3292035e-38
0.032614283 0.039861877 0.76099998 1.531822e-38
0.034153327 0.03996665 0.76300001 1.7430419e-38
0.035606656 0.039966647 0.76300001 1.7153461e-38
0.037059996 0.03996665 0.76300001 1.697302e-38
-0.075145699 0.0432657 0.79700005 1.8409979e-40
-0.073627606 0.043265712 0.79700005 1.9854157e-40
-0.072200015 0.043319985 0.79800004 1.1712868e-38
-0.070591427 0.043265704 0.79700005 2.3128501e-38
-0.069073327 0.043265697 0.79700005 2.3325854e-38
-0.067385755 0.043157142 0.79499996 2.341769e-38
-0.066037156 0.043265704 0.79700005 2.341769e-38
-0.064519055 0.043265704 0.79700005 2.341769e-38
-0.038614303 0.041528542 0.76500005 5.1654594e-39
-0.037254285 0.041637108 0.76700002 4.0688481e-39
-0.035839986 0.041691396 0.76800007 2.8602674e-39
-0.034377154 0.0416914 0.76800001 5.7864378e-39
-0.032871436 0.041637123 0.76700002 8.7647211e-39
-0.031246675 0.041419983 0.76300001 1.1364542e-38
-0.029715242 0.041311409 0.76099998 1.3815278e-38
-0.028228605 0.041257128 0.75999999 6.9852486e-39
-0.026710486 0.041148562 0.75800002 9.4381655e-41
-0.025266659 0.041148547 0.75800002 9.2253083e-41
-0.02376 0.041039985 0.75600004 1.0343124e-40
-0.022320004 0.041039981 0.75600004 5.9228444e-39
-0.020797152 0.040877115 0.75300002 1.170706e-38
-0.019337161 0.040822838 0.75200003 1.1875677e-38
-0.01790476 0.040822841 0.75200003 1.2076935e-38
-0.01647239 0.040822838 0.75200003 1.3299505e-38
-0.015039989 0.040822841 0.75200003 1.4466855e-38
-0.01357143 0.040714283 0.75000006 1.205047e-38
-0.012142868 0.040714268 0.75000006 9.6107579e-39
-0.010714278 0.040714271 0.75000006 1.6430646e-38
-0.0092609534 0.040605705 0.74800003 2.3140384e-38
-0.0078362012 0.040605694 0.74800003 2.3050348e-38
-0.0064113997 0.040605694 0.74800009 2.2957073e-38
-0.0049800118 0.04055139 0.74700004 2.2131985e-38
-0.0035571347 0.040551398 0.74700004 2.1295058e-38
-0.002128592 0.040442839 0.745 2.1575224e-38
-0.00070953299 0.040442836 0.74500006 2.1846431e-38
0.00070950738 0.040442836 0.74500006 2.2407495e-38
0.00213428 0.040551402 0.74700004 2.2860577e-38
0.0035571277 0.040551413 0.74700004 1.6873335e-38
0.0049800109 0.040551394 0.7470001 1.0811444e-38
0.0063857064 0.040442847 0.74500006 1.329097e-38
0.0078047449 0.040442839 0.74500006 1.5770914e-38
0.0092485715 0.040551417 0.74700004 1.6149403e-38
0.01067144 0.040551394 0.7470001 1.6407962e-38
0.012094289 0.040551398 0.7470001 8.2990879e-39
0.013535256 0.04060569 0.74800003 1.0164739e-40
0.014960023 0.040605694 0.74800003 6.4328848e-40
0.016384775 0.040605698 0.74800003 1.1975553e-39
0.017857134 0.040714271 0.75000006 1.8411464e-39
0.019285711 0.040714275 0.75000006 2.4879438e-39
0.020714274 0.040714271 0.75000006 3.0414721e-39
0.022201905 0.040822845 0.75199997 3.5038753e-39
0.023665691 0.040877122 0.75299996 3.9641262e-39
0.025166666 0.040985689 0.75500011 4.42364e-39
0.026604744 0.040985689 0.75500005 2.3974984e-39
0.028080003 0.041039988 0.75600004 3.7789797e-40
0.029676188 0.041257136 0.76000005 6.8258187e-39
0.031164771 0.041311413 0.76099998 1.3193022e-38
0.032699998 0.041419979 0.76300001 1.550655e-38
0.034153324 0.041419994 0.76300001 1.7797041e-38
0.035606652 0.041419983 0.76300001 1.7332467e-38
0.037059981 0.04141999 0.76300001 1.6876161e-38
-0.075145721 0.044783793 0.79700005 9.4416688e-41
-0.073627621 0.044783805 0.79700011 1.8418106e-40
-0.07210952 0.044783793 0.79700011 7.2882388e-39
-0.070414312 0.044671405 0.79500002 1.4496671e-38
-0.068900041 0.044671427 0.79499996 1.9006358e-38
-0.067385748 0.04467142 0.79500002 2.341769e-38
-0.066037141 0.044783801 0.79700005 2.341769e-38
-0.064357169 0.044671424 0.79500002 2.341769e-38
-0.062842883 0.044671416 0.79500002 2.341769e-38
-0.038614292 0.042985689 0.76500005 3.7865018e-39
-0.037157126 0.042985681 0.76500005 4.7977797e-39
-0.035793338 0.043098077 0.76699996 5.7932355e-39
-0.034332391 0.043098081 0.76700002 6.8123676e-39
-0.03278571 0.042985685 0.76500005 7.939624e-39
-0.031328592 0.0429857 0.76500005 1.0615528e-38
-0.029715236 0.042760935 0.76099998 1.3268936e-38
-0.02822859 0.042704757 0.75999999 6.7222922e-39
-0.026710475 0.042592354 0.75800002 9.223907e-41
-0.025266672 0.042592369 0.75800002 9.2276905e-41
-0.023760019 0.042479984 0.75600004 9.2345569e-41
-0.022320002 0.042479984 0.75600004 6.923038e-39
-0.020852381 0.042423788 0.75500011 1.3735386e-38
-0.019337138 0.042255219 0.75200003 1.3373803e-38
-0.017904768 0.04225523 0.75200003 1.3116599e-38
-0.016472388 0.04225523 0.75199997 1.3370229e-38
-0.015040015 0.04225523 0.75199997 1.3717109e-38
-0.013607617 0.042255219 0.75199997 1.4837415e-38
-0.012142852 0.042142838 0.75000006 1.5953489e-38
-0.01071429 0.042142838 0.75000006 1.8725829e-38
-0.009260945 0.042030457 0.74800009 2.158098e-38
-0.007836164 0.04203045 0.74800003 1.9644184e-38
-0.0064114109 0.042030454 0.74800003 1.7815723e-38
-0.0049800128 0.041974254 0.74700004 1.7157807e-38
-0.0035571374 0.041974265 0.74700004 1.6508137e-38
-0.0021285873 0.041861884 0.74500006 1.8448873e-38
-0.00071141892 0.041974261 0.7470001 2.0476077e-38
0.00070951204 0.041861881 0.74500006 1.8266651e-38
0.0021342773 0.041974265 0.74700004 1.5979015e-38
0.0035571463 0.041974247 0.7470001 1.2742531e-38
0.004980009 0.04197425 0.7470001 9.5149525e-39
0.0064028576 0.041974261 0.7470001 1.2170227e-38
0.0078257071 0.041974269 0.74700004 1.4825627e-38
0.0092485696 0.041974258 0.74700004 1.7153505e-38
0.010671438 0.04197425 0.7470001 1.9456137e-38
0.012094286 0.04197425 0.7470001 9.7735173e-39
0.013517149 0.041974254 0.74700004 9.2351174e-41
0.01496001 0.042030472 0.74800003 4.6071471e-40
0.016384764 0.042030461 0.74800003 8.3094336e-40
0.017809529 0.042030469 0.74800003 1.6589132e-39
0.019234303 0.042030454 0.74800009 2.487585e-39
0.020714289 0.042142838 0.75000006 3.0421839e-39
0.022201899 0.042255238 0.75200003 3.5971444e-39
0.023665691 0.042311408 0.75299996 3.9666401e-39
0.025166659 0.042423777 0.75500011 4.2442878e-39
0.026604759 0.042423777 0.75500011 2.3081964e-39
0.028079996 0.042479988 0.75600004 3.6965973e-40
0.029676188 0.042704746 0.76000005 6.5474424e-39
0.03116476 0.042760938 0.76099998 1.2830701e-38
0.03269998 0.04287333 0.76300001 1.5410046e-38
0.034153309 0.042873319 0.76300001 1.8071826e-38
0.035606638 0.042873327 0.76300001 1.7426094e-38
0.03706 0.042873323 0.76300007 1.6782173e-38
-0.075145736 0.046301886 0.79700005 9.6256593e-41
-0.073627606 0.046301894 0.79700005 9.593009e-41
-0.072109513 0.046301886 0.79700011 2.9421452e-39
-0.070414327 0.04618571 0.79500002 5.8289448e-39
-0.068900034 0.046185702 0.79500002 1.4692942e-38
-0.067385748 0.046185695 0.79500002 2.3417682e-38
-0.066037156 0.046301898 0.79700005 2.341769e-38
-0.064519055 0.046301886 0.79700005 2.341769e-38
-0.062842898 0.046185702 0.79499996 2.341769e-38
-0.038715221 0.044559021 0.76700002 2.40505e-39
-0.037254296 0.044559035 0.76699996 5.5425824e-39
-0.035793349 0.044559024 0.76699996 8.6610194e-39
-0.034332376 0.044559035 0.76700002 7.8222778e-39
-0.032785717 0.044442832 0.76500005 7.0241851e-39
-0.031328581 0.044442836 0.76500005 9.8883915e-39
-0.029793356 0.044326656 0.76300007 1.2721903e-38
-0.028265739 0.044210467 0.76099998 6.4507864e-39
-0.026780969 0.044152364 0.76000005 9.7653687e-41
-0.025266662 0.044036172 0.75800002 9.2290918e-41
-0.023759989 0.043919977 0.7560001 1.0311735e-40
-0.022319993 0.043919992 0.75600004 7.9414849e-39
-0.020852391 0.043861873 0.75500005 1.5675422e-38
-0.019362872 0.043745693 0.75299996 1.4858614e-38
-0.017904764 0.043687612 0.75199997 1.4020266e-38
-0.016472394 0.043687612 0.75199997 1.3439131e-38
-0.01504002 0.043687619 0.75200003 1.2916818e-38
-0.013607621 0.043687608 0.75200003 1.7628052e-38
-0.01217525 0.043687608 0.75200003 2.2308456e-38
-0.010714294 0.043571416 0.75000006 2.1121793e-38
-0.0092857042 0.043571424 0.75000006 1.99046e-38
-0.007836177 0.043455228 0.74800003 1.6312598e-38
-0.0064114244 0.043455217 0.74800003 1.2641689e-38
-0.0049800156 0.043397114 0.74700004 1.217498e-38
-0.0035618909 0.043455213 0.74800003 1.1637254e-38
-0.0021342833 0.043397121 0.7470001 1.5419027e-38
-0.00071142172 0.043397114 0.74700004 1.9085935e-38
0.00071142684 0.043397117 0.74700004 1.4111695e-38
0.0021342754 0.043397106 0.74700004 9.0575505e-39
0.0035571444 0.04339711 0.7470001 8.6019967e-39
0.0049800081 0.043397114 0.7470001 8.1237966e-39
0.0064028557 0.043397121 0.74700004 1.0957055e-38
0.007836204 0.043455213 0.74800009 1.3838068e-38
0.0092609711 0.043455224 0.74800003 1.8182349e-38
0.010685724 0.043455213 0.74800003 2.238985e-38
0.012110491 0.043455217 0.74800003 1.1246833e-38
0.013535244 0.043455224 0.74800003 1.0311174e-40
0.014960011 0.043455224 0.74800003 2.7596471e-40
0.016384784 0.043455217 0.74800009 4.6323985e-40
0.017809551 0.043455221 0.74800003 1.4752408e-39
0.019285707 0.04357142 0.75000006 2.3964656e-39
0.020714285 0.043571416 0.75000006 3.0429014e-39
0.022231398 0.0437457 0.75299996 3.68934e-39
0.023665687 0.043745704 0.75300002 3.8766011e-39
0.025166666 0.043861881 0.75500005 4.0595476e-39
0.026639994 0.043919981 0.75600004 2.2206783e-39
0.028080013 0.043919977 0.75600004 2.8320943e-40
0.029715246 0.044210453 0.76100004 6.3476256e-39
0.03116475 0.044210464 0.76099998 1.2361119e-38
0.032699998 0.044326641 0.76300007 1.5415071e-38
0.034153327 0.044326652 0.76300001 1.8348051e-38
0.035606656 0.044326659 0.76300001 1.7518289e-38
0.037059996 0.044326652 0.76300001 1.659815e-38
-0.073627628 0.047819987 0.79700005 1.9099138e-40
-0.072109528 0.047819983 0.79700011 1.5642036e-39
-0.07041432 0.047699999 0.79500002 2.9393216e-39
-0.068900034 0.047699995 0.79500002 9.9659086e-39
-0.067385741 0.047699988 0.79500002 1.698883e-38
-0.066037126 0.047819979 0.79700011 2.0203448e-38
-0.064519048 0.047819983 0.79700005 2.341769e-38
-0.038715251 0.046019979 0.76699996 1.754336e-39
-0.037302867 0.046079971 0.76800007 6.5589456e-39
-0.035793331 0.046019975 0.76699996 1.1353741e-38
-0.034332383 0.046019979 0.76700002 1.0884855e-38
-0.032785706 0.04589998 0.76500005 1.0527253e-38
-0.03132857 0.045899969 0.76500005 1.2554862e-38
-0.029793344 0.045779999 0.76300001 1.4575149e-38
-0.028265735 0.045659982 0.76099998 8.3912246e-39
-0.026780952 0.045599986 0.76000005 2.2045241e-39
-0.025266653 0.045479979 0.75800002 1.1943309e-39
-0.02376001 0.04535998 0.75600004 1.8420068e-40
-0.022319993 0.045359984 0.7560001 9.2332859e-39
-0.0208524 0.045299973 0.75500005 1.8267992e-38
-0.019362887 0.045179978 0.75300002 1.7617283e-38
-0.01790477 0.045119993 0.75200003 1.7053728e-38
-0.016472397 0.045119982 0.75200003 1.5956021e-38
-0.015039998 0.045119986 0.75200003 1.4964503e-38
-0.013607627 0.04511999 0.75200003 1.5228547e-38
-0.012175228 0.045119978 0.75200003 1.5611663e-38
-0.010714279 0.044999991 0.75000006 1.5401435e-38
-0.0092857173 0.044999976 0.75000006 1.5276926e-38
-0.0078571271 0.044999987 0.75000006 1.3630317e-38
-0.0064114369 0.04487998 0.74800003 1.2069116e-38
-0.0049866345 0.044879977 0.74800009 1.3741171e-38
-0.0035618825 0.04487998 0.74800003 1.5395681e-38
-0.0021342861 0.044819966 0.7470001 1.4574577e-38
-0.00071142358 0.04481997 0.74700004 1.3755115e-38
0.00071142591 0.044819966 0.74700004 1.3091342e-38
0.0021342745 0.044819973 0.74700004 1.2506323e-38
0.0035571435 0.044819966 0.7470001 1.2530789e-38
0.0049800063 0.044819973 0.7470001 1.2513255e-38
0.0064028539 0.04481997 0.74700004 1.5211683e-38
0.0078362059 0.044879977 0.74800003 1.7907559e-38
0.009260973 0.04487998 0.74800003 1.9649924e-38
0.010685727 0.04487998 0.74800003 2.1480106e-38
0.012110478 0.044879984 0.74800003 1.1705294e-38
0.013535247 0.044879988 0.74800003 1.9290597e-39
0.014960019 0.044879984 0.74800009 1.2872272e-39
0.016428569 0.044999983 0.75000006 6.4798423e-40
0.017857147 0.044999987 0.75000006 1.5677923e-39
0.019285722 0.044999979 0.75000006 2.5804953e-39
0.020769531 0.045119978 0.75200003 3.1347369e-39
0.022231409 0.045179985 0.75299996 3.7815356e-39
0.023728561 0.045299966 0.75500011 3.9670031e-39
0.025166655 0.045299977 0.75500005 4.1510314e-39
0.026640011 0.045359969 0.7560001 2.2163861e-39
0.028080005 0.04535998 0.75600004 3.6787448e-40
0.029676171 0.04559999 0.75999999 6.2658304e-39
0.031164754 0.045659989 0.76099998 1.2187851e-38
0.032699998 0.045779984 0.76300001 1.4765766e-38
0.034153324 0.045779992 0.76300001 1.7336429e-38
0.035700001 0.045899983 0.76499999 1.8342658e-38
0.037157137 0.045899987 0.76499999 1.935107e-38
-0.07041432 0.049214277 0.79500002 9.4142033e-41
-0.068900026 0.049214274 0.79500002 5.2423192e-39
-0.067555241 0.049338076 0.79700011 1.0429679e-38
-0.066119991 0.049399972 0.7980001 1.6989191e-38
-0.064600043 0.049399976 0.79800004 2.3417324e-38
-0.038715262 0.04748093 0.76699996 1.1211649e-39
-0.037302859 0.04754284 0.76800001 7.584179e-39
-0.035840008 0.047542825 0.76800007 1.4013025e-38
-0.034332391 0.04748093 0.76700002 1.4019127e-38
-0.032871414 0.047480922 0.76700002 1.3923039e-38
-0.031328578 0.047357127 0.76500005 1.5227803e-38
-0.029793359 0.047233321 0.76300001 1.6409384e-38
-0.028265709 0.047109496 0.76100004 1.0425647e-38
-0.026816187 0.047109507 0.76100004 4.3285871e-39
-0.025266666 0.046923786 0.75800002 2.296326e-39
-0.023822868 0.046923786 0.75800002 3.0223906e-40
-0.022320012 0.046799984 0.75600004 1.0539135e-38
-0.020880016 0.04679998 0.75600004 2.0745445e-38
-0.019439997 0.04679998 0.75600004 2.0380987e-38
-0.017904775 0.046552364 0.75200003 2.0007545e-38
-0.016472377 0.046552368 0.75200003 1.8549656e-38
-0.015040004 0.04655236 0.75200003 1.695613e-38
-0.013607604 0.04655236 0.75200003 1.2892732e-38
-0.012175233 0.046552368 0.75200003 8.7756008e-39
-0.010714285 0.046428569 0.75000006 9.686463e-39
-0.0092857229 0.046428554 0.75000006 1.0604082e-38
-0.0078571606 0.046428565 0.75000006 1.1046741e-38
-0.0064113997 0.046304747 0.74800009 1.1532835e-38
-0.0049866475 0.046304736 0.74800003 1.5416842e-38
-0.0035618937 0.046304744 0.74800003 1.9166682e-38
-0.0021285864 0.046119019 0.74500006 1.3820144e-38
-0.00071142451 0.046242833 0.74700004 8.4100511e-39
0.00071142404 0.046242826 0.74700004 1.2175975e-38
0.0021342922 0.046242822 0.7470001 1.5943774e-38
0.0035571416 0.046242829 0.7470001 1.640944e-38
0.0049800044 0.046242837 0.74700004 1.6872589e-38
0.0064114397 0.046304733 0.74800003 1.9468045e-38
0.0078362068 0.046304744 0.74800003 2.1945451e-38
0.0092609599 0.046304747 0.74800003 2.1213637e-38
0.010685714 0.046304751 0.74800003 2.0458792e-38
0.012110501 0.046304733 0.74800009 1.2072633e-38
0.013535255 0.04630474 0.74800003 3.684329e-39
0.014999988 0.046428569 0.75000006 2.2963288e-39
0.016428566 0.046428561 0.75000006 8.3021049e-40
0.017904768 0.04655236 0.75200003 1.7503815e-39
0.019337153 0.046552364 0.75200003 2.6719651e-39
0.020769523 0.046552368 0.75200003 3.2251319e-39
0.022231407 0.046614271 0.75299996 3.7808196e-39
0.023728568 0.046738066 0.75500011 4.058847e-39
0.025166648 0.046738081 0.75500005 4.241076e-39
0.026640004 0.046799973 0.75600004 2.3096552e-39
0.028154287 0.046923794 0.75800002 3.7324706e-40
0.02971524 0.047109503 0.76099998 6.1603491e-39
0.031164763 0.047109514 0.76099998 1.1990179e-38
0.03269998 0.047233328 0.76300001 1.4123633e-38
0.034153312 0.047233317 0.76300001 1.6232616e-38
0.035699997 0.047357116 0.76500005 1.9164891e-38
0.037254296 0.047480937 0.76700002 2.2026509e-38
0.038715236 0.047480937 0.76699996 2.2774835e-38
-0.070591435 0.050856177 0.79700011 6.1534197e-39
-0.069073327 0.05085618 0.79700005 5.702053e-39
-0.067555226 0.050856177 0.79700005 5.2527253e-39
-0.066120021 0.050919972 0.79800004 1.0704544e-38
-0.064600021 0.050919976 0.7980001 1.606976e-38
-0.063238114 0.051047597 0.80000001 1.9742476e-38
-0.061714299 0.051047601 0.80000001 2.341769e-38
-0.038614284 0.048814259 0.76500005 7.4627971e-40
-0.037254296 0.04894188 0.76700002 5.3618065e-39
-0.035793319 0.048941877 0.76700002 9.8711009e-39
-0.034332372 0.04894188 0.76700002 8.4828345e-39
-0.032785702 0.048814267 0.76500005 7.009215e-39
-0.031328566 0.048814259 0.76500005 1.0424041e-38
-0.029793354 0.048686653 0.76300007 1.383767e-38
-0.028265703 0.048559021 0.76100004 1.0879494e-38
-0.026816184 0.048559032 0.76100004 7.8983431e-39
-0.025266657 0.048367612 0.75800002 6.5314886e-39
-0.023822879 0.048367608 0.75800002 5.271057e-39
-0.022320004 0.048239991 0.75600004 1.0349427e-38
-0.020879986 0.048239991 0.75600004 1.5426923e-38
-0.019440016 0.048239987 0.75600004 1.2741449e-38
-0.017928587 0.048048552 0.75300002 1.0086815e-38
-0.016494313 0.048048556 0.75300002 1.0240696e-38
-0.015039981 0.047984742 0.75200003 1.0304818e-38
-0.013607631 0.047984757 0.75199997 1.1149901e-38
-0.012175258 0.047984745 0.75200003 1.1972567e-38
-0.010714269 0.047857121 0.75000006 1.2360447e-38
-0.009285708 0.047857124 0.75000006 1.2650656e-38
-0.0078571448 0.047857117 0.75000006 1.0423639e-38
-0.0064285551 0.047857117 0.75000006 8.3326069e-39
-0.0049866587 0.0477295 0.74800003 1.1637268e-38
-0.0035619067 0.047729507 0.74800003 1.4952299e-38
-0.0021342889 0.047665685 0.7470001 1.4015274e-38
-0.0007114273 0.047665697 0.74700004 1.2990037e-38
0.00071142125 0.047665685 0.74700004 1.5402173e-38
0.0021342912 0.047665685 0.7470001 1.7723522e-38
0.0035619221 0.047729503 0.74800003 1.7346843e-38
0.0049866755 0.047729507 0.74800003 1.6987044e-38
0.0064114425 0.047729511 0.74800003 1.59661e-38
0.0078361956 0.047729503 0.74800003 1.495842e-38
0.0092609832 0.047729496 0.74800009 1.6052192e-38
0.010685736 0.047729488 0.74800003 1.7149842e-38
0.012110488 0.047729492 0.74800003 1.0692586e-38
0.013571427 0.047857132 0.75000006 4.2249303e-39
0.015000004 0.047857128 0.75000006 2.3892279e-39
0.016428579 0.047857128 0.75000006 5.5505432e-40
0.017904764 0.047984742 0.75200003 1.5677797e-39
0.019337129 0.047984757 0.75199997 2.5808414e-39
0.020769514 0.047984745 0.75199997 3.1354431e-39
0.022231406 0.04804856 0.75299996 3.6904204e-39
0.023728561 0.048176169 0.75500005 3.9659437e-39
0.025166659 0.048176158 0.75500011 4.3329157e-39
0.02664 0.048239972 0.75600004 2.6748419e-39
0.028154274 0.048367601 0.75800002 1.0117823e-39
0.029715233 0.048559029 0.76099998 6.265801e-39
0.031164752 0.048559025 0.76099998 1.1632156e-38
0.032699998 0.048686657 0.76300007 1.4120041e-38
0.034242868 0.048814256 0.76500005 1.6509565e-38
0.035793342 0.048941877 0.76700002 1.8440987e-38
0.03730287 0.049005691 0.76800007 2.047895e-38
0.038765732 0.049005676 0.76800007 2.1947246e-38
-0.070680007 0.052439976 0.79800004 1.2151515e-38
-0.069160007 0.052439984 0.79800004 6.1606391e-39
-0.067639999 0.052439973 0.7980001 1.0668926e-40
-0.066120021 0.052439976 0.79800004 4.4143676e-39
-0.064600013 0.052439965 0.7980001 8.6783451e-39
-0.063238114 0.052571397 0.80000001 1.6064013e-38
-0.061560024 0.052439976 0.79800004 2.3314718e-38
-0.060190476 0.052571408 0.80000001 2.3417682e-38
-0.058666687 0.052571405 0.80000001 2.3417686e-38
-0.057142876 0.052571412 0.80000001 2.341769e-38
-0.038765717 0.050468549 0.76800001 3.8142083e-40
-0.037302867 0.050468553 0.76800007 3.0615779e-39
-0.035793331 0.050402839 0.76700002 5.717627e-39
-0.034332383 0.050402828 0.76700002 2.9392389e-39
-0.032871429 0.050402846 0.76699996 1.045789e-40
-0.031328555 0.050271392 0.76500005 5.621568e-39
-0.029793343 0.050139982 0.76300001 1.1157548e-38
-0.028340014 0.050139986 0.76300001 1.1356665e-38
-0.026816206 0.050008554 0.76100004 1.1419361e-38
-0.025333347 0.049942844 0.76000005 1.0844231e-38
-0.023822872 0.049811412 0.75800002 1.0233722e-38
-0.022379065 0.049811408 0.75800002 1.0159519e-38
-0.020880004 0.049679991 0.75600004 1.0053727e-38
-0.019439986 0.04967998 0.75600004 5.0702496e-39
-0.017928576 0.049482837 0.75300002 1.1938502e-40
-0.016494302 0.049482841 0.75300002 1.9291928e-39
-0.015040007 0.049417134 0.75199997 3.7099195e-39
-0.013607636 0.049417123 0.75200003 9.5217236e-39
-0.012175236 0.049417131 0.75200003 1.521341e-38
-0.010714302 0.049285699 0.75000006 1.4947987e-38
-0.0092857117 0.049285706 0.75000006 1.4657377e-38
-0.0078571504 0.049285695 0.75000006 9.8474568e-39
-0.0064285877 0.049285699 0.75000006 4.9920417e-39
-0.0049999971 0.049285706 0.75000006 7.8468622e-39
-0.0035714351 0.04928571 0.75000006 1.0712788e-38
-0.0021342917 0.049088549 0.74700004 1.4206854e-38
-0.00071236421 0.049154256 0.74800003 1.7608725e-38
0.00071144081 0.049088538 0.7470001 1.8534983e-38
0.002137156 0.04915427 0.74800003 1.945943e-38
0.0035619091 0.049154278 0.74800003 1.8266996e-38
0.0049866773 0.049154267 0.74800003 1.7058038e-38
0.0064114295 0.049154274 0.74800003 1.2450809e-38
0.007836218 0.049154256 0.74800009 7.8532788e-39
0.0092609702 0.049154263 0.74800003 1.0887065e-38
0.010685738 0.049154267 0.74800003 1.3833673e-38
0.012142848 0.04928571 0.75000006 9.3222361e-39
0.013571423 0.04928571 0.75000006 4.7874269e-39
0.014999986 0.049285706 0.75000006 2.4799886e-39
0.016428581 0.049285695 0.75000012 1.8879414e-40
0.017904753 0.049417142 0.75199997 1.3844787e-39
0.019337134 0.049417127 0.75199997 2.4904507e-39
0.020769522 0.049417134 0.75200003 3.0454097e-39
0.022231404 0.049482845 0.75300002 3.5975087e-39
0.023728564 0.049614254 0.75500005 3.9652178e-39
0.025166662 0.049614258 0.75500011 4.3325556e-39
0.026640015 0.049679969 0.75600004 2.9532267e-39
0.02822856 0.049942851 0.76000005 1.5696028e-39
0.029715238 0.050008554 0.76099998 6.4426308e-39
0.031246668 0.050139993 0.76300001 1.1254395e-38
0.032699998 0.050139986 0.76300001 1.403143e-38
0.03424285 0.050271414 0.76500005 1.6785424e-38
0.035840008 0.050468549 0.76800001 1.7794544e-38
0.037302863 0.050468549 0.76800007 1.8816577e-38
0.038866658 0.050599985 0.77000004 2.1121797e-38
-0.070680015 0.053959973 0.7980001 6.2066914e-39
-0.069160029 0.053959977 0.79800004 7.2940009e-39
-0.06780953 0.054095212 0.80000001 8.4766156e-39
-0.066285737 0.054095212 0.80000001 8.6533445e-39
-0.064761922 0.05409522 0.80000001 8.8174408e-39
-0.063238129 0.05409522 0.80000001 1.022885e-38
-0.061714288 0.054095212 0.80000001 1.1716167e-38
-0.060190495 0.054095227 0.80000001 1.3932069e-38
-0.058666684 0.05409522 0.80000001 1.6162319e-38
-0.057142865 0.054095227 0.80000001 1.7439773e-38
-0.055619054 0.054095212 0.80000001 1.8825915e-38
-0.054095257 0.054095212 0.80000001 1.8266651e-38
-0.040438119 0.052201886 0.77200001 1.5690969e-39
-0.038866673 0.052066643 0.77000004 1.6606326e-39
-0.037400007 0.052066647 0.7700001 3.4181201e-39
-0.035840008 0.051931407 0.76800007 5.1611616e-39
-0.03437715 0.051931411 0.76800001 2.6693671e-39
-0.032871436 0.051863793 0.76699996 9.2268497e-41
-0.031410489 0.051863782 0.76700002 2.862075e-39
-0.029871427 0.051728543 0.76500005 5.6405682e-39
-0.028340029 0.05159333 0.76300001 9.2355364e-39
-0.0268867 0.051593326 0.76300001 1.2822781e-38
-0.025333351 0.05139048 0.75999999 1.2811221e-38
-0.023885744 0.051390462 0.76000005 1.2823372e-38
-0.022379056 0.051255222 0.75800002 1.1983533e-38
-0.020880003 0.051119983 0.7560001 1.1026864e-38
-0.019440005 0.051119979 0.75600004 9.1159664e-39
-0.017928593 0.050917123 0.75300002 7.2688728e-39
-0.016494289 0.05091713 0.75300002 8.2102049e-39
-0.015060033 0.050917126 0.75299996 9.2466333e-39
-0.013607614 0.050849512 0.75200003 1.1819871e-38
-0.012175242 0.050849512 0.75200003 1.4401296e-38
-0.010742843 0.05084952 0.75200003 1.4300835e-38
-0.0092856977 0.050714277 0.75000006 1.4203194e-38
-0.0078571355 0.050714262 0.75000006 8.745372e-39
-0.0064285733 0.050714269 0.75000006 3.3995795e-39
-0.0049999831 0.050714273 0.75000006 8.3906599e-39
-0.0035714211 0.050714266 0.75000006 1.3466766e-38
-0.0021371304 0.050579026 0.74800003 1.6698268e-38
-0.00071236235 0.050579034 0.74800003 1.9835385e-38
0.00071238982 0.050579026 0.74800003 1.9000618e-38
0.0021371578 0.050579034 0.74800003 1.8077594e-38
0.00356191 0.050579038 0.74800003 1.3931e-38
0.0049866848 0.050579019 0.74800009 9.7829102e-39
0.0064114509 0.050579026 0.74800009 7.1066992e-39
0.007836205 0.050579034 0.74800003 4.504785e-39
0.0092609711 0.050579038 0.74800003 1.088553e-38
0.010714286 0.050714269 0.75000006 1.7331987e-38
0.012142861 0.050714277 0.75000006 1.1523066e-38
0.013571438 0.050714262 0.75000006 5.6943066e-39
0.015000001 0.050714273 0.75000006 3.033154e-39
0.016428575 0.050714258 0.75000006 4.6753482e-40
0.017857136 0.050714266 0.75000006 1.4781176e-39
0.019337146 0.050849512 0.75200003 2.5833722e-39
0.020797126 0.050917126 0.75299996 3.1361774e-39
0.022231402 0.050917134 0.75300002 3.688268e-39
0.023728557 0.051052358 0.75500005 4.0570449e-39
0.025166655 0.051052362 0.75500005 4.4251086e-39
0.026640011 0.051119972 0.75600004 3.3191408e-39
0.028154291 0.051255215 0.75800002 2.2988974e-39
0.029715227 0.051458079 0.76099998 6.4487041e-39
0.031246649 0.051593319 0.76300001 1.0615119e-38
0.032699984 0.05159333 0.76300001 1.3841655e-38
0.034332387 0.05186379 0.76700002 1.7153477e-38
0.035840005 0.051931411 0.76800001 1.7428629e-38
0.03730287 0.051931404 0.76800007 1.7799206e-38
0.038866665 0.052066639 0.7700001 1.8538559e-38
0.040333319 0.052066654 0.77000004 1.9371537e-38
0.041799996 0.052066643 0.77000004 1.8996303e-38
-0.069160029 0.055479974 0.79800004 8.5147729e-39
-0.06797906 0.055758074 0.80200005 1.6765205e-38
-0.066285737 0.055619027 0.80000001 1.2905907e-38
-0.064761914 0.055619031 0.80000001 8.936575e-39
-0.063238107 0.055619024 0.80000001 4.5005307e-39
-0.061714306 0.055619024 0.80000001 1.1179839e-40
-0.060190495 0.055619027 0.80000001 4.4312939e-39
-0.058666676 0.055619031 0.80000001 8.7673163e-39
-0.057000004 0.055479988 0.79800004 1.1444559e-38
-0.05548 0.055479981 0.79800004 1.410277e-38
-0.053960018 0.055479981 0.79800004 1.3006845e-38
-0.040438104 0.053672358 0.77200001 2.7611787e-39
-0.038967624 0.053672373 0.77200001 2.9484763e-39
-0.037497155 0.053672358 0.77200001 3.7886668e-39
-0.036026679 0.053672355 0.77200001 4.6122982e-39
-0.034466665 0.053533319 0.77000004 2.3924439e-39
-0.032914288 0.053394262 0.76800001 9.9804681e-41
-0.031410471 0.053324737 0.76700002 9.3367115e-41
-0.029871415 0.053185694 0.76500005 1.2179386e-40
-0.028340025 0.053046647 0.76300007 7.2140204e-39
-0.026886696 0.053046655 0.76300007 1.4198521e-38
-0.025333362 0.052838087 0.75999999 1.4846373e-38
-0.023885729 0.052838087 0.76000005 1.5395572e-38
-0.022379048 0.052699029 0.75800002 1.3740359e-38
-0.020935243 0.052699037 0.75800002 1.2076246e-38
-0.019439997 0.052559983 0.75600004 1.3281992e-38
-0.017976196 0.052490447 0.75500011 1.4379707e-38
-0.016494324 0.052351423 0.75299996 1.4580234e-38
-0.01506002 0.052351411 0.75299996 1.4665637e-38
-0.013607619 0.052281883 0.75200003 1.4108909e-38
-0.012175249 0.052281883 0.75200003 1.3469279e-38
-0.010742849 0.05228189 0.75200003 1.3558595e-38
-0.0093104979 0.052281901 0.75199997 1.3638188e-38
-0.0078780996 0.052281894 0.75199997 7.714752e-39
-0.0064457273 0.052281894 0.75200003 1.754811e-39
-0.0050133276 0.052281886 0.75200003 9.032456e-39
-0.003580957 0.052281886 0.75200003 1.6229735e-38
-0.0021371285 0.05200379 0.74800003 1.9191819e-38
-0.00071237539 0.052003793 0.74800003 2.2037282e-38
0.00071239262 0.052003793 0.74800003 1.9370464e-38
0.0021371448 0.052003797 0.74800003 1.6687123e-38
0.0035619175 0.052003793 0.74800009 9.5960372e-39
0.0049866866 0.052003797 0.74800003 2.4242141e-39
0.0064114388 0.05200379 0.74800003 1.87172e-39
0.0078362068 0.052003793 0.74800003 1.2224353e-39
0.0092857052 0.052142844 0.75000006 1.1001502e-38
0.01071428 0.052142851 0.75000006 2.0735711e-38
0.012142843 0.052142855 0.75000006 1.3651471e-38
0.01357142 0.052142844 0.75000006 6.5355509e-39
0.015000015 0.05214284 0.75000012 3.5820033e-39
0.016428577 0.052142829 0.75000012 6.4725135e-40
0.017928565 0.052351415 0.75300002 1.6599922e-39
0.019362835 0.052351408 0.75299996 2.5815757e-39
0.02085237 0.052490462 0.75500005 3.1351012e-39
0.022290468 0.052490447 0.75500005 3.6889841e-39
0.023728566 0.05249045 0.75500011 4.1499566e-39
0.025200006 0.052559976 0.75600004 4.5172958e-39
0.026639989 0.052559972 0.75600004 3.782609e-39
0.028154282 0.052699037 0.75800002 2.9481932e-39
0.029715234 0.052907605 0.76099998 6.4379393e-39
0.031246671 0.053046651 0.76300007 9.9625791e-39
0.032871433 0.053324744 0.76700002 1.3750528e-38
0.034332372 0.053324752 0.76699996 1.7427184e-38
0.035933338 0.053533304 0.77000004 1.7059133e-38
0.037399992 0.053533323 0.77000004 1.6692147e-38
0.038866669 0.053533323 0.77000004 1.5953157e-38
0.040438078 0.053672358 0.77200001 1.5223859e-38
0.041908555 0.053672373 0.77200001 1.5493271e-38
0.043379042 0.053672355 0.77200001 1.5772356e-38
-0.06933336 0.057142831 0.80000001 9.5041611e-39
-0.067809545 0.057142839 0.80000001 8.6945203e-39
-0.066285759 0.057142839 0.80000001 9.3323633e-39
-0.064761914 0.057142831 0.80000001 1.0072714e-38
-0.063238122 0.057142846 0.80000001 6.086048e-39
-0.061560001 0.056999985 0.7980001 2.206343e-39
-0.060040016 0.056999985 0.79800004 3.5913948e-39
-0.058520012 0.056999978 0.7980001 4.9596381e-39
-0.05700003 0.056999981 0.79800004 5.9838555e-39
-0.055479996 0.056999989 0.79800004 7.0718979e-39
-0.053959996 0.056999981 0.7980001 6.5352413e-39
-0.052440014 0.056999985 0.79800004 5.9698383e-39
-0.05092001 0.056999989 0.79800004 3.0335716e-39
-0.038967639 0.055142842 0.77200001 1.6541642e-39
-0.037545737 0.055214267 0.77300006 5.1654566e-39
-0.036073353 0.055214263 0.77300006 8.5759298e-39
-0.034556214 0.055142839 0.77200001 7.4696018e-39
-0.033000018 0.054999985 0.77000004 6.361483e-39
-0.03145143 0.054857116 0.76800001 6.1796099e-39
-0.029949533 0.054785687 0.76700002 6.0892724e-39
-0.028414285 0.054642845 0.76500005 1.0424258e-38
-0.026886683 0.054499984 0.76300001 1.4747743e-38
-0.025366671 0.054357126 0.76099998 1.3558227e-38
-0.023885712 0.054285698 0.76000005 1.227397e-38
-0.022379061 0.054142848 0.75800002 1.1345934e-38
-0.020935232 0.054142844 0.75800002 1.0347245e-38
-0.019439997 0.053999994 0.75600004 1.2091782e-38
-0.017976206 0.053928535 0.75500011 1.3939226e-38
-0.016494313 0.053785708 0.75299996 1.4118563e-38
-0.015060036 0.0537857 0.75300002 1.4390482e-38
-0.013607624 0.053714264 0.75200003 1.4109593e-38
-0.012175246 0.053714283 0.75199997 1.3827984e-38
-0.010742874 0.053714283 0.75199997 1.4479079e-38
-0.0093104746 0.053714275 0.75199997 1.5218401e-38
-0.0078781033 0.053714275 0.75200003 1.188037e-38
-0.006445704 0.053714283 0.75200003 8.6367545e-39
-0.0050133322 0.053714268 0.75200003 1.3919849e-38
-0.0035809616 0.053714275 0.75200003 1.9278614e-38
-0.0021371397 0.053428549 0.74800003 1.9833595e-38
-0.00071237353 0.05342856 0.74800003 2.0476436e-38
0.000712401 0.053428557 0.74800009 1.6877983e-38
0.0021371671 0.053428549 0.74800003 1.3367748e-38
0.0035619203 0.053428553 0.74800003 7.289706e-39
0.0049866736 0.05342856 0.74800003 1.3031557e-39
0.0064114407 0.053428553 0.74800003 5.0683872e-39
0.0078571429 0.05357141 0.75000006 8.9086877e-39
0.0092857182 0.05357141 0.75000006 1.4756455e-38
0.01071428 0.053571418 0.75000006 2.0478932e-38
0.012142858 0.053571407 0.75000006 1.3645416e-38
0.013571433 0.053571414 0.75000006 6.7963648e-39
0.014999996 0.053571418 0.75000006 3.674185e-39
0.016428573 0.05357141 0.75000006 4.6034476e-40
0.017928563 0.053785697 0.75300002 1.5670763e-39
0.019362831 0.053785693 0.75299996 2.6723336e-39
0.020852381 0.053928539 0.75500011 3.1354586e-39
0.022290459 0.053928547 0.75500005 3.5982248e-39
0.023728559 0.05392855 0.75500011 4.0581211e-39
0.025200002 0.053999994 0.75600004 4.4261708e-39
0.026640005 0.053999979 0.7560001 3.5049347e-39
0.028154287 0.054142848 0.75800002 2.486855e-39
0.02971524 0.05435713 0.76099998 6.077409e-39
0.031246655 0.05449998 0.76300001 9.6899354e-39
0.032871418 0.054785695 0.76699996 1.3656172e-38
0.03433238 0.054785699 0.76699996 1.7613002e-38
0.035933327 0.054999985 0.77000004 1.7427907e-38
0.0374 0.054999974 0.7700001 1.7242074e-38
0.038866658 0.054999989 0.77000004 1.6598498e-38
0.040438078 0.055142839 0.77200001 1.6046419e-38
0.041908573 0.055142846 0.77200001 1.6231533e-38
-0.06933336 0.058666646 0.80000001 1.0582034e-38
-0.067809537 0.058666646 0.80000001 4.9380777e-40
-0.066285722 0.058666643 0.80000001 5.8400445e-39
-0.064600021 0.058519982 0.7980001 1.1149972e-38
-0.063080035 0.058519982 0.79800004 7.7477246e-39
-0.061559997 0.058519978 0.79800004 4.2410999e-39
-0.060040016 0.058519993 0.79800004 2.676651e-39
-0.058520012 0.058519986 0.79800004 1.1104379e-39
-0.057000007 0.058519974 0.7980001 6.4338097e-40
-0.055480026 0.058519982 0.79800004 9.3075645e-41
-0.053959992 0.058519971 0.79800004 9.2349773e-41
-0.052111421 0.058153328 0.79300004 9.3060231e-41
-0.050600938 0.058153324 0.79300004 9.2337161e-41
-0.04909046 0.058153316 0.79300004 9.5543332e-41
-0.047460016 0.058006648 0.79100007 1.2918935e-39
-0.046069529 0.058153324 0.79300004 2.393897e-39
-0.044559047 0.05815332 0.79300004 2.3020391e-39
-0.037545722 0.056686651 0.773 6.4594548e-39
-0.036073349 0.05668664 0.77300006 1.2533887e-38
-0.034556199 0.056613311 0.77200001 1.264009e-38
-0.033085722 0.056613326 0.77200001 1.2627533e-38
-0.031451419 0.056319971 0.76800001 1.2358124e-38
-0.029949514 0.056246635 0.76700002 1.1982926e-38
-0.028414274 0.056099974 0.76500005 1.3645688e-38
-0.0268867 0.055953328 0.76300001 1.5301278e-38
-0.025433348 0.05595332 0.76300007 1.227326e-38
-0.023917155 0.055806652 0.76100004 9.139696e-39
-0.022438109 0.055733319 0.76000005 8.837967e-39
-0.020935247 0.055586651 0.75799996 8.5897466e-39
-0.019440016 0.055439994 0.75600004 1.0982514e-38
-0.017976215 0.055366639 0.75500005 1.3373477e-38
-0.016538102 0.055366639 0.75500011 1.3747287e-38
-0.015060024 0.055219986 0.75300002 1.4018133e-38
-0.01362572 0.055219986 0.75300002 1.4111049e-38
-0.012175252 0.055146664 0.75200003 1.4112118e-38
-0.010742852 0.055146653 0.75200003 1.5403189e-38
-0.0093104802 0.055146657 0.75200003 1.6687808e-38
-0.0078781089 0.055146646 0.75200003 1.6135359e-38
-0.0064457101 0.055146649 0.75200003 1.5580062e-38
-0.0050133392 0.055146653 0.75200003 1.8914501e-38
-0.0035809597 0.055146672 0.75199997 2.2220587e-38
-0.0021371387 0.054853331 0.74800003 2.0570787e-38
-0.00071429205 0.054999989 0.75000006 1.8808653e-38
0.0007142711 0.054999989 0.75000006 1.4480866e-38
0.0021428473 0.054999996 0.75000006 1.0046189e-38
0.0035714244 0.055 0.75000006 5.0759262e-39
0.0049999868 0.054999992 0.75000006 1.1253688e-40
0.0064285621 0.054999992 0.75000006 8.3741764e-39
0.0078571392 0.054999989 0.75000006 1.6670975e-38
0.0092857014 0.054999992 0.75000006 1.8452116e-38
0.010714297 0.054999989 0.75000012 2.0191216e-38
0.012142874 0.054999977 0.75000006 1.3654359e-38
0.013571435 0.054999981 0.75000012 7.0890863e-39
0.015000012 0.054999989 0.75000012 3.6738444e-39
0.016472386 0.055146649 0.75200003 2.7848004e-40
0.017904771 0.055146649 0.75200003 1.5674434e-39
0.01936283 0.055219982 0.75299996 2.7652523e-39
0.02079712 0.055219982 0.75300002 3.1361844e-39
0.022290463 0.055366635 0.75500005 3.5060432e-39
0.023760011 0.055439986 0.75600004 3.9663024e-39
0.025199994 0.055439997 0.75600004 4.3350695e-39
0.026710467 0.055586658 0.75800002 3.2326764e-39
0.028228566 0.055733327 0.76000005 2.0309201e-39
0.029793326 0.055953328 0.76300001 5.6942912e-39
0.03132857 0.056099974 0.76500005 9.3172167e-39
0.032871425 0.056246657 0.76699996 1.3571154e-38
0.034377135 0.056319971 0.76800001 1.7705199e-38
0.035933316 0.056466654 0.77000004 1.770593e-38
0.037400004 0.056466643 0.77000004 1.7703769e-38
0.038866661 0.056466646 0.7700001 1.733606e-38
0.04043809 0.056613311 0.77200001 1.6876893e-38
0.041908555 0.056613322 0.77199996 1.6969457e-38
-0.066285744 0.060190469 0.80000001 6.6335003e-39
-0.064600013 0.060039975 0.7980001 9.3684916e-39
-0.063080028 0.060039975 0.79800004 7.275302e-39
-0.061559997 0.060039986 0.79800004 5.1601975e-39
-0.060039993 0.060039975 0.7980001 4.151065e-39
-0.058520008 0.060039982 0.79800004 3.1419396e-39
-0.057000007 0.060039986 0.79800004 3.1343936e-39
-0.055410456 0.059964746 0.79700005 3.1250413e-39
-0.05375715 0.059814278 0.79500002 2.8552479e-39
-0.052111421 0.059663791 0.79300004 2.5747486e-39
-0.050600946 0.059663799 0.7930001 3.2247997e-39
-0.049090486 0.059663802 0.79300004 3.8651175e-39
-0.04746002 0.059513323 0.79100001 3.8679677e-39
-0.045953348 0.059513319 0.79100001 3.9518775e-39
-0.044446673 0.059513316 0.79100001 4.5132601e-39
-0.034556203 0.058083795 0.77200001 8.2187907e-39
-0.033085734 0.058083799 0.77200001 6.936674e-39
-0.031451438 0.057782833 0.76800001 6.4649325e-39
