# .PCD v0.7 - Point Cloud Data file format
VERSION 0.7
FIELDS x y z rgb
SIZE 4 4 4 4
TYPE F F F F
COUNT 1 1 1 1
WIDTH 969
HEIGHT 1
VIEWPOINT 0 0 0 1 0 0 0
POINTS 969
DATA ascii
-0.013372382 0.0077419057 0.73900002 4.6097254e-40
-0.011964763 0.0077418908 0.73900008 1.8404094e-40
-0.010528571 0.0077209473 0.73700011 3.4915621e-39
-0.0091247614 0.0077209473 0.73700011 6.8924561e-39
-0.0077209533 0.0077209473 0.73700011 1.0694054e-38
-0.0063171438 0.0077209473 0.73700011 1.449237e-38
-0.0049133343 0.0077209473 0.73700005 1.4402027e-38
-0.003509524 0.0077209473 0.73700011 1.4316245e-38
-0.0021028572 0.0077104568 0.73600018 1.0507537e-38
-0.00070095243 0.0077104643 0.73600012 6.7045798e-39
0.00070095243 0.0077104494 0.73600012 3.8651763e-39
0.0021028572 0.0077104643 0.73600012 1.0106809e-39
0.0035047622 0.0077104494 0.73600012 4.4268266e-39
0.0049066669 0.0077104643 0.73600012 7.7433805e-39
0.0063085719 0.0077104494 0.73600012 7.5529665e-39
0.0077209529 0.0077209398 0.73700005 7.3563685e-39
0.0091247633 0.0077209473 0.73700011 7.0887415e-39
0.010557145 0.0077418983 0.73900008 6.8082927e-39
0.011964764 0.0077419132 0.73900002 1.0699183e-38
0.013390478 0.0077523664 0.74000007 1.4678594e-38
0.014840001 0.0077733248 0.7420001 1.0239272e-38
0.016253334 0.0077733248 0.7420001 5.9071989e-39
0.017666668 0.0077733248 0.7420001 9.6010455e-39
0.019105716 0.0077838004 0.74300009 1.336801e-38
0.020520953 0.0077837929 0.74300015 7.8301742e-39
0.022054287 0.0078257173 0.7470001 2.3986068e-39
0.023508573 0.0078361779 0.74800009 3.2279961e-39
0.024933334 0.0078361928 0.74800003 4.055219e-39
0.026358098 0.0078361779 0.74800009 5.2526538e-39
0.027857143 0.0078571439 0.75000006 6.449727e-39
0.029285714 0.0078571364 0.75000012 7.8387221e-39
0.030837145 0.0078885704 0.75300002 9.2191342e-39
0.032357145 0.007909514 0.75500011 9.4942904e-39
0.033840001 0.007919997 0.7560001 9.6772467e-39
0.035280004 0.0079199895 0.7560001 9.4935785e-39
-0.064842865 0.0094714388 0.7650001 2.8498627e-40
-0.063385718 0.0094714314 0.7650001 7.4308055e-40
-0.061928574 0.0094714314 0.76500005 1.2040825e-39
-0.060629532 0.0094961897 0.76700008 1.8372746e-39
-0.059168577 0.0094961971 0.76700002 2.4072962e-39
-0.057782862 0.0095085651 0.76800007 1.2898406e-39
-0.056320004 0.0095085651 0.76800007 1.1317867e-40
-0.054857146 0.0095085502 0.76800007 1.2015532e-39
-0.053394288 0.0095085725 0.76800007 2.3204564e-39
-0.052066669 0.0095333233 0.7700001 1.2952146e-39
-0.050600003 0.0095333233 0.7700001 1.9237726e-40
-0.049005717 0.0095085651 0.76800007 5.5244931e-40
-0.047480959 0.0094961897 0.76700008 8.3047813e-40
-0.045900002 0.0094714165 0.7650001 4.6314736e-40
-0.04432667 0.0094466582 0.76300007 9.8338922e-41
-0.042760957 0.0094218999 0.7610001 1.1117804e-39
-0.04125715 0.0094095021 0.76000011 2.0312172e-39
-0.03970477 0.0093847662 0.75800008 2.1230597e-39
-0.038260959 0.0093847662 0.75800008 2.1226799e-39
-0.036817148 0.0093847513 0.75800008 2.3052537e-39
-0.035280004 0.009359993 0.7560001 2.3963787e-39
-0.033795238 0.0093476102 0.75500011 4.6022313e-39
-0.032228574 0.0093104839 0.75200009 6.7374991e-39
-0.030714288 0.0092857108 0.75000006 7.8629351e-39
-0.029285716 0.0092857182 0.75000012 8.933998e-39
-0.027782859 0.009260945 0.74800009 4.592865e-39
-0.026252385 0.0092238113 0.74500012 1.855165e-40
-0.024833336 0.0092238113 0.74500012 6.4760168e-40
-0.02341429 0.0092238188 0.74500012 1.1053428e-39
-0.021936193 0.0091990381 0.74300009 9.2274803e-40
-0.020520955 0.0091990381 0.74300009 7.3800084e-40
-0.019080004 0.0091866553 0.7420001 9.2167184e-40
-0.017619049 0.0091618821 0.74000007 1.0142332e-39
-0.016187619 0.009149529 0.73900002 1.1993475e-39
-0.014780001 0.0091495141 0.73900008 1.2886355e-39
-0.013372382 0.009149529 0.73900002 7.3507633e-40
-0.011964763 0.0091495141 0.73900002 9.732158e-41
-0.010557144 0.0091495216 0.73900008 6.8892751e-39
-0.0091247614 0.0091247633 0.73700005 1.3728569e-38
-0.0077209529 0.0091247633 0.73700011 1.762518e-38
-0.0063171433 0.0091247633 0.73700005 2.1386139e-38
-0.0049133338 0.0091247708 0.73700011 1.6701821e-38
-0.0035095243 0.0091247633 0.73700005 1.1887569e-38
-0.0021028572 0.0091123655 0.73600018 5.9698566e-39
-0.00070095243 0.0091123655 0.73600012 9.2369391e-41
0.00070095249 0.0091123655 0.73600018 9.2353977e-41
0.0021028572 0.0091123655 0.73600012 1.034915e-40
0.003509524 0.0091247484 0.73700005 7.7588593e-39
0.0049133338 0.0091247633 0.73700011 1.5385168e-38
0.0063171433 0.0091247559 0.73700005 1.5018919e-38
0.0077209529 0.0091247633 0.73700011 1.4553276e-38
0.0091247633 0.0091247633 0.73700005 1.4006561e-38
0.010557145 0.0091495141 0.73900002 1.3454518e-38
0.011980954 0.009161897 0.74000007 1.4107099e-38
0.013390478 0.0091618821 0.74000007 1.4658085e-38
0.014840001 0.0091866553 0.7420001 8.1933431e-39
0.016253334 0.0091866553 0.7420001 1.6841604e-39
0.017666668 0.0091866553 0.74200004 7.9594832e-39
0.019105716 0.009199053 0.74300009 1.4096239e-38
0.02057619 0.0092238188 0.74500012 8.1874786e-39
0.022054287 0.0092485771 0.7470001 2.3092838e-39
0.023508573 0.009260945 0.74800009 3.3230574e-39
0.024933334 0.009260945 0.74800003 4.3317765e-39
0.026428573 0.0092857257 0.75000006 4.9749487e-39
0.027857145 0.0092857108 0.75000012 5.6253487e-39
0.029363811 0.0093104765 0.75200009 7.5664666e-39
0.030919047 0.0093476102 0.75500011 9.4950106e-39
0.032400005 0.009359993 0.7560001 9.4946505e-39
0.033840004 0.0093600079 0.7560001 9.4024633e-39
0.035280008 0.0093600005 0.7560001 9.4024717e-39
-0.064842865 0.010928579 0.7650001 3.4077323e-39
-0.063385718 0.010928571 0.7650001 3.9623115e-39
-0.061928574 0.010928564 0.7650001 4.5061527e-39
-0.060471434 0.010928579 0.7650001 4.6934124e-39
-0.059168577 0.010957152 0.76700008 4.9667357e-39
-0.057782866 0.01097142 0.76800007 4.5103972e-39
-0.056320008 0.010971412 0.76800013 4.134419e-39
-0.05485715 0.01097142 0.76800007 3.959331e-39
-0.053394292 0.01097142 0.76800007 3.8574972e-39
-0.052066669 0.011 0.7700001 2.3931978e-39
-0.050600003 0.010999992 0.7700001 9.2091373e-40
-0.049005721 0.01097142 0.76800007 1.0152141e-39
-0.047480959 0.010957152 0.76700002 1.1113614e-39
-0.045900002 0.010928564 0.7650001 9.2554502e-40
-0.04432667 0.010899991 0.76300007 8.3266416e-40
-0.042760957 0.010871403 0.76100016 1.3858604e-39
-0.041311432 0.010871425 0.7610001 2.0315927e-39
-0.039809525 0.010857128 0.76000011 1.8482931e-39
-0.038260955 0.010828562 0.75800008 1.7567715e-39
-0.036817145 0.01082857 0.75800008 2.0307982e-39
-0.035280004 0.010799989 0.7560001 2.3048865e-39
-0.033795241 0.010785729 0.75500005 3.8689767e-39
-0.032228578 0.010742851 0.75200015 5.3520731e-39
-0.03071429 0.010714278 0.75000006 7.6638414e-39
-0.029285718 0.0107143 0.75000006 1.0037464e-38
-0.027782861 0.010685712 0.74800009 5.0585081e-39
-0.02632286 0.010671437 0.7470001 1.8480885e-40
-0.024833336 0.010642864 0.74500012 6.4617796e-40
-0.02341429 0.010642856 0.74500012 1.1975497e-39
-0.021936191 0.010614291 0.74300009 1.1060715e-39
-0.020520953 0.010614276 0.74300015 1.0145989e-39
-0.019080004 0.010599986 0.7420001 1.1064372e-39
-0.017619051 0.010571413 0.74000007 1.1993587e-39
-0.016209524 0.01057142 0.74000007 9.2134954e-40
-0.014780001 0.010557152 0.73900002 7.3513799e-40
-0.013372382 0.010557137 0.73900008 4.3324757e-39
-0.011964763 0.010557137 0.73900002 8.0089014e-39
-0.010557144 0.010557137 0.73900008 1.2538391e-38
-0.0091495244 0.010557137 0.73900002 1.6986326e-38
-0.0077209533 0.010528564 0.73700011 1.6428865e-38
-0.0063171438 0.010528579 0.73700011 1.5785978e-38
-0.0049133343 0.010528564 0.73700011 1.087776e-38
-0.0035190475 0.010557137 0.73900008 5.9698622e-39
-0.0021028572 0.010514267 0.73600018 3.3065515e-39
-0.00070095243 0.010514267 0.73600012 6.4332772e-40
0.00070095243 0.010514267 0.73600018 3.6782683e-40
0.0021028575 0.010514267 0.73600012 9.2417035e-41
0.003509524 0.010528564 0.73700011 6.189171e-39
0.0049133333 0.010528557 0.73700011 1.2193236e-38
0.0063171429 0.010528572 0.73700011 1.1170451e-38
0.0077209524 0.010528557 0.73700011 1.0259986e-38
0.0091495253 0.01055713 0.73900008 1.208916e-38
0.010557145 0.010557152 0.73900002 1.3936287e-38
0.011980954 0.010571413 0.74000007 1.3016151e-38
0.013390477 0.010571413 0.74000007 1.2102415e-38
0.014840001 0.010600001 0.7420001 6.8221879e-39
0.016253332 0.010599993 0.74200004 1.6661817e-39
0.017690478 0.010614283 0.74300009 7.7625349e-39
0.019105716 0.010614268 0.74300009 1.3828627e-38
0.02057619 0.010642856 0.74500012 8.1982476e-39
0.021995237 0.010642871 0.74500012 2.6751937e-39
0.023477145 0.010671414 0.7470001 3.5049305e-39
0.024933334 0.010685705 0.74800009 4.3313939e-39
0.026428571 0.010714285 0.75000012 4.7923076e-39
0.027857143 0.010714285 0.75000006 5.1625713e-39
0.029363811 0.010742843 0.75200015 7.3785132e-39
0.030919049 0.010785714 0.75500005 9.5868573e-39
0.032400001 0.010800004 0.7560001 9.4942918e-39
0.033840001 0.010799989 0.7560001 9.3109935e-39
0.035280004 0.010799997 0.7560001 9.4024829e-39
-0.064673334 0.012353323 0.76300007 6.4508551e-39
-0.063385718 0.012385726 0.7650001 7.1916193e-39
-0.061928574 0.012385711 0.7650001 7.8272945e-39
-0.060471434 0.012385711 0.76500005 7.6472122e-39
-0.059014291 0.012385711 0.7650001 7.4606461e-39
-0.057707623 0.012418114 0.76700002 7.8347788e-39
-0.056320008 0.012434274 0.76800007 8.1059609e-39
-0.05485715 0.012434267 0.76800007 6.7359422e-39
-0.053394292 0.012434281 0.76800007 5.345529e-39
-0.052066673 0.012466647 0.7700001 3.4991684e-39
-0.050468579 0.012434267 0.76800007 1.6591906e-39
-0.048941907 0.012418106 0.76700002 1.4754804e-39
-0.047480956 0.012418091 0.76700008 1.2954023e-39
-0.045900002 0.012385711 0.7650001 1.4787202e-39
-0.04432667 0.012353331 0.76300007 1.5684271e-39
-0.042760957 0.012320943 0.7610001 1.7514045e-39
-0.041311432 0.012320951 0.7610001 1.9386726e-39
-0.039809529 0.012304761 0.76000011 1.6653283e-39
-0.038260959 0.01227238 0.75800008 1.2975996e-39
-0.036817148 0.01227238 0.75800002 1.7567504e-39
-0.03528 0.01224 0.7560001 2.2119833e-39
-0.033795241 0.01222381 0.75500011 3.1242426e-39
-0.032142863 0.012142852 0.75000006 3.9745323e-39
-0.03071429 0.012142859 0.75000012 7.586344e-39
-0.029207621 0.012110479 0.74800003 1.1051246e-38
-0.027782859 0.012110464 0.74800003 5.6030835e-39
-0.02632286 0.012094289 0.7470001 9.3699223e-41
-0.024833336 0.012061901 0.74500012 7.3836938e-40
-0.02341429 0.012061894 0.74500012 1.2897341e-39
-0.021936191 0.012029521 0.74300009 1.289011e-39
-0.020520953 0.012029521 0.74300009 1.1979098e-39
-0.019080004 0.012013331 0.7420001 1.2904796e-39
-0.017619051 0.011980943 0.74000007 1.3804962e-39
-0.016209526 0.011980936 0.74000007 7.3511137e-40
-0.014780001 0.011964768 0.73900002 1.1134577e-40
-0.013372382 0.011964753 0.73900002 8.0347385e-39
-0.011964763 0.011964761 0.73900008 1.594665e-38
-0.010557144 0.011964761 0.73900002 1.8084764e-38
-0.0091495244 0.011964761 0.73900008 2.01912e-38
-0.0077419057 0.011964761 0.73900002 1.5225227e-38
-0.0063342866 0.011964761 0.73900008 1.0141242e-38
-0.0049266675 0.011964761 0.73900002 5.1444287e-39
-0.0035190475 0.011964746 0.73900008 9.2711308e-41
-0.0021057145 0.011932373 0.73700011 6.4331931e-40
-0.00070095243 0.011916161 0.73600012 1.1028667e-39
0.00070190482 0.01193238 0.73700011 6.4334033e-40
0.0021028575 0.011916168 0.73600012 9.9183905e-41
0.003509524 0.011932366 0.73700011 4.5277775e-39
0.0049133338 0.01193238 0.73700005 8.9448412e-39
0.0063171433 0.011932373 0.73700011 7.3933152e-39
0.0077209529 0.011932388 0.73700005 5.8271021e-39
0.0091247633 0.011932373 0.73700011 1.0062311e-38
0.010557145 0.011964753 0.73900008 1.4298606e-38
0.011980954 0.011980943 0.74000007 1.1918799e-38
0.013390477 0.011980928 0.74000007 9.4954983e-39
0.014840002 0.012013331 0.74200004 5.510637e-39
0.016253332 0.012013316 0.7420001 1.5850956e-39
0.017690478 0.012029521 0.74300015 7.5950068e-39
0.019105716 0.012029521 0.74300009 1.3456261e-38
0.020576192 0.012061916 0.74500012 8.1939428e-39
0.021995239 0.012061916 0.74500012 2.954649e-39
0.023477143 0.012094289 0.7470001 3.6896861e-39
0.024933334 0.012110472 0.74800009 4.3321324e-39
0.026428573 0.012142867 0.75000006 4.5171949e-39
0.027931429 0.01217524 0.75200009 4.7070036e-39
0.029363809 0.012175225 0.75200009 7.1977233e-39
0.030919049 0.012223803 0.75500011 9.6783369e-39
0.032400005 0.01224 0.7560001 9.4932114e-39
0.033840004 0.012240008 0.7560001 9.2180706e-39
0.035280008 0.01224 0.7560001 9.40175e-39
-0.067580007 0.013806663 0.76300007 6.3486331e-39
-0.066126674 0.013806663 0.76300007 7.1877026e-39
-0.064673334 0.013806663 0.76300001 8.0185115e-39
-0.063220002 0.013806656 0.76300007 8.1106889e-39
-0.061928574 0.013842858 0.7650001 8.1989385e-39
-0.060471434 0.013842843 0.7650001 8.1106917e-39
-0.059168573 0.013879046 0.76700008 7.9248487e-39
-0.057782862 0.013897114 0.76800007 7.8369382e-39
-0.056320004 0.013897143 0.76800007 7.6568419e-39
-0.054857146 0.013897136 0.76800007 6.82744e-39
-0.053394288 0.013897136 0.76800007 6.0949323e-39
-0.052066673 0.013933323 0.7700001 4.5168908e-39
-0.050468575 0.013897128 0.76800007 3.0374461e-39
-0.049005717 0.013897136 0.76800007 3.3175825e-39
-0.047480956 0.013879046 0.76700008 3.595247e-39
-0.045900002 0.013842851 0.7650001 2.397085e-39
-0.04432667 0.013806663 0.76300001 1.2010879e-39
-0.042760957 0.013770461 0.7610001 1.5684467e-39
-0.041311432 0.013770483 0.7610001 1.9393831e-39
-0.039861906 0.013770469 0.7610001 1.9397474e-39
-0.038361907 0.013752371 0.76000011 1.9400963e-39
-0.036817148 0.013716191 0.75800008 2.2148741e-39
-0.035280004 0.013680004 0.7560001 2.397099e-39
-0.033795241 0.013661914 0.75500005 3.0384999e-39
-0.032142859 0.013571426 0.75000012 3.6925602e-39
-0.03071429 0.013571434 0.75000006 7.3890286e-39
-0.029207623 0.013535239 0.74800003 1.0968383e-38
-0.027782861 0.013535239 0.74800003 5.5223883e-39
-0.026322858 0.013517141 0.7470001 9.2631434e-41
-0.024833336 0.013480939 0.74500012 7.3872531e-40
-0.02341429 0.013480946 0.74500012 1.3826374e-39
-0.021936191 0.013444759 0.74300009 1.2900718e-39
-0.020520953 0.013444774 0.74300009 1.2893852e-39
-0.019080004 0.013426661 0.7420001 1.0124746e-39
-0.017619049 0.013390459 0.74000001 7.3511557e-40
-0.016209524 0.013390467 0.74000007 4.3324239e-39
-0.014780001 0.013372369 0.73900008 8.0217989e-39
-0.013372382 0.013372391 0.73900002 1.2642801e-38
-0.011964763 0.013372377 0.73900008 1.7351882e-38
-0.010557144 0.013372377 0.73900002 1.5411859e-38
-0.0091495244 0.013372384 0.73900002 1.34782e-38
-0.0077419057 0.013372369 0.73900008 9.3114307e-39
-0.0063342866 0.013372384 0.73900002 5.1433007e-39
-0.0049266675 0.013372369 0.73900008 2.6640814e-39
-0.0035190475 0.013372384 0.73900002 1.8415164e-40
-0.0021057145 0.013336182 0.73700005 5.5219848e-40
-0.00070190488 0.013336189 0.73700011 1.0124676e-39
0.00070190476 0.013336189 0.73700005 6.440648e-40
0.0021057145 0.013336182 0.73700011 3.6782683e-40
0.003509524 0.013336197 0.73700005 2.395367e-39
0.0049133338 0.013336182 0.73700011 4.5018675e-39
0.0063171433 0.013336182 0.73700011 5.2469771e-39
0.0077209529 0.013336182 0.73700005 5.8780155e-39
0.0091495253 0.013372384 0.73900002 1.00562e-38
0.010557145 0.013372369 0.73900008 1.4205334e-38
0.011980954 0.013390474 0.74000007 9.4948523e-39
0.013390477 0.013390459 0.74000007 4.7760077e-39
0.014840001 0.013426647 0.7420001 3.4027002e-39
0.016253332 0.013426661 0.74200004 2.038162e-39
0.017690478 0.013444744 0.74300009 7.7646859e-39
0.019105716 0.013444766 0.74300009 1.3462719e-38
0.02057619 0.013480946 0.74500012 8.2025524e-39
0.021995237 0.013480954 0.74500012 2.9528596e-39
0.023477145 0.013517156 0.7470001 3.596064e-39
0.024933334 0.013535231 0.74800003 4.2396005e-39
0.026428571 0.013571449 0.75000006 4.5172299e-39
0.027931431 0.013607629 0.75200009 4.7059512e-39
0.029363811 0.013607614 0.75200009 7.287775e-39
0.030960003 0.013679989 0.7560001 9.7716115e-39
0.032400001 0.013680004 0.7560001 9.4939246e-39
0.033929523 0.013716199 0.75800008 9.2169846e-39
0.03537333 0.013716191 0.75800002 9.3091802e-39
0.036914289 0.013752379 0.76000011 9.3095263e-39
-0.067580007 0.015259989 0.76300007 9.6697371e-39
-0.066126674 0.015260004 0.76300001 9.6769076e-39
-0.064673334 0.015259989 0.76300007 9.5839861e-39
-0.063220002 0.015259996 0.76300007 9.125875e-39
-0.061928574 0.015300006 0.7650001 8.5723383e-39
-0.060471434 0.015299991 0.7650001 8.4883823e-39
-0.059168577 0.015340015 0.76700008 8.3886448e-39
-0.057782866 0.015359998 0.76800007 7.8386983e-39
-0.056320008 0.015359998 0.76800007 7.1918967e-39
-0.05485715 0.015359983 0.76800013 7.005709e-39
-0.053533338 0.015399992 0.7700001 6.7291389e-39
-0.052066669 0.015399992 0.7700001 5.5281168e-39
-0.050468579 0.015359983 0.76800013 4.3345959e-39
-0.049005721 0.015360005 0.76800007 5.0703379e-39
-0.047480959 0.01534 0.76700002 5.8025289e-39
-0.045900002 0.015300006 0.7650001 3.3125855e-39
-0.04432667 0.015259989 0.76300007 8.3231804e-40
-0.042873338 0.015259989 0.76300007 1.3822632e-39
-0.041420002 0.015260004 0.76300007 1.9372335e-39
-0.039861906 0.015219994 0.7610001 2.306023e-39
-0.038361911 0.015199997 0.76000005 2.5822273e-39
-0.036817145 0.015160009 0.75800008 2.5822063e-39
-0.035280004 0.01512 0.7560001 2.579321e-39
-0.033795241 0.015100002 0.75500011 3.0316672e-39
-0.032228578 0.015039995 0.75200009 3.4199137e-39
-0.03071429 0.014999993 0.75000006 7.216837e-39
-0.029285718 0.015000001 0.75000012 1.0872605e-38
-0.027782859 0.014959991 0.74800003 5.5177332e-39
-0.02632286 0.014940001 0.7470001 9.6222962e-41
-0.024833336 0.014899999 0.74500012 8.3343067e-40
-0.02341429 0.014899984 0.74500012 1.4748414e-39
-0.021936193 0.014859997 0.74300009 1.3830045e-39
-0.020520955 0.014859989 0.74300009 1.2882865e-39
-0.019080002 0.014839984 0.7420001 7.3510996e-40
-0.017666668 0.014839999 0.74200004 1.0810457e-40
-0.016209524 0.014799975 0.74000007 8.0218003e-39
-0.014800001 0.014799982 0.74000007 1.5853007e-38
-0.013372382 0.014779992 0.73900008 1.7254655e-38
-0.011980954 0.01479999 0.74000007 1.8624623e-38
-0.010557144 0.01478 0.73900008 1.2732772e-38
-0.0091495244 0.01478 0.73900002 6.7368433e-39
-0.0077419057 0.01478 0.73900008 3.3984038e-39
-0.0063342866 0.01478 0.73900002 1.0128025e-40
-0.0049266675 0.014779985 0.73900008 1.8485229e-40
-0.0035190475 0.01478 0.73900002 2.7634026e-40
-0.0021057145 0.014740005 0.73700011 5.5185936e-40
-0.00070190482 0.01473999 0.73700011 8.2808892e-40
0.00070190482 0.014740005 0.73700011 7.3661776e-40
0.0021057148 0.01473999 0.73700011 5.5221109e-40
0.003519048 0.01478 0.73900002 3.6780441e-40
0.0049133333 0.01473999 0.73700011 9.2687486e-41
0.0063342857 0.01478 0.73900002 3.0310969e-39
0.0077209524 0.014739998 0.73700011 5.999665e-39
0.0091495253 0.014779992 0.73900008 1.0079229e-38
0.01057143 0.01479999 0.74000007 1.4096269e-38
0.011980954 0.01479999 0.74000007 7.0790614e-39
0.013390477 0.01479999 0.74000007 9.450497e-41
0.014840001 0.014840007 0.74200004 1.2861762e-39
0.016253334 0.014839992 0.7420001 2.4094444e-39
0.017690478 0.014859997 0.74300009 7.9623418e-39
0.019105716 0.014859997 0.74300009 1.3458417e-38
0.02057619 0.014900014 0.74500012 8.2011287e-39
0.022054287 0.014940009 0.7470001 2.956814e-39
0.023508573 0.014959998 0.74800003 3.5939172e-39
0.024933334 0.014959998 0.74800003 4.1470503e-39
0.026428573 0.015000001 0.75000012 4.4221658e-39
0.027857145 0.015000001 0.75000006 4.7063043e-39
0.029363811 0.015039995 0.75200009 7.2913525e-39
0.030960003 0.01512 0.7560001 9.8627225e-39
0.032485716 0.015160009 0.75800008 9.5850412e-39
0.034019046 0.015199989 0.76000011 9.2173419e-39
0.035466664 0.015199982 0.76000011 9.124433e-39
0.036962859 0.015219986 0.7610001 9.0332982e-39
-0.067580007 0.016713329 0.76300007 7.0114908e-39
-0.066126674 0.016713336 0.76300007 6.4543737e-39
-0.064673334 0.016713321 0.76300007 6.0045205e-39
-0.063220002 0.016713329 0.76300001 6.4529318e-39
-0.061928574 0.016757146 0.7650001 7.0071481e-39
-0.060471434 0.016757146 0.7650001 7.2786819e-39
-0.059168577 0.016800955 0.76700008 7.5570583e-39
-0.057782866 0.016822837 0.76800007 9.301574e-39
-0.056320008 0.01682286 0.76800007 1.1041426e-38
-0.055000003 0.016866662 0.7700001 1.215242e-38
-0.053533338 0.016866654 0.7700001 1.3339111e-38
-0.052066669 0.016866654 0.7700001 1.3625741e-38
-0.04432667 0.016713321 0.76300007 4.6390686e-40
-0.042873338 0.016713336 0.76300007 1.2918599e-39
-0.041420002 0.016713329 0.76300007 2.1212674e-39
-0.039966669 0.016713314 0.76300007 2.3985858e-39
-0.038412385 0.016669512 0.7610001 2.6744216e-39
-0.036914289 0.016647622 0.76000005 2.3981668e-39
-0.035373338 0.016603813 0.75800002 2.1226407e-39
-0.033840001 0.016560003 0.7560001 2.3034222e-39
-0.032228574 0.016472384 0.75200009 2.4936583e-39
-0.03071429 0.016428567 0.75000012 6.744385e-39
-0.029285718 0.016428575 0.75000006 1.0878707e-38
-0.027782861 0.016384766 0.74800003 5.5252736e-39
-0.026358098 0.016384751 0.74800003 9.4432102e-41
-0.024900002 0.016362868 0.7470001 8.3091814e-40
-0.02341429 0.016319051 0.74500012 1.4741338e-39
-0.021995241 0.016319036 0.74500012 1.1050065e-39
-0.020576194 0.016319044 0.74500012 7.3509875e-40
-0.019105718 0.016275227 0.74300015 3.6866943e-39
-0.017666668 0.016253322 0.7420001 6.6439035e-39
-0.016209524 0.016209505 0.74000007 1.1627232e-38
-0.014800001 0.016209498 0.74000007 1.6614319e-38
-0.013372382 0.016187608 0.73900008 1.4860823e-38
-0.011964763 0.016187623 0.73900002 1.3199831e-38
-0.010557144 0.016187616 0.73900008 8.2973306e-39
-0.0091495244 0.016187601 0.73900008 3.398422e-39
-0.0077419057 0.016187623 0.73900002 5.0686199e-39
-0.0063342866 0.016187608 0.73900008 6.7392297e-39
-0.0049266675 0.016187623 0.73900002 5.44061e-39
-0.0035190475 0.016187608 0.73900008 4.1330668e-39
-0.0021057145 0.016143799 0.73700011 2.296752e-39
-0.00070190482 0.016143799 0.73700005 4.6039801e-40
0.00070380949 0.016187608 0.73900002 3.6855831e-40
0.0021057145 0.016143806 0.73700005 3.6889462e-40
0.003519048 0.016187601 0.73900008 3.6815474e-40
0.0049266666 0.016187616 0.73900002 3.6783664e-40
0.0063342857 0.016187608 0.73900008 5.7219571e-39
0.0077209529 0.016143799 0.73700011 1.116294e-38
0.0091495253 0.016187608 0.73900008 1.0430855e-38
0.01057143 0.016209505 0.74000007 9.6849286e-39
0.011980954 0.01620952 0.74000007 4.9721391e-39
0.013426669 0.016253337 0.74200004 2.7669619e-40
0.014840002 0.016253322 0.7420001 9.199076e-40
0.016275236 0.016275227 0.74300009 1.6571784e-39
0.017690476 0.016275227 0.74300015 7.4855795e-39
0.019105714 0.016275235 0.74300009 1.3278334e-38
0.02057619 0.016319051 0.74500012 8.1128903e-39
0.022054287 0.016362853 0.7470001 2.9568224e-39
0.023508573 0.016384751 0.74800009 3.1394088e-39
0.025 0.016428582 0.75000006 3.3223273e-39
0.026428571 0.016428582 0.75000006 3.9644219e-39
0.027931431 0.016472377 0.75200009 4.7012765e-39
0.029363811 0.016472377 0.75200009 7.2877539e-39
0.030960003 0.016559996 0.75600004 9.8637931e-39
0.032485712 0.016603813 0.75800008 9.2180552e-39
0.034019049 0.016647615 0.76000005 8.5748508e-39
0.035513334 0.016669519 0.7610001 8.3890302e-39
0.036962859 0.016669512 0.7610001 8.2071347e-39
-0.06903334 0.018166661 0.76300001 5.8079155e-39
-0.067580007 0.018166676 0.76300007 4.2463491e-39
-0.066126674 0.018166661 0.76300007 3.3086198e-39
-0.064503811 0.018119037 0.76100016 2.3170947e-39
-0.063054293 0.018119045 0.7610001 3.8575042e-39
-0.061604764 0.01811903 0.7610001 5.3480178e-39
-0.060471434 0.018214285 0.7650001 5.9696828e-39
-0.059168573 0.018261909 0.76700008 6.6455347e-39
-0.057782862 0.018285699 0.76800007 1.0768806e-38
-0.056320004 0.018285707 0.76800007 1.4923295e-38
-0.055000007 0.018333323 0.7700001 1.7406808e-38
-0.053533342 0.018333331 0.7700001 1.9893918e-38
-0.042985719 0.018214278 0.7650001 1.1996348e-39
-0.041528575 0.018214285 0.7650001 2.3045474e-39
-0.039966669 0.018166676 0.76300007 2.5840182e-39
-0.038513336 0.018166669 0.76300007 2.7666004e-39
-0.036962859 0.018119045 0.7610001 2.2134238e-39
-0.035466671 0.018095233 0.76000005 1.5698368e-39
-0.033840001 0.018000014 0.7560001 1.5651523e-39
-0.032228574 0.017904751 0.75200009 1.5792452e-39
-0.03071429 0.017857142 0.75000006 6.29668e-39
-0.029285718 0.017857142 0.75000006 1.0873681e-38
-0.027782859 0.017809533 0.74800003 5.5177402e-39
-0.026358098 0.017809518 0.74800003 9.5492885e-41
-0.024900004 0.017785713 0.7470001 8.3016985e-40
-0.02341429 0.017738089 0.74500012 1.4719589e-39
-0.021995241 0.017738096 0.74500012 8.2733362e-40
-0.020576194 0.017738089 0.74500012 9.768872e-41
-0.019105716 0.017690465 0.74300009 6.6323765e-39
-0.017690478 0.017690472 0.74300015 1.3091819e-38
-0.016253335 0.01766666 0.7420001 1.5227818e-38
-0.014800002 0.017619029 0.74000007 1.7246734e-38
-0.013390478 0.017619029 0.74000007 1.246588e-38
-0.011980955 0.017619036 0.74000007 7.6566584e-39
-0.010557144 0.017595232 0.73900002 3.8576275e-39
-0.0091495244 0.017595239 0.73900008 1.0348869e-40
-0.0077419057 0.017595232 0.73900002 6.7389578e-39
-0.0063342866 0.017595239 0.73900008 1.3270057e-38
-0.0049266675 0.017595246 0.73900002 1.061402e-38
-0.0035238098 0.017619021 0.74000007 7.9242069e-39
-0.0021114284 0.017595232 0.73900008 4.0412509e-39
-0.00070380961 0.017595232 0.73900002 9.3042014e-41
0.00070380955 0.017595232 0.73900008 9.2325951e-41
0.0021114289 0.017595232 0.73900002 9.3395141e-41
0.003519048 0.017595239 0.73900008 3.6781702e-40
0.0049266666 0.017595239 0.73900002 5.7738401e-40
0.0063342857 0.017595224 0.73900002 8.4182655e-39
0.0077209529 0.01754763 0.73700005 1.6219621e-38
0.0091495253 0.017595232 0.73900002 1.0703754e-38
0.01057143 0.017619036 0.74000007 5.166289e-39
0.012013334 0.017666668 0.74200004 2.7555371e-39
0.013390477 0.017619036 0.74000007 3.6924495e-40
0.014840001 0.01766666 0.7420001 6.433137e-40
0.016275238 0.017690472 0.74300009 8.4462704e-40
0.017690478 0.017690465 0.74300009 7.0435861e-39
0.019105716 0.017690472 0.74300009 1.3088917e-38
0.020576192 0.017738089 0.74500012 8.0153375e-39
0.022054287 0.017785713 0.7470001 2.9589776e-39
0.023508573 0.01780951 0.74800009 2.684162e-39
0.025000002 0.017857142 0.75000012 2.4043157e-39
0.026428573 0.017857157 0.75000006 3.5037969e-39
0.027931431 0.017904758 0.75200009 4.6165904e-39
0.029363811 0.017904744 0.75200009 7.2023392e-39
0.030960001 0.017999999 0.7560001 9.7708464e-39
0.032485716 0.018047608 0.75800008 8.8481698e-39
0.034019046 0.018095218 0.76000011 7.8365459e-39
0.035606667 0.018166654 0.76300007 7.5578122e-39
0.037157144 0.018214285 0.7650001 7.2858832e-39
-0.070671432 0.019671425 0.7650001 1.3439981e-38
-0.069033347 0.019619994 0.76300007 1.3537848e-38
-0.067580014 0.019620001 0.76300007 1.3713625e-38
-0.066126682 0.019620001 0.76300007 1.3267002e-38
-0.064503811 0.019568563 0.7610001 1.2903274e-38
-0.063054293 0.01956857 0.7610001 1.3640496e-38
-0.061604768 0.01956857 0.7610001 1.4383778e-38
-0.042985715 0.019671433 0.7650001 1.0144966e-39
-0.041528571 0.019671418 0.7650001 1.8435441e-39
-0.040071428 0.01967144 0.7650001 2.3066844e-39
-0.038513336 0.019619994 0.76300007 2.6754683e-39
-0.036962863 0.01956857 0.7610001 2.3981738e-39
-0.035373338 0.019491442 0.75800008 2.0311695e-39
-0.033929531 0.019491427 0.75800008 1.7495422e-39
-0.032228578 0.019337133 0.75200009 1.4716226e-39
-0.03071429 0.019285709 0.75000006 6.2830398e-39
-0.029285718 0.019285724 0.75000012 1.1066316e-38
-0.027782859 0.019234277 0.74800009 5.6206964e-39
-0.02632286 0.01920858 0.7470001 9.2966344e-41
-0.024900004 0.019208565 0.7470001 4.6100197e-40
-0.02341429 0.019157149 0.74500012 8.2729438e-40
-0.021995241 0.019157134 0.74500012 2.6640295e-39
-0.020576194 0.019157149 0.74500012 4.5011879e-39
-0.019105716 0.019105718 0.74300009 9.7782299e-39
-0.017690478 0.019105703 0.74300009 1.5046252e-38
-0.016253335 0.019079991 0.7420001 1.4859746e-38
-0.014840001 0.019080006 0.7420001 1.4669213e-38
-0.013390477 0.019028559 0.74000007 9.3125742e-39
-0.011980954 0.019028567 0.74000007 3.9494784e-39
-0.01057143 0.019028567 0.74000007 2.5744095e-39
-0.0091495244 0.019002855 0.73900002 1.204821e-39
-0.0077523813 0.019028567 0.74000001 4.7121982e-39
-0.0063342866 0.019002855 0.73900002 8.2335589e-39
-0.004933334 0.019028552 0.74000007 9.9759643e-39
-0.0035238098 0.019028552 0.74000007 1.171463e-38
-0.0021114287 0.019002855 0.73900008 9.6733315e-39
-0.00070380961 0.01900287 0.73900002 7.716093e-39
0.00070476194 0.019028552 0.74000007 7.8219247e-39
0.0021142859 0.019028567 0.74000001 7.9930471e-39
0.003519048 0.019002855 0.73900002 8.1993252e-39
0.0049266666 0.019002847 0.73900008 8.3999505e-39
0.0063342857 0.019002855 0.73900002 1.0340787e-38
0.0077419048 0.019002847 0.73900008 1.2277859e-38
0.0091495253 0.019002862 0.73900002 7.4686083e-39
0.01057143 0.019028567 0.74000007 2.6637268e-39
0.011980955 0.019028567 0.74000001 1.6549503e-39
0.013390478 0.019028567 0.74000007 7.3981272e-40
0.014840001 0.019079998 0.7420001 1.0127969e-39
0.016275238 0.019105703 0.74300015 1.2894314e-39
0.017690478 0.01910571 0.74300009 8.1297928e-39
0.019157141 0.019157127 0.74500018 1.5018174e-38
0.020631429 0.019208573 0.7470001 9.0330824e-39
0.022083811 0.019234292 0.74800003 3.0468699e-39
0.023508573 0.019234277 0.74800003 3.2308548e-39
0.025 0.019285724 0.75000006 3.504534e-39
0.026428571 0.019285724 0.75000006 3.1407457e-39
0.027931431 0.01933714 0.75200009 2.7838013e-39
0.029363811 0.019337133 0.75200009 7.192617e-39
0.030960003 0.01944001 0.7560001 1.1700074e-38
0.032571431 0.019542843 0.76000005 1.2068477e-38
0.03433238 0.019722857 0.76700008 1.2426133e-38
0.035840001 0.019748561 0.76800007 1.2802085e-38
0.037302859 0.019748561 0.76800007 1.3076874e-38
0.038765717 0.019748554 0.76800007 1.2987549e-38
-0.072128579 0.02112858 0.7650001 1.3369755e-38
-0.070486672 0.021073334 0.76300007 1.9530267e-38
-0.06903334 0.021073319 0.76300007 2.1373794e-38
-0.067757145 0.02112858 0.7650001 2.3120831e-38
-0.066126674 0.021073326 0.76300007 2.3325678e-38
-0.064503819 0.021018088 0.7610001 2.3406405e-38
-0.063054301 0.021018103 0.7610001 2.341754e-38
-0.061604764 0.021018088 0.7610001 2.3409282e-38
-0.041528575 0.021128565 0.7650001 1.3847309e-39
-0.040071432 0.02112858 0.7650001 2.0311793e-39
-0.038513336 0.021073334 0.76300007 2.5814804e-39
-0.036914293 0.020990483 0.76000005 2.5807686e-39
-0.035466671 0.020990469 0.76000011 2.487117e-39
-0.033840001 0.020879984 0.7560001 1.9296244e-39
-0.03227143 0.020797133 0.75300008 1.3934232e-39
-0.030796194 0.020769522 0.75200009 6.3892344e-39
-0.029285718 0.020714298 0.75000006 1.1244254e-38
-0.027857147 0.020714283 0.75000006 5.7143312e-39
-0.026428575 0.020714298 0.75000006 9.8006815e-41
-0.024933336 0.020659052 0.74800003 9.3333484e-41
-0.023477145 0.020631433 0.7470001 9.2641243e-41
-0.021995241 0.020576186 0.74500018 4.5004101e-39
-0.020576194 0.020576186 0.74500012 8.9408896e-39
-0.019157145 0.020576186 0.74500012 1.2932595e-38
-0.017690478 0.020520955 0.74300009 1.6882243e-38
-0.016253335 0.020493321 0.74200004 1.4495243e-38
-0.014840001 0.020493321 0.7420001 1.2075503e-38
-0.013390477 0.02043809 0.74000007 6.1656558e-39
-0.011980954 0.020438083 0.74000007 1.8738864e-40
-0.01057143 0.020438075 0.74000001 1.1943589e-39
-0.0091495244 0.020410478 0.73900002 2.2103087e-39
-0.0077523813 0.020438083 0.74000001 2.6709407e-39
-0.0063342862 0.020410478 0.73900002 3.1610168e-39
-0.004933334 0.020438068 0.74000007 9.3413078e-39
-0.0035238098 0.020438083 0.74000007 1.539668e-38
-0.0021114287 0.020410463 0.73900002 1.5405619e-38
-0.00070380961 0.020410478 0.73900008 1.5294057e-38
0.00070476194 0.020438083 0.74000007 1.567037e-38
0.0021114289 0.020410478 0.73900008 1.5935472e-38
0.003519048 0.020410478 0.73900002 1.6128826e-38
0.0049266671 0.020410478 0.73900008 1.6218535e-38
0.0063342862 0.020410463 0.73900008 1.2266403e-38
0.0077419053 0.020410463 0.73900002 8.2036889e-39
0.0091495253 0.020410471 0.73900008 4.1377471e-39
0.01057143 0.020438083 0.74000007 9.3739861e-41
0.012013335 0.020493321 0.7420001 5.5254179e-40
0.013426669 0.020493329 0.7420001 1.0120752e-39
0.014840002 0.020493321 0.7420001 1.3779809e-39
0.016275238 0.02052094 0.74300009 1.6750912e-39
0.017690478 0.02052094 0.74300015 9.3513285e-39
0.019157141 0.020576194 0.74500012 1.6865305e-38
0.020631431 0.020631433 0.7470001 9.9593169e-39
0.02208381 0.020659052 0.74800003 3.0486593e-39
0.023508571 0.020659052 0.74800003 3.7800797e-39
0.025000002 0.02071429 0.75000006 4.5154461e-39
0.026428573 0.02071429 0.75000012 2.6787011e-39
0.027931431 0.020769522 0.75200009 8.4090099e-40
0.029363811 0.020769522 0.75200009 7.1764586e-39
0.030960003 0.020880006 0.7560001 1.3546121e-38
0.032700006 0.021073326 0.76300007 1.5299256e-38
0.034332383 0.021183796 0.76700008 1.7045594e-38
0.035793334 0.021183811 0.76700008 1.7963618e-38
0.037254289 0.021183819 0.76700002 1.8888427e-38
0.038765714 0.021211416 0.76800007 1.9166443e-38
-0.072128579 0.022585727 0.7650001 1.8351131e-38
-0.070486672 0.022526659 0.76300007 2.1489032e-38
-0.06903334 0.022526667 0.76300007 2.2401715e-38
-0.067757145 0.022585727 0.76500005 2.3325832e-38
-0.066126674 0.022526652 0.76300007 2.3325854e-38
-0.064673334 0.022526667 0.76300007 2.341769e-38
-0.063054293 0.022467613 0.7610001 2.341769e-38
-0.039966669 0.022526667 0.76300007 2.3963689e-39
-0.038614288 0.02258572 0.7650001 3.0388643e-39
-0.036962863 0.022467613 0.7610001 2.7640808e-39
-0.035513338 0.022467606 0.76100016 2.5807462e-39
-0.033840001 0.022320002 0.7560001 1.7495393e-39
-0.03227143 0.022231422 0.75300008 1.0171171e-39
-0.030796193 0.022201903 0.75200009 5.8235218e-39
-0.029363811 0.022201896 0.75200015 1.0694326e-38
-0.027857147 0.022142865 0.75000012 5.4395478e-39
-0.026428575 0.022142865 0.75000006 1.8519841e-40
-0.024933334 0.022083811 0.74800003 1.8484248e-40
-0.023477146 0.022054292 0.7470001 9.2313339e-41
-0.022054289 0.022054292 0.7470001 5.0647257e-39
-0.020576194 0.021995232 0.74500012 1.0155946e-38
-0.019157145 0.021995232 0.74500012 1.3482202e-38
-0.01769048 0.021936186 0.74300015 1.6788972e-38
-0.01627524 0.021936178 0.74300009 1.1626786e-38
-0.014860001 0.021936186 0.74300015 6.543415e-39
-0.013426668 0.021906666 0.7420001 3.49872e-39
-0.012013334 0.021906666 0.74200004 4.5960348e-40
-0.010600001 0.021906666 0.7420001 1.2890559e-39
-0.0091619054 0.021847613 0.74000007 2.1173578e-39
-0.0077523817 0.021847598 0.74000007 2.0298159e-39
-0.0063428581 0.021847598 0.74000007 2.0402723e-39
-0.004933334 0.021847598 0.74000007 4.9022927e-39
-0.0035333338 0.021906659 0.7420001 7.7675403e-39
-0.0021142859 0.021847606 0.74000007 9.6021483e-39
-0.00070476194 0.021847598 0.74000001 1.1363167e-38
0.00070476194 0.021847606 0.74000007 1.3842368e-38
0.0021142859 0.021847613 0.74000001 1.6326579e-38
0.0035238098 0.021847613 0.74000007 1.4207535e-38
0.0049333335 0.021847598 0.74000007 1.2099579e-38
0.0063428576 0.021847613 0.74000007 8.1129408e-39
0.0077523813 0.021847606 0.74000007 4.1331074e-39
0.0091866674 0.021906666 0.7420001 2.1144641e-39
0.010600001 0.021906652 0.7420001 9.2635638e-41
0.012013334 0.021906666 0.7420001 2.1130039e-39
0.013444763 0.021936178 0.74300009 4.2248686e-39
0.014860001 0.021936186 0.74300009 3.2182711e-39
0.01631905 0.021995246 0.74500012 2.3039715e-39
0.017738096 0.021995232 0.74500012 9.5178308e-39
0.019208573 0.022054292 0.7470001 1.6784969e-38
0.020631431 0.022054277 0.7470001 1.005114e-38
0.022083811 0.022083804 0.74800009 3.3065851e-39
0.023571428 0.022142872 0.75000006 4.1409687e-39
0.025 0.022142857 0.75000012 5.0675395e-39
0.02649905 0.022201896 0.75200009 3.222901e-39
0.027931431 0.022201903 0.75200009 1.3779164e-39
0.029480953 0.022290468 0.75500011 9.6825478e-39
0.031041907 0.022379056 0.75800002 1.8080508e-38
0.032614287 0.022467628 0.7610001 1.9178982e-38
0.034153335 0.022526652 0.76300007 2.0289674e-38
0.035700005 0.022585712 0.76500005 2.0744244e-38
0.037254289 0.022644766 0.76700008 2.1213462e-38
0.03871524 0.022644766 0.76700008 2.1298834e-38
0.040176194 0.022644766 0.76700002 2.1397133e-38
-0.073585719 0.024042852 0.7650001 2.3306671e-38
-0.072128579 0.024042845 0.7650001 2.34176e-38
-0.070671432 0.02404286 0.7650001 2.3417634e-38
-0.06903334 0.023979999 0.76300007 2.3417668e-38
-0.067580007 0.023979992 0.76300007 2.3417677e-38
-0.066126674 0.023979992 0.76300007 2.3417687e-38
-0.064673334 0.023979992 0.76300007 2.3417686e-38
-0.039966669 0.023979992 0.76300007 2.7626445e-39
-0.038614284 0.024042845 0.7650001 3.4984131e-39
-0.036962859 0.023917139 0.7610001 3.0396027e-39
-0.035513334 0.023917139 0.7610001 2.5786148e-39
-0.033929527 0.023822866 0.75800008 1.6541446e-39
-0.032357141 0.023728557 0.75500011 6.5946087e-40
-0.030837147 0.023665711 0.75300002 5.3768719e-39
-0.029363811 0.023634277 0.75200009 1.004931e-38
-0.027931431 0.023634277 0.75200009 5.1644e-39
-0.026428575 0.023571424 0.75000006 2.8204495e-40
-0.025000004 0.023571439 0.75000006 1.8518159e-40
-0.023508575 0.023508571 0.74800003 9.2679078e-41
-0.022083813 0.023508579 0.74800003 5.6943375e-39
-0.020631431 0.023477137 0.7470001 1.1256562e-38
-0.019157145 0.023414284 0.74500012 1.4050448e-38
-0.017738098 0.023414284 0.74500012 1.6691752e-38
-0.01627524 0.023351431 0.74300009 8.8627335e-39
-0.01486 0.023351431 0.74300009 9.3608139e-40
-0.013426668 0.023319982 0.7420001 8.2692724e-40
-0.012013334 0.023319997 0.7420001 7.3800224e-40
-0.010600001 0.023319989 0.7420001 1.3844801e-39
-0.0091619054 0.023257129 0.74000007 1.9347672e-39
-0.0077523817 0.023257114 0.74000007 1.3826696e-39
-0.0063428581 0.023257129 0.74000007 8.3417756e-40
-0.004933334 0.023257129 0.74000007 4.603882e-40
-0.0035238096 0.023257129 0.74000007 1.0920459e-40
-0.0021114287 0.02322571 0.73900008 3.77977e-39
-0.00070476194 0.023257129 0.74000001 7.3890468e-39
0.00070476194 0.023257129 0.74000007 1.2101068e-38
0.0021142862 0.023257129 0.74000007 1.6689957e-38
0.0035238101 0.023257129 0.74000007 1.227538e-38
0.004933333 0.023257129 0.74000007 7.8396021e-39
0.0063600005 0.023319997 0.74200004 3.9526846e-39
0.0077733337 0.023319997 0.7420001 9.5202816e-41
0.0091866674 0.023319982 0.7420001 9.3737058e-41
0.010600001 0.023319989 0.7420001 9.3028001e-41
0.012013334 0.023319997 0.7420001 3.7657388e-39
0.013444764 0.023351431 0.74300009 7.3638318e-39
0.014860002 0.023351431 0.74300009 5.1504599e-39
0.016319048 0.023414284 0.74500012 2.9719551e-39
0.017738095 0.023414291 0.74500018 9.8141353e-39
0.019208573 0.023477152 0.7470001 1.6597349e-38
0.020631431 0.023477137 0.7470001 1.0153023e-38
0.022083811 0.023508564 0.74800009 3.595006e-39
0.023571428 0.023571432 0.75000012 4.5933302e-39
0.025 0.023571432 0.75000006 5.5184647e-39
0.02649905 0.023634285 0.75200009 3.6752626e-39
0.027968572 0.023665719 0.75300002 1.8561529e-39
0.029480955 0.023728564 0.75500005 1.2187669e-38
0.031041907 0.023822859 0.75800002 2.2489082e-38
0.032614287 0.023917139 0.76100016 2.2954052e-38
0.034153335 0.023979977 0.76300007 2.341505e-38
0.035793331 0.02410572 0.76700008 2.3417589e-38
0.037302859 0.024137132 0.76800007 2.3416503e-38
0.038765717 0.024137132 0.76800013 2.3417571e-38
-0.076500006 0.0255 0.7650001 1.9290373e-39
-0.075042859 0.025500014 0.76500005 1.2633687e-38
-0.073585719 0.0255 0.7650001 2.3417616e-38
-0.072128579 0.0255 0.7650001 2.341769e-38
-0.070486672 0.025433317 0.76300007 2.341769e-38
-0.06903334 0.025433324 0.76300007 2.341769e-38
-0.067580007 0.025433332 0.76300007 2.3417687e-38
-0.066126674 0.025433324 0.76300007 2.3417684e-38
-0.064673334 0.025433324 0.76300007 2.3417683e-38
-0.036962863 0.025366656 0.7610001 2.5804407e-39
-0.035513338 0.025366656 0.7610001 2.2130889e-39
-0.033929531 0.02526667 0.75800008 1.2914941e-39
-0.032357145 0.025166661 0.75500005 4.6682156e-40
-0.030837145 0.0251 0.75300002 5.2703003e-39
-0.029363813 0.025066659 0.75200009 1.0145077e-38
-0.027931433 0.025066659 0.75200015 5.3516569e-39
-0.026499052 0.025066659 0.75200009 5.5216064e-40
-0.025000002 0.024999999 0.75000006 3.681141e-40
-0.023508573 0.024933331 0.74800003 9.2328753e-41
-0.022083811 0.024933331 0.74800009 6.5424173e-39
-0.020631433 0.024900004 0.7470001 1.3013658e-38
-0.019157145 0.024833336 0.74500012 1.4403095e-38
-0.017738098 0.024833322 0.74500012 1.5860207e-38
-0.016275238 0.024766661 0.74300009 8.2015687e-39
-0.014860001 0.024766669 0.74300009 5.5153286e-40
-0.013426669 0.02473332 0.7420001 8.2840701e-40
-0.012013335 0.02473332 0.7420001 1.1989972e-39
-0.010600002 0.02473332 0.7420001 1.4755981e-39
-0.0091619054 0.02466666 0.74000007 1.843652e-39
-0.0077523817 0.024666645 0.74000007 1.4752282e-39
-0.0063428581 0.02466666 0.74000007 1.1986133e-39
-0.004933334 0.024666645 0.74000007 6.4577298e-40
-0.0035238098 0.02466666 0.74000007 9.222786e-41
-0.0021114287 0.024633333 0.73900002 4.4156498e-39
-0.000704762 0.02466666 0.74000001 8.8317859e-39
0.00070476189 0.024666652 0.74000007 1.2088499e-38
0.0021142859 0.024666645 0.74000007 1.5311688e-38
0.0035238098 0.02466666 0.74000007 9.6752638e-39
0.004933333 0.024666645 0.74000007 3.9494784e-39
0.0063428571 0.02466666 0.74000007 2.5743983e-39
0.0077733337 0.024733327 0.7420001 1.2004462e-39
0.0091866674 0.024733342 0.7420001 6.4655491e-40
0.010600001 0.024733327 0.7420001 9.3061632e-41
0.012013334 0.024733327 0.74200004 3.6022115e-39
0.013444763 0.024766661 0.74300009 7.2218299e-39
0.014860001 0.024766669 0.74300009 7.4761781e-39
0.016319048 0.024833322 0.74500012 7.8428475e-39
0.017738095 0.024833336 0.74500012 1.16329e-38
0.019208573 0.024899997 0.7470001 1.5494244e-38
0.020631431 0.024900012 0.7470001 9.4072193e-39
0.022083811 0.024933331 0.74800003 3.398422e-39
0.02357143 0.025000013 0.75000006 3.9537104e-39
0.025066668 0.025066651 0.75200009 4.6054907e-39
0.026534287 0.025100008 0.75300002 3.4044182e-39
0.027968572 0.025099993 0.75300002 2.3053308e-39
0.029480955 0.025166653 0.75500011 1.2273138e-38
0.031041907 0.025266655 0.75800008 2.2223729e-38
0.032614287 0.025366656 0.7610001 2.2864138e-38
0.034063812 0.025366671 0.7610001 2.3417661e-38
0.035700001 0.0255 0.7650001 2.3231477e-38
0.037254289 0.025566675 0.76700002 2.3046e-38
0.038765714 0.025599994 0.76800007 2.3138899e-38
-0.076500006 0.026957147 0.7650001 3.7015481e-39
-0.075042859 0.026957132 0.7650001 1.3577528e-38
-0.073585719 0.026957147 0.7650001 2.3414393e-38
-0.072317146 0.027027614 0.76700008 2.3417686e-38
-0.070671432 0.026957132 0.7650001 2.3417687e-38
-0.069214292 0.026957147 0.7650001 2.341769e-38
-0.067757145 0.026957147 0.7650001 2.3417689e-38
-0.066126674 0.026886664 0.76300007 2.3417686e-38
-0.064673334 0.026886664 0.76300007 2.3417683e-38
-0.038412385 0.026816189 0.76100016 2.5815029e-39
-0.036914289 0.026780948 0.76000011 2.2134574e-39
-0.035466667 0.026780948 0.76000005 1.7539142e-39
-0.033929527 0.026710466 0.75800008 1.015996e-39
-0.032357145 0.026604764 0.75500011 2.8959795e-40
-0.030837145 0.026534282 0.75300002 5.2756547e-39
-0.029363811 0.02649904 0.75200009 1.0142196e-38
-0.027931431 0.02649904 0.75200009 5.545378e-39
-0.02649905 0.02649904 0.75200009 8.3843751e-40
-0.025000004 0.02642858 0.75000012 4.5960488e-40
-0.023508575 0.026358098 0.74800003 9.7733561e-41
-0.022083813 0.026358098 0.74800009 7.3693277e-39
-0.020631433 0.026322864 0.7470001 1.4664202e-38
-0.019157145 0.026252374 0.74500012 1.4871242e-38
-0.017738098 0.026252382 0.74500012 1.4923876e-38
-0.016275238 0.026181899 0.74300009 7.5310194e-39
-0.01486 0.026181899 0.74300015 9.2316142e-41
-0.013444762 0.026181899 0.74300009 8.2733222e-40
-0.012013334 0.026146658 0.7420001 1.5652728e-39
-0.010600001 0.026146665 0.7420001 1.6582111e-39
-0.0091619054 0.026076175 0.74000007 1.6592775e-39
-0.0077523817 0.026076175 0.74000007 1.659625e-39
-0.0063428581 0.026076175 0.74000007 1.5674098e-39
-0.004933334 0.026076175 0.74000007 8.316286e-40
-0.0035238096 0.026076175 0.74000001 9.3385332e-41
-0.0021114287 0.026040949 0.73900002 5.1432894e-39
-0.000704762 0.026076175 0.74000001 1.0235946e-38
0.00070476189 0.026076168 0.74000007 1.2109696e-38
0.0021142862 0.026076175 0.74000007 1.3915117e-38
0.0035238101 0.026076175 0.74000007 6.9800232e-39
0.0049466672 0.026146673 0.7420001 9.2345569e-41
0.0063600009 0.026146658 0.7420001 1.1943561e-39
0.0077733342 0.026146658 0.7420001 2.2081185e-39
0.0091866674 0.026146658 0.7420001 1.1989874e-39
0.010600001 0.026146658 0.74200004 9.9171294e-41
0.012029526 0.026181899 0.74300015 3.5122089e-39
0.013444764 0.026181906 0.74300009 6.9298609e-39
0.014860002 0.026181899 0.74300009 9.8732701e-39
0.01631905 0.026252374 0.74500012 1.2727384e-38
0.017785713 0.026322857 0.7470001 1.3563988e-38
0.019208571 0.026322857 0.7470001 1.4294653e-38
0.020631429 0.026322864 0.7470001 8.7661547e-39
0.022083811 0.026358098 0.74800003 3.1340334e-39
0.023571428 0.026428573 0.75000006 3.4012681e-39
0.025066668 0.026499033 0.75200009 3.5895704e-39
0.02649905 0.02649904 0.75200009 3.2146642e-39
0.027968572 0.026534274 0.75300002 2.779603e-39
0.029519999 0.026640005 0.7560001 1.2375417e-38
0.031123811 0.026780948 0.76000005 2.1941421e-38
0.032614287 0.026816182 0.7610001 2.2677226e-38
0.034063812 0.026816189 0.7610001 2.3414778e-38
0.035700005 0.026957147 0.7650001 2.3044565e-38
0.037254289 0.027027614 0.76700008 2.2585023e-38
0.03871524 0.027027622 0.76700008 2.2860884e-38
-0.076700002 0.028488569 0.76700008 8.2987179e-39
-0.075239055 0.028488576 0.76700002 1.5869126e-38
-0.0737781 0.028488562 0.76700008 2.3417627e-38
-0.072317146 0.028488569 0.76700008 2.341768e-38
-0.070671432 0.028414279 0.7650001 2.3417686e-38
-0.069214292 0.028414294 0.7650001 2.341769e-38
-0.067757145 0.028414287 0.7650001 2.3417689e-38
-0.066126674 0.028340004 0.76300007 2.3417687e-38
-0.064673334 0.028339989 0.76300007 2.3417684e-38
-0.038412385 0.0282657 0.7610001 2.4914596e-39
-0.036914289 0.028228574 0.76000011 2.2156084e-39
-0.035466667 0.028228559 0.76000011 1.8489825e-39
-0.033929531 0.028154284 0.75800008 1.1089161e-39
-0.032400001 0.028080001 0.7560001 2.7739264e-40
-0.030919051 0.028042845 0.75500011 5.0783253e-39
-0.029402861 0.027968563 0.75300008 9.8684735e-39
-0.027931431 0.027931422 0.75200009 5.6321955e-39
-0.02649905 0.027931415 0.75200009 1.4798609e-39
-0.025000004 0.027857155 0.75000006 7.3763651e-40
-0.023571432 0.02785714 0.75000006 9.2374996e-41
-0.022083811 0.027782857 0.74800003 8.1216218e-39
-0.020631431 0.027745716 0.7470001 1.6147936e-38
-0.019157145 0.027671434 0.74500012 1.4118622e-38
-0.017690478 0.027597137 0.74300009 1.2065099e-38
-0.016275238 0.027597144 0.74300009 6.0701811e-39
-0.014860001 0.027597137 0.74300009 9.2278306e-41
-0.013444763 0.027597137 0.74300015 8.2912728e-40
-0.012013334 0.027559981 0.7420001 1.5663588e-39
-0.010600001 0.027559996 0.74200004 1.6585881e-39
-0.0091619054 0.027485706 0.74000007 1.7507669e-39
-0.0077523813 0.027485691 0.74000007 1.4759624e-39
-0.0063428581 0.027485706 0.74000007 1.2015223e-39
-0.0049333335 0.027485691 0.74000007 6.4619477e-40
-0.0035238098 0.027485706 0.74000001 9.2389009e-41
-0.0021114287 0.027448572 0.73900008 6.2633809e-39
-0.00070380961 0.027448572 0.73900002 1.247057e-38
0.00070476189 0.027485698 0.74000007 1.2927278e-38
0.0021114287 0.027448572 0.73900002 1.3361567e-38
0.0035190478 0.027448565 0.73900008 6.7155533e-39
0.0049333335 0.027485691 0.74000007 9.2304931e-41
0.0063600005 0.027559988 0.7420001 6.4477946e-40
0.0077733337 0.027559996 0.7420001 1.197921e-39
0.0091866674 0.027560003 0.74200004 8.2911887e-40
0.010614287 0.027597137 0.74300009 5.5154407e-40
0.012029526 0.027597137 0.74300009 6.5507102e-39
0.013444764 0.027597144 0.74300009 1.2621909e-38
0.014900002 0.027671427 0.74500012 1.4197471e-38
0.016362859 0.027745731 0.7470001 1.5772699e-38
0.017785715 0.027745716 0.7470001 1.6695392e-38
0.019208573 0.027745701 0.7470001 1.7608991e-38
0.020659048 0.027782857 0.74800009 1.0878361e-38
0.022083811 0.027782857 0.74800003 4.225296e-39
0.02357143 0.027857147 0.75000006 3.4027072e-39
0.025066668 0.027931429 0.75200009 2.6773236e-39
0.02649905 0.027931422 0.75200009 2.1216205e-39
0.028042857 0.028042853 0.75500005 1.5803886e-39
0.029598096 0.028154299 0.75800008 1.2092059e-38
0.031123811 0.028228551 0.76000011 2.2682935e-38
0.032614287 0.028265707 0.7610001 2.304886e-38
0.034063812 0.028265722 0.7610001 2.3417635e-38
0.035606667 0.028339997 0.76300007 2.3230374e-38
0.037157144 0.028414294 0.7650001 2.3042044e-38
0.038715236 0.028488576 0.76700002 2.3137111e-38
