# .PCD v0.7 - Point Cloud Data file format
VERSION 0.7
FIELDS x y z rgb
SIZE 4 4 4 4
TYPE F F F F
COUNT 1 1 1 1
WIDTH 981
HEIGHT 1
VIEWPOINT 0 0 0 1 0 0 0
POINTS 981
DATA ascii
0.029012376 0.033258103 0.74300003 8.2036931e-39
0.030427609 0.033258103 0.74300003 1.8527688e-40
0.031842835 0.033258103 0.74299997 5.8076605e-39
0.033347595 0.033347629 0.745 1.1447029e-38
0.034859985 0.03343714 0.74699998 1.4672845e-38
0.0363314 0.033481926 0.74799997 1.7980709e-38
0.037857134 0.033571444 0.75 1.7429688e-38
0.039285712 0.033571437 0.75000006 1.6970866e-38
0.040822845 0.033660963 0.75199997 1.6691411e-38
0.042423788 0.033795245 0.755 1.6508107e-38
0.043861881 0.03379526 0.755 1.6230816e-38
-0.033840045 0.035279989 0.75599998 1.751333e-39
-0.03227146 0.035139993 0.75300002 2.8562611e-39
-0.0307962 0.035093337 0.75200003 2.4893114e-39
-0.029363818 0.035093337 0.75200003 2.0294403e-39
-0.027857166 0.035000011 0.75 1.3851807e-39
-0.026358129 0.03490667 0.74800003 7.4089873e-40
-0.024900012 0.03486 0.74699998 7.3910647e-40
-0.023477159 0.03486 0.74700004 7.3911488e-40
-0.0220543 0.034860015 0.74699998 4.6002947e-40
-0.016833358 0.032993332 0.70699996 1.1001875e-40
-0.015420978 0.032853343 0.704 9.2438054e-41
-0.014060003 0.032806665 0.70300001 9.9542638e-41
-0.012720959 0.032806665 0.70300001 9.2299326e-41
-0.011381905 0.032806657 0.70300001 9.4774019e-41
-0.010042883 0.032806672 0.70299995 1.8693181e-40
-0.00867905 0.032713331 0.70100003 2.7913305e-40
-0.0073333592 0.032666676 0.69999999 6.482757e-40
-0.0060085864 0.032713339 0.70100003 9.2272421e-40
-0.004653363 0.032573342 0.69799995 1.2890082e-39
-0.0033381064 0.032713331 0.70100003 1.6595942e-39
-0.002002873 0.032713339 0.70100003 2.212775e-39
-0.00069620513 0.034113333 0.73099995 2.6751895e-39
0.00069617986 0.034113333 0.73099995 3.6911281e-39
0.0020885444 0.034113348 0.73099995 4.6066047e-39
0.0034809294 0.034113348 0.73099995 3.1322047e-39
0.0048733125 0.03411334 0.73099995 1.6578146e-39
0.0062656975 0.034113348 0.73099995 1.1039303e-39
0.0076580825 0.03411334 0.73099995 5.52546e-40
0.0090504671 0.034113333 0.73100001 4.6033916e-40
0.010442832 0.034113348 0.73099995 2.7773035e-40
0.011835217 0.03411334 0.73099995 9.2020608e-40
0.013245703 0.034160003 0.73199999 1.5659412e-39
0.014639993 0.034159988 0.73200005 1.1092917e-39
0.016078088 0.034253329 0.73400003 6.4867507e-40
0.017523799 0.034346677 0.736 3.6778339e-40
0.018925723 0.034346662 0.73600006 1.0526134e-40
0.020327609 0.03434667 0.73600006 6.113023e-39
0.021729531 0.03434667 0.73600006 1.1975392e-38
0.023162838 0.03439334 0.73699999 6.0616514e-39
0.024566643 0.03439334 0.73699999 1.1318848e-40
0.026040928 0.034486681 0.73899996 8.334657e-39
0.027559988 0.034626663 0.74200004 1.6496167e-38
0.029012354 0.034673341 0.74299997 8.2901518e-39
0.030509509 0.034766674 0.745 1.0278804e-40
0.031928569 0.034766659 0.745 5.8945101e-39
0.033347603 0.034766667 0.745 1.1715368e-38
0.034859981 0.034859993 0.74699998 1.4584936e-38
0.036331411 0.034906663 0.74800003 1.7429321e-38
0.037857138 0.035000011 0.75 1.6877586e-38
0.039390463 0.035093337 0.75199997 1.6323705e-38
0.040822845 0.035093337 0.75199997 1.5952775e-38
0.042479977 0.035280004 0.75599998 1.5494315e-38
0.044152379 0.035466664 0.76000005 1.4850033e-38
-0.033840012 0.03672 0.75600004 1.7534854e-39
-0.032400012 0.036719993 0.75600004 2.5821951e-39
-0.03083716 0.036574289 0.75300002 2.3989193e-39
-0.029402874 0.036574289 0.75300002 2.2149134e-39
-0.027931441 0.036525719 0.75199997 1.3855479e-39
-0.026499059 0.036525711 0.75199997 5.5687741e-40
-0.02500001 0.036428578 0.75000006 7.41626e-40
-0.023571439 0.036428586 0.75000006 9.274564e-40
-0.022142865 0.036428586 0.75 8.3132312e-40
-0.020714274 0.036428578 0.75000006 7.3554297e-40
-0.016833356 0.034339994 0.70700002 1.1943561e-39
-0.015442871 0.034242861 0.70500004 1.3812501e-39
-0.014080012 0.034194291 0.70400006 1.472001e-39
-0.012720966 0.034145713 0.70300001 1.0149675e-39
-0.011381908 0.034145713 0.70300001 6.4975267e-40
-0.010042868 0.03414572 0.70300001 4.6354393e-40
-0.0086790724 0.034048572 0.70099998 3.7063363e-40
-0.0073438254 0.03404858 0.70099998 6.4685759e-40
-0.006008592 0.03404858 0.70099998 9.2273542e-40
-0.004673338 0.034048572 0.70100003 1.1071351e-39
-0.0033381064 0.03404858 0.70100003 1.2929739e-39
-0.0020914418 0.035554275 0.73199999 1.8450785e-39
-0.00069715321 0.035554297 0.73200005 2.3989781e-39
0.00069904834 0.035651416 0.73400003 3.1379837e-39
0.0020971256 0.03565143 0.73399997 3.8708544e-39
0.003485709 0.035554282 0.73199999 2.7637866e-39
0.0048733125 0.035505712 0.73099995 1.6570985e-39
0.0062656975 0.035505727 0.73099995 1.104652e-39
0.0076580807 0.035505719 0.73099995 5.5291314e-40
0.0090504652 0.035505712 0.73100001 5.5326206e-40
0.01044283 0.035505734 0.73099995 4.6285729e-40
0.011883793 0.03565143 0.73399997 9.223893e-40
0.013281893 0.03565143 0.73400003 1.4755645e-39
0.014680005 0.035651423 0.73400003 1.2004265e-39
0.016121909 0.035748571 0.73600006 9.2598924e-40
0.01752381 0.035748571 0.73600006 4.6142376e-40
0.018925697 0.035748571 0.736 9.271411e-41
0.02032762 0.035748556 0.73600006 6.0075613e-39
0.021729518 0.035748579 0.736 1.189325e-38
0.023131425 0.035748564 0.73600006 5.9816653e-39
0.024566658 0.035797156 0.73699999 9.3445588e-41
0.026076175 0.035942867 0.73999995 8.1322941e-39
0.027560001 0.036039993 0.74200004 1.6233558e-38
0.029012367 0.036088586 0.74299997 8.1104296e-39
0.030427597 0.036088571 0.74299997 9.2405825e-41
0.031928539 0.036185712 0.745 6.0857509e-39
0.03334761 0.036185727 0.745 1.2087382e-38
0.034859981 0.036282875 0.74699998 1.4854323e-38
0.0363314 0.03633143 0.74800003 1.7702658e-38
0.037857141 0.036428563 0.75000006 1.7334957e-38
0.039390475 0.036525719 0.75199997 1.6963315e-38
0.040877122 0.036574274 0.75300002 1.6505935e-38
0.042592343 0.036817141 0.75799996 1.6135716e-38
0.044152379 0.036914274 0.76000005 1.5584336e-38
0.045599982 0.036914296 0.75999999 1.5031549e-38
-0.033929557 0.038260948 0.75799996 1.6623898e-39
-0.032400031 0.038160004 0.75599998 2.2145014e-39
-0.030837175 0.038008578 0.75300002 2.3085117e-39
-0.029402867 0.038008567 0.75300002 2.3985774e-39
-0.027931444 0.037958089 0.75200003 1.3855423e-39
-0.026499063 0.037958097 0.75199997 2.8280305e-40
-0.025000013 0.03785716 0.75 7.4234347e-40
-0.02357142 0.037857149 0.75000006 1.1093351e-39
-0.022142876 0.037857145 0.75000006 1.2022538e-39
-0.020714303 0.037857145 0.75 1.2915838e-39
-0.019285711 0.037857153 0.75000006 1.8454708e-39
-0.016785733 0.035585716 0.70500004 2.3025001e-39
-0.015420974 0.035535231 0.704 2.5819583e-39
-0.014080013 0.035535246 0.704 2.8545599e-39
-0.012720956 0.035484761 0.70300001 2.029799e-39
-0.011381914 0.035484761 0.70300001 1.1081987e-39
-0.010042858 0.035484754 0.70300001 8.2980691e-40
-0.0086790575 0.035383806 0.70100003 4.6246353e-40
-0.0073438236 0.035383813 0.70099998 6.4577579e-40
-0.0060085901 0.035383806 0.70099998 8.3089292e-40
-0.0046866951 0.035484768 0.70299995 9.2309836e-40
-0.0033476395 0.035484761 0.70299995 9.245473e-40
-0.0021028616 0.037150472 0.73600006 1.5670525e-39
-0.00070096139 0.037150487 0.73600006 2.1234576e-39
0.00070096127 0.037150472 0.73600006 2.5908972e-39
0.0020971405 0.037049517 0.73400003 3.0443237e-39
0.0034856959 0.036948577 0.73199999 2.3035315e-39
0.0048733088 0.036898106 0.73099995 1.5659791e-39
0.0062656938 0.036898099 0.73099995 1.1039331e-39
0.0076580788 0.036898091 0.73099995 5.536236e-40
0.0090504633 0.036898106 0.73100001 6.4544508e-40
0.010485697 0.037049517 0.73399997 6.4652408e-40
0.011883808 0.037049517 0.73400003 1.0142276e-39
0.013318076 0.037150487 0.736 1.2908159e-39
0.014719996 0.03715048 0.73600006 1.198986e-39
0.016121898 0.03715048 0.736 1.106782e-39
0.017523818 0.037150472 0.73600006 6.4328988e-40
0.018925704 0.037150472 0.73600006 1.0633053e-40
0.020327626 0.037150472 0.73600006 5.9311331e-39
0.021729512 0.037150472 0.73600006 1.1700605e-38
0.023162831 0.037200965 0.73699999 5.878e-39
0.024666652 0.037352383 0.73999995 1.1283676e-40
0.026146661 0.037453324 0.74199998 8.0516101e-39
0.027559992 0.037453331 0.74200004 1.585045e-38
0.029012365 0.037503798 0.74299997 8.0085581e-39
0.030509513 0.037604764 0.745 1.031734e-40
0.031928547 0.037604768 0.745 6.2683513e-39
0.033437122 0.037705708 0.74699998 1.2361472e-38
0.034906644 0.037756193 0.74800003 1.5134522e-38
0.036428567 0.037857156 0.75000006 1.788851e-38
0.037958089 0.037958097 0.75200003 1.7795598e-38
0.039390467 0.037958097 0.75199997 1.7611208e-38
0.040985681 0.038109545 0.755 1.7154899e-38
0.04259235 0.038260948 0.75799996 1.6691415e-38
0.044152375 0.038361907 0.76000005 1.631941e-38
-0.033929549 0.039704766 0.75799996 1.4769462e-39
-0.032485738 0.039704759 0.75800002 2.2130735e-39
-0.030919069 0.039547615 0.755 2.7655284e-39
-0.029402878 0.039442852 0.75300002 3.3176428e-39
-0.027968593 0.039442852 0.75300002 2.0294599e-39
-0.026499065 0.039390475 0.75199997 8.3381322e-40
-0.025066683 0.039390489 0.75199997 9.242208e-40
-0.02357145 0.039285719 0.75 1.1053891e-39
-0.022142859 0.039285712 0.75000006 1.2908621e-39
-0.020714287 0.039285712 0.75000006 1.4745429e-39
-0.019285742 0.039285731 0.75 1.751134e-39
-0.016761921 0.036876209 0.704 2.0273734e-39
-0.015420976 0.036876202 0.704 2.2128521e-39
-0.014060004 0.036823802 0.70300001 2.4875794e-39
-0.012720962 0.036823809 0.70300001 1.8443106e-39
-0.011381919 0.036823809 0.70300001 1.1074686e-39
-0.010042864 0.036823809 0.70300001 7.3904341e-40
-0.0087038232 0.036823802 0.70300001 4.6281805e-40
-0.0073438217 0.036719047 0.70100003 6.4648624e-40
-0.0060085882 0.036719039 0.70099998 9.2308014e-40
-0.0046866876 0.036823817 0.70299995 1.0156429e-39
-0.003347645 0.036823824 0.70299995 1.2004055e-39
-0.0021028523 0.038552366 0.73600006 1.6603145e-39
-0.00070095301 0.038552389 0.73600006 2.2124093e-39
0.0007009352 0.038552392 0.736 2.7684487e-39
0.0021028551 0.038552381 0.73600006 3.2283436e-39
0.0034952345 0.038447622 0.73400003 2.4893535e-39
0.0048933118 0.038447622 0.73399997 1.7503661e-39
0.0062914244 0.038447611 0.73400003 1.2890376e-39
0.0076895221 0.038447622 0.73400003 8.2984194e-40
0.0090876138 0.038447622 0.73399997 7.3834556e-40
0.010514275 0.038552381 0.73600006 6.4723734e-40
0.011916195 0.038552389 0.73600006 9.2311237e-40
0.013318084 0.038552389 0.73600006 1.1986203e-39
0.014720004 0.038552381 0.73600006 1.1996965e-39
0.016121905 0.038552377 0.73600006 1.2000426e-39
0.017523795 0.038552374 0.736 6.4542966e-40
0.018925717 0.038552377 0.73600006 1.8631244e-40
0.020355236 0.038604762 0.73700005 6.0096759e-39
0.021759037 0.038604781 0.73699999 1.1895391e-38
0.023162842 0.038604777 0.73699999 6.0785385e-39
0.024666671 0.038761906 0.74000001 2.947337e-40
0.026146671 0.038866658 0.74200004 8.0426727e-39
0.027560001 0.038866665 0.74200004 1.5863743e-38
0.029012358 0.03891905 0.74299997 8.2019218e-39
0.030591413 0.039128587 0.74699998 5.5303085e-40
0.032014266 0.039128579 0.74699998 7.2864395e-39
0.033481881 0.039180964 0.74800003 1.3935248e-38
0.034999989 0.039285719 0.75 1.5868518e-38
0.036428567 0.039285723 0.75000006 1.7798856e-38
0.037857126 0.039285727 0.75000006 1.7521553e-38
0.039390467 0.039390482 0.75200003 1.7337518e-38
0.040985696 0.039547622 0.755 1.696981e-38
0.04270475 0.039809514 0.75999999 1.6604626e-38
0.044152383 0.039809514 0.76000005 1.6415221e-38
-0.034019068 0.041257132 0.76000005 1.2918416e-39
-0.032485727 0.041148569 0.75800002 2.1198086e-39
-0.030919075 0.040985733 0.755 3.130369e-39
-0.029402863 0.040877126 0.75300002 4.1416511e-39
-0.027968578 0.040877126 0.75300002 2.7637754e-39
-0.026499067 0.040822856 0.75199997 1.2926236e-39
-0.025066685 0.040822871 0.75199997 1.1990056e-39
-0.023634303 0.040822871 0.75199997 1.1064569e-39
-0.022142861 0.040714301 0.75 1.3808928e-39
-0.020714296 0.040714294 0.75000006 1.5656456e-39
-0.019285724 0.04071429 0.75000006 1.6574881e-39
-0.016761938 0.038217153 0.704 1.6596699e-39
-0.01542098 0.03821715 0.704 1.9377169e-39
-0.01406001 0.03816285 0.70300001 2.1209605e-39
-0.012720968 0.038162865 0.70300001 1.6599207e-39
-0.011381912 0.038162854 0.70300001 1.1081875e-39
-0.010042869 0.03816285 0.70300001 7.3904901e-40
-0.008703812 0.038162865 0.70300001 3.7062242e-40
-0.0073438198 0.03805428 0.70100003 6.4612051e-40
-0.0060085733 0.038054273 0.70100003 9.227144e-40
-0.0046866913 0.038162868 0.70299995 1.2000258e-39
-0.0033476376 0.038162857 0.70299995 1.3840751e-39
-0.0021057255 0.040008575 0.73699999 1.8443484e-39
-0.00070095673 0.039954286 0.73600006 2.304256e-39
0.00070094451 0.03995429 0.73600006 2.8581514e-39
0.0021028458 0.03995429 0.736 3.4109482e-39
0.0035047526 0.039954275 0.73600006 2.6748181e-39
0.0049066539 0.039954282 0.73600006 1.935472e-39
0.0063085756 0.039954282 0.73600006 1.4716324e-39
0.0077104638 0.039954297 0.73600006 1.0138759e-39
0.0091123832 0.039954282 0.73600006 8.3090833e-40
0.010514285 0.039954294 0.73600006 6.4724575e-40
0.011916172 0.039954297 0.736 8.3200275e-40
0.013318093 0.039954286 0.73600006 1.0163842e-39
0.014719994 0.039954282 0.73600006 1.2011258e-39
0.016121902 0.039954275 0.73600006 1.2915123e-39
0.017523803 0.039954282 0.73600006 7.3546309e-40
0.018951405 0.04000859 0.73699999 1.9886667e-40
0.02035521 0.040008586 0.73699999 6.1173026e-39
0.021759037 0.040008578 0.73699999 1.1977195e-38
0.023225702 0.040117141 0.73900002 6.1542506e-39
0.024666663 0.040171418 0.74000001 3.8907472e-40
0.026146663 0.040279999 0.74199998 8.1434484e-39
0.02755999 0.040280014 0.74199998 1.575827e-38
0.029012356 0.040334288 0.74299997 8.381665e-39
0.030591398 0.040551439 0.74699998 1.0312562e-39
0.032014266 0.040551431 0.74699998 8.2966818e-39
0.033481874 0.04060572 0.74799997 1.5492167e-38
0.034999993 0.040714301 0.75 1.6605345e-38
0.036428552 0.040714301 0.75 1.7613377e-38
0.037958082 0.04082286 0.75200003 1.7337149e-38
0.039442837 0.040877137 0.75300002 1.7060202e-38
0.04114854 0.041148569 0.75800002 1.6782539e-38
0.042704742 0.041257154 0.75999999 1.6507401e-38
0.044152372 0.041257143 0.76000005 1.6503465e-38
0.045659978 0.041311428 0.76100004 1.6415561e-38
-0.034019046 0.042704761 0.76000005 1.2914843e-39
-0.032485742 0.042592373 0.75800002 2.1198143e-39
-0.030919082 0.042423822 0.755 2.6712014e-39
-0.029402878 0.042311419 0.75300002 3.3140555e-39
-0.027968593 0.042311426 0.75300002 2.1194807e-39
-0.026534306 0.042311426 0.75300002 1.0167513e-39
-0.025066689 0.042255249 0.75199997 1.0156878e-39
-0.023634307 0.042255249 0.75199997 1.0153304e-39
-0.022201907 0.042255245 0.75200003 1.1979266e-39
-0.020714298 0.042142864 0.75 1.473796e-39
-0.019285705 0.042142868 0.75000006 1.474159e-39
-0.016761921 0.039558101 0.70400006 1.4752786e-39
-0.015420981 0.039558101 0.704 1.7540571e-39
-0.014080035 0.039558105 0.704 1.9394475e-39
-0.012720959 0.039501913 0.70300001 1.4776832e-39
-0.011381916 0.039501905 0.70300001 1.0177883e-39
-0.01004286 0.03950192 0.70300001 6.4721772e-40
-0.0086790724 0.039389536 0.70099998 2.7770933e-40
-0.0073438236 0.039389528 0.70099998 5.5355914e-40
-0.0060085715 0.039389506 0.70100003 8.297957e-40
-0.0046866783 0.039501902 0.70300001 1.1067497e-39
-0.0033476413 0.039501924 0.70299995 1.3829975e-39
-0.0021057264 0.041412391 0.73700005 1.8425575e-39
-0.00070096791 0.041356198 0.73600006 2.2102793e-39
0.00070095196 0.041356191 0.73600006 2.7666943e-39
0.0021028533 0.041356187 0.73600006 3.412393e-39
0.003504762 0.041356176 0.73600006 2.7659362e-39
0.0049066632 0.041356187 0.73600006 2.1198605e-39
0.0063085626 0.041356198 0.736 1.5659777e-39
0.0077104704 0.041356187 0.73600006 1.1060743e-39
0.0091123711 0.041356191 0.73600006 7.3872251e-40
0.010514279 0.041356191 0.73600006 4.628657e-40
0.01191618 0.041356191 0.73600006 6.4798003e-40
0.013318101 0.041356184 0.73600006 8.3343207e-40
0.014739995 0.041412383 0.73699999 1.0174492e-39
0.016143788 0.041412398 0.73699999 1.2943752e-39
0.017547613 0.041412391 0.73700005 7.3760568e-40
0.01895142 0.041412394 0.73699999 1.8523344e-40
0.020410458 0.041524783 0.73899996 6.0082535e-39
0.021759037 0.041412398 0.73700005 1.1894701e-38
0.023257125 0.041580956 0.74000001 6.0749904e-39
0.024733331 0.041693337 0.74200004 2.803746e-40
0.026146673 0.041693337 0.74200004 7.4822752e-39
0.027559999 0.04169333 0.74200004 1.4756683e-38
0.02909046 0.041861903 0.745 8.6733312e-39
0.030591421 0.041974287 0.74699998 2.6889937e-39
0.032057114 0.042030476 0.74800003 9.2308729e-39
0.033481885 0.042030469 0.74800003 1.5783838e-38
0.034999996 0.042142853 0.75000006 1.6512422e-38
0.036428571 0.042142872 0.75 1.7333912e-38
0.037958093 0.042255245 0.75200003 1.6967997e-38
0.039599974 0.042479992 0.75600004 1.6691052e-38
0.041148551 0.042592373 0.75800002 1.6414465e-38
0.042704746 0.042704761 0.75999999 1.623045e-38
0.044152375 0.04270475 0.75999999 1.613827e-38
0.045599975 0.042704768 0.75999999 1.6047865e-38
-0.033929538 0.04403618 0.75800002 1.1978327e-39
-0.032400023 0.043920003 0.75599998 2.118001e-39
-0.030919066 0.043861914 0.755 2.3034852e-39
-0.029402863 0.043745719 0.75300002 2.3953334e-39
-0.027968576 0.043745719 0.75300002 1.5663168e-39
-0.026534319 0.043745715 0.75300002 6.4797162e-40
-0.025100032 0.043745715 0.75300002 8.3093636e-40
-0.023665747 0.043745715 0.75300002 9.2277606e-40
-0.022201909 0.043687623 0.75200003 1.1057352e-39
-0.020769527 0.043687638 0.75200003 1.2901293e-39
-0.019337146 0.043687638 0.75200003 1.290495e-39
-0.016738104 0.040840946 0.70300001 1.2923181e-39
-0.015399062 0.040840965 0.70300001 1.5721588e-39
-0.014060021 0.040840954 0.70300001 1.7539815e-39
-0.012720964 0.040840961 0.70300001 1.2936745e-39
-0.011381923 0.04084095 0.70300001 8.3269078e-40
-0.010042868 0.04084095 0.70300001 4.6282366e-40
-0.0086790593 0.040724769 0.70099998 9.4385859e-41
-0.0073438254 0.040724762 0.70099998 4.6063203e-40
-0.0060085938 0.040724769 0.70099998 7.3723293e-40
-0.0046733604 0.040724769 0.70099998 1.1056693e-39
-0.0033381064 0.040724762 0.70100003 1.3819185e-39
-0.0021057264 0.042816192 0.73700005 1.7489284e-39
-0.00070096046 0.042758096 0.73600006 2.1202304e-39
0.00070094079 0.042758092 0.736 2.7695501e-39
0.0021028477 0.042758096 0.73600006 3.3183981e-39
0.0035047489 0.042758092 0.73600006 2.8566969e-39
0.0049066707 0.0427581 0.73600006 2.3031686e-39
0.0063085589 0.0427581 0.73600006 1.749999e-39
0.0077104787 0.042758085 0.73600006 1.106412e-39
0.0091247447 0.042816203 0.73699999 7.3904901e-40
0.010528556 0.042816188 0.73700005 2.7917369e-40
0.011932362 0.042816192 0.73699999 4.6322303e-40
0.013336166 0.042816203 0.73699999 6.4832054e-40
0.014739992 0.042816207 0.73699999 9.2489622e-40
0.016143799 0.042816199 0.73699999 1.2000216e-39
0.017547589 0.042816199 0.73699999 6.4324504e-40
0.019002832 0.042932387 0.73899996 1.0486897e-40
0.020410452 0.042932399 0.73899996 6.0190127e-39
0.021847602 0.042990476 0.73999995 1.1791374e-38
0.023257123 0.04299048 0.73999995 5.9698636e-39
0.024733318 0.043106671 0.74199998 1.0602785e-40
0.02614666 0.043106664 0.74199998 6.9327098e-39
0.027597137 0.043164756 0.74300003 1.3738965e-38
0.029090468 0.043280963 0.745 9.0489227e-39
0.030632354 0.043455232 0.74800003 4.2623758e-39
0.032057125 0.043455236 0.74800003 1.015314e-38
0.033571422 0.043571431 0.75 1.5955645e-38
0.035093322 0.043687634 0.75199997 1.6510253e-38
0.036525689 0.043687634 0.75199997 1.6969076e-38
0.038109515 0.043861911 0.755 1.660138e-38
0.039599992 0.043919992 0.75600004 1.6231879e-38
0.041039973 0.043919999 0.75599998 1.6136809e-38
0.04259235 0.044036187 0.75799996 1.5953508e-38
0.044036157 0.04403618 0.75799996 1.5862402e-38
-0.033929575 0.045479991 0.75799996 1.1974502e-39
-0.032485738 0.045480002 0.75799996 2.0243522e-39
-0.030960022 0.045359988 0.75600004 2.3034698e-39
-0.029480977 0.045300007 0.755 2.580791e-39
-0.028042881 0.045300003 0.755 1.751064e-39
-0.026604787 0.045300014 0.755 9.2275924e-40
-0.025100019 0.04518 0.75300002 1.0146017e-39
-0.023665732 0.045179993 0.75300002 1.1057282e-39
-0.022231452 0.045179985 0.75300002 1.1982896e-39
-0.020769529 0.045120016 0.75200003 1.2901335e-39
-0.019337149 0.045120016 0.75200003 1.1064709e-39
-0.016761925 0.042239994 0.704 9.2245656e-40
-0.015399069 0.042180009 0.70300001 1.5681903e-39
-0.014060012 0.042180002 0.70300001 2.3021246e-39
-0.012720971 0.042179991 0.70300001 1.6599613e-39
-0.011381914 0.042180002 0.70300001 1.0160101e-39
-0.010042871 0.042179994 0.70300001 6.4684778e-40
-0.0086790575 0.042060003 0.70100003 2.7804564e-40
-0.0073438236 0.042059995 0.70100003 5.5352691e-40
-0.006008592 0.042060003 0.70099998 8.2869848e-40
-0.0046733436 0.042060003 0.70099998 1.105305e-39
-0.0035238289 0.044400007 0.73999995 1.381557e-39
-0.0021057348 0.044220015 0.73699999 1.8411212e-39
-0.00070192345 0.044220001 0.73700005 2.3035357e-39
0.0007009501 0.044160001 0.73600006 2.8585017e-39
0.002102857 0.044159994 0.73600006 3.4080742e-39
0.0035047601 0.044159994 0.73600006 2.8556207e-39
0.0049066613 0.044160005 0.736 2.3020881e-39
0.0063085682 0.044159997 0.73600006 1.7503493e-39
0.0077104676 0.044159994 0.73600006 1.290062e-39
0.0091247428 0.044220015 0.73699999 9.2196891e-40
0.010528547 0.044220027 0.73699999 6.4541705e-40
0.011932373 0.044220012 0.73699999 7.3835958e-40
0.013336166 0.044220008 0.73699999 8.3019367e-40
0.01473997 0.04422003 0.73699999 1.0167317e-39
0.016143797 0.044220015 0.73699999 1.2032431e-39
0.017547604 0.044220012 0.73699999 6.4574215e-40
0.019002829 0.044340011 0.73899996 9.2304931e-41
0.020410463 0.044340011 0.73900002 5.9060092e-39
0.021847598 0.04440001 0.73999995 1.1618813e-38
0.023320001 0.044519998 0.74200004 9.6687338e-39
0.024733327 0.044519998 0.74200004 7.8123132e-39
0.026146669 0.044519994 0.74200004 1.1803231e-38
0.027597118 0.044580005 0.74299997 1.5768678e-38
0.02909046 0.044700004 0.745 1.1530991e-38
0.030632358 0.044880006 0.74799997 7.3718515e-39
0.032057114 0.04488001 0.74800003 1.0145573e-38
0.03357143 0.045000013 0.75000006 1.3017602e-38
0.035093319 0.045120012 0.75199997 1.6415889e-38
0.036525704 0.045120012 0.75199997 1.9818842e-38
0.038109504 0.045300011 0.755 1.982137e-38
0.039599977 0.045359991 0.75600004 1.9814904e-38
0.04114854 0.045479994 0.75799996 1.8439155e-38
0.042592347 0.045479991 0.75799996 1.7053381e-38
0.044036169 0.045480002 0.75800002 1.6503452e-38
0.045600008 0.045599997 0.76000005 1.5952801e-38
-0.032485753 0.046923801 0.75800002 1.8424707e-39
-0.030960036 0.046800002 0.75599998 2.3045306e-39
-0.029520037 0.046799995 0.75600004 2.7644508e-39
-0.028080035 0.046799995 0.75600004 1.9347293e-39
-0.026640037 0.046799991 0.75600004 1.106426e-39
-0.025166698 0.04673811 0.755 1.1989902e-39
-0.023728602 0.04673811 0.755 1.290474e-39
-0.022290505 0.04673811 0.755 1.2919159e-39
-0.020714294 0.04642858 0.75 1.2908467e-39
-0.019285729 0.046428584 0.75000006 9.2243554e-40
-0.016761925 0.04358096 0.704 5.5654811e-40
-0.015420979 0.043580949 0.704 1.6589524e-39
-0.014080019 0.043580964 0.704 2.7627398e-39
-0.012720962 0.04351905 0.70300001 1.9361867e-39
-0.011381918 0.043519057 0.70300001 1.1082127e-39
-0.010042864 0.043519046 0.70300001 8.3017545e-40
-0.0086790556 0.043395236 0.70100003 4.6209358e-40
-0.0073438217 0.043395244 0.70100003 7.3793778e-40
-0.0060085752 0.043395236 0.70100003 9.2162839e-40
-0.0046733418 0.043395251 0.70100003 1.1056763e-39
-0.0035190764 0.045747638 0.73899996 1.2882936e-39
-0.0021057357 0.045623824 0.73699999 1.9297309e-39
-0.00070096046 0.045561913 0.736 2.4893661e-39
0.00070094637 0.045561898 0.73600006 3.0450566e-39
0.0021028458 0.045561895 0.73600006 3.5031453e-39
0.0035047675 0.045561891 0.73600006 2.9478149e-39
0.0049066539 0.045561902 0.73600006 2.3035273e-39
0.0063085775 0.045561895 0.73600006 1.8421932e-39
0.0077104769 0.045561902 0.73600006 1.3819157e-39
0.0091247428 0.04562382 0.73699999 1.1967874e-39
0.010528549 0.045623817 0.73699999 1.0134905e-39
0.011932373 0.045623809 0.73699999 1.0138661e-39
0.013336179 0.04562382 0.73699999 1.0152996e-39
0.01473997 0.045623824 0.73699999 1.1089273e-39
0.016143797 0.045623817 0.73700005 1.2003817e-39
0.017547604 0.045623835 0.73699999 6.4432404e-40
0.019002832 0.045747645 0.73899996 9.6626536e-41
0.020410467 0.04574763 0.73900002 5.8016363e-39
0.021847617 0.045809533 0.74000001 1.143376e-38
0.023319989 0.045933336 0.74199998 1.3457396e-38
0.024733316 0.045933343 0.74199998 1.5484603e-38
0.02618188 0.045995235 0.74299997 1.6607804e-38
0.027597131 0.045995228 0.74299997 1.7704441e-38
0.029090468 0.046119057 0.745 1.4117826e-38
0.030632365 0.046304766 0.74800003 1.042035e-38
0.032142855 0.046428584 0.75 1.0223385e-38
0.033571411 0.046428584 0.75 1.0064874e-38
0.035093315 0.04655239 0.75199997 1.631691e-38
0.036671426 0.046738099 0.755 2.2579669e-38
0.038159981 0.046799995 0.75600004 2.3050334e-38
0.039599977 0.046799995 0.75600004 2.3411573e-38
0.041148536 0.046923809 0.75799996 2.0843404e-38
0.042704754 0.047047623 0.76000005 1.8165451e-38
0.044152364 0.047047623 0.75999999 1.7145202e-38
-0.032485742 0.048367608 0.75800002 1.9357369e-39
-0.030960033 0.048239987 0.75600004 2.5818153e-39
-0.029480968 0.048176207 0.755 3.3190413e-39
-0.028080024 0.048239995 0.75599998 2.3942586e-39
-0.026640024 0.048240006 0.75599998 1.4716128e-39
-0.025166683 0.048176199 0.755 1.2897495e-39
-0.023665737 0.048048563 0.75300002 1.1982783e-39
-0.022201937 0.047984768 0.75199997 1.566342e-39
-0.020714305 0.047857147 0.75000006 1.9340497e-39
-0.019285731 0.047857158 0.75 1.5670721e-39
-0.016785733 0.04498573 0.70499998 1.2019063e-39
-0.015420981 0.044921923 0.704 1.6611076e-39
-0.014080021 0.044921912 0.704 2.1224039e-39
-0.012720966 0.044858098 0.70300001 1.5692048e-39
-0.011381925 0.044858102 0.70300001 1.0171031e-39
-0.010042868 0.044858098 0.70300001 6.4651847e-40
-0.0087038269 0.044858105 0.70300001 3.6884278e-40
-0.0073438068 0.044730477 0.70100003 6.4540724e-40
-0.0060085733 0.044730484 0.70100003 9.2200394e-40
-0.0046733399 0.044730477 0.70100003 1.196807e-39
-0.0035190643 0.047155242 0.73900002 1.37942e-39
-0.0021057366 0.047027633 0.73699999 2.0262313e-39
-0.00070096791 0.046963807 0.73600006 2.770262e-39
0.00070095382 0.046963796 0.73600006 3.5996695e-39
0.0021028551 0.046963796 0.73600006 4.5197985e-39
0.0035047415 0.046963811 0.736 3.5027725e-39
0.0049066632 0.046963811 0.73600006 2.5808302e-39
0.0063085645 0.046963811 0.73600006 1.9358294e-39
0.0077104713 0.046963811 0.73600006 1.3819339e-39
0.0091247531 0.047027633 0.73699999 1.1982503e-39
0.010528547 0.047027633 0.73699999 1.0145821e-39
0.011932351 0.047027636 0.73699999 1.015301e-39
0.013336177 0.047027625 0.73699999 1.0163772e-39
0.014739983 0.047027625 0.73699999 1.2929585e-39
0.016143775 0.047027625 0.73699999 1.66172e-39
0.017595209 0.047155261 0.73899996 8.2944538e-40
0.019028574 0.047219038 0.74000001 9.2338562e-41
0.020438094 0.047219053 0.74000001 7.1016993e-39
0.021847611 0.047219049 0.74000001 1.4122513e-38
0.023319997 0.04734667 0.74200004 1.5504412e-38
0.024733324 0.047346666 0.74200004 1.6989205e-38
0.026181895 0.047410473 0.74299997 1.568593e-38
0.027597129 0.04741047 0.74300003 1.4496339e-38
0.02916855 0.047665711 0.74699998 1.402708e-38
0.030632358 0.047729526 0.74799997 1.3641398e-38
0.032142859 0.047857147 0.75000006 1.3091058e-38
0.03357143 0.04785715 0.75 1.2548377e-38
0.035139985 0.048048578 0.75300002 1.6785087e-38
0.036671419 0.04817621 0.755 2.1121803e-38
0.038159966 0.048239991 0.75599998 2.2223829e-38
0.039599981 0.048239991 0.75599998 2.3417331e-38
0.041148555 0.048367616 0.75799996 2.1669228e-38
0.042704761 0.048495226 0.76000005 1.9916067e-38
0.044152372 0.048495233 0.75999999 1.8068198e-38
-0.032485753 0.049811438 0.75799996 1.9386081e-39
-0.03096002 0.049680002 0.75599998 2.9513195e-39
-0.02952002 0.049679995 0.75599998 3.8664697e-39
-0.02808002 0.049679991 0.75600004 2.8512808e-39
-0.02664002 0.049679991 0.75600004 1.7496248e-39
-0.025166687 0.049614295 0.755 1.4737708e-39
-0.023665722 0.049482856 0.75300002 1.1067946e-39
-0.022231437 0.04948286 0.75300002 1.8407681e-39
-0.02079715 0.049482856 0.75300002 2.5761779e-39
-0.01818002 0.046460003 0.70700002 2.2102779e-39
-0.016785726 0.046328582 0.70500004 1.7521892e-39
-0.015420983 0.046262868 0.704 1.6607251e-39
-0.014080022 0.046262857 0.704 1.4766743e-39
-0.012720973 0.046197142 0.70300001 1.2011482e-39
-0.011381916 0.046197154 0.70300001 8.3163841e-40
-0.010014291 0.046065714 0.70099998 5.5396551e-40
-0.0086790593 0.046065725 0.70099998 2.7737022e-40
-0.0073333685 0.046000004 0.69999999 6.4470099e-40
-0.006008592 0.046065725 0.70099998 9.2093615e-40
-0.0046733585 0.046065718 0.70099998 1.1964553e-39
-0.0035190578 0.048562869 0.73900002 1.472696e-39
-0.0021057245 0.048431434 0.73699999 2.2091891e-39
-0.00070193462 0.048431449 0.73699999 2.9510533e-39
0.0007018926 0.048431441 0.73700005 4.2464416e-39
0.0021056975 0.048431441 0.73699999 5.5278254e-39
0.0035095043 0.048431441 0.73699999 4.1463385e-39
0.0049133296 0.048431434 0.73699999 2.7659362e-39
0.0063171214 0.04843143 0.73699999 2.030176e-39
0.007710462 0.04836572 0.73600006 1.2915306e-39
0.0091247512 0.048431437 0.73700005 1.1078427e-39
0.010528557 0.048431437 0.73699999 9.2381862e-40
0.011964743 0.048562866 0.73899996 9.2454169e-40
0.013372358 0.048562866 0.73899996 9.2490183e-40
0.014779974 0.048562881 0.73899996 1.4769924e-39
0.01618759 0.048562881 0.73899996 2.0269152e-39
0.017595205 0.048562877 0.73899996 1.1031652e-39
0.019028554 0.048628565 0.74000001 1.0095795e-40
0.020438086 0.048628569 0.73999995 8.4824744e-39
0.021906663 0.048760001 0.74200004 1.6782162e-38
0.023320004 0.048759997 0.74200004 1.7632054e-38
0.024733316 0.048760019 0.74199998 1.8338715e-38
0.026181877 0.048825726 0.74299997 1.4742021e-38
0.027671412 0.048957147 0.745 1.117158e-38
0.02916855 0.049088582 0.74699998 1.4036798e-38
0.030632367 0.049154285 0.74800003 1.6871112e-38
0.03214284 0.049285736 0.75 1.5950574e-38
0.033660956 0.049417149 0.75200003 1.5034052e-38
0.035139967 0.04948286 0.75300002 1.7336795e-38
0.0366714 0.049614307 0.755 1.9551618e-38
0.038159985 0.049679998 0.75600004 2.148914e-38
0.039599985 0.049679991 0.75600004 2.3417328e-38
0.041148547 0.049811419 0.75800002 2.2499334e-38
0.042704765 0.049942862 0.76000005 2.1565527e-38
0.04415236 0.049942866 0.75999999 1.8981908e-38
-0.032485738 0.051255245 0.75799996 1.7570923e-39
-0.030960012 0.051119987 0.75600004 2.4907155e-39
-0.029520016 0.051119998 0.75600004 3.2218304e-39
-0.028154332 0.051255241 0.75799996 2.3946103e-39
-0.026640037 0.051120002 0.75599998 1.568458e-39
-0.025200037 0.051120002 0.75599998 1.2915249e-39
-0.023760037 0.051119998 0.75599998 1.0160283e-39
-0.022320038 0.051119991 0.75600004 1.5659749e-39
-0.02088001 0.051119994 0.75600004 2.1155627e-39
-0.018180009 0.047806673 0.70699996 1.9336938e-39
-0.016785722 0.047671434 0.70500004 1.6606998e-39
-0.015420964 0.047603808 0.70400006 1.6592663e-39
-0.014080023 0.047603816 0.704 1.7493011e-39
-0.012720964 0.047536187 0.70299995 1.290474e-39
-0.011349524 0.047400944 0.70100003 9.2204038e-40
-0.010014291 0.04740094 0.70100003 5.5360538e-40
-0.0086790593 0.047400951 0.70100003 1.8482286e-40
-0.0073333592 0.047333337 0.69999999 5.528753e-40
-0.0060000294 0.047333334 0.69999999 9.2094596e-40
-0.0046733473 0.047400951 0.70099998 1.1049855e-39
-0.0033381139 0.047400951 0.70099998 1.3812249e-39
-0.0020028804 0.047400959 0.70099998 2.0251635e-39
-0.00070191972 0.04983525 0.73699999 2.5776044e-39
0.00070188701 0.04983525 0.73699999 3.5971135e-39
0.0021056975 0.049835257 0.73699999 4.6984248e-39
0.0035095043 0.049835257 0.73699999 3.5942493e-39
0.0049133091 0.049835257 0.73699999 2.5822652e-39
0.0063171345 0.049835246 0.73699999 1.9365468e-39
0.0077209263 0.049835246 0.73699999 1.289374e-39
0.0091247326 0.049835261 0.73699999 1.1071183e-39
0.010528557 0.049835254 0.73699999 1.0156499e-39
0.01196475 0.049970485 0.73899996 9.2382283e-40
0.013372364 0.049970485 0.73899996 9.245445e-40
0.014779978 0.049970496 0.73899996 1.384801e-39
0.016187593 0.049970496 0.73899996 1.7532065e-39
0.017619032 0.050038103 0.74000001 9.2093475e-40
0.019028552 0.050038099 0.73999995 9.2359582e-41
0.020493325 0.050173335 0.74199998 7.2929317e-39
0.021906652 0.050173335 0.74199998 1.4401262e-38
0.023319982 0.050173346 0.74200004 1.1811262e-38
0.024766639 0.050240949 0.74299997 9.2053454e-39
0.02618189 0.050240964 0.74299997 7.4700713e-39
0.027671419 0.050376199 0.745 5.635595e-39
0.029168572 0.050511427 0.74699998 1.0344039e-38
0.030632358 0.05057906 0.74800003 1.5038753e-38
0.032142844 0.050714299 0.75000006 1.3833037e-38
0.033571418 0.050714299 0.75 1.2646707e-38
0.035139993 0.050917123 0.75300002 1.5314956e-38
0.036671415 0.051052392 0.755 1.8075062e-38
0.038109511 0.051052388 0.755 1.8815504e-38
0.039599985 0.051119991 0.75599998 1.9467682e-38
0.041148543 0.051255237 0.75800002 1.8997386e-38
0.042592347 0.051255245 0.75799996 1.8527789e-38
0.044152368 0.051390469 0.75999999 1.7333909e-38
-0.031041918 0.052699044 0.75800002 2.0326227e-39
-0.029520031 0.052560002 0.75599998 2.4885828e-39
-0.028154321 0.052699044 0.75799996 1.9361475e-39
-0.026710514 0.052699037 0.75800002 1.2922284e-39
-0.025200032 0.052559983 0.75600004 1.1074882e-39
-0.023760034 0.052559998 0.75600004 9.2383124e-40
-0.022320006 0.052559998 0.75600004 1.2908285e-39
-0.020880027 0.052560005 0.75599998 1.657816e-39
-0.018180009 0.049153339 0.70700002 1.656744e-39
-0.016785735 0.049014296 0.70499998 1.5667063e-39
-0.015420966 0.04894476 0.704 1.7500228e-39
-0.014100019 0.049014296 0.70500004 1.9336854e-39
-0.01272097 0.048875246 0.70299995 1.4734247e-39
-0.011381927 0.04887525 0.70300001 9.2203617e-40
-0.010042871 0.048875242 0.70299995 5.5288371e-40
-0.0087038288 0.048875239 0.70300001 9.4062159e-41
-0.0073647709 0.048875231 0.70300001 4.6104261e-40
-0.0060085771 0.048736192 0.70100003 8.2875033e-40
-0.0046866727 0.048875242 0.70300001 1.1042652e-39
-0.003338112 0.0487362 0.70099998 1.2893852e-39
-0.0021057273 0.051239047 0.73700005 1.7482193e-39
-0.00070192158 0.051239066 0.73699999 2.2134939e-39
0.00070188515 0.051239066 0.73699999 3.049339e-39
0.0021057106 0.051239058 0.73700005 3.7789979e-39
0.0035095024 0.051239055 0.73699999 3.1339956e-39
0.0049133073 0.05123907 0.73699999 2.3967977e-39
0.0063171345 0.051239062 0.73700005 1.8439883e-39
0.0077209375 0.051239062 0.73699999 1.2911676e-39
0.0091247438 0.051239062 0.73699999 1.198602e-39
0.010557127 0.051378101 0.73899996 1.0142192e-39
0.011964744 0.051378101 0.73899996 1.0138661e-39
0.013372358 0.051378116 0.73899996 9.2382563e-40
0.014779973 0.051378116 0.73899996 1.200051e-39
0.016209507 0.051447622 0.73999995 1.4751903e-39
0.017619029 0.051447622 0.73999995 8.2695247e-40
0.019079991 0.051586665 0.74200004 1.0310334e-40
0.020493332 0.051586658 0.74200004 6.1040519e-39
0.021906661 0.051586669 0.74200004 1.1988712e-38
0.023351407 0.051656179 0.74299997 6.0979829e-39
0.024766654 0.051656194 0.74299997 1.1215432e-40
0.026252367 0.051795244 0.745 1.1356964e-40
0.02774569 0.051934294 0.74699998 1.1935279e-40
0.029207598 0.052003816 0.74800003 6.6651851e-39
0.030632345 0.052003819 0.74799997 1.3186916e-38
0.032142863 0.052142862 0.75000006 1.1696361e-38
0.033660948 0.052281912 0.75200003 1.0159945e-38
0.035139993 0.052351419 0.75300002 1.3385344e-38
0.036719989 0.052559983 0.75600004 1.6600669e-38
0.038159989 0.052559998 0.75600004 1.6046073e-38
0.039704747 0.052699044 0.75800002 1.5500442e-38
0.041311421 0.052907608 0.76100004 1.5494345e-38
0.042873319 0.053046666 0.76300001 1.5497201e-38
0.044326644 0.05304667 0.76300001 1.5774485e-38
-0.031123824 0.054285705 0.76000005 1.570225e-39
-0.029598121 0.054142866 0.75799996 2.0294081e-39
-0.02815431 0.054142863 0.75799996 1.752831e-39
-0.026710503 0.054142859 0.75800002 1.4755365e-39
-0.025266692 0.054142851 0.75800002 1.4755407e-39
-0.023822904 0.054142859 0.75799996 1.4752001e-39
-0.022379067 0.054142855 0.75799996 1.7507234e-39
-0.02093526 0.054142848 0.75800002 2.0265887e-39
-0.018180007 0.050499998 0.70700002 1.9340343e-39
-0.016761927 0.050285719 0.704 1.750013e-39
-0.015420968 0.050285727 0.704 1.9347672e-39
-0.014080022 0.050285716 0.704 2.1184298e-39
-0.012720975 0.050214291 0.70299995 1.5666909e-39
-0.011381919 0.050214283 0.70299995 1.0153024e-39
-0.010042877 0.050214294 0.70300001 6.4650726e-40
-0.0086790631 0.050071433 0.70099998 3.7064344e-40
-0.0073647783 0.050214291 0.70300001 5.5395711e-40
-0.0060085752 0.050071426 0.70100003 8.2910906e-40
-0.0046866802 0.050214287 0.70300001 1.0138605e-39
-0.0033381102 0.050071433 0.70100003 1.1071463e-39
-0.0021057357 0.052642874 0.73699999 1.5670553e-39
-0.00070192345 0.052642867 0.73699999 1.9376314e-39
0.00070188142 0.052642867 0.73699999 2.6744734e-39
0.0021056882 0.052642867 0.73699999 3.4999097e-39
0.0035095154 0.05264286 0.73699999 2.9474534e-39
0.0049133184 0.052642871 0.73699999 2.3939236e-39
0.0063171121 0.052642874 0.73699999 1.8432638e-39
0.0077104676 0.052571435 0.736 1.383722e-39
0.0091123758 0.05257142 0.73600006 1.1982503e-39
0.010528547 0.052642878 0.73699999 1.0127885e-39
0.011964734 0.052785732 0.73899996 9.223893e-40
0.01337235 0.052785732 0.73899996 9.2454169e-40
0.014799984 0.052857146 0.73999995 1.292241e-39
0.016209524 0.052857131 0.74000001 1.5688209e-39
0.017619044 0.052857142 0.74000001 8.2875173e-40
0.01907998 0.053000011 0.74199998 9.2323148e-41
0.020493321 0.053000011 0.74199998 5.9077832e-39
0.021936174 0.053071424 0.74299997 1.1709186e-38
0.02335142 0.053071417 0.74299997 7.1898564e-39
0.024833307 0.053214293 0.745 2.7563289e-39
0.026252359 0.053214286 0.745 5.0709166e-39
0.02774569 0.05335715 0.74699998 7.3477954e-39
0.029207589 0.053428572 0.74799997 1.0514689e-38
0.030632356 0.053428575 0.74800003 1.3745045e-38
0.032142848 0.053571451 0.75 1.3555604e-38
0.033660948 0.05371429 0.75200003 1.3379899e-38
0.035139993 0.053785719 0.75300002 1.53139e-38
0.03671997 0.053999998 0.75599998 1.7151677e-38
0.038260937 0.054142855 0.75800002 1.668998e-38
0.039704729 0.054142863 0.75799996 1.6227574e-38
0.041311417 0.054357149 0.76100004 1.6322997e-38
0.042873308 0.054500002 0.76300001 1.6416615e-38
0.04455905 0.054785714 0.76700002 1.641732e-38
-0.032614302 0.055806663 0.76100004 4.6531657e-40
-0.031164797 0.055806667 0.76100004 1.0181274e-39
-0.029598136 0.05558667 0.75799996 1.5698663e-39
-0.028228588 0.055733323 0.76000005 1.5702334e-39
-0.026780963 0.055733327 0.75999999 1.5684299e-39
-0.025266701 0.055586666 0.75799996 1.7520925e-39
-0.023760017 0.055439997 0.75600004 1.9358041e-39
-0.022320017 0.055439997 0.75600004 2.2106352e-39
-0.020880038 0.055440005 0.75599998 2.3942978e-39
-0.018180026 0.051846679 0.70699996 2.2106184e-39
-0.016761929 0.051626679 0.704 1.9362063e-39
-0.015420984 0.051626667 0.704 2.120613e-39
-0.014080023 0.051626682 0.704 2.3031868e-39
-0.012720981 0.051553339 0.70299995 1.6592425e-39
-0.011381923 0.051553328 0.70299995 1.0163618e-39
-0.010042883 0.051553346 0.70299995 8.3086629e-40
-0.0086790612 0.051406682 0.70099998 5.5502209e-40
-0.0073438273 0.051406674 0.70099998 7.3907284e-40
-0.0060085938 0.051406674 0.70099998 8.305482e-40
-0.0046733418 0.051406667 0.70100003 9.2274243e-40
-0.0033380934 0.051406667 0.70100003 9.2311517e-40
-0.0020028618 0.051406674 0.70100003 1.2911886e-39
-0.0007038457 0.054193351 0.73899996 1.6599655e-39
0.00070378877 0.05419334 0.73899996 2.3950083e-39
0.0021056882 0.054046683 0.73699999 3.1332837e-39
0.0035095136 0.054046672 0.73700005 2.7619985e-39
0.0049133184 0.054046672 0.73699999 2.3024567e-39
0.0063171252 0.05404669 0.73699999 1.8429163e-39
0.0077209505 0.054046679 0.73699999 1.3830115e-39
0.0091247419 0.054046676 0.73699999 1.1978972e-39
0.010528547 0.05404669 0.73699999 9.223893e-40
0.01196474 0.054193351 0.73899996 9.2166903e-40
0.013372355 0.054193351 0.73899996 9.2418156e-40
0.014799999 0.054266665 0.74000001 1.2918837e-39
0.016209519 0.054266661 0.74000001 1.6577851e-39
0.017666664 0.054413337 0.74200004 9.1878936e-40
0.019079989 0.054413334 0.74200004 1.0021806e-40
0.020520944 0.054486666 0.74300003 5.7255556e-39
0.021936156 0.054486673 0.74299997 1.1334335e-38
0.023351405 0.05448667 0.74299997 8.380174e-39
0.024833312 0.054633345 0.745 5.4526093e-39
0.026322834 0.054780003 0.74699998 1.0066317e-38
0.027745698 0.054779999 0.74699998 1.465054e-38
0.029207598 0.054853331 0.74800003 1.4484072e-38
0.03071429 0.054999996 0.75000006 1.4204266e-38
0.032142844 0.055000018 0.75000006 1.5401003e-38
0.033705711 0.055219997 0.75300002 1.6602077e-38
0.035233323 0.055366676 0.755 1.7154923e-38
0.036719978 0.055439997 0.75600004 1.7703772e-38
0.038260914 0.055586666 0.75799996 1.7334985e-38
0.039704721 0.055586662 0.75799996 1.6967643e-38
0.041311413 0.055806674 0.76100004 1.7153108e-38
0.042873316 0.055953331 0.76300001 1.7244585e-38
0.04455905 0.056246672 0.76700002 1.7152749e-38
-0.034242861 0.05755714 0.76500005 7.4189505e-40
-0.032700021 0.057406671 0.76299995 6.471897e-40
-0.031246692 0.057406664 0.76300001 1.1085182e-39
-0.029715266 0.057256192 0.76100004 1.5695005e-39
-0.028265737 0.057256203 0.76100004 1.4773175e-39
-0.026780974 0.05718096 0.75999999 1.4762189e-39
-0.025266688 0.057030469 0.75799996 1.7534952e-39
-0.023822881 0.05703048 0.75800002 2.1209031e-39
-0.022379072 0.057030473 0.75800002 2.1209689e-39
-0.020935284 0.057030477 0.75799996 2.2113527e-39
-0.016761933 0.05296763 0.704 1.5710279e-39
-0.015420986 0.052967627 0.704 1.7536508e-39
-0.014080025 0.05296763 0.704 2.0280488e-39
-0.012720971 0.052892391 0.70299995 1.4773623e-39
-0.011381931 0.052892387 0.70299995 9.2738072e-40
-0.010042873 0.052892379 0.70299995 6.4716587e-40
-0.0087038307 0.052892387 0.70299995 3.7098256e-40
-0.0073647746 0.052892379 0.70299995 3.7138193e-40
-0.0060085938 0.052741908 0.70099998 4.6428802e-40
-0.0046733473 0.052741915 0.70099998 4.6320481e-40
-0.0033381139 0.052741911 0.70099998 5.5433686e-40
-0.0020028618 0.052741908 0.70100003 1.1067988e-39
-0.00070476305 0.055676199 0.74000001 1.6588823e-39
0.00070379436 0.055600956 0.73899996 2.5840476e-39
0.0021114103 0.055600956 0.73899996 3.5081577e-39
0.0035190242 0.055600967 0.73899996 2.7659544e-39
0.0049133184 0.055450488 0.73699999 2.1184382e-39
0.0063171214 0.055450492 0.73699999 1.6588964e-39
0.0077209282 0.055450492 0.73699999 1.2908257e-39
0.0091247549 0.055450492 0.73699999 1.015308e-39
0.010557118 0.055600967 0.73899996 7.4015464e-40
0.011980945 0.055676185 0.74000001 9.2417736e-40
0.013390464 0.055676196 0.74000001 1.0170933e-39
0.014839982 0.055826679 0.74199998 1.2918851e-39
0.016253311 0.055826675 0.74199998 1.4744715e-39
0.017666653 0.055826675 0.74199998 8.2838459e-40
0.019079981 0.055826671 0.74199998 9.2327352e-41
0.020520937 0.055901915 0.74299997 6.5470612e-39
0.021936167 0.055901911 0.74299997 1.2909556e-38
0.023414284 0.056052383 0.745 1.1527017e-38
0.024833305 0.056052387 0.745 1.0066314e-38
0.026322832 0.056202862 0.74699998 9.7883514e-39
0.027745698 0.056202866 0.74699998 9.5311011e-39
0.029207591 0.056278106 0.74800003 1.1068588e-38
0.03071427 0.056428589 0.75 1.2727408e-38
0.032228559 0.056579061 0.75199997 1.5038403e-38
0.0337057 0.056654278 0.75300002 1.7349719e-38
0.035233304 0.056804776 0.755 1.7434024e-38
0.036817126 0.057030465 0.75800002 1.7520467e-38
0.038260926 0.057030469 0.75799996 1.7245307e-38
0.039809518 0.057180945 0.75999999 1.6971594e-38
0.041419979 0.057406679 0.76300001 1.7061636e-38
0.042873304 0.057406679 0.76300001 1.7153482e-38
0.044442855 0.057557147 0.76500005 1.6969822e-38
-0.034242842 0.059014283 0.76500005 9.2557866e-40
-0.03270001 0.05886 0.76300001 8.3158656e-40
-0.031246699 0.058860004 0.76300001 1.1989229e-39
-0.029715259 0.058705717 0.76100004 1.4758826e-39
-0.028265735 0.05870571 0.76100004 1.3851429e-39
-0.026816204 0.058705717 0.76100004 1.2947255e-39
-0.025333336 0.058628578 0.75999999 1.7560386e-39
-0.023822868 0.058474284 0.75800002 2.2145406e-39
-0.02237908 0.058474287 0.75799996 2.1241835e-39
-0.020880049 0.058320001 0.75599998 2.0294445e-39
-0.019440021 0.058320001 0.75599998 1.660634e-39
-0.016761914 0.054308571 0.704 1.2018545e-39
-0.015420988 0.05430859 0.704 1.4777603e-39
-0.014080027 0.054308578 0.704 1.6614159e-39
-0.012720977 0.054231439 0.70299995 1.2025831e-39
-0.011381919 0.054231435 0.70299995 7.3942456e-40
-0.010042877 0.054231443 0.70299995 4.5993698e-40
-0.0087038213 0.054231431 0.70299995 9.5124344e-41
-0.0073647783 0.054231428 0.70299995 9.4785229e-41
-0.0060085808 0.054077148 0.70100003 9.5847414e-41
-0.0046733473 0.054077148 0.70099998 9.5114535e-41
-0.0033381139 0.054077156 0.70099998 9.5142561e-41
-0.0020028823 0.054077148 0.70099998 9.2204878e-40
-0.00070476678 0.057085715 0.74000001 1.6613963e-39
0.00070378691 0.057008576 0.73899996 2.7745443e-39
0.0021142713 0.057085712 0.73999995 3.781523e-39
0.0035190186 0.057008583 0.73899996 2.8592388e-39
0.0049266326 0.057008583 0.73899996 1.9372853e-39
0.0063342671 0.057008587 0.73900002 1.5674224e-39
0.0077418811 0.057008587 0.73899996 1.1075064e-39
0.0091494955 0.057008587 0.73899996 8.3269779e-40
0.010571421 0.057085708 0.74000001 5.571941e-40
0.01198094 0.057085719 0.74000001 8.3377959e-40
0.013426662 0.057240006 0.74200004 1.1085728e-39
0.014839991 0.057240006 0.74200004 1.2004139e-39
0.016253321 0.057240002 0.74200004 1.2900872e-39
0.017666664 0.057239994 0.74200004 7.3547851e-40
0.019105688 0.057317145 0.74299997 9.8086689e-41
0.020520935 0.057317141 0.74299997 7.277474e-39
0.021936182 0.057317138 0.74299997 1.4470786e-38
0.023414277 0.057471424 0.745 1.456873e-38
0.02483331 0.057471443 0.745 1.4655909e-38
0.026322842 0.057625707 0.74699998 9.4898118e-39
0.027782831 0.057702862 0.74800003 4.3423549e-39
0.029207591 0.057702862 0.74799997 7.7155101e-39
0.030714275 0.057857152 0.75000006 1.1163327e-38
0.032228552 0.058011439 0.75199997 1.4583521e-38
0.033795226 0.058242865 0.755 1.7984305e-38
0.035279982 0.058320001 0.75600004 1.7711313e-38
0.036914282 0.05862857 0.75999999 1.7339301e-38
0.038361877 0.058628574 0.75999999 1.7153833e-38
0.039861884 0.058705717 0.76100004 1.6876887e-38
0.041419983 0.058859989 0.76300001 1.696836e-38
0.042873312 0.058859989 0.76300001 1.7059126e-38
0.044442855 0.059014291 0.76500005 1.6875105e-38
-0.034242876 0.060471438 0.76499999 7.4048534e-40
-0.032785706 0.06047143 0.76500005 5.5465355e-40
-0.031246692 0.060313329 0.76300001 1.1982097e-39
-0.029793352 0.060313333 0.76300001 1.9336377e-39
-0.028265726 0.060155232 0.76100004 1.5681146e-39
-0.026816223 0.06015525 0.76100004 1.2039914e-39
-0.025366673 0.060155239 0.76100004 1.5706047e-39
-0.023822907 0.059918098 0.75799996 2.0298032e-39
-0.022320043 0.059759993 0.75600004 2.3081992e-39
-0.020880017 0.059760004 0.75600004 2.5807854e-39
-0.019440018 0.059760004 0.75600004 1.7520631e-39
-0.016785728 0.055728573 0.70500004 9.248766e-40
-0.015420969 0.055649526 0.704 1.2940627e-39
-0.014080008 0.055649519 0.704 1.5699321e-39
-0.012739082 0.055649526 0.704 1.0149759e-39
-0.011381927 0.055570487 0.70299995 4.596329e-40
-0.010042884 0.055570476 0.70299995 3.9640632e-39
-0.0087038288 0.055570483 0.70299995 7.4441248e-39
-0.0073647858 0.055570476 0.70299995 5.7096508e-39
-0.0060257302 0.055570487 0.70299995 3.953992e-39
-0.0046866895 0.055570483 0.70299995 2.0232704e-39
-0.003347632 0.055570472 0.70299995 9.4767013e-41
-0.0020028655 0.055412386 0.70099998 7.3801486e-40
-0.00070668064 0.058653332 0.74200004 1.3819465e-39
0.00070666097 0.058653325 0.74200004 2.7673781e-39
0.0021142676 0.058495246 0.73999995 4.2396355e-39
0.0035238056 0.058495231 0.74000001 3.2262361e-39
0.0049266568 0.058416206 0.73900002 2.2135177e-39
0.0063342727 0.058416206 0.73899996 1.843289e-39
0.0077418885 0.058416206 0.73899996 1.4737652e-39
0.009161897 0.058495238 0.74000001 1.1067525e-39
0.010571416 0.058495238 0.73999995 8.3197612e-40
0.011980936 0.058495238 0.73999995 9.234641e-40
0.013426673 0.058653329 0.74200004 1.1071421e-39
0.014839999 0.058653325 0.74200004 1.1989832e-39
0.01625333 0.058653325 0.74200004 1.2904516e-39
0.017690454 0.058732372 0.74299997 7.3620017e-40
0.019105703 0.058732368 0.74299997 9.2365187e-41
0.020520933 0.058732379 0.74300003 7.20002e-39
0.021936182 0.058732372 0.74300003 1.4402295e-38
0.023414284 0.058890477 0.74500006 1.2461557e-38
0.024899976 0.059048589 0.74699998 1.0539428e-38
0.02632284 0.059048578 0.74699998 7.8316749e-39
0.02778282 0.059127618 0.74799997 5.1433637e-39
