# .PCD v0.7 - Point Cloud Data file format
VERSION 0.7
FIELDS x y z rgb
SIZE 4 4 4 4
TYPE F F F F
COUNT 1 1 1 1
WIDTH 976
HEIGHT 1
VIEWPOINT 0 0 0 1 0 0 0
POINTS 976
DATA ascii
0.0077838232 0.047410499 0.74300003 1.7453691e-39
0.0091866488 0.047346681 0.74200004 2.5855246e-39
0.010600018 0.047346678 0.74200004 3.5042299e-39
0.012013352 0.047346685 0.74200004 2.4915199e-39
0.013426685 0.047346689 0.74200004 1.4766393e-39
0.014800024 0.047219057 0.74000007 1.1989538e-39
0.016209546 0.04721906 0.74000007 8.3093356e-40
0.01761907 0.047219049 0.74000001 6.473018e-40
0.019028598 0.047219057 0.74000001 4.636224e-40
0.020438099 0.047219057 0.74000007 8.3095598e-40
0.021847622 0.047219064 0.74000007 1.2919145e-39
0.023319988 0.047346689 0.74200004 2.1209311e-39
0.024733322 0.047346693 0.74200004 2.9492442e-39
0.026181912 0.047410492 0.74300003 1.6578061e-39
0.027597168 0.047410496 0.74300009 4.6142937e-40
0.029090488 0.04753809 0.74500012 7.3764772e-40
0.030509515 0.047538105 0.74500006 1.1067932e-39
0.03201431 0.04766573 0.7470001 1.6603271e-39
0.033481903 0.047729541 0.74800003 2.30713e-39
0.0349067 0.047729544 0.74800009 3.0436161e-39
0.036428563 0.047857165 0.75000006 3.871506e-39
0.037857167 0.047857169 0.75000006 2.026122e-39
0.039390519 0.047984764 0.75200009 1.8449636e-40
0.040877149 0.048048586 0.75300002 7.1084956e-39
0.042311423 0.048048593 0.75300002 1.4117826e-38
0.043861888 0.04817621 0.75500005 1.5407883e-38
0.045600016 0.048495259 0.76000005 1.6693935e-38
0.047233302 0.048686691 0.76300001 1.6599943e-38
0.048814308 0.048814297 0.7650001 1.6599229e-38
0.050271429 0.048814297 0.7650001 1.6785057e-38
0.072296172 0.04702764 0.73700005 2.3417638e-38
0.073900007 0.047155261 0.73900008 2.341769e-38
0.075307652 0.047155246 0.73900008 2.341769e-38
0.076715246 0.047155265 0.73900008 2.2312435e-38
0.078122891 0.047155257 0.73900008 2.1200944e-38
0.079853334 0.047346693 0.74200004 1.7229636e-38
0.081266664 0.0473467 0.74200004 1.3275736e-38
-0.023980005 0.050140005 0.76300007 2.7666368e-39
-0.022467624 0.050008591 0.76100004 2.3989417e-39
-0.021018079 0.050008595 0.7610001 2.0276523e-39
-0.019568549 0.050008591 0.76100004 1.6577977e-39
-0.017999999 0.049680017 0.7560001 1.2890334e-39
-0.016559971 0.049680024 0.7560001 7.3552195e-40
-0.015100021 0.049614307 0.75500011 9.4132224e-41
-0.01362569 0.049482875 0.75300002 9.2362384e-41
-0.01217524 0.049417157 0.75200003 1.0242511e-40
-0.010742828 0.049417157 0.75200009 4.6261206e-40
-0.0092857219 0.049285743 0.75000006 8.5543106e-40
-0.0078361854 0.0491543 0.74800009 4.812974e-39
-0.0064028311 0.049088575 0.7470001 8.7665863e-39
-0.0049799974 0.049088586 0.7470001 1.0706991e-38
-0.0035571265 0.049088594 0.7470001 1.2633682e-38
-0.0021228134 0.048825718 0.74300009 1.301352e-38
-0.00070759788 0.048825733 0.74300003 1.3359331e-38
0.00070766039 0.048825737 0.74300009 9.3160508e-39
0.0021228553 0.048825741 0.74300003 5.1586855e-39
0.0035381098 0.048825726 0.74300009 2.6640449e-39
0.0049533644 0.048825733 0.74300009 1.8845503e-40
0.0063685835 0.04882573 0.74300003 1.5685224e-39
0.0077838381 0.04882573 0.74300009 2.9474884e-39
0.009199095 0.048825733 0.74300009 3.1351054e-39
0.010614314 0.048825741 0.74300003 3.2283689e-39
0.012013317 0.048760023 0.74200004 2.583361e-39
0.013426649 0.04876003 0.74200004 1.8450701e-39
0.014839984 0.048760023 0.74200004 1.47484e-39
0.016253315 0.048760027 0.74200004 1.1071631e-39
0.017666683 0.048760008 0.74200004 8.3347411e-40
0.01902858 0.048628572 0.74000001 5.5616835e-40
0.020438103 0.04862858 0.74000001 8.3095177e-40
0.021906683 0.04876003 0.74200004 1.0167639e-39
0.023319995 0.048760016 0.74200004 1.2954892e-39
0.024733327 0.048760023 0.74200004 1.4766435e-39
0.026181927 0.048825737 0.74300003 1.1031988e-39
0.027671425 0.04895715 0.74500006 6.4543947e-40
0.029168585 0.049088575 0.7470001 1.012766e-39
0.030591456 0.049088575 0.7470001 1.2908061e-39
0.032057155 0.049154308 0.74800009 1.7521598e-39
0.033481915 0.0491543 0.74800003 2.2145701e-39
0.034999989 0.049285732 0.75000006 3.0457572e-39
0.036428593 0.049285736 0.75000012 3.8697207e-39
0.037857156 0.049285747 0.75000006 2.025434e-39
0.039390493 0.049417157 0.75200003 1.9564088e-40
0.040877152 0.049482871 0.75300002 7.2957736e-39
0.042311426 0.049482875 0.75300002 1.4298998e-38
0.043861873 0.04961431 0.75500005 1.5596585e-38
0.045660015 0.050008588 0.76100004 1.6877973e-38
0.047233328 0.050140005 0.76300001 1.6783263e-38
0.048941914 0.05040288 0.76700002 1.6691787e-38
0.050402846 0.050402876 0.76700002 1.6876893e-38
0.07229618 0.048431434 0.73700011 2.3417649e-38
0.073900022 0.048562892 0.73900002 2.341769e-38
0.075409517 0.048628591 0.74000001 2.341769e-38
0.076819032 0.048628584 0.74000001 2.2958513e-38
0.078228563 0.048628584 0.74000001 2.2391215e-38
0.07996098 0.048825726 0.74300003 1.7684146e-38
0.081376232 0.048825733 0.74300009 1.2909825e-38
-0.0225267 0.051593337 0.76300001 2.7655676e-39
-0.021018069 0.051458117 0.7610001 2.2120253e-39
-0.019542815 0.051390484 0.76000011 1.935423e-39
-0.017999986 0.051120013 0.7560001 1.6599221e-39
-0.016559957 0.051120006 0.7560001 1.1056847e-39
-0.015100036 0.05105241 0.75500005 5.5248995e-40
-0.013661893 0.051052399 0.75500011 5.5210179e-40
-0.012191413 0.050917156 0.75300002 6.4326886e-40
-0.010757138 0.05091716 0.75300002 8.2842383e-40
-0.0092857294 0.050714303 0.75000006 1.1025136e-39
-0.0078571262 0.050714307 0.75000006 2.7659726e-39
-0.006428584 0.050714314 0.75000006 4.5011879e-39
-0.0049866452 0.050579071 0.74800009 5.4396585e-39
-0.0035571302 0.050511431 0.7470001 6.3652315e-39
-0.0021285596 0.050376192 0.74500012 6.647596e-39
-0.0007076016 0.050240975 0.74300009 6.9277085e-39
0.00070765294 0.050240964 0.74300009 5.7201578e-39
0.002122872 0.050240975 0.74300003 4.5212278e-39
0.0035381266 0.05024096 0.74300009 3.5027389e-39
0.0049533849 0.050240964 0.74300009 2.5822722e-39
0.0063686022 0.050240971 0.74300003 3.138348e-39
0.0077838344 0.05024096 0.74300009 3.6882792e-39
0.0091990521 0.050240971 0.74300003 3.5049614e-39
0.010614309 0.050240971 0.74300009 3.4145552e-39
0.012013343 0.050173353 0.74200004 2.3082188e-39
0.013426677 0.050173361 0.74200004 1.2022356e-39
0.014840008 0.050173353 0.74200004 1.1993531e-39
0.016209537 0.050038103 0.74000001 1.1050149e-39
0.017666651 0.05017335 0.74200004 8.313105e-40
0.019079985 0.05017335 0.74200004 4.6396712e-40
0.020493314 0.050173357 0.74200004 7.394708e-40
0.021906646 0.050173361 0.74200004 1.0153276e-39
0.02331998 0.050173353 0.74200004 1.2011426e-39
0.024766691 0.050240971 0.74300003 1.4769994e-39
0.026181923 0.050240967 0.74300009 1.198972e-39
0.02759718 0.050240956 0.74300009 1.0149156e-39
0.029090466 0.050376203 0.74500012 9.2305352e-40
0.030591452 0.050511435 0.7470001 8.3268938e-40
0.032057162 0.050579064 0.74800009 1.6599613e-39
0.0334819 0.050579056 0.74800003 2.4875584e-39
0.034906697 0.050579056 0.74800009 3.2276234e-39
0.036428586 0.05071431 0.75000006 3.8729591e-39
0.03785713 0.050714307 0.75000006 2.1187324e-39
0.039390504 0.050849542 0.75200003 3.6785626e-40
0.040822893 0.050849527 0.75200009 7.3876273e-39
0.042423815 0.051052395 0.75500005 1.4400533e-38
0.043861896 0.051052406 0.75500005 1.5594081e-38
0.045780007 0.051593345 0.76300007 1.6876904e-38
0.047357164 0.051728576 0.7650001 1.6967659e-38
0.048941907 0.051863827 0.76700002 1.715061e-38
0.050402839 0.051863831 0.76700002 1.7060564e-38
0.071373351 0.050173357 0.74200004 1.9185664e-38
0.072590441 0.050038114 0.74000001 2.3417661e-38
0.074000031 0.050038099 0.74000001 2.341769e-38
0.075409539 0.050038099 0.74000007 2.341769e-38
0.077026658 0.050173342 0.74200004 2.2312435e-38
0.078439988 0.05017335 0.74200004 2.120094e-38
0.079853319 0.050173357 0.74200004 1.6955556e-38
0.081376255 0.05024096 0.74300009 1.2727586e-38
-0.022526672 0.05304667 0.76300007 3.0414314e-39
-0.02099042 0.052838102 0.76000011 2.3049398e-39
-0.019568533 0.052907638 0.7610001 2.1198199e-39
-0.018047627 0.052699074 0.75800002 1.9347251e-39
-0.016560005 0.05256002 0.7560001 1.4744841e-39
-0.015100012 0.052490495 0.75500005 9.2129769e-40
-0.013661906 0.052490503 0.75500005 1.0123961e-39
-0.012191407 0.052351452 0.75300002 1.1049757e-39
-0.010757134 0.052351445 0.75300002 1.2893908e-39
-0.0093104532 0.052281905 0.75200009 1.3812417e-39
-0.00787808 0.05228192 0.75200003 8.3096018e-40
-0.0064285542 0.052142881 0.75000012 1.8704112e-40
-0.0049999892 0.052142877 0.75000006 1.8453559e-40
-0.0035619005 0.052003819 0.74800009 1.0276983e-40
-0.0021285615 0.051795244 0.74500012 2.8395492e-40
-0.00070953503 0.051795244 0.74500006 4.7262995e-40
0.00070950441 0.051795244 0.74500012 2.2074402e-39
0.0021285699 0.051795248 0.74500012 3.871939e-39
0.003538121 0.051656205 0.74300009 4.4265183e-39
0.0049533383 0.051656216 0.74300003 4.8900188e-39
0.0063685947 0.051656201 0.74300009 4.6217051e-39
0.0077838511 0.051656209 0.74300009 4.3375835e-39
0.0091990689 0.051656205 0.74300003 3.9655738e-39
0.010614325 0.051656205 0.74300009 3.5964311e-39
0.01201331 0.051586691 0.74200004 2.1238276e-39
0.013426644 0.051586695 0.74200004 5.5866967e-40
0.014840015 0.051586676 0.7420001 8.3129929e-40
0.016253343 0.051586684 0.74200004 1.1060995e-39
0.017666675 0.051586676 0.74200004 7.3912889e-40
0.019105757 0.051656205 0.74300009 3.7177709e-40
0.02052098 0.051656216 0.74300003 7.3911067e-40
0.021936212 0.051656198 0.74300009 1.0153248e-39
0.023351466 0.051656201 0.74300009 1.2004223e-39
0.024766684 0.051656216 0.74300003 1.3840905e-39
0.026252376 0.051795252 0.74500012 1.3848052e-39
0.027745752 0.051934287 0.7470001 1.2911564e-39
0.0291686 0.051934287 0.7470001 8.3160197e-40
0.030591436 0.051934298 0.7470001 2.8096174e-40
0.032057155 0.052003819 0.74800009 1.5677503e-39
0.033481911 0.052003816 0.74800003 2.7648516e-39
0.035000011 0.052142873 0.75000006 3.3201819e-39
0.036428552 0.052142885 0.75000006 3.8686712e-39
0.037958108 0.052281924 0.75200003 2.208445e-39
0.039390497 0.052281912 0.75200009 4.744152e-40
0.040877137 0.052351441 0.75300002 7.4862815e-39
0.0424238 0.052490503 0.75500005 1.4485196e-38
0.043920018 0.052560024 0.75600004 1.5685558e-38
0.04566003 0.052907631 0.7610001 1.6785065e-38
0.047357157 0.053185731 0.76500005 1.7151324e-38
0.048941899 0.053324781 0.76700002 1.751974e-38
0.050402872 0.053324785 0.76700008 1.7245667e-38
0.051863801 0.053324785 0.76700002 1.6877969e-38
0.071180962 0.051447622 0.74000007 2.0846264e-38
0.072590493 0.05144763 0.74000007 2.3417675e-38
0.074000008 0.05144763 0.74000007 2.341769e-38
0.075409539 0.051447626 0.74000001 2.341769e-38
0.077026688 0.051586676 0.74200004 2.1672816e-38
0.078440018 0.051586684 0.74200004 1.9904481e-38
0.079853356 0.051586688 0.74200004 1.6209035e-38
-0.022438087 0.05428572 0.76000011 2.7662823e-39
-0.021018093 0.054357156 0.7610001 2.2141847e-39
-0.019568563 0.054357167 0.76100004 2.0283515e-39
-0.018047631 0.05414287 0.75800002 1.9340231e-39
-0.016559988 0.05400002 0.7560001 1.5659819e-39
-0.015100027 0.053928599 0.75500005 1.1053582e-39
-0.013661946 0.053928584 0.75500005 9.2311097e-40
-0.012191429 0.053785723 0.75300002 7.4016305e-40
-0.010757132 0.05378573 0.75300002 1.1075092e-39
-0.0093104402 0.053714294 0.75200009 1.4752226e-39
-0.0078780884 0.053714301 0.75200009 1.200086e-39
-0.0064285598 0.053571459 0.75000006 9.2456412e-40
-0.0049999948 0.053571455 0.75000006 9.234725e-40
-0.003571413 0.053571455 0.75000012 9.2455711e-40
-0.0021285634 0.053214297 0.74500006 1.2000706e-39
-0.00070952013 0.053214297 0.74500012 1.4709332e-39
0.00070950441 0.053214293 0.74500006 3.0400484e-39
0.0021285699 0.0532143 0.74500006 4.6080747e-39
0.0035476335 0.0532143 0.74500012 5.3513739e-39
0.0049533569 0.05307145 0.74300003 6.0928695e-39
0.0063686133 0.053071436 0.74300009 5.352799e-39
0.0077838306 0.053071447 0.74300003 4.5230481e-39
0.0091990633 0.053071447 0.74300009 4.1513971e-39
0.01061432 0.05307145 0.74300009 3.6882652e-39
0.012029537 0.053071447 0.74300003 2.4908066e-39
0.013426666 0.053000029 0.74200004 1.3837556e-39
0.014839998 0.053000022 0.74200004 1.1979294e-39
0.016253332 0.053000025 0.74200004 1.1053919e-39
0.017690523 0.053071447 0.74300009 8.3025813e-40
0.019105716 0.053071443 0.74300003 5.5509496e-40
0.020520972 0.053071447 0.74300009 8.3058463e-40
0.021936227 0.053071432 0.74300009 1.1067988e-39
0.023414282 0.053214282 0.74500012 1.2908187e-39
0.024833309 0.053214297 0.74500006 1.4737764e-39
0.026252372 0.0532143 0.74500012 1.6581691e-39
0.027745707 0.053357147 0.7470001 1.9336644e-39
0.029168582 0.053357154 0.7470001 1.2904445e-39
0.030632367 0.05342859 0.74800003 7.3906723e-40
0.032057166 0.053428579 0.74800009 2.0265508e-39
0.033571437 0.053571459 0.75000006 3.3169351e-39
0.035000008 0.053571455 0.75000006 3.5982037e-39
0.036428586 0.053571451 0.75000012 3.8694054e-39
0.037958115 0.053714309 0.75200003 2.1187913e-39
0.039390504 0.053714294 0.75200009 3.7613934e-40
0.040985715 0.053928588 0.75500011 7.6670854e-39
0.042423796 0.053928595 0.75500011 1.4949397e-38
0.04392001 0.054000016 0.7560001 1.6051465e-38
0.045660038 0.054357156 0.7610001 1.715097e-38
0.047233298 0.054500006 0.76300001 1.7244588e-38
0.048941892 0.054785732 0.76700002 1.7337141e-38
0.050468609 0.054857153 0.76800007 1.6878681e-38
0.052066695 0.055000015 0.77000004 1.6419151e-38
0.072590478 0.052857149 0.74000007 2.3142182e-38
0.074200004 0.053000022 0.74200004 2.3234019e-38
0.075613342 0.053000025 0.74200004 2.341769e-38
0.077130497 0.053071443 0.74300003 2.0561821e-38
0.078439981 0.053000018 0.74200004 1.7687514e-38
-0.022467591 0.055806682 0.7610001 2.4904157e-39
-0.021073377 0.055953346 0.76300001 2.0301522e-39
-0.019620024 0.055953354 0.76300007 2.0290676e-39
-0.01804762 0.055586673 0.75800008 1.9347378e-39
-0.016559975 0.055440012 0.7560001 1.6574544e-39
-0.015100003 0.055366691 0.75500005 1.2904614e-39
-0.01366192 0.055366684 0.75500011 8.337852e-40
-0.012191424 0.055220023 0.75300002 3.7388885e-40
-0.010742839 0.055146672 0.75200009 1.0167359e-39
-0.0093104281 0.055146679 0.75200009 1.5674056e-39
-0.0078571327 0.055000022 0.75000006 1.6610488e-39
-0.0064285672 0.055000033 0.75000006 1.6599599e-39
-0.0049999873 0.055000018 0.75000012 1.6599473e-39
-0.0035714223 0.05500003 0.75000006 1.6613977e-39
-0.0021342593 0.054779999 0.7470001 2.0294711e-39
-0.00071142562 0.054780014 0.74700004 2.3953894e-39
0.00070954353 0.054633334 0.74500012 3.8733767e-39
0.0021285661 0.054633345 0.74500006 5.3492117e-39
0.0035476093 0.054633345 0.74500012 6.3701725e-39
0.0049533495 0.054486681 0.74300009 7.2820717e-39
0.0063686059 0.054486681 0.74300009 5.9892001e-39
0.0077838232 0.054486677 0.74300003 4.7038521e-39
0.0091990819 0.054486681 0.74300009 4.2443074e-39
0.010614297 0.054486688 0.74300003 3.7811755e-39
0.012029554 0.054486677 0.74300003 2.951419e-39
0.01344481 0.054486685 0.74300009 2.1187927e-39
0.014860005 0.054486688 0.74300003 1.6549447e-39
0.016253334 0.054413356 0.74200004 1.1046618e-39
0.017690513 0.054486677 0.74300009 9.2100342e-40
0.019105731 0.054486677 0.74300003 6.4620458e-40
0.020520991 0.054486681 0.74300009 9.2170266e-40
0.021936245 0.054486681 0.74300009 1.1979182e-39
0.02335144 0.054486688 0.74300009 1.3819409e-39
0.024833348 0.054633342 0.74500012 1.4730618e-39
0.026252374 0.054633349 0.74500006 2.0240789e-39
0.027745729 0.05478001 0.7470001 2.4839655e-39
0.029207619 0.054853339 0.74800009 1.8407499e-39
0.030632379 0.05485335 0.74800003 1.1049939e-39
0.032057177 0.054853357 0.74800009 2.4828893e-39
0.033571433 0.055000033 0.75000006 3.7876439e-39
0.035000015 0.055000015 0.75000012 3.8863415e-39
0.036428578 0.05500003 0.75000006 3.8730292e-39
0.03795813 0.055146679 0.75200003 2.1130502e-39
0.039390478 0.055146687 0.75200003 2.9075682e-40
0.040877141 0.055220015 0.75300002 7.8557745e-39
0.042423781 0.055366699 0.75500005 1.5309564e-38
0.043920025 0.055440027 0.7560001 1.641989e-38
0.045660008 0.055806685 0.76100004 1.7430066e-38
0.047233324 0.055953339 0.76300007 1.7338218e-38
0.048941884 0.056246679 0.76700002 1.7155619e-38
0.05046859 0.056320023 0.76800001 1.6512049e-38
0.072884776 0.054486692 0.74300003 2.2769089e-38
0.074200004 0.054413348 0.74200004 2.3142183e-38
0.075715289 0.054486685 0.74300009 2.3417631e-38
0.077130511 0.054486677 0.74300003 1.9468646e-38
0.078440003 0.054413348 0.74200004 1.5484491e-38
-0.022526702 0.057406675 0.76300001 2.8573961e-39
-0.021073351 0.057406679 0.76300007 2.3052985e-39
-0.019620012 0.057406679 0.76300001 2.0279886e-39
-0.018047623 0.057030488 0.75800008 1.751064e-39
-0.016559998 0.05688002 0.7560001 1.5659735e-39
-0.015100018 0.05680478 0.75500005 1.2893824e-39
-0.013661935 0.056804787 0.75500005 9.2382563e-40
-0.01219142 0.056654293 0.75300002 6.4974707e-40
-0.010742827 0.056579057 0.75200009 1.1074812e-39
-0.0093104541 0.056579072 0.75200003 1.5656007e-39
-0.0078571402 0.0564286 0.75000006 1.6596054e-39
-0.0064285598 0.0564286 0.75000012 1.7517898e-39
-0.0049999948 0.056428593 0.75000006 1.4784259e-39
-0.0035714298 0.056428593 0.75000006 1.296571e-39
-0.002134278 0.056202866 0.7470001 1.9362119e-39
-0.00071142934 0.056202866 0.7470001 2.574757e-39
0.00070951745 0.056052379 0.74500012 4.0573994e-39
0.0021285811 0.056052387 0.74500012 5.5346721e-39
0.0035476075 0.056052398 0.74500006 6.1814779e-39
0.0049666711 0.056052383 0.74500006 6.9111466e-39
0.0063685854 0.055901922 0.74300003 5.6197155e-39
0.0077838418 0.055901926 0.74300009 4.4258386e-39
0.0091990987 0.055901915 0.74300009 4.1506755e-39
0.010614294 0.055901919 0.74300003 3.8737271e-39
0.012029548 0.055901922 0.74300009 3.0418182e-39
0.013444806 0.05590193 0.74300009 2.3017406e-39
0.01486002 0.055901922 0.74300003 1.7478452e-39
0.016253322 0.055826694 0.74200004 1.1968434e-39
0.017690495 0.055901922 0.74300003 1.013541e-39
0.019105727 0.055901919 0.74300009 8.291511e-40
0.020520983 0.055901922 0.74300009 1.1053723e-39
0.021995258 0.056052387 0.74500012 1.3812319e-39
0.023414284 0.056052387 0.74500006 1.3808675e-39
0.02483335 0.056052387 0.74500012 1.3794368e-39
0.026322873 0.056202877 0.7470001 1.6567398e-39
0.027745748 0.056202866 0.7470001 2.0255111e-39
0.029207632 0.056278102 0.74800009 1.2890278e-39
0.030632386 0.05627811 0.74800003 6.4332491e-40
0.032057185 0.056278113 0.74800009 4.4222275e-39
0.033571441 0.0564286 0.75000012 8.3113128e-39
0.035000004 0.056428596 0.75000006 9.6892712e-39
0.036428571 0.056428604 0.75000006 1.1040898e-38
0.037958119 0.056579061 0.75200009 5.6099709e-39
0.039442852 0.056654304 0.75300002 1.8528669e-40
0.040985726 0.056804784 0.75500011 5.5405099e-39
0.042480037 0.05688002 0.7560001 1.0992221e-38
0.043919999 0.056880012 0.75600004 1.3937469e-38
0.045600042 0.05718096 0.76000011 1.6883004e-38
0.047109544 0.057256218 0.76100004 1.651421e-38
0.048814308 0.057557147 0.7650001 1.6149013e-38
0.050468612 0.057782881 0.76800007 1.5679783e-38
0.071373336 0.05582669 0.74200004 1.9626916e-38
0.072786666 0.055826694 0.74200004 1.5863479e-38
0.074199997 0.055826686 0.74200004 1.9646695e-38
0.075715251 0.055901922 0.74300003 2.3417572e-38
0.077130504 0.055901922 0.74300009 1.8711603e-38
-0.022585699 0.059014294 0.7650001 3.3155044e-39
-0.021073362 0.058860004 0.76300007 2.4875444e-39
-0.019620024 0.058860023 0.76300001 2.026569e-39
-0.018047627 0.058474299 0.75800008 1.5663224e-39
-0.016559983 0.058320012 0.7560001 1.4741352e-39
-0.015099994 0.058242872 0.75500005 1.2897411e-39
-0.013661911 0.05824288 0.75500011 1.1057058e-39
-0.012191417 0.058088593 0.75300002 8.316314e-40
-0.010757144 0.058088586 0.75300002 1.1978958e-39
-0.0093104653 0.058011435 0.75200009 1.5666853e-39
-0.007878053 0.058011439 0.75200009 1.6603257e-39
-0.0064285672 0.05785716 0.75000006 1.753952e-39
-0.0050000022 0.057857174 0.75000006 1.2965668e-39
-0.0035714223 0.057857171 0.75000012 8.3632996e-40
-0.0021342817 0.057625722 0.7470001 1.8443862e-39
-0.00071140885 0.057625726 0.7470001 2.7641719e-39
0.00070951745 0.057471432 0.74500006 4.2468088e-39
0.0021285829 0.057471432 0.74500012 5.7194319e-39
0.0035476447 0.057471436 0.74500012 6.0936164e-39
0.0049666488 0.057471447 0.74500006 6.4512614e-39
0.0063857124 0.057471436 0.74500012 5.3355924e-39
0.0078047779 0.057471439 0.74500012 4.1467406e-39
0.009199054 0.057317168 0.74300003 4.0581197e-39
0.010614309 0.057317168 0.74300009 3.8726523e-39
0.012029565 0.057317156 0.74300009 3.2240627e-39
0.013444784 0.057317168 0.74300003 2.4847026e-39
0.014860039 0.057317153 0.74300003 1.9300911e-39
0.01627527 0.057317153 0.74300009 1.2890418e-39
0.017690487 0.057317164 0.74300003 1.1982882e-39
0.019105742 0.057317153 0.74300009 1.0139011e-39
0.020520963 0.057317164 0.74300003 1.2890503e-39
0.021995256 0.057471436 0.74500012 1.5645483e-39
0.023414256 0.057471447 0.74500006 1.4723471e-39
0.024900021 0.05762573 0.7470001 1.2890348e-39
0.026322896 0.057625722 0.7470001 1.3815892e-39
0.027782846 0.057702873 0.74800003 1.473782e-39
0.029207639 0.057702862 0.74800009 8.3021609e-40
0.030632375 0.057702869 0.74800009 9.4844084e-41
0.032057133 0.057702877 0.74800003 6.4347527e-39
0.033571433 0.05785716 0.75000006 1.2815239e-38
0.034999996 0.057857171 0.75000006 1.5610553e-38
0.036428578 0.057857167 0.75000012 1.8233148e-38
0.037958134 0.058011431 0.75200009 9.192993e-39
0.039442856 0.058088589 0.75300002 9.6619529e-41
0.040985711 0.058242887 0.75500005 3.3126612e-39
0.042480011 0.058320023 0.75600004 6.5564219e-39
0.043920014 0.058320027 0.7560001 1.1453938e-38
0.045480013 0.058474295 0.75800008 1.6230097e-38
0.04692379 0.058474306 0.75800002 1.5685897e-38
0.048559058 0.05870574 0.76100004 1.5125185e-38
0.070431456 0.057625726 0.7470001 2.3397518e-38
0.07166189 0.057471439 0.74500006 1.6176559e-38
0.073080957 0.057471447 0.74500006 8.9625088e-39
0.074300013 0.057317164 0.74300003 1.6254521e-38
0.075613335 0.05724002 0.74200004 2.3410406e-38
0.077130519 0.05731716 0.74300009 1.7971197e-38
-0.022585727 0.060471453 0.7650001 2.9470918e-39
-0.021128567 0.060471445 0.7650001 2.4861207e-39
-0.019620035 0.060313359 0.76300001 1.8421946e-39
-0.018095208 0.060076214 0.76000011 1.1053568e-39
-0.016603792 0.059918106 0.75800002 1.197907e-39
-0.015120002 0.059760023 0.7560001 1.3812165e-39
-0.013661926 0.059680983 0.75500005 1.2900956e-39
-0.012223844 0.059680976 0.75500005 1.1989818e-39
-0.010757141 0.059522875 0.75300002 1.3833745e-39
-0.0093104504 0.05944382 0.75200009 1.5677699e-39
-0.0078780781 0.05944382 0.75200003 1.5692105e-39
-0.0064456896 0.05944382 0.75200009 1.6639214e-39
-0.0049999724 0.059285738 0.75000006 1.4795372e-39
-0.0035714279 0.059285734 0.75000006 1.2958802e-39
-0.002134263 0.059048582 0.7470001 1.6600076e-39
-0.00071139022 0.059048571 0.7470001 2.023035e-39
0.00071144343 0.059048586 0.7470001 4.2417851e-39
0.0021285587 0.058890477 0.74500012 6.4519761e-39
0.0035571647 0.059048574 0.7470001 7.0102044e-39
0.004966686 0.058890492 0.74500012 7.5568845e-39
0.0063857124 0.058890484 0.74500006 5.7111783e-39
0.0078047742 0.058890488 0.74500006 3.8694349e-39
0.0091990726 0.058732398 0.74300003 3.7815342e-39
0.010614327 0.058732402 0.74300009 3.7833307e-39
0.012029522 0.058732394 0.74300003 2.9471283e-39
0.013444777 0.058732398 0.74300009 2.1148579e-39
0.014860033 0.058732398 0.74300009 1.5645511e-39
0.016275251 0.058732394 0.74300003 1.1060925e-39
0.017690508 0.058732398 0.74300009 1.1060925e-39
0.019157166 0.058890484 0.74500012 1.0146214e-39
0.020576188 0.058890495 0.74500006 1.2890559e-39
0.021995232 0.058890481 0.74500012 1.5645525e-39
0.023414297 0.058890484 0.74500012 1.4727072e-39
0.024900042 0.059048586 0.7470001 1.2893936e-39
0.026322851 0.059048582 0.7470001 1.2897495e-39
0.027782854 0.059127636 0.74800003 1.1989944e-39
0.029207651 0.059127636 0.74800009 8.2986296e-40
0.030632386 0.059127625 0.74800009 3.682206e-40
0.032057147 0.059127636 0.74800003 3.4153385e-39
0.033571422 0.059285752 0.75000006 6.4861636e-39
0.03500003 0.059285738 0.75000006 1.2283712e-38
0.036525734 0.059443813 0.75200009 1.8078198e-38
0.038008559 0.059522871 0.75300002 1.3636613e-38
0.039547589 0.05968098 0.75500005 9.0924932e-39
0.040985711 0.059680965 0.75500011 6.25594e-39
0.042480003 0.059760019 0.7560001 3.4059596e-39
0.043920029 0.059760023 0.7560001 6.2766849e-39
0.045480009 0.059918106 0.75800008 9.2337259e-39
0.046923786 0.059918102 0.75800002 1.1346668e-38
0.048367623 0.059918109 0.75800002 1.3457434e-38
0.049811434 0.059918098 0.75800002 1.5215206e-38
0.070431456 0.059048578 0.7470001 2.0475978e-38
0.071469553 0.058732398 0.74300009 1.4458519e-38
0.072884813 0.058732405 0.74300009 8.494328e-39
0.074300028 0.058732398 0.74300003 1.4954116e-38
0.07561332 0.058653362 0.74200004 2.1396851e-38
-0.025566693 0.062090486 0.76700002 1.8486378e-39
-0.024105724 0.062090497 0.76700008 2.5815351e-39
-0.022585716 0.061928585 0.7650001 2.5797484e-39
-0.021073358 0.061766673 0.76300001 2.4864724e-39
-0.019620005 0.061766673 0.76300001 1.5663196e-39
-0.018095231 0.061523829 0.76000005 6.4689122e-40
-0.016603796 0.061361916 0.75800002 1.0145961e-39
-0.015119986 0.061200015 0.7560001 1.3822899e-39
-0.013679958 0.061200023 0.7560001 1.4744785e-39
-0.012223821 0.061119068 0.75500011 1.4748414e-39
-0.010785715 0.061119065 0.75500005 1.568116e-39
-0.0093228389 0.060957167 0.75300002 1.5681244e-39
-0.0078780903 0.060876198 0.75200009 1.5688503e-39
-0.0064456784 0.060876206 0.75200009 1.4777365e-39
-0.0050000041 0.060714312 0.75000006 1.6621292e-39
-0.0035714391 0.060714308 0.75000006 1.7529025e-39
-0.0021342817 0.060471449 0.74700004 1.5681693e-39
-0.00071140885 0.060471453 0.7470001 1.2951641e-39
0.00071238592 0.0605524 0.74800003 4.2450095e-39
0.0021343105 0.060471445 0.7470001 7.0987706e-39
0.0035571833 0.060471434 0.7470001 7.8464138e-39
0.0049799946 0.060471442 0.7470001 8.5720972e-39
0.0064028674 0.060471449 0.7470001 6.0828208e-39
0.00780475 0.060309537 0.74500012 3.5071151e-39
0.009223816 0.060309522 0.74500012 3.5993024e-39
0.01064288 0.060309529 0.74500012 3.5960724e-39
0.012029537 0.060147643 0.74300003 2.6665953e-39
0.013444795 0.060147647 0.74300009 1.6567538e-39
0.01486005 0.060147628 0.74300009 1.290118e-39
0.016275266 0.060147639 0.74300003 9.2241873e-40
0.017738098 0.060309529 0.74500006 1.0138955e-39
0.019157141 0.060309529 0.74500012 1.0135382e-39
0.020631444 0.060471442 0.7470001 1.2879699e-39
0.022054316 0.060471434 0.7470001 1.5645427e-39
0.023477187 0.060471442 0.7470001 1.4730562e-39
0.024900002 0.060471434 0.7470001 1.2893697e-39
0.026358107 0.060552396 0.74800009 1.1056833e-39
0.027782865 0.060552411 0.74800003 9.223907e-40
0.029207639 0.060552392 0.74800009 8.3021749e-40
0.030714283 0.060714304 0.75000006 6.4655771e-40
0.032142852 0.060714316 0.75000006 3.7213863e-40
0.033571456 0.060714304 0.75000006 1.2040517e-40
0.035 0.060714312 0.75000006 9.0511451e-39
0.036525749 0.060876194 0.75200009 1.7886679e-38
0.038008563 0.060957167 0.75300002 1.8090395e-38
0.039442863 0.060957164 0.75300002 1.8139838e-38
0.040985696 0.061119068 0.75500005 9.212719e-39
0.042480018 0.061200012 0.7560001 1.9388366e-40
0.043920007 0.061200026 0.75600004 1.1965968e-39
0.045480005 0.061361916 0.75800002 2.1336002e-39
0.046923783 0.06136192 0.75800002 6.9169339e-39
0.04836762 0.061361924 0.75800002 1.1707473e-38
0.049811434 0.061361909 0.75800002 1.5591497e-38
0.051255267 0.06136192 0.75800002 1.9442868e-38
0.069100976 0.0605524 0.74800009 2.0475636e-38
0.070431434 0.060471445 0.7470001 1.7496645e-38
0.071661904 0.060309529 0.74500012 1.2687761e-38
0.073277153 0.060471438 0.7470001 7.9464917e-39
0.074499972 0.06030954 0.74500012 1.3670524e-38
0.075613327 0.060066685 0.74200004 1.9360659e-38
-0.027133333 0.063800007 0.77000004 1.6638654e-39
-0.025666634 0.063800015 0.7700001 2.2152553e-39
-0.024105711 0.063551448 0.76700002 2.6740838e-39
-0.022644779 0.063551463 0.76700002 2.6722986e-39
-0.02107333 0.063220002 0.76300001 2.7619733e-39
-0.019620016 0.063220017 0.76300001 2.0254858e-39
-0.018095212 0.06297145 0.76000011 1.289018e-39
-0.0166038 0.062805727 0.75800002 1.3822983e-39
-0.015119973 0.062640011 0.7560001 1.4744827e-39
-0.013680005 0.062640026 0.7560001 1.4741127e-39
-0.012239976 0.062640011 0.7560001 1.4741183e-39
-0.010785753 0.062557161 0.75500005 1.5666755e-39
-0.0093228603 0.062391449 0.75300002 1.5677615e-39
-0.0078780754 0.062308587 0.75200009 1.5677713e-39
-0.0064457036 0.062308587 0.75200003 1.5674168e-39
-0.0050000115 0.06214289 0.75000006 1.4763016e-39
-0.0035714074 0.062142879 0.75000006 1.4755995e-39
-0.002134263 0.06189429 0.7470001 1.5681665e-39
-0.00071141258 0.061894294 0.7470001 1.5692315e-39
0.00071237289 0.061977152 0.74800009 3.781523e-39
0.0021342938 0.061894309 0.74700004 6.0864278e-39
0.0035571405 0.061894298 0.7470001 6.9205283e-39
0.0049800132 0.061894305 0.7470001 7.8435117e-39
0.006402886 0.06189429 0.7470001 5.9949272e-39
0.0078257388 0.061894294 0.7470001 4.2421578e-39
0.009223816 0.061728574 0.74500006 3.8755305e-39
0.010642857 0.061728574 0.74500012 3.4170649e-39
0.012061921 0.061728574 0.74500012 2.4875836e-39
0.013480947 0.061728589 0.74500006 1.5656315e-39
0.014900009 0.061728578 0.74500012 1.106803e-39
0.016319051 0.061728578 0.74500012 6.4726817e-40
0.017738076 0.061728578 0.74500006 8.3058043e-40
0.019157141 0.061728582 0.74500012 1.1046506e-39
0.020631464 0.06189429 0.7470001 1.2886775e-39
0.0220543 0.061894301 0.74700004 1.5656091e-39
0.023477146 0.061894301 0.7470001 1.3815682e-39
0.024933361 0.061977148 0.74800009 1.1975104e-39
0.026358118 0.061977156 0.74800009 9.2161578e-40
0.027782854 0.061977167 0.74800009 6.4650446e-40
0.029285735 0.062142875 0.75000006 7.3909386e-40
0.030714275 0.062142879 0.75000006 9.2310116e-40
0.032142885 0.062142882 0.75000012 4.6246493e-40
0.033660993 0.062308583 0.75200009 9.2372193e-41
0.035093367 0.062308583 0.75200003 4.6204103e-39
0.036574293 0.062391452 0.75300002 9.0622658e-39
0.038008567 0.062391441 0.75300002 1.2102194e-38
0.0395476 0.062557161 0.75500005 1.5225608e-38
0.040985681 0.062557168 0.75500005 9.2178478e-39
0.042423788 0.062557168 0.75500005 3.2155007e-39
0.043920022 0.062640019 0.7560001 3.2208439e-39
0.045360025 0.062640011 0.7560001 3.3094326e-39
0.046800017 0.062640026 0.75600004 4.6069495e-39
0.048240021 0.062640026 0.7560001 5.9971076e-39
0.049680028 0.062640011 0.7560001 7.8410622e-39
0.051120017 0.062640019 0.75600004 9.775374e-39
0.052560024 0.062640019 0.7560001 9.0295946e-39
0.067857169 0.062142879 0.75000012 2.0846191e-38
0.069100946 0.061977163 0.74800003 1.4832352e-38
0.070525743 0.061977167 0.74800009 8.8166967e-39
0.071854308 0.06189429 0.7470001 1.0312179e-38
0.07337524 0.061977163 0.74800003 1.1902901e-38
0.074700013 0.061894305 0.7470001 1.5499294e-38
0.076122887 0.061894298 0.7470001 1.9079388e-38
-0.028674321 0.065436199 0.77200007 1.2936157e-39
-0.027203826 0.065436207 0.77200001 2.2137951e-39
-0.025599992 0.065097168 0.76800001 2.4904101e-39
-0.024199966 0.065266669 0.7700001 2.7652117e-39
-0.022674246 0.065097146 0.76800007 2.8563437e-39
-0.021128552 0.064842865 0.7650001 2.946017e-39
-0.019620026 0.064673334 0.76300001 2.3921258e-39
-0.018095195 0.064419061 0.76000011 1.8421974e-39
-0.016603827 0.064249538 0.75800002 1.6592523e-39
-0.015159989 0.064249545 0.75800002 1.4744953e-39
-0.013679991 0.064080022 0.7560001 1.4734093e-39
-0.012239963 0.06408003 0.7560001 1.4734107e-39
-0.010799996 0.064080022 0.7560001 1.565249e-39
-0.0093476232 0.063995272 0.75500005 1.5666881e-39
-0.0078885593 0.063825727 0.75300002 1.5670511e-39
-0.0064456905 0.063740954 0.75200003 1.5681244e-39
-0.0049999799 0.063571461 0.75000006 1.3837346e-39
-0.0035714391 0.063571453 0.75000006 1.2008021e-39
-0.0021342649 0.063317165 0.7470001 1.5681651e-39
-0.00071139209 0.06331715 0.7470001 1.8454666e-39
0.00071238406 0.063401908 0.74800009 3.4088239e-39
0.0021342919 0.06331715 0.7470001 4.980097e-39
0.0035571628 0.06331715 0.7470001 5.9978461e-39
0.0049800356 0.063317165 0.7470001 7.0119616e-39
0.006402886 0.06331715 0.7470001 5.9952915e-39
0.0078257183 0.063317165 0.7470001 4.9797131e-39
0.009248591 0.06331715 0.7470001 4.1521118e-39
0.010642855 0.063147634 0.74500012 3.2280129e-39
0.012061921 0.063147627 0.74500012 2.3928797e-39
0.013480945 0.063147642 0.74500006 1.4741604e-39
0.014899987 0.063147634 0.74500012 9.2349913e-40
0.016319051 0.063147634 0.74500012 3.7177569e-40
0.017785739 0.06331715 0.7470001 7.3948202e-40
0.019208608 0.06331715 0.7470001 1.1053793e-39
0.020631446 0.06331715 0.74700004 1.3801585e-39
0.022083817 0.063401915 0.74800009 1.5648959e-39
0.023477169 0.06331715 0.7470001 1.3819325e-39
0.024933333 0.063401915 0.74800003 1.1056889e-39
0.026358107 0.063401915 0.74800009 7.3725115e-40
0.027782863 0.063401923 0.74800003 2.7953242e-40
0.029285701 0.063571446 0.75000006 7.3980992e-40
0.030714309 0.063571453 0.75000012 1.1074994e-39
0.032142852 0.063571438 0.75000006 6.4651847e-40
0.033660967 0.063740961 0.75200003 9.483988e-41
0.03514 0.063825727 0.75300002 1.842161e-40
0.036574278 0.063825734 0.75300002 2.1548607e-40
0.038109519 0.063995264 0.75500011 6.2135536e-39
0.039547622 0.063995272 0.75500005 1.216417e-38
0.040985707 0.063995272 0.75500005 9.2171485e-39
0.042480011 0.064080022 0.7560001 6.1725502e-39
0.043920036 0.064080015 0.7560001 5.3459943e-39
0.045479998 0.064249545 0.75800002 4.4183053e-39
0.04680001 0.06408003 0.7560001 2.2967548e-39
0.048240036 0.064080022 0.7560001 1.9173687e-40
0.049680002 0.064080022 0.7560001 1.8422731e-40
0.051120032 0.06408003 0.7560001 1.0280066e-40
0.052560039 0.06408003 0.7560001 9.2404423e-41
0.054000027 0.06408003 0.75600004 9.2344168e-41
0.066428594 0.063571438 0.75000012 2.0845444e-38
0.067676201 0.063401915 0.74800003 1.8230942e-38
0.069100961 0.063401923 0.74800003 9.1911853e-39
0.070431456 0.063317157 0.7470001 1.095437e-40
0.071854323 0.06331715 0.7470001 7.9335255e-39
0.073277153 0.063317165 0.7470001 1.5764704e-38
0.074700035 0.06331715 0.7470001 1.7252058e-38
-0.03014476 0.066906691 0.77200001 2.8055256e-40
-0.028674336 0.066906676 0.77200007 1.2006858e-39
-0.027203841 0.066906691 0.77200001 2.1215953e-39
-0.025666663 0.066733345 0.7700001 2.4893395e-39
-0.0242 0.066733345 0.77000004 2.947459e-39
-0.022733338 0.066733338 0.77000004 2.7634461e-39
-0.021128541 0.066300005 0.7650001 2.6708847e-39
-0.01967142 0.066300012 0.7650001 2.2102639e-39
-0.018047644 0.065693349 0.75800002 1.7532458e-39
-0.016603829 0.065693349 0.75800002 1.3841157e-39
-0.01511998 0.065520011 0.7560001 1.1064485e-39
-0.013679976 0.065520003 0.7560001 1.2897523e-39
-0.012223827 0.065433361 0.75500005 1.5645399e-39
-0.010785744 0.065433361 0.75500005 1.6574502e-39
-0.00934764 0.065433353 0.75500005 1.7500018e-39
-0.0078885555 0.06526003 0.75300002 1.751794e-39
-0.0064542829 0.065260023 0.75300002 1.7535807e-39
-0.0050132866 0.065173343 0.75200009 1.5691852e-39
-0.0035714447 0.065000027 0.75000006 1.3862597e-39
-0.0021342444 0.064740002 0.7470001 1.7536283e-39
-0.00071236066 0.064826682 0.74800009 2.1213431e-39
0.00071239524 0.06482669 0.74800009 3.3198821e-39
0.0021285699 0.064566687 0.74500012 4.6109628e-39
0.0035476335 0.064566672 0.74500012 5.2624222e-39
0.0049799928 0.06474001 0.7470001 6.006785e-39
0.0064028655 0.064740017 0.7470001 5.2598957e-39
0.0078257388 0.064740017 0.7470001 4.5191035e-39
0.0092486097 0.06474001 0.7470001 3.8740914e-39
0.01067146 0.064739995 0.7470001 3.2247843e-39
0.012094294 0.06474001 0.7470001 2.486869e-39
0.013517165 0.064740017 0.7470001 1.6574768e-39
0.014940015 0.064740017 0.7470001 1.1979378e-39
0.016362885 0.064740002 0.7470001 7.3841423e-40
0.017785722 0.064740002 0.74700004 1.0139319e-39
0.019208571 0.064740002 0.7470001 1.1965099e-39
0.020631442 0.064740017 0.7470001 1.5641924e-39
0.022083828 0.06482669 0.74800009 2.0240789e-39
0.023477184 0.064740002 0.7470001 1.4734149e-39
0.024933321 0.064826667 0.74800003 1.0142262e-39
0.026358115 0.064826675 0.74800009 1.014215e-39
0.027782874 0.064826682 0.74800003 1.0153038e-39
0.029285733 0.065000013 0.75000012 1.3837332e-39
0.0307143 0.065000027 0.75000006 1.7528702e-39
0.032228608 0.065173335 0.75200009 1.5688419e-39
0.033705708 0.065260023 0.75300002 1.4759162e-39
0.035140004 0.065260023 0.75300002 1.1064064e-39
0.036671422 0.065433361 0.75500005 8.2955748e-40
0.038109504 0.065433353 0.75500005 3.5061525e-39
0.03960003 0.065520003 0.7560001 6.1535948e-39
0.041040014 0.065520018 0.75600004 4.6063777e-39
0.042480025 0.065520026 0.7560001 3.1455843e-39
0.043920029 0.065520011 0.7560001 2.6784797e-39
0.045360018 0.065520003 0.7560001 2.3129356e-39
0.046800025 0.065520011 0.7560001 1.1990757e-39
0.048240013 0.065520033 0.75600004 1.8599294e-40
0.049680017 0.065520018 0.7560001 9.305883e-41
0.051052373 0.065433353 0.75500005 9.3044817e-41
0.052490477 0.065433353 0.75500005 9.2672071e-41
0.053928558 0.065433361 0.75500005 1.84111e-40
0.055440009 0.065520018 0.75600004 1.9293063e-39
0.056804746 0.065433353 0.75500005 3.674908e-39
0.06482666 0.064826682 0.74800003 1.8824717e-38
0.066251457 0.064826682 0.74800009 1.4004696e-38
0.067676209 0.064826667 0.74800003 9.2758153e-39
0.069100946 0.064826682 0.74800003 7.2711486e-39
0.070431426 0.06474001 0.7470001 5.3538528e-39
0.071854301 0.064740017 0.7470001 1.0792724e-38
0.073277175 0.064740017 0.7470001 1.6143216e-38
0.074700028 0.064740002 0.7470001 1.7339945e-38
-0.030418051 0.06899716 0.7790001 1.9734066e-40
-0.028711382 0.068465725 0.77300012 1.1063377e-39
-0.027450459 0.06899716 0.7790001 2.0272417e-39
-0.025733348 0.068377167 0.77200007 2.5811623e-39
-0.024262877 0.06837716 0.77200001 3.039279e-39
-0.022733334 0.068200007 0.77000004 2.6708763e-39
-0.021183832 0.067934319 0.76700002 2.3024539e-39
-0.019620007 0.067580014 0.76300007 1.9329553e-39
-0.018095201 0.067314297 0.76000011 1.5677713e-39
-0.016603833 0.067137152 0.75800002 1.1093169e-39
-0.015159998 0.067137145 0.75800002 6.487003e-40
-0.01368 0.066960022 0.7560001 1.1064386e-39
-0.01223997 0.066960022 0.7560001 1.5659763e-39
-0.010799966 0.066960007 0.7560001 1.7503661e-39
-0.0093599986 0.066960007 0.7560001 1.8432792e-39
-0.0079095345 0.066871449 0.75500005 1.9369084e-39
-0.0064542792 0.066694304 0.75300002 1.9369056e-39
-0.0050200052 0.066694297 0.75300002 1.7525143e-39
-0.0035809274 0.066605717 0.75200009 1.5706524e-39
-0.0021428498 0.066428602 0.75000006 2.0305642e-39
-0.00071235135 0.066251442 0.74800009 2.3993509e-39
0.00071240641 0.066251449 0.74800009 3.3223792e-39
0.0021343292 0.066162869 0.7470001 4.1535636e-39
0.0035571386 0.066162877 0.7470001 4.6174046e-39
0.0049800114 0.066162869 0.7470001 4.9840263e-39
0.0064028841 0.066162862 0.7470001 4.5183888e-39
0.007825735 0.066162854 0.7470001 3.9670199e-39
0.0092485687 0.066162869 0.7470001 3.5996821e-39
0.01067144 0.066162877 0.7470001 3.2269493e-39
0.012094312 0.066162869 0.7470001 2.5797863e-39
0.013517163 0.066162869 0.7470001 1.8422282e-39
0.014940036 0.066162854 0.7470001 1.4727297e-39
0.016362868 0.066162869 0.7470001 1.1053933e-39
0.017809551 0.066251442 0.74800009 1.1972344e-39
0.01920859 0.066162862 0.7470001 1.2886985e-39
0.020659044 0.066251442 0.74800003 1.8393416e-39
0.022083839 0.066251442 0.74800009 2.3910692e-39
0.023508573 0.066251457 0.74800009 1.6563824e-39
0.024933329 0.066251449 0.74800003 9.2311657e-40
0.026358126 0.066251427 0.74800009 1.2904417e-39
0.027782863 0.066251442 0.74800009 1.6592271e-39
0.029285725 0.066428602 0.75000006 2.0265789e-39
0.030714294 0.066428617 0.75000006 2.3967865e-39
0.032142874 0.066428602 0.75000012 2.5840392e-39
0.033705711 0.066694289 0.75300002 2.7651837e-39
0.035140008 0.066694304 0.75300002 2.1194513e-39
0.036574319 0.066694297 0.75300008 1.3804976e-39
0.03810953 0.066871449 0.75500011 7.3517442e-40
0.039547611 0.066871449 0.75500011 9.413783e-41
0.041040029 0.066960037 0.7560001 9.2363786e-41
0.04259238 0.067137152 0.75800002 9.8092294e-41
0.044036217 0.067137159 0.75800002 9.2341365e-41
0.045479991 0.067137152 0.75800002 9.6651759e-41
0.046800002 0.066960029 0.7560001 9.2353977e-41
0.048240028 0.066960022 0.7560001 9.2693091e-41
0.049680032 0.066960007 0.7560001 9.2316142e-41
0.051120002 0.066960022 0.7560001 9.3390937e-41
0.052490439 0.066871449 0.75500005 1.8414884e-40
0.053928584 0.066871449 0.75500011 1.9348008e-40
0.055366665 0.066871464 0.75500011 3.7657416e-39
0.056804769 0.066871449 0.75500005 7.2863709e-39
0.058242854 0.066871449 0.75500005 1.4104829e-38
0.066428579 0.066428594 0.75000006 7.2558127e-39
0.067676201 0.066251442 0.74800009 2.8743294e-40
0.069100954 0.066251442 0.74800003 5.4474385e-39
0.070525751 0.066251442 0.74800009 1.0602516e-38
0.071854323 0.066162854 0.7470001 1.355677e-38
0.073375247 0.066251442 0.74800003 1.6508416e-38
0.074700005 0.066162869 0.74700004 1.7432146e-38
-0.030261908 0.070119061 0.77500004 5.4459699e-39
-0.028785728 0.070119068 0.7750001 3.2282371e-39
-0.027309503 0.070119061 0.77500004 1.1056497e-39
-0.025733363 0.069847643 0.77200001 2.1187423e-39
-0.024199972 0.069666684 0.77000004 3.1310991e-39
-0.022733308 0.069666676 0.77000004 2.7626936e-39
-0.021128559 0.069214307 0.7650001 2.4857521e-39
-0.019620018 0.069033347 0.76300001 2.0265747e-39
-0.018095221 0.068761915 0.76000005 1.567044e-39
-0.016603835 0.06858097 0.75800002 1.2922606e-39
-0.015159999 0.068580955 0.75800002 1.0167541e-39
-0.013679985 0.06840001 0.7560001 1.4752142e-39
-0.01223998 0.068399996 0.7560001 1.9347546e-39
-0.01079999 0.068400018 0.7560001 1.7510878e-39
-0.0093599856 0.068400025 0.7560001 1.6599726e-39
-0.0079095475 0.068309546 0.75500005 1.7525283e-39
-0.0064714649 0.06830956 0.75500005 1.7532472e-39
-0.0050200014 0.068128586 0.75300002 1.6621292e-39
-0.0035809143 0.068038091 0.75200009 1.5717342e-39
-0.0021428405 0.067857169 0.75000012 1.9390818e-39
-0.00071427546 0.067857161 0.75000006 2.2149526e-39
0.00071239338 0.067676201 0.74800009 2.6780818e-39
0.0021342863 0.067585729 0.7470001 3.1444339e-39
0.0035571591 0.067585722 0.7470001 3.4167104e-39
0.0049800319 0.067585722 0.7470001 3.6918609e-39
0.0064114374 0.067676201 0.74800009 3.6907861e-39
0.0078361956 0.067676216 0.74800003 3.7822797e-39
0.0092609683 0.067676201 0.74800009 3.4142371e-39
0.010685726 0.067676201 0.74800009 3.0443672e-39
0.012094309 0.067585722 0.7470001 2.3968383e-39
0.013535256 0.067676194 0.74800009 1.7511144e-39
0.014960012 0.067676201 0.74800009 1.4734485e-39
0.016384767 0.067676216 0.74800003 1.1972246e-39
0.017809542 0.067676201 0.74800009 1.2894174e-39
0.019234298 0.067676194 0.74800009 1.472724e-39
0.020659057 0.067676201 0.74800003 1.7482235e-39
0.022083826 0.067676201 0.74800009 2.024093e-39
0.023571441 0.067857161 0.75000012 1.2901307e-39
0.025000008 0.067857176 0.75000006 5.5757666e-40
0.026428549 0.067857169 0.75000006 1.1085658e-39
0.027931459 0.068038106 0.75200009 1.6610207e-39
0.029363809 0.068038099 0.75200003 2.1205639e-39
0.030837143 0.068128601 0.75300002 2.5811651e-39
0.032271419 0.068128586 0.75300002 2.9517245e-39
0.033795245 0.068309546 0.75500005 3.4119628e-39
0.035233326 0.068309553 0.75500005 2.2119875e-39
0.036671434 0.068309546 0.75500005 1.0105716e-39
0.038160015 0.068400033 0.75600004 2.9408897e-39
0.039809551 0.068761915 0.76000005 4.8741407e-39
0.041257173 0.068761908 0.76000011 7.2737424e-39
0.042704795 0.068761915 0.76000011 9.7353781e-39
0.044152439 0.068761922 0.76000011 9.2894864e-39
0.045479987 0.06858097 0.75800002 8.8166855e-39
0.046800017 0.06840001 0.7560001 8.8281719e-39
0.048240021 0.068400018 0.7560001 8.9085126e-39
0.049680009 0.068400025 0.75600004 9.3838176e-39
0.05105238 0.068309546 0.75500005 9.7378991e-39
0.052490465 0.068309546 0.75500005 1.0775723e-38
0.053928569 0.068309553 0.75500005 1.1793134e-38
0.05536665 0.068309546 0.75500005 1.3549533e-38
0.056804758 0.068309546 0.75500005 1.5405306e-38
0.066428587 0.067857161 0.75000012 6.0658455e-39
0.067857154 0.067857176 0.75000006 4.976441e-39
0.069100961 0.067676201 0.74800003 8.9465985e-39
0.070525721 0.067676209 0.74800003 1.3000332e-38
0.071661912 0.067404777 0.74500006 1.5214485e-38
0.073080957 0.067404762 0.74500012 1.7523638e-38
-0.028934298 0.071964785 0.7790001 5.3465548e-39
-0.027450455 0.071964785 0.77900004 1.0010736e-40
-0.025733355 0.07131812 0.77200001 1.6573788e-39
-0.02419997 0.071133345 0.7700001 3.1292858e-39
-0.022674253 0.070948586 0.76800007 2.9467177e-39
-0.02112855 0.070671424 0.7650001 2.6719315e-39
-0.019620029 0.070486672 0.76300001 2.1209227e-39
-0.018095205 0.070209533 0.76000011 1.5677573e-39
-0.016647585 0.070209526 0.76000011 1.4755631e-39
-0.015160003 0.070024773 0.75800002 1.3837304e-39
-0.013716188 0.070024773 0.75800002 1.8429107e-39
-0.012272377 0.070024781 0.75800008 2.2098925e-39
-0.010799975 0.069840014 0.7560001 1.8421918e-39
-0.0093599688 0.069839999 0.7560001 1.4759344e-39
-0.0079199784 0.069840014 0.7560001 1.5684972e-39
-0.0064714435 0.069747649 0.75500011 1.5695748e-39
-0.0050199977 0.069562867 0.75300002 1.5702937e-39
-0.0035809386 0.06947048 0.75200003 1.5710153e-39
-0.0021428498 0.069285735 0.75000006 1.846526e-39
-0.00071428478 0.069285735 0.75000006 2.0302012e-39
0.00071240269 0.069100961 0.74800009 2.0298453e-39
0.0021371604 0.069100976 0.74800003 2.0316417e-39
0.0035618939 0.069100961 0.74800003 2.2124457e-39
0.0049866908 0.069100946 0.74800009 2.4014963e-39
0.0064114486 0.069100961 0.74800003 2.9546602e-39
0.0078361826 0.069100961 0.74800003 3.5064019e-39
0.0092609795 0.069100961 0.74800009 3.2301891e-39
0.010685735 0.069100961 0.74800009 2.8585312e-39
0.012110469 0.069100954 0.74800003 2.2113681e-39
0.013535266 0.069100954 0.74800009 1.5667147e-39
0.014960024 0.069100961 0.74800009 1.4730744e-39
0.016384756 0.069100969 0.74800009 1.2901236e-39
0.017809553 0.069100954 0.74800009 1.4741562e-39
0.019234309 0.069100954 0.74800009 1.56527e-39
0.020659043 0.069100961 0.74800009 1.5645483e-39
0.02214287 0.069285743 0.75000012 1.5649085e-39
0.023508595 0.069100969 0.74800009 9.2242013e-40
0.024999997 0.069285735 0.75000006 1.8915007e-40
0.026428582 0.069285735 0.75000006 9.2488782e-40
0.027931469 0.069470488 0.75200009 1.5684706e-39
0.029402848 0.069562867 0.75300002 2.2127694e-39
0.030837147 0.069562882 0.75300002 2.7666368e-39
0.032271422 0.069562875 0.75300002 3.4126971e-39
0.033795208 0.069747642 0.75500005 3.9622611e-39
0.035233311 0.069747657 0.75500005 2.3056222e-39
0.036817133 0.070024781 0.75800002 5.539473e-40
0.038260948 0.070024788 0.75800002 5.0513909e-39
0.039809566 0.07020954 0.76000011 9.5840211e-39
0.041257191 0.070209533 0.76000011 1.448543e-38
0.042760994 0.07030192 0.7610001 1.9338729e-38
0.044152416 0.070209533 0.76000005 1.84211e-38
0.045600038 0.070209548 0.76000011 1.7496643e-38
0.046923798 0.070024773 0.75800002 1.7678517e-38
0.048239995 0.069840014 0.7560001 1.7774283e-38
0.049680024 0.069840014 0.7560001 1.8612268e-38
0.051052369 0.069747642 0.75500005 1.9437007e-38
0.05249045 0.069747649 0.75500005 2.1480002e-38
0.053928591 0.069747649 0.75500011 2.3401733e-38
0.055366676 0.069747642 0.75500011 2.3416802e-38
0.05680478 0.069747642 0.75500005 2.3401054e-38
0.058088597 0.069562867 0.75300008 2.0282272e-38
0.066428579 0.069285735 0.75000006 4.9595764e-39
0.067857146 0.06928575 0.75000006 9.5843756e-39
0.069285721 0.069285743 0.75000012 1.2453538e-38
0.070525713 0.069100961 0.74800003 1.5302651e-38
0.071950503 0.069100969 0.74800009 1.6868577e-38
-0.02573337 0.072788596 0.77200001 3.4980011e-39
-0.024200004 0.072600007 0.77000004 2.0265228e-39
-0.022674272 0.072411448 0.76800001 1.9354454e-39
-0.021183796 0.072317168 0.76700002 1.9404747e-39
-0.019671418 0.072128586 0.7650001 1.4762805e-39
-0.018095227 0.071657166 0.76000005 1.0153052e-39
-0.016647605 0.071657166 0.76000011 9.2310536e-40
-0.015160006 0.071468584 0.75800002 8.3235167e-40
-0.013716192 0.071468584 0.75800002 1.3833689e-39
-0.012239989 0.071280003 0.7560001 1.8418247e-39
-0.01079996 0.07128001 0.7560001 1.7510598e-39
-0.009359993 0.071280017 0.7560001 1.6595984e-39
-0.0079095392 0.071185745 0.75500005 1.6614061e-39
-0.0064714565 0.071185738 0.75500005 1.7539618e-39
-0.0050333752 0.07118573 0.75500005 1.8461589e-39
-0.0035857218 0.070997164 0.75300002 1.9376384e-39
-0.0021428573 0.07071431 0.75000006 2.121671e-39
-0.00071427546 0.070714295 0.75000012 2.2127904e-39
0.00071428955 0.070714302 0.75000006 1.9358504e-39
0.0021371474 0.070525728 0.74800009 1.6578398e-39
0.0035619051 0.070525736 0.74800003 1.6614327e-39
0.0049867001 0.070525728 0.74800009 1.6650158e-39
