# .PCD v0.7 - Point Cloud Data file format
VERSION 0.7
FIELDS x y z rgb
SIZE 4 4 4 4
TYPE F F F F
COUNT 1 1 1 1
WIDTH 980
HEIGHT 1
VIEWPOINT 0 0 0 1 0 0 0
POINTS 980
DATA ascii
0.029854292 0.0076371655 0.72899997 1.9394167e-39
0.031242864 0.007637158 0.72899997 2.4929394e-39
0.032720953 0.0076581165 0.73099995 3.0471922e-39
0.034253329 0.0076895356 0.73399997 3.4141852e-39
0.03565143 0.0076895431 0.73399997 3.6896819e-39
0.037200958 0.0077209547 0.73699999 2.7684473e-39
0.038709544 0.0077419132 0.73899996 1.7557261e-39
0.040117152 0.0077419132 0.73900002 5.445628e-39
0.041580964 0.0077524036 0.73999989 9.2191426e-39
0.043106686 0.0077733397 0.74199998 8.8492979e-39
0.044580009 0.0077838153 0.74300003 8.4808699e-39
0.045933347 0.0077733472 0.74199998 8.2971877e-39
0.047410481 0.0077838153 0.74299997 8.2049949e-39
0.048957173 0.0078047886 0.745 8.297908e-39
-0.026499042 0.0093104839 0.75199997 2.4903876e-39
-0.025000017 0.0092857182 0.75000006 2.3971186e-39
-0.023508566 0.0092609748 0.74799991 2.2130875e-39
-0.02199523 0.0092238337 0.745 2.3024104e-39
-0.02052095 0.009199053 0.74299997 2.391732e-39
-0.019079993 0.0091866776 0.74199998 2.0225936e-39
-0.017595241 0.0091495439 0.73899996 1.5641167e-39
-0.016187614 0.009149529 0.73899996 9.2160878e-40
-0.014739992 0.0091247857 0.73699999 2.7949599e-40
-0.01331809 0.0091123953 0.736 4.6497746e-40
-0.011916175 0.0091123879 0.736 6.4758206e-40
-0.010485716 0.0090876296 0.73399997 8.3090273e-40
-0.0090628481 0.0090628713 0.73199999 9.2453469e-40
-0.0076685655 0.0090628788 0.73199999 6.5046733e-40
-0.0062742638 0.0090628713 0.73199993 3.7424758e-40
-0.0048799966 0.0090628713 0.73199999 6.4904221e-40
-0.0034857139 0.0090628713 0.73199999 9.234711e-40
-0.0020828338 0.0090257302 0.72899997 1.0145891e-39
-0.0006942653 0.0090257302 0.72899997 1.0135213e-39
0.00069333642 0.0090133548 0.72799999 9.2133412e-40
0.0020742903 0.0089885816 0.72599995 8.3129509e-40
0.0034571441 0.0089885667 0.72599995 8.3309156e-40
0.0048400066 0.0089885816 0.72599995 8.3201396e-40
0.0062228679 0.008988589 0.72599995 1.1989972e-39
0.0075952695 0.0089762136 0.7249999 1.5656105e-39
0.0089762043 0.0089762062 0.72499996 1.4737638e-39
0.010357159 0.0089762136 0.72499996 1.2886649e-39
0.011754287 0.008988589 0.72599995 9.1953626e-40
0.013137149 0.0089885816 0.72599995 4.6071891e-40
0.014519989 0.0089885816 0.72599995 1.2861636e-39
0.015880965 0.0089762062 0.72499996 2.0388108e-39
0.017333357 0.0090133548 0.72799999 7.1177722e-39
0.018720025 0.0090133473 0.72799993 1.206001e-38
0.020106675 0.0090133473 0.72799999 7.3749469e-39
0.021493345 0.0090133622 0.72799993 2.6773391e-39
0.022879994 0.0090133622 0.72799999 2.2091863e-39
0.024266692 0.0090133473 0.72799993 1.6581803e-39
0.025653342 0.0090133473 0.72799999 1.6592649e-39
0.02707717 0.0090257227 0.72899997 1.5670665e-39
0.028465742 0.0090257376 0.72899997 1.8429275e-39
0.029854298 0.0090257302 0.72899997 2.0298229e-39
0.03132857 0.0090504959 0.73100001 2.6755356e-39
0.032720979 0.009050481 0.73099995 3.3212595e-39
0.034160025 0.0090628713 0.73199993 3.5063697e-39
0.035651416 0.0090876296 0.73399997 3.6885889e-39
0.037200969 0.0091247708 0.73699999 2.8595415e-39
0.038709529 0.0091495439 0.73899996 1.9447823e-39
0.040117156 0.0091495439 0.73899996 6.0034891e-39
0.04158096 0.0091619268 0.73999989 9.953842e-39
0.043106675 0.0091866776 0.74199998 9.1240855e-39
0.044580005 0.009199053 0.74299997 8.2046291e-39
0.045995235 0.0091990456 0.74300003 7.9269436e-39
0.047410477 0.009199053 0.74299997 7.5603387e-39
0.048825704 0.0091990456 0.74300003 7.7422371e-39
0.050240949 0.009199053 0.74299997 7.837297e-39
-0.026499027 0.010742866 0.75199997 2.6744174e-39
-0.025000023 0.0107143 0.75 2.3978403e-39
-0.023571437 0.010714293 0.75 2.1216065e-39
-0.022054272 0.010671459 0.74699998 2.1190856e-39
-0.020576173 0.010642879 0.745 2.2073323e-39
-0.019105725 0.010614291 0.74299997 1.8396302e-39
-0.017595241 0.010557152 0.73899996 1.471547e-39
-0.016187614 0.010557152 0.73899996 9.2122762e-40
-0.014739999 0.010528594 0.73699999 4.6207817e-40
-0.013336193 0.010528579 0.73699999 6.4721072e-40
-0.011916174 0.010514289 0.736 7.3906163e-40
-0.010485721 0.010485739 0.73399997 1.0149409e-39
-0.0090876296 0.010485716 0.73399997 1.3830045e-39
-0.0076685552 0.010457166 0.73199999 1.1078596e-39
-0.006274275 0.010457151 0.73199999 8.3271601e-40
-0.004879992 0.010457151 0.73199999 9.2347811e-40
-0.0034856915 0.010457166 0.73199993 1.0145891e-39
-0.0020828487 0.010414295 0.72899997 1.1053414e-39
-0.00069427647 0.010414302 0.72899997 1.1957532e-39
0.00069334573 0.010400027 0.72799999 1.1968392e-39
0.0020800161 0.010400027 0.72799993 1.1982783e-39
0.0034571553 0.010371439 0.72599995 1.1064471e-39
0.0048399945 0.010371439 0.72599995 1.014613e-39
0.0062228548 0.010371424 0.72599995 1.2894034e-39
0.0076057161 0.010371439 0.72599995 1.6563782e-39
0.008988589 0.010371447 0.72599995 1.4734149e-39
0.01037143 0.010371439 0.72599995 1.1971979e-39
0.011754291 0.010371439 0.72599995 8.2842803e-40
0.013137152 0.010371447 0.72599995 3.6781562e-40
0.014520012 0.010371447 0.72599995 2.4872067e-39
0.015902853 0.010371432 0.72599995 4.7096072e-39
0.017333351 0.01040002 0.72799993 8.4010155e-39
0.018720001 0.010400012 0.72799999 1.2163729e-38
0.020106671 0.010400027 0.72799999 7.1923844e-39
0.021493342 0.01040002 0.72799993 2.2214042e-39
0.022911444 0.010414295 0.72899997 2.119499e-39
0.024266686 0.010400027 0.72799993 2.0251663e-39
0.025653338 0.010400027 0.72799999 2.0266139e-39
0.027077148 0.010414295 0.72899997 1.9354931e-39
0.028465729 0.010414295 0.72899997 2.0269656e-39
0.029854303 0.010414295 0.72899997 2.2120631e-39
0.03124286 0.010414287 0.72899997 2.6748195e-39
0.032720961 0.010442868 0.73099995 3.2287024e-39
0.034160014 0.010457151 0.73199999 3.5049249e-39
0.035651423 0.010485739 0.73399997 3.8726018e-39
0.03715051 0.010514282 0.736 3.3169015e-39
0.038604774 0.010528587 0.73699999 2.7619789e-39
0.040117145 0.010557152 0.73899996 6.644216e-39
0.041580953 0.01057145 0.73999995 1.0509893e-38
0.04310666 0.010600016 0.74199998 9.3099075e-39
0.044579986 0.010614276 0.74300003 8.2046123e-39
0.045995232 0.010614283 0.74299997 7.8350759e-39
0.047538109 0.010642871 0.745 7.5603261e-39
0.048957162 0.010642886 0.745 8.2057235e-39
0.050511472 0.010671444 0.74699998 8.8460567e-39
-0.028080015 0.012240008 0.75599998 3.2250632e-39
-0.026534259 0.012191437 0.75299996 2.857738e-39
-0.025066651 0.012175255 0.75199997 2.4900541e-39
-0.023571441 0.012142882 0.75 2.0297794e-39
-0.022054264 0.012094304 0.74699998 2.0286836e-39
-0.02057619 0.012061916 0.745 1.9332608e-39
-0.019105712 0.012029529 0.74299997 1.656318e-39
-0.017595256 0.011964768 0.73900002 1.2882431e-39
-0.016187629 0.011964776 0.73900002 1.0127212e-39
-0.014739985 0.011932395 0.73699999 6.461177e-40
-0.013318071 0.011916198 0.736 7.3904901e-40
-0.011916172 0.011916205 0.73599994 8.3125305e-40
-0.010485725 0.01188381 0.73399997 1.2908005e-39
-0.0090876212 0.011883818 0.73399997 1.7499836e-39
-0.0076895296 0.011883818 0.73399997 1.5656007e-39
-0.0062742853 0.011851437 0.73199999 1.2908145e-39
-0.0048799845 0.011851437 0.73199993 1.197907e-39
-0.0034857017 0.011851445 0.73199999 1.1057086e-39
-0.0020828431 0.011802875 0.72899997 1.2875817e-39
-0.00069426716 0.011802882 0.72899997 1.3797871e-39
0.00069334201 0.011786692 0.72799999 1.4712765e-39
0.0020800254 0.011786684 0.72799993 1.4727128e-39
0.0034666762 0.011786677 0.72799999 1.2879685e-39
0.004853345 0.011786699 0.72799993 1.1053723e-39
0.0062400098 0.011786699 0.72799999 1.4712779e-39
0.0076057189 0.011754297 0.72599995 1.7485668e-39
0.0089885937 0.011754312 0.72599995 1.473768e-39
0.010371455 0.011754297 0.72599995 1.1057212e-39
0.011754294 0.011754297 0.72599995 7.3767294e-40
0.013137155 0.011754304 0.72599995 2.7849546e-40
0.014520016 0.011754289 0.72599995 3.7689604e-39
0.015902875 0.011754297 0.72599995 7.283529e-39
0.017333347 0.011786699 0.72799993 9.7957993e-39
0.018719995 0.011786684 0.72799999 1.2251623e-38
0.020134294 0.011802875 0.72899997 7.009407e-39
0.021493364 0.011786699 0.72799993 1.7579135e-39
0.022880014 0.011786699 0.72799999 2.1137662e-39
0.024266684 0.011786684 0.72799993 2.3928601e-39
0.025653334 0.011786684 0.72799999 2.3939363e-39
0.027077155 0.011802875 0.72899997 2.3021064e-39
0.028426679 0.011786684 0.72799999 2.3006784e-39
0.029854311 0.011802867 0.72899997 2.304256e-39
0.031242864 0.011802867 0.72899997 2.7666536e-39
0.032631442 0.011802882 0.72899997 3.1354305e-39
0.034113351 0.011835247 0.73099995 3.5953269e-39
0.03555432 0.011851445 0.73199999 3.9612017e-39
0.037150487 0.011916198 0.736 3.7739112e-39
0.038604766 0.011932395 0.73699999 3.6014085e-39
0.040117126 0.011964776 0.73900002 7.3925402e-39
0.041580953 0.011980973 0.73999995 1.1061273e-38
0.043106679 0.012013353 0.74199998 9.5847063e-39
0.044579983 0.012029529 0.74300003 8.112093e-39
0.046119049 0.012061924 0.745 7.8326236e-39
0.047665745 0.012094311 0.74699998 7.5603738e-39
0.04908859 0.012094311 0.74699998 8.7661028e-39
0.050579064 0.012110487 0.74799997 9.857001e-39
0.052003812 0.012110494 0.74799997 9.2145043e-39
-0.028080003 0.013680011 0.75599998 3.3176119e-39
-0.026534269 0.013625726 0.75299996 2.9492218e-39
-0.025066653 0.013607621 0.75199997 2.5808316e-39
-0.02357143 0.013571441 0.75 2.2127428e-39
-0.022083808 0.013535261 0.74799997 2.4867835e-39
-0.020631393 0.013517171 0.74699998 2.7594201e-39
-0.019157136 0.013480969 0.745 2.1154955e-39
-0.017619042 0.013390489 0.73999989 1.4715638e-39
-0.016187606 0.013372391 0.73899996 1.1045735e-39
-0.014739987 0.013336211 0.73699999 8.2943977e-40
-0.013318068 0.013318099 0.73599994 7.3905182e-40
-0.011916168 0.013318107 0.73599994 6.4829812e-40
-0.010485715 0.013281912 0.73399997 1.015287e-39
-0.0090876259 0.013281919 0.73399997 1.3822786e-39
-0.0076895137 0.013281934 0.73399997 1.2911676e-39
-0.0062742759 0.013245732 0.73199993 1.2000538e-39
-0.0048799948 0.013245717 0.73199999 1.2915334e-39
-0.003485712 0.013245724 0.73199999 1.3822913e-39
-0.0020885763 0.013227634 0.73100001 1.3808549e-39
-0.00069428206 0.013191447 0.72899997 1.3805102e-39
0.00069430686 0.013191439 0.72899997 1.6571055e-39
0.0020800012 0.013173349 0.72799999 2.0244489e-39
0.0034666725 0.013173364 0.72799999 2.0262425e-39
0.0048533552 0.013173349 0.72799993 2.0251621e-39
0.0062485901 0.013191439 0.72899997 2.1173508e-39
0.0076266886 0.013173364 0.72799993 2.3006518e-39
0.0089885686 0.013137139 0.72599995 1.8414631e-39
0.010400008 0.013173349 0.72799993 1.472703e-39
0.011786677 0.013173364 0.72799993 1.0139011e-39
0.013173355 0.013173349 0.72799999 4.6360418e-40
0.014560025 0.013173364 0.72799993 2.1205878e-39
0.015946673 0.013173357 0.72799999 3.6969392e-39
0.017357146 0.013191439 0.72899997 4.9848699e-39
0.018745728 0.013191432 0.72899997 6.1700348e-39
0.020106692 0.013173364 0.72799999 3.9615913e-39
0.02149336 0.013173357 0.72799993 1.7475019e-39
0.022880008 0.013173357 0.72799999 2.118078e-39
0.024266681 0.013173364 0.72799993 2.4871997e-39
0.025653329 0.013173357 0.72799999 2.7623334e-39
0.027040027 0.013173357 0.72799993 3.1289748e-39
0.028348563 0.013137162 0.72599995 3.0375134e-39
0.029813344 0.013173357 0.72799999 2.9478219e-39
0.031200016 0.013173372 0.72799993 2.9496057e-39
0.032586668 0.013173349 0.72799999 2.9503246e-39
0.033973366 0.013173357 0.72799993 3.5016977e-39
0.035360016 0.013173357 0.72799999 4.0512351e-39
0.036342882 0.013028584 0.71999991 3.868241e-39
0.037714314 0.013028592 0.71999997 3.6918049e-39
0.040280037 0.013426684 0.74199998 7.5690436e-39
0.041693352 0.013426669 0.74199998 1.1431493e-38
0.04316479 0.013444766 0.74299997 9.5854322e-39
0.044700004 0.013480984 0.745 7.8366201e-39
0.046242893 0.013517149 0.74699998 5.8094303e-39
0.047729544 0.013535254 0.74799997 3.8783934e-39
0.049154289 0.013535254 0.74799997 4.7964078e-39
0.050714284 0.013571449 0.75 5.7140369e-39
0.052142866 0.013571449 0.75 5.2555671e-39
-0.031123802 0.015200011 0.75999999 2.0250458e-39
-0.029598104 0.015160017 0.75800002 3.774602e-39
-0.028154286 0.015160024 0.75799996 3.4083544e-39
-0.026604744 0.015100002 0.755 2.9481316e-39
-0.025099993 0.015060015 0.75299996 2.6715797e-39
-0.023571441 0.015000015 0.75 2.3038608e-39
-0.022083802 0.014960021 0.74799997 2.9456149e-39
-0.020631401 0.014940016 0.74699998 3.4948342e-39
-0.019157151 0.014900021 0.745 2.5750443e-39
-0.017666658 0.014840014 0.74199998 1.5634133e-39
-0.016187625 0.014780007 0.73899996 1.2875411e-39
-0.014739993 0.014740013 0.73699999 1.0134807e-39
-0.013336187 0.014740005 0.73699999 7.3942036e-40
-0.01193237 0.014740013 0.73699999 3.7279864e-40
-0.010514272 0.01472 0.736 6.4723173e-40
-0.0090876296 0.014680006 0.73399997 9.2382843e-40
-0.0076895184 0.014680006 0.73399997 1.0160353e-39
-0.0062742862 0.014640026 0.73199999 1.1093015e-39
-0.004880005 0.014640011 0.73199999 1.3862373e-39
-0.0034857017 0.014640018 0.73199993 1.5666671e-39
-0.0020885633 0.014620006 0.73099995 1.4723079e-39
-0.00069618569 0.014620014 0.73100001 1.3826612e-39
0.00069429755 0.014580019 0.72899997 1.9355029e-39
0.0020828668 0.014580019 0.72899997 2.4893773e-39
0.0034714409 0.014580019 0.72899997 2.675551e-39
0.0048600077 0.014580004 0.72899997 2.857064e-39
0.0062485966 0.014580019 0.72899997 2.8563423e-39
0.007637165 0.014580011 0.72899997 2.7630635e-39
0.0090133334 0.014560014 0.72799999 2.3024427e-39
0.010400003 0.014560021 0.72799993 1.8425505e-39
0.011802867 0.014580011 0.72899997 1.2901054e-39
0.013191449 0.014580011 0.72899997 6.4690103e-40
0.014580024 0.014580026 0.72899997 3.6888762e-40
0.01594667 0.014560021 0.72799999 9.8437013e-41
0.01735715 0.014580011 0.72899997 9.2373595e-41
0.018745733 0.014580011 0.72899997 9.7367822e-41
0.020134307 0.014580019 0.72899997 9.1955307e-40
0.021522861 0.014580004 0.72899997 1.7507389e-39
0.022880005 0.014560021 0.72799999 2.1234646e-39
0.024266675 0.014560029 0.72799993 2.4879213e-39
0.025653353 0.014560014 0.72799999 3.2229486e-39
0.027040021 0.014560029 0.72799993 3.9615913e-39
0.028231414 0.014460005 0.72300005 3.7725505e-39
0.029608563 0.014460005 0.72300005 3.4988391e-39
0.030985709 0.01446002 0.72300005 3.132932e-39
0.032318115 0.014439993 0.722 2.7659446e-39
0.033693332 0.014440008 0.722 3.4102252e-39
0.034922868 0.014380015 0.71899998 4.0523183e-39
0.036342867 0.01440002 0.71999991 3.8635873e-39
0.037714303 0.014400028 0.71999997 3.695381e-39
0.03892288 0.014340021 0.71699995 7.7602185e-39
0.041861914 0.014900021 0.745 1.1703747e-38
0.04328097 0.014900014 0.745 9.5803945e-39
0.044700004 0.014900014 0.745 7.4652999e-39
0.046242885 0.014940016 0.74699998 3.8729451e-39
0.047857132 0.015000023 0.75 1.9378977e-40
0.049285717 0.015000008 0.75 9.1879217e-40
0.050714277 0.01500003 0.75 1.5677349e-39
0.052351438 0.015060008 0.75299996 1.2868432e-39
-0.031123815 0.016647622 0.75999999 4.1383384e-39
-0.029598089 0.01660382 0.75799996 3.9564709e-39
-0.028154289 0.016603835 0.75800002 3.5016066e-39
-0.026604744 0.016538113 0.755 3.0385167e-39
-0.025099998 0.016494304 0.75299996 2.3020727e-39
-0.023634275 0.016472392 0.75199997 1.4769826e-39
-0.022142874 0.01642859 0.75 1.8432414e-39
-0.020659054 0.01638478 0.74799997 2.1180318e-39
-0.019208552 0.016362883 0.74699998 1.7481787e-39
-0.017666655 0.016253352 0.74199998 1.3786787e-39
-0.016209519 0.016209528 0.73999995 1.1960783e-39
-0.014779995 0.016187616 0.73899996 1.1056861e-39
-0.013336175 0.016143821 0.73699999 9.2345849e-40
-0.011932371 0.016143829 0.73699999 7.4122383e-40
-0.010514271 0.016121909 0.736 9.2453609e-40
-0.0091123711 0.016121909 0.736 1.1085854e-39
-0.0077104564 0.016121916 0.736 1.2007979e-39
-0.006291429 0.016078115 0.73399997 1.3851737e-39
-0.0048933248 0.016078107 0.73399997 1.475919e-39
-0.0034857129 0.016034298 0.73199999 1.5666545e-39
-0.0020885707 0.016012385 0.73100001 1.4744364e-39
-0.00069618755 0.016012393 0.73099995 1.3851709e-39
0.00069618999 0.016012393 0.73099995 2.3064532e-39
0.0020885665 0.016012385 0.73100001 3.2301723e-39
0.0034809655 0.016012393 0.73099995 3.043972e-39
0.0048733414 0.016012385 0.73099995 2.8610129e-39
0.0062657264 0.016012408 0.73099995 3.1332851e-39
0.0076371427 0.015968591 0.72899997 3.4084273e-39
0.0090133296 0.015946694 0.72799999 2.7641383e-39
0.0104143 0.015968584 0.72899997 2.2127568e-39
0.011802873 0.015968591 0.72899997 1.5684622e-39
0.013191454 0.015968584 0.72899997 1.0156639e-39
0.014580029 0.015968584 0.72899997 6.4581782e-40
0.015968584 0.015968584 0.72899997 3.6814773e-40
0.017357158 0.015968591 0.72899997 3.6921132e-40
0.018745711 0.015968584 0.72899997 4.6179371e-40
0.020134313 0.015968598 0.72899997 1.014271e-39
0.021522868 0.015968584 0.72899997 1.6607068e-39
0.022911441 0.015968591 0.72899997 2.2113597e-39
0.024266699 0.015946694 0.72799993 2.7612796e-39
0.025653349 0.015946694 0.72799999 3.9666037e-39
0.02696573 0.015902862 0.72599995 5.263071e-39
0.028231436 0.015837155 0.72299999 4.886409e-39
0.029567638 0.015815258 0.722 4.4168395e-39
0.030857159 0.015771449 0.71999997 3.6818066e-39
0.032228615 0.015771464 0.71999991 2.8559962e-39
0.033553343 0.015749529 0.71899998 3.317675e-39
0.034922872 0.015749529 0.71899998 3.6903629e-39
0.036292374 0.015749522 0.71899998 3.7792936e-39
0.037557147 0.015705734 0.71699995 3.8736612e-39
0.038922884 0.015705734 0.71699989 7.1069374e-39
0.040288575 0.015705734 0.71699989 1.0327986e-38
0.043397166 0.016362883 0.74699998 8.5741333e-39
0.044879995 0.01638478 0.74799991 6.8256477e-39
0.046304777 0.01638478 0.74799997 4.8827292e-39
0.047857158 0.01642859 0.75 2.8494241e-39
0.04941716 0.016472392 0.75199997 3.1313766e-39
0.050917163 0.016494304 0.75299996 3.4025783e-39
0.05235146 0.016494296 0.75299996 3.6813134e-39
-0.031123802 0.018095247 0.75999999 6.2484333e-39
-0.029598087 0.018047638 0.75799996 4.059102e-39
-0.028154286 0.018047638 0.75799996 3.6028084e-39
-0.026604747 0.017976187 0.755 3.1386255e-39
-0.025099972 0.017928593 0.75299996 1.9297155e-39
-0.023634277 0.017904773 0.75199997 6.4939534e-40
-0.022142867 0.017857172 0.75 7.4014903e-40
-0.02065905 0.017809547 0.74799997 7.3835397e-40
-0.01920856 0.017785743 0.74699998 9.2094596e-40
-0.017690482 0.017690487 0.74300003 1.1046015e-39
-0.016209522 0.017619058 0.73999995 1.1957056e-39
-0.014780008 0.017595254 0.73900002 1.1975188e-39
-0.013336197 0.01754763 0.73699999 1.1989748e-39
-0.011964753 0.017595254 0.73899996 1.1082085e-39
-0.010528574 0.017547645 0.73699999 1.2014705e-39
-0.0091247549 0.017547645 0.73699999 1.2926053e-39
-0.0077209505 0.01754763 0.73699999 1.4766519e-39
-0.0063085533 0.017523825 0.736 1.5677643e-39
-0.0048933295 0.017476209 0.73399997 1.565965e-39
-0.0034952385 0.017476201 0.73399997 1.473761e-39
-0.0020885707 0.01740478 0.73099995 1.3811968e-39
-0.00069619314 0.017404772 0.73100001 1.292625e-39
0.00069620489 0.017404772 0.73099995 2.5830205e-39
0.0020885805 0.017404772 0.73099995 3.8683461e-39
0.0034809571 0.017404772 0.73100001 3.3169617e-39
0.0048600216 0.017357148 0.72899997 2.765946e-39
0.0062485761 0.017357156 0.72899997 3.4077168e-39
0.0076371501 0.017357163 0.72899997 3.9583655e-39
0.0090257302 0.017357156 0.72899997 3.2243934e-39
0.010414305 0.017357156 0.72899997 2.4889821e-39
0.01180286 0.017357156 0.72899997 1.9386768e-39
0.013191434 0.017357163 0.72899997 1.2925969e-39
0.014580015 0.017357148 0.72899997 1.0145765e-39
0.015968589 0.017357148 0.72899997 6.45794e-40
0.017357145 0.017357156 0.72899997 7.3798403e-40
0.018745719 0.017357171 0.72899997 7.3836938e-40
0.0201343 0.017357156 0.72899997 1.1990084e-39
0.021522874 0.017357156 0.72899997 1.5667189e-39
0.022911428 0.017357156 0.72899997 2.3003365e-39
0.024300003 0.017357163 0.72899997 2.9489121e-39
0.025653344 0.017333351 0.72799999 4.8021111e-39
0.026928589 0.01726193 0.72499996 6.5495009e-39
0.02811431 0.01714287 0.71999997 6.0013634e-39
0.029485714 0.017142877 0.71999997 5.3427433e-39
0.030814288 0.017119057 0.71899998 4.1377737e-39
0.032183822 0.017119057 0.71899998 2.946408e-39
0.033553351 0.017119043 0.71899998 3.130065e-39
0.03482572 0.017071448 0.71699995 3.3176526e-39
0.036191441 0.017071448 0.71699995 3.6896287e-39
0.037557151 0.017071448 0.71699989 3.9676365e-39
0.038922872 0.017071448 0.71699995 6.4654804e-39
0.040232375 0.017047621 0.71599996 8.8542739e-39
0.041596208 0.017047621 0.71599996 7.5624743e-39
0.044999994 0.017857157 0.75000006 6.1777546e-39
0.046428546 0.017857157 0.75 5.8903987e-39
0.047984779 0.017904773 0.75199991 5.5277147e-39
0.049285691 0.017857157 0.75 5.3544413e-39
0.050714277 0.017857157 0.75 5.1636055e-39
-0.0311238 0.019542865 0.75999999 8.0202421e-39
-0.029598091 0.019491442 0.75799996 7.6629628e-39
-0.028080011 0.01944001 0.75599998 7.4764388e-39
-0.026604747 0.019414298 0.755 7.289542e-39
-0.025099978 0.019362867 0.75299996 6.3607852e-39
-0.023634275 0.019337147 0.75199997 5.4305893e-39
-0.022142874 0.019285724 0.75000006 4.6015545e-39
-0.020659046 0.019234307 0.74799997 3.6745857e-39
-0.019208534 0.019208595 0.74699992 2.2992001e-39
-0.017690483 0.019105718 0.74299997 8.3088451e-40
-0.016253328 0.019080013 0.74199998 9.2161859e-40
-0.01477999 0.019002877 0.73899996 1.1063994e-39
-0.013372398 0.019002877 0.73900002 1.1067904e-39
-0.01196477 0.019002855 0.73900002 1.1078512e-39
-0.010528562 0.018951446 0.73699999 1.2915053e-39
-0.0091247428 0.018951438 0.73699999 1.4751903e-39
-0.0077209384 0.018951446 0.73699999 1.5673986e-39
-0.0063085495 0.018925726 0.73599994 1.7514311e-39
-0.0048933341 0.018874303 0.73399997 1.9340287e-39
-0.0034952431 0.018874288 0.73399997 2.1162676e-39
-0.0020885782 0.018797137 0.73100001 1.4737806e-39
-0.0006961801 0.018797152 0.73099995 7.3910927e-40
0.00069619558 0.018797152 0.73099995 1.6599866e-39
0.0020885936 0.018797159 0.73099995 2.5779744e-39
0.0034809562 0.018797152 0.73099995 2.4882829e-39
0.004873334 0.018797152 0.73099995 2.487927e-39
0.0062485808 0.018745728 0.72899997 2.8556291e-39
0.0076371557 0.01874572 0.72899997 3.3137247e-39
0.0090257376 0.018745713 0.72899997 2.6715867e-39
0.010414311 0.018745728 0.72899997 1.9365356e-39
0.011802865 0.018745728 0.72899997 1.4773483e-39
0.013173338 0.018720023 0.72799993 1.017082e-39
0.014580023 0.01874572 0.72899997 6.4757505e-40
0.015968595 0.018745728 0.72899997 3.7063504e-40
0.01735715 0.01874572 0.72899997 4.6247193e-40
0.018797142 0.018797152 0.73099995 5.5433265e-40
0.020134307 0.01874572 0.72899997 1.0146102e-39
0.02152288 0.01874572 0.72899997 1.5660015e-39
0.022911433 0.018745728 0.72899997 1.6574979e-39
0.024300009 0.018745743 0.72899997 1.7486075e-39
0.025653342 0.018720031 0.72799999 4.3368534e-39
0.026965728 0.018668592 0.72599995 6.9175771e-39
0.028114298 0.018514305 0.71999997 6.3640544e-39
0.029444767 0.018488578 0.71899998 5.8966415e-39
0.030814296 0.018488571 0.71899998 3.8658714e-39
0.032183826 0.018488571 0.71899998 1.9365889e-39
0.033460014 0.018437162 0.71699995 1.8429401e-39
0.034825705 0.018437147 0.71699995 1.7500046e-39
0.036191445 0.018437169 0.71699995 2.3027874e-39
0.037504774 0.018411435 0.71599996 2.8523248e-39
0.038868561 0.018411428 0.71600002 8.6655414e-39
0.040232398 0.018411435 0.71599996 1.4459429e-38
0.041596185 0.01841142 0.71599996 1.3264132e-38
0.044999987 0.019285731 0.75 1.2145965e-38
0.046428576 0.019285731 0.75 1.1875122e-38
0.047984779 0.019337155 0.75199997 1.1598539e-38
0.049417168 0.019337162 0.75199997 1.0039128e-38
0.051052418 0.019414298 0.755 8.4750741e-39
0.05255999 0.019440025 0.75599998 7.5520739e-39
-0.031123808 0.020990491 0.75999999 9.7727228e-39
-0.029598089 0.02093526 0.75799996 1.1157801e-38
-0.028080018 0.020880014 0.75599998 1.12579e-38
-0.026640004 0.020880014 0.75599992 1.134364e-38
-0.025099987 0.020797148 0.75299996 1.0793349e-38
-0.023634279 0.020769536 0.75199997 1.0227612e-38
-0.022142867 0.020714298 0.75 8.4687319e-39
-0.020659043 0.020659067 0.74799997 6.6309205e-39
-0.019234281 0.020659067 0.74799997 3.5859746e-39
-0.01769047 0.020520963 0.74299997 5.5467317e-40
-0.016209509 0.020438112 0.73999989 7.3725675e-40
-0.014799998 0.020438112 0.73999995 9.2201375e-40
-0.013372376 0.020410486 0.73899996 1.0142192e-39
-0.011964749 0.020410493 0.73899996 1.1067665e-39
-0.010557156 0.020410486 0.73900002 1.3808325e-39
-0.0091247624 0.02035524 0.73699999 1.5659468e-39
-0.0077209449 0.020355247 0.73699999 1.7499864e-39
-0.0063085663 0.02032762 0.736 1.8432638e-39
-0.0048933388 0.020272389 0.73399997 2.3017322e-39
-0.0034952478 0.020272397 0.73399997 2.7601922e-39
-0.0020885633 0.020189531 0.73099995 1.4744967e-39
-0.00069618755 0.020189531 0.73100001 1.8809069e-40
0.00069619744 0.020189546 0.73099995 7.3911067e-40
0.0020885721 0.020189531 0.73099995 1.1997203e-39
0.0034809497 0.020189531 0.73100001 1.6614075e-39
0.004873347 0.020189546 0.73099995 2.1205892e-39
0.0062657245 0.020189539 0.73099995 2.3960999e-39
0.0076371613 0.020134293 0.72899997 2.6715965e-39
0.0090257153 0.020134293 0.72899997 2.0273033e-39
0.010414318 0.0201343 0.72899997 1.384445e-39
0.011802871 0.0201343 0.72899997 1.0163758e-39
0.013191446 0.0201343 0.72899991 6.4829812e-40
0.01458 0.020134293 0.72899997 3.7133989e-40
0.015968602 0.0201343 0.72899997 9.5836203e-41
0.017404759 0.020189546 0.73099995 1.8731437e-40
0.01879715 0.020189531 0.73100001 2.7881215e-40
0.020189533 0.020189531 0.73099995 9.2204038e-40
0.021581925 0.020189531 0.73099995 1.4741492e-39
0.022911442 0.0201343 0.72899997 1.014634e-39
0.024300015 0.020134307 0.72899997 4.6756565e-40
0.025653336 0.020106688 0.72799999 3.8787507e-39
0.026965732 0.02005145 0.72599995 7.1966864e-39
0.028114306 0.019885741 0.71999991 6.8243417e-39
0.029444775 0.0198581 0.71899998 6.3597384e-39
0.030728584 0.019802876 0.71699995 3.5845411e-39
0.032094307 0.019802883 0.71699995 8.3058043e-40
0.033460021 0.019802883 0.71699989 4.636266e-40
0.034825712 0.019802883 0.71699995 9.4462931e-41
0.036140963 0.019775242 0.71600002 9.1880338e-40
0.03750477 0.019775249 0.71599996 1.7654105e-39
0.038868584 0.019775234 0.71599996 1.0884746e-38
0.040232372 0.019775234 0.71600002 1.9989029e-38
0.041596182 0.019775234 0.71599996 1.9071763e-38
0.044999987 0.020714305 0.75 1.8055815e-38
0.046428569 0.020714313 0.75 1.786567e-38
0.047984771 0.020769529 0.75199997 1.7682327e-38
0.049417164 0.020769522 0.75199997 1.4728495e-38
0.051052418 0.02085238 0.755 1.169649e-38
0.052490503 0.020852394 0.75499994 8.8165874e-39
-0.031164756 0.022467628 0.76099998 9.7796101e-39
-0.029598093 0.022379056 0.75800002 1.189614e-38
-0.028154291 0.022379048 0.75800002 1.1714988e-38
-0.026639994 0.022320017 0.75599992 1.1626027e-38
-0.025099972 0.022231452 0.75299996 1.1443436e-38
-0.023634264 0.022201918 0.75199997 1.1258662e-38
-0.022201885 0.022201918 0.75199991 1.0148e-38
-0.020659041 0.022083826 0.74799997 9.1406349e-39
-0.019208549 0.022054315 0.74699998 4.70271e-39
-0.017690491 0.021936201 0.74300003 3.7101619e-40
-0.016253322 0.021906689 0.74199998 7.3799944e-40
-0.014800003 0.021847621 0.73999995 1.1971657e-39
-0.013372391 0.021818109 0.73899996 1.3819017e-39
-0.011964764 0.021818116 0.73899996 1.5662958e-39
-0.010557136 0.021818101 0.73899996 1.4741057e-39
-0.0091247503 0.021759056 0.73699999 1.4744687e-39
-0.0077209459 0.021759063 0.73699999 1.5684594e-39
-0.0063085495 0.021729521 0.736 1.7539366e-39
-0.0048933434 0.021670491 0.73399997 1.8439911e-39
-0.0034952525 0.021670498 0.73399997 2.0262271e-39
-0.0020885521 0.021581925 0.73099995 1.3819423e-39
-0.00069618941 0.021581925 0.73099995 6.465451e-40
0.00069618627 0.021581903 0.73099995 8.3057763e-40
0.0020885861 0.021581918 0.73099995 1.1064471e-39
0.0034809618 0.021581925 0.73099995 1.4752268e-39
0.0048733405 0.021581918 0.73100001 1.9362049e-39
0.0062657227 0.021581918 0.73099995 2.3042714e-39
0.0076581012 0.021581918 0.73099995 2.7648712e-39
0.0090257209 0.021522872 0.72899997 2.2116918e-39
0.010442875 0.021581925 0.73099995 1.6595914e-39
0.011835237 0.021581911 0.73099995 1.107491e-39
0.013191433 0.021522857 0.72899997 5.5609829e-40
0.014620012 0.021581925 0.73099995 3.7132868e-40
0.016012374 0.021581925 0.73099995 1.8837795e-40
0.017404767 0.021581918 0.73100001 2.7878132e-40
0.018797148 0.021581918 0.73099995 3.6991757e-40
0.02018954 0.021581911 0.73099995 8.3018806e-40
0.021581924 0.021581918 0.73099995 1.3837332e-39
0.022974288 0.021581918 0.73099995 8.302287e-40
0.024366677 0.021581925 0.73100001 2.7922273e-40
0.02575906 0.021581911 0.73099995 5.9967054e-39
0.027040031 0.021493353 0.72799993 1.1716371e-38
0.028114295 0.021257177 0.71999991 1.2451451e-38
0.029362852 0.021168597 0.71699995 1.3173477e-38
0.03068571 0.021139063 0.71599996 6.8155584e-39
0.031960014 0.021079995 0.71399999 4.6033215e-40
0.033320013 0.02108001 0.71399999 2.7709696e-40
0.034680013 0.02108001 0.71399999 9.2320345e-41
0.036039993 0.021080002 0.71399999 1.2011314e-39
0.037347652 0.02105049 0.713 2.2318088e-39
0.038705729 0.021050476 0.713 1.2000489e-38
0.040063821 0.02105049 0.713 2.1764494e-38
0.041421942 0.021050498 0.713 2.1205616e-38
0.042780038 0.02105049 0.71299994 2.0751783e-38
0.046552394 0.022201918 0.75199997 2.0650584e-38
0.047984786 0.022201926 0.75199997 2.056694e-38
0.049482856 0.022231437 0.75299996 1.9081369e-38
0.051052421 0.022290491 0.755 1.7611986e-38
0.052559983 0.022320025 0.75599998 1.6124664e-38
0.05400002 0.022320025 0.75599998 1.4746773e-38
-0.031164756 0.023917146 0.76100004 9.7828387e-39
-0.029598089 0.023822874 0.75799996 1.2538631e-38
-0.028154289 0.023822866 0.75799996 1.2172018e-38
-0.026640022 0.023760006 0.75599998 1.1809722e-38
-0.025166636 0.023728579 0.75499994 1.2003462e-38
-0.02366568 0.023665726 0.75299996 1.2179943e-38
-0.022201886 0.0236343 0.75199997 1.1906933e-38
-0.020659052 0.023508593 0.74799997 1.1522631e-38
-0.01923429 0.023508593 0.74799997 5.8054142e-39
-0.017690493 0.023351438 0.74300003 9.8715872e-41
-0.016253321 0.023320004 0.74199998 8.2983073e-40
-0.014840001 0.023320012 0.74199998 1.4740987e-39
-0.013390474 0.023257151 0.73999995 1.7503087e-39
-0.011964764 0.023225717 0.73900002 1.9336293e-39
-0.010557151 0.023225725 0.73899996 1.65849e-39
-0.0091247512 0.023162872 0.73699999 1.2922298e-39
-0.0077209319 0.023162879 0.73699999 1.4787777e-39
-0.0063085486 0.023131438 0.736 1.57026e-39
-0.0049066483 0.023131438 0.736 1.4769966e-39
-0.0034952422 0.023068585 0.73400003 1.2908145e-39
-0.0020885745 0.022974297 0.73099995 1.1964679e-39
-0.00069619686 0.02297429 0.73100001 1.105354e-39
0.00069620117 0.022974297 0.73099995 1.0135241e-39
0.0020885796 0.022974305 0.73099995 9.2205159e-40
0.0034809553 0.02297429 0.73100001 1.3805172e-39
0.0048733386 0.022974297 0.73099995 1.7503745e-39
0.0062657162 0.022974297 0.73099995 2.3028252e-39
0.0076580993 0.022974312 0.73099995 2.7641425e-39
0.0090504903 0.022974305 0.73099995 2.395353e-39
0.010442852 0.02297429 0.73099995 1.9347293e-39
0.011835265 0.022974305 0.73099995 1.1982419e-39
0.013227627 0.022974297 0.73099995 4.6281805e-40
0.014619991 0.022974305 0.73100001 3.6988534e-40
0.016012402 0.022974305 0.73099995 2.7840577e-40
0.017404763 0.022974297 0.73099995 3.6880494e-40
0.018797155 0.022974297 0.73100001 3.6989935e-40
0.020189539 0.022974305 0.73099995 8.2909505e-40
0.021581903 0.022974305 0.73099995 1.2893627e-39
0.022974292 0.02297429 0.73100001 7.3513519e-40
0.024366679 0.02297429 0.73099995 1.0059641e-40
0.025759039 0.022974305 0.73099995 8.1118674e-39
0.027151432 0.022974297 0.73100001 1.613567e-38
0.028543813 0.02297429 0.73099995 1.8091157e-38
0.029240014 0.022440001 0.71399999 1.9992692e-38
0.030600009 0.022440009 0.71399999 1.0043501e-38
0.031959992 0.022439994 0.71399999 1.0592835e-40
0.033273358 0.022408582 0.713 9.2327352e-41
0.034631453 0.022408597 0.71299994 9.231474e-41
0.035989553 0.022408575 0.713 1.3779991e-39
0.037347645 0.02240859 0.713 2.6971268e-39
0.03870574 0.02240859 0.71299994 1.3120883e-38
0.040063813 0.022408582 0.713 2.3414728e-38
0.041421935 0.022408575 0.713 2.3417617e-38
0.042780031 0.02240859 0.71299994 2.3416879e-38
0.044138104 0.022408575 0.713 2.3417575e-38
0.045496225 0.022408582 0.713 2.3416825e-38
0.049679991 0.023760028 0.75599998 2.3417509e-38
0.051120002 0.023760028 0.75599992 2.341176e-38
0.052559994 0.023760013 0.75599998 2.3414621e-38
-0.028154267 0.025266685 0.75799996 9.04495e-39
-0.026640011 0.025200009 0.75599998 9.6003126e-39
-0.02516664 0.02516669 0.75499994 1.0799959e-38
-0.023665689 0.025100015 0.75299996 1.1897677e-38
-0.022201905 0.025066666 0.75199997 1.1440289e-38
-0.0207143 0.025000013 0.75 1.1063467e-38
-0.019234287 0.024933361 0.74799997 5.6181152e-39
-0.017738091 0.024833359 0.745 1.8407176e-40
-0.016275255 0.024766661 0.74300003 6.4615414e-40
-0.014860008 0.024766676 0.74299997 1.2000202e-39
-0.013390479 0.024666682 0.73999995 1.3825967e-39
-0.011980947 0.024666682 0.73999995 1.5659216e-39
-0.01055715 0.024633341 0.73900002 1.3829793e-39
-0.0091495225 0.024633355 0.73900002 1.1996754e-39
-0.0077209533 0.024566688 0.73699999 1.2936717e-39
-0.0063085449 0.024533354 0.736 1.3869436e-39
-0.0049066446 0.024533339 0.73599994 1.3855086e-39
-0.0035047305 0.024533339 0.73599994 1.38228e-39
-0.0020914094 0.024400033 0.73199993 1.1982503e-39
-0.00069618382 0.024366684 0.73099995 1.0138689e-39
0.00069619372 0.024366669 0.73099995 1.0135157e-39
0.0020885908 0.024366677 0.73099995 1.0138815e-39
0.0034857227 0.024400018 0.73199993 1.289395e-39
0.0048733312 0.024366677 0.73100001 1.6574544e-39
0.0062657273 0.024366677 0.73099995 2.3960844e-39
0.0076581058 0.024366669 0.73099995 3.2265374e-39
0.0090504671 0.024366669 0.73100001 2.5804477e-39
0.010442881 0.024366684 0.73099995 1.9347195e-39
0.011835243 0.024366677 0.73099995 1.2904263e-39
0.013227606 0.024366669 0.73100001 6.4576317e-40
0.014620017 0.024366677 0.73099995 4.613523e-40
0.016012382 0.024366677 0.73099995 3.6950979e-40
0.017404743 0.024366677 0.73100001 4.6169702e-40
0.018797154 0.024366692 0.73099995 6.4610509e-40
0.020189518 0.024366669 0.73099995 1.0138254e-39
0.021611432 0.024400011 0.73199999 1.4740875e-39
0.023005748 0.024400026 0.73199993 7.3654069e-40
0.024400014 0.024400018 0.73199999 9.236799e-41
0.025794283 0.024400018 0.73199999 7.4672995e-39
0.02715143 0.024366684 0.73099995 1.4867627e-38
0.028543821 0.024366669 0.73100001 1.8089079e-38
0.029199058 0.023766682 0.713 2.1397201e-38
0.03055718 0.023766689 0.71299994 1.6130541e-38
0.031915255 0.023766682 0.713 1.0857161e-38
0.03327335 0.023766682 0.713 5.6106855e-39
0.034631446 0.023766682 0.71299994 3.6781562e-40
0.035989545 0.023766674 0.713 8.3381322e-40
0.037347637 0.023766689 0.713 1.4050147e-39
0.038705733 0.023766682 0.71299994 1.2281163e-38
0.040063836 0.023766689 0.713 2.3233992e-38
0.041305725 0.023699999 0.71099997 2.3234002e-38
0.042780023 0.023766689 0.713 2.3325833e-38
0.044138119 0.023766682 0.71299994 2.3416946e-38
0.045496218 0.023766674 0.713 2.3417658e-38
0.046854313 0.023766689 0.713 2.3417651e-38
0.048212409 0.023766689 0.71299994 2.3417648e-38
-0.02516664 0.026604772 0.75499994 9.5145812e-39
-0.023634266 0.026499063 0.75199997 1.1619629e-38
-0.022201888 0.026499063 0.75199997 1.1076872e-38
-0.020714289 0.026428588 0.75 1.0494864e-38
-0.019234283 0.026358113 0.74799997 5.3278979e-39
-0.017738093 0.026252396 0.745 1.8586122e-40
-0.01627524 0.026181906 0.74300003 5.5431163e-40
-0.014859994 0.026181906 0.74299997 9.2308294e-40
-0.013426653 0.026146695 0.74199998 1.0145541e-39
-0.01198095 0.026076205 0.73999995 1.1063952e-39
-0.010557145 0.026040979 0.73899996 1.1071197e-39
-0.0091495374 0.026040956 0.73900002 1.0167247e-39
-0.0077209412 0.025970504 0.73699999 1.1096434e-39
-0.0063171224 0.025970489 0.73699999 1.1114315e-39
-0.0049066436 0.025935255 0.73599994 1.2950983e-39
-0.0035047287 0.025935255 0.73599994 1.4766211e-39
-0.0020914187 0.025794305 0.73199999 1.2003999e-39
-0.0006971375 0.025794305 0.73199999 8.3090133e-40
0.00069620676 0.025759064 0.73099995 9.2093896e-40
0.0020914453 0.025794305 0.73199999 1.0138633e-39
0.0034857274 0.025794297 0.73199999 1.2897425e-39
0.0048800088 0.025794297 0.73199999 1.5674042e-39
0.0062742955 0.025794312 0.73199993 2.5808274e-39
0.0076685916 0.025794305 0.73199999 3.5920829e-39
0.009050495 0.025759064 0.73099995 2.764476e-39
0.010442858 0.025759056 0.73100001 1.8439546e-39
0.011835243 0.025759056 0.73099995 1.2914941e-39
0.013227632 0.025759056 0.73099995 7.3831333e-40
0.014619997 0.025759056 0.73100001 5.5247453e-40
0.016012408 0.025759064 0.73099995 3.6950979e-40
0.01740477 0.025759056 0.73099995 6.464414e-40
0.018797133 0.025759049 0.73100001 9.2231923e-40
0.020189546 0.025759064 0.73099995 1.2900312e-39
0.021611441 0.025794297 0.73199993 1.5666209e-39
0.02306856 0.025864772 0.73399997 8.2835797e-40
0.024466667 0.025864765 0.73399997 9.2697295e-41
0.025864743 0.025864772 0.73399997 6.7964293e-39
0.02726285 0.025864772 0.73399997 1.3556439e-38
0.028739071 0.025935248 0.736 1.8183067e-38
0.030140985 0.025935248 0.736 2.2682951e-38
0.030428564 0.025019065 0.70999998 2.2131885e-38
0.031825725 0.025054291 0.71100003 2.1543144e-38
0.033180006 0.025054276 0.71099997 1.1034016e-38
0.034534294 0.025054291 0.71099997 5.5471941e-40
0.035888575 0.025054291 0.71099997 3.6781562e-40
0.037242863 0.025054291 0.71099997 1.1714575e-40
0.038597144 0.025054283 0.71099997 1.1548598e-38
0.039951414 0.025054283 0.71099997 2.2951286e-38
0.041305695 0.025054291 0.71099997 2.3142153e-38
0.042660009 0.025054283 0.71099997 2.3232192e-38
0.044014297 0.025054298 0.71099997 2.3322591e-38
0.045368582 0.025054298 0.71099997 2.3416214e-38
0.046854302 0.025124766 0.713 2.3417644e-38
0.048212398 0.025124773 0.713 2.3417648e-38
0.049570493 0.025124773 0.71299994 2.3417651e-38
-0.023634264 0.027931444 0.75199991 6.5510675e-39
-0.02220189 0.027931429 0.75199997 6.1765649e-39
-0.020714292 0.027857162 0.75 5.6950129e-39
-0.019234281 0.02778288 0.74799997 3.4004259e-39
-0.017738087 0.027671449 0.745 1.0134513e-39
-0.01627524 0.027597152 0.74299997 1.1975118e-39
-0.014860015 0.027597137 0.74300003 1.2904291e-39
-0.013390466 0.027485736 0.73999995 1.290076e-39
-0.011980934 0.027485736 0.73999989 1.3811954e-39
-0.010557145 0.02744858 0.73899996 1.2911536e-39
-0.0091495179 0.027448587 0.73899996 1.2929515e-39
-0.0077209477 0.02737429 0.73699999 1.2943906e-39
-0.0063171438 0.02737429 0.73699999 1.2050564e-39
-0.0049066604 0.027337156 0.736 1.2039704e-39
-0.0035047482 0.027337141 0.736 1.2936605e-39
-0.0020914299 0.027188592 0.73199999 9.2453189e-40
-0.00069712818 0.027188592 0.73199993 6.4685759e-40
0.00069715298 0.027188599 0.73199999 7.3796021e-40
0.0020914341 0.027188584 0.73199999 9.2200955e-40
0.0034809599 0.027151443 0.73099995 1.1989706e-39
0.0048800181 0.027188599 0.73199993 1.4755603e-39
0.0062743002 0.027188599 0.73199999 2.3049566e-39
0.0076685804 0.027188592 0.73199999 3.1336201e-39
0.0090504745 0.027151428 0.73100001 2.3967739e-39
0.010442858 0.027151443 0.73099995 1.7517562e-39
0.011835249 0.027151436 0.73099995 1.1992901e-39
0.013227612 0.027151443 0.73100001 6.4647503e-40
0.014619995 0.027151428 0.73099995 4.613593e-40
0.016034283 0.027188584 0.73199999 2.7731697e-40
0.017404769 0.027151443 0.73099995 6.464386e-40
0.018797161 0.027151443 0.73099995 9.2338422e-40
0.020189524 0.027151443 0.73099995 1.752419e-39
0.02161143 0.027188584 0.73199999 2.5818153e-39
0.023068571 0.027262866 0.73399997 1.5655334e-39
0.024466651 0.027262874 0.73399997 5.5148521e-40
0.025864754 0.027262874 0.73399997 3.6868947e-39
0.027262878 0.027262881 0.73399997 6.847763e-39
0.028778091 0.027374312 0.73699999 1.3571203e-38
0.030181909 0.027374297 0.73699999 2.0295283e-38
0.030428573 0.026371434 0.70999998 2.139695e-38
0.031780954 0.026371442 0.70999998 2.2497073e-38
0.033179998 0.026408583 0.71099997 1.1427199e-38
0.034534283 0.026408575 0.71099997 3.6782543e-40
0.035888575 0.026408575 0.71100003 1.8521662e-40
0.03724286 0.026408568 0.71099997 9.6321053e-41
0.038597144 0.026408575 0.71099997 1.0520795e-38
0.039951432 0.026408575 0.71099997 2.1023075e-38
0.041305717 0.026408583 0.71099997 2.2128718e-38
0.042660002 0.026408575 0.71099997 2.3321146e-38
0.044014286 0.02640859 0.71099997 2.3414777e-38
0.045368582 0.026408568 0.71099997 2.3414772e-38
0.046722863 0.026408568 0.71099997 2.3416561e-38
0.04821239 0.026482873 0.713 2.3416929e-38
0.049570512 0.026482865 0.71299994 2.341658e-38
-0.02363427 0.029363811 0.75199997 1.4817302e-39
-0.02220189 0.029363826 0.75199997 1.1997707e-39
-0.020714307 0.029285729 0.75000006 9.2276064e-40
-0.01923429 0.029207639 0.74799997 1.381152e-39
-0.017738102 0.029090486 0.745 1.8403463e-39
-0.016319053 0.029090501 0.745 1.7481689e-39
-0.014860016 0.029012375 0.74300003 1.6570621e-39
-0.013426668 0.028973341 0.74200004 1.6570733e-39
-0.011980937 0.028895259 0.73999989 1.5652336e-39
-0.010557146 0.028856203 0.73900002 1.5663056e-39
-0.0091495309 0.028856203 0.73899996 1.5680936e-39
-0.0077209505 0.028778113 0.73699999 1.4784063e-39
-0.0063171317 0.028778113 0.73699999 1.2958115e-39
-0.0049066567 0.028739057 0.736 1.2050536e-39
-0.0035047426 0.028739065 0.736 1.0185212e-39
-0.0020971464 0.028660968 0.73399997 7.408721e-40
-0.00069713936 0.028582878 0.73199999 3.7172805e-40
0.00069714367 0.028582878 0.73199999 6.4614853e-40
0.0020914425 0.028582878 0.73199993 8.305496e-40
0.003480973 0.02854383 0.73099995 1.1078638e-39
0.0048733368 0.028543822 0.73099995 1.384808e-39
0.006274289 0.028582878 0.73199999 2.0298117e-39
0.0076685916 0.028582886 0.73199993 2.6737237e-39
0.0090504726 0.028543822 0.73099995 2.1209059e-39
0.010457153 0.028582878 0.73199999 1.5684439e-39
0.011851421 0.028582871 0.73199999 1.0159806e-39
0.013245737 0.028582878 0.73199999 4.624397e-40
0.014640005 0.028582871 0.73199999 3.6879233e-40
0.0160343 0.028582864 0.73199999 1.8548007e-40
0.017428588 0.028582878 0.73199993 5.5425698e-40
0.018874295 0.028660983 0.73399997 9.2411009e-40
0.020272374 0.02866096 0.73399997 2.214472e-39
0.021670477 0.028660968 0.73399997 3.4980305e-39
0.023068555 0.028660975 0.73399997 2.209119e-39
0.024466658 0.02866096 0.73399997 9.2060264e-40
0.025935277 0.028739057 0.73599994 5.5151744e-40
0.027337162 0.028739057 0.73599994 1.186073e-40
0.028778104 0.028778128 0.73699999 8.9582138e-39
0.030304777 0.028895259 0.73999995 1.7797764e-38
0.031714313 0.028895251 0.73999989 2.0662625e-38
0.031780966 0.027723826 0.70999998 2.3406119e-38
0.033133347 0.027723826 0.70999992 1.1809284e-38
0.034534283 0.02776286 0.71099997 1.0596899e-40
0.035888568 0.027762868 0.71099997 9.2307734e-41
0.037242882 0.027762868 0.71099997 1.0637397e-40
0.038597167 0.027762868 0.71099997 9.599228e-39
0.039951432 0.027762853 0.71099997 1.8992304e-38
0.041247636 0.027723812 0.70999998 2.1211808e-38
0.042660002 0.027762853 0.71099997 2.3415858e-38
0.044014286 0.027762868 0.71099997 2.3417293e-38
0.045368571 0.02776286 0.71099997 2.3416568e-38
0.046722855 0.027762868 0.71099997 2.3416916e-38
0.048212409 0.027840972 0.713 2.3324013e-38
0.049570505 0.027840964 0.713 2.3414063e-38
-0.023634287 0.0307962 0.75199997 1.8450364e-39
-0.022201892 0.030796193 0.75199997 1.6610011e-39
-0.020714296 0.030714303 0.75 1.4755323e-39
-0.01923429 0.030632406 0.74799997 1.6566879e-39
-0.01773808 0.030509531 0.745 1.9321986e-39
-0.016319046 0.030509539 0.745 1.6559775e-39
-0.014899996 0.030509531 0.745 1.472682e-39
-0.013444779 0.03042762 0.74300003 1.4726974e-39
-0.012013323 0.030386686 0.74199998 1.472689e-39
-0.010557138 0.030263826 0.73899996 1.2904431e-39
-0.0091495309 0.030263819 0.73900002 1.2000286e-39
-0.0077419034 0.030263819 0.73900002 1.3854792e-39
-0.0063171308 0.030181922 0.73699999 1.6617144e-39
-0.0049133119 0.030181937 0.73699999 1.3869366e-39
-0.0035047408 0.030140966 0.736 1.202202e-39
-0.0020971389 0.030059062 0.73399997 1.0160311e-39
-0.00069713563 0.029977165 0.73199999 8.3020488e-40
0.00069716602 0.029977165 0.73199993 1.0138731e-39
0.0020914332 0.029977158 0.73199999 1.1057156e-39
0.0034857152 0.02997715 0.73199999 1.3833801e-39
0.0048799957 0.029977158 0.73199999 1.6606788e-39
0.0062742983 0.029977173 0.73199999 2.1220073e-39
0.0076685795 0.029977165 0.73199999 2.5833231e-39
0.0090628471 0.02997715 0.73199999 2.029785e-39
0.010457162 0.029977165 0.73199993 1.5680852e-39
0.01185143 0.029977165 0.73199999 9.22713e-40
0.013245726 0.029977165 0.73199999 3.6916367e-40
0.014639994 0.029977158 0.73199999 2.7694282e-40
0.016078098 0.030059062 0.73399997 1.847626e-40
0.017428577 0.029977165 0.73199999 5.5391086e-40
0.018874278 0.030059062 0.73399997 9.2232624e-40
0.020272382 0.030059062 0.73399997 1.7520701e-39
0.021670459 0.030059062 0.73399997 2.5789693e-39
0.023131432 0.030140959 0.736 1.7503185e-39
0.024533346 0.030140951 0.736 1.0127773e-39
0.025935261 0.030140959 0.736 8.2911887e-40
0.027374281 0.030181929 0.73699999 6.4660956e-40
0.028778097 0.030181922 0.73699999 4.8998251e-39
0.030263828 0.030263834 0.73899996 9.2441235e-39
0.031671438 0.030263826 0.73900002 1.283616e-38
0.031780954 0.029076196 0.70999998 1.6430943e-38
0.033133335 0.029076204 0.70999998 8.3963394e-39
0.034485713 0.029076211 0.70999998 3.6786187e-40
0.035838094 0.029076204 0.70999998 6.4547451e-40
0.037190475 0.029076219 0.70999998 1.0146942e-39
0.038542885 0.029076204 0.70999998 7.8436084e-39
0.039895266 0.029076211 0.70999998 1.4675331e-38
0.041247644 0.029076204 0.70999998 1.7807087e-38
0.04266002 0.029117152 0.71099997 2.1029938e-38
0.044014286 0.029117145 0.71099997 2.1577719e-38
0.045368571 0.029117152 0.71099997 2.2223066e-38
0.046722855 0.029117137 0.71099997 2.2773706e-38
0.048212405 0.029199056 0.713 2.3324009e-38
0.049570501 0.029199056 0.713 2.341621e-38
-0.023665708 0.03227143 0.75299996 2.1223464e-39
-0.022201875 0.032228574 0.75199991 2.031234e-39
-0.0207143 0.032142878 0.75 1.933656e-39
-0.019234287 0.032057159 0.74799997 1.9300658e-39
-0.017785693 0.03201431 0.74699998 1.9307707e-39
-0.016362837 0.03201431 0.74699998 1.6545355e-39
-0.014899991 0.031928584 0.745 1.2882865e-39
-0.013444765 0.03184285 0.74300003 1.2886621e-39
-0.012013322 0.031800024 0.74199998 1.2897383e-39
-0.010571413 0.031714305 0.73999989 1.1067834e-39
-0.0091495262 0.03167145 0.73899996 8.3342086e-40
-0.0077418978 0.03167145 0.73899996 1.385859e-39
-0.0063171391 0.031585731 0.73699999 1.9372377e-39
-0.0049133352 0.031585738 0.73699999 1.6624543e-39
-0.0035047389 0.031542882 0.73599994 1.3858786e-39
-0.0020971426 0.031457156 0.73399997 1.3819395e-39
-0.00069905043 0.031457163 0.73399997 1.2904628e-39
0.00069903984 0.031457148 0.73399997 1.3812221e-39
0.0020914359 0.031371444 0.73199999 1.3830227e-39
0.0034857385 0.031371452 0.73199993 1.6592551e-39
0.0048733414 0.031328581 0.73099995 1.9372699e-39
0.0062742862 0.031371437 0.73199999 2.2138498e-39
0.0076685683 0.03137143 0.73199999 2.4900583e-39
0.0090628844 0.031371444 0.73199993 2.0297906e-39
0.010457153 0.031371452 0.73199999 1.4755351e-39
0.011835253 0.031328589 0.73099995 9.2128087e-40
0.013245735 0.031371444 0.73199993 2.7805545e-40
0.014640003 0.031371444 0.73199993 1.8512554e-40
0.016078105 0.031457156 0.73399997 9.437605e-41
0.017428568 0.031371444 0.73199999 5.5463954e-40
0.018874288 0.031457156 0.73399997 9.2305071e-40
0.020272365 0.031457163 0.73399997 1.291822e-39
0.021670468 0.031457163 0.73399997 1.5684173e-39
0.023068575 0.031457156 0.73399997 1.2918486e-39
0.024533348 0.031542875 0.736 1.014917e-39
0.025935262 0.03154286 0.736 1.1056861e-39
0.027374292 0.031585731 0.73699999 1.1093505e-39
0.028856186 0.03167145 0.73900002 8.425307e-40
0.030304769 0.031714298 0.73999995 5.8787273e-40
0.031714302 0.031714298 0.73999995 5.0071379e-39
0.033123832 0.03171429 0.73999995 9.3143636e-39
0.033040002 0.030342862 0.70799994 4.9775747e-39
0.034388572 0.030342862 0.70799994 5.5833336e-40
0.035838105 0.030428588 0.70999992 1.1993714e-39
0.037190467 0.030428581 0.70999998 1.8469408e-39
0.038542874 0.030428573 0.70999998 6.0847042e-39
0.039895255 0.030428573 0.70999998 1.0249261e-38
0.041247636 0.030428588 0.70999998 1.4402698e-38
0.042659994 0.030471437 0.71099997 1.8537459e-38
0.044014305 0.030471429 0.71099997 1.9823526e-38
0.045368589 0.030471444 0.71099997 2.1021683e-38
0.046722874 0.030471437 0.71099997 2.2221991e-38
0.04807714 0.030471429 0.71099997 2.3321872e-38
0.04957049 0.030557156 0.713 2.3417661e-38
-0.023665713 0.033705719 0.75300002 4.6037083e-39
-0.022201894 0.033660963 0.75199997 2.9453052e-39
