# .PCD v0.7 - Point Cloud Data file format
VERSION 0.7
FIELDS x y z rgb
SIZE 4 4 4 4
TYPE F F F F
COUNT 1 1 1 1
WIDTH 974
HEIGHT 1
VIEWPOINT 0 0 0 1 0 0 0
POINTS 974
DATA ascii
0.000716193 0.049417146 0.75200009 2.0269558e-39
0.0021485633 0.049417146 0.75200009 2.7623685e-39
0.0035809327 0.049417149 0.75200003 2.0294894e-39
0.0050133257 0.049417146 0.75200009 1.2926432e-39
0.0064285691 0.049285728 0.75000012 1.1064513e-39
0.0078780996 0.049417138 0.75200009 8.2986857e-40
0.009310469 0.049417153 0.75200009 8.302287e-40
0.010742859 0.049417134 0.75200009 7.3910507e-40
0.012175228 0.049417138 0.75200009 7.3945819e-40
0.0136076 0.049417153 0.75200003 7.3875474e-40
0.015039989 0.049417146 0.75200009 9.2279848e-40
0.016494274 0.049482852 0.75300008 1.0149899e-39
0.01792855 0.049482856 0.75300008 1.4748834e-39
0.019362839 0.049482867 0.75300002 1.8429359e-39
0.020797132 0.049482863 0.75300008 1.6592593e-39
0.022290455 0.049614284 0.75500005 1.3833899e-39
0.023728551 0.049614292 0.75500005 1.3826696e-39
0.025166638 0.049614295 0.75500005 1.3830339e-39
0.026604736 0.049614292 0.75500005 2.1184396e-39
0.028080011 0.049679995 0.7560001 2.7656055e-39
0.029520011 0.049680002 0.7560001 3.2280241e-39
0.031164741 0.050008569 0.76100004 3.5982332e-39
0.03261428 0.050008569 0.7610001 3.1404864e-39
0.034153335 0.050140008 0.76300007 2.6733944e-39
0.035606649 0.05014002 0.76300007 3.6738767e-39
0.037060011 0.050140005 0.76300007 4.6310924e-39
0.038614295 0.050271433 0.7650001 1.3945697e-38
0.040176172 0.050402876 0.76700008 2.3136074e-38
0.041637115 0.050402865 0.76700002 2.2315664e-38
0.043154273 0.050468583 0.76800001 2.1472256e-38
0.044907607 0.050797142 0.77300006 1.8704249e-38
0.046620015 0.051059995 0.77700007 1.5956015e-38
0.048100002 0.051059987 0.77700007 1.6326244e-38
-0.025900014 0.052539997 0.77700007 2.3078223e-39
-0.024294281 0.052269533 0.77300006 1.9379649e-39
-0.022733325 0.052066684 0.7700001 1.6617354e-39
-0.021266652 0.052066665 0.7700001 1.4777043e-39
-0.019722885 0.051863834 0.76700002 1.1074896e-39
-0.018166663 0.051593333 0.76300007 7.3837079e-40
-0.016713331 0.051593333 0.76300007 4.6252238e-40
-0.015220006 0.051458098 0.7610001 2.7741085e-40
-0.013752403 0.05139048 0.76000005 4.628699e-40
-0.012304783 0.051390477 0.76000011 7.3801345e-40
-0.010857163 0.051390477 0.76000011 8.3020348e-40
-0.0093847672 0.051255237 0.75800008 9.213117e-40
-0.007919997 0.051119991 0.7560001 8.3054259e-40
-0.0064799944 0.051120002 0.7560001 8.3090833e-40
-0.0050399923 0.051120002 0.7560001 9.2274943e-40
-0.0035999904 0.051119994 0.7560001 1.0153052e-39
-0.0021514322 0.050917156 0.75300008 1.2004125e-39
-0.00071717205 0.050917149 0.75300002 1.3851723e-39
0.0007161753 0.050849523 0.75200009 1.7514493e-39
0.0021514113 0.050917152 0.75300008 2.0266139e-39
0.0035809495 0.050849531 0.75200009 1.3855745e-39
0.0050133211 0.050849523 0.75200003 8.3239371e-40
0.006445711 0.05084952 0.75200009 7.394652e-40
0.00787808 0.050849531 0.75200009 6.4655631e-40
0.0093104718 0.050849527 0.75200009 6.4655771e-40
0.010742841 0.05084952 0.75200009 6.4656051e-40
0.012175226 0.050849535 0.75200003 6.4656191e-40
0.013607616 0.050849527 0.75200009 7.3805409e-40
0.015039985 0.050849535 0.75200003 8.3062247e-40
0.016494259 0.050917152 0.75300002 9.2244395e-40
0.017928554 0.050917149 0.75300008 1.1990126e-39
0.019362843 0.050917141 0.75300008 1.4748722e-39
0.020797117 0.050917156 0.75300002 1.2004363e-39
0.022290453 0.051052377 0.75500011 1.016408e-39
0.023728551 0.051052388 0.75500005 1.2908383e-39
0.025166636 0.051052377 0.75500005 1.6563922e-39
0.026604732 0.051052384 0.75500005 2.3028336e-39
0.028080016 0.051120009 0.7560001 2.8578137e-39
0.029676175 0.05139048 0.76000005 3.3205981e-39
0.031164756 0.051458102 0.7610001 3.8748285e-39
0.032614257 0.051458102 0.76100004 3.3227267e-39
0.034153335 0.051593345 0.76300007 2.8606541e-39
0.035606664 0.051593352 0.76300001 3.6864295e-39
0.037060011 0.051593337 0.76300007 4.6217528e-39
0.038614284 0.051728565 0.7650001 1.2186092e-38
0.040071424 0.051728588 0.76500005 1.9739225e-38
0.04169143 0.051931441 0.76800001 1.9179625e-38
0.043266684 0.052066673 0.7700001 1.8616752e-38
0.04473336 0.052066673 0.7700001 1.7515419e-38
0.04662 0.052540004 0.77700001 1.6509552e-38
0.048100006 0.052540001 0.77700007 1.6694317e-38
-0.028934283 0.054159064 0.77900004 3.2279429e-39
-0.027380025 0.054019999 0.77700007 2.860266e-39
-0.025833366 0.053880956 0.77500004 2.4011137e-39
-0.024294276 0.053741913 0.77300012 1.9397726e-39
-0.022792393 0.053672377 0.77200007 1.8490035e-39
-0.021266663 0.053533338 0.7700001 1.7532051e-39
-0.019722894 0.053324774 0.76700008 1.1993055e-39
-0.018166682 0.05304667 0.76300007 6.4688561e-40
-0.016713319 0.053046666 0.76300007 3.7212462e-40
-0.015220024 0.052907627 0.76100004 9.5895058e-41
-0.013752392 0.052838095 0.76000011 2.8063664e-40
-0.012304771 0.052838098 0.76000011 4.6358456e-40
-0.01085717 0.052838095 0.76000005 6.4724995e-40
-0.009384783 0.052699056 0.75800008 7.3872111e-40
-0.0079409722 0.052699048 0.75800008 5.5540325e-40
-0.0064971601 0.052699052 0.75800008 2.7990096e-40
-0.0050399876 0.052560002 0.7560001 6.4581362e-40
-0.0035999857 0.052560005 0.7560001 9.2383264e-40
-0.0021514462 0.052351441 0.75300002 1.2007755e-39
-0.00071716553 0.052351423 0.75300008 1.4766505e-39
0.00071712339 0.052351438 0.75300002 1.3830311e-39
0.0021513973 0.052351441 0.75300002 1.2933564e-39
0.0035809309 0.052281905 0.75200003 8.3741736e-40
0.005013322 0.052281901 0.75200009 2.8280165e-40
0.0064457064 0.052281912 0.75200003 3.7282947e-40
0.0078780958 0.052281909 0.75200009 3.7211621e-40
0.0093104672 0.052281916 0.75200009 4.6323985e-40
0.010742857 0.052281901 0.75200009 5.5471801e-40
0.012175227 0.052281909 0.75200009 6.4547871e-40
0.013607598 0.052281916 0.75200003 6.4619618e-40
0.015059992 0.052351426 0.75300008 7.383904e-40
0.016494269 0.052351434 0.75300008 8.313007e-40
0.017928557 0.052351441 0.75300002 1.015329e-39
0.01936285 0.052351423 0.75300008 1.108591e-39
0.02085237 0.052490484 0.75500011 8.3415234e-40
0.022290453 0.052490477 0.75500011 5.5829553e-40
0.023728551 0.052490484 0.75500005 1.2911942e-39
0.025166636 0.052490488 0.75500005 1.9336896e-39
0.026640004 0.052559994 0.7560001 2.4872193e-39
0.028080003 0.052560002 0.7560001 2.9499925e-39
0.029520005 0.052560013 0.75600004 3.5049614e-39
0.031164739 0.052907635 0.76100004 4.0577666e-39
0.032699991 0.053046681 0.76300001 3.5063935e-39
0.034153327 0.053046662 0.76300007 2.9517722e-39
0.035606675 0.053046666 0.76300007 3.7725309e-39
0.037157137 0.053185713 0.7650001 4.5281208e-39
0.038614288 0.05318572 0.76500005 1.0437259e-38
0.040176172 0.053324774 0.76700002 1.6234392e-38
0.041691437 0.053394295 0.76800007 1.5954237e-38
0.043379031 0.053672388 0.77200007 1.567944e-38
0.045023784 0.053880967 0.77500004 1.6322278e-38
0.04649999 0.053880952 0.7750001 1.6968008e-38
0.048100002 0.054019988 0.77700007 1.7063082e-38
0.04958 0.054020006 0.77700007 1.7062361e-38
-0.03045716 0.055714294 0.78000009 2.762992e-39
-0.028934291 0.055642866 0.7790001 2.6754936e-39
-0.027380003 0.055500001 0.77700001 2.6762461e-39
-0.025833352 0.055357158 0.7750001 2.3075042e-39
-0.024294291 0.05521429 0.77300006 1.9379944e-39
-0.022792399 0.055142868 0.77200007 1.7539478e-39
-0.021266647 0.055 0.7700001 1.4758994e-39
-0.019748583 0.054857172 0.76800001 1.1070902e-39
-0.018166672 0.054500006 0.76300007 8.2911187e-40
-0.016713338 0.054500002 0.76300007 5.5507955e-40
-0.015220021 0.054357149 0.76100004 2.7992618e-40
-0.013752399 0.054285727 0.76000005 3.7247354e-40
-0.012304779 0.054285724 0.76000005 4.6430343e-40
-0.010828582 0.05414287 0.75800002 6.4760868e-40
-0.0093847709 0.054142859 0.75800002 8.3091954e-40
-0.0079409601 0.054142863 0.75800002 6.4796461e-40
-0.006497148 0.054142863 0.75800008 4.6429642e-40
-0.0050399839 0.053999994 0.7560001 7.4052318e-40
-0.0035999815 0.054000001 0.7560001 1.108584e-39
-0.0021571543 0.05392858 0.75500011 1.2014957e-39
-0.00071905612 0.053928588 0.75500011 1.3858926e-39
0.00071712991 0.053785715 0.75300008 1.3848248e-39
0.0021514038 0.053785719 0.75300002 1.3851849e-39
0.0035809486 0.053714294 0.75200009 1.0178443e-39
0.0050133201 0.053714294 0.75200003 7.4089032e-40
0.0064285821 0.05357144 0.75000012 6.4796461e-40
0.0078571616 0.05357144 0.75000012 6.4797302e-40
0.0092857229 0.053571437 0.75000012 6.4726396e-40
0.010714305 0.053571437 0.75000012 6.4726396e-40
0.012142872 0.053571433 0.75000012 5.5506974e-40
0.013607614 0.053714283 0.75200009 5.5505432e-40
0.015039983 0.05371429 0.75200003 7.397861e-40
0.016494254 0.053785726 0.75300002 1.0163814e-39
0.017928561 0.053785719 0.75300008 1.2011398e-39
0.019414255 0.053928584 0.75500005 1.3858758e-39
0.020852352 0.05392858 0.75500005 1.2021922e-39
0.022290455 0.053928573 0.75500011 1.0192555e-39
0.023728549 0.053928576 0.75500005 1.2919089e-39
0.025166651 0.053928569 0.75500005 1.5656273e-39
0.026640009 0.054000009 0.7560001 2.2113499e-39
0.028080011 0.054000016 0.75600004 2.8577843e-39
0.02952002 0.053999994 0.7560001 3.7800825e-39
0.031164739 0.054357152 0.76100004 4.7013171e-39
0.03270001 0.054500006 0.76300007 3.7822531e-39
0.034153339 0.054499999 0.76300007 2.8610129e-39
0.035606671 0.054499999 0.76300007 3.8661656e-39
0.037157141 0.054642867 0.76500005 4.8821855e-39
0.038614295 0.05464286 0.7650001 1.0889967e-38
0.040228561 0.054857161 0.76800001 1.6878655e-38
0.041800015 0.054999992 0.7700001 1.6600289e-38
0.043379027 0.055142865 0.77200001 1.6415906e-38
0.044907615 0.055214297 0.77300006 1.6783611e-38
0.046499975 0.055357162 0.77500004 1.7150238e-38
0.048099995 0.055499997 0.77700007 1.7337141e-38
-0.03210666 0.05749334 0.7840001 4.689364e-39
-0.030457169 0.057200011 0.78000009 1.93756e-39
-0.028934287 0.057126679 0.7790001 2.2181223e-39
-0.02738001 0.056980003 0.77700007 2.4000235e-39
-0.025833359 0.056833349 0.77500004 2.2149428e-39
-0.024294283 0.056686655 0.77300012 1.93763e-39
-0.022792403 0.056613348 0.77200007 1.5688405e-39
-0.02126666 0.056466661 0.7700001 1.2011216e-39
-0.019748574 0.056320019 0.76800001 1.1071141e-39
-0.018166661 0.055953342 0.76300007 9.2310536e-40
-0.016713329 0.055953339 0.76300007 6.465423e-40
-0.015220019 0.05580667 0.76100004 3.721078e-40
-0.013752387 0.055733342 0.76000011 4.6429783e-40
-0.012272389 0.055586673 0.75800008 4.6464535e-40
-0.010828578 0.05558667 0.75800008 6.479464e-40
-0.0093847662 0.055586677 0.75800008 8.3198453e-40
-0.0079409555 0.055586662 0.75800008 7.408735e-40
-0.0064799818 0.055440001 0.7560001 6.4975968e-40
-0.0050399797 0.055440009 0.7560001 9.2706263e-40
-0.0036000067 0.055440012 0.7560001 1.2014985e-39
-0.0021571682 0.055366661 0.75500011 1.2936984e-39
-0.00071907102 0.055366665 0.75500011 1.2929949e-39
0.00071711501 0.055220019 0.75300002 1.3852046e-39
0.0021514094 0.05522 0.75300008 1.4759582e-39
0.0035856843 0.055220008 0.75300008 1.2915642e-39
0.0050133211 0.055146668 0.75200009 1.1078834e-39
0.0064457054 0.055146676 0.75200003 1.014243e-39
0.0078780949 0.055146664 0.75200009 9.2241172e-40
0.0092857303 0.054999996 0.75000012 8.302231e-40
0.010714292 0.055000007 0.75000012 6.465507e-40
0.012142872 0.055000007 0.75000012 5.5543127e-40
0.013607594 0.055146668 0.75200003 3.7246934e-40
0.015039999 0.055146672 0.75200009 7.4123924e-40
0.016494259 0.055220015 0.75300002 1.109663e-39
0.01797617 0.05536668 0.75500005 1.3869702e-39
0.019414254 0.055366665 0.75500005 1.5699167e-39
0.020852352 0.055366676 0.75500005 1.4769966e-39
0.02229047 0.055366665 0.75500011 1.3851723e-39
0.023728555 0.055366658 0.75500011 1.2919117e-39
0.025166651 0.055366665 0.75500005 1.2000804e-39
0.026640011 0.055440005 0.75600004 1.9347686e-39
0.028080018 0.055440001 0.7560001 2.6741133e-39
0.029676178 0.055733345 0.76000005 4.055589e-39
0.031164743 0.055806674 0.76100004 5.3434425e-39
0.03270001 0.055953342 0.76300007 4.0595448e-39
0.034153335 0.055953335 0.76300007 2.7663033e-39
0.035699997 0.056100011 0.7650001 3.9493916e-39
0.037157152 0.056100007 0.7650001 5.1731203e-39
0.038715214 0.056246683 0.76700002 1.1361348e-38
0.040228572 0.056320019 0.76800001 1.7519356e-38
0.041800022 0.056466665 0.7700001 1.7336411e-38
0.043379042 0.056613345 0.77200007 1.7061634e-38
0.044907622 0.056686666 0.77300012 1.7153482e-38
0.046499971 0.056833345 0.77500004 1.7245314e-38
-0.033685718 0.059137147 0.78600007 6.3553888e-39
-0.03210666 0.058986679 0.7840001 4.0490379e-39
-0.030457174 0.058685727 0.78000003 1.6606312e-39
-0.028934285 0.05861048 0.7790001 2.0319514e-39
-0.027450493 0.058610488 0.77900004 2.3993074e-39
-0.025833374 0.058309533 0.77500004 2.2145743e-39
-0.024294296 0.058159046 0.77300012 2.1198605e-39
-0.022792406 0.058083825 0.77200001 1.753945e-39
-0.021266643 0.057933338 0.7700001 1.3876736e-39
-0.019722886 0.057707626 0.76700008 1.109649e-39
-0.018214295 0.057557151 0.7650001 9.2597943e-40
-0.016713317 0.057406675 0.76300007 7.4087491e-40
-0.015220017 0.057256199 0.7610001 5.5720111e-40
-0.013752374 0.057180949 0.76000011 5.5683958e-40
-0.012272405 0.05703048 0.75800008 5.5718289e-40
-0.010828594 0.057030484 0.75800008 6.4828411e-40
-0.0093847821 0.057030473 0.75800008 7.4013642e-40
-0.0079199811 0.056880012 0.7560001 7.408707e-40
-0.0064800051 0.056880001 0.7560001 8.3342787e-40
-0.005040003 0.056880005 0.7560001 1.0178205e-39
-0.0036000011 0.056880012 0.7560001 1.2007853e-39
-0.0021571738 0.056804765 0.75500005 1.4759428e-39
-0.00071907009 0.056804761 0.75500011 1.8415122e-39
0.00071712153 0.056654301 0.75300008 1.6585783e-39
0.0021513954 0.056654289 0.75300002 1.4745373e-39
0.0035857048 0.056654289 0.75300008 1.2922887e-39
0.0050199809 0.056654297 0.75300002 1.1089694e-39
0.0064457082 0.056579042 0.75200009 1.0146144e-39
0.0078780772 0.05657905 0.75200003 9.209866e-40
0.0093104672 0.056579046 0.75200009 8.2950984e-40
0.010714293 0.056428581 0.75000006 7.3695407e-40
0.012142874 0.056428581 0.75000012 6.4726817e-40
0.013607613 0.056579053 0.75200009 4.6503211e-40
0.015039982 0.056579061 0.75200003 8.3273282e-40
0.016494267 0.056654297 0.75300008 1.1100344e-39
0.01797617 0.056804758 0.75500005 1.2944242e-39
0.019414268 0.056804765 0.75500005 1.4791686e-39
0.020852352 0.056804769 0.75500005 1.5692063e-39
0.022290455 0.056804761 0.75500011 1.6603285e-39
0.023728551 0.056804758 0.75500011 1.3851849e-39
0.025200011 0.056880001 0.75600004 1.0178458e-39
0.026640002 0.056880005 0.75600004 1.7543262e-39
0.028080022 0.056879997 0.7560001 2.5829952e-39
0.029676178 0.057180952 0.76000011 3.6878883e-39
0.031164747 0.057256192 0.7610001 4.7917079e-39
0.032700017 0.057406679 0.76300007 3.7815174e-39
0.034153331 0.057406671 0.76300007 2.7662991e-39
0.035699986 0.057557147 0.76500005 4.3292892e-39
0.037157141 0.05755714 0.7650001 6.008971e-39
0.038715217 0.057707623 0.76700008 1.1815868e-38
0.040228575 0.057782866 0.76800007 1.7521872e-38
0.041800022 0.057933342 0.7700001 1.7337848e-38
0.043379039 0.058083825 0.77200007 1.7156351e-38
0.044907607 0.058159057 0.77300006 1.7063459e-38
0.046499986 0.058309525 0.7750001 1.6971972e-38
-0.03368574 0.060634285 0.78600007 5.3441193e-39
-0.03210666 0.060480002 0.7840001 3.3993693e-39
-0.030457163 0.060171433 0.78000009 1.3858407e-39
-0.028934283 0.060094301 0.77900004 1.9419138e-39
-0.027380021 0.059939999 0.77700007 2.4000291e-39
-0.025833357 0.059785731 0.7750001 2.308209e-39
-0.024294311 0.059631441 0.77300006 2.2145715e-39
-0.02279239 0.05955429 0.77200007 1.9394139e-39
-0.021266656 0.059400011 0.7700001 1.5702726e-39
-0.019748559 0.059245735 0.76800007 1.2018489e-39
-0.018214304 0.059014287 0.76500005 8.3343207e-40
-0.016713336 0.058859993 0.76300007 7.4195531e-40
-0.015220036 0.058705729 0.76100004 6.4868208e-40
-0.01377051 0.058705732 0.76100004 6.4903941e-40
-0.012272392 0.058474295 0.75800002 6.4831354e-40
-0.010828582 0.058474299 0.75800002 6.479478e-40
-0.0093847709 0.058474302 0.75800002 6.4796041e-40
-0.0079409592 0.058474287 0.75800002 8.3236148e-40
-0.006497148 0.058474295 0.75800008 9.2527597e-40
-0.0050399997 0.058320004 0.7560001 1.017473e-39
-0.0035999983 0.058320004 0.75600004 1.1089554e-39
-0.0021571887 0.058242861 0.75500005 1.7510934e-39
-0.00071716739 0.058088578 0.75300002 2.3928797e-39
0.00071712804 0.058088582 0.75300008 1.9333561e-39
0.0021514019 0.058088571 0.75300002 1.4756051e-39
0.0035856909 0.058088578 0.75300002 1.2933606e-39
0.0050199865 0.058088578 0.75300008 1.1082519e-39
0.0064542606 0.058088582 0.75300002 1.0139039e-39
0.007878093 0.058011431 0.75200009 9.2170827e-40
0.0092857201 0.057857156 0.75000012 9.2170687e-40
0.010742854 0.05801142 0.75200009 8.3023151e-40
0.012175224 0.058011428 0.75200009 7.3983374e-40
0.013607608 0.058011442 0.75200003 5.5652008e-40
0.015059975 0.058088578 0.75300002 8.3059024e-40
0.016494252 0.058088589 0.75300002 1.1082477e-39
0.01797617 0.058242869 0.75500005 1.2015167e-39
0.019414252 0.058242857 0.75500005 1.2929837e-39
0.020852352 0.058242865 0.75500005 1.6595984e-39
0.022290448 0.058242872 0.75500005 1.935472e-39
0.023728555 0.05824285 0.75500011 1.3862611e-39
0.025200004 0.058320008 0.75600004 8.3525236e-40
0.02664003 0.058320001 0.7560001 1.6646473e-39
0.028080029 0.058319993 0.7560001 2.4000501e-39
0.029676171 0.058628578 0.76000005 3.3205575e-39
0.031164723 0.058705721 0.76100004 4.1495867e-39
0.032700017 0.05886 0.76300007 3.4159775e-39
0.034153342 0.058860008 0.76300007 2.6737545e-39
0.035699997 0.059014291 0.7650001 4.7762796e-39
0.037157148 0.059014291 0.7650001 6.8322633e-39
0.038715217 0.059168577 0.76700002 1.2187509e-38
0.040228564 0.059245735 0.76800001 1.7518278e-38
0.041800007 0.0594 0.7700001 1.7428243e-38
0.043379035 0.059554301 0.77200001 1.7245655e-38
0.044849519 0.059554297 0.77200007 1.697231e-38
0.046499979 0.059785735 0.77500004 1.6691048e-38
0.048100002 0.059939984 0.77700007 1.5495019e-38
-0.037193358 0.063000955 0.79700011 1.0292512e-38
-0.035496216 0.062684774 0.79300004 7.5521804e-39
-0.033814318 0.062368575 0.78900009 4.8867341e-39
-0.032106664 0.061973341 0.7840001 3.4079747e-39
-0.030535256 0.061815251 0.78200006 1.9390061e-39
-0.028934311 0.061578099 0.77900004 2.2156294e-39
-0.027450468 0.06157811 0.7790001 2.490794e-39
-0.025899995 0.061419994 0.77700007 2.3071384e-39
-0.024357168 0.061261907 0.77500004 2.1234576e-39
-0.022792393 0.061024785 0.77200007 1.7543122e-39
-0.021266667 0.060866673 0.7700001 1.4759316e-39
-0.01974857 0.06070859 0.76800001 1.2000608e-39
-0.018214293 0.06047143 0.7650001 8.3164261e-40
-0.016713327 0.060313333 0.76300007 8.3164261e-40
-0.015220033 0.06015525 0.76100004 7.3837079e-40
-0.013770509 0.06015525 0.7610001 7.3944418e-40
-0.012304778 0.060076192 0.76000011 6.4725135e-40
-0.010828577 0.059918098 0.75800008 7.3944698e-40
-0.0093847662 0.059918091 0.75800008 8.3093215e-40
-0.0079409545 0.059918091 0.75800008 9.2385085e-40
-0.0064971433 0.059918094 0.75800008 1.0174814e-39
-0.0050533526 0.059918109 0.75800002 1.0178415e-39
-0.0035999732 0.059759993 0.7560001 1.0178443e-39
-0.0021571738 0.059680957 0.75500005 1.4759484e-39
-0.0007190766 0.059680961 0.75500005 1.9333393e-39
0.00071902794 0.059680957 0.75500011 1.8425856e-39
0.0021514075 0.059522845 0.75300008 1.7514619e-39
0.0035856965 0.05952286 0.75300002 1.4759498e-39
0.0050199716 0.059522867 0.75300002 1.2919243e-39
0.006454268 0.059522863 0.75300008 1.198298e-39
0.0078780754 0.05944382 0.75200003 1.1057422e-39
0.0093104802 0.059443817 0.75200009 1.013185e-39
0.01074285 0.059443813 0.75200009 9.2171668e-40
0.01217524 0.059443805 0.75200009 8.3168185e-40
0.013607609 0.059443817 0.75200009 7.4091975e-40
0.015059982 0.05952286 0.75300008 9.2315161e-40
0.016494257 0.059522867 0.75300002 1.1068184e-39
0.01797617 0.05968095 0.75500005 1.2919201e-39
0.019414267 0.059680954 0.75500005 1.4744995e-39
0.020852352 0.059680961 0.75500005 1.8421834e-39
0.02229045 0.059680965 0.75500005 2.3010148e-39
0.023760004 0.059760001 0.75600004 1.6596138e-39
0.025200026 0.059759997 0.7560001 1.0167738e-39
0.02664003 0.059760001 0.7560001 1.6621404e-39
0.028080016 0.059759986 0.7560001 2.3996984e-39
0.029715201 0.060155254 0.76100004 3.2298094e-39
0.031164726 0.060155239 0.76100004 4.1517489e-39
0.03270001 0.060313333 0.76300007 3.3227141e-39
0.034153324 0.060313344 0.76300007 2.4911682e-39
0.035699997 0.060471427 0.7650001 3.9619668e-39
0.037157133 0.060471434 0.76500005 5.5494376e-39
0.038715217 0.060629535 0.76700008 1.1076866e-38
0.040228561 0.06070859 0.76800001 1.65992e-38
0.04190857 0.061024766 0.77200007 1.6412666e-38
0.043379035 0.061024774 0.77200001 1.6231142e-38
0.044907611 0.061103813 0.77300012 1.6225755e-38
0.046499979 0.061261918 0.77500004 1.6223225e-38
0.048099998 0.061419997 0.77700007 1.6684534e-38
-0.037193339 0.064519063 0.79700011 8.5706006e-39
-0.035585761 0.064357154 0.79500002 6.4569885e-39
-0.033900008 0.064033344 0.79100001 4.3364526e-39
-0.032188598 0.063628584 0.78600007 3.4061908e-39
-0.030613314 0.063466676 0.7840001 2.4893058e-39
-0.028971432 0.063142866 0.78000009 2.4904171e-39
-0.027450493 0.063061908 0.7790001 2.4904283e-39
-0.025900001 0.062899992 0.77700007 2.2145743e-39
-0.024357153 0.062738106 0.7750001 1.9387034e-39
-0.022792397 0.062495258 0.77200007 1.6617578e-39
-0.021266652 0.062333331 0.7700001 1.3833745e-39
-0.019722881 0.062090483 0.76700008 1.106426e-39
-0.018214276 0.061928581 0.7650001 8.3092235e-40
-0.016713316 0.061766665 0.76300007 8.3092515e-40
-0.015260003 0.061766677 0.76300007 8.3092655e-40
-0.013806668 0.061766673 0.76300007 7.3909245e-40
-0.012320974 0.061604764 0.76100004 6.4725976e-40
-0.010857166 0.06152381 0.76000011 8.3165102e-40
-0.0094095459 0.061523814 0.76000011 1.0149675e-39
-0.0079409713 0.061361901 0.75800008 1.1068072e-39
-0.0064971591 0.061361909 0.75800008 1.1082449e-39
-0.0050533479 0.061361909 0.75800008 1.0178472e-39
-0.0035952579 0.06111905 0.75500005 9.2529559e-40
-0.0021571608 0.061119054 0.75500005 1.2011622e-39
-0.0007190766 0.061119057 0.75500005 1.4755981e-39
0.00071902701 0.061119039 0.75500011 1.7521864e-39
0.0021513945 0.060957152 0.75300002 1.9344211e-39
0.0035857039 0.060957152 0.75300008 1.7503885e-39
0.0050199791 0.060957145 0.75300002 1.4748792e-39
0.0064542531 0.060957149 0.75300002 1.3819647e-39
0.0078885611 0.060957152 0.75300008 1.2890446e-39
0.0093104606 0.060876194 0.75200003 1.1032129e-39
0.010742851 0.060876187 0.75200009 9.220642e-40
0.012175222 0.060876194 0.75200009 9.2351034e-40
0.013625694 0.060957152 0.75300002 9.2350894e-40
0.015059968 0.060957164 0.75300002 1.014627e-39
0.016538085 0.061119039 0.75500011 1.0157074e-39
0.01797617 0.061119046 0.75500011 1.3848458e-39
0.019414267 0.06111905 0.75500005 1.6592593e-39
0.020852352 0.061119057 0.75500005 2.1169864e-39
0.022290448 0.061119061 0.75500005 2.5768884e-39
0.023760011 0.061199997 0.75600004 1.8422114e-39
0.025200032 0.061199993 0.7560001 1.1086079e-39
0.026640022 0.061199997 0.7560001 1.7514605e-39
0.028080022 0.0612 0.7560001 2.4000501e-39
0.029715206 0.061604775 0.76100004 3.2312345e-39
0.031164745 0.061604775 0.76100004 4.0584672e-39
0.032700002 0.061766669 0.76300007 3.1393906e-39
0.034153331 0.061766677 0.76300007 2.2124303e-39
0.03569999 0.061928574 0.76500005 3.2147342e-39
0.037157144 0.061928574 0.7650001 4.2561708e-39
0.038765717 0.062171448 0.76800001 9.9708159e-39
0.040333334 0.062333334 0.7700001 1.5583207e-38
0.041908566 0.062495254 0.77200007 1.5392025e-38
0.043435246 0.062576197 0.77300012 1.5215153e-38
0.044907611 0.062576205 0.77300006 1.5475935e-38
0.046499979 0.062738106 0.7750001 1.5767221e-38
0.048100006 0.062899992 0.77700007 1.7878357e-38
-0.037193343 0.066037148 0.79700011 8.3880101e-39
-0.03558575 0.06587144 0.79500008 5.994958e-39
-0.033900004 0.065540001 0.79100007 3.6060875e-39
-0.032270502 0.065291442 0.78800011 2.7665808e-39
-0.030613316 0.064960003 0.7840001 2.0294151e-39
-0.028971441 0.064628586 0.78000009 2.3985788e-39
-0.027450493 0.064545721 0.7790001 2.8577632e-39
-0.025900027 0.064380005 0.77700001 2.4897094e-39
-0.024357187 0.064214319 0.77500004 2.1220087e-39
-0.022792401 0.063965738 0.77200001 1.7517968e-39
-0.021266663 0.063800007 0.7700001 1.3812179e-39
-0.019748582 0.063634306 0.76800007 1.1053428e-39
-0.018214285 0.063385718 0.76500005 9.2167744e-40
-0.016713334 0.063220009 0.76300007 8.3092375e-40
-0.015260021 0.063220009 0.76300007 7.3945259e-40
-0.013806659 0.063220009 0.76300007 7.3909806e-40
-0.012320971 0.063054301 0.76100004 8.302217e-40
-0.010871447 0.063054286 0.7610001 9.2313759e-40
-0.0094095543 0.062971443 0.76000005 1.0153318e-39
-0.0079619335 0.062971428 0.76000005 1.0149731e-39
-0.006497147 0.062805727 0.75800002 1.0146186e-39
-0.0050533363 0.06280572 0.75800008 8.3166924e-40
-0.0035952718 0.062557139 0.75500005 5.5652288e-40
-0.0021571738 0.062557146 0.75500005 8.3167064e-40
-0.0007190766 0.062557153 0.75500005 1.1990182e-39
0.00071902794 0.062557131 0.75500011 1.5667231e-39
0.0021571249 0.062557146 0.75500011 1.9329903e-39
0.003595209 0.062557146 0.75500005 1.8422324e-39
0.0050333063 0.062557153 0.75500005 1.751106e-39
0.0064714034 0.062557146 0.75500005 1.7493025e-39
0.0078885462 0.062391441 0.75300002 1.8400492e-39
0.0093228417 0.062391438 0.75300008 1.4726932e-39
0.010757116 0.062391445 0.75300008 1.1982769e-39
0.012191404 0.062391441 0.75300002 1.01462e-39
0.013661883 0.062557146 0.75500005 9.2278727e-40
0.015059973 0.062391441 0.75300002 1.015343e-39
0.016538085 0.062557146 0.75500011 1.1075485e-39
0.01797617 0.062557146 0.75500011 1.4756191e-39
0.019414267 0.062557146 0.75500005 1.8440205e-39
0.020880008 0.062639996 0.7560001 2.118434e-39
0.022320008 0.062640004 0.75600004 2.3946607e-39
0.023760019 0.062639996 0.7560001 1.8432904e-39
0.025200019 0.062640004 0.7560001 1.2929963e-39
0.026640024 0.062639996 0.7560001 1.9379972e-39
0.028154291 0.062805712 0.75800008 2.585149e-39
0.029715225 0.063054293 0.76100004 3.4138181e-39
0.03116475 0.063054293 0.7610001 4.3343212e-39
0.032700002 0.063220009 0.76300007 2.9531959e-39
0.034153331 0.063220009 0.76300007 1.6578286e-39
0.035700012 0.063385718 0.7650001 4.6937949e-39
0.037157137 0.06338571 0.7650001 7.7487545e-39
0.038765706 0.063634306 0.76800001 1.3652765e-38
0.040333342 0.063800007 0.7700001 1.9544267e-38
0.041908562 0.063965715 0.77200001 1.9452111e-38
0.043379046 0.063965738 0.77200007 1.9363117e-38
0.044849511 0.063965715 0.77200007 1.9451337e-38
0.046619996 0.064380005 0.77700007 1.9644346e-38
-0.037193369 0.067555241 0.79700011 8.1078204e-39
-0.035585754 0.067385718 0.79500002 5.4366947e-39
-0.033900026 0.06704668 0.79100007 2.767699e-39
-0.032188609 0.066622853 0.78600001 2.2076925e-39
-0.030613335 0.066453338 0.78400004 1.5695257e-39
-0.028971449 0.066114292 0.78000003 2.3996522e-39
-0.027485749 0.066114306 0.78000003 3.1332655e-39
-0.025900004 0.065860003 0.77700001 2.6726601e-39
-0.024357172 0.065690495 0.77500004 2.2116904e-39
-0.022792386 0.065436199 0.77200007 1.7503619e-39
-0.021266647 0.065266669 0.7700001 1.2900984e-39
-0.019722866 0.065012395 0.76700008 1.1961007e-39
-0.018214274 0.064842857 0.7650001 1.0131556e-39
-0.016713323 0.064673334 0.76300007 8.3092795e-40
-0.015260011 0.064673349 0.76300007 6.4725836e-40
-0.013806677 0.064673349 0.76300007 8.3128949e-40
-0.012320969 0.064503804 0.7610001 9.2277326e-40
-0.010871464 0.064503819 0.76100004 1.0146158e-39
-0.0094095422 0.064419061 0.76000011 1.0153346e-39
-0.0079619214 0.064419046 0.76000011 1.0153346e-39
-0.0064971428 0.064249538 0.75800008 9.2242433e-40
-0.0050533521 0.06424953 0.75800002 5.5364882e-40
-0.0035952569 0.063995242 0.75500005 1.881033e-40
-0.0021571598 0.063995242 0.75500005 5.5365442e-40
-0.00071907567 0.06399525 0.75500005 8.3131331e-40
0.00071900745 0.063995242 0.75500005 1.381969e-39
0.0021571259 0.063995242 0.75500011 1.9329847e-39
0.003595222 0.063995242 0.75500005 1.9337064e-39
0.0050333082 0.063995235 0.75500005 1.9336994e-39
0.0064714053 0.063995257 0.75500005 2.2081227e-39
0.0079094879 0.063995242 0.75500005 2.3910664e-39
0.0093476074 0.063995242 0.75500011 1.932598e-39
0.010785704 0.063995242 0.75500011 1.3815934e-39
0.012223788 0.063995235 0.75500005 1.1979322e-39
0.013661886 0.063995242 0.75500005 9.2278447e-40
0.01509997 0.06399525 0.75500005 1.0156976e-39
0.016538067 0.063995242 0.75500005 1.106824e-39
0.01797617 0.063995242 0.75500011 1.5656512e-39
0.019440012 0.064080007 0.7560001 2.0262538e-39
0.020880014 0.064080015 0.75600004 2.1184396e-39
0.022320019 0.064079985 0.7560001 2.2113499e-39
0.023760024 0.064079992 0.7560001 1.8429317e-39
0.025266662 0.064249538 0.75800008 1.4766673e-39
0.026710475 0.064249538 0.75800008 2.1216696e-39
0.028228566 0.064419061 0.76000011 2.6759167e-39
0.029715221 0.064503811 0.7610001 3.5960696e-39
0.031164726 0.064503819 0.76100004 4.5172944e-39
0.032700013 0.064673327 0.76300007 2.8646128e-39
0.034153327 0.064673349 0.76300007 1.1079002e-39
0.035700005 0.064842857 0.7650001 6.1534729e-39
0.037254255 0.065012395 0.76700002 1.1155314e-38
0.038765717 0.065097168 0.76800001 1.7347072e-38
0.040333342 0.065266669 0.7700001 2.3411104e-38
0.041908555 0.065436214 0.77200001 2.3417581e-38
0.04343522 0.065520965 0.77300006 2.3413263e-38
0.044849508 0.065436192 0.77200007 2.3414327e-38
0.046739988 0.066029534 0.77900004 2.3413615e-38
-0.037193347 0.069073334 0.79700011 7.3544628e-39
-0.035406675 0.068553329 0.79100007 4.4156652e-39
-0.033771444 0.068293348 0.78800005 1.4737218e-39
-0.03227048 0.068293363 0.78800011 1.8425197e-39
-0.030418104 0.067513347 0.77900004 2.3045755e-39
-0.028934309 0.067513347 0.77900004 2.8570318e-39
-0.027379995 0.067339994 0.77700007 3.500246e-39
-0.02590001 0.067340001 0.77700001 2.4886276e-39
-0.024357161 0.067166679 0.7750001 1.4755701e-39
-0.02279239 0.066906676 0.77200007 1.4759302e-39
-0.02126666 0.06673333 0.7700001 1.4755617e-39
-0.019748587 0.06656003 0.76800001 1.3812038e-39
-0.018166674 0.066126674 0.76300007 1.2875873e-39
-0.016713342 0.066126674 0.76300007 1.0131682e-39
-0.015260001 0.066126689 0.76300007 8.2985315e-40
-0.013770492 0.065953337 0.76100004 8.3056782e-40
-0.012320967 0.065953344 0.7610001 9.2277185e-40
-0.010871463 0.065953329 0.76100004 8.313049e-40
-0.0094095292 0.065866664 0.76000011 8.323825e-40
-0.0079619288 0.065866679 0.76000005 9.2350193e-40
-0.0065143085 0.065866664 0.76000005 1.1064541e-39
-0.0050533479 0.065693349 0.75800008 8.3202096e-40
-0.0035952718 0.065433338 0.75500011 5.5723754e-40
-0.0021571738 0.065433338 0.75500005 8.3203077e-40
-0.0007190766 0.065433331 0.75500005 1.1082519e-39
0.00071902142 0.065433353 0.75500005 1.5659903e-39
0.0021571249 0.065433338 0.75500011 2.0244573e-39
0.003595223 0.065433338 0.75500011 1.8422268e-39
0.0050333082 0.065433346 0.75500005 1.657474e-39
0.0064714043 0.065433338 0.75500005 1.656751e-39
0.0079094879 0.065433338 0.75500005 1.7467886e-39
0.009347586 0.065433346 0.75500005 1.3801599e-39
0.010785704 0.065433323 0.75500011 1.1050163e-39
0.012223787 0.065433331 0.75500005 9.220656e-40
0.013661886 0.065433338 0.75500005 8.2987137e-40
0.015099969 0.065433331 0.75500005 9.220642e-40
0.016538067 0.065433353 0.75500005 1.0139053e-39
0.01797617 0.065433331 0.75500011 1.9336994e-39
0.01941427 0.065433338 0.75500011 2.9442472e-39
0.020880003 0.065520003 0.75600004 2.5786975e-39
0.022320027 0.065519989 0.7560001 2.2135051e-39
0.023760015 0.065519989 0.7560001 1.8436478e-39
0.025266647 0.065693349 0.75800002 1.5674266e-39
0.026780941 0.065866664 0.76000011 1.754329e-39
0.02822856 0.065866664 0.76000011 2.0327179e-39
0.029715225 0.065953329 0.7610001 2.4011473e-39
0.031164745 0.065953344 0.76100004 2.8653513e-39
0.032700006 0.066126667 0.76300007 1.7543598e-39
0.034153335 0.066126689 0.76300007 6.4335154e-40
0.035793319 0.06647335 0.76700008 5.8001159e-39
0.037302859 0.06656003 0.76800007 1.0984595e-38
0.038866684 0.06673333 0.7700001 1.7160969e-38
0.040438093 0.066906676 0.77200007 2.3417621e-38
0.041962851 0.066993348 0.77300006 2.3417621e-38
0.043435238 0.066993326 0.77300012 2.3417624e-38
0.044907626 0.066993341 0.77300012 2.3415833e-38
-0.03531716 0.069882855 0.78900009 3.3982875e-39
-0.033771437 0.069794297 0.78800011 9.4730579e-41
-0.03210666 0.069440015 0.7840001 1.5673383e-39
-0.030613335 0.069440007 0.7840001 2.9470484e-39
-0.029119993 0.069440015 0.7840001 3.4073287e-39
-0.027450467 0.068997145 0.7790001 3.8672278e-39
-0.025900016 0.06882 0.77700007 2.3056713e-39
-0.024357166 0.06864287 0.77500004 6.5191768e-40
-0.022821913 0.068465725 0.77300006 1.1107392e-39
-0.021266645 0.0682 0.7700001 1.5677587e-39
-0.019748578 0.068022877 0.76800001 1.5656007e-39
-0.018214297 0.067757145 0.7650001 1.5641812e-39
-0.016757125 0.067757145 0.7650001 1.2883314e-39
-0.015300003 0.067757152 0.7650001 9.2205579e-40
-0.013806657 0.067580014 0.76300007 9.2240471e-40
-0.012353343 0.067580007 0.76300001 9.2313759e-40
-0.010900008 0.067580007 0.76300007 7.3876455e-40
-0.0094095375 0.067314297 0.76000005 5.5616555e-40
-0.0079619167 0.067314297 0.76000011 9.2386206e-40
-0.0065142969 0.067314282 0.76000011 1.292269e-39
-0.0050533358 0.067137152 0.75800008 1.1100232e-39
-0.0035999806 0.066960007 0.7560001 8.3381322e-40
-0.0021571598 0.066871434 0.75500005 1.1093337e-39
-0.00071907567 0.066871442 0.75500005 1.2919313e-39
0.00071902236 0.066871434 0.75500005 1.657481e-39
0.0021571054 0.066871442 0.75500005 2.0262594e-39
0.0035952239 0.066871434 0.75500011 1.6614299e-39
0.0050333072 0.066871427 0.75500005 1.2915712e-39
0.0064714062 0.066871449 0.75500005 1.1975777e-39
0.0079200137 0.06696 0.7560001 1.1053807e-39
0.0093600163 0.066959992 0.7560001 9.1991461e-40
0.010800019 0.06696 0.7560001 7.3803728e-40
0.012240007 0.066960007 0.7560001 7.3875614e-40
0.013680009 0.066959992 0.7560001 6.4619898e-40
0.015099969 0.066871442 0.75500005 8.2843084e-40
0.016538067 0.066871434 0.75500005 9.2242573e-40
0.017976165 0.066871442 0.75500005 2.3943132e-39
0.019440005 0.066960014 0.7560001 3.7722142e-39
0.020880027 0.066959992 0.7560001 2.946422e-39
0.022320013 0.066959992 0.7560001 2.1202445e-39
0.023760019 0.06696 0.7560001 1.8429261e-39
0.025333334 0.067314297 0.76000011 1.5670553e-39
0.026780954 0.067314282 0.76000011 1.4784441e-39
0.028265703 0.067402855 0.7610001 1.3873471e-39
0.029715208 0.067402884 0.76100004 1.2933817e-39
0.031246671 0.067580014 0.76300007 1.1161314e-39
0.032700002 0.06758 0.76300007 6.4328708e-40
0.034153331 0.067580029 0.76300007 9.4834275e-41
0.035606664 0.06758 0.76300007 5.4188296e-39
0.037302848 0.068022884 0.76800001 1.0706613e-38
0.038866673 0.068200007 0.7700001 1.7077767e-38
0.040438086 0.068377152 0.77200001 2.3416911e-38
0.041962855 0.06846571 0.77300012 2.3417612e-38
0.043435238 0.068465725 0.77300006 2.3417624e-38
0.045023795 0.068642855 0.77500004 2.3417278e-38
0.046499968 0.06864287 0.77500004 2.3324008e-38
-0.035317134 0.071385711 0.78900009 9.3916158e-39
-0.033771448 0.071295254 0.78800005 3.9492865e-39
-0.032188594 0.071114279 0.78600007 2.9426833e-39
-0.030691437 0.071114279 0.78600007 1.9368411e-39
-0.029119989 0.070933342 0.7840001 2.5811679e-39
-0.027450493 0.070480958 0.7790001 3.3162149e-39
-0.025900023 0.070299998 0.77700007 2.2145504e-39
-0.024357179 0.070119053 0.77500004 1.1132447e-39
-0.022792378 0.069847621 0.77200007 1.3862429e-39
-0.021266656 0.069666669 0.7700001 1.5677615e-39
-0.01974857 0.069485717 0.76800007 1.3819367e-39
-0.018214306 0.069214284 0.76500005 1.2886859e-39
-0.016757134 0.069214299 0.7650001 1.105752e-39
-0.015260009 0.06903334 0.76300001 1.0146172e-39
-0.013806675 0.06903334 0.76300007 9.2312218e-40
-0.012353333 0.069033347 0.76300001 9.2493686e-40
-0.010871458 0.068852387 0.7610001 8.3204619e-40
-0.0094095254 0.0687619 0.76000011 7.3984215e-40
-0.0079619056 0.068761915 0.76000011 1.0160563e-39
-0.0065143048 0.068761915 0.76000005 1.2015027e-39
-0.0050533311 0.068580955 0.75800008 9.2597662e-40
-0.0035999769 0.068399996 0.7560001 6.5049396e-40
-0.0021571729 0.068309531 0.75500011 9.2494807e-40
-0.00071907567 0.068309523 0.75500005 1.2922985e-39
0.00071902142 0.068309546 0.75500005 1.5674532e-39
0.0021571054 0.068309538 0.75500005 1.8436744e-39
0.003595223 0.068309531 0.75500011 1.4763282e-39
0.0050333072 0.068309538 0.75500011 1.2008161e-39
0.0064714053 0.068309531 0.75500005 9.2386907e-40
0.0079200175 0.068400003 0.7560001 7.4019808e-40
0.00936002 0.068399996 0.7560001 7.3947921e-40
0.010800008 0.068399996 0.7560001 7.3911908e-40
0.01224001 0.068399996 0.7560001 6.4764091e-40
0.013680011 0.068399988 0.7560001 6.4727517e-40
0.015099984 0.068309523 0.75500005 6.465493e-40
0.016560003 0.068399996 0.7560001 6.4727658e-40
0.018000005 0.068400003 0.75600004 1.7514647e-39
0.019440029 0.068400003 0.7560001 2.9467835e-39
0.020935228 0.068580955 0.75800002 2.58018e-39
0.022320019 0.068399996 0.7560001 2.3046427e-39
0.02382284 0.068580955 0.75800008 1.5674154e-39
0.02536664 0.068852387 0.76100004 8.2805529e-40
0.02681618 0.068852395 0.7610001 2.8523682e-39
0.028265683 0.068852395 0.76100004 4.9696391e-39
0.029793343 0.069033325 0.76300007 6.6460265e-39
0.031246668 0.069033355 0.76300007 8.2946864e-39
0.032700013 0.06903334 0.76300007 6.2649042e-39
0.034242868 0.069214284 0.7650001 4.2353069e-39
0.03583999 0.069485739 0.76800001 9.4011643e-39
0.037302855 0.069485724 0.76800001 1.4579164e-38
0.038866673 0.069666676 0.7700001 1.9003107e-38
0.040438104 0.069847621 0.77200007 2.3417635e-38
0.041962855 0.069938086 0.77300006 2.3417602e-38
0.043659993 0.070299998 0.77700007 2.3417624e-38
0.045140002 0.07029999 0.77700007 2.3417286e-38
-0.029119991 0.072426677 0.7840001 1.7557135e-39
-0.027450489 0.071964778 0.77900004 2.6744286e-39
-0.025900001 0.071779996 0.77700007 2.1226995e-39
-0.024357164 0.071595252 0.7750001 1.5713306e-39
-0.022792382 0.07131809 0.77200007 1.5688237e-39
-0.021211447 0.070948586 0.76800001 1.5670286e-39
-0.019799994 0.071133338 0.7700001 1.2897271e-39
-0.018214295 0.070671424 0.7650001 9.2240331e-40
-0.016757144 0.070671439 0.7650001 1.0142556e-39
-0.015259999 0.070486672 0.76300001 1.0138759e-39
-0.013842852 0.070671439 0.7650001 9.2166062e-40
-0.01235335 0.07048668 0.76300007 8.3092795e-40
-0.010899989 0.070486665 0.76300007 9.2458373e-40
-0.0094219232 0.07030192 0.76100004 9.2278587e-40
-0.007961913 0.070209526 0.76000005 1.0146158e-39
-0.0065142927 0.070209533 0.76000011 1.1085952e-39
-0.005053347 0.070024766 0.75800008 7.4160358e-40
-0.0036000011 0.069839999 0.7560001 3.7392108e-40
-0.0021571589 0.069747627 0.75500005 8.3168045e-40
-0.00071907567 0.069747634 0.75500005 1.2919453e-39
0.00071902236 0.069747627 0.75500005 1.4767023e-39
0.0021571054 0.069747627 0.75500005 1.567812e-39
0.0035952239 0.069747627 0.75500011 1.3834151e-39
0.0050333212 0.069747619 0.75500011 1.1082645e-39
0.0064714053 0.069747634 0.75500005 7.4020228e-40
0.0079200231 0.069839999 0.7560001 2.8174227e-40
0.0093600117 0.069839999 0.7560001 4.6649086e-40
0.010800014 0.069840007 0.7560001 6.4836539e-40
0.012240017 0.069839999 0.7560001 6.4872131e-40
0.013680005 0.069839999 0.7560001 6.4799684e-40
0.015120005 0.069840007 0.7560001 4.6324265e-40
0.016560009 0.069839992 0.75600004 2.8101359e-40
0.017999997 0.069840014 0.7560001 1.2008119e-39
0.01944002 0.069839999 0.7560001 2.1202571e-39
0.020935236 0.070024773 0.75800008 2.3064532e-39
0.022320021 0.069840007 0.7560001 2.3968341e-39
0.023885703 0.070209533 0.76000005 1.2937138e-39
0.025366643 0.07030192 0.7610001 9.447274e-41
0.026816163 0.070301913 0.76100004 4.3167546e-39
0.028265689 0.07030192 0.76100004 8.4902908e-39
0.029793352 0.070486665 0.76300007 1.2026718e-38
0.031246664 0.07048668 0.76300007 1.5392312e-38
0.032785706 0.070671439 0.76500005 1.1886387e-38
0.034332346 0.070856206 0.76700002 8.3113114e-39
0.035839997 0.070948586 0.76800001 1.3371643e-38
0.037302867 0.070948601 0.76800001 1.8444157e-38
0.038866676 0.071133338 0.7700001 2.0938102e-38
0.040438082 0.07131809 0.77200007 2.3417638e-38
0.04196284 0.071410485 0.77300006 2.3417616e-38
0.043435227 0.071410477 0.77300006 2.3417634e-38
0.045023788 0.071595252 0.77500004 2.3417654e-38
-0.027450467 0.073448583 0.7790001 1.7574945e-39
-0.025966672 0.073448569 0.7790001 1.6642227e-39
-0.024357172 0.07307145 0.77500004 1.5716753e-39
-0.022821914 0.072882853 0.77300012 1.9357929e-39
-0.021321932 0.072788581 0.77200007 2.3009811e-39
-0.019799978 0.072600015 0.7700001 1.8425183e-39
-0.018261939 0.072317153 0.76700008 1.4744743e-39
-0.016800979 0.072317153 0.76700008 1.2901012e-39
-0.015300012 0.072128579 0.7650001 1.1968056e-39
-0.013842862 0.072128572 0.7650001 9.216326e-40
-0.012353321 0.071940005 0.76300007 5.5253058e-40
-0.010900008 0.071940005 0.76300007 8.2986296e-40
-0.0094095496 0.071657144 0.76000011 1.0124578e-39
-0.0079619298 0.071657158 0.76000011 1.1989986e-39
-0.0065142796 0.071657144 0.76000011 1.3851835e-39
-0.0050533353 0.071468599 0.75800008 1.1093197e-39
-0.0035999964 0.071279995 0.7560001 8.3274824e-40
-0.0021599948 0.071280003 0.7560001 1.1997427e-39
-0.00071999209 0.071280003 0.7560001 1.6592929e-39
0.00071902236 0.071185723 0.75500005 1.7514998e-39
0.0021571063 0.071185723 0.75500005 1.8426052e-39
0.0035952034 0.071185723 0.75500005 1.6592789e-39
0.005040023 0.07127998 0.7560001 1.4756079e-39
0.0064714043 0.071185723 0.75500005 1.0164304e-39
0.0079200128 0.071279995 0.7560001 6.4908986e-40
0.0093600154 0.071279995 0.7560001 5.5582083e-40
0.010785683 0.071185723 0.75500005 3.7214704e-40
0.012240006 0.071279995 0.7560001 3.717841e-40
0.013680008 0.071279995 0.7560001 3.7357076e-40
0.015120009 0.071280003 0.7560001 4.6396432e-40
0.016559999 0.071279995 0.75600004 5.5688302e-40
0.01800002 0.071280003 0.7560001 1.4756023e-39
0.019440023 0.071279995 0.7560001 2.3943216e-39
0.020935232 0.071468584 0.75800008 2.3046441e-39
0.022379043 0.071468592 0.75800008 2.2131617e-39
0.023885703 0.071657151 0.76000011 1.1075415e-39
0.025366642 0.071751431 0.76100004 9.2345569e-41
0.026816167 0.071751438 0.76100004 5.0737206e-39
0.028339997 0.07194002 0.76300007 9.9844646e-39
0.029793331 0.071939997 0.76300007 1.2475557e-38
0.031246671 0.07194002 0.76300007 1.485109e-38
0.032785714 0.072128579 0.7650001 1.2092443e-38
0.034332365 0.072317153 0.76700008 9.3538746e-39
0.035839986 0.072411448 0.76800001 1.4770727e-38
0.037302852 0.072411448 0.76800007 2.020339e-38
0.03886668 0.0726 0.7700001 2.1856449e-38
0.040333338 0.072600015 0.7700001 2.3417641e-38
0.041908562 0.072788581 0.77200007 2.3417628e-38
0.043547589 0.073071443 0.77500004 2.332581e-38
0.045023788 0.073071435 0.77500004 2.3325826e-38
-0.022821901 0.074355245 0.77300006 2.3020461e-39
-0.021321936 0.074259065 0.77200007 3.0367329e-39
-0.019799991 0.074066654 0.7700001 2.4878765e-39
-0.018261941 0.073778108 0.76700002 1.9343664e-39
-0.016800961 0.073778093 0.76700008 1.6581579e-39
-0.015299994 0.073585719 0.7650001 1.3833674e-39
-0.013842851 0.073585719 0.7650001 8.3199574e-40
-0.012353338 0.073393345 0.76300007 2.8063104e-40
-0.010899997 0.073393337 0.76300007 7.3802326e-40
-0.0094095366 0.073104762 0.76000011 1.1067974e-39
-0.0079619372 0.073104769 0.76000005 1.3830199e-39
-0.0064971428 0.072912395 0.75800008 1.5684846e-39
-0.0050533512 0.072912395 0.75800002 1.3851723e-39
-0.0035999918 0.072719991 0.7560001 1.2004377e-39
-0.0021599901 0.072720006 0.7560001 1.5670735e-39
-0.00071998837 0.072720006 0.7560001 1.9347826e-39
0.00072000024 0.072720006 0.7560001 2.0266279e-39
0.0021600223 0.072719999 0.7560001 2.0269782e-39
0.0035952034 0.072623827 0.75500005 1.9354945e-39
0.0050400137 0.072719991 0.7560001 1.7521822e-39
0.0064800144 0.072719999 0.7560001 1.3837654e-39
0.0079200165 0.072719991 0.7560001 1.0139137e-39
0.0093600191 0.072720006 0.7560001 5.5150904e-40
0.010800007 0.072719999 0.7560001 9.663074e-41
0.012240009 0.072720006 0.7560001 9.2320345e-41
0.013680011 0.072720006 0.7560001 9.482867e-41
0.015120001 0.072719999 0.75600004 4.6181052e-40
0.016560024 0.072719991 0.7560001 8.3202797e-40
0.018000025 0.072719999 0.7560001 1.7507473e-39
0.019491417 0.072912395 0.75800002 2.5797751e-39
0.020935232 0.072912395 0.75800002 2.3042672e-39
0.022379028 0.07291238 0.75800002 1.936921e-39
0.023885692 0.073104776 0.76000005 1.0146172e-39
0.025366642 0.073200971 0.76100004 9.9867739e-41
0.026816167 0.073200956 0.76100004 5.8087549e-39
0.028265707 0.073200956 0.7610001 1.1449158e-38
0.029793339 0.073393337 0.76300007 1.2948352e-38
0.031246657 0.073393345 0.76300007 1.4302875e-38
0.032785721 0.073585719 0.7650001 1.2278498e-38
0.034242842 0.073585719 0.76500005 1.0262499e-38
0.035839994 0.07387431 0.76800001 1.6154396e-38
0.037302844 0.073874295 0.76800001 2.1945363e-38
0.03886668 0.074066676 0.7700001 2.2682864e-38
0.040333342 0.074066661 0.7700001 2.3410765e-38
0.041962851 0.074355245 0.77300006 2.3325779e-38
-0.018261923 0.075239062 0.76700008 1.1978874e-39
-0.016800992 0.075239047 0.76700002 1.2908131e-39
-0.015300005 0.075042859 0.76500005 1.3866185e-39
-0.013842861 0.075042866 0.7650001 1.3855647e-39
-0.012353328 0.074846677 0.76300007 1.479177e-39
-0.010900015 0.07484667 0.76300007 1.3848122e-39
-0.0094095459 0.074552387 0.76000005 1.3855254e-39
-0.0079619251 0.074552394 0.76000005 1.568116e-39
-0.0065143039 0.074552394 0.76000011 1.7525031e-39
-0.0050533479 0.074356206 0.75800008 1.5681132e-39
-0.003599989 0.074159987 0.7560001 1.4759316e-39
-0.0021599864 0.07416001 0.7560001 1.6592565e-39
-0.00071999861 0.074159995 0.7560001 1.9347672e-39
0.00072002446 0.074159995 0.7560001 2.0273243e-39
0.002160026 0.074159995 0.7560001 2.0280404e-39
0.0036000137 0.07415998 0.7560001 2.1209507e-39
0.0050400156 0.074159987 0.7560001 2.2135051e-39
0.0064800181 0.074159995 0.7560001 1.9329763e-39
0.0079200063 0.074159987 0.7560001 1.746797e-39
0.0093847448 0.074356206 0.75800008 4.8900118e-39
0.010800011 0.074159995 0.7560001 8.0023671e-39
0.012239999 0.074160002 0.7560001 6.1724647e-39
0.013680002 0.07416001 0.7560001 4.3181797e-39
0.015120002 0.074159995 0.75600004 2.4864934e-39
0.016560027 0.074159995 0.7560001 7.4198333e-40
0.018000014 0.074159995 0.7560001 1.5713783e-39
0.019440016 0.074159987 0.7560001 2.4918758e-39
0.020935236 0.074356198 0.75800008 2.5829826e-39
0.022379046 0.074356198 0.75800008 2.5822652e-39
0.023885703 0.074552402 0.76000005 1.3855325e-39
0.025366642 0.074650474 0.76100004 9.5553141e-41
0.026816182 0.074650496 0.7610001 2.9618461e-39
0.028265687 0.074650481 0.76100004 5.8511273e-39
0.029793339 0.07484667 0.76300007 7.4916597e-39
0.031246664 0.074846677 0.76300007 9.1431572e-39
0.032785706 0.075042866 0.76500005 8.8693365e-39
0.03433235 0.075239062 0.76700002 8.6815204e-39
0.035840001 0.075337157 0.76800001 1.2740736e-38
0.037302852 0.075337172 0.76800001 1.6801824e-38
-0.012353319 0.07630001 0.76300007 2.5789959e-39
-0.010900005 0.07630001 0.76300007 2.1198171e-39
-0.0094095329 0.076000012 0.76000011 1.5677293e-39
-0.007961913 0.075999998 0.76000011 1.7510443e-39
-0.0064971466 0.075800002 0.75800002 1.9343552e-39
-0.0050533353 0.075800009 0.75800002 1.8418008e-39
-0.0035999843 0.075599998 0.7560001 1.6585012e-39
-0.0021599827 0.075599998 0.75600004 1.8429009e-39
-0.00071999396 0.075599998 0.75600004 1.9351007e-39
0.00072001421 0.075599998 0.7560001 2.028018e-39
0.0021600176 0.075599991 0.7560001 2.0294543e-39
0.0036000193 0.075599998 0.7560001 2.3060398e-39
0.0050400202 0.075599998 0.7560001 2.577959e-39
0.0064800079 0.075599991 0.7560001 2.480025e-39
0.0079409527 0.075799987 0.75800008 2.415854e-39
0.0093847634 0.075800009 0.75800008 9.2587181e-39
0.0108 0.075599991 0.7560001 1.5947275e-38
0.012272364 0.075800009 0.75800002 1.2277076e-38
0.013716175 0.075800017 0.75800002 8.569886e-39
0.015159988 0.075800002 0.75800002 4.6079962e-39
0.0166038 0.075800002 0.75800002 5.636611e-40
0.01804761 0.075800002 0.75800002 1.4841825e-39
0.019491421 0.075799994 0.75800008 2.4017947e-39
0.020990463 0.076000012 0.76000005 2.8613057e-39
0.022438085 0.075999998 0.76000011 3.2254205e-39
0.023885718 0.075999998 0.76000011 1.6652947e-39
0.025366647 0.076100007 0.7610001 9.6207547e-41
0.026816165 0.076100022 0.76100004 9.22713e-41
0.02826569 0.076100022 0.76100004 1.1280313e-40
0.029793335 0.07630001 0.76300007 2.0231387e-39
0.031246664 0.07630001 0.76300007 3.89743e-39
-0.0036095416 0.07724382 0.75800002 1.4737274e-39
-0.002160006 0.077040002 0.7560001 1.6584858e-39
-0.00071998371 0.077039979 0.7560001 1.8428812e-39
0.00072001887 0.077040002 0.7560001 2.0287116e-39
