# .PCD v0.7 - Point Cloud Data file format
VERSION 0.7
FIELDS x y z rgb
SIZE 4 4 4 4
TYPE F F F F
COUNT 1 1 1 1
WIDTH 989
HEIGHT 1
VIEWPOINT 0 0 0 1 0 0 0
POINTS 989
DATA ascii
0.034393329 0.010528572 0.73700005 6.4402416e-40
0.035797115 0.010528587 0.73699999 1.0117137e-39
0.037301917 0.010557145 0.73900002 1.3783256e-39
0.038761877 0.01057145 0.73999995 1.837213e-39
0.040279951 0.010600016 0.74200004 2.8632563e-39
0.041749533 0.010614291 0.74300003 3.8755754e-39
0.043164749 0.010614283 0.74300003 2.9510967e-39
0.044699963 0.010642871 0.74500006 2.1234997e-39
0.046242841 0.010671437 0.74700004 2.7667041e-39
0.047729515 0.010685727 0.74800003 3.5024586e-39
0.049285688 0.0107143 0.75 2.6741399e-39
0.050849505 0.010742866 0.75200003 1.8451177e-39
0.052281886 0.010742866 0.75200003 2.3096846e-39
0.053785708 0.010757156 0.75300002 2.8805217e-39
0.055219989 0.010757148 0.75300002 8.870728e-39
0.056579024 0.010742858 0.75200003 1.4856095e-38
0.058011413 0.010742866 0.75200003 1.2265963e-38
0.059285697 0.010714293 0.75 9.5879349e-39
0.060714267 0.0107143 0.75000006 7.002458e-39
0.062142834 0.010714307 0.75000006 4.31743e-39
0.063571401 0.010714307 0.75 5.2527281e-39
0.064999968 0.0107143 0.75 6.1141258e-39
0.066428564 0.0107143 0.75 1.2837927e-38
0.067857102 0.0107143 0.75 1.965238e-38
0.069285676 0.010714315 0.75 1.8166482e-38
0.070902839 0.010742873 0.75200003 1.6805316e-38
-0.025333378 0.012304783 0.75999999 1.295066e-39
-0.023822881 0.012272388 0.75800002 1.937211e-39
-0.022320025 0.012240008 0.75600004 2.5789987e-39
-0.020880025 0.01224 0.75600004 3.1289397e-39
-0.019414311 0.012223817 0.75500005 2.4868143e-39
-0.01785719 0.012142874 0.75 1.8436127e-39
-0.016384801 0.012110487 0.74800003 1.1074994e-39
-0.014940022 0.012094297 0.74700004 2.8132188e-40
-0.013480987 0.012061916 0.745 5.5609409e-40
-0.012061923 0.012061924 0.745 7.3976087e-40
-0.010614288 0.012029529 0.74300003 5.5465075e-40
-0.0091990717 0.012029529 0.74300003 2.7916808e-40
-0.0077837999 0.012029529 0.74300003 7.3836938e-40
-0.0063600368 0.012013353 0.74200004 1.1056903e-39
-0.0049333689 0.011980966 0.74000001 9.2199834e-40
-0.0035333687 0.012013339 0.74200004 6.46873e-40
-0.0021057359 0.011932388 0.73699999 7.3801345e-40
-0.00070098485 0.01191619 0.73600006 7.3801766e-40
0.00070093502 0.011916198 0.73600006 9.2241032e-40
0.0021028251 0.011916213 0.73600006 1.0149549e-39
0.0035047189 0.011916198 0.73600006 1.1082183e-39
0.0049066073 0.011916205 0.73600006 1.1085826e-39
0.0063085272 0.011916198 0.73600006 1.107512e-39
0.0076895109 0.011883803 0.73400003 1.1060631e-39
0.0090876119 0.011883803 0.73400009 1.2875663e-39
0.010485682 0.011883818 0.73400003 1.4719561e-39
0.011883809 0.01188381 0.73400003 1.196451e-39
0.013245699 0.01185143 0.73200005 9.2199974e-40
0.014640008 0.011851445 0.73200005 9.2162139e-40
0.01603426 0.01185143 0.73199999 9.2129629e-40
0.017476182 0.011883803 0.73400003 7.3694146e-40
0.018874254 0.01188381 0.73400003 4.6143217e-40
0.020272356 0.011883818 0.73400003 3.6887781e-40
0.021670457 0.011883803 0.73400003 1.8556415e-40
0.023068581 0.01188381 0.73400003 1.1953945e-39
0.024466652 0.01188381 0.73400003 2.1151689e-39
0.025864754 0.01188381 0.73400003 1.4712303e-39
0.027337117 0.011916198 0.73600006 8.2875454e-40
0.028739011 0.011916198 0.73600006 6.4474023e-40
0.030140901 0.011916213 0.73600006 4.607063e-40
0.031585675 0.011932388 0.73699999 2.759549e-40
0.032989517 0.011932388 0.73699999 9.263844e-41
0.034486663 0.011964761 0.73900002 3.6814072e-40
0.035894267 0.011964768 0.73900002 5.5250816e-40
0.037301902 0.011964761 0.73900002 8.2691743e-40
0.038761873 0.011980966 0.74000001 1.0127955e-39
0.040279951 0.012013346 0.74200004 6.4694167e-40
0.041749515 0.012029529 0.74300003 2.8462053e-40
0.043164752 0.012029551 0.74299997 7.4200435e-40
0.044699978 0.012061909 0.74500006 1.1104155e-39
0.046242815 0.012094304 0.74699998 2.5794191e-39
0.047729488 0.012110494 0.74800003 4.0563162e-39
0.049285702 0.012142867 0.75 3.3180407e-39
0.050849501 0.012175247 0.75200003 2.5801296e-39
0.052351393 0.012191437 0.75300002 1.8386311e-39
0.053785674 0.01219143 0.75300002 1.0333483e-39
0.055219959 0.012191437 0.75300002 8.8692117e-39
0.056579046 0.012175247 0.75200003 1.6683121e-38
0.058011409 0.012175255 0.75200003 1.6696753e-38
0.059285682 0.012142867 0.75 1.6680922e-38
0.060714252 0.012142874 0.75 1.2359946e-38
0.062142845 0.012142874 0.75000006 8.0174423e-39
0.063571408 0.012142874 0.75 4.8677255e-39
0.064999983 0.012142874 0.75 1.78202e-39
0.06642855 0.012142882 0.75 1.2672172e-38
0.067857116 0.012142874 0.75000006 2.3417645e-38
0.069285683 0.012142874 0.75 2.3417649e-38
0.070902832 0.012175247 0.75200003 2.3417581e-38
0.072335221 0.012175262 0.75199997 2.3417513e-38
0.073571421 0.012142867 0.75 2.3412153e-38
-0.023822887 0.013716199 0.75799996 4.32132e-39
-0.022320036 0.013680004 0.75599998 3.0349336e-39
-0.02088004 0.013680011 0.75599998 1.7485388e-39
-0.019440042 0.013680018 0.75599998 1.3819325e-39
-0.017904807 0.013607644 0.75200003 1.0167345e-39
-0.016384799 0.013535254 0.74800003 5.561123e-40
-0.014940023 0.013517149 0.74700004 1.909115e-40
-0.013480996 0.013480969 0.745 3.7206016e-40
-0.012029525 0.013444766 0.74300003 4.6533619e-40
-0.010614309 0.013444781 0.74300003 4.6283067e-40
-0.0091990372 0.013444759 0.74300003 3.7064625e-40
-0.0077838204 0.013444774 0.74300003 9.2202636e-40
-0.0063600349 0.013426676 0.74200004 1.4737288e-39
-0.0049467147 0.013426676 0.74200004 1.1978355e-39
-0.0035333668 0.013426684 0.74200004 1.0138352e-39
-0.0021114356 0.013372369 0.73900002 9.213117e-40
-0.00070191431 0.013336189 0.73700005 8.2805249e-40
0.00070187007 0.013336189 0.73699999 1.0138857e-39
0.002102799 0.013318107 0.736 1.1986203e-39
0.0035047189 0.013318114 0.73600006 1.1996838e-39
0.004906639 0.013318099 0.73600006 1.2000468e-39
0.0063085272 0.013318114 0.736 1.1989748e-39
0.0077104471 0.013318092 0.73600006 1.1038939e-39
0.0090876287 0.013281904 0.73400003 1.4719351e-39
0.010485698 0.013281904 0.73400003 1.9318413e-39
0.0118838 0.013281904 0.73400003 1.4723149e-39
0.0132819 0.013281919 0.73400003 1.1049715e-39
0.014639963 0.013245732 0.73199999 9.2094036e-40
0.01603427 0.013245717 0.73199999 8.2875594e-40
0.017476173 0.013281904 0.73400003 6.4473602e-40
0.018874275 0.013281904 0.73400009 5.52546e-40
0.020272372 0.013281897 0.73400003 5.53625e-40
0.021670476 0.013281904 0.73400003 4.6250977e-40
0.023068573 0.013281912 0.73400003 1.1979126e-39
0.024466645 0.013281912 0.73400003 1.8410918e-39
0.025935229 0.013318099 0.73600006 1.2893333e-39
0.027337093 0.013318114 0.73600006 8.3017826e-40
0.028739013 0.013318099 0.73600006 7.3693025e-40
0.030181896 0.013336189 0.73700005 7.3620438e-40
0.031585682 0.013336204 0.73699999 4.6033075e-40
0.032989524 0.013336189 0.73700005 2.7701148e-40
0.034486677 0.013372391 0.73900002 6.4470379e-40
0.035894256 0.013372384 0.73900002 1.1045693e-39
0.037301891 0.013372377 0.73900002 1.2892871e-39
0.038761862 0.013390504 0.73999995 1.4740735e-39
0.040279958 0.013426684 0.74200004 1.6577837e-39
0.041749492 0.013444774 0.74300003 1.9347476e-39
0.043164764 0.013444774 0.74300003 3.41203e-39
0.044699967 0.013480976 0.745 4.966049e-39
0.04630474 0.013535246 0.74800003 5.161547e-39
0.047857117 0.013571449 0.75 5.3556198e-39
0.049285691 0.013571441 0.75000006 4.5154657e-39
0.05084952 0.013607621 0.75200003 3.7771888e-39
0.052281883 0.013607629 0.75200003 2.5768632e-39
0.05392855 0.013661928 0.755 1.3808998e-39
0.055219989 0.013625726 0.75300002 4.8929391e-39
0.056579012 0.013607636 0.75199997 8.402861e-39
0.058011401 0.013607629 0.75200003 1.0611661e-38
0.059285697 0.013571449 0.75000006 1.2833649e-38
0.060714263 0.013571456 0.75 1.2737868e-38
0.06214283 0.013571441 0.75 1.2728723e-38
0.063571393 0.013571449 0.75 7.8314886e-39
0.064999968 0.013571449 0.75000006 3.0353792e-39
0.066428535 0.013571456 0.75 7.5774332e-39
0.067857102 0.013571449 0.75 1.2213726e-38
0.069285698 0.013571441 0.75000006 1.7165343e-38
0.070714273 0.013571449 0.75 2.2223829e-38
0.07214281 0.013571441 0.75 2.2866677e-38
0.073571436 0.013571434 0.75000006 2.341769e-38
0.074999973 0.013571441 0.75 2.341769e-38
-0.023822889 0.015160002 0.75800002 6.7223692e-39
-0.022320051 0.015120015 0.75599998 3.4902309e-39
-0.020880023 0.015120007 0.75600004 2.8348408e-40
-0.019440025 0.015120015 0.75600004 1.8407877e-40
-0.017904788 0.01504001 0.75199997 9.5467662e-41
-0.016428597 0.015000015 0.75 9.2236268e-41
-0.014940024 0.014940009 0.74700004 9.4388662e-41
-0.013480979 0.014900014 0.74500006 1.844305e-40
-0.012061943 0.014900029 0.745 1.8587664e-40
-0.01064288 0.014900006 0.74500006 3.6848264e-40
-0.0091990558 0.014859997 0.74300003 4.6104541e-40
-0.0077838409 0.014860019 0.74300003 1.1968154e-39
-0.0063685686 0.014860012 0.74300003 1.8407204e-39
-0.004946711 0.014840014 0.74200004 1.5659118e-39
-0.003533391 0.014840029 0.74200004 1.2889984e-39
-0.0021114468 0.01478 0.73900002 1.1057156e-39
-0.00070384215 0.014780007 0.73900002 9.2169145e-40
0.00070187938 0.014740005 0.73699999 1.1975637e-39
0.0021056936 0.014740005 0.73700005 1.3822927e-39
0.0035095096 0.014740013 0.73700005 1.3833506e-39
0.0049133203 0.014740005 0.73699999 1.2915277e-39
0.0063171363 0.014740005 0.73700005 1.2000622e-39
0.007710421 0.014720008 0.73600006 1.1060645e-39
0.0091123404 0.014720015 0.73600006 1.7481857e-39
0.01051426 0.014720008 0.73600006 2.2984854e-39
0.011883792 0.014680006 0.73400003 1.8393135e-39
0.013281896 0.014679998 0.73400003 1.2882992e-39
0.014679966 0.014680006 0.73400003 1.0117165e-39
0.016078068 0.014679998 0.73400003 6.4473742e-40
0.017476192 0.014679998 0.73400003 6.4474303e-40
0.018874293 0.014679998 0.73400003 6.4545769e-40
0.020272365 0.014680006 0.73400003 7.3836798e-40
0.021670468 0.014679998 0.73400003 7.3873092e-40
0.023068566 0.014679991 0.73400003 1.2000664e-39
0.024466638 0.014680013 0.73400003 1.5655979e-39
0.025935201 0.014720015 0.73600006 1.197879e-39
0.027337093 0.014720015 0.736 7.3763651e-40
0.028739013 0.014720015 0.73600006 9.1988238e-40
0.030181905 0.014740005 0.73700005 1.0117025e-39
0.03158569 0.014740005 0.73700005 7.3618196e-40
0.032989506 0.01473999 0.73700005 3.6920151e-40
0.034486666 0.014779992 0.73900002 1.0127716e-39
0.035894271 0.014780015 0.73900002 1.5662817e-39
0.037352357 0.014800012 0.74000001 1.7513751e-39
0.038761858 0.01480002 0.73999995 1.935423e-39
0.040279958 0.014840022 0.74200004 2.7587321e-39
0.041749526 0.014860012 0.74300003 3.5059843e-39
0.043164741 0.014860019 0.74299997 6.1885978e-39
0.044819985 0.014940009 0.74700004 8.7538877e-39
0.046304747 0.014960006 0.74800003 7.6529323e-39
0.047857106 0.015000015 0.75 6.5394059e-39
0.049417127 0.015040018 0.75199997 5.7024622e-39
0.050917111 0.015060015 0.75300002 4.8755854e-39
0.052351423 0.01506 0.75300002 3.3111548e-39
0.053785678 0.015060008 0.75300002 1.6570705e-39
0.055219956 0.015060015 0.75300002 9.188314e-40
0.056579009 0.015040025 0.75199997 1.0707462e-40
0.058011424 0.015040018 0.75200003 4.5130793e-39
0.059285682 0.015000023 0.75 8.9492273e-39
0.060714275 0.015000008 0.75000006 1.3212108e-38
0.062142819 0.015000015 0.75000006 1.7320911e-38
0.063571386 0.015000023 0.75 1.0786841e-38
0.064999975 0.015000015 0.75000006 4.2407201e-39
0.06642855 0.015000015 0.75 2.571925e-39
0.067857116 0.015000023 0.75 8.6516027e-40
0.069285683 0.015000023 0.75 1.098975e-38
0.07071428 0.015000008 0.75 2.1018839e-38
0.072142825 0.015000015 0.75 2.2223829e-38
0.073571391 0.015000023 0.75 2.3417331e-38
0.074799992 0.014959998 0.74800003 2.341769e-38
-0.023822896 0.016603827 0.75799996 1.0790807e-38
-0.02237908 0.01660382 0.75799996 8.9405182e-39
-0.020880012 0.016560011 0.75599998 7.1905277e-39
-0.019440014 0.016560018 0.75599998 6.7247991e-39
-0.017928598 0.016494296 0.75299996 6.3431106e-39
-0.01642861 0.016428582 0.75000006 5.7070809e-39
-0.014940052 0.016362883 0.74699998 5.1438822e-39
-0.013480991 0.016319074 0.745 4.5014037e-39
-0.012061928 0.016319074 0.745 3.9493313e-39
-0.010642895 0.016319059 0.745 2.7558454e-39
-0.009223829 0.016319066 0.74500006 1.6534719e-39
-0.0077838055 0.016275242 0.74300003 1.2875747e-39
-0.006368591 0.016275257 0.74299997 1.0142094e-39
-0.0049533439 0.016275242 0.74300003 8.2909225e-40
-0.0035381035 0.016275249 0.74299997 7.3584985e-40
-0.0021143283 0.016209535 0.74000001 6.4511718e-40
-0.00070382538 0.016187623 0.73899996 5.5471941e-40
0.00070380722 0.016187623 0.73900002 6.4619758e-40
0.002105701 0.016143821 0.73700005 7.3980431e-40
0.0035094873 0.016143814 0.73699999 7.3870429e-40
0.0049133296 0.016143814 0.73699999 7.3908265e-40
0.0063171457 0.016143821 0.73700005 6.4690803e-40
0.0077104527 0.016121909 0.73600006 6.476241e-40
0.0091123404 0.016121916 0.73600006 9.2097539e-40
0.01051426 0.016121916 0.73600006 1.2872398e-39
0.011916154 0.016121909 0.73600006 1.1961203e-39
0.013281888 0.016078092 0.73400009 1.1050023e-39
0.014680014 0.0160781 0.73400003 1.0120906e-39
0.016078087 0.0160781 0.73400003 9.1953766e-40
0.017476188 0.0160781 0.73400003 7.3730159e-40
0.018874286 0.016078092 0.73400003 6.4617656e-40
0.020272359 0.0160781 0.73400003 5.5397392e-40
0.021670461 0.016078092 0.73400003 5.536236e-40
0.023131395 0.016121916 0.73600006 9.2205019e-40
0.024533285 0.016121924 0.73600006 1.288309e-39
0.025935205 0.016121916 0.73600006 8.2912448e-40
0.027337123 0.016121909 0.73600006 4.6106363e-40
0.028738987 0.016121916 0.73600006 5.5253899e-40
0.030181881 0.016143821 0.73699999 7.3583023e-40
0.031585697 0.016143814 0.73700005 6.4397231e-40
0.033079024 0.016187623 0.73900002 5.5215223e-40
0.034486655 0.016187623 0.73900002 1.1060491e-39
0.035894264 0.016187616 0.73900002 1.5691768e-39
0.037352324 0.016209543 0.73999995 2.2138218e-39
0.038866617 0.01625336 0.74200004 2.7673431e-39
0.040279966 0.016253337 0.74200004 3.5005879e-39
0.041749507 0.016275249 0.74299997 4.2431668e-39
0.043280911 0.016319066 0.745 7.5696952e-39
0.044879973 0.016384766 0.74800003 1.0881513e-38
0.046304721 0.016384766 0.74800003 8.1085099e-39
0.047857121 0.01642859 0.75000006 5.4262284e-39
0.049417119 0.016472407 0.75199997 5.5230455e-39
0.050917108 0.016494296 0.75300002 5.6091511e-39
0.052351419 0.016494282 0.75300002 5.1539281e-39
0.053928569 0.016538113 0.755 4.7830128e-39
0.055219986 0.016494304 0.75300002 4.5111077e-39
0.056579005 0.016472399 0.75199997 4.1344625e-39
0.05801142 0.016472384 0.75200003 5.246198e-39
0.059285693 0.016428605 0.75 6.2475463e-39
0.06071426 0.01642859 0.75 8.3896622e-39
0.06214283 0.01642859 0.75000006 1.0515812e-38
0.063401856 0.016384766 0.74800003 8.3012991e-39
0.064826652 0.016384766 0.74800003 6.0792237e-39
0.066428527 0.016428597 0.75 3.220757e-39
0.067676157 0.016384773 0.74800003 4.5972819e-40
0.069100931 0.016384766 0.74800003 5.8211185e-39
0.070714235 0.016428597 0.75 1.12814e-38
0.071950436 0.01638478 0.74800003 1.357479e-38
0.07337521 0.016384766 0.74800003 1.5977939e-38
0.074799962 0.016384773 0.74800003 1.5689518e-38
0.076224715 0.01638478 0.74800003 1.5519837e-38
-0.02382287 0.018047616 0.75800002 1.4842402e-38
-0.02237908 0.018047623 0.75800002 1.4473292e-38
-0.020935265 0.018047623 0.75800002 1.4010129e-38
-0.019440029 0.018000014 0.75599998 1.3273613e-38
-0.017928598 0.017928571 0.75300002 1.253318e-38
-0.016428595 0.017857164 0.75000006 1.1341104e-38
-0.014940056 0.017785728 0.74700004 1.0130718e-38
-0.013517174 0.017785721 0.74700004 8.9117229e-39
-0.012061936 0.017738104 0.74500006 7.7314919e-39
-0.010642901 0.017738111 0.74500006 5.2350717e-39
-0.0092238672 0.017738119 0.745 2.7687626e-39
-0.0077838278 0.017690487 0.74299997 1.4697701e-39
-0.0063685807 0.017690487 0.74300003 9.9417922e-41
-0.0049533662 0.017690502 0.74300003 9.2250281e-41
-0.0035380942 0.01769048 0.74300003 9.4771216e-41
-0.0021143078 0.017619058 0.74000001 9.22713e-41
-0.00070380862 0.017595239 0.73900002 9.5867032e-41
0.00070189242 0.017547622 0.73699999 9.2286714e-41
0.0021057085 0.017547622 0.73700005 9.4433504e-41
0.0035094928 0.017547615 0.73699999 9.2275504e-41
0.0049133352 0.01754763 0.73700005 9.3362911e-41
0.0063171512 0.01754763 0.73700005 9.2299326e-41
0.0077104527 0.017523825 0.73600006 9.3376924e-41
0.0091123162 0.01752381 0.736 1.8413903e-40
0.010514236 0.017523818 0.73600006 1.8485649e-40
0.011916154 0.017523818 0.73600006 5.5255721e-40
0.013281905 0.017476201 0.73400003 9.2025512e-40
0.014680005 0.017476179 0.73400003 1.0117305e-39
0.016078077 0.017476201 0.73400003 1.1039247e-39
0.017523749 0.017523825 0.73600006 9.2204878e-40
0.018925667 0.017523833 0.73600006 6.4544508e-40
0.020327587 0.01752381 0.73600006 4.610356e-40
0.021729477 0.017523825 0.736 2.7774857e-40
0.023131397 0.01752381 0.73600006 6.4547451e-40
0.024533316 0.017523825 0.73600006 9.2060825e-40
0.025935207 0.017523825 0.736 5.5289492e-40
0.0273371 0.01752381 0.73600006 9.4433504e-41
0.0287781 0.017547622 0.73700005 2.7738703e-40
0.030181887 0.01754763 0.73699999 4.6104962e-40
0.031585705 0.017547615 0.73700005 6.4399333e-40
0.033079039 0.017595246 0.73900002 7.3691764e-40
0.034533311 0.017619066 0.73999995 1.1982587e-39
0.035942812 0.017619073 0.73999995 1.570267e-39
0.037352342 0.017619058 0.73999995 2.5836889e-39
0.038866617 0.01766669 0.74200004 3.5938499e-39
0.040279966 0.017666675 0.74200004 4.2330816e-39
0.041749515 0.01769048 0.74300003 4.8924696e-39
0.043280933 0.017738111 0.745 8.9655538e-39
0.044999965 0.017857164 0.75 1.2897583e-38
0.046428535 0.017857164 0.75 8.5654957e-39
0.04798473 0.017904773 0.75200003 4.2463435e-39
0.049417116 0.017904773 0.75200003 5.2626198e-39
0.050917137 0.017928571 0.75300002 6.2667258e-39
0.05249045 0.01797621 0.755 7.0957704e-39
0.053999975 0.018000007 0.75599998 7.9237333e-39
0.055366654 0.01797621 0.75500005 8.1160222e-39
0.062142815 0.017857172 0.75 3.6036716e-39
0.063401885 0.017809525 0.74800003 5.7309772e-39
0.06482663 0.01780954 0.74800003 7.8284309e-39
0.066251412 0.017809533 0.74800003 3.9554998e-39
0.067676164 0.017809525 0.74800003 9.630704e-41
0.069100909 0.017809533 0.74800003 7.363375e-40
0.070525691 0.017809525 0.74800003 1.410774e-39
0.071950443 0.017809533 0.74800003 4.9073584e-39
0.073375188 0.01780954 0.74800003 8.4042511e-39
0.074799992 0.017809525 0.74800003 7.9339221e-39
0.076224737 0.017809533 0.74800003 7.4858569e-39
-0.022379056 0.019491434 0.75800002 1.5310616e-38
-0.020935241 0.019491434 0.75800002 1.5501479e-38
-0.019491449 0.019491419 0.75800002 1.5219889e-38
-0.0179286 0.019362874 0.75299996 1.495046e-38
-0.01642861 0.019285731 0.75 1.4021322e-38
-0.014940028 0.019208588 0.74699998 1.3105422e-38
-0.013517172 0.019208588 0.74700004 1.309317e-38
-0.012061949 0.019157156 0.745 1.3196466e-38
-0.010642885 0.019157156 0.74500006 1.2079354e-38
-0.0092238495 0.019157171 0.745 1.0981934e-38
-0.0077838176 0.01910571 0.74300003 8.3925461e-39
-0.0063686012 0.019105732 0.74300003 5.9033257e-39
-0.0049533308 0.019105732 0.74300003 6.0830745e-39
-0.0035381147 0.019105732 0.74300003 6.345661e-39
-0.0021143451 0.019028582 0.73999995 7.0878727e-39
-0.00070381979 0.019002847 0.73900002 7.8179072e-39
0.00070189801 0.018951438 0.73700005 7.9190823e-39
0.0021057141 0.018951423 0.73700005 7.9933526e-39
0.0035095003 0.018951431 0.73699999 7.7300542e-39
0.0049133166 0.018951438 0.73700005 7.5313206e-39
0.0063085104 0.018925741 0.73600006 5.79183e-39
0.0077104284 0.018925719 0.73600006 4.0412229e-39
0.0091123478 0.018925726 0.73600006 4.418615e-39
0.010514238 0.018925719 0.73600006 4.776274e-39
0.011916158 0.018925726 0.73600006 2.668005e-39
0.013318076 0.018925719 0.73600006 6.4475004e-40
0.014719966 0.018925726 0.736 7.3622119e-40
0.016121861 0.018925726 0.73600006 9.1953626e-40
0.01752378 0.018925726 0.73600006 8.2841963e-40
0.018925669 0.018925726 0.73600006 8.2802586e-40
0.020327585 0.018925734 0.73600006 6.4467857e-40
0.021729505 0.018925719 0.73600006 5.5288651e-40
0.023131369 0.018925726 0.73600006 9.2062927e-40
0.024533289 0.018925719 0.73600006 1.1957574e-39
0.025935208 0.018925719 0.73600006 8.2982933e-40
0.027337098 0.018925734 0.73600006 3.7208818e-40
0.028739018 0.018925719 0.73600006 4.6284748e-40
0.030181894 0.018951438 0.73699999 5.5396972e-40
0.03167142 0.01900287 0.73900002 4.6141956e-40
0.033123776 0.019028582 0.73999995 4.617881e-40
0.034533303 0.019028589 0.74000001 1.1082323e-39
0.035942804 0.019028589 0.73999995 1.7564632e-39
0.037453327 0.01908002 0.74200004 2.6766132e-39
0.038919061 0.019105725 0.74300003 3.6885427e-39
0.040334281 0.019105732 0.74300003 3.0431284e-39
0.041749518 0.019105718 0.74299997 2.4950568e-39
0.043280922 0.019157156 0.74500006 8.667478e-39
0.04487998 0.019234292 0.74800003 1.4820026e-38
0.046428546 0.019285724 0.75 1.2527296e-38
0.047857117 0.019285731 0.75 1.0219943e-38
0.049482826 0.019362859 0.75300002 9.5778246e-39
0.051052354 0.019414306 0.755 8.9353544e-39
0.052559964 0.019440018 0.75599998 7.6475233e-39
0.05399996 0.019440003 0.75599998 6.3736673e-39
0.055439956 0.01944001 0.75599998 6.7356311e-39
0.064826638 0.019234292 0.74800003 4.527402e-39
0.06625139 0.019234285 0.74800003 3.046172e-39
0.067676142 0.019234292 0.74800003 1.5695972e-39
0.069100916 0.019234285 0.74800003 2.1223702e-39
0.070525691 0.0192343 0.74800003 2.6762783e-39
0.071950436 0.019234292 0.74800003 5.1684175e-39
0.073375225 0.019234292 0.74800003 7.7365212e-39
0.074699968 0.019208595 0.74699998 8.3889924e-39
0.076224715 0.0192343 0.74800003 9.0282367e-39
0.07754568 0.019208588 0.74700004 8.9414066e-39
-0.022320021 0.020880006 0.75600004 1.6142185e-38
-0.020880025 0.020880006 0.75600004 1.6876513e-38
-0.019491458 0.020935245 0.75800002 1.7062339e-38
-0.01797621 0.020852409 0.755 1.724313e-38
-0.016472418 0.020769544 0.75200003 1.6687444e-38
-0.015000033 0.020714305 0.75 1.6048884e-38
-0.013571435 0.020714305 0.75000006 1.7342097e-38
-0.012061931 0.020576209 0.745 1.8534155e-38
-0.010642896 0.020576224 0.745 1.8812164e-38
-0.0092238327 0.020576209 0.74500006 1.9080817e-38
-0.0077838381 0.020520955 0.74300003 1.539875e-38
-0.0063685677 0.020520963 0.74300003 1.1618803e-38
-0.0049533513 0.02052097 0.74299997 1.2175213e-38
-0.0035381063 0.020520963 0.74300003 1.2625409e-38
-0.0021143227 0.020438105 0.73999995 1.4095841e-38
-0.00070190872 0.020355247 0.73699999 1.5480923e-38
0.00070190732 0.020355247 0.73700005 1.577259e-38
0.0021056917 0.02035524 0.73699999 1.5941914e-38
0.0035047003 0.020327635 0.73600006 1.5487046e-38
0.0049066185 0.020327635 0.73600006 1.4918767e-38
0.0063085384 0.02032762 0.73600006 1.1501793e-38
0.0077104284 0.020327643 0.73600006 8.02248e-39
0.009112346 0.020327628 0.73600006 8.7647281e-39
0.010514266 0.020327635 0.73600006 9.3913888e-39
0.01191613 0.020327635 0.73600006 4.8820762e-39
0.01331805 0.02032762 0.73600006 2.8169602e-40
0.014679992 0.020272382 0.73400009 4.6034897e-40
0.016078064 0.020272382 0.73400003 6.443913e-40
0.017523779 0.020327628 0.73600006 8.2807631e-40
0.018925698 0.020327628 0.73600006 9.2024251e-40
0.02032759 0.020327635 0.73600006 9.2021448e-40
0.021729484 0.020327635 0.73600006 8.2875874e-40
0.0231314 0.02032762 0.73600006 1.1957644e-39
0.02453329 0.020327628 0.73600006 1.4726904e-39
0.02593521 0.020327635 0.73600006 1.1064092e-39
0.02733713 0.020327628 0.73600006 6.4723033e-40
0.028778085 0.020355247 0.73699999 6.4722893e-40
0.030181903 0.020355247 0.73700005 5.5432144e-40
0.031671409 0.020410486 0.73900002 3.6957846e-40
0.033123769 0.020438105 0.74000001 9.5874038e-41
0.034626629 0.020493351 0.74199998 1.0167499e-39
0.036039956 0.020493351 0.74200004 1.9394083e-39
0.037453301 0.020493343 0.74199998 2.8617093e-39
0.03886665 0.020493351 0.74200004 3.6874609e-39
0.040334258 0.02052097 0.74300003 1.9396675e-39
0.04174953 0.02052097 0.74300003 1.0658136e-40
0.043397095 0.020631447 0.74700004 8.4805084e-39
0.044879958 0.020659059 0.74800003 1.6769044e-38
0.046428561 0.020714298 0.75000006 1.6503965e-38
0.047857132 0.020714305 0.75 1.6122941e-38
0.049482852 0.020797148 0.75300002 1.3893729e-38
0.051052365 0.020852402 0.75500005 1.1605743e-38
0.052699026 0.020935245 0.75800002 8.1845219e-39
0.054142844 0.020935252 0.75800002 4.8045424e-39
0.067676164 0.020659059 0.74800003 2.9546799e-39
0.069100924 0.020659059 0.74800003 3.5074739e-39
0.070525698 0.020659052 0.74800003 3.9684562e-39
0.071950443 0.020659044 0.74800003 5.5368455e-39
0.073375188 0.020659059 0.74800003 7.0097489e-39
0.074699968 0.02063144 0.74700004 8.8571676e-39
0.076122843 0.02063144 0.74700004 1.0599885e-38
0.077649467 0.020659059 0.74800003 9.962055e-39
0.079074278 0.020659044 0.74800003 9.3131221e-39
-0.022379065 0.022379041 0.75800002 1.2551659e-38
-0.020935249 0.022379048 0.75800002 1.466781e-38
-0.01944004 0.022320017 0.75599998 1.4853622e-38
-0.0179762 0.022290491 0.755 1.5128773e-38
-0.016494313 0.02223143 0.75300002 1.4942233e-38
-0.015000018 0.022142887 0.75 1.485616e-38
-0.013571476 0.022142872 0.75 1.6883379e-38
-0.012110527 0.022083826 0.74800003 1.8907706e-38
-0.010642907 0.021995261 0.745 1.9092095e-38
-0.0092238449 0.021995261 0.745 1.9374759e-38
-0.0077838046 0.021936208 0.74300003 1.6047498e-38
-0.0063685882 0.021936201 0.74300003 1.2813533e-38
-0.004953343 0.021936208 0.74300003 1.3743376e-38
-0.0035381007 0.021936215 0.74299997 1.4670321e-38
-0.0021143022 0.021847628 0.74000001 1.5587939e-38
-0.00070480141 0.021847643 0.73999995 1.6615368e-38
0.00070191291 0.021759056 0.73700005 1.6793678e-38
0.0021056992 0.021759048 0.73699999 1.7075996e-38
0.0035095152 0.021759048 0.73700005 1.734253e-38
0.0049133315 0.021759056 0.73700005 1.7716233e-38
0.0063171159 0.021759056 0.73700005 1.6134483e-38
0.0077104582 0.021729529 0.73600006 1.4578001e-38
0.0091123478 0.021729536 0.73600006 1.1626407e-38
0.010514242 0.021729544 0.73600006 8.6735877e-39
0.01191616 0.021729529 0.73600006 4.4239497e-39
0.01331805 0.021729544 0.73600006 1.8984371e-40
0.014719968 0.021729529 0.73600006 3.7029872e-40
0.016121889 0.021729536 0.73600006 4.6072451e-40
0.017523753 0.021729529 0.73600006 9.2064468e-40
0.018925672 0.021729529 0.73600006 1.2883244e-39
0.020327562 0.021729551 0.73600006 1.1046324e-39
0.021729482 0.021729529 0.73600006 9.2203757e-40
0.023162864 0.021759048 0.73700005 1.4726918e-39
0.02456665 0.021759056 0.73699999 2.1176829e-39
0.025970466 0.021759063 0.73700005 1.2904347e-39
0.027374281 0.021759048 0.73700005 4.6355374e-40
0.028856186 0.021818101 0.73900002 4.631922e-40
0.030263791 0.021818087 0.73900002 5.550319e-40
0.031714261 0.021847636 0.74000001 4.6212441e-40
0.033213317 0.021906681 0.74200004 4.6321042e-40
0.034626637 0.021906689 0.74199998 1.3844436e-39
0.036039982 0.021906689 0.74200004 2.3985774e-39
0.037453301 0.021906689 0.74199998 3.1354109e-39
0.03891902 0.021936201 0.74300003 3.9633219e-39
0.040334292 0.021936201 0.74300003 2.0268395e-39
0.041861892 0.021995261 0.74500006 9.2197031e-41
0.043397125 0.022054307 0.74700004 1.0054556e-38
0.044819951 0.0220543 0.74699998 2.0108151e-38
0.046428546 0.02214288 0.75 1.9919934e-38
0.047984745 0.022201918 0.75200003 1.983265e-38
0.049417131 0.022201926 0.75200003 1.8620381e-38
0.051255234 0.022379048 0.75800002 1.7521942e-38
0.052699048 0.022379056 0.75800002 1.5852402e-38
0.054357126 0.022467613 0.76100004 1.4102139e-38
0.055806659 0.022467621 0.76100004 1.3728332e-38
0.067585662 0.0220543 0.74700004 3.5067858e-39
0.069100916 0.022083811 0.74800003 3.9674067e-39
0.070525698 0.022083826 0.74800003 4.4290925e-39
0.071950451 0.022083819 0.74799997 5.3513907e-39
0.073375225 0.022083819 0.74800003 6.2754433e-39
0.074799977 0.022083819 0.74800003 8.4866264e-39
0.076224722 0.022083826 0.74800003 1.069535e-38
0.077649504 0.022083811 0.74800003 1.0328733e-38
0.079074249 0.022083826 0.74800003 9.8677532e-39
0.080714241 0.022142872 0.75 1.0051056e-38
0.082142808 0.02214288 0.75 1.0143596e-38
-0.023917176 0.023917161 0.76099998 5.7309716e-39
-0.022379071 0.023822859 0.75800002 9.0460696e-39
-0.020935278 0.023822866 0.75800002 1.2357894e-38
-0.019440023 0.023760013 0.75600004 1.2646681e-38
-0.017928598 0.023665726 0.75300002 1.2911061e-38
-0.016494315 0.023665711 0.75300002 1.3279832e-38
-0.015040041 0.023634307 0.75200003 1.3657257e-38
-0.013571464 0.023571447 0.75 1.6427067e-38
-0.012094297 0.023477152 0.74700004 1.9180341e-38
-0.010671469 0.023477159 0.74700004 1.9365449e-38
-0.0092238551 0.023414299 0.745 1.9552699e-38
-0.007783825 0.023351446 0.74299997 1.6786863e-38
-0.0063685798 0.023351431 0.74300003 1.4024269e-38
-0.0049533634 0.023351446 0.74300003 1.5314634e-38
-0.0035333743 0.023320012 0.74200004 1.6602474e-38
-0.0021143376 0.023257159 0.73999995 1.7154194e-38
-0.000704807 0.023257159 0.74000001 1.7618757e-38
0.00070377742 0.023225725 0.73900002 1.7893551e-38
0.0021057029 0.023162857 0.73699999 1.8171931e-38
0.0035095189 0.023162864 0.73700005 1.9273601e-38
0.0049133054 0.023162864 0.73699999 2.0378447e-38
0.0063171214 0.023162864 0.73700005 2.0742153e-38
0.0077104322 0.023131445 0.73600006 2.1015863e-38
0.0091123516 0.023131423 0.73600006 1.4488364e-38
0.010514242 0.023131438 0.73600006 7.8341552e-39
0.01191616 0.023131445 0.73600006 3.9500782e-39
0.01331805 0.023131445 0.736 9.4792236e-41
0.014719968 0.023131445 0.73600006 1.8699908e-40
0.016121862 0.02313143 0.73600006 2.7848985e-40
0.017523753 0.023131445 0.73600006 1.0139067e-39
0.018925672 0.023131445 0.73600006 1.6553034e-39
0.020327594 0.02313143 0.73600006 1.2872286e-39
0.021729484 0.023131453 0.736 9.2096278e-40
0.023162872 0.023162864 0.73700005 1.8393191e-39
0.024566654 0.023162872 0.73699999 2.7590992e-39
0.02597047 0.023162849 0.73700005 1.4733925e-39
0.027374256 0.023162864 0.73699999 1.8768992e-40
0.028856177 0.02322571 0.73900002 3.7099797e-40
0.030304724 0.023257159 0.74000001 4.6246212e-40
0.031799968 0.023320019 0.74200004 6.4468698e-40
0.033213317 0.023320012 0.74200004 8.3017405e-40
0.034626637 0.023320004 0.74200004 1.8432582e-39
0.036088567 0.023351438 0.74300003 2.7648403e-39
0.037503783 0.023351446 0.74300003 3.5020326e-39
0.038919058 0.023351431 0.74300003 4.1423279e-39
0.040442843 0.023414306 0.745 2.1125779e-39
0.041974269 0.023477152 0.74700004 1.0661779e-40
0.043397125 0.023477152 0.74700004 1.1720651e-38
0.044999991 0.023571447 0.75 2.3316369e-38
0.046614259 0.023665719 0.75300002 2.3417585e-38
0.048176181 0.023728579 0.755 2.3416831e-38
0.049679983 0.023760013 0.75600004 2.3417512e-38
0.051390421 0.023885734 0.75999999 2.3413206e-38
0.052838031 0.023885734 0.75999999 2.3417511e-38
0.054357108 0.023917153 0.76099998 2.340387e-38
0.055953313 0.023980007 0.76300001 2.2117449e-38
0.074699961 0.023477167 0.74700004 8.2104235e-39
0.076428548 0.023571447 0.75 1.0789328e-38
0.077649482 0.023508586 0.74800003 1.0605634e-38
0.079074286 0.023508579 0.74800003 1.0420898e-38
0.080499031 0.023508579 0.74800003 1.0695696e-38
0.082142822 0.023571447 0.75 1.0971902e-38
0.083571427 0.023571439 0.75000006 1.0969733e-38
-0.023980021 0.025433324 0.76300001 4.7877926e-39
-0.022438139 0.025333352 0.76000005 5.7162594e-39
-0.020935258 0.025266677 0.75800002 6.6425317e-39
-0.01949144 0.02526667 0.75800002 6.6429156e-39
-0.017976237 0.025166683 0.755 6.6393157e-39
-0.016494315 0.025099993 0.75300002 6.8326584e-39
-0.01504002 0.025066681 0.75200003 7.0353955e-39
-0.013571449 0.025000013 0.75000006 1.0255431e-38
-0.012110521 0.024933353 0.74800003 1.3480439e-38
-0.01067147 0.024900012 0.74700004 1.485977e-38
-0.0092238365 0.024833351 0.74500006 1.6346357e-38
-0.0077838148 0.024766684 0.74300003 1.5597682e-38
-0.0063685984 0.024766669 0.74300003 1.4855465e-38
-0.0049533281 0.024766676 0.74300003 1.6238378e-38
-0.0035333454 0.024733357 0.74200004 1.7709899e-38
-0.0021143171 0.024666682 0.73999995 1.6973421e-38
-0.00070381234 0.024633341 0.73900002 1.6239805e-38
0.00070379232 0.024633326 0.73899996 1.6698614e-38
0.0021114268 0.024633341 0.73900002 1.7158519e-38
0.0035095264 0.02456668 0.73700005 1.8265575e-38
0.004913311 0.024566673 0.73699999 1.9372982e-38
0.006317127 0.024566673 0.73700005 1.9737813e-38
0.0077209431 0.024566665 0.73700005 2.0111549e-38
0.0091247549 0.024566673 0.73699999 1.3095037e-38
0.010528571 0.02456668 0.73700005 6.1534953e-39
0.011932357 0.024566673 0.73699999 3.1232126e-39
0.013318057 0.024533346 0.73600006 1.8448795e-40
0.014719947 0.024533339 0.73600006 2.7776959e-40
0.016121868 0.024533346 0.73600006 3.7104422e-40
0.017523784 0.024533346 0.73600006 8.2950844e-40
0.018925674 0.024533346 0.736 1.3790753e-39
0.020327594 0.024533354 0.73600006 9.2060405e-40
0.021729486 0.024533339 0.73600006 5.5398233e-40
0.023162846 0.024566673 0.73699999 1.3815794e-39
0.024566662 0.024566673 0.73699999 2.2084478e-39
0.026040949 0.024633341 0.73900002 1.2897243e-39
0.027448554 0.024633333 0.73900002 4.6319921e-40
0.028895188 0.024666682 0.73999995 5.5466896e-40
0.030386651 0.02473335 0.74200004 6.4575897e-40
0.031799968 0.024733342 0.74200004 8.2868307e-40
0.033258114 0.024766676 0.74300003 9.1983894e-40
0.034673333 0.024766684 0.74300003 1.934372e-39
0.036088549 0.024766684 0.74299997 2.8563129e-39
0.037604738 0.024833336 0.74500006 3.5935066e-39
0.039023772 0.024833351 0.745 4.235597e-39
0.040551387 0.024900012 0.74700004 2.2072833e-39
0.041974243 0.024900012 0.74699998 9.2338562e-41
0.043455221 0.024933331 0.74800003 1.1717204e-38
0.044999976 0.025000028 0.75 2.3233936e-38
0.046738058 0.02516669 0.755 2.3325759e-38
0.048176158 0.025166698 0.755 2.3417634e-38
0.049811434 0.02526667 0.75800002 2.3417672e-38
0.051458087 0.025366664 0.76100004 2.3417672e-38
0.052907616 0.025366664 0.76100004 2.341767e-38
0.054357115 0.025366679 0.76099998 2.3417662e-38
0.05609997 0.025500014 0.76500005 2.2771218e-38
0.074799955 0.024933338 0.74800003 7.7494734e-39
0.076428562 0.025000013 0.75 1.089084e-38
0.077857114 0.025000013 0.75 1.0886122e-38
0.079074256 0.024933346 0.74800003 1.0881489e-38
0.08071427 0.025000021 0.75000006 1.1157384e-38
0.082142837 0.025000036 0.75 1.1343543e-38
-0.025433354 0.026886672 0.76299995 2.9481428e-39
-0.023917155 0.026816204 0.76099998 3.7728938e-39
-0.022438161 0.02678097 0.75999999 2.2967338e-39
-0.020935262 0.026710488 0.75799996 8.3491605e-40
-0.019491469 0.026710488 0.75800002 5.5153426e-40
-0.017976224 0.026604787 0.755 2.8500309e-40
-0.016494317 0.026534289 0.75300002 2.8465136e-40
-0.015040023 0.026499055 0.75200003 3.0154402e-40
-0.013571468 0.026428595 0.75 3.987193e-39
-0.012110515 0.026358105 0.74800003 7.6635009e-39
-0.010671445 0.026322871 0.74700004 1.0338228e-38
-0.0092238206 0.026252396 0.74500006 1.3004707e-38
-0.0077838372 0.026181921 0.74300003 1.4402349e-38
-0.0063685649 0.026181921 0.74300003 1.5676941e-38
-0.0049533504 0.026181914 0.74300003 1.7256455e-38
-0.0035333417 0.026146673 0.74200004 1.8714705e-38
-0.0021143227 0.026076198 0.74000001 1.6790109e-38
-0.00070382352 0.026040949 0.73900002 1.4849002e-38
0.00070381281 0.026040956 0.73900002 1.550225e-38
0.0021114156 0.026040956 0.73900002 1.6051109e-38
0.0035190501 0.026040941 0.73900002 1.7256448e-38
0.004926655 0.026040956 0.73900002 1.8352023e-38
0.0063342894 0.026040964 0.73900002 1.8815869e-38
0.0077209207 0.025970474 0.73699999 1.9173433e-38
0.0091247344 0.025970481 0.73700005 1.1809999e-38
0.010528577 0.025970481 0.73700005 4.4222135e-39
0.011932363 0.025970481 0.73699999 2.2963148e-39
0.013318055 0.025935248 0.73600006 1.851872e-40
0.014719975 0.025935255 0.73600006 3.688722e-40
0.016121866 0.02593524 0.73600006 4.6215664e-40
0.017523786 0.025935248 0.73600006 7.3767854e-40
0.018925676 0.025935248 0.73600006 1.0131584e-39
0.020327566 0.025935255 0.73600006 6.4543247e-40
0.021759041 0.025970481 0.73700005 1.8770533e-40
0.023162827 0.025970481 0.73699999 9.2384105e-40
0.024566669 0.025970474 0.73700005 1.5659622e-39
0.026040938 0.026040941 0.73900002 1.1060561e-39
0.027448572 0.026040956 0.73900008 6.4687721e-40
0.02889521 0.026076205 0.74000001 7.3835397e-40
0.030386627 0.026146688 0.74199998 8.2945519e-40
0.031799976 0.02614668 0.74200004 9.2091513e-40
0.033258092 0.026181914 0.74300003 1.0138492e-39
0.034673311 0.026181921 0.74299997 2.0265733e-39
0.036088582 0.026181914 0.74300003 2.9499477e-39
0.037604723 0.026252404 0.745 3.6875001e-39
0.039023787 0.026252396 0.74500006 4.3256416e-39
0.040551409 0.026322871 0.74700004 2.2044134e-39
0.042030446 0.02635809 0.74800003 1.1099125e-40
0.043571394 0.026428573 0.75000006 1.1637204e-38
0.045179974 0.026534289 0.75300002 2.3135653e-38
0.04673807 0.026604787 0.755 2.3325783e-38
0.048239958 0.026640013 0.75599998 2.3417648e-38
0.049811404 0.02671048 0.75800002 2.3417676e-38
0.051458068 0.026816197 0.76100004 2.3417679e-38
0.052907597 0.026816197 0.76100004 2.341768e-38
0.054499976 0.026886672 0.76299995 2.3417672e-38
0.056099944 0.026957162 0.76499999 2.3417663e-38
0.057707626 0.027027629 0.76700002 2.3417602e-38
0.074999958 0.02642858 0.75 7.3749525e-39
0.076428555 0.02642858 0.75000006 1.0974799e-38
0.077857114 0.026428595 0.75000006 1.1166328e-38
0.079074264 0.026358098 0.74800003 1.1343556e-38
0.080714256 0.02642858 0.75 1.1524371e-38
0.08214283 0.02642858 0.75000006 1.1711252e-38
0.083571389 0.026428595 0.75 1.1895264e-38
-0.025433362 0.028340004 0.76300001 3.499153e-39
-0.023917172 0.028265722 0.76099998 3.773565e-39
-0.022438155 0.028228581 0.75999999 2.9466686e-39
-0.020935263 0.028154291 0.75800002 2.2055359e-39
-0.019491449 0.028154291 0.75800002 2.1176549e-39
-0.017928626 0.027968585 0.75300002 2.0208237e-39
-0.016494313 0.027968571 0.75300002 1.3801543e-39
-0.015040027 0.027931444 0.75200003 8.2700151e-40
-0.013571453 0.027857162 0.75 2.3057077e-39
-0.012110513 0.02778288 0.74800003 3.8576163e-39
-0.010671446 0.027745716 0.74700004 5.2488114e-39
-0.0092238588 0.027671456 0.745 6.523071e-39
-0.0077838018 0.027597159 0.74300003 7.190714e-39
-0.0063685873 0.027597144 0.74299997 7.9279399e-39
-0.0049533402 0.027597144 0.74300003 8.6741342e-39
-0.0035333696 0.027560025 0.74199998 9.4188683e-39
-0.002114332 0.027485736 0.73999995 8.4879633e-39
-0.0007038347 0.027448572 0.73900002 7.4662934e-39
0.00070379977 0.027448572 0.73900002 7.7543555e-39
0.0021114044 0.027448572 0.73900002 8.1342405e-39
0.003519037 0.027448572 0.73900002 8.6834472e-39
0.0049266438 0.027448587 0.73900002 9.2387762e-39
0.0063342783 0.027448572 0.73900002 9.7883654e-39
0.0077209282 0.02737429 0.73699999 1.0252445e-38
0.0091247438 0.027374297 0.73700005 6.4608814e-39
0.010528584 0.027374282 0.73700005 2.663668e-39
0.01193237 0.02737429 0.73699999 1.6545215e-39
0.013336184 0.027374275 0.73700005 7.3725815e-40
0.014719975 0.027337149 0.73600006 5.5396131e-40
0.01612187 0.027337149 0.73600006 2.7884018e-40
0.01752376 0.027337149 0.73600006 7.3840161e-40
0.01892568 0.027337149 0.73600006 1.1982559e-39
0.020355232 0.027374297 0.73700005 8.3015443e-40
0.021759048 0.027374282 0.73700005 4.6356074e-40
0.023162834 0.02737429 0.73700005 9.2348652e-40
0.024566676 0.02737429 0.73700005 1.3826528e-39
0.026040953 0.027448572 0.73900002 9.223879e-40
0.027485672 0.027485721 0.74000001 4.6285589e-40
0.028973309 0.027560011 0.74200004 6.4581362e-40
0.030386627 0.027560018 0.74200004 9.2023971e-40
0.031842858 0.027597152 0.74300003 7.3728198e-40
0.033258077 0.027597152 0.74299997 6.4652968e-40
0.034673322 0.027597152 0.74300003 1.7532248e-39
0.036185682 0.027671434 0.74500006 2.8617065e-39
0.037604742 0.027671449 0.745 2.861345e-39
0.039128557 0.027745724 0.74700004 2.9506231e-39
0.040551413 0.027745739 0.74700004 2.1176002e-39
0.042030446 0.027782865 0.74800003 1.387001e-39
0.043571405 0.027857155 0.75000006 1.2273949e-38
0.045179978 0.027968571 0.75300002 2.3233957e-38
0.046738081 0.028042875 0.755 2.3325089e-38
0.048239999 0.028080009 0.75600004 2.3417303e-38
0.049811427 0.028154284 0.75800002 2.3417321e-38
0.051458076 0.02826573 0.76099998 2.3417327e-38
0.052907579 0.028265722 0.76099998 2.3417331e-38
0.054499995 0.028340004 0.76300001 2.3417682e-38
0.074999973 0.027857155 0.75 6.9168457e-39
0.07642854 0.027857162 0.75 1.0334477e-38
0.077857099 0.02785717 0.75 1.1255689e-38
0.079285696 0.02785717 0.75 1.2077901e-38
0.08071427 0.02785717 0.75 1.2170451e-38
0.082142815 0.02785717 0.75 1.2264785e-38
0.083571404 0.027857162 0.75000006 1.2264771e-38
-0.022438148 0.029676199 0.76000005 3.6950307e-39
-0.020935269 0.029598117 0.75799996 3.5996191e-39
-0.019440023 0.029520005 0.75599998 3.6921846e-39
-0.017976234 0.029480971 0.755 3.7789923e-39
-0.016494317 0.029402867 0.75300002 2.5722108e-39
-0.015040032 0.029363826 0.75200003 1.2865013e-39
-0.013571464 0.029285729 0.75000006 7.3511697e-40
-0.01211051 0.029207632 0.74800003 9.3015389e-41
-0.010685761 0.029207624 0.74800003 9.2328753e-41
-0.0092238421 0.029090501 0.74500006 9.3067238e-41
-0.0078048077 0.029090494 0.745 9.2370792e-41
-0.006368577 0.029012389 0.74300003 9.9913982e-41
-0.0049533625 0.029012382 0.74300003 9.239041e-41
-0.003533364 0.028973356 0.74200004 1.0531318e-40
-0.0021143358 0.028895251 0.74000001 9.2407226e-41
-0.00070381979 0.028856196 0.73900002 1.0066648e-40
0.00070381467 0.028856188 0.73900002 9.7806429e-41
0.0021114193 0.028856196 0.73900002 1.0999492e-40
0.0035190538 0.028856203 0.73900002 1.0460693e-40
0.0049266326 0.028856188 0.73900002 1.1393397e-40
0.0063342652 0.028856188 0.73900002 7.5463145e-40
0.0077209338 0.028778106 0.73700005 1.3091715e-39
0.0091247493 0.028778106 0.73700005 1.1168307e-39
0.010528562 0.028778099 0.73699999 8.3126987e-40
0.011932378 0.028778106 0.73700005 1.1038981e-39
0.013336194 0.028778091 0.73700005 1.2893683e-39
0.01473998 0.028778106 0.73699999 7.3871971e-40
0.016143797 0.028778106 0.73700005 9.588665e-41
0.017547637 0.028778091 0.73700005 7.3910787e-40
0.018951423 0.028778106 0.73699999 1.2900998e-39
0.02035524 0.028778091 0.73700005 1.0127801e-39
0.021759026 0.028778099 0.73699999 6.4653389e-40
0.023225706 0.028856188 0.73900002 9.2385506e-40
0.024633309 0.028856196 0.73900002 1.1986203e-39
0.026076162 0.028895251 0.73999995 7.3798543e-40
0.027485693 0.028895259 0.74000001 1.8698366e-40
0.028973311 0.028973356 0.74200004 5.5397812e-40
0.030427624 0.029012397 0.74300003 9.2095717e-40
0.031842839 0.029012404 0.74299997 6.4508915e-40
0.033258084 0.029012382 0.74300003 2.802667e-40
0.034673326 0.029012397 0.74299997 1.5699195e-39
0.036185671 0.029090494 0.745 2.7688004e-39
0.037604731 0.029090494 0.74500006 2.1291777e-39
0.039023768 0.029090501 0.745 1.478751e-39
0.040551413 0.029168576 0.74700004 2.1125864e-39
0.04203045 0.029207617 0.74800003 2.6931569e-39
0.04357139 0.029285736 0.75 1.3020487e-38
0.045299958 0.029480971 0.755 2.3228588e-38
0.046738062 0.029480979 0.755 2.3323663e-38
0.048239987 0.029520012 0.75599998 2.3416933e-38
0.04994281 0.029676214 0.75999999 2.3416933e-38
0.051593319 0.029793344 0.76299995 2.3325112e-38
0.074799962 0.029207617 0.74800003 6.4562459e-39
0.076428555 0.029285736 0.75 9.6884122e-39
0.077649489 0.029207632 0.74800003 1.1260365e-38
0.079074271 0.029207624 0.74800003 1.2817258e-38
0.080714278 0.029285736 0.75 1.2814024e-38
0.08214283 0.029285744 0.75 1.272433e-38
0.083571389 0.029285729 0.75 1.2726112e-38
-0.022438142 0.031123824 0.76000005 7.7480356e-39
-0.020935269 0.031041913 0.75800002 7.4682398e-39
-0.019440036 0.030960009 0.75599998 7.1977696e-39
-0.017976226 0.030919068 0.755 6.9229441e-39
-0.016494315 0.030837148 0.75300002 3.7750294e-39
-0.015040011 0.0307962 0.75200003 7.3652808e-40
-0.01360765 0.030796215 0.75200003 3.6914826e-40
-0.012142883 0.030714288 0.75000006 9.5464859e-41
-0.010685728 0.030632384 0.74800003 9.3341892e-41
-0.0092485957 0.030591443 0.74700004 9.2624427e-41
-0.00780479 0.030509539 0.745 9.2265695e-41
-0.0063857571 0.030509554 0.745 9.2254484e-41
-0.0049533253 0.030427635 0.74300003 1.8407737e-40
-0.0035381101 0.030427627 0.74300003 1.8408858e-40
-0.0021200131 0.030386671 0.74200004 1.8445852e-40
-0.00070481445 0.030304775 0.73999995 2.759549e-40
0.00070474227 0.030304775 0.74000001 5.53632e-40
0.0021114082 0.030263819 0.73900002 8.269833e-40
0.0035190426 0.030263811 0.73900002 6.4653669e-40
0.0049266475 0.030263826 0.73899996 5.514642e-40
0.006334282 0.030263819 0.73900002 1.0156541e-39
0.0077419146 0.030263804 0.73900002 1.5616448e-39
0.0091494927 0.030263819 0.73900002 1.3822786e-39
0.010557127 0.030263804 0.73900002 1.1957504e-39
0.011932383 0.030181915 0.73700005 1.0128095e-39
0.01333617 0.030181915 0.73699999 7.4017005e-40
0.014739987 0.030181915 0.73700005 4.628657e-40
0.016143804 0.030181907 0.73700005 9.588665e-41
0.017547587 0.030181907 0.73699999 3.7139594e-40
0.018951429 0.030181922 0.73700005 7.4124905e-40
0.020355245 0.030181907 0.73700005 5.5399074e-40
0.021818087 0.030263819 0.73900002 4.6144899e-40
0.023225721 0.030263811 0.73900002 8.3059444e-40
0.024633329 0.030263811 0.73900008 1.1982601e-39
0.02607616 0.030304782 0.74000001 8.2980551e-40
0.027559966 0.030386686 0.74200004 5.5360118e-40
0.029012386 0.030427642 0.74300003 7.3800785e-40
0.030427631 0.030427627 0.74300003 9.2095857e-40
0.031842846 0.030427635 0.74300003 8.2911887e-40
0.033258092 0.030427642 0.74299997 6.4653669e-40
0.034673333 0.030427627 0.74300003 1.8450743e-39
0.036185686 0.030509539 0.745 3.0446726e-39
0.037604719 0.030509554 0.745 2.2177902e-39
0.039023783 0.030509546 0.74500006 1.4780406e-39
0.040551409 0.030591443 0.74700004 3.1342647e-39
0.04203045 0.030632384 0.74800003 4.7218013e-39
0.043571405 0.030714303 0.75 1.3016915e-38
0.045299966 0.030919053 0.755 2.139727e-38
0.046799973 0.030960009 0.75599998 2.1762108e-38
0.048367605 0.031041913 0.75800002 2.2131943e-38
0.049942818 0.031123817 0.76000005 2.2774054e-38
0.051458072 0.031164765 0.76100004 2.3417286e-38
0.076224722 0.030632384 0.74800003 9.0491637e-39
0.077649496 0.030632384 0.74800003 1.1073118e-38
0.079074249 0.030632392 0.74800003 1.3095643e-38
0.080498993 0.030632399 0.74800003 1.2908735e-38
0.081923775 0.030632384 0.74800003 1.2816173e-38
0.083571404 0.030714303 0.75 1.2816522e-38
-0.022438165 0.032571442 0.75999999 1.1896808e-38
-0.020935278 0.032485723 0.75799996 1.1344016e-38
-0.01949143 0.032485716 0.75800002 1.0707997e-38
-0.017976215 0.032357156 0.755 1.0041049e-38
-0.016494317 0.03227143 0.75300002 5.0524517e-39
-0.015040015 0.032228574 0.75200003 9.2956535e-41
-0.013571468 0.03214287 0.75 9.2936917e-41
-0.0121429 0.032142878 0.75 9.3312465e-41
-0.010685752 0.032057151 0.74800003 9.2254484e-41
-0.0092485938 0.032014303 0.74700004 9.2297925e-41
-0.0078047984 0.031928591 0.74500006 9.2341365e-41
-0.0063857636 0.031928591 0.745 1.0200612e-40
-0.0049533476 0.031842858 0.74300003 1.8413482e-40
-0.0035381007 0.031842858 0.74300003 2.8312815e-40
-0.0021200113 0.031800009 0.74200004 3.6849105e-40
-0.00070479396 0.031714313 0.73999995 3.68868e-40
0.00070470688 0.031714305 0.73999995 1.0135269e-39
0.002111397 0.031671435 0.73900002 1.5627421e-39
0.0035190296 0.031671427 0.73900002 1.2872328e-39
0.0049266662 0.03167142 0.73900002 9.1917052e-40
0.0063342708 0.031671427 0.73900002 1.3779865e-39
0.0077419053 0.031671442 0.73900002 1.8375101e-39
0.0091495095 0.031671427 0.73900002 1.7467382e-39
0.010557142 0.031671435 0.73900002 1.5637972e-39
0.011964747 0.031671442 0.73900002 9.1952645e-40
0.013372381 0.031671435 0.73900002 1.8591727e-40
0.014739991 0.031585723 0.73700005 1.8519841e-40
0.016143808 0.031585708 0.73700005 9.3723045e-41
0.017595228 0.031671435 0.73900002 9.3365714e-41
0.01895141 0.031585723 0.73700005 9.4088784e-41
0.020355223 0.031585723 0.73699999 1.8449636e-40
0.021818072 0.031671435 0.73900002 2.7777239e-40
0.023225706 0.031671442 0.73900002 7.3910927e-40
0.024633341 0.031671427 0.73900002 1.1064316e-39
0.026076149 0.031714305 0.73999995 1.0127843e-39
0.027559968 0.031800024 0.74200004 9.2202917e-40
0.029012395 0.031842858 0.74300003 9.2275224e-40
0.030427609 0.031842865 0.74300003 9.2165222e-40
0.031842824 0.031842873 0.74300003 1.012029e-39
0.033258099 0.031842858 0.74300003 1.0145709e-39
0.034673315 0.031842865 0.74299997 2.1194976e-39
0.036185678 0.031928591 0.74500006 3.2269045e-39
0.037604738 0.031928591 0.745 2.4032563e-39
0.039128527 0.032014303 0.74700004 1.4758994e-39
0.040605683 0.032057151 0.74800003 4.1329967e-39
0.04214282 0.032142885 0.75 6.7425409e-39
0.043687571 0.032228589 0.75200003 1.3111243e-38
0.045299977 0.032357156 0.755 1.9456156e-38
0.046799988 0.032400005 0.75600004 2.0195875e-38
0.048367597 0.032485731 0.75800002 2.0837644e-38
0.049942821 0.032571428 0.76000005 2.2129437e-38
