# .PCD v0.7 - Point Cloud Data file format
VERSION 0.7
FIELDS x y z rgb
SIZE 4 4 4 4
TYPE F F F F
COUNT 1 1 1 1
WIDTH 975
HEIGHT 1
VIEWPOINT 0 0 0 1 0 0 0
POINTS 975
DATA ascii
-0.020852413 0.019414291 0.75500011 1.0786133e-38
-0.019362858 0.019362859 0.75300008 8.4758673e-39
-0.01780951 0.019234277 0.74800009 6.1828343e-39
-0.016362859 0.019208573 0.7470001 6.7316795e-39
-0.014900017 0.019157134 0.74500012 7.2816121e-39
-0.013480942 0.019157141 0.74500012 7.6493086e-39
-0.012029547 0.019105718 0.74300009 8.0029963e-39
-0.010614322 0.01910571 0.74300009 6.8144934e-39
-0.0091990558 0.01910571 0.74300003 5.6956112e-39
-0.0077523864 0.019028582 0.74000007 4.9645174e-39
-0.0063342913 0.01900287 0.73900008 4.3170194e-39
-0.0049266811 0.01900287 0.73900008 2.8519689e-39
-0.0035190727 0.019002855 0.73900008 1.379022e-39
-0.0021057292 0.018951438 0.73700011 1.2897061e-39
-0.00070098363 0.018925712 0.73600012 1.2918725e-39
0.00070091762 0.018925712 0.73600012 1.1993321e-39
0.0021028356 0.018925704 0.73600012 1.1056932e-39
0.003504735 0.018925704 0.73600012 1.0142066e-39
0.0049066157 0.018925712 0.73600012 9.2203197e-40
0.0062914197 0.01887428 0.73400009 1.0135269e-39
0.0076685254 0.018822864 0.73200011 1.0138885e-39
0.0090628518 0.018822849 0.73200011 1.1989958e-39
0.010457112 0.018822856 0.73200011 1.3848178e-39
0.011851399 0.018822849 0.73200011 1.2000678e-39
0.013245684 0.018822856 0.73200011 1.0156835e-39
0.014639969 0.018822849 0.73200011 7.3910507e-40
0.016034272 0.018822849 0.73200011 4.6252799e-40
0.017428553 0.018822856 0.73200011 5.5472782e-40
0.018874241 0.018874288 0.73400009 6.4619197e-40
0.020272374 0.018874295 0.73400009 6.4546049e-40
0.021611389 0.018822849 0.73200011 7.3691904e-40
0.023005672 0.018822856 0.73200011 8.2837619e-40
0.024466634 0.01887428 0.73400009 8.2803427e-40
0.025864765 0.018874303 0.73400009 6.4581362e-40
0.027337112 0.018925719 0.73600012 5.5468718e-40
0.028739013 0.018925697 0.73600012 3.7136511e-40
0.030181913 0.018951438 0.73700011 2.7987994e-40
0.031585712 0.018951431 0.73700005 1.017424e-39
0.033079043 0.01900287 0.73900002 1.7571162e-39
0.034393307 0.018951431 0.73700011 2.2180719e-39
0.03579713 0.018951438 0.73700011 2.6783424e-39
0.037301917 0.01900287 0.73900008 2.0308472e-39
0.038709525 0.019002877 0.73900002 1.3833282e-39
0.040117137 0.019002862 0.73900002 3.0370776e-39
0.041412383 0.018951431 0.73700011 4.6958366e-39
0.042758066 0.018925704 0.73600012 5.898288e-39
0.044159971 0.018925712 0.73600012 7.1644285e-39
0.045561846 0.018925704 0.73600012 1.0875688e-38
0.046517126 0.018745713 0.72900009 1.4690448e-38
0.04790568 0.018745705 0.72900015 1.5134917e-38
0.049294252 0.018745705 0.72900009 1.5584591e-38
0.050682805 0.018745705 0.72900015 9.9508796e-39
0.05221425 0.018797129 0.73100013 4.2259434e-39
0.05345995 0.018745698 0.72900015 3.6778746e-39
0.054848541 0.018745713 0.72900009 3.1343838e-39
0.056237075 0.01874572 0.72900009 3.6950699e-39
0.057546623 0.018719986 0.7280001 4.2585937e-39
0.058933292 0.018720001 0.7280001 6.4618819e-39
0.06031996 0.018719986 0.7280001 8.6612534e-39
0.061706629 0.018719994 0.7280001 8.2052877e-39
0.063093305 0.018720001 0.7280001 7.8304166e-39
0.064568557 0.018745705 0.72900009 7.2822777e-39
-0.02671051 0.02093523 0.75800008 1.153171e-38
-0.025200026 0.020879999 0.7560001 1.365292e-38
-0.023760051 0.020879984 0.7560001 1.5679737e-38
-0.022290481 0.020852387 0.75500011 1.4763513e-38
-0.020852407 0.020852387 0.75500011 1.3734621e-38
-0.019362833 0.020797148 0.75300008 1.2892988e-38
-0.017857168 0.020714283 0.75000012 1.2073666e-38
-0.016362874 0.020631418 0.7470001 1.3278312e-38
-0.014939992 0.020631433 0.7470001 1.438142e-38
-0.013480953 0.020576186 0.74500012 1.5219784e-38
-0.012061916 0.020576186 0.74500012 1.5941534e-38
-0.010614294 0.020520963 0.74300003 1.3650651e-38
-0.0091990447 0.020520955 0.74300003 1.1238868e-38
-0.0077524255 0.02043809 0.74000007 9.9366452e-39
-0.0063343043 0.020410486 0.73900008 8.5662917e-39
-0.0049266941 0.020410478 0.73900008 5.1590555e-39
-0.0035190596 0.020410478 0.73900008 1.7582512e-39
-0.0021057199 0.020355254 0.73700005 1.6595802e-39
-0.00070095941 0.02032762 0.73600012 1.5670384e-39
0.00070091948 0.020327613 0.73600012 1.292262e-39
0.0021028207 0.020327605 0.73600012 9.2311517e-40
0.0035047368 0.02032762 0.73600012 1.0152996e-39
0.0049066399 0.020327613 0.73600012 1.014236e-39
0.0062914011 0.020272382 0.73400009 1.0135326e-39
0.007668531 0.020217143 0.73200011 1.0138927e-39
0.0090628145 0.020217136 0.73200011 1.2908355e-39
0.010457101 0.020217136 0.73200011 1.567414e-39
0.011883791 0.020272389 0.73400009 1.2919033e-39
0.013281862 0.020272374 0.73400009 1.0153234e-39
0.014639973 0.020217136 0.73200011 8.3093636e-40
0.016034255 0.020217143 0.73200011 6.4690944e-40
0.017476156 0.020272382 0.73400009 7.4018407e-40
0.018874286 0.020272382 0.73400009 7.3873652e-40
0.020272359 0.020272389 0.73400009 8.2984335e-40
0.02167045 0.020272382 0.73400009 9.2095157e-40
0.023068544 0.020272382 0.73400009 9.2022429e-40
0.024533294 0.020327613 0.73600012 8.2912448e-40
0.025935195 0.02032762 0.73600012 6.4726537e-40
0.027337134 0.020327613 0.73600012 3.7138473e-40
0.028739015 0.020327613 0.73600012 2.8061142e-40
0.030181885 0.02035524 0.73700011 9.8364146e-41
0.031585708 0.020355247 0.73700011 1.0192204e-39
0.033079054 0.020410486 0.73900008 1.939718e-39
0.034486663 0.020410486 0.73900002 2.5850692e-39
0.035894297 0.020410486 0.73900008 3.1371752e-39
0.037352342 0.02043809 0.74000007 2.0333738e-39
0.038761873 0.020438097 0.74000007 8.3162299e-40
0.040171392 0.02043809 0.74000007 4.6840531e-39
0.041412357 0.02035524 0.73700011 8.4812623e-39
0.042816181 0.02035524 0.73700011 1.1365139e-38
0.044340003 0.020410478 0.73900002 1.4177622e-38
0.045995221 0.020520948 0.74300003 1.2030988e-38
0.047410451 0.020520955 0.74300009 9.9690825e-39
0.047839992 0.020106658 0.7280001 1.468435e-38
0.049226664 0.020106666 0.7280001 1.9360328e-38
0.050613329 0.020106666 0.7280001 1.3927945e-38
0.052071396 0.020134285 0.72900015 8.3819284e-39
0.053459965 0.020134285 0.72900009 5.0514413e-39
0.054848518 0.020134285 0.72900009 1.6603369e-39
0.056237135 0.02013427 0.72900009 3.0432419e-39
0.057546675 0.020106658 0.7280001 4.3407504e-39
0.058933344 0.020106651 0.7280001 6.9250334e-39
0.060320012 0.020106658 0.7280001 9.4035058e-39
0.061706681 0.020106666 0.7280001 9.404931e-39
0.063179962 0.020134285 0.72900015 9.4024156e-39
0.064568527 0.020134285 0.72900009 9.1301321e-39
-0.025200035 0.022319995 0.7560001 1.1537128e-38
-0.023760036 0.022319987 0.75600016 1.503873e-38
-0.022320021 0.022320002 0.7560001 1.4851844e-38
-0.020852383 0.022290483 0.75500011 1.4658424e-38
-0.019337155 0.022201903 0.75200009 1.401013e-38
-0.017809559 0.022083811 0.74800014 1.3368777e-38
-0.01636285 0.022054292 0.7470001 1.3926665e-38
-0.014940005 0.022054292 0.7470001 1.4582804e-38
-0.013480945 0.021995239 0.74500012 1.5132041e-38
-0.012061912 0.021995239 0.74500012 1.5689137e-38
-0.010614282 0.021936193 0.74300003 1.4852556e-38
-0.0091990558 0.021936193 0.74300003 1.4019527e-38
-0.0077733635 0.021906659 0.7420001 1.3738587e-38
-0.0063428688 0.021847621 0.74000007 1.3474197e-38
-0.0049333735 0.021847613 0.74000007 7.2950267e-39
-0.0035238187 0.021847613 0.74000007 1.1315962e-39
-0.0021057236 0.021759056 0.73700011 1.3876806e-39
-0.00070099666 0.021729514 0.73600012 1.7482179e-39
0.00070094183 0.021729514 0.73600012 1.198291e-39
0.0021057059 0.021759056 0.73700005 6.4690944e-40
0.0035047238 0.021729507 0.73600012 9.2276345e-40
0.0048933127 0.021670476 0.73400009 1.1982769e-39
0.0062913843 0.021670476 0.73400009 1.1975665e-39
0.0076685552 0.021611437 0.73200011 1.1968504e-39
0.0090876082 0.021670476 0.73400009 1.7500172e-39
0.01048568 0.021670476 0.73400009 2.394295e-39
0.011883772 0.021670461 0.73400009 1.7503633e-39
0.013281905 0.021670476 0.73400009 1.1067974e-39
0.014679975 0.021670483 0.73400009 9.2240892e-40
0.01607807 0.021670461 0.73400009 6.4582763e-40
0.017523779 0.021729514 0.73600012 6.465451e-40
0.018925682 0.021729514 0.73600012 6.4653529e-40
0.020327596 0.021729514 0.73600006 8.2947761e-40
0.021729497 0.021729514 0.73600012 1.1046254e-39
0.023131378 0.021729514 0.73600012 9.2059424e-40
0.024533316 0.021729507 0.73600012 7.37303e-40
0.025935195 0.021729514 0.73600012 5.5436909e-40
0.027337098 0.021729521 0.73600012 4.6251397e-40
0.028778095 0.021759048 0.73700011 4.6428661e-40
0.030181918 0.021759056 0.73700011 5.5862203e-40
0.031671435 0.021818094 0.73900008 1.3858477e-39
0.033079047 0.021818101 0.73900002 2.3052747e-39
0.034533314 0.021847613 0.74000007 2.8598708e-39
0.035942849 0.021847613 0.74000001 3.5066835e-39
0.037352361 0.021847613 0.74000007 2.0315941e-39
0.038866613 0.021906666 0.7420001 5.5183694e-40
0.040279977 0.021906674 0.7420001 5.3387748e-39
0.041580949 0.021847621 0.74000007 1.0149449e-38
0.043106623 0.021906666 0.7420001 1.4487672e-38
0.044519965 0.021906681 0.7420001 1.8803092e-38
0.045995209 0.021936193 0.74300003 1.3908774e-38
0.04741044 0.021936193 0.74300003 9.0316264e-39
0.047708567 0.021434292 0.72600007 1.2820735e-38
0.049091429 0.021434285 0.72600007 1.6713681e-38
0.050474294 0.021434292 0.72600007 1.4303338e-38
0.051857151 0.021434292 0.72600007 1.1975061e-38
0.053240012 0.021434292 0.72600007 6.6226697e-39
0.054622833 0.021434292 0.72600007 1.3819451e-39
0.056159973 0.021493331 0.7280001 2.0308879e-39
0.057388555 0.021434285 0.72600007 2.7687934e-39
0.058771417 0.021434292 0.72600007 6.0917247e-39
0.060154278 0.021434285 0.72600007 9.4085631e-39
0.061537135 0.021434292 0.72600007 9.4071254e-39
0.062920004 0.021434277 0.72600007 9.4989469e-39
0.064568557 0.021522835 0.72900015 9.5003678e-39
0.065957122 0.02152285 0.72900009 9.5932991e-39
0.067530468 0.021581896 0.73100013 9.7741198e-39
0.068922848 0.021581918 0.73100007 9.8645148e-39
-0.025200041 0.023759991 0.7560001 9.5116538e-39
-0.023760043 0.023759991 0.75600016 1.4385792e-38
-0.022320008 0.023760006 0.7560001 1.4945814e-38
-0.020852404 0.023728572 0.75500011 1.5489276e-38
-0.019337161 0.023634292 0.75200009 1.5120841e-38
-0.017857179 0.023571424 0.75000012 1.4662758e-38
-0.016362838 0.023477152 0.7470001 1.4660624e-38
-0.014939994 0.023477152 0.7470001 1.4668883e-38
-0.013517152 0.023477137 0.7470001 1.5036594e-38
-0.012061904 0.023414291 0.74500012 1.5314976e-38
-0.010614295 0.023351438 0.74300003 1.6050383e-38
-0.0091990689 0.023351431 0.74300003 1.678504e-38
-0.007773384 0.023319997 0.7420001 1.7523286e-38
-0.0063429098 0.023257144 0.74000007 1.8250033e-38
-0.004933353 0.023257129 0.74000007 9.322934e-39
-0.0035238205 0.023257144 0.74000001 3.8685927e-40
-0.0021057534 0.023162864 0.73700011 1.1024814e-39
-0.00070192612 0.023162849 0.73700011 1.8396849e-39
0.00070090644 0.023131423 0.73600012 1.1053681e-39
0.0021028467 0.023131415 0.73600012 2.791905e-40
0.0035047256 0.023131423 0.73600012 8.2982793e-40
0.0048932978 0.023068577 0.73400009 1.2893796e-39
0.0062742573 0.023005702 0.73200011 1.2890376e-39
0.0076685199 0.023005709 0.73200011 1.2901082e-39
0.0090875933 0.023068577 0.73400009 2.2098925e-39
0.010485687 0.02306857 0.73400009 3.1282475e-39
0.011916143 0.023131415 0.73600012 2.2088177e-39
0.013281888 0.02306857 0.73400009 1.1982671e-39
0.014679982 0.02306857 0.73400009 9.2168305e-40
0.016078051 0.023068562 0.73400009 6.4617656e-40
0.017523803 0.023131423 0.73600012 5.5398233e-40
0.01892568 0.023131415 0.73600012 4.6213002e-40
0.020327585 0.023131415 0.73600012 9.2021589e-40
0.021729499 0.023131423 0.73600012 1.2875649e-39
0.0231314 0.023131408 0.73600012 1.0113493e-39
0.024533279 0.023131415 0.73600012 6.4473602e-40
0.02593522 0.02313143 0.73600012 5.536306e-40
0.027374262 0.023162849 0.73700011 4.6285449e-40
0.028778067 0.023162857 0.73700011 7.3906303e-40
0.030263815 0.023225732 0.73900008 9.2452067e-40
0.031714261 0.023257144 0.74000007 1.7521079e-39
0.03312378 0.023257136 0.74000007 2.5804211e-39
0.034626644 0.023320004 0.7420001 3.2257821e-39
0.036039948 0.023319989 0.7420001 3.7789558e-39
0.037453286 0.023320004 0.7420001 2.03445e-39
0.038866654 0.023320004 0.7420001 1.8772635e-40
0.040279955 0.023319997 0.7420001 5.9698061e-39
0.041749518 0.023351431 0.74300003 1.1711035e-38
0.043164749 0.023351431 0.74300003 1.7631989e-38
0.044879999 0.023508564 0.74800014 2.3404605e-38
0.04630474 0.023508564 0.74800009 1.5769239e-38
0.048176188 0.023728564 0.75500011 8.0293141e-39
0.049614303 0.023728572 0.75500011 1.1037012e-38
0.04909144 0.022817142 0.72600007 1.4018481e-38
0.050474301 0.02281715 0.72600007 1.4779395e-38
0.051857162 0.022817135 0.72600007 1.5469847e-38
0.053386662 0.022879988 0.7280001 8.2656767e-39
0.054773331 0.022879988 0.7280001 1.0160563e-39
0.056159999 0.022879988 0.7280001 1.1129182e-39
0.05738854 0.022817142 0.72600007 1.2101207e-39
0.058771405 0.02281715 0.72600007 5.2637843e-39
0.060071405 0.022785708 0.72500008 9.3117082e-39
0.061537124 0.02281715 0.72600007 9.4071198e-39
0.063093327 0.022879988 0.7280001 9.5007293e-39
0.064479992 0.022879995 0.7280001 9.9623997e-39
0.065957099 0.022911429 0.72900015 1.0329407e-38
0.067530461 0.02297429 0.73100007 1.032441e-38
-0.022320013 0.025199994 0.7560001 8.9574739e-39
-0.020797167 0.0251 0.75300008 9.884828e-39
-0.019337168 0.025066674 0.75200009 1.144642e-38
-0.017857142 0.025000006 0.75000012 1.3113068e-38
-0.01642859 0.024999999 0.75000012 1.2738169e-38
-0.014940009 0.024899997 0.7470001 1.2467327e-38
-0.013517128 0.024900012 0.7470001 1.3198425e-38
-0.012061913 0.024833336 0.74500012 1.4024614e-38
-0.010614284 0.024766669 0.74300003 1.504093e-38
-0.0091990577 0.024766661 0.74300003 1.6149054e-38
-0.0077733691 0.024733335 0.7420001 1.6698991e-38
-0.0063428874 0.024666667 0.74000007 1.7158802e-38
-0.0049333549 0.024666674 0.74000007 8.6711088e-39
-0.0035238373 0.024666652 0.74000007 2.7600395e-40
-0.002105718 0.024566673 0.73700011 1.0120724e-39
-0.00070191495 0.02456668 0.73700011 1.7492745e-39
0.00070190855 0.024566673 0.73700011 1.2897439e-39
0.0021028076 0.024533324 0.73600012 8.3054399e-40
0.003504748 0.024533339 0.73600012 1.1978622e-39
0.0049066269 0.024533316 0.73600012 1.5652308e-39
0.0062914104 0.024466679 0.73400009 1.5648973e-39
0.0076685478 0.024399996 0.73200011 1.5659608e-39
0.0090875989 0.024466671 0.73400009 2.0258418e-39
0.010514227 0.024533324 0.73600012 2.5772219e-39
0.011916165 0.024533331 0.73600012 1.8414687e-39
0.013318046 0.024533316 0.73600012 1.1982587e-39
0.014679966 0.024466679 0.73400009 8.2983774e-40
0.016121864 0.024533324 0.73600012 5.5468998e-40
0.017523766 0.024533316 0.73600012 4.6249435e-40
0.018925706 0.024533324 0.73600012 2.7808488e-40
0.020327583 0.024533331 0.73600012 5.5356895e-40
0.021729484 0.024533309 0.73600012 9.1985155e-40
0.023131404 0.024533324 0.73600012 7.365547e-40
0.024533305 0.024533331 0.73600012 5.5252918e-40
0.02597047 0.02456668 0.73700011 5.5396691e-40
0.027374273 0.02456668 0.73700005 4.631964e-40
0.0287781 0.024566673 0.73700011 7.3905042e-40
0.030263804 0.024633341 0.73900002 1.0159876e-39
0.031714283 0.02466666 0.74000007 1.6602668e-39
0.033213317 0.024733342 0.7420001 2.3960326e-39
0.034626625 0.024733327 0.7420001 3.2250674e-39
0.036039967 0.024733335 0.7420001 4.0530218e-39
0.03745329 0.024733335 0.7420001 2.1212478e-39
0.038919017 0.024766661 0.74300009 1.8414183e-40
0.040334281 0.024766676 0.74300003 5.7994292e-39
0.04174953 0.024766669 0.74300003 1.1531334e-38
0.04316476 0.024766669 0.74300009 1.7435789e-38
0.045119956 0.025066666 0.75200009 2.3413985e-38
0.046738096 0.025166668 0.75500011 1.9081134e-38
0.048239954 0.02519998 0.7560001 1.4829432e-38
0.049811397 0.025266662 0.75800008 1.0960497e-38
0.051255226 0.025266662 0.75800008 7.1153494e-39
0.050474286 0.024200015 0.72600007 9.6036225e-39
0.051857147 0.0242 0.72600007 1.2074102e-38
0.053240009 0.024200007 0.72600007 7.1830335e-39
0.054773301 0.024266653 0.7280001 2.3039253e-39
0.056159966 0.024266653 0.7280001 2.2149708e-39
0.057388552 0.024200007 0.72600007 2.2145925e-39
0.058771413 0.0242 0.72600007 5.8094289e-39
0.060071386 0.024166651 0.72500008 9.4013955e-39
0.061452344 0.024166651 0.72500014 1.0329774e-38
0.062920026 0.024199992 0.72600007 1.1338864e-38
0.064302884 0.0242 0.72600007 1.0882532e-38
0.065866627 0.024266653 0.7280001 1.0519165e-38
0.067345686 0.024299987 0.72900015 1.0697126e-38
-0.020797143 0.026534289 0.75300008 4.2558597e-39
-0.019337151 0.02649904 0.75200009 7.8500278e-39
-0.017857166 0.026428573 0.75000012 1.1434495e-38
-0.016428594 0.026428565 0.75000012 1.0803857e-38
-0.014960015 0.026358083 0.74800009 1.0150249e-38
-0.013535249 0.02635809 0.74800009 1.1448506e-38
-0.012094299 0.026322864 0.7470001 1.2639163e-38
-0.010642871 0.026252389 0.74500012 1.4122547e-38
-0.0091990689 0.026181906 0.74300009 1.5495784e-38
-0.0077733672 0.026146665 0.7420001 1.5781343e-38
-0.0063428874 0.02607619 0.74000007 1.6037743e-38
-0.0049333326 0.026076198 0.74000007 8.1100205e-39
-0.0035238373 0.026076175 0.74000007 9.9850923e-41
-0.0021057441 0.025970481 0.73700011 8.2840281e-40
-0.00070192054 0.025970474 0.73700011 1.5652448e-39
0.00070188247 0.025970481 0.73700011 1.4730562e-39
0.0021057059 0.025970481 0.73700011 1.289374e-39
0.0035047126 0.025935225 0.73600012 1.565228e-39
0.004906653 0.025935233 0.73600012 1.8403911e-39
0.0062914179 0.025864758 0.73400009 1.838973e-39
0.00768951 0.025864765 0.73400009 1.7489256e-39
0.0091123497 0.02593524 0.73600012 1.9340259e-39
0.010514253 0.025935233 0.73600012 2.0262187e-39
0.011883783 0.025864765 0.73400009 1.5656063e-39
0.01331807 0.025935233 0.73600012 1.10571e-39
0.014679969 0.02586475 0.73400009 8.2840842e-40
0.016121887 0.025935233 0.73600012 4.6249856e-40
0.017523766 0.025935233 0.73600012 2.7954083e-40
0.018925667 0.025935233 0.73600012 9.5497089e-41
0.020327609 0.025935225 0.73600012 2.7987153e-40
0.021729488 0.025935225 0.73600012 4.621132e-40
0.023131389 0.025935225 0.73600012 4.6176148e-40
0.024533305 0.025935225 0.73600012 4.6140134e-40
0.025970444 0.025970481 0.73700011 4.621174e-40
0.027374268 0.025970474 0.73700011 4.6245792e-40
0.028778069 0.025970481 0.73700011 7.3830492e-40
0.030263819 0.026040964 0.73900008 1.0156149e-39
0.031714242 0.026076183 0.74000007 1.5687887e-39
0.033213299 0.026146665 0.7420001 2.1223184e-39
0.034626666 0.026146673 0.7420001 3.2250674e-39
0.036039967 0.026146665 0.7420001 4.2359627e-39
0.037503779 0.026181892 0.74300009 2.2130581e-39
0.038919043 0.026181906 0.74300003 9.4800644e-41
0.040334295 0.026181906 0.74300003 5.6957472e-39
0.041861892 0.026252374 0.74500012 1.1252235e-38
0.043397158 0.026322849 0.7470001 1.7349333e-38
0.045119952 0.026499048 0.75200009 2.3414012e-38
0.046738077 0.026604764 0.75500011 2.2495963e-38
0.048239946 0.026639983 0.7560001 2.1548481e-38
0.049811367 0.026710466 0.75800008 1.0859622e-38
0.05139045 0.026780948 0.76000011 1.1820653e-40
0.05290759 0.026816189 0.7610001 4.3527946e-39
0.054500032 0.026886679 0.76300007 8.5721379e-39
0.055953335 0.026886664 0.76300001 6.0878487e-39
0.054848507 0.025688574 0.72900015 3.5975353e-39
0.056159995 0.025653318 0.7280001 3.4117204e-39
0.057388563 0.025582857 0.72600007 3.1361928e-39
0.058771424 0.025582857 0.72600007 6.265396e-39
0.060071386 0.025547609 0.72500014 9.407529e-39
0.061537147 0.025582857 0.72600007 1.1263966e-38
0.063093342 0.025653325 0.7280001 1.3095955e-38
0.064302869 0.025582865 0.72600007 1.1893069e-38
0.065866679 0.025653325 0.7280001 1.069924e-38
0.067345664 0.025688566 0.72900015 1.115558e-38
0.068734273 0.025688559 0.72900015 1.1524724e-38
-0.02237908 0.028154276 0.75800008 2.3042321e-39
-0.020852394 0.02804286 0.75500011 2.2963652e-39
-0.019362872 0.027968571 0.75300008 4.1467322e-39
-0.017904775 0.027931437 0.75200009 6.0724582e-39
-0.016428616 0.02785714 0.75000018 5.6208646e-39
-0.014960022 0.027782857 0.74800009 5.1469847e-39
-0.013535255 0.02778285 0.74800009 5.7180909e-39
-0.01209429 0.027745724 0.7470001 6.3684951e-39
-0.010642842 0.027671434 0.74500012 7.1096587e-39
-0.0091866916 0.027560003 0.7420001 7.8486657e-39
-0.0077733877 0.027560011 0.7420001 8.3143186e-39
-0.0063600237 0.027559996 0.7420001 8.7741084e-39
-0.0049333698 0.027485706 0.74000007 4.6134249e-39
-0.0035238354 0.027485706 0.74000007 5.5147961e-40
-0.0021057124 0.02737429 0.73700011 8.3019647e-40
-0.00070191122 0.027374297 0.73700011 1.107861e-39
0.00070191413 0.02737429 0.73700011 1.1982657e-39
0.0021057152 0.027374297 0.73700005 1.2886677e-39
0.0035047126 0.027337134 0.73600012 1.7489214e-39
0.0049066157 0.027337119 0.73600012 2.1166291e-39
0.0063085542 0.027337134 0.73600012 2.1155599e-39
0.0077104331 0.027337141 0.73600012 2.1155613e-39
0.0091123721 0.027337141 0.73600012 2.1187913e-39
0.010514253 0.027337134 0.73600012 2.1198591e-39
0.011916154 0.027337134 0.73600012 1.7503549e-39
0.01331807 0.027337149 0.73600012 1.3812207e-39
0.014719974 0.027337134 0.73600012 9.2168445e-40
0.016121849 0.027337134 0.73600012 5.5433686e-40
0.017523792 0.027337149 0.73600012 3.7101759e-40
0.018925671 0.027337134 0.73600012 2.7953382e-40
0.020327572 0.027337126 0.73600012 3.7100358e-40
0.021729514 0.027337134 0.73600012 5.539543e-40
0.023131391 0.027337126 0.73600012 4.6103981e-40
0.02453329 0.027337134 0.73600018 2.7664574e-40
0.025970478 0.027374297 0.73700011 4.6174466e-40
0.027374279 0.027374297 0.73700005 5.5391366e-40
0.028856173 0.02744858 0.73900002 7.3863563e-40
0.030304747 0.027485721 0.74000001 1.0145233e-39
0.031714264 0.027485698 0.74000007 1.5695047e-39
0.033213302 0.027559996 0.7420001 2.2173811e-39
0.03462664 0.027560003 0.7420001 2.9509944e-39
0.036088537 0.027597137 0.74300009 3.6867294e-39
0.03750379 0.027597144 0.74300009 1.9364487e-39
0.038919054 0.027597144 0.74300003 9.2272701e-41
0.040442865 0.027671427 0.74500012 5.8930416e-39
0.041861899 0.027671427 0.74500012 1.1809342e-38
0.043455239 0.027782843 0.74800009 1.7620532e-38
0.045179985 0.027968563 0.75300008 2.3417626e-38
0.046738062 0.02804286 0.75500011 2.2954478e-38
0.048239939 0.028079994 0.7560001 2.2488353e-38
0.049679961 0.028079994 0.75600016 1.4645971e-38
0.05145805 0.028265715 0.7610001 6.7059026e-39
0.05290759 0.028265707 0.7610001 5.5243515e-39
0.054500014 0.028339997 0.76300007 4.4262478e-39
0.054773293 0.02703999 0.7280001 3.871988e-39
0.056005687 0.026965715 0.72600007 3.596127e-39
0.057309516 0.026928559 0.72500008 3.224818e-39
0.058690447 0.026928559 0.72500014 6.0810244e-39
0.06015427 0.026965722 0.72600007 8.9541276e-39
0.061537132 0.026965722 0.72600007 1.3564929e-38
0.063093312 0.027039982 0.7280001 1.8254548e-38
0.064302854 0.026965715 0.72600007 1.6130763e-38
0.065866649 0.027039975 0.7280001 1.3912755e-38
0.067345679 0.027077138 0.72900009 1.2349076e-38
0.068734251 0.027077138 0.72900015 1.069604e-38
0.070122823 0.027077138 0.72900009 1.1434314e-38
0.071217142 0.026965715 0.72600007 1.2079664e-38
-0.023822891 0.02959808 0.75800014 2.9452547e-39
-0.022379071 0.029598095 0.75800008 1.6602864e-39
-0.020852413 0.029480956 0.75500011 2.7880795e-40
-0.019362871 0.02940286 0.75300008 4.6032655e-40
-0.017904781 0.029363811 0.75200009 6.4618496e-40
-0.016428605 0.029285714 0.75000012 3.6784225e-40
-0.014960003 0.029207617 0.74800009 9.3779097e-41
-0.013535237 0.029207624 0.74800009 9.2352575e-41
-0.012094303 0.029168576 0.7470001 1.0205657e-40
-0.010642873 0.029090472 0.74500012 9.8844791e-41
-0.0091990689 0.029012375 0.74300009 1.1069137e-40
-0.0077733467 0.028973341 0.7420001 7.6036416e-40
-0.0063600424 0.028973326 0.7420001 1.3984931e-39
-0.0049467026 0.028973334 0.7420001 1.2022104e-39
-0.003523815 0.028895244 0.74000007 9.2311377e-40
-0.0021057404 0.028778099 0.73700011 8.327104e-40
-0.00070191495 0.028778091 0.73700011 6.4940375e-40
0.00070188619 0.028778099 0.73700011 1.0153164e-39
0.0021028356 0.02873905 0.73600006 1.2904642e-39
0.0035047387 0.028739028 0.73600012 1.8411198e-39
0.0049066176 0.028739035 0.73600012 2.3942922e-39
0.0063085561 0.02873905 0.73600012 2.3903517e-39
0.0077104573 0.028739035 0.73600012 2.3932216e-39
0.0091123367 0.028739035 0.73600012 2.3049748e-39
0.010514277 0.028739043 0.73600012 2.1202206e-39
0.011916156 0.02873905 0.73600012 1.8429135e-39
0.013318057 0.028739035 0.73600012 1.5652518e-39
0.014719975 0.028739043 0.73600012 1.1057142e-39
0.016121875 0.02873905 0.73600012 5.5433966e-40
0.017523754 0.028739043 0.73600012 4.6286009e-40
0.018925693 0.02873905 0.73600012 3.7101199e-40
0.020327574 0.02873905 0.73600012 5.5431163e-40
0.021729475 0.028739028 0.73600012 6.4542406e-40
0.023131412 0.028739043 0.73600012 3.6847704e-40
0.024533294 0.028739043 0.73600012 9.3686611e-41
0.025970452 0.028778106 0.73700011 3.7062663e-40
0.027374275 0.028778091 0.73700011 6.4612191e-40
0.028856188 0.028856203 0.73900008 8.3085929e-40
0.030304732 0.028895229 0.74000007 9.2378219e-40
0.03179998 0.028973326 0.7420001 1.5687943e-39
0.03321328 0.028973326 0.7420001 2.214521e-39
0.034626622 0.028973334 0.7420001 2.6747831e-39
0.036088549 0.029012382 0.74300009 3.133571e-39
0.037503816 0.029012382 0.74300003 1.6616611e-39
0.039023798 0.029090479 0.74500012 9.5505497e-41
0.040442854 0.029090472 0.74500012 6.1581518e-39
0.041974291 0.029168576 0.7470001 1.2268166e-38
0.043571409 0.029285714 0.75000012 1.7905371e-38
0.045300011 0.029480956 0.75500011 2.3416907e-38
0.046738081 0.029480956 0.75500011 2.3416158e-38
0.04823998 0.02951999 0.75600016 2.3409267e-38
0.049811434 0.029598095 0.75800008 1.8437876e-38
0.051458094 0.029715225 0.7610001 1.3347493e-38
0.05730949 0.028309517 0.72500008 3.3173653e-39
0.058690429 0.028309509 0.72500014 5.8790524e-39
0.060154259 0.028348565 0.72600007 8.396324e-39
0.06153712 0.02834858 0.72600007 1.5970289e-38
0.062919982 0.02834858 0.72600007 2.3406034e-38
0.064302847 0.028348573 0.72600007 2.0278903e-38
0.065866649 0.028426662 0.7280001 1.7142105e-38
0.067253321 0.028426662 0.7280001 1.3540032e-38
0.068639994 0.028426647 0.7280001 9.8695118e-39
0.070026658 0.028426655 0.7280001 1.1156314e-38
0.071217127 0.028348573 0.72600007 1.2445599e-38
-0.023822881 0.03104189 0.75800008 3.1238979e-39
-0.022379074 0.031041898 0.75800014 3.0338504e-39
-0.020852389 0.03091906 0.75500011 2.9430673e-39
-0.019362867 0.030837148 0.75300008 3.0381062e-39
-0.017904788 0.0307962 0.75200009 3.1227852e-39
-0.016428605 0.030714281 0.75000018 1.5623175e-39
-0.015000029 0.030714288 0.75000018 9.4038337e-41
-0.013535241 0.030632384 0.74800009 9.2973351e-41
-0.012094278 0.030591443 0.7470001 9.262723e-41
-0.010642868 0.030509531 0.74500012 2.7846323e-40
-0.0091990819 0.030427612 0.74300009 3.677862e-40
-0.0077838316 0.03042762 0.74300009 9.2597242e-40
-0.0063685677 0.030427627 0.74300003 1.4698037e-39
-0.0049467008 0.030386664 0.7420001 1.2897117e-39
-0.0035238541 0.03030476 0.74000007 1.0145765e-39
-0.0021114512 0.030263819 0.73900008 1.2000538e-39
-0.00070190564 0.0301819 0.73700011 1.2944074e-39
0.00070189551 0.030181915 0.73700005 1.6592439e-39
0.0021057208 0.030181922 0.73700005 2.0262285e-39
0.0035047387 0.030140944 0.73600012 2.5826239e-39
0.0049066399 0.030140951 0.73600012 3.2290653e-39
0.0063085188 0.030140936 0.73600012 2.9492596e-39
0.0077104592 0.030140951 0.73600012 2.7616426e-39
0.0091123367 0.030140951 0.73600012 2.4886458e-39
0.01051424 0.030140936 0.73600012 2.3042532e-39
0.01191618 0.030140944 0.73600012 1.8418415e-39
0.013318057 0.030140944 0.73600012 1.3801487e-39
0.014719961 0.030140951 0.73600018 9.2096558e-40
0.016121877 0.030140951 0.73600012 4.6107204e-40
0.01752378 0.030140951 0.73600012 4.6214823e-40
0.018925657 0.030140951 0.73600012 4.6248875e-40
0.020327596 0.030140944 0.73600012 5.539473e-40
0.021729473 0.030140951 0.73600012 6.4505692e-40
0.023162855 0.030181907 0.73700011 4.6066005e-40
0.024566658 0.030181915 0.73700011 2.7663453e-40
0.025970485 0.030181915 0.73700011 4.6174326e-40
0.027374284 0.0301819 0.73700005 6.4541845e-40
0.028895235 0.03030476 0.74000007 9.2200534e-40
0.03030473 0.030304752 0.74000007 1.291141e-39
0.031799957 0.030386657 0.7420001 1.8446651e-39
0.033213299 0.030386671 0.7420001 2.4893184e-39
0.034626625 0.030386671 0.7420001 2.9492246e-39
0.036088537 0.030427605 0.74300009 3.3168903e-39
0.037503805 0.03042762 0.74300003 1.7513456e-39
0.039023824 0.030509524 0.74500012 9.2281109e-41
0.040551435 0.030591428 0.7470001 6.2675722e-39
0.042030465 0.030632384 0.74800009 1.2372564e-38
0.043571386 0.030714281 0.75000012 1.6888371e-38
0.045179989 0.030837134 0.75300008 2.1397242e-38
0.046738062 0.030919053 0.75500011 2.20379e-38
0.048239969 0.030959979 0.75600016 2.2682881e-38
0.049811404 0.031041913 0.75800014 1.9636863e-38
0.057388548 0.029731423 0.72600007 3.7801245e-39
0.058771405 0.02973143 0.72600007 4.0530975e-39
0.060154293 0.029731423 0.72600007 4.2511976e-39
0.061537154 0.029731423 0.72600007 1.3563253e-38
0.062920012 0.029731438 0.72600007 2.2865871e-38
0.064302877 0.02973143 0.72600007 2.1574402e-38
0.065685734 0.029731438 0.72600007 2.0285719e-38
0.067253307 0.029813319 0.7280001 1.6590658e-38
0.068451434 0.029731423 0.72600007 1.2902227e-38
0.069834299 0.029731423 0.72600007 1.2260151e-38
0.071119048 0.029690467 0.72500014 1.1527989e-38
0.072499961 0.029690467 0.72500014 1.2171565e-38
-0.023822872 0.032485709 0.75800008 3.3108128e-39
-0.022379065 0.032485709 0.75800008 4.5003513e-39
-0.020852387 0.032357149 0.75500011 5.6224915e-39
-0.019414295 0.032357149 0.75500011 5.6268215e-39
-0.017904771 0.032228574 0.75200009 5.5284868e-39
-0.016472414 0.032228582 0.75200009 2.8476375e-39
-0.015000016 0.032142863 0.75000012 9.3301254e-41
-0.013571442 0.032142863 0.75000012 9.2593599e-41
-0.012110516 0.032057129 0.74800009 9.3327879e-41
-0.010671426 0.032014281 0.7470001 3.7064625e-40
-0.0092238048 0.031928562 0.74500012 6.4615133e-40
-0.0077838055 0.03184285 0.74300003 1.1056875e-39
-0.006368577 0.031842858 0.74300003 1.564149e-39
-0.0049467213 0.031799994 0.7420001 1.3801206e-39
-0.0035238541 0.031714283 0.74000007 1.1056932e-39
-0.0021114363 0.031671435 0.73900008 1.5663084e-39
-0.00070193358 0.031585708 0.73700011 1.9336574e-39
0.00070189178 0.031585716 0.73700011 2.3928432e-39
0.0021056929 0.031585723 0.73700011 2.7634236e-39
0.0035095182 0.031585731 0.73700011 3.4170439e-39
0.0049066418 0.031542853 0.73600012 3.9673464e-39
0.0063085449 0.031542853 0.73600012 3.5070997e-39
0.0077104219 0.031542853 0.73600012 3.0425357e-39
0.0091123627 0.031542845 0.73600012 2.7666662e-39
0.010514242 0.031542853 0.73600012 2.3975236e-39
0.011916143 0.031542853 0.73600012 1.7485711e-39
0.013318083 0.031542845 0.73600012 1.1053582e-39
0.014719962 0.031542845 0.73600012 7.3657572e-40
0.016121861 0.031542853 0.73600018 3.6996381e-40
0.017523777 0.031542867 0.73600012 4.6181192e-40
0.018925678 0.031542845 0.73600012 4.6214543e-40
0.020327598 0.03154286 0.73600006 5.5323824e-40
0.021759041 0.031585716 0.73700005 6.4506673e-40
0.023162827 0.031585716 0.73700011 5.5286549e-40
0.024566652 0.031585723 0.73700011 3.691959e-40
0.025970453 0.031585723 0.73700011 5.5430463e-40
0.027448557 0.031671435 0.73900002 6.4542686e-40
0.028895196 0.031714268 0.74000007 1.1038897e-39
0.030304752 0.031714283 0.74000007 1.5670118e-39
0.031799972 0.031800002 0.7420001 2.2127273e-39
0.033213302 0.031799994 0.7420001 2.7651935e-39
0.0346733 0.03184285 0.74300009 3.1325551e-39
0.036088567 0.031842865 0.74300003 3.4994907e-39
0.037503816 0.031842858 0.74300003 1.8420993e-39
0.039023794 0.031928577 0.74500012 9.8029235e-41
0.04055142 0.032014295 0.7470001 6.2632927e-39
0.042142846 0.032142855 0.75000012 1.2456527e-38
0.043687612 0.032228574 0.75200015 1.5877837e-38
0.045300014 0.032357141 0.75500011 1.9274654e-38
0.046799939 0.032399997 0.7560001 2.0655394e-38
0.048239958 0.032399982 0.75600016 2.1940719e-38
0.049811412 0.032485709 0.75800008 2.0844777e-38
0.060154278 0.031114288 0.72600007 1.142871e-40
0.061537135 0.031114288 0.72600007 1.1165463e-38
0.062920004 0.03111428 0.72600007 2.221191e-38
0.064302862 0.031114295 0.72600007 2.2866599e-38
0.065685727 0.031114303 0.72600007 2.3410719e-38
0.067253292 0.031199992 0.7280001 1.972646e-38
0.068639964 0.031200007 0.7280001 1.594718e-38
0.069834284 0.03111428 0.72600007 1.3269928e-38
0.071119025 0.03107141 0.72500014 1.0607451e-38
0.072499961 0.031071417 0.72500008 1.1803501e-38
-0.023822898 0.033929519 0.75800008 4.7923945e-39
-0.022379052 0.033929527 0.75800008 7.1926408e-39
-0.020880044 0.033840001 0.75600016 9.6955925e-39
-0.019414289 0.033795238 0.75500011 9.5058973e-39
-0.017928572 0.033705719 0.75300008 9.3228415e-39
-0.016472396 0.033660948 0.75200009 5.6213382e-39
-0.015000041 0.033571422 0.75000012 1.9299916e-39
-0.013571466 0.033571422 0.75000012 1.3786283e-39
-0.012110501 0.033481896 0.74800014 9.1983193e-40
-0.010671441 0.033437148 0.7470001 2.8602365e-39
-0.0092237974 0.033347622 0.74500012 4.7812486e-39
-0.0077838167 0.033258088 0.74300003 2.8552143e-39
-0.0063685901 0.033258095 0.74300003 9.2273402e-40
-0.0049467026 0.03321334 0.7420001 9.2095017e-40
-0.0035333759 0.03321334 0.7420001 9.2094456e-40
-0.0021114475 0.03307905 0.73900008 1.2922256e-39
-0.00070190191 0.032989532 0.73700011 1.7460305e-39
0.0007019011 0.032989532 0.73700005 1.9311448e-39
0.0021056873 0.032989532 0.73700011 2.1159102e-39
0.0035047256 0.032944754 0.73600012 2.4933149e-39
0.0049066269 0.032944754 0.73600012 2.7777996e-39
0.0063085449 0.032944754 0.73600012 2.7702746e-39
0.0077104461 0.032944746 0.73600012 2.7673949e-39
0.0091123255 0.032944754 0.73600012 2.5837141e-39
0.010528567 0.032989532 0.73700011 2.4036234e-39
0.01193237 0.032989532 0.73700005 1.7535919e-39
0.013336194 0.032989524 0.73700005 1.0156737e-39
0.014719984 0.032944761 0.73600012 6.4653249e-40
0.016121861 0.032944769 0.73600012 3.7140995e-40
0.017523762 0.032944754 0.73600018 5.5402857e-40
0.018951409 0.032989524 0.73700011 8.3022029e-40
0.020355213 0.032989539 0.73700011 1.1046184e-39
0.021759037 0.032989517 0.73700011 1.4712373e-39
0.023162838 0.032989532 0.73700011 9.1985855e-40
0.024566662 0.032989532 0.73700011 4.6032374e-40
0.025970466 0.032989532 0.73700005 4.6104261e-40
0.027448572 0.033079058 0.73900008 4.6104541e-40
0.028973309 0.033213347 0.7420001 1.0142136e-39
0.030386634 0.03321334 0.7420001 1.5677335e-39
0.031799976 0.03321334 0.7420001 2.2134476e-39
0.033258066 0.033258088 0.74300009 2.8581164e-39
0.034673311 0.033258095 0.74300009 3.2254836e-39
0.036088578 0.033258103 0.74300003 3.5020074e-39
0.037604764 0.033347629 0.74500012 1.8431685e-39
0.039180946 0.033481896 0.74800009 9.2299326e-41
0.04060569 0.033481903 0.74800009 6.3662741e-39
0.04214282 0.033571422 0.75000012 1.2740306e-38
0.043687604 0.033660941 0.75200015 1.4765064e-38
0.045299999 0.033795245 0.75500011 1.6871897e-38
0.046799976 0.033839978 0.75600016 1.7427928e-38
0.048239987 0.033839993 0.7560001 1.7977499e-38
0.049811382 0.033929512 0.75800014 1.7795613e-38
0.062919989 0.032497138 0.72600007 1.918386e-38
0.064302854 0.032497145 0.72600007 2.1302926e-38
0.065685712 0.032497138 0.72600007 2.3417617e-38
0.067068569 0.032497145 0.72600007 2.157226e-38
0.068451412 0.032497145 0.72600007 1.972646e-38
0.069834277 0.032497138 0.72600007 1.6773611e-38
0.071119018 0.032452367 0.72500008 1.3910271e-38
0.072499998 0.03245236 0.72500008 1.3181388e-38
-0.022438131 0.035466671 0.76000011 9.9657474e-39
-0.020880014 0.035280004 0.7560001 1.3648175e-38
-0.019440016 0.035279982 0.7560001 1.3377371e-38
-0.017928567 0.035140008 0.75300008 1.3088167e-38
-0.016472403 0.035093337 0.75200009 8.3844031e-39
-0.015000027 0.035000004 0.75000012 3.6921454e-39
-0.013571454 0.034999996 0.75000012 2.7554586e-39
-0.012110502 0.034906656 0.74800014 1.7636e-39
-0.010671453 0.03486 0.7470001 5.3692572e-39
-0.009223829 0.034766674 0.74500012 8.8428631e-39
-0.0077838055 0.034673341 0.74300003 4.5197803e-39
-0.0063685789 0.034673341 0.74300003 1.9486877e-40
-0.0049467008 0.034626663 0.7420001 4.5957965e-40
-0.0035333592 0.034626663 0.7420001 6.5406306e-40
-0.002114316 0.034533329 0.74000007 1.1197482e-39
-0.00070192799 0.034393348 0.73700011 1.5756887e-39
0.00070189551 0.034393333 0.73700011 1.5616897e-39
0.0021056985 0.03439334 0.73700011 1.4827559e-39
0.003509522 0.034393348 0.73700011 1.570274e-39
0.0049066287 0.034346655 0.73600012 1.5764131e-39
0.0063085319 0.034346648 0.73600012 2.028458e-39
0.007710448 0.03434667 0.73600012 2.4029396e-39
0.0091123497 0.034346648 0.73600012 2.3971663e-39
0.010528541 0.034393333 0.73700011 2.3989515e-39
0.011932365 0.03439334 0.73700011 1.6624669e-39
0.013336168 0.034393333 0.73700011 9.2419277e-40
0.014739991 0.03439334 0.73700011 6.4617235e-40
0.016143793 0.03439334 0.73700011 2.7848985e-40
0.017547619 0.034393333 0.73700011 7.3660935e-40
0.01895142 0.03439334 0.73700005 1.1046464e-39
0.020355247 0.034393348 0.73700011 1.7471151e-39
0.021759048 0.034393333 0.73700005 2.2974022e-39
0.023162834 0.034393333 0.73700011 1.3786815e-39
0.02463332 0.034486674 0.73900008 4.6033075e-40
0.026040953 0.034486681 0.73900008 3.6849946e-40
0.027485684 0.034533329 0.74000007 2.7881075e-40
0.028973311 0.03462667 0.7420001 9.2344868e-40
0.030386651 0.03462667 0.7420001 1.5688069e-39
0.031799957 0.03462667 0.7420001 2.306718e-39
0.033258077 0.034673333 0.74300009 2.9499421e-39
0.034673337 0.034673348 0.74300003 3.2258255e-39
0.036088567 0.034673341 0.74300003 3.500927e-39
0.037705727 0.034860007 0.7470001 1.8446132e-39
0.039180942 0.03490667 0.74800009 1.0235084e-40
0.040605709 0.034906663 0.74800009 6.5528191e-39
0.042142797 0.034999996 0.75000012 1.2915349e-38
0.043745738 0.03514 0.75300008 1.3753041e-38
0.045359943 0.035279997 0.7560001 1.4483426e-38
0.046799969 0.035279982 0.75600016 1.4298325e-38
0.048367616 0.03537333 0.75800008 1.4023538e-38
0.049942795 0.035466671 0.76000011 1.4755353e-38
0.062919974 0.033880003 0.72600007 1.6046742e-38
0.064302839 0.03388001 0.72600007 1.974389e-38
0.065685697 0.033880003 0.72600007 2.3417648e-38
0.067068562 0.03388001 0.72600007 2.3417627e-38
0.068451397 0.033879995 0.72600007 2.3409319e-38
0.069834262 0.033880003 0.72600007 2.0371875e-38
0.07121712 0.03388001 0.72600007 1.7237213e-38
0.072599985 0.033879995 0.72600007 1.4653564e-38
-0.022526661 0.03706 0.76300001 1.0058047e-38
-0.020935265 0.036817141 0.75800008 1.3104765e-38
-0.019491458 0.036817148 0.75800014 1.2639492e-38
-0.01797621 0.036671445 0.75500011 1.2268176e-38
-0.0164943 0.036574274 0.75300008 1.0974916e-38
-0.015040026 0.036525711 0.75200009 9.7802547e-39
-0.013571454 0.036428563 0.75000018 8.4840719e-39
-0.012142879 0.036428571 0.75000012 7.1926871e-39
-0.010685742 0.036331408 0.74800009 8.7600408e-39
-0.0092238011 0.036185712 0.74500012 1.0323758e-38
-0.0078047658 0.036185712 0.74500012 7.5640311e-39
-0.0063685901 0.036088586 0.74300003 4.8867341e-39
-0.0049533411 0.036088556 0.74300009 4.7865693e-39
-0.0035333796 0.036040001 0.7420001 4.7992314e-39
-0.002114316 0.03594286 0.74000007 6.7386453e-39
-0.00070383347 0.035894297 0.73900008 8.6714717e-39
0.00070190482 0.035797149 0.73700005 8.2119103e-39
0.002105691 0.035797149 0.73700011 7.8466772e-39
0.003509494 0.035797156 0.73700011 7.8308496e-39
0.0049133194 0.035797149 0.73700011 7.8269764e-39
0.0063171224 0.035797149 0.73700011 7.6548577e-39
0.0077209459 0.035797156 0.73700011 7.3771414e-39
0.0091247493 0.035797149 0.73700011 4.4232799e-39
0.010528573 0.035797156 0.73700011 1.4791546e-39
0.011932374 0.035797149 0.73700005 1.2014873e-39
0.013336199 0.035797141 0.73700011 1.0153052e-39
0.01474 0.035797149 0.73700005 6.4616955e-40
0.016143788 0.035797149 0.73700011 2.7812271e-40
0.017547591 0.035797141 0.73700011 5.5328308e-40
0.018951414 0.035797141 0.73700011 9.2061385e-40
0.020355215 0.035797156 0.73700011 1.2872258e-39
0.021759044 0.035797141 0.73700011 1.6538419e-39
0.023162846 0.035797149 0.73700011 1.0113423e-39
0.024633331 0.035894297 0.73900008 4.6033635e-40
0.026040941 0.035894297 0.73900008 5.5325505e-40
0.027448574 0.03589429 0.73900008 6.4723033e-40
0.028973289 0.036039993 0.7420001 1.1996656e-39
0.030427611 0.036088586 0.74300009 1.7524751e-39
0.031842835 0.036088571 0.74300009 2.3974773e-39
0.033258066 0.036088571 0.74300009 3.0421279e-39
0.034673326 0.036088578 0.74300003 3.5013138e-39
0.03618573 0.036185719 0.74500012 3.9611765e-39
0.037705716 0.03628286 0.7470001 2.0268577e-39
0.039128561 0.036282852 0.7470001 9.2672071e-41
0.040605705 0.036331423 0.74800009 6.8297648e-39
0.042255189 0.036525711 0.75200009 1.3563562e-38
0.043745704 0.036574282 0.75300008 1.4392622e-38
0.045180008 0.036574289 0.75300008 1.5214493e-38
0.046799961 0.036719993 0.75600016 1.4849317e-38
0.048367586 0.036817133 0.75800014 1.4481269e-38
0.049942784 0.036914289 0.76000011 1.4941174e-38
0.051390465 0.036914296 0.76000011 1.549391e-38
0.062833317 0.03521426 0.72500014 1.4578446e-38
0.064302869 0.035262868 0.72600007 1.9003482e-38
0.065685727 0.03526286 0.72600007 2.3417679e-38
0.067068592 0.03526286 0.72600007 2.3417314e-38
0.068451434 0.035262853 0.72600007 2.3417682e-38
0.069834292 0.03526286 0.72600007 2.1851106e-38
0.071217149 0.035262853 0.72600007 2.0379767e-38
0.072600015 0.035262853 0.72600007 1.6871545e-38
-0.023980008 0.038513348 0.76300007 7.8435257e-39
-0.022467649 0.038412374 0.7610001 1.0245681e-38
-0.020935256 0.038260955 0.75800008 1.254587e-38
-0.019491449 0.038260944 0.75800008 1.1990908e-38
-0.017976189 0.038109533 0.75500011 1.1351276e-38
-0.016494296 0.038008571 0.75300008 1.3557827e-38
-0.015040031 0.0379581 0.75200009 1.5762567e-38
-0.013571442 0.037857141 0.75000012 1.4208152e-38
-0.012142867 0.037857145 0.75000012 1.2629364e-38
-0.010685723 0.037756193 0.74800009 1.224623e-38
-0.009248578 0.037705712 0.7470001 1.180392e-38
-0.0078047602 0.03760476 0.74500012 1.0709436e-38
-0.0063685789 0.037503809 0.74300009 9.4871914e-39
-0.0049533523 0.037503816 0.74300009 9.1840191e-39
-0.0035333796 0.037453324 0.7420001 8.8526302e-39
-0.002114316 0.037352383 0.74000007 1.2363626e-38
-0.00070381857 0.037301905 0.73900008 1.5764759e-38
0.00070379168 0.037301913 0.73900008 1.4951147e-38
0.0021057022 0.037200965 0.73700011 1.4101599e-38
0.0035095294 0.037200965 0.73700011 1.4079287e-38
0.0049133305 0.037200965 0.73700005 1.4100521e-38
0.0063171559 0.037200958 0.73700011 1.3294518e-38
0.0077209198 0.037200965 0.73700011 1.2338049e-38
0.0091247438 0.037200958 0.73700011 6.4393238e-39
0.010528547 0.037200958 0.73700011 4.6679914e-40
0.01193237 0.037200958 0.73700011 8.3271881e-40
0.013336171 0.03720095 0.73700011 1.1064162e-39
0.014739997 0.037200958 0.73700011 6.4542966e-40
0.016143799 0.037200965 0.73700011 1.8627881e-40
0.017595224 0.037301905 0.73900008 4.6181192e-40
0.018951423 0.037200958 0.73700005 6.4510877e-40
0.020410469 0.037301913 0.73900008 8.2768955e-40
0.021818079 0.037301898 0.73900008 9.1951664e-40
0.023225714 0.037301905 0.73900008 6.4400174e-40
0.024666656 0.037352383 0.74000007 3.6885539e-40
0.026076149 0.037352368 0.74000007 6.4544088e-40
0.027559964 0.037453331 0.7420001 9.2237529e-40
0.029012375 0.037503809 0.74300009 1.4751749e-39
0.030427597 0.037503816 0.74300009 1.9361475e-39
0.031842824 0.037503809 0.74300009 2.5800735e-39
0.033258088 0.037503816 0.74300003 3.1336032e-39
0.034766663 0.03760476 0.74500012 3.7761e-39
0.036185697 0.037604757 0.74500012 4.326722e-39
0.037705701 0.037705719 0.7470001 2.208735e-39
0.039180934 0.03775619 0.74800009 1.0307111e-40
0.040605724 0.037756175 0.74800009 7.1095704e-39
0.042255227 0.037958097 0.75200015 1.411136e-38
0.04386187 0.03810953 0.75500011 1.5039094e-38
0.045359977 0.038159989 0.75600016 1.595422e-38
0.046799991 0.038160004 0.7560001 1.5494325e-38
0.048367593 0.038260952 0.75800008 1.4942233e-38
0.049942862 0.038361903 0.76000011 1.5217021e-38
0.062833317 0.036595225 0.72500014 1.3099372e-38
0.064214252 0.03659524 0.72500008 1.8273787e-38
0.06559521 0.036595218 0.72500014 2.3416943e-38
0.067068577 0.036645718 0.72600007 2.3415875e-38
0.068451419 0.03664571 0.72600007 2.3417321e-38
0.069834277 0.036645718 0.72600007 2.341769e-38
0.071217142 0.036645725 0.72600007 2.3413297e-38
0.072799981 0.036746666 0.7280001 1.9182319e-38
-0.026957156 0.040071435 0.76500005 1.0315527e-38
-0.02543335 0.039966665 0.76300007 9.5862043e-39
-0.023980027 0.039966665 0.76300007 8.8598427e-39
-0.022467626 0.03986191 0.7610001 1.0332509e-38
-0.02099051 0.039809532 0.76000011 1.1719002e-38
-0.019491438 0.039704759 0.75800008 1.2640218e-38
-0.017976206 0.03954763 0.75500011 1.3556784e-38
-0.016494293 0.03944286 0.75300002 1.4661684e-38
-0.015040016 0.039390467 0.75200009 1.5860951e-38
-0.013571464 0.039285716 0.75000012 1.4300132e-38
-0.012142889 0.039285719 0.75000012 1.2737788e-38
-0.010685728 0.039180946 0.74800009 1.3096813e-38
-0.0092485687 0.039128575 0.7470001 1.3568917e-38
-0.0078047677 0.039023809 0.74500012 1.2728779e-38
-0.0063856947 0.039023817 0.74500012 1.1882521e-38
-0.0049533634 0.03891905 0.74300009 1.179498e-38
-0.0035381368 0.038919054 0.74300009 1.1634323e-38
-0.0021142936 0.038761903 0.74000007 1.3476827e-38
-0.00070479832 0.038761906 0.74000007 1.5317134e-38
0.00070377864 0.038709521 0.73900008 1.3926338e-38
0.0021114131 0.038709521 0.73900008 1.2550144e-38
0.0035190233 0.038709529 0.73900008 1.4205237e-38
0.0049266559 0.038709532 0.73900008 1.5874485e-38
0.0063342662 0.038709532 0.73900008 1.1070764e-38
0.0077209515 0.03860477 0.73700011 6.2611206e-39
0.0091247531 0.038604762 0.73700011 3.8657453e-39
0.010528578 0.03860477 0.73700011 1.4723149e-39
0.01193238 0.03860477 0.73700005 1.2904684e-39
0.013336205 0.038604762 0.73700011 1.105333e-39
0.014739967 0.038604766 0.73700011 7.3724274e-40
0.016143791 0.038604766 0.73700011 4.6105942e-40
0.017595217 0.038709525 0.73900008 6.4584585e-40
0.019002851 0.038709532 0.73900008 8.2914129e-40
0.020410461 0.038709525 0.73900008 8.2840701e-40
0.02181809 0.038709521 0.73900008 8.2803987e-40
0.023257121 0.038761903 0.74000007 5.5252498e-40
0.024666656 0.038761903 0.74000007 3.6849245e-40
0.026076149 0.038761895 0.74000007 5.5323684e-40
0.027559945 0.038866669 0.7420001 7.3834276e-40
0.029012362 0.038919054 0.74300009 1.2918655e-39
0.030427586 0.038919043 0.74300009 1.8450308e-39
0.031842813 0.03891905 0.74300009 2.5818672e-39
0.033258099 0.038919061 0.74300003 3.3190679e-39
0.034766667 0.039023809 0.74500012 3.6864141e-39
0.036185704 0.039023813 0.74500012 4.054084e-39
0.03760476 0.039023813 0.74500012 2.1183331e-39
0.039128594 0.039128579 0.7470001 9.3023797e-41
0.04060572 0.039180949 0.74800009 7.2925184e-39
0.042255219 0.039390482 0.75200015 1.4580597e-38
0.043861892 0.03954763 0.75500005 1.5407188e-38
0.045359969 0.039599992 0.75600016 1.6324094e-38
0.046923779 0.039704755 0.75800014 1.6231526e-38
0.04849517 0.039809518 0.76000011 1.6137883e-38
0.050008547 0.03986191 0.76100004 1.6230063e-38
0.051593348 0.03996668 0.76300001 1.6320084e-38
0.064302839 0.038028575 0.72600007 1.7992148e-38
0.065685704 0.038028583 0.72600007 2.3417641e-38
0.067068562 0.038028568 0.72600007 2.3417306e-38
0.068451427 0.038028575 0.72600007 2.3417677e-38
0.069834262 0.038028583 0.72600007 2.341769e-38
0.071413338 0.038133323 0.7280001 2.341769e-38
0.07280001 0.038133319 0.7280001 2.1300093e-38
-0.026957158 0.04152859 0.76500005 1.2260592e-38
-0.025433335 0.041420005 0.76300007 1.1062427e-38
-0.02398001 0.041420009 0.76300007 9.8682409e-39
-0.02246763 0.041311424 0.7610001 1.0413189e-38
-0.020935252 0.041148569 0.75800008 1.0889958e-38
-0.019491468 0.041148566 0.75800008 1.3294197e-38
-0.017976202 0.040985718 0.75500011 1.5670791e-38
-0.01649427 0.040877141 0.75300008 1.5762618e-38
-0.015040022 0.040822856 0.75200009 1.585913e-38
-0.01357143 0.040714294 0.75000012 1.4301527e-38
-0.012142877 0.040714294 0.75000012 1.2731705e-38
-0.010685732 0.040605709 0.74800009 1.4018469e-38
-0.0092485817 0.040551435 0.7470001 1.5311335e-38
-0.0078047602 0.040442865 0.74500012 1.4846413e-38
-0.0063686031 0.040334277 0.74300009 1.4293956e-38
-0.0049533523 0.040334277 0.74300009 1.438722e-38
-0.0035380884 0.040334292 0.74300003 1.4392277e-38
-0.0021143346 0.040171422 0.74000007 1.4683243e-38
-0.00070477783 0.04017143 0.74000007 1.4845363e-38
0.00070471741 0.040171426 0.74000007 1.2887016e-38
0.0021142517 0.040171418 0.74000007 1.0983213e-38
0.0035238066 0.040171426 0.74000007 1.4316547e-38
0.0049266466 0.040117156 0.73900008 1.7512111e-38
0.0063342792 0.040117148 0.73900008 8.8530029e-39
