# .PCD v0.7 - Point Cloud Data file format
VERSION 0.7
FIELDS x y z rgb
SIZE 4 4 4 4
TYPE F F F F
COUNT 1 1 1 1
WIDTH 994
HEIGHT 1
VIEWPOINT 0 0 0 1 0 0 0
POINTS 994
DATA ascii
0.044617131 0.032914288 0.76799995 1.7889237e-38
0.046200007 0.033 0.76999998 1.7892821e-38
0.047852367 0.033128574 0.773 1.9640922e-38
0.049324751 0.033128574 0.773 2.1388311e-38
0.050928529 0.033214286 0.77499998 2.2405322e-38
0.052404735 0.033214293 0.77499998 2.3413719e-38
-0.027203808 0.03455618 0.77199996 2.8588198e-39
-0.025733342 0.03455618 0.77199996 2.4914792e-39
-0.024200005 0.034466662 0.76999998 2.1230695e-39
-0.022674279 0.034377143 0.76800001 1.6613893e-39
-0.021183837 0.03433238 0.76699996 1.1993335e-39
-0.019671431 0.034242861 0.76499999 1.1986076e-39
-0.018166699 0.034153335 0.76299989 1.1971671e-39
-0.016669542 0.034063809 0.76099998 9.2129489e-40
-0.015159991 0.033929504 0.75800002 7.3690082e-40
-0.013716205 0.033929519 0.75799996 8.2908805e-40
-0.012272389 0.033929519 0.75800002 9.2130049e-40
-0.010800014 0.033839993 0.75600004 9.2131871e-40
-0.0093476493 0.03379523 0.755 9.2060264e-40
-0.0079095233 0.033795238 0.755 7.3800925e-40
-0.0064543225 0.033705711 0.75299996 4.6321322e-40
-0.0050133299 0.033660948 0.75200003 7.3835257e-40
-0.0035809723 0.033660948 0.75199997 9.2203757e-40
-0.0021428324 0.033571422 0.75 1.0131696e-39
-0.00071426458 0.033571422 0.75000006 1.1050051e-39
0.00071236049 0.033481896 0.74799997 9.2097539e-40
0.002137135 0.033481881 0.74799997 8.2838319e-40
0.0035619095 0.033481896 0.74799997 2.113322e-39
0.0049866596 0.033481888 0.74800003 3.3065627e-39
0.0064114342 0.033481888 0.74800003 9.8718198e-39
0.0078361798 0.033481896 0.74799997 1.6344112e-38
0.0092609543 0.033481888 0.74799997 1.5129486e-38
0.010685705 0.033481896 0.74799997 1.3802788e-38
0.012110479 0.033481903 0.74799997 1.2711061e-38
0.013535254 0.033481896 0.74799997 1.1535625e-38
0.014960002 0.033481888 0.74800003 1.4207594e-38
0.016384749 0.033481896 0.74799997 1.6982748e-38
0.017857155 0.033571422 0.75 1.7622009e-38
0.019285718 0.033571444 0.75 1.8264831e-38
0.020714289 0.033571422 0.75 1.6881172e-38
0.022142855 0.033571415 0.75 1.5420412e-38
0.023571448 0.03357143 0.75 1.171578e-38
0.025000015 0.03357143 0.75000006 8.0254997e-39
0.026499063 0.033660941 0.75200003 1.236114e-38
0.027968535 0.033705711 0.75299996 1.6697864e-38
0.029480943 0.03379523 0.755 1.7247092e-38
0.030919015 0.033795245 0.755 1.789319e-38
0.032357138 0.033795238 0.755 1.817374e-38
0.033795211 0.033795245 0.755 1.8447048e-38
0.035233311 0.033795245 0.755 1.3269775e-38
0.036719978 0.033839993 0.75599998 8.1248602e-39
0.038260929 0.033929519 0.75799996 1.2458013e-38
0.039861903 0.034063809 0.76099998 1.6792223e-38
0.04152856 0.034242861 0.76499999 1.6789359e-38
0.043098085 0.034332365 0.76699996 1.6876893e-38
0.044617139 0.034377143 0.76799995 1.6690355e-38
0.046319984 0.034556165 0.77199996 1.6502726e-38
0.047852375 0.034600951 0.773 1.7333538e-38
0.049324758 0.034600951 0.773 1.8160073e-38
-0.027133306 0.035933338 0.76999998 2.5851056e-39
-0.02566666 0.035933316 0.76999998 2.3096005e-39
-0.024199989 0.035933331 0.76999998 1.9404719e-39
-0.0226743 0.035839997 0.76799995 1.570267e-39
-0.021183804 0.035793327 0.76699996 1.108933e-39
-0.019671438 0.035699993 0.76499999 1.0152982e-39
-0.018166685 0.03560666 0.76299995 8.305482e-40
-0.016669538 0.035513327 0.76099998 7.3799243e-40
-0.015200007 0.035466664 0.75999999 6.4652128e-40
-0.013716188 0.03537333 0.75799996 8.3055801e-40
-0.012272403 0.03537333 0.75799996 9.2167744e-40
-0.010800011 0.035280004 0.75599998 8.2984475e-40
-0.0093476484 0.035233334 0.755 7.3837079e-40
-0.0079095224 0.035233341 0.755 7.3873232e-40
-0.0064543039 0.03514 0.75299996 6.4725275e-40
-0.0050200503 0.035140015 0.75299996 8.3127968e-40
-0.0035857435 0.03514 0.75299996 1.0149675e-39
-0.0021428268 0.035000004 0.75 1.0139081e-39
-0.00071428879 0.034999996 0.75 1.0142626e-39
0.00071427808 0.035000004 0.75 5.5472362e-40
0.0021371574 0.034906648 0.74799997 9.3372721e-41
0.0035619077 0.034906656 0.74800003 3.3065165e-39
0.0049866531 0.034906663 0.74799997 6.5567372e-39
0.0064114276 0.034906648 0.74799997 1.2213692e-38
0.0078361761 0.034906656 0.74799997 1.7809221e-38
0.0092609506 0.034906663 0.74799997 1.5313541e-38
0.010685727 0.034906656 0.74799997 1.2825321e-38
0.012110475 0.034906641 0.74800003 1.6138879e-38
0.013571432 0.035000019 0.75 1.9357133e-38
0.014999999 0.035000004 0.75 1.926608e-38
0.016428592 0.034999996 0.75 1.9088503e-38
0.01785716 0.034999996 0.75 1.9548037e-38
0.019285724 0.035000019 0.75 1.9918233e-38
0.02071429 0.035000011 0.75 1.7995413e-38
0.022142859 0.034999996 0.75 1.5952059e-38
0.023634281 0.035093322 0.75199997 1.1241532e-38
0.025066668 0.03509333 0.75199997 6.5608065e-39
0.026534272 0.035140008 0.75299996 1.1723341e-38
0.027968556 0.03514 0.75299996 1.6783967e-38
0.029480914 0.035233334 0.755 1.6965473e-38
0.030919014 0.035233326 0.755 1.7065945e-38
0.032357138 0.035233341 0.755 1.7534834e-38
0.033795211 0.035233334 0.755 1.7876977e-38
0.035279993 0.035280004 0.75599998 1.2229006e-38
0.036719989 0.035279989 0.75600004 6.5643196e-39
0.03826094 0.035373323 0.75799996 1.1725101e-38
0.039966658 0.03560666 0.76299989 1.6875793e-38
0.041528556 0.035700001 0.76499999 1.6420215e-38
0.043098088 0.035793319 0.76699996 1.5862749e-38
0.044617154 0.035839997 0.76799995 1.5492541e-38
0.046319984 0.036026649 0.77199996 1.5124116e-38
0.047852375 0.036073342 0.77299994 1.5030481e-38
0.04945235 0.036166653 0.77499998 1.4850046e-38
-0.027203836 0.037497133 0.77199996 2.4028695e-39
-0.025666671 0.037399985 0.76999998 2.4936274e-39
-0.024199998 0.0374 0.76999998 2.5847525e-39
-0.02267429 0.037302852 0.76799995 1.9383223e-39
-0.021183802 0.037254281 0.76699996 1.2940375e-39
-0.019671444 0.037157141 0.76499999 1.1074952e-39
-0.018119065 0.036962859 0.76099998 1.0138675e-39
-0.016647588 0.036914267 0.75999999 9.2203197e-40
-0.015200009 0.036914267 0.75999999 8.3129089e-40
-0.013716174 0.036817133 0.75800002 7.3875614e-40
-0.012272388 0.036817133 0.75799996 7.3802607e-40
-0.010800004 0.036719993 0.75600004 7.3801205e-40
-0.009360035 0.03672 0.75599998 8.3092795e-40
-0.0079095205 0.03667143 0.755 7.3945399e-40
-0.0064714495 0.03667143 0.755 7.3981552e-40
-0.0050333487 0.036671422 0.755 9.2420678e-40
-0.00358575 0.036574289 0.75299996 1.1089736e-39
-0.0021428482 0.036428563 0.75000006 1.1079156e-39
-0.00071428507 0.036428586 0.75 1.1082687e-39
0.00071428274 0.036428571 0.75 6.4693186e-40
0.0021428748 0.036428578 0.75 1.8416425e-40
0.0035714435 0.036428571 0.75 3.503511e-39
0.0050000101 0.036428563 0.75000006 6.940281e-39
0.0064285751 0.036428578 0.75 1.2200845e-38
0.0078571411 0.036428578 0.75 1.7538783e-38
0.0092609478 0.036331415 0.74800003 1.4584263e-38
0.010685722 0.036331415 0.74800003 1.1647321e-38
0.012110467 0.036331423 0.74799997 1.3849579e-38
0.013535216 0.03633143 0.74799997 1.616161e-38
0.015000001 0.036428571 0.75 1.4757531e-38
0.016428595 0.036428578 0.75 1.3301429e-38
0.017857162 0.036428563 0.75 1.3834138e-38
0.019285729 0.036428586 0.75 1.4313045e-38
0.020714296 0.036428578 0.75 1.4578147e-38
0.022142865 0.036428578 0.75 1.4925733e-38
0.023634264 0.036525704 0.75199997 1.1696399e-38
0.025066651 0.036525719 0.75199997 8.4771677e-39
0.026499039 0.036525697 0.75199997 1.3374615e-38
0.027968545 0.036574289 0.75299996 1.8259799e-38
0.029480916 0.03667143 0.755 1.798103e-38
0.030919017 0.036671415 0.755 1.7798826e-38
0.032357141 0.036671422 0.755 1.789177e-38
0.033795211 0.03667143 0.755 1.7969844e-38
0.035279993 0.036719985 0.75600004 1.4835108e-38
0.036817115 0.036817133 0.75799996 1.1718532e-38
0.038361903 0.036914282 0.75999999 1.4389386e-38
0.039861877 0.036962852 0.76099998 1.714698e-38
0.04141999 0.037059978 0.76299995 1.6874719e-38
0.043098092 0.037254281 0.76699996 1.6681728e-38
0.044733327 0.037400007 0.76999998 1.6134308e-38
0.046319988 0.037497126 0.77200001 1.567477e-38
0.047790479 0.037497111 0.77200001 1.539998e-38
0.049452361 0.037642848 0.77499998 1.5126269e-38
0.050928541 0.037642844 0.77499998 1.4666734e-38
-0.027203837 0.038967602 0.77199996 2.1262883e-39
-0.025666652 0.038866661 0.76999998 2.6769229e-39
-0.024200007 0.038866661 0.76999998 3.1339634e-39
-0.022674283 0.038765721 0.76800001 2.3045895e-39
-0.021211429 0.038765714 0.76799995 1.384438e-39
-0.019671449 0.038614281 0.76499999 1.2908047e-39
-0.018119065 0.038412381 0.76099998 1.1060575e-39
-0.01664759 0.0383619 0.76000005 1.0124297e-39
-0.015199985 0.038361892 0.75999999 9.2168024e-40
-0.013716214 0.03826094 0.75799996 7.3837919e-40
-0.012272373 0.038260948 0.75799996 5.5434526e-40
-0.010800025 0.03816 0.75599998 7.3693445e-40
-0.0093600033 0.03816 0.75599998 8.3057622e-40
-0.0079200054 0.03816 0.75600004 8.3166643e-40
-0.0064714486 0.038109515 0.755 8.3201816e-40
-0.0050333478 0.038109522 0.755 1.016401e-39
-0.0035952756 0.03810953 0.755 1.1082351e-39
-0.0021428454 0.037857141 0.75000006 1.1082323e-39
-0.00071428134 0.037857141 0.75 1.1078848e-39
0.00071428646 0.037857149 0.75 6.4907865e-40
0.0021428794 0.037857141 0.75 1.8774036e-40
0.0035714481 0.037857145 0.75 3.6749697e-39
0.0050000167 0.037857138 0.75000006 7.2010584e-39
0.0064285789 0.037857149 0.75 1.2294449e-38
0.0078571457 0.037857138 0.75 1.7231312e-38
0.0092609404 0.037756182 0.74799997 1.3836614e-38
0.010685715 0.03775619 0.74799997 1.0335741e-38
0.012110464 0.037756186 0.74799997 1.1634349e-38
0.013535239 0.037756179 0.74799997 1.2899226e-38
0.015000007 0.037857145 0.75 1.020872e-38
0.016428601 0.037857141 0.75 7.4662443e-39
0.01785717 0.037857149 0.75000006 8.0822215e-39
0.019285707 0.037857141 0.75 8.6852493e-39
0.0207143 0.037857134 0.75 1.1262381e-38
0.022201899 0.037958082 0.75199997 1.3828023e-38
0.023665691 0.038008571 0.75299996 1.2049415e-38
0.025099974 0.038008571 0.75299996 1.0336489e-38
0.026534254 0.038008571 0.75299996 1.5037341e-38
0.028042844 0.038109526 0.755 1.9638426e-38
0.029480916 0.038109526 0.755 1.908345e-38
0.030959986 0.038159996 0.75599998 1.8538552e-38
0.032399982 0.038159996 0.75600004 1.8262702e-38
0.033840004 0.038160004 0.75600004 1.7980309e-38
0.035279974 0.038159993 0.75599998 1.7423842e-38
0.036817133 0.038260944 0.75799996 1.6875023e-38
0.0383619 0.038361896 0.75999999 1.7150214e-38
0.039861906 0.038412381 0.76099998 1.7337491e-38
0.041528571 0.038614284 0.76499999 1.7433649e-38
0.043154284 0.038765717 0.76799995 1.7518302e-38
0.044733316 0.038866673 0.76999998 1.6871142e-38
0.046319988 0.038967609 0.77200001 1.6136811e-38
0.047852386 0.039018098 0.773 1.5768388e-38
0.049324743 0.039018095 0.773 1.5309928e-38
-0.027133308 0.040333316 0.77000004 2.4943491e-39
-0.025666662 0.040333327 0.77000004 2.6761872e-39
-0.024199991 0.040333338 0.76999998 2.9495665e-39
-0.022674274 0.040228575 0.76800001 2.2120379e-39
-0.021211421 0.040228564 0.76800001 1.566314e-39
-0.019671429 0.04007142 0.76499999 1.3826374e-39
-0.018119061 0.039861903 0.76099998 1.1074896e-39
-0.016647592 0.03980951 0.76000005 9.2202496e-40
-0.015199987 0.039809514 0.75999999 8.2911747e-40
-0.013716198 0.039704759 0.75799996 7.3836098e-40
-0.012272382 0.039704759 0.75800002 6.4724715e-40
-0.01080002 0.039599996 0.75600004 7.3872672e-40
-0.0093599958 0.039599989 0.75600004 8.313021e-40
-0.0079095196 0.039547607 0.755 8.3168325e-40
-0.0064714476 0.039547622 0.755 9.242222e-40
-0.0050333468 0.039547626 0.755 9.2348932e-40
-0.0035952746 0.039547618 0.755 1.0153024e-39
-0.0021514611 0.039442871 0.75299996 1.1071141e-39
-0.00071427575 0.039285723 0.75 1.106426e-39
0.00071429019 0.039285712 0.75 9.2493686e-40
0.0021428599 0.039285719 0.75 6.5049396e-40
0.0035714519 0.039285704 0.75 2.1194906e-39
0.0049999906 0.039285719 0.75 3.6897646e-39
0.0064285835 0.039285719 0.75 6.1776761e-39
0.0078571523 0.039285719 0.75 8.6331742e-39
0.0092857191 0.039285708 0.75 1.0861595e-38
0.010714313 0.039285716 0.75 1.3041246e-38
0.01214285 0.039285712 0.75 1.4821628e-38
0.013571445 0.039285723 0.75 1.6439127e-38
0.01496001 0.039180946 0.74800003 1.5550879e-38
0.016428581 0.039285716 0.75 1.4527131e-38
0.017857173 0.039285704 0.75 1.4831051e-38
0.019285712 0.039285723 0.75 1.5134179e-38
0.020714305 0.039285712 0.75 1.624015e-38
0.02214287 0.039285704 0.75 1.7441544e-38
0.023634298 0.039390463 0.75199997 1.5773439e-38
0.025099961 0.039442871 0.75299996 1.4230183e-38
0.026534244 0.039442863 0.75299996 1.6153717e-38
0.028042847 0.039547607 0.755 1.8091231e-38
0.02951997 0.039600007 0.75599998 1.7439773e-38
0.030959992 0.039599996 0.75600004 1.6713699e-38
0.03239996 0.0396 0.75599998 1.5689876e-38
0.033839986 0.039600011 0.75599998 1.4683261e-38
0.035280008 0.0396 0.75600004 1.393816e-38
0.036817145 0.039704762 0.75799996 1.321746e-38
0.038361926 0.039809518 0.75999999 1.4396607e-38
0.039861884 0.039861914 0.76099998 1.5690933e-38
0.041528534 0.040071435 0.76499999 1.6330212e-38
0.043154292 0.040228575 0.76799995 1.7066669e-38
0.044617146 0.040228575 0.76799995 1.6691771e-38
0.046319984 0.040438075 0.77200001 1.632514e-38
0.04785239 0.040490471 0.773 1.632262e-38
-0.027133347 0.041800007 0.76999998 2.8602477e-39
-0.025666645 0.041799985 0.77000004 2.7673248e-39
-0.0242 0.0418 0.76999998 2.6729992e-39
-0.022674296 0.04169143 0.76799995 2.2113331e-39
-0.021211443 0.04169143 0.76799995 1.7503465e-39
-0.01972289 0.041637141 0.76699996 1.4733911e-39
-0.018119061 0.041311443 0.76099998 1.1064092e-39
-0.016647624 0.041257136 0.75999999 9.2273962e-40
-0.015199991 0.041257139 0.75999999 6.468744e-40
-0.013716184 0.041148569 0.75799996 6.4723314e-40
-0.012272398 0.041148569 0.75799996 6.4724014e-40
-0.010800016 0.041040011 0.75599998 7.3908265e-40
-0.0093600182 0.041039996 0.75599998 7.3908545e-40
-0.0079095494 0.040985722 0.75499994 8.3164261e-40
-0.0064714467 0.040985726 0.755 9.2312218e-40
-0.0050333459 0.040985718 0.755 9.2204878e-40
-0.0035952746 0.040985726 0.755 9.2311517e-40
-0.0021514676 0.040877137 0.75299996 1.0145821e-39
-0.00071621477 0.040822864 0.75199997 1.1075134e-39
0.00071429578 0.040714294 0.75 1.1096855e-39
0.0021485586 0.040822841 0.75199997 1.1082505e-39
0.0035714565 0.040714283 0.75 6.4584445e-40
0.0049999934 0.040714286 0.75 9.7034313e-41
0.0064285882 0.04071429 0.75 9.2421239e-41
0.0078571541 0.04071429 0.75 1.1147329e-40
0.0092857229 0.04071429 0.75 8.0273018e-39
0.010714316 0.040714279 0.75 1.5848382e-38
0.012142855 0.04071429 0.75 1.7988576e-38
0.013571422 0.040714297 0.75 2.0085712e-38
0.014959977 0.040605698 0.74799997 2.0936613e-38
0.016428584 0.040714279 0.75 2.1652317e-38
0.017809527 0.040605694 0.74799997 2.1580965e-38
0.019285714 0.040714301 0.75 2.1477292e-38
0.020714311 0.040714294 0.75 2.1213627e-38
0.022142876 0.040714279 0.75 2.0923764e-38
0.023634279 0.040822849 0.75199997 1.9556626e-38
0.025099954 0.040877149 0.75299996 1.8071832e-38
0.026534261 0.040877156 0.75299996 1.7347908e-38
0.028042845 0.040985715 0.755 1.6501301e-38
0.029520003 0.04104 0.75600004 1.5687337e-38
0.030959969 0.04104 0.75599998 1.4842153e-38
0.03239999 0.041039992 0.75599998 1.3099421e-38
0.033929504 0.041148573 0.75799996 1.1251929e-38
0.035373319 0.041148558 0.75799996 1.0336066e-38
0.036914289 0.041257147 0.75999999 9.4134046e-39
0.038412359 0.041311439 0.76099998 1.1711803e-38
0.039966647 0.041419998 0.76299989 1.402459e-38
0.041528553 0.041528579 0.76499999 1.5312477e-38
0.043154303 0.041691422 0.76800001 1.650848e-38
0.044617157 0.04169143 0.76799995 1.6503805e-38
0.046319988 0.041908558 0.77200001 1.6415907e-38
0.047852363 0.041962858 0.773 1.6968348e-38
-0.027133331 0.043266661 0.76999998 2.8591645e-39
-0.025666654 0.043266658 0.77000004 2.6740726e-39
-0.024199983 0.043266669 0.76999998 2.5801044e-39
-0.022733338 0.043266658 0.76999998 2.2109869e-39
-0.021211434 0.043154292 0.76799995 1.8414687e-39
-0.019722888 0.0430981 0.7669999 1.5652196e-39
-0.018166658 0.042873338 0.76299995 1.1971643e-39
-0.016669558 0.042760964 0.76099998 8.3090133e-40
-0.015199993 0.042704754 0.75999999 4.64274e-40
-0.013752388 0.042704746 0.75999999 5.5538783e-40
-0.012272382 0.042592373 0.75799996 6.468744e-40
-0.010800009 0.042480007 0.75599998 6.4724295e-40
-0.0093600107 0.042479999 0.75600004 6.4651147e-40
-0.0079200184 0.042479999 0.75599998 8.3052578e-40
-0.0064714458 0.042423807 0.755 1.1056932e-39
-0.005033344 0.0424238 0.755 1.014236e-39
-0.0035952728 0.042423815 0.755 9.2348091e-40
-0.002151449 0.042311415 0.75299996 1.2904684e-39
-0.00071719638 0.042311434 0.75299996 1.6581789e-39
0.00071618357 0.042255238 0.75199997 1.4755939e-39
0.0021485707 0.042255234 0.75199997 1.2919355e-39
0.003580957 0.042255223 0.75199997 7.3878277e-40
0.0050133429 0.042255238 0.75200003 1.8418106e-40
0.0064285658 0.042142857 0.75 2.2156813e-39
0.0078571606 0.042142861 0.75 4.2645058e-39
0.0092857275 0.042142861 0.75 9.8880973e-39
0.01071432 0.042142857 0.75 1.5611673e-38
0.012142858 0.042142857 0.75 1.4314138e-38
0.013571427 0.042142857 0.75 1.3131756e-38
0.01500002 0.042142868 0.75 1.2471329e-38
0.016428588 0.042142857 0.75 1.1932149e-38
0.017857153 0.042142857 0.75 1.1356376e-38
0.019285718 0.042142864 0.75 1.0806447e-38
0.020714289 0.042142853 0.75 1.0702779e-38
0.022142882 0.042142857 0.75 1.0514429e-38
0.023634272 0.042255223 0.75199997 9.7757832e-39
0.025099974 0.042311423 0.75299996 9.1225175e-39
0.026534257 0.042311419 0.75299996 8.6615323e-39
0.028042847 0.042423803 0.755 8.2662106e-39
0.029519983 0.042479999 0.75599998 7.9171654e-39
0.030960007 0.042479999 0.75599998 7.4393128e-39
0.032400001 0.042479988 0.75600004 6.9948209e-39
0.033929519 0.042592373 0.75799996 6.4290747e-39
0.035466682 0.04270475 0.75999999 5.6150842e-39
0.036914285 0.042704765 0.75999999 4.7760147e-39
0.038412385 0.04276095 0.76099998 9.4040271e-39
0.039966658 0.042873327 0.76299995 1.4025994e-38
0.041528549 0.042985719 0.76499999 1.5313542e-38
0.043154281 0.043154284 0.76799995 1.6599955e-38
0.044617139 0.043154277 0.76800001 1.6507401e-38
0.04631998 0.043379024 0.77199996 1.6325875e-38
0.047790449 0.043379031 0.77199996 1.6417344e-38
-0.02713334 0.044733331 0.76999998 2.7666116e-39
-0.025666637 0.044733323 0.77000004 2.5811581e-39
-0.024199992 0.044733327 0.77000004 2.3964208e-39
-0.022674279 0.044617139 0.76800001 2.2109673e-39
-0.021211425 0.044617146 0.76799995 1.9336461e-39
-0.019671451 0.044442859 0.76499999 1.6566851e-39
-0.018166671 0.044326656 0.76299995 1.288997e-39
-0.016669529 0.044210471 0.76099998 8.305482e-40
-0.015199997 0.044152364 0.75999999 2.7988414e-40
-0.013752392 0.044152375 0.75999999 4.6354533e-40
-0.012272394 0.04403618 0.75799996 5.5576058e-40
-0.01082858 0.044036195 0.75799996 5.55783e-40
-0.0093600089 0.043920003 0.75599998 4.6357476e-40
-0.00792001 0.043919988 0.75600004 9.2166062e-40
-0.0064800167 0.043920007 0.75599998 1.2893712e-39
-0.0050333431 0.043861888 0.755 1.1053526e-39
-0.0035952718 0.043861903 0.755 9.2239771e-40
-0.0021514602 0.043745719 0.7529999 1.5656035e-39
-0.00071717682 0.043745715 0.75299996 2.2088261e-39
0.00071712979 0.043745723 0.75299996 1.8422184e-39
0.0021485558 0.043687612 0.75199997 1.4752464e-39
0.003580943 0.043687619 0.75199997 8.3276786e-40
0.0050133271 0.043687608 0.75200003 1.8740265e-40
0.0064456845 0.043687608 0.75199997 4.2295952e-39
0.0078780707 0.043687616 0.75199997 8.302734e-39
0.0093104821 0.043687616 0.75199997 1.1832752e-38
0.010742868 0.043687608 0.75200003 1.5300966e-38
0.012142861 0.043571435 0.75 1.0708103e-38
0.01357143 0.043571424 0.75 6.0129913e-39
0.015000023 0.043571427 0.75 4.0679232e-39
0.016428592 0.043571435 0.75000006 2.0496779e-39
0.017857129 0.043571439 0.75 1.1058361e-39
0.019285724 0.043571424 0.75 1.08567e-40
0.02071429 0.043571431 0.75 9.2432449e-41
0.022201896 0.043687612 0.75199997 1.0353914e-40
0.023665683 0.043745719 0.75299996 9.2404423e-41
0.025099991 0.043745715 0.75299996 9.9929396e-41
0.026604747 0.043861907 0.755 9.2386206e-41
0.028042817 0.043861907 0.755 9.3109276e-41
0.029519986 0.043919995 0.75600004 9.2397417e-41
0.030959979 0.04392001 0.75599998 9.526027e-41
0.032485694 0.044036184 0.75799996 9.192616e-40
0.034019042 0.044152375 0.75999999 1.6567776e-39
0.035466682 0.04415236 0.75999999 9.188258e-40
0.036962856 0.044210475 0.76099998 9.9871943e-41
0.038412355 0.044210467 0.76099998 7.0105253e-39
0.039966673 0.044326652 0.76299995 1.3926602e-38
0.041528542 0.044442855 0.76499999 1.5316046e-38
0.043098103 0.044559043 0.76699996 1.669142e-38
0.044617143 0.044617146 0.76799995 1.65081e-38
0.04631998 0.044849508 0.77199996 1.6232952e-38
0.047790445 0.044849515 0.77199996 1.5957087e-38
-0.025666678 0.0462 0.76999998 2.306725e-39
-0.024199976 0.0462 0.77000004 2.3974857e-39
-0.0226743 0.046079997 0.76799995 2.1198283e-39
-0.021211417 0.046079997 0.76800001 1.9336307e-39
-0.019671457 0.045900002 0.76499999 1.6566739e-39
-0.018166687 0.045779996 0.76299989 1.3801122e-39
-0.016669553 0.045660004 0.76099998 1.0131486e-39
-0.015220024 0.045659989 0.76099998 6.4614853e-40
-0.013752393 0.045599993 0.75999999 5.5501368e-40
-0.012304759 0.045599993 0.76000005 5.5612491e-40
-0.010828592 0.045479991 0.75799996 5.5651728e-40
-0.0093847495 0.045479998 0.75799996 6.4869749e-40
-0.0079200342 0.045359999 0.75599998 9.234711e-40
-0.0064800093 0.045360003 0.75600004 1.1982615e-39
-0.0050399872 0.045359991 0.75600004 8.3020208e-40
-0.0035952709 0.045300007 0.755 5.5361239e-40
-0.0021514667 0.045180004 0.75299996 1.1060533e-39
-0.0007171582 0.045179997 0.75299996 1.7485654e-39
0.00071709347 0.045180008 0.7529999 1.5659931e-39
0.0021485419 0.045120008 0.75199997 1.4748849e-39
0.003580929 0.045119997 0.75199997 1.0149997e-39
0.0050133411 0.04511999 0.75199997 5.5366143e-40
0.0064285751 0.045000009 0.75 2.3968201e-39
0.0078780828 0.045120005 0.75199997 4.2508291e-39
0.009310469 0.045119997 0.75199997 5.995782e-39
0.010742856 0.045119982 0.75199997 7.7148053e-39
0.012142868 0.045000013 0.75 5.3406918e-39
0.013607598 0.045120005 0.75199997 3.0311305e-39
0.015000002 0.044999994 0.75 2.0277125e-39
0.016472397 0.045120005 0.75199997 1.1025136e-39
0.017857136 0.045000017 0.75 1.1042792e-39
0.019285729 0.045000006 0.75 1.1024954e-39
0.020714296 0.044999998 0.75 1.1032213e-39
0.022231394 0.045180004 0.75299996 1.1024926e-39
0.023665706 0.045180008 0.75299996 8.2876715e-40
0.025166648 0.045299992 0.755 5.5146279e-40
0.026604749 0.045299992 0.755 8.2911747e-40
0.028042821 0.045300007 0.755 1.1053512e-39
0.029519966 0.04536001 0.75599998 1.4766477e-39
0.031041922 0.045479991 0.75800002 1.9401384e-39
0.032485705 0.045480002 0.75799996 2.4900835e-39
0.034019042 0.045599993 0.75999999 3.0439159e-39
0.035466675 0.045599993 0.76000005 1.8403169e-39
0.03696283 0.045660011 0.76099998 6.4328568e-40
0.038412362 0.045659993 0.76099998 9.5987403e-39
0.039966684 0.045779996 0.76299995 1.8619515e-38
0.041528538 0.045899998 0.76499999 1.7797031e-38
0.043098107 0.046019997 0.76699996 1.6964042e-38
0.04461712 0.046079993 0.76799995 1.6690317e-38
0.046379987 0.04638001 0.773 1.6415536e-38
0.047976159 0.04649999 0.77499998 1.6324785e-38
0.049579959 0.046620004 0.77699995 1.623367e-38
-0.02566666 0.047666669 0.76999998 2.0323004e-39
-0.024199985 0.04766665 0.77000004 2.3982088e-39
-0.022674292 0.047542851 0.76799995 2.1212688e-39
-0.02121144 0.047542859 0.76799995 1.8425253e-39
-0.019722877 0.047480945 0.76699996 1.6559747e-39
-0.018166678 0.047233336 0.76299995 1.380485e-39
-0.016713357 0.047233328 0.76299989 1.1961147e-39
-0.015220026 0.047109526 0.76099992 9.213089e-40
-0.013752369 0.047047608 0.75999999 7.3797982e-40
-0.012304735 0.047047608 0.75999999 4.6392648e-40
-0.010828576 0.046923809 0.75799996 6.4905202e-40
-0.0093847895 0.046923805 0.75799996 8.3271601e-40
-0.0079200007 0.046800002 0.75600004 1.0170989e-39
-0.0064800335 0.046799999 0.75599998 1.107505e-39
-0.0050400095 0.046799999 0.75599998 6.4689963e-40
-0.0036000123 0.046800002 0.75600004 9.5885249e-41
-0.002151449 0.046614297 0.75299996 6.4761569e-40
-0.00071716565 0.046614282 0.75299996 1.1982811e-39
0.0007161994 0.046552375 0.75199997 1.2901279e-39
0.0021485856 0.046552375 0.75200003 1.3823291e-39
0.0035809421 0.046552379 0.75199997 1.1068296e-39
0.0050133271 0.046552368 0.75199997 8.3024272e-40
0.0064285789 0.046428576 0.75 4.6074413e-40
0.0078780707 0.046552386 0.75199997 9.9169892e-41
0.0093104569 0.046552371 0.75199997 9.2382003e-41
0.010742844 0.04655236 0.75199997 9.2733728e-41
0.012175228 0.046552368 0.75200003 9.2369391e-41
0.013607611 0.046552382 0.75199997 9.27029e-41
0.015039998 0.046552375 0.75199997 9.2318944e-41
0.016472382 0.046552379 0.75199997 9.4462931e-41
0.01785714 0.046428576 0.75 1.10644e-39
0.019285733 0.046428587 0.75 2.1155613e-39
0.020769514 0.046552371 0.75199997 2.1155683e-39
0.022231413 0.046614297 0.75299996 2.0251579e-39
0.023728544 0.046738096 0.75499994 1.476289e-39
0.025166648 0.046738096 0.755 9.2418997e-40
0.026604747 0.046738099 0.755 1.4759106e-39
0.028042819 0.046738099 0.755 2.0290914e-39
0.029519996 0.046799999 0.75599998 2.9528441e-39
0.030959992 0.046799995 0.75600004 3.7793748e-39
0.032571435 0.047047611 0.76000005 4.0574037e-39
0.034063801 0.047109522 0.76099998 4.327843e-39
0.035513304 0.047109518 0.76099992 2.7554755e-39
0.036962833 0.047109514 0.76099998 1.1251334e-39
0.038513321 0.047233317 0.76299995 1.2212933e-38
0.039966639 0.047233328 0.76299995 2.3225345e-38
0.041528556 0.047357142 0.76499999 2.028773e-38
0.043098081 0.047480952 0.76699996 1.7248888e-38
0.044733342 0.047666658 0.76999998 1.6873995e-38
0.04631998 0.047790471 0.77199996 1.6507374e-38
0.04797617 0.047976188 0.77499998 1.6692127e-38
0.049452346 0.047976192 0.77499998 1.6784323e-38
-0.025666671 0.049133334 0.76999998 2.6755118e-39
-0.024199968 0.049133338 0.77000004 2.4900499e-39
-0.022674283 0.049005713 0.76799995 2.2120337e-39
-0.02121143 0.049005724 0.76799995 2.0258488e-39
-0.019722875 0.048941895 0.76699996 1.749622e-39
-0.018166665 0.048686657 0.76299995 1.5656063e-39
-0.016713345 0.048686672 0.76299995 1.1968434e-39
-0.015220021 0.048559051 0.76099998 9.2096138e-40
-0.013752373 0.048495241 0.75999999 8.294678e-40
-0.012304738 0.048495226 0.75999999 8.305482e-40
-0.010828561 0.048367605 0.75800002 7.4015184e-40
-0.0093847746 0.048367623 0.75799996 7.408707e-40
-0.0079409583 0.048367605 0.75800002 8.3306633e-40
-0.0064800251 0.048239999 0.75600004 1.0163912e-39
-0.0050400021 0.048239999 0.75600004 7.394624e-40
-0.0036000086 0.048239999 0.75599998 5.5507955e-40
-0.0021514555 0.048048563 0.75299996 1.198291e-39
-0.00071717775 0.048048582 0.75299996 1.8414982e-39
0.00071710465 0.048048571 0.75299996 1.6581859e-39
0.0021485735 0.047984757 0.75200003 1.4741604e-39
0.0035809281 0.047984757 0.75199997 1.1993756e-39
0.005013315 0.047984757 0.75199997 9.2458654e-40
0.0064457012 0.047984749 0.75199997 5.5401596e-40
0.0078781145 0.047984757 0.75199997 2.7597592e-40
0.009310469 0.047984753 0.75199997 6.4472902e-40
0.010742855 0.047984757 0.75199997 1.0113633e-39
0.012175242 0.047984749 0.75199997 6.4510737e-40
0.013607599 0.04798476 0.75199997 2.7739964e-40
0.015039984 0.047984753 0.75199997 3.7030293e-40
0.016472371 0.047984757 0.75199997 4.639461e-40
0.017904758 0.047984757 0.75200003 1.4741492e-39
0.019337116 0.04798476 0.75199997 2.4839851e-39
0.020797124 0.048048578 0.75299996 2.3010358e-39
0.02223138 0.048048578 0.75299996 2.2117058e-39
0.023728546 0.048176195 0.755 1.7532402e-39
0.025166651 0.048176199 0.755 1.294406e-39
0.026604751 0.048176188 0.755 1.7539254e-39
0.028042821 0.048176199 0.755 2.1227262e-39
0.029519975 0.048240002 0.75599998 2.9514218e-39
0.030959973 0.048239999 0.75599998 3.6879135e-39
0.032571457 0.048495229 0.76000005 4.1485385e-39
0.034063779 0.048559058 0.76099998 4.515844e-39
0.035513308 0.04855904 0.76099998 2.5757814e-39
0.036962837 0.048559055 0.76099992 6.4342721e-40
0.038513329 0.048686661 0.76299995 1.1354954e-38
0.03996665 0.048686653 0.76299995 2.2128406e-38
0.041528553 0.048814282 0.76499999 2.0840915e-38
0.043154288 0.049005713 0.76799995 1.9460846e-38
0.044849489 0.049260937 0.77199996 1.7796301e-38
0.046379998 0.049324766 0.773 1.6231872e-38
0.048099983 0.049579993 0.77699995 1.6508456e-38
0.049579982 0.049579993 0.77699995 1.6875439e-38
-0.02573335 0.050731424 0.77199996 3.4101901e-39
-0.024262857 0.050731424 0.77200001 2.5808064e-39
-0.022733307 0.050599992 0.76999998 2.3946313e-39
-0.02126666 0.050599996 0.76999998 2.1180486e-39
-0.019748595 0.050468564 0.76799995 1.9347364e-39
-0.01821431 0.050271444 0.76499999 1.6570831e-39
-0.016713334 0.050139997 0.76299995 1.2883132e-39
-0.015260015 0.050140005 0.76299989 9.2060264e-40
-0.01377049 0.050008569 0.76099998 1.0124297e-39
-0.01230474 0.049942851 0.76000005 1.1057002e-39
-0.010828601 0.049811434 0.75799996 9.234655e-40
-0.0093847597 0.049811423 0.75799996 6.4903521e-40
-0.0079409434 0.049811419 0.75800002 7.4123084e-40
-0.0064799935 0.049679998 0.75600004 8.3271461e-40
-0.0050400263 0.049679991 0.75599998 9.2348091e-40
-0.003600002 0.049679995 0.75600004 9.2277185e-40
-0.0021514667 0.049482867 0.75299996 1.6567468e-39
-0.00071718334 0.049482856 0.75299996 2.3925083e-39
0.0007171242 0.04948286 0.75299996 2.0262439e-39
0.0021513768 0.049482856 0.75299996 1.5667147e-39
0.0035856853 0.049482863 0.75299996 1.2919327e-39
0.005013328 0.049417142 0.75199997 9.2387047e-40
0.0064457133 0.049417142 0.75199997 6.4692485e-40
0.0078780996 0.049417134 0.75199997 3.7105543e-40
0.0093104569 0.049417131 0.75199997 1.199007e-39
0.010742843 0.049417138 0.75199997 1.9322519e-39
0.012175228 0.049417138 0.75199997 1.1993587e-39
0.013607615 0.049417131 0.75200003 3.7139594e-40
0.015039972 0.049417146 0.75199997 6.4797162e-40
0.016472386 0.049417134 0.75199997 8.3093496e-40
0.01790477 0.049417142 0.75199997 1.841494e-39
0.019337157 0.049417127 0.75200003 2.7594944e-39
0.020797117 0.049482848 0.75299996 2.5761863e-39
0.022231396 0.049482871 0.75299996 2.3946649e-39
0.023728544 0.049614288 0.755 2.03019e-39
0.025166646 0.049614292 0.755 1.6621221e-39
0.026604751 0.04961428 0.755 1.9383377e-39
0.028079985 0.049679998 0.75599998 2.2138596e-39
0.029519983 0.049680002 0.75599998 2.9496352e-39
0.030960009 0.049679987 0.75600004 3.5957178e-39
0.03261425 0.05000858 0.76099992 4.1492476e-39
0.034063805 0.050008584 0.76099998 4.6959249e-39
0.035513308 0.050008576 0.76099992 2.3881685e-39
0.037059993 0.050139997 0.76299995 1.0675092e-40
0.038513314 0.050140012 0.76299989 1.0618448e-38
0.040071435 0.050271429 0.76499999 2.1019909e-38
0.041528545 0.050271437 0.76499999 2.1395157e-38
0.043098088 0.050402865 0.76699996 2.1661312e-38
0.044733349 0.050599992 0.76999998 1.8801474e-38
0.046499964 0.050928567 0.77499998 1.5865253e-38
0.048100002 0.051060002 0.77699995 1.6418064e-38
0.049707603 0.051191431 0.77899998 1.687724e-38
-0.02583334 0.052404758 0.77499998 3.1325242e-39
-0.024294293 0.052269537 0.77299994 2.7623236e-39
-0.022792393 0.052201889 0.77199996 2.3942754e-39
-0.021266669 0.05206665 0.76999998 2.1162606e-39
-0.019748585 0.051931418 0.76800001 1.7489214e-39
-0.018166672 0.051593337 0.76299989 1.4719786e-39
-0.016713323 0.051593319 0.76299995 1.1039163e-39
-0.015260004 0.051593333 0.76299995 8.2769235e-40
-0.013770487 0.051458098 0.76099998 9.2096138e-40
-0.012304742 0.051390454 0.76000005 1.1049883e-39
-0.010857138 0.051390465 0.75999999 8.3091254e-40
-0.009384769 0.05125523 0.75800002 5.5755844e-40
-0.0079409583 0.051255234 0.75799996 5.5719971e-40
-0.0064971419 0.051255234 0.75799996 5.5720251e-40
-0.0050399927 0.051119991 0.75600004 7.4015744e-40
-0.0036000244 0.051119991 0.75599998 8.3056922e-40
-0.0021571412 0.051052384 0.755 1.2897579e-39
-0.00071716565 0.050917145 0.75299996 1.7500158e-39
0.00071708788 0.050917156 0.75299996 1.5667063e-39
0.0021513964 0.050917149 0.75299996 1.2908509e-39
0.0035809579 0.050849512 0.75199997 1.1075485e-39
0.0050133122 0.050849531 0.75199997 9.2315301e-40
0.0064456994 0.05084952 0.75199997 7.3911628e-40
0.0078780856 0.050849508 0.75199997 5.5617816e-40
0.0093104728 0.050849516 0.75200003 9.228181e-40
0.010742827 0.050849527 0.75199997 1.288351e-39
0.012175214 0.050849516 0.75199997 7.3839741e-40
0.013607627 0.050849523 0.75199997 2.7957025e-40
0.015040013 0.050849512 0.75200003 5.547096e-40
0.016472369 0.050849527 0.75199997 9.2169986e-40
0.017904757 0.050849516 0.75199997 1.6567482e-39
0.019362826 0.050917137 0.75299996 2.3914377e-39
0.020797106 0.050917149 0.75299996 2.2088472e-39
0.022231387 0.050917152 0.75299996 2.0255349e-39
0.023728548 0.051052392 0.755 1.7518221e-39
0.025166648 0.05105238 0.755 1.4766729e-39
0.026604753 0.05105238 0.755 1.9362077e-39
0.028042825 0.05105238 0.755 2.3957509e-39
0.029519988 0.051119998 0.75600004 3.0411175e-39
0.031041905 0.051255226 0.75800002 3.6875519e-39
0.032485712 0.051255237 0.75799996 4.1481615e-39
0.034063805 0.051458094 0.76099998 4.6076739e-39
0.035513312 0.051458087 0.76099998 2.3002819e-39
0.036962863 0.051458091 0.76099998 9.2389009e-41
0.038513325 0.051593337 0.76299995 9.5088597e-39
0.039966647 0.05159333 0.76299989 1.8917723e-38
0.041637134 0.051863812 0.76699996 1.8909859e-38
0.043154303 0.051931418 0.76800001 1.8905533e-38
0.044617128 0.051931422 0.76800001 1.7428609e-38
0.046499975 0.052404761 0.77499998 1.6050007e-38
0.048099998 0.052540012 0.77699995 1.6417355e-38
-0.028934289 0.054159045 0.77899998 2.2188342e-39
-0.027380032 0.054019999 0.77699995 2.7666242e-39
-0.025833352 0.053880937 0.77499998 2.8566702e-39
-0.024262859 0.053672373 0.77199996 2.9474351e-39
-0.022733325 0.053533323 0.77000004 2.4868297e-39
-0.021266652 0.053533331 0.76999998 2.0251453e-39
-0.019722892 0.053324766 0.76699996 1.6563726e-39
-0.018214321 0.053185727 0.76499999 1.2875929e-39
-0.016713366 0.05304667 0.76299989 1.0113661e-39
-0.015260017 0.053046655 0.76299995 6.4510316e-40
-0.013770487 0.05290762 0.76099998 9.2168865e-40
-0.012304775 0.052838095 0.75999999 1.1049939e-39
-0.010857142 0.05283808 0.75999999 8.2912308e-40
-0.0093847858 0.052699044 0.75799996 4.6393069e-40
-0.0079409676 0.052699044 0.75799996 3.7245252e-40
-0.0064971261 0.052699033 0.75800002 2.8132888e-40
-0.0050533405 0.052699048 0.75799996 5.5682977e-40
-0.0036000179 0.052559987 0.75600004 7.3908545e-40
-0.0021571403 0.052490473 0.755 9.2169846e-40
-0.00071717217 0.05235143 0.75300002 1.1064499e-39
0.00071710651 0.05235143 0.75299996 1.1071715e-39
0.0021513898 0.052351434 0.75299996 1.0153416e-39
0.0035809439 0.052281898 0.75199997 9.242292e-40
0.0050133299 0.052281901 0.75200003 8.3131331e-40
0.0064456863 0.052281898 0.75199997 7.3875614e-40
0.0078780977 0.052281909 0.75199997 6.4728218e-40
0.0093104839 0.052281894 0.75199997 6.4764512e-40
0.010742871 0.052281898 0.75200003 6.4620458e-40
0.012175228 0.052281898 0.75199997 3.7033376e-40
0.013607613 0.052281901 0.75199997 9.4811854e-41
0.01505997 0.05235143 0.75299996 5.5361659e-40
0.016494254 0.052351434 0.75299996 1.0131668e-39
0.017928563 0.052351438 0.75299996 1.4727184e-39
0.01941425 0.052490477 0.755 1.9329735e-39
0.020852352 0.052490477 0.755 1.7500214e-39
0.022290476 0.052490484 0.755 1.5674252e-39
0.023728548 0.05249048 0.755 1.3830367e-39
0.025166648 0.052490465 0.755 1.1990014e-39
0.026640002 0.052559994 0.75599998 1.8418443e-39
0.028079998 0.052559998 0.75600004 2.486855e-39
0.029519992 0.052559994 0.75599998 3.131867e-39
0.030959992 0.052559994 0.75600004 3.6868261e-39
0.032485727 0.052699041 0.75799996 4.0566806e-39
0.034063783 0.052907608 0.76099998 4.4189821e-39
0.035513312 0.052907612 0.76099998 2.2963442e-39
0.037059989 0.053046662 0.76299989 1.0637677e-40
0.03851334 0.053046662 0.76299995 8.4990153e-39
0.040071394 0.053185716 0.76499999 1.6786478e-38
0.041691426 0.053394288 0.76799995 1.6420239e-38
0.04326665 0.053533327 0.76999998 1.605217e-38
0.044733349 0.053533323 0.76999998 1.6140408e-38
0.046499964 0.053880937 0.77499998 1.6140772e-38
0.047976173 0.053880945 0.77499998 1.6507763e-38
0.04945235 0.053880945 0.77499998 1.6877967e-38
-0.028934283 0.055642873 0.77899998 2.3077998e-39
-0.027380036 0.055500008 0.77699995 2.5822413e-39
-0.025833338 0.055357128 0.77499998 2.7652047e-39
-0.024262859 0.055142839 0.77199996 3.0403538e-39
-0.022733336 0.055000003 0.76999998 2.3949942e-39
-0.021266662 0.054999985 0.77000004 1.7496402e-39
-0.0197486 0.054857146 0.76799995 1.4723457e-39
-0.018214328 0.054642864 0.76499999 1.1028485e-39
-0.016713353 0.054499999 0.76299995 9.2025092e-40
-0.015220013 0.054357141 0.76099998 8.2985736e-40
-0.013770483 0.054357145 0.76099998 9.2169846e-40
-0.012304777 0.054285709 0.75999999 1.0128067e-39
-0.010857143 0.054285709 0.75999999 7.3764912e-40
-0.009384769 0.054142859 0.75799996 5.5541025e-40
-0.0079409536 0.054142844 0.75800002 3.7316998e-40
-0.0064971671 0.054142859 0.75799996 1.9020385e-40
-0.0050533256 0.054142863 0.75799996 4.6497886e-40
-0.0036000151 0.054000001 0.75599998 7.3871831e-40
-0.0021571375 0.053928576 0.755 1.0142514e-39
-0.00071906741 0.053928573 0.755 1.1975679e-39
0.00071712513 0.053785719 0.75299996 1.1979308e-39
0.0021514075 0.053785726 0.75299996 1.1979336e-39
0.0035809309 0.05371429 0.75199997 1.0149815e-39
0.0050133439 0.053714279 0.75199997 9.2278587e-40
0.0064456984 0.053714283 0.75199997 7.3875334e-40
0.0078780856 0.053714283 0.75199997 5.5471661e-40
0.0093104718 0.053714287 0.75199997 6.4618496e-40
0.010742859 0.053714275 0.75200003 7.373072e-40
0.012175214 0.053714275 0.75199997 5.5399914e-40
0.0136076 0.053714279 0.75199997 2.781129e-40
0.015059964 0.053785715 0.75299996 6.4543387e-40
0.016494272 0.053785719 0.75299996 9.2024671e-40
0.01797618 0.053928565 0.755 1.2897635e-39
0.019414252 0.053928576 0.755 1.6581803e-39
0.020852378 0.053928584 0.755 1.5681371e-39
0.022290478 0.053928573 0.755 1.5695706e-39
0.023728549 0.053928569 0.755 1.5670567e-39
0.025199985 0.054000005 0.75600004 1.5634609e-39
0.026639977 0.054000001 0.75599998 1.9329455e-39
0.028079975 0.054000001 0.75600004 2.3939307e-39
0.029519998 0.053999998 0.75600004 3.0410965e-39
0.031041903 0.054142851 0.75799996 3.7797308e-39
0.032614257 0.054357141 0.76099998 4.0548827e-39
0.034063812 0.054357138 0.76099998 4.4193436e-39
0.035606652 0.054499991 0.76299995 2.3928517e-39
0.037059996 0.054499988 0.76299989 4.6618257e-40
0.038513348 0.054499988 0.76299995 8.5861733e-39
0.040176183 0.054785702 0.76699996 1.6696062e-38
0.041691437 0.054857139 0.76800001 1.6694292e-38
0.043266673 0.055 0.76999998 1.6599948e-38
0.0449076 0.055214293 0.773 1.659995e-38
0.046499975 0.055357132 0.77499998 1.6599239e-38
0.048099991 0.055500012 0.77699995 1.7060934e-38
-0.028934276 0.057126667 0.77899998 2.3989277e-39
-0.02738001 0.056979991 0.77699995 2.3989431e-39
-0.025766665 0.056686662 0.773 2.765583e-39
-0.02426286 0.056613322 0.77199996 3.0392889e-39
-0.022733347 0.056466673 0.76999998 2.3028056e-39
-0.021211417 0.056319993 0.76799995 1.4744939e-39
-0.019722858 0.056246672 0.76699996 1.1964763e-39
-0.018214306 0.056100011 0.76499999 9.2096278e-40
-0.016713342 0.055953324 0.76299995 9.2023971e-40
-0.015260023 0.055953331 0.76299989 9.2095437e-40
-0.01377051 0.055806674 0.76099998 9.2167043e-40
-0.012304753 0.055733323 0.75999999 9.213131e-40
-0.010857144 0.055733323 0.75999999 7.3620858e-40
-0.009384755 0.055586662 0.75799996 5.5576898e-40
-0.0079409378 0.055586658 0.75800002 3.7461052e-40
-0.0064971512 0.055586673 0.75799996 9.9101229e-41
-0.0050533358 0.055586658 0.75800002 4.6536421e-40
-0.0036095229 0.055586658 0.75799996 7.4017426e-40
-0.0021571375 0.055366665 0.755 1.015343e-39
-0.00071906648 0.055366665 0.755 1.2901321e-39
0.00071903435 0.055366665 0.755 1.2894146e-39
0.0021571054 0.055366661 0.755 1.2901321e-39
0.0035856778 0.055220012 0.75299996 1.1071799e-39
0.0050133299 0.055146657 0.75199997 9.231474e-40
0.0064457161 0.055146661 0.75200003 7.3911488e-40
0.0078780735 0.055146661 0.75199997 4.6252799e-40
0.0093228305 0.055220012 0.75299996 6.4475984e-40
0.010757113 0.055219993 0.75299996 8.2950703e-40
0.012191392 0.055220012 0.75299996 6.4619477e-40
0.013607614 0.055146672 0.75199997 4.6251397e-40
0.015039999 0.055146668 0.75199997 6.4545769e-40
0.016494237 0.055220008 0.75299996 8.3021889e-40
0.017976182 0.055366654 0.755 1.1075345e-39
0.019414252 0.055366669 0.755 1.2926362e-39
0.020852378 0.055366673 0.755 1.4788141e-39
0.022290478 0.055366658 0.755 1.5688517e-39
0.023728548 0.055366658 0.755 1.7514423e-39
0.025199989 0.055439997 0.75599998 1.8418415e-39
0.026639985 0.055440001 0.75599998 2.116269e-39
0.028080007 0.05543999 0.75600004 2.3028182e-39
0.029598076 0.055586662 0.75799996 3.0418154e-39
0.031123815 0.055733316 0.76000005 3.7793734e-39
0.032614287 0.055806667 0.76099998 4.0552428e-39
0.034063786 0.05580667 0.76099998 4.3264305e-39
0.035606634 0.055953342 0.76299989 2.5725738e-39
0.037060011 0.055953331 0.76299995 8.4392639e-40
0.038614269 0.056100011 0.76499999 8.7752253e-39
0.040071405 0.056100003 0.76499999 1.6599204e-38
0.041691445 0.056319989 0.76800001 1.6877606e-38
0.043266661 0.056466665 0.76999998 1.7153479e-38
0.044849511 0.056613322 0.77199996 1.7151694e-38
0.046499986 0.056833323 0.77499998 1.7061652e-38
-0.027380014 0.058460001 0.77699995 2.2160036e-39
-0.025766689 0.058159053 0.773 2.489736e-39
-0.024262888 0.058083802 0.77199996 2.7630775e-39
-0.022733329 0.057933334 0.76999998 1.935828e-39
-0.02121141 0.057782862 0.76800001 1.0167513e-39
-0.019722857 0.057707615 0.76699996 1.0149535e-39
-0.018214313 0.057557151 0.76499999 9.2274943e-40
-0.016713331 0.057406664 0.76299995 9.2130329e-40
-0.015260011 0.057406656 0.76299995 9.2057602e-40
-0.01377048 0.057256188 0.76099998 1.0134765e-39
-0.012304757 0.057180956 0.75999999 1.1056847e-39
-0.010857122 0.057180941 0.75999999 9.2202636e-40
-0.0093847653 0.057030469 0.75800002 7.3979871e-40
-0.0079409527 0.057030473 0.75799996 6.4976388e-40
-0.0064971372 0.057030473 0.75799996 4.6789356e-40
-0.0050533507 0.057030469 0.75799996 6.4977789e-40
-0.0036095341 0.057030469 0.75799996 8.3310697e-40
-0.0021571654 0.056804765 0.75499994 1.1993882e-39
-0.00071906555 0.056804765 0.755 1.6582027e-39
0.00071903528 0.056804754 0.755 1.3816144e-39
0.0021571063 0.056804769 0.755 1.1983022e-39
0.003595209 0.056804754 0.755 1.015706e-39
0.0050199777 0.056654289 0.75299996 9.2386767e-40
0.0064542303 0.056654289 0.75299996 7.3911768e-40
0.0078885388 0.056654293 0.75299996 6.4656472e-40
0.0093228221 0.056654282 0.75299996 9.2171107e-40
0.010757101 0.056654297 0.75299996 1.2890489e-39
0.012175245 0.056579039 0.75199997 9.220614e-40
0.0136076 0.056579057 0.75199997 6.4763251e-40
0.015039987 0.056579042 0.75199997 5.5543828e-40
0.016472375 0.056579046 0.75199997 5.5580402e-40
0.017976152 0.056804769 0.755 1.0164234e-39
0.019414252 0.056804772 0.755 1.4773876e-39
0.02085238 0.056804761 0.755 1.5692147e-39
0.022290451 0.056804761 0.755 1.6588922e-39
0.023728551 0.056804765 0.755 1.659604e-39
0.025199994 0.056879997 0.75599998 1.7518038e-39
0.026639992 0.056879997 0.75600004 2.1180738e-39
0.028079985 0.056880001 0.75599998 2.4857774e-39
0.029598091 0.057030465 0.75799996 3.2276388e-39
0.031123837 0.057180945 0.75999999 3.9655555e-39
0.032614257 0.057256199 0.76099998 4.1485133e-39
0.03406379 0.057256185 0.76099998 4.3303752e-39
0.035606649 0.057406668 0.76299995 2.4868325e-39
0.037059996 0.057406653 0.76299995 7.4527218e-40
0.038614262 0.057557151 0.76499999 8.7719953e-39
0.040176187 0.057707619 0.76699996 1.6792561e-38
0.041691422 0.057782855 0.76799995 1.6973748e-38
0.04326665 0.057933327 0.76999998 1.715815e-38
0.044849515 0.058083791 0.77199996 1.6970906e-38
0.046499979 0.058309522 0.77499998 1.6789381e-38
-0.027239045 0.059631422 0.773 2.0326801e-39
-0.025733354 0.059554279 0.77199996 2.3064098e-39
-0.024262888 0.059554286 0.77199996 2.4882801e-39
-0.02273334 0.059400003 0.76999998 1.5688419e-39
-0.02121143 0.059245721 0.76799995 5.5792838e-40
-0.019722879 0.05916857 0.76699996 7.4051898e-40
-0.018214319 0.059014287 0.76499999 9.2310957e-40
-0.016713347 0.058859996 0.76299989 9.2167043e-40
-0.015259999 0.058860004 0.76299995 8.2982513e-40
-0.013770505 0.058705706 0.76099998 1.1063994e-39
-0.012304758 0.058628552 0.75999999 1.2897215e-39
-0.010857124 0.058628555 0.75999999 1.1060617e-39
-0.0093847783 0.058474284 0.75799996 9.234725e-40
-0.0079409629 0.058474284 0.75799996 9.2455431e-40
-0.0064971475 0.058474269 0.75800002 8.3307894e-40
-0.0050533349 0.058474284 0.75799996 8.3272161e-40
-0.0036095192 0.058474287 0.75800002 8.3237829e-40
-0.0021571654 0.058242869 0.755 1.3819718e-39
-0.00071906368 0.058242857 0.755 1.9329847e-39
0.00071903621 0.058242861 0.755 1.564568e-39
0.0021571072 0.058242857 0.755 1.1071869e-39
0.0035952099 0.058242861 0.755 1.0164304e-39
0.0050199674 0.058088575 0.7529999 8.3203638e-40
0.0064542498 0.058088575 0.75299996 8.3095598e-40
0.0078885583 0.058088571 0.75299996 8.3059304e-40
0.0093228118 0.058088582 0.75299996 1.2894076e-39
0.010757094 0.058088578 0.75299996 1.6563894e-39
0.012175228 0.05801142 0.75199997 1.1975707e-39
0.013607616 0.05801142 0.75200003 7.3911347e-40
0.015039972 0.05801142 0.75199997 4.6504472e-40
0.016472384 0.058011428 0.75199997 1.8954243e-40
0.017976152 0.058242857 0.755 9.2423061e-40
0.019414254 0.058242857 0.755 1.5692231e-39
0.020852381 0.058242854 0.755 1.6610488e-39
0.022290453 0.058242865 0.755 1.6613935e-39
0.023728555 0.058242865 0.755 1.6603033e-39
0.02519997 0.058320008 0.75599998 1.6595998e-39
0.026639994 0.058319997 0.75599998 2.209552e-39
0.028079996 0.058319997 0.75600004 2.6741133e-39
0.029598108 0.05847428 0.75800002 3.417411e-39
0.031123836 0.058628559 0.76000005 4.0588274e-39
0.032614291 0.05870571 0.76099998 4.1503083e-39
0.03406379 0.058705721 0.76099998 4.2374663e-39
0.03560666 0.058859993 0.76299995 2.3914139e-39
0.037157115 0.059014291 0.76499999 5.7272189e-40
0.038715232 0.059168562 0.76699996 8.7748595e-39
0.040228575 0.059245713 0.76800001 1.6968687e-38
0.041800022 0.059399996 0.76999998 1.7066284e-38
0.043266669 0.0594 0.76999998 1.7062343e-38
0.044849511 0.059554271 0.77199996 1.678469e-38
0.046379998 0.05963143 0.773 1.6507376e-38
-0.027239069 0.06110381 0.773 2.2163413e-39
-0.025766654 0.061103806 0.773 2.6737377e-39
-0.024262859 0.06102474 0.77200001 3.0389259e-39
-0.022792395 0.061024748 0.77200001 2.0276579e-39
-0.021266676 0.060866661 0.76999998 1.0171031e-39
-0.019748595 0.060708575 0.76799995 1.0160199e-39
-0.018214298 0.06047143 0.76499999 1.0156639e-39
-0.016713338 0.060313325 0.76299995 9.2167884e-40
-0.015259988 0.060313325 0.76299995 7.3728198e-40
-0.013806668 0.060313333 0.76299995 1.014215e-39
-0.012304761 0.060076185 0.75999999 1.1982531e-39
-0.010857128 0.060076188 0.75999999 1.1060659e-39
-0.0093847644 0.059918098 0.75799996 1.0145933e-39
-0.0079409489 0.059918083 0.75799996 1.1071505e-39
-0.0064971615 0.059918094 0.75799996 1.2908173e-39
-0.0050533451 0.059918083 0.75799996 1.0153066e-39
-0.0036095341 0.059918094 0.75799996 8.3200835e-40
-0.0021571636 0.059680957 0.755 1.1064527e-39
-0.00071906368 0.059680961 0.755 1.3816074e-39
0.00071903714 0.059680946 0.755 1.1986595e-39
0.0021571082 0.059680961 0.755 1.0164304e-39
0.0035952108 0.05968095 0.755 1.0160787e-39
0.0050199609 0.059522863 0.75299996 1.0153542e-39
0.0064542694 0.059522852 0.75299996 1.0149871e-39
0.0078885518 0.059522856 0.75299996 9.2278587e-40
0.0093228305 0.059522856 0.75299996 1.1057324e-39
0.010757112 0.059522856 0.75299996 1.3801655e-39
0.012175242 0.059443813 0.75199997 1.0135424e-39
0.013607628 0.059443798 0.75199997 7.3840021e-40
0.015059956 0.059522852 0.75299996 6.4836258e-40
0.016494265 0.059522852 0.75299996 5.5760609e-40
0.017976154 0.059680957 0.755 1.0185786e-39
0.019414255 0.05968095 0.755 1.4798987e-39
0.020852381 0.059680954 0.755 1.5710055e-39
0.022290451 0.059680965 0.755 1.6646123e-39
0.023728553 0.059680954 0.755 1.4780476e-39
0.025199981 0.059759989 0.75599998 1.3840849e-39
0.026640004 0.059759997 0.75600004 2.0283921e-39
0.028079972 0.059760008 0.75599998 2.5833554e-39
0.029598067 0.059918087 0.75799996 3.3223483e-39
0.031123836 0.060076177 0.76000005 4.1513831e-39
0.032614265 0.060155243 0.76099998 4.2428627e-39
0.03406379 0.060155246 0.76099998 4.3325332e-39
0.035606675 0.060313337 0.76299995 2.6748167e-39
0.037157107 0.06047143 0.76499999 1.1237335e-39
0.038715236 0.060629521 0.76699996 8.5904655e-39
0.040228557 0.060708575 0.76799995 1.6149331e-38
