# .PCD v0.7 - Point Cloud Data file format
VERSION 0.7
FIELDS x y z rgb
SIZE 4 4 4 4
TYPE F F F F
COUNT 1 1 1 1
WIDTH 945
HEIGHT 1
VIEWPOINT 0 0 0 1 0 0 0
POINTS 945
DATA ascii
0.03184282 -0.014859989 0.74300003 2.8570346e-39
-0.021018177 -0.013770491 0.7610001 1.7553996e-39
-0.019542914 -0.013752379 0.76000011 1.3877003e-39
-0.018047653 -0.013716191 0.75800002 1.0192877e-39
-0.016560033 -0.013679989 0.75600004 1.2018895e-39
-0.015040039 -0.013607629 0.75200003 1.2955229e-39
-0.013607652 -0.013607614 0.75200003 1.5731873e-39
-0.012175293 -0.013607629 0.75200003 1.7561535e-39
0.0035332625 -0.013426669 0.7420001 8.4899573e-39
0.0049466109 -0.013426661 0.7420001 9.1267115e-39
0.006359932 -0.013426669 0.7420001 9.3161265e-39
0.0077418759 -0.013372377 0.73900002 9.4047278e-39
0.0091494825 -0.013372377 0.73900002 9.9643447e-39
0.010557115 -0.013372377 0.73900002 1.0507103e-38
0.011964722 -0.013372369 0.73900002 1.0328092e-38
0.013390441 -0.013390474 0.74000007 1.0045408e-38
0.014839937 -0.013426661 0.7420001 9.6859572e-39
0.016253285 -0.013426661 0.7420001 9.3085566e-39
0.017666606 -0.013426669 0.7420001 7.3832272e-39
0.019079953 -0.013426669 0.7420001 5.3510095e-39
0.020493275 -0.013426669 0.7420001 4.8003567e-39
0.021936143 -0.013444759 0.74300003 4.1531964e-39
0.023319945 -0.013426661 0.7420001 3.9745421e-39
0.02476663 -0.013444759 0.74300003 3.7811811e-39
0.026146613 -0.013426661 0.7420001 3.597866e-39
0.027597088 -0.013444759 0.74300009 3.4120511e-39
0.029012332 -0.013444759 0.74300009 3.8762592e-39
0.030427575 -0.013444766 0.74300009 4.3314962e-39
0.031842794 -0.013444759 0.74300009 4.0585065e-39
0.043861862 -0.013661906 0.75500011 5.6279103e-39
0.045299962 -0.013661899 0.75500005 9.1244485e-39
0.046799954 -0.013679996 0.75600004 9.4975035e-39
-0.022467654 -0.012320951 0.76100004 2.3989501e-39
-0.021018151 -0.012320951 0.7610001 1.8468581e-39
-0.019491483 -0.01227238 0.75800002 1.4791546e-39
-0.018047694 -0.012272388 0.75800008 1.10967e-39
-0.016538147 -0.01222381 0.75500005 1.1096798e-39
-0.01506005 -0.012191422 0.75300002 1.1104057e-39
-0.013607664 -0.01217524 0.75200003 1.1100554e-39
-0.012142897 -0.012142844 0.75000006 1.201556e-39
-0.010685763 -0.012110464 0.74800003 1.1104604e-39
-0.009260986 -0.012110464 0.74800003 1.1108191e-39
0.00070662686 -0.012013331 0.74200004 3.6952156e-39
0.0021142529 -0.011980943 0.74000001 5.1778665e-39
0.0035237817 -0.011980936 0.74000001 5.6377698e-39
0.0049333125 -0.011980943 0.74000001 6.1127386e-39
0.0063428404 -0.011980951 0.74000001 6.3792837e-39
0.0077418694 -0.011964761 0.73900002 6.7588142e-39
0.009149502 -0.011964761 0.73900002 6.6587195e-39
0.010557109 -0.011964746 0.73900002 6.6694828e-39
0.011964714 -0.011964753 0.73900002 6.4728975e-39
0.013372347 -0.011964761 0.73900002 6.2999983e-39
0.01479996 -0.011980951 0.74000001 6.1041388e-39
0.016209491 -0.011980936 0.74000001 6.0201786e-39
0.01766664 -0.012013331 0.74200004 4.9949032e-39
0.019079961 -0.012013331 0.74200004 3.9832722e-39
0.020493278 -0.012013324 0.7420001 3.6984316e-39
0.021906599 -0.012013331 0.7420001 3.4265041e-39
0.023319922 -0.012013339 0.7420001 3.1434544e-39
0.024766602 -0.012029521 0.74300009 2.8686639e-39
0.026181845 -0.012029521 0.74300009 2.7700111e-39
0.027597088 -0.012029521 0.74300009 2.5877709e-39
0.029012334 -0.012029514 0.74300009 2.9536737e-39
0.030427575 -0.012029521 0.74300009 3.3264037e-39
0.03184282 -0.012029514 0.74300009 3.4160924e-39
0.033258066 -0.012029521 0.74300009 3.5115082e-39
0.034673281 -0.012029521 0.74300003 3.6912261e-39
0.036088526 -0.012029521 0.74300003 3.8752377e-39
0.037503768 -0.012029521 0.74300003 3.9674123e-39
0.038919013 -0.012029521 0.74300009 4.0592309e-39
0.043861866 -0.012223803 0.75500005 5.9016133e-39
0.04529994 -0.01222381 0.75500011 9.0293732e-39
0.046799973 -0.012239993 0.75600004 9.4031443e-39
0.048239946 -0.01224 0.7560001 9.7741086e-39
-0.022467684 -0.010871433 0.7610001 2.3996522e-39
-0.020990515 -0.010857143 0.76000011 1.8472e-39
-0.019491497 -0.010828584 0.75800002 1.480214e-39
-0.01800004 -0.010799989 0.75600004 1.1092917e-39
-0.016538119 -0.010785706 0.75500005 1.016387e-39
-0.015040041 -0.010742873 0.75200003 9.2419838e-40
-0.013607651 -0.010742858 0.75200003 7.3909806e-40
-0.012142872 -0.01071427 0.75000006 5.5543407e-40
-0.010685756 -0.010685705 0.74800003 5.5472502e-40
-0.009248591 -0.010671437 0.74700004 4.6325106e-40
-0.0078048017 -0.010642841 0.74500006 6.4441512e-40
-0.006385739 -0.010642841 0.74500006 7.4127708e-40
-0.0049667032 -0.010642849 0.74500006 5.554579e-40
-0.0035476408 -0.010642849 0.74500006 3.7430644e-40
-0.0021286041 -0.010642849 0.745 5.5547331e-40
-0.00070671382 -0.010600001 0.7420001 7.4238971e-40
0.00070660637 -0.010599993 0.7420001 1.6550218e-39
0.0021199526 -0.010600001 0.7420001 2.5852247e-39
0.0035237696 -0.01057142 0.74000001 2.8618158e-39
0.0049332976 -0.01057142 0.74000007 3.0537404e-39
0.0063428264 -0.01057142 0.74000007 3.5129207e-39
0.007741861 -0.010557145 0.73900002 3.9771177e-39
0.0091494936 -0.01055713 0.73900002 3.425383e-39
0.010557102 -0.010557137 0.73900002 2.7821716e-39
0.011964734 -0.010557145 0.73900002 2.5938343e-39
0.01337234 -0.010557137 0.73900002 2.4130402e-39
0.014799947 -0.01057142 0.74000007 2.5938483e-39
0.016209476 -0.010571428 0.74000001 2.6871117e-39
0.017666619 -0.010599986 0.74200004 2.6849537e-39
0.019028533 -0.01057142 0.74000007 2.5884491e-39
0.020493288 -0.010599993 0.74200004 2.6752581e-39
0.021906635 -0.010600001 0.74200004 2.6759672e-39
0.023319956 -0.010599993 0.74200004 2.3043134e-39
0.024733305 -0.010600001 0.74200004 1.9376875e-39
0.026146624 -0.010600001 0.74200004 1.8415472e-39
0.027597092 -0.010614276 0.74300003 1.751504e-39
0.029012335 -0.010614276 0.74300003 2.0244993e-39
0.030427579 -0.010614283 0.74300003 2.3064644e-39
0.031842824 -0.010614268 0.74300003 2.7681544e-39
0.033258066 -0.010614276 0.74300003 3.228764e-39
0.034673311 -0.010614268 0.74300003 3.5042663e-39
0.036088556 -0.010614276 0.74300003 3.6893652e-39
0.037604742 -0.010642834 0.745 3.7819126e-39
0.039180934 -0.010685705 0.74800003 3.8737369e-39
0.040605687 -0.010685705 0.74799997 3.5971444e-39
0.043745674 -0.010757141 0.75300002 6.0899282e-39
0.045299966 -0.010785721 0.75500005 8.9393103e-39
0.046799973 -0.010799997 0.75600004 9.4038393e-39
0.048495207 -0.01085715 0.76000011 9.7722912e-39
0.049942818 -0.010857135 0.76000005 9.954921e-39
0.051458016 -0.01087144 0.76100004 1.0138211e-38
-0.023917187 -0.0094219148 0.76100004 2.8595247e-39
-0.022438146 -0.009409517 0.76000011 2.4903946e-39
-0.020990508 -0.0094095096 0.76000005 2.1212562e-39
-0.019491484 -0.0093847737 0.75800002 1.5684453e-39
-0.018000048 -0.0093600005 0.7560001 1.014208e-39
-0.016538147 -0.0093476251 0.75500005 1.0149296e-39
-0.015040055 -0.0093104914 0.75200009 1.0145737e-39
-0.013607666 -0.0093104839 0.75200003 7.387113e-40
-0.012142878 -0.0092857108 0.75000006 4.6140274e-40
-0.010714309 -0.0092857108 0.75000006 4.621118e-40
-0.0092485799 -0.0092485547 0.74700004 4.6140274e-40
-0.007804811 -0.0092238113 0.74500006 6.4472341e-40
-0.0063857483 -0.0092238113 0.74500006 8.2803567e-40
-0.0049667116 -0.0092237964 0.74500006 5.5432284e-40
-0.0035381627 -0.009199053 0.74300009 2.7701989e-40
-0.0021229193 -0.0091990381 0.74300009 5.5395851e-40
-0.00070673617 -0.0091866553 0.7420001 8.2732801e-40
0.0007066101 -0.0091866627 0.7420001 1.656374e-39
0.0021199312 -0.0091866702 0.7420001 2.483262e-39
0.0035237863 -0.009161897 0.74000001 2.9474702e-39
0.0049266415 -0.0091495216 0.73900002 3.3094298e-39
0.006334248 -0.009149529 0.73900002 3.3173205e-39
0.0077209231 -0.0091247484 0.73700011 3.4048526e-39
0.0091247363 -0.0091247559 0.73700011 2.6730399e-39
0.010528524 -0.0091247633 0.73700011 1.9290205e-39
0.011932339 -0.0091247633 0.73700011 1.7517982e-39
0.013336153 -0.0091247484 0.73700011 1.5616757e-39
0.014739966 -0.0091247559 0.73700011 1.4752268e-39
0.016187571 -0.0091495216 0.73900002 1.3780145e-39
0.017619021 -0.009161897 0.74000001 1.5670707e-39
0.01900281 -0.0091495216 0.73900002 1.8371934e-39
0.020438079 -0.0091619045 0.74000001 1.9322547e-39
0.021847581 -0.0091619045 0.74000001 2.1134075e-39
0.023319962 -0.0091866702 0.7420001 1.8404051e-39
0.024733283 -0.0091866553 0.74200004 1.5631064e-39
0.026146628 -0.0091866627 0.7420001 1.3808703e-39
0.027559951 -0.0091866702 0.74200004 1.287244e-39
0.028973298 -0.0091866627 0.7420001 1.5649043e-39
0.030427551 -0.0091990456 0.74300009 1.9333196e-39
0.031842794 -0.0091990456 0.74300009 2.3042461e-39
0.03325804 -0.0091990456 0.74300009 2.7641411e-39
0.034673281 -0.0091990456 0.74300009 3.1350704e-39
0.036185667 -0.0092237964 0.74500006 3.5960472e-39
0.037604734 -0.0092238039 0.74500006 3.5974877e-39
0.039180912 -0.009260945 0.74800003 3.6896791e-39
0.040714256 -0.0092857108 0.75000006 3.3216169e-39
0.042142823 -0.0092857108 0.75000006 2.9531749e-39
0.043745685 -0.0093228593 0.75300002 5.9937669e-39
0.045179971 -0.0093228593 0.75300002 9.0293297e-39
0.046799935 -0.0093600005 0.7560001 9.4030981e-39
0.048495181 -0.0094095245 0.76000011 9.7722687e-39
0.050008509 -0.0094219148 0.7610001 1.0047091e-38
0.051593293 -0.0094466582 0.76300001 1.0412998e-38
0.053046614 -0.0094466656 0.76300007 1.0137491e-38
-0.025433391 -0.007993333 0.76300001 3.4087454e-39
-0.023917217 -0.007972382 0.7610001 2.7659109e-39
-0.022438142 -0.0079619065 0.76000011 2.5811764e-39
-0.020935288 -0.0079409555 0.75800002 2.3035049e-39
-0.019491469 -0.0079409406 0.75800002 1.6584928e-39
-0.018000051 -0.007919997 0.7560001 9.2272841e-40
-0.016494334 -0.0078885704 0.75300008 1.0142024e-39
-0.015040038 -0.0078780949 0.75200003 1.0145625e-39
-0.01360765 -0.0078780949 0.75200003 6.4722193e-40
-0.01214291 -0.0078571439 0.75000006 2.7844501e-40
-0.010714314 -0.0078571513 0.75000012 3.7064064e-40
-0.0092609962 -0.0078361854 0.74800003 4.6212581e-40
-0.0078257155 -0.0078257024 0.74700004 6.4544788e-40
-0.0063857287 -0.0078047514 0.74500006 8.2984194e-40
-0.0049666921 -0.0078047439 0.74500006 5.5613472e-40
-0.0035381347 -0.0077838078 0.74300009 1.8770953e-40
-0.0021200499 -0.0077733248 0.74200004 5.5540465e-40
-0.00070670265 -0.0077733248 0.74200004 9.2240051e-40
0.00070661848 -0.0077733323 0.74200004 1.6592509e-39
0.0021142436 -0.0077523887 0.74000001 2.3968173e-39
0.0035237723 -0.0077523738 0.74000001 3.0436245e-39
0.0049266331 -0.0077419057 0.73900002 3.5928368e-39
0.0063342396 -0.0077418908 0.73900002 3.2251291e-39
0.007720896 -0.0077209398 0.73700011 2.7630803e-39
0.0091247102 -0.0077209547 0.73700011 1.9322547e-39
0.010528524 -0.0077209622 0.73700011 1.1050107e-39
0.011932367 -0.0077209398 0.73700005 9.2205159e-40
0.013336182 -0.0077209473 0.73700005 6.4439551e-40
0.01473997 -0.0077209473 0.73700005 3.6781562e-40
0.016143784 -0.0077209473 0.73700005 9.3029402e-41
0.017595196 -0.0077419057 0.73900002 5.5149362e-40
0.019002803 -0.0077419132 0.73900002 1.0110284e-39
0.020410435 -0.0077419132 0.73900002 1.2872496e-39
0.021847568 -0.0077523813 0.74000001 1.5634693e-39
0.023257097 -0.0077523887 0.74000001 1.3801529e-39
0.024733286 -0.0077733323 0.7420001 1.1050009e-39
0.026146607 -0.0077733323 0.7420001 9.2276205e-40
0.027559955 -0.0077733397 0.7420001 7.3836518e-40
0.028973278 -0.0077733323 0.7420001 1.1057002e-39
0.030386623 -0.0077733397 0.7420001 1.4741296e-39
0.031842824 -0.0077838078 0.74300009 1.9347532e-39
0.033258043 -0.0077838004 0.74300003 2.3056909e-39
0.034673285 -0.0077838004 0.74300003 2.8595821e-39
0.036088526 -0.0077838078 0.74300003 3.4123832e-39
0.037705701 -0.0078257099 0.74700004 3.4141698e-39
0.039128557 -0.0078257099 0.74700004 3.4137943e-39
0.040605694 -0.0078361854 0.74800003 3.0457166e-39
0.042142823 -0.007857129 0.75000006 2.5872496e-39
0.043687593 -0.0078780875 0.75200003 5.9026475e-39
0.045179948 -0.0078885704 0.75300002 9.1243938e-39
0.046799961 -0.007919997 0.7560001 9.498881e-39
0.048495218 -0.007961899 0.76000011 9.7729764e-39
0.050008513 -0.0079723969 0.7610001 1.0231101e-38
0.051458042 -0.007972382 0.76100004 1.0597366e-38
0.053185664 -0.0080142766 0.76500005 1.0229306e-38
0.054642837 -0.0080142766 0.76500005 9.8626917e-39
-0.025433371 -0.0065400004 0.76300001 3.3169183e-39
-0.023917217 -0.0065228641 0.76100004 2.9481624e-39
-0.022438137 -0.006514281 0.76000005 2.7637936e-39
-0.020990528 -0.006514281 0.76000011 2.5775904e-39
-0.019491484 -0.0064971447 0.75800008 1.8418092e-39
-0.018000055 -0.0064800009 0.75600004 1.1056805e-39
-0.016494323 -0.006454289 0.75300002 1.0141926e-39
-0.015040024 -0.0064457133 0.75200003 1.0141926e-39
-0.013607664 -0.0064457208 0.75200003 7.3796721e-40
-0.012142886 -0.0064285696 0.75000006 4.610356e-40
-0.010714316 -0.0064285696 0.75000006 5.5359837e-40
-0.0092609888 -0.0064114109 0.74800003 6.4616114e-40
-0.0078257341 -0.0064028502 0.74700004 6.4581222e-40
-0.0063857632 -0.0063857064 0.74500006 6.4654089e-40
-0.0049667004 -0.0063857138 0.74500006 5.5543407e-40
-0.0035381319 -0.0063685626 0.74300003 4.639475e-40
-0.0021200462 -0.0063600019 0.74200004 8.3056221e-40
-0.000706725 -0.0063599944 0.74200004 1.290111e-39
0.00070662407 -0.0063600019 0.74200004 2.2124233e-39
0.0021199451 -0.0063599944 0.74200004 3.1358173e-39
0.0035237584 -0.0063428581 0.74000007 4.2425222e-39
0.0049266266 -0.0063342676 0.73900002 5.3434593e-39
0.0063342592 -0.006334275 0.73900002 4.4225792e-39
0.0077418657 -0.0063342825 0.73900002 3.5913934e-39
0.0091494722 -0.006334275 0.73900002 2.6698057e-39
0.010528555 -0.0063171238 0.73700005 1.7482179e-39
0.011932343 -0.0063171312 0.73700005 1.2883174e-39
0.013336156 -0.0063171387 0.73700005 7.362282e-40
0.01477995 -0.0063342825 0.73900002 5.5255721e-40
0.016187582 -0.0063342825 0.73900008 3.6996662e-40
0.017595191 -0.0063342825 0.73900002 1.0117417e-39
0.019002821 -0.0063342974 0.73900008 1.7460655e-39
0.020438081 -0.0063428581 0.74000001 1.5631106e-39
0.021847583 -0.0063428506 0.74000001 1.4727086e-39
0.023257114 -0.0063428432 0.74000001 1.2883174e-39
0.024733264 -0.0063600019 0.7420001 1.1046394e-39
0.026146613 -0.0063600093 0.7420001 1.0142304e-39
0.027559934 -0.0063600093 0.7420001 9.2273682e-40
0.028973281 -0.0063599944 0.7420001 1.1975076e-39
0.030427583 -0.00636857 0.74300003 1.5655923e-39
0.031842824 -0.00636857 0.74300003 2.0273061e-39
0.033258069 -0.0063685551 0.74300003 2.4904479e-39
0.034673311 -0.0063685626 0.74300003 2.9517946e-39
0.03608853 -0.0063685551 0.74300003 3.4123888e-39
0.037604742 -0.0063857064 0.74500006 3.5049235e-39
0.039128542 -0.0064028576 0.74700004 3.688921e-39
0.040605672 -0.0064114183 0.74800003 3.1353647e-39
0.042142846 -0.0064285696 0.75000006 2.6722509e-39
0.043687578 -0.0064457133 0.75200003 5.8100917e-39
0.045179959 -0.0064542815 0.75300002 9.0361456e-39
0.046799958 -0.0064799935 0.75600004 9.2212235e-39
0.048495192 -0.0065142885 0.76000011 9.4978202e-39
0.050008509 -0.0065228492 0.76100004 9.8640986e-39
0.051458038 -0.0065228492 0.76100004 1.0321481e-38
0.053046599 -0.0065400079 0.76300007 9.9544964e-39
-0.025433382 -0.0050866678 0.76300007 3.3179707e-39
-0.023980033 -0.0050866678 0.76300007 3.1332445e-39
-0.022467684 -0.0050733387 0.76100004 2.9478023e-39
-0.020990523 -0.005066663 0.76000011 2.7616075e-39
-0.019491471 -0.0050533414 0.75800002 2.025476e-39
-0.018000033 -0.0050400048 0.75600004 1.2900634e-39
-0.016538147 -0.005033344 0.75500011 1.1067413e-39
-0.015040038 -0.0050133392 0.75200003 9.2198993e-40
-0.013607651 -0.0050133392 0.75200003 7.3759867e-40
-0.012142891 -0.0049999952 0.75000012 5.5358156e-40
-0.010714322 -0.0049999952 0.75000006 7.365491e-40
-0.0092609841 -0.0049866512 0.74799997 8.2910766e-40
-0.0078257509 -0.0049799979 0.74700004 6.4436608e-40
-0.0063857427 -0.0049666464 0.74500006 3.699442e-40
-0.0049666818 -0.0049666464 0.74500006 5.5434106e-40
-0.0035476454 -0.0049666464 0.745 6.4617796e-40
-0.0021200685 -0.0049466714 0.7420001 1.1964749e-39
-0.00070672034 -0.0049466565 0.7420001 1.6585306e-39
0.00070660171 -0.004946664 0.7420001 2.7637936e-39
0.0021199489 -0.0049466714 0.7420001 3.780821e-39
0.00353327 -0.004946664 0.74200004 5.4475127e-39
0.0049333023 -0.0049333274 0.74000001 7.0951525e-39
0.0063428329 -0.0049333274 0.74000001 5.7136572e-39
0.0077418592 -0.0049266592 0.73900002 4.3296619e-39
0.0091494909 -0.0049266741 0.73900002 3.4069966e-39
0.010528528 -0.0049133301 0.73700005 2.3921356e-39
0.011932342 -0.0049133375 0.73700011 1.6549349e-39
0.013336156 -0.0049133301 0.73700011 8.2841682e-40
0.014779942 -0.0049266666 0.73900002 7.362254e-40
0.016187575 -0.0049266666 0.73900008 5.5327467e-40
0.017595181 -0.0049266741 0.73900002 1.4716338e-39
0.019002814 -0.0049266592 0.73900008 2.3896315e-39
0.020438068 -0.0049333274 0.74000007 1.8386213e-39
0.02184757 -0.0049333349 0.74000001 1.28833e-39
0.023319952 -0.004946664 0.74200004 1.19614e-39
0.024733298 -0.0049466714 0.74200004 1.013534e-39
0.026146619 -0.0049466491 0.74200004 1.1064344e-39
0.027559968 -0.0049466491 0.74200004 1.1053442e-39
0.029012311 -0.0049533322 0.74300009 1.3797619e-39
0.030427555 -0.0049533248 0.74300009 1.565242e-39
0.031842798 -0.0049533322 0.74300009 2.1184242e-39
0.033258043 -0.0049533322 0.74300009 2.6730357e-39
0.034766637 -0.0049666539 0.745 3.0443349e-39
0.036185671 -0.0049666613 0.74500006 3.319826e-39
0.037705697 -0.0049799904 0.74700004 3.5956772e-39
0.039180901 -0.0049866587 0.74800003 3.8715242e-39
0.040605679 -0.0049866587 0.74800003 3.3179819e-39
0.042142816 -0.0049999878 0.75000006 2.6783578e-39
0.043571413 -0.0049999952 0.75000006 5.8133161e-39
0.045179997 -0.0050199851 0.75300002 8.8474594e-39
0.046923772 -0.0050533339 0.75800002 9.0350624e-39
0.048495196 -0.005066663 0.76000005 9.2190936e-39
0.050008509 -0.0050733313 0.76100004 9.5896669e-39
0.051593293 -0.0050866604 0.76300001 9.9548663e-39
0.052907549 -0.0050733313 0.76100004 9.6790109e-39
-0.025433365 -0.0036333352 0.76300007 3.1367856e-39
-0.02398007 -0.0036333427 0.76300007 3.0431803e-39
-0.022467688 -0.0036238134 0.7610001 2.8566618e-39
-0.021018153 -0.0036238134 0.7610001 2.6693993e-39
-0.019491486 -0.0036095381 0.75800008 2.2095002e-39
-0.018000036 -0.0035999939 0.75600004 1.6574012e-39
-0.016494332 -0.0035857111 0.75300002 1.3818835e-39
-0.015040052 -0.0035809577 0.75200009 1.0134597e-39
-0.013607663 -0.0035809577 0.75200003 8.2978309e-40
-0.012142867 -0.0035714284 0.75000006 7.3760568e-40
-0.010714297 -0.0035714135 0.75000006 9.2093335e-40
-0.0092610065 -0.0035618916 0.74800003 1.1971587e-39
-0.0078257425 -0.0035571456 0.74700004 7.3726516e-40
-0.0064028874 -0.0035571456 0.74700004 3.6885399e-40
-0.0049666911 -0.0035476089 0.74500006 5.5360678e-40
-0.0035476557 -0.0035476089 0.74500006 7.3729038e-40
-0.0021200639 -0.0035333335 0.7420001 1.0138843e-39
-0.00070674176 -0.0035333261 0.7420001 1.3833843e-39
0.00070660544 -0.003533341 0.7420001 2.0283907e-39
0.0021199284 -0.0035333335 0.7420001 2.6741357e-39
0.0035237612 -0.0035238117 0.74000007 3.8769907e-39
0.0049332902 -0.0035238191 0.74000007 5.1712748e-39
0.006342818 -0.0035238042 0.74000007 4.1492237e-39
0.0077418489 -0.0035190508 0.73900002 3.2290681e-39
0.0091494806 -0.0035190508 0.73900002 2.5793967e-39
0.010528531 -0.003509514 0.73700011 1.8400408e-39
0.011932345 -0.0035095215 0.73700011 1.3801375e-39
0.013336133 -0.0035095215 0.73700011 1.0127997e-39
0.014779961 -0.0035190508 0.73900008 8.2949162e-40
0.016187567 -0.0035190582 0.73900008 6.4582483e-40
0.017595202 -0.0035190359 0.73900008 1.1050051e-39
0.019002806 -0.0035190433 0.73900008 1.6556664e-39
0.020438084 -0.0035238117 0.74000001 1.5641952e-39
0.021847587 -0.0035237968 0.74000001 1.3801753e-39
0.023319956 -0.0035333335 0.7420001 1.1968728e-39
0.024733279 -0.0035333261 0.7420001 1.0135466e-39
0.026146624 -0.0035333261 0.7420001 9.2169566e-40
0.027559945 -0.0035333261 0.74200004 8.2841682e-40
0.029012339 -0.0035381019 0.74300009 1.1968252e-39
0.030427583 -0.003538087 0.74300009 1.4723387e-39
0.031842798 -0.003538087 0.74300003 2.1187815e-39
0.033258043 -0.003538087 0.74300003 2.763788e-39
0.034766629 -0.0035476089 0.74500006 3.1343627e-39
0.036185689 -0.0035476014 0.74500006 3.5027711e-39
0.037705705 -0.0035571456 0.74700004 3.6882246e-39
0.039180934 -0.0035618916 0.74800003 3.873685e-39
0.040714271 -0.0035714209 0.75000006 3.3201553e-39
0.042142838 -0.0035714284 0.75000006 2.8584499e-39
0.043687582 -0.0035809502 0.75200009 4.1523795e-39
0.045179978 -0.0035857111 0.75300002 5.5363677e-39
0.04692376 -0.0036095157 0.75800002 5.7193184e-39
0.048495203 -0.003619045 0.76000011 5.906927e-39
0.050008513 -0.0036238134 0.76100004 6.6426774e-39
0.051593281 -0.0036333352 0.76300007 7.2909293e-39
0.052907571 -0.0036238134 0.76100004 8.1156761e-39
0.054642834 -0.0036428422 0.76500005 8.9425655e-39
0.056099974 -0.0036428422 0.76499999 9.2195167e-39
-0.025433403 -0.0021799877 0.76300007 2.8623581e-39
-0.023980051 -0.0021800026 0.76300007 2.8598694e-39
-0.022467686 -0.0021742955 0.7610001 2.7659025e-39
-0.021018153 -0.0021742806 0.76100004 2.5793575e-39
-0.019491497 -0.0021657124 0.75800002 2.3024118e-39
-0.018047679 -0.0021657124 0.75800002 2.0254578e-39
-0.016538147 -0.0021571591 0.75500005 1.5655517e-39
-0.015040037 -0.0021485686 0.75200003 1.1056441e-39
-0.013607648 -0.0021485761 0.75200003 1.0134373e-39
-0.012142898 -0.002142854 0.75000006 8.2908104e-40
-0.010714303 -0.002142854 0.75000006 1.1957364e-39
-0.0092609758 -0.002137132 0.74800003 1.472661e-39
-0.0078257304 -0.0021342859 0.74700004 9.2199133e-40
-0.0064028753 -0.0021342784 0.74700004 2.7844221e-40
-0.0049666967 -0.0021285415 0.745 5.5360678e-40
-0.0035476342 -0.0021285489 0.745 8.2983914e-40
-0.0021200536 -0.0021199957 0.74200004 9.2240191e-40
-0.00070670823 -0.0021199957 0.74200004 1.015322e-39
0.00070661382 -0.0021199957 0.74200004 1.2919145e-39
0.00211996 -0.0021199957 0.74200004 1.5692217e-39
0.0035237789 -0.0021142736 0.74000001 2.3982593e-39
0.0049333069 -0.0021142736 0.74000001 3.1336523e-39
0.0063428357 -0.0021142811 0.74000001 2.6665757e-39
0.0077418676 -0.0021114349 0.73900008 2.1187801e-39
0.0091618672 -0.0021142811 0.74000001 1.7492759e-39
0.010528561 -0.002105698 0.73700005 1.2893697e-39
0.011964713 -0.00211142 0.73900008 1.196807e-39
0.013372319 -0.0021114275 0.73900002 1.1053428e-39
0.014779951 -0.0021114424 0.73900008 9.2276064e-40
0.016187558 -0.0021114349 0.73900002 6.4617936e-40
0.017595191 -0.0021114275 0.73900008 8.3057062e-40
0.019002797 -0.0021114275 0.73900008 9.2239911e-40
0.020438071 -0.0021142811 0.74000007 1.1982587e-39
0.021847574 -0.0021142736 0.74000001 1.4730646e-39
0.023319935 -0.0021199957 0.7420001 1.1975735e-39
0.024733283 -0.0021200031 0.7420001 9.2205859e-40
0.026146606 -0.0021199957 0.7420001 7.3766033e-40
0.0275971 -0.0021228492 0.74300003 5.5470119e-40
0.029012341 -0.0021228418 0.74300003 1.0142304e-39
0.030427586 -0.0021228567 0.74300003 1.382657e-39
0.031928554 -0.0021285489 0.745 2.1198591e-39
0.033258073 -0.0021228567 0.74300003 2.7648628e-39
0.034766618 -0.0021285713 0.74500006 3.2261954e-39
0.036282834 -0.0021342933 0.74700004 3.5953213e-39
0.03775616 -0.002137132 0.74800003 3.6885833e-39
0.039180942 -0.0021371245 0.74800003 3.7811349e-39
0.040714264 -0.002142854 0.75000006 3.4137901e-39
0.042255208 -0.0021485686 0.75200003 2.9528189e-39
0.043745678 -0.0021514297 0.75300002 2.5851182e-39
0.04529994 -0.0021571517 0.75500011 2.2192154e-39
0.046799973 -0.0021599904 0.75600004 2.3985858e-39
0.048495207 -0.0021714121 0.76000005 2.5876349e-39
0.050008535 -0.0021742806 0.76100004 3.5996177e-39
0.051458038 -0.0021742955 0.7610001 4.6173471e-39
0.052907571 -0.0021742955 0.76100004 6.6416797e-39
0.054357078 -0.0021742955 0.7610001 8.5738082e-39
0.059546646 -0.002319999 0.81200004 9.037645e-39
0.061093271 -0.0023200065 0.8120001 9.4035521e-39
-0.025433384 -0.00072665513 0.76300007 3.1367912e-39
-0.023917217 -0.00072477013 0.7610001 2.9509888e-39
-0.022467686 -0.00072477013 0.76100004 2.5815141e-39
-0.020990511 -0.00072380155 0.76000011 2.3034923e-39
-0.019491483 -0.00072190166 0.75800002 1.9347111e-39
-0.018047694 -0.00072190911 0.75800008 1.5655615e-39
-0.016538143 -0.00071904808 0.75500005 1.2896822e-39
-0.015060056 -0.00071714073 0.75300002 1.0137988e-39
-0.013607661 -0.00071619451 0.75200003 8.2903199e-40
-0.012142873 -0.00071428716 0.75000006 6.4433245e-40
-0.010714303 -0.00071427971 0.75000006 9.2060264e-40
-0.0092857387 -0.00071429461 0.75000012 1.1975104e-39
-0.0078362469 -0.00071236491 0.74800003 7.3829792e-40
-0.0064028669 -0.00071141869 0.74700004 2.7986593e-40
-0.004966706 -0.00070951134 0.74500006 4.6320621e-40
-0.0035476435 -0.00070951134 0.74500006 6.4652408e-40
-0.0021200499 -0.00070666522 0.74200004 7.3836518e-40
-0.00070672872 -0.00070666522 0.74200004 8.3057202e-40
0.00070661848 -0.00070667267 0.74200004 1.1064499e-39
0.0021142343 -0.00070475787 0.74000007 1.3812277e-39
0.0035237649 -0.00070476532 0.74000007 1.9340231e-39
0.004933293 -0.00070476532 0.74000007 2.3903377e-39
0.0063428218 -0.00070475042 0.74000007 2.115913e-39
0.0077418592 -0.0007038191 0.73900008 1.7481983e-39
0.0091618542 -0.00070475787 0.74000007 1.4733953e-39
0.0105571 -0.00070380419 0.73900008 1.1975174e-39
0.011964707 -0.00070381165 0.73900008 1.0131164e-39
0.013372339 -0.00070381165 0.73900008 9.2130329e-40
0.014799943 -0.00070475042 0.74000007 7.3729459e-40
0.016187578 -0.00070381165 0.73900008 5.525474e-40
0.017618999 -0.00070476532 0.74000007 7.3801205e-40
0.01902853 -0.00070476532 0.74000007 1.0145765e-39
0.020438058 -0.00070476532 0.74000007 1.2900648e-39
0.021847561 -0.00070475787 0.74000007 1.5655937e-39
0.023319969 -0.00070665777 0.74200004 1.1982741e-39
0.02473329 -0.00070665777 0.74200004 9.2312358e-40
0.026146607 -0.00070667267 0.7420001 7.3908965e-40
0.027597096 -0.00070761144 0.74300009 6.4796882e-40
0.029012313 -0.00070761144 0.74300009 1.0153066e-39
0.030427556 -0.00070761889 0.74300009 1.3833745e-39
0.031928539 -0.00070951879 0.74500006 2.0283837e-39
0.033347577 -0.00070951134 0.74500006 2.7659376e-39
0.034859993 -0.00071142614 0.74700004 3.2272674e-39
0.036331385 -0.00071238726 0.74800003 3.7797083e-39
0.037756138 -0.00071237981 0.74800003 3.8722543e-39
0.039285693 -0.00071427226 0.75000006 3.9651674e-39
0.040714264 -0.00071427226 0.75000006 3.5052724e-39
0.042255193 -0.00071618706 0.75200003 3.045037e-39
0.043745685 -0.00071712583 0.75300002 2.3078587e-39
0.045299966 -0.00071904808 0.75500005 1.5703147e-39
0.04692376 -0.00072190911 0.75800002 1.6614425e-39
0.048495211 -0.000723809 0.76000011 1.8436842e-39
0.050008506 -0.00072477013 0.7610001 2.8589011e-39
0.051728539 -0.00072856247 0.76499999 3.9673744e-39
0.053324748 -0.00073046237 0.76699996 4.6145165e-39
0.05478568 -0.00073046982 0.76700002 5.2648801e-39
0.059693303 -0.00077523291 0.81400007 7.3803055e-39
0.061093308 -0.00077332556 0.81200004 9.4039024e-39
0.062639937 -0.00077333301 0.81200004 9.5872006e-39
0.064186618 -0.00077333301 0.81200004 9.8623582e-39
-0.025433365 0.00072668493 0.76300001 3.4126746e-39
-0.023885779 0.000723809 0.76000011 3.0431957e-39
-0.022467686 0.00072476268 0.76100004 2.4893268e-39
-0.021018151 0.00072477013 0.76100004 1.9368719e-39
-0.019491497 0.00072190166 0.75800008 1.5677293e-39
-0.018047681 0.0007218942 0.75800002 1.1067469e-39
-0.016538145 0.00071905553 0.75500005 1.0134653e-39
-0.015060047 0.00071714073 0.75300002 8.2942296e-40
-0.013607649 0.00071618706 0.75200003 6.4466456e-40
-0.01214288 0.00071429461 0.75000006 3.6954483e-40
-0.01071431 0.00071429461 0.75000006 6.4436188e-40
-0.0092857396 0.00071430206 0.75000006 8.2944818e-40
-0.0078362403 0.00071238726 0.74800003 5.5428221e-40
-0.0064028837 0.00071144104 0.74700004 2.8022746e-40
-0.0049667154 0.00070952624 0.74500006 3.7243711e-40
-0.0035476529 0.00070951879 0.74500006 4.6320621e-40
-0.0021200443 0.00070665777 0.7420001 5.5325786e-40
-0.00070672313 0.00070667267 0.7420001 6.4618356e-40
0.00070662407 0.00070667267 0.7420001 9.220628e-40
0.002114252 0.00070477277 0.74000001 1.1982797e-39
0.0035237798 0.00070477277 0.74000001 1.4744981e-39
0.0049333088 0.00070476532 0.74000001 1.6578118e-39
0.0063428376 0.00070475787 0.74000001 1.5666965e-39
0.0077418527 0.00070381165 0.73900008 1.3819353e-39
0.0091618681 0.00070475787 0.74000001 1.2897285e-39
0.010571397 0.00070476532 0.74000001 1.1060505e-39
0.012013272 0.00070667267 0.74200004 9.2093896e-40
0.013390455 0.00070476532 0.74000001 6.4581222e-40
0.014799958 0.00070475787 0.74000001 5.5292295e-40
0.016253289 0.00070665777 0.74200004 3.6996522e-40
0.01766661 0.00070668012 0.74200004 7.3766173e-40
0.019079957 0.00070668012 0.7420001 1.0138773e-39
0.020493278 0.00070667267 0.74200004 1.2897341e-39
0.021906625 0.00070666522 0.74200004 1.5656091e-39
0.023319947 0.00070666522 0.74200004 1.2901138e-39
0.024733296 0.00070666522 0.74200004 9.2276625e-40
0.026146617 0.00070668012 0.74200004 8.3092655e-40
0.0275971 0.00070762634 0.74300009 6.4724715e-40
0.029012343 0.00070761144 0.74300009 1.0149395e-39
0.03042756 0.00070761144 0.74300003 1.2915362e-39
0.031928562 0.00070953369 0.745 2.0273117e-39
0.033347566 0.00070953369 0.74500006 2.7663019e-39
0.034766629 0.00070954114 0.74500006 3.3212623e-39
0.036331393 0.00071238726 0.74800003 3.8715508e-39
0.037756145 0.00071239471 0.74800003 4.0552148e-39
0.039285682 0.00071428716 0.75000006 4.1481209e-39
0.040714256 0.00071428716 0.75000006 3.6885805e-39
0.042255182 0.00071619451 0.75200003 3.1350746e-39
0.043745667 0.00071714818 0.75300002 2.030197e-39
0.04529994 0.00071904808 0.75500011 8.3598243e-40
0.046923742 0.0007218942 0.75800008 9.2459354e-40
0.048495188 0.000723809 0.76000011 1.017508e-39
0.050008506 0.00072475523 0.7610001 2.2085024e-39
0.051593281 0.00072667003 0.76300001 3.3166254e-39
0.053046633 0.00072667748 0.76300001 2.6755692e-39
0.057999954 0.00077332556 0.81200004 1.9498438e-39
0.059546635 0.00077334046 0.81200004 5.7226241e-39
0.061093289 0.00077333301 0.81200004 9.4003221e-39
0.062485691 0.00077143312 0.81000006 9.4960784e-39
0.064028524 0.00077142566 0.81000012 9.4960924e-39
-0.025433376 0.0021800026 0.76300007 3.6874819e-39
-0.023917217 0.0021742806 0.76100004 3.2283142e-39
-0.022467658 0.0021742806 0.76100004 2.5822455e-39
-0.020990528 0.0021714345 0.76000011 2.0297878e-39
-0.019491484 0.0021657124 0.75800002 1.6599235e-39
-0.018047666 0.0021657124 0.75800002 1.2907809e-39
-0.016538117 0.0021571517 0.75500005 1.0141898e-39
-0.015060036 0.0021514297 0.75300002 7.3796021e-40
-0.013607663 0.0021485686 0.75200003 5.5392488e-40
-0.012142881 0.0021428689 0.75000006 3.7062242e-40
-0.010714316 0.002142854 0.75000012 5.5430182e-40
-0.0092857461 0.0021428615 0.75000006 7.3797001e-40
-0.0078362077 0.0021371618 0.74800003 4.6353692e-40
-0.0064028772 0.0021342859 0.74700004 2.8166379e-40
-0.0049666949 0.0021285936 0.74500006 3.7278603e-40
-0.0035476584 0.0021285862 0.74500006 5.5539484e-40
-0.0021200685 0.0021200031 0.7420001 5.5469139e-40
-0.00070671941 0.0021200031 0.7420001 5.547068e-40
0.00070660171 0.0021199957 0.7420001 8.3094477e-40
0.002114238 0.0021142885 0.74000007 1.1071673e-39
0.0035237658 0.0021142885 0.74000007 1.1990014e-39
0.0049332948 0.0021142885 0.74000007 1.3830297e-39
0.0063428245 0.002114296 0.74000007 1.2908327e-39
0.0077418461 0.0021114349 0.73900008 1.1989846e-39
0.009161856 0.002114296 0.74000007 9.2310676e-40
0.01059993 0.0021200031 0.7420001 7.408707e-40
0.012013276 0.0021199957 0.7420001 7.3907704e-40
0.013426597 0.0021199957 0.7420001 7.3874073e-40
0.014839943 0.0021200106 0.7420001 6.4585146e-40
0.016253266 0.0021200031 0.7420001 5.5472502e-40
0.017666614 0.0021200031 0.7420001 7.3802887e-40
0.019079935 0.0021200031 0.7420001 1.0138955e-39
0.020493284 0.0021199957 0.7420001 1.4734317e-39
0.021906603 0.0021199957 0.74200004 2.024802e-39
0.02331995 0.0021199957 0.7420001 1.5652644e-39
0.024733271 0.0021200106 0.7420001 1.1057226e-39
0.026181858 0.0021228716 0.74300003 8.3056922e-40
0.0275971 0.0021228716 0.74300003 4.6249716e-40
0.029012345 0.0021228641 0.74300003 8.3054259e-40
0.03042759 0.0021228641 0.74300003 1.1989818e-39
0.031928528 0.0021285936 0.74500006 1.936914e-39
0.033347588 0.0021285862 0.74500006 2.7673837e-39
0.034859981 0.0021342933 0.74700004 3.3198344e-39
0.0363314 0.0021371543 0.74800003 3.9623171e-39
0.037857115 0.0021428615 0.75000006 4.0559379e-39
0.039390445 0.0021485537 0.75200003 4.1488398e-39
0.040822834 0.0021485835 0.75200003 3.68714e-39
0.042311393 0.0021514222 0.75300002 3.2251122e-39
0.043861866 0.0021571442 0.75500005 4.3307451e-39
0.04529997 0.0021571517 0.75500005 5.4306187e-39
0.046923757 0.0021657199 0.75800002 5.4374346e-39
0.048367575 0.0021657199 0.75800002 5.5217381e-39
0.050008506 0.002174288 0.76100004 4.5129826e-39
0.051458038 0.0021742955 0.76100004 3.4970608e-39
0.052907541 0.0021742731 0.7610001 2.9489247e-39
0.054357074 0.0021742731 0.76100004 2.4007816e-39
0.059399955 0.0023142919 0.81000006 3.7858474e-39
0.060942817 0.0023142919 0.81000006 5.2641458e-39
0.06248568 0.0023142844 0.81000006 7.4746171e-39
0.064028546 0.0023142919 0.81000006 9.5890041e-39
-0.027062912 0.0036571473 0.76800001 4.5143349e-39
-0.025600027 0.0036571547 0.76800001 3.959736e-39
-0.023980062 0.0036333352 0.76300007 3.317619e-39
-0.022467658 0.0036238059 0.76100004 2.7651851e-39
-0.021018155 0.0036237985 0.7610001 2.1205373e-39
-0.019491469 0.0036095306 0.75800002 1.7510387e-39
-0.018047683 0.0036095083 0.75800008 1.3829695e-39
-0.016538145 0.0035952404 0.75500005 1.0149016e-39
-0.015060055 0.003585726 0.75300002 6.4684077e-40
-0.013607675 0.0035809427 0.75200009 4.6245091e-40
-0.012175288 0.0035809502 0.75200003 2.7914706e-40
-0.010714317 0.0035714358 0.75000006 4.6390266e-40
-0.0092857219 0.0035714358 0.75000006 5.5538082e-40
-0.007836232 0.0035619065 0.74800003 4.6426279e-40
-0.0064028632 0.003557153 0.74700004 2.8131067e-40
-0.0049667032 0.0035476238 0.74500006 4.6498166e-40
-0.0035476696 0.0035476312 0.74500006 5.5540044e-40
-0.0021200331 0.003533341 0.74200004 4.628643e-40
-0.00070671196 0.003533341 0.74200004 3.7140575e-40
0.00070663524 0.0035333335 0.74200004 6.4800525e-40
0.0021142547 0.0035238266 0.74000001 9.231446e-40
0.0035237835 0.0035238191 0.74000001 1.0142556e-39
0.0049333116 0.0035238117 0.74000001 1.1064527e-39
0.0063428404 0.0035238191 0.74000001 1.01462e-39
0.0077523431 0.0035238117 0.74000001 9.2205019e-40
0.0091618719 0.0035238042 0.74000001 6.4652688e-40
0.010571402 0.0035238266 0.74000001 3.7137632e-40
0.012013257 0.0035333261 0.7420001 5.5540325e-40
0.013426603 0.0035333335 0.7420001 7.3800785e-40
0.014839924 0.0035333335 0.7420001 7.3730019e-40
0.01625327 0.0035333261 0.7420001 6.454703e-40
0.017666593 0.0035333335 0.7420001 8.291469e-40
0.01907994 0.0035333335 0.7420001 9.220628e-40
0.020493262 0.0035333261 0.7420001 1.7493053e-39
0.021906609 0.0035333335 0.7420001 2.483625e-39
0.02331993 0.0035333335 0.7420001 1.9315302e-39
0.024766613 0.0035381019 0.74300009 1.289395e-39
0.026181856 0.0035380945 0.74300009 8.3093215e-40
0.027597075 0.003538087 0.74300009 2.7955344e-40
0.029012319 0.0035381019 0.74300009 7.3800785e-40
0.030509509 0.0035476387 0.745 1.107875e-39
0.031928517 0.0035476238 0.74500006 1.9372769e-39
0.03343714 0.0035571605 0.74700004 2.6744762e-39
0.034859963 0.0035571456 0.74700004 3.4113168e-39
0.036331378 0.0035619214 0.74800003 4.0548729e-39
0.037857108 0.0035714284 0.75000006 4.1484923e-39
0.039285678 0.0035714284 0.75000006 4.1481125e-39
0.040822819 0.0035809651 0.75200003 3.6864043e-39
0.042423762 0.0035952479 0.75500005 3.2283282e-39
0.043861836 0.003595233 0.75500011 6.6363127e-39
0.04529994 0.0035952404 0.75500005 9.9488478e-39
0.046923772 0.0036095232 0.75800002 9.9639145e-39
0.04836756 0.0036095157 0.75800008 9.9492079e-39
0.050008506 0.0036238134 0.76100004 6.82465e-39
0.051458012 0.0036237985 0.7610001 3.6003421e-39
0.052907541 0.0036238134 0.76100004 3.2218598e-39
0.054357074 0.0036238134 0.76100004 2.7630705e-39
0.059546623 0.0038666576 0.81200004 1.9390916e-39
0.061093282 0.0038666725 0.81200004 1.1250885e-39
0.062639967 0.0038666725 0.81200004 5.4567431e-39
0.064344727 0.0038761944 0.81400001 9.680827e-39
0.066138044 0.0038904697 0.81700003 9.772315e-39
-0.027062891 0.0051200092 0.76800001 4.1494704e-39
-0.025600061 0.0051200092 0.76800001 3.7785509e-39
-0.023980044 0.0050866753 0.76300007 3.4094348e-39
-0.022467688 0.0050733313 0.7610001 2.9481246e-39
-0.020990521 0.0050666779 0.76000011 2.486436e-39
-0.019491486 0.0050533265 0.75800008 1.9339881e-39
-0.018000035 0.0050400123 0.75600004 1.474442e-39
-0.01649433 0.00502 0.75300002 1.1067315e-39
-0.01506002 0.00502 0.75300002 7.390336e-40
-0.013607659 0.0050133318 0.75200003 6.4648204e-40
-0.012175272 0.0050133392 0.75200003 6.4613172e-40
-0.010714323 0.0049999952 0.75000006 7.3869308e-40
-0.0092857527 0.0049999952 0.75000006 7.3869729e-40
-0.0078362254 0.004986681 0.74800003 6.4758346e-40
-0.0064114472 0.004986681 0.74800003 5.5682136e-40
-0.0049800007 0.0049800053 0.74700004 6.4757786e-40
-0.0035571458 0.0049800053 0.74700004 7.3799944e-40
-0.0021229072 0.0049533397 0.74300003 7.3837919e-40
-0.00070670823 0.004946664 0.7420001 7.3840021e-40
0.00070661289 0.0049466565 0.74200004 8.3097279e-40
0.00211996 0.0049466714 0.7420001 1.0146298e-39
0.0035237705 0.0049333349 0.74000007 1.0142556e-39
0.0049332995 0.0049333274 0.74000007 1.1057408e-39
0.0063428283 0.0049333349 0.74000007 1.1050317e-39
0.007752331 0.0049333423 0.74000007 1.19577e-39
0.0091618588 0.0049333349 0.74000007 8.2876435e-40
0.010599943 0.0049466863 0.74200004 5.5289492e-40
0.01201329 0.0049466714 0.74200004 8.2911327e-40
0.013426611 0.0049466714 0.74200004 1.1964525e-39
0.014839959 0.0049466714 0.74200004 9.2058303e-40
0.016253281 0.0049466714 0.74200004 7.3585686e-40
0.017666627 0.004946664 0.74200004 7.3695267e-40
0.01907995 0.0049466789 0.74200004 8.2987277e-40
0.020493297 0.0049466714 0.74200004 1.3812529e-39
0.021906618 0.0049466789 0.74200004 2.0251692e-39
0.023351371 0.0049533397 0.74300009 1.6567412e-39
0.024766617 0.0049533471 0.74300009 1.2886803e-39
0.02618186 0.0049533397 0.74300009 1.0138885e-39
0.027597103 0.0049533397 0.74300009 6.4726537e-40
0.029012349 0.0049533397 0.74300009 9.2205579e-40
0.030509502 0.0049666688 0.74500006 1.1997217e-39
0.031928536 0.0049666837 0.74500006 1.9362049e-39
0.033437118 0.0049800053 0.74700004 2.7652411e-39
0.034906633 0.0049866736 0.74800003 3.4102462e-39
0.036428537 0.0050000027 0.75000006 4.0548757e-39
0.037857134 0.0050000027 0.75000006 4.0566568e-39
0.039285704 0.0050000176 0.75000006 3.9651506e-39
0.040822804 0.0050133467 0.75200003 3.5023549e-39
0.042311385 0.0050200075 0.75300002 3.1300243e-39
0.043745667 0.0050200075 0.75300002 6.4533536e-39
0.04529997 0.005033344 0.75500005 9.7741395e-39
0.046799973 0.0050400048 0.75600004 9.7748569e-39
0.048239946 0.0050399974 0.7560001 9.7723486e-39
0.049679942 0.0050399974 0.75600004 8.6678129e-39
0.051458012 0.0050733313 0.76100004 7.5621506e-39
0.052907571 0.0050733313 0.76100004 5.0681939e-39
0.054357104 0.0050733387 0.76100004 2.6640295e-39
0.059693307 0.0054266676 0.81400001 1.8429499e-39
0.061243776 0.0054266751 0.81400007 1.0235645e-39
0.062794253 0.0054266751 0.81400007 4.7130866e-39
0.06442374 0.0054333284 0.81500006 8.4869543e-39
0.066138059 0.0054466575 0.81700009 9.2216397e-39
0.067859985 0.005460009 0.81900007 9.9577768e-39
-0.027062893 0.0065828711 0.76799995 3.7799914e-39
-0.025566714 0.0065742955 0.76700002 3.6878028e-39
-0.02388576 0.0065142959 0.76000011 3.5012773e-39
-0.022379078 0.0064971447 0.75800002 3.1314396e-39
-0.02093529 0.0064971447 0.75800008 2.7615851e-39
-0.019491471 0.0064971447 0.75800002 2.2077009e-39
-0.018000038 0.0064800084 0.75600004 1.5655531e-39
-0.016538145 0.0064714327 0.75500005 1.1989117e-39
-0.015060009 0.006454289 0.75300002 7.3938533e-40
-0.013625754 0.0064542815 0.75300008 9.2199133e-40
-0.012175258 0.0064457133 0.75200003 1.0134793e-39
-0.010742872 0.0064457133 0.75200003 1.0138506e-39
-0.0092857294 0.0064285919 0.75000006 9.2202636e-40
-0.0078571886 0.006428577 0.75000006 8.3056081e-40
-0.0064028734 0.0064028576 0.74700004 7.3943017e-40
-0.0049800184 0.0064028576 0.74700004 8.3017826e-40
-0.0035571635 0.0064028651 0.74700004 8.305524e-40
-0.0021228793 0.0063685849 0.74300003 9.2276345e-40
-0.00070673059 0.0063600093 0.7420001 1.0142542e-39
0.00070661848 0.0063600019 0.7420001 1.0139081e-39
0.0021199395 0.0063600019 0.7420001 1.013541e-39
0.0035332867 0.0063600019 0.7420001 1.0142514e-39
0.00494661 0.0063599944 0.7420001 1.0138941e-39
0.0063428413 0.0063428655 0.74000001 1.2876097e-39
0.0077523459 0.0063428581 0.74000001 1.4712583e-39
0.0091618765 0.0063428804 0.74000001 1.1038939e-39
0.010571405 0.006342873 0.74000001 6.4508775e-40
0.012013294 0.0063600019 0.7420001 1.1039177e-39
0.013426615 0.0063599944 0.74200004 1.5634497e-39
0.014839936 0.0063599944 0.74200004 1.1957448e-39
0.016253285 0.0063600093 0.7420001 8.2841402e-40
0.017666604 0.0063600093 0.74200004 7.362324e-40
0.019079952 0.0063600093 0.74200004 6.4547871e-40
0.020493273 0.0063600019 0.74200004 1.1039443e-39
0.021906622 0.0063600093 0.74200004 1.4727156e-39
0.023351399 0.0063685775 0.74300003 1.3808745e-39
0.024766617 0.0063685775 0.74300003 1.2890348e-39
0.026181862 0.00636857 0.74300003 1.1971965e-39
0.027597105 0.0063685924 0.74300003 1.0135213e-39
0.029012349 0.0063685849 0.74300003 1.1953959e-39
0.030427592 0.0063685849 0.74300003 1.2901124e-39
0.031928528 0.0063857213 0.74500006 2.0258852e-39
0.033347592 0.0063857213 0.74500006 2.7641691e-39
0.034859985 0.0064028651 0.74700004 3.4095427e-39
0.036331389 0.0064114481 0.74799997 4.0545254e-39
0.037756167 0.0064114407 0.74800003 3.9655429e-39
0.039285675 0.006428577 0.75000006 3.7807733e-39
0.040822819 0.0064457133 0.75200009 3.4112565e-39
0.042255208 0.0064457133 0.75200003 2.9545902e-39
0.043745704 0.006454289 0.75300002 6.2728663e-39
0.04529994 0.0064714253 0.75500005 9.5857685e-39
0.046738043 0.0064714327 0.75500005 9.5890069e-39
0.048239939 0.0064800009 0.75600004 9.4982714e-39
0.049679965 0.0064800009 0.75600004 1.0511356e-38
0.051458038 0.0065228492 0.7610001 1.1516141e-38
0.052907571 0.0065228567 0.76100004 7.0079273e-39
0.059693307 0.0069771484 0.81400001 1.7453453e-39
0.061243776 0.0069771484 0.81400007 9.299395e-40
0.062871374 0.006985724 0.81500006 4.0681236e-39
0.064581878 0.0070028529 0.81700003 7.1919332e-39
0.066138044 0.007002838 0.81700009 8.6698784e-39
0.067694262 0.0070028529 0.81700003 1.0047419e-38
0.06925042 0.0070028529 0.81700009 9.9555936e-39
-0.0270629 0.0080457181 0.76800001 3.872201e-39
-0.025566686 0.00803525 0.76700002 3.5952596e-39
-0.024042908 0.0080142841 0.76500005 3.40873e-39
-0.022438148 0.0079619139 0.76000011 2.9484875e-39
-0.020935275 0.007940948 0.75800002 2.5775568e-39
-0.019491456 0.0079409555 0.75800002 2.0254648e-39
-0.018000048 0.0079200044 0.7560001 1.4729931e-39
-0.016538147 0.0079095289 0.75500011 1.014868e-39
-0.015060029 0.0078885779 0.75300002 5.5606746e-40
-0.013625744 0.0078885779 0.75300002 7.3832174e-40
-0.012175272 0.0078780949 0.75200003 1.01205e-39
-0.010742885 0.0078780949 0.75200003 9.213061e-40
-0.009310496 0.0078780949 0.75200003 9.2096558e-40
-0.0078571644 0.0078571513 0.75000006 8.302245e-40
-0.0064285947 0.0078571513 0.75000006 8.3163841e-40
-0.0049867136 0.0078362003 0.74800003 8.3161739e-40
-0.0035619384 0.0078362077 0.74800003 7.397945e-40
-0.0021229072 0.0077838078 0.74300009 9.2419417e-40
-0.00070766377 0.0077838078 0.74300009 1.1975553e-39
0.00070659613 0.0077733248 0.7420001 1.1053666e-39
0.0021199451 0.0077733248 0.7420001 1.1035716e-39
0.0035332663 0.0077733323 0.7420001 1.0135284e-39
0.0049466137 0.0077733248 0.7420001 9.2276485e-40
0.0063599348 0.0077733397 0.7420001 1.1049967e-39
0.0077732829 0.0077733323 0.7420001 1.2875691e-39
0.0091866041 0.0077733323 0.7420001 9.2092214e-40
0.010599951 0.0077733323 0.7420001 5.5360958e-40
0.012013271 0.0077733248 0.7420001 8.291441e-40
0.013426621 0.0077733248 0.7420001 1.1050037e-39
0.014839942 0.0077733397 0.7420001 9.2132712e-40
0.016253263 0.0077733397 0.7420001 6.454661e-40
0.017666612 0.0077733397 0.7420001 5.5399354e-40
0.019079931 0.0077733323 0.7420001 5.5399634e-40
0.020520916 0.0077838302 0.74300003 9.2241592e-40
0.02193616 0.0077838227 0.74300003 1.3812333e-39
0.023351373 0.0077838153 0.74300009 1.1979182e-39
0.024766617 0.0077838078 0.74300009 1.014243e-39
0.026181834 0.0077838153 0.74300009 1.0145975e-39
0.027671387 0.0078047812 0.74500006 1.0138717e-39
0.029090449 0.0078047737 0.74500006 1.1971741e-39
0.030509485 0.0078047737 0.74500006 1.382657e-39
0.031928547 0.0078047737 0.74500006 2.1191514e-39
0.033481892 0.0078362003 0.74800003 2.856369e-39
0.034906615 0.0078361928 0.74800003 3.4091966e-39
0.036428556 0.0078571439 0.75000006 3.9612634e-39
0.037857126 0.0078571588 0.75000006 3.9637521e-39
0.039285667 0.0078571439 0.75000012 3.965173e-39
0.040822834 0.0078781024 0.75200003 3.7793356e-39
0.042311408 0.0078885853 0.75300002 3.5952736e-39
0.043861866 0.0079095215 0.75500005 6.3650143e-39
0.04529994 0.007909514 0.75500011 9.2176726e-39
0.046738043 0.0079095215 0.75500011 8.9432606e-39
0.048239961 0.007919997 0.75600004 8.6717464e-39
0.049679965 0.0079200044 0.75600004 9.0387745e-39
0.051119961 0.0079200044 0.75600004 9.3200221e-39
0.052838065 0.0079619214 0.76000005 6.3658621e-39
0.062871367 0.0085380971 0.81500006 2.6752021e-39
0.064581871 0.0085590407 0.81700003 3.6853267e-39
0.066299982 0.0085800141 0.81900007 8.1080713e-39
0.067694247 0.0085590407 0.81700003 1.2524426e-38
0.069250412 0.0085590333 0.81700009 1.326485e-38
0.070806623 0.0085590258 0.81700009 1.4078455e-38
0.07236284 0.0085590407 0.81700009 1.3439552e-38
-0.027133346 0.0095333382 0.77000004 3.9626072e-39
-0.02560005 0.0095085874 0.76800001 3.5956338e-39
-0.024105754 0.0094961971 0.76700002 3.2275743e-39
-0.022526693 0.0094466731 0.76300001 2.8595149e-39
-0.020990536 0.009409532 0.76000011 2.3960326e-39
-0.019491497 0.0093847588 0.75800002 1.8428672e-39
-0.018000051 0.009359993 0.7560001 1.2904053e-39
-0.016538143 0.0093476251 0.75500005 8.3157255e-40
-0.015060019 0.0093228593 0.75300002 2.7985612e-40
-0.013625734 0.0093228593 0.75300002 6.4721212e-40
-0.012175286 0.0093104765 0.75200003 9.2165222e-40
-0.010742897 0.0093104765 0.75200003 9.2130329e-40
-0.00931051 0.0093104765 0.75200003 8.2911327e-40
-0.007857169 0.0092857108 0.75000012 9.2095297e-40
-0.0064286003 0.0092857108 0.75000006 9.2238229e-40
-0.0050000306 0.0092857182 0.75000006 8.3269359e-40
-0.003561931 0.0092609748 0.74799997 6.4974847e-40
-0.0021286106 0.0092238188 0.74500006 1.0196086e-39
-0.00070766005 0.009199053 0.74300003 1.2915376e-39
0.00070758333 0.0091990605 0.74300003 1.1982755e-39
0.0021228266 0.009199053 0.74300003 1.1050009e-39
0.0035380719 0.0091990605 0.74300003 9.2168585e-40
0.0049466211 0.0091866776 0.74200004 7.3837219e-40
0.0063599683 0.0091866702 0.74200004 9.2132571e-40
0.0077732895 0.0091866702 0.74200004 1.1049841e-39
0.0091866376 0.0091866702 0.74200004 7.3798963e-40
0.010599959 0.0091866702 0.74200004 3.7066166e-40
0.012013306 0.0091866627 0.74200004 5.5434667e-40
0.013426596 0.0091866702 0.7420001 6.4653389e-40
0.014839945 0.0091866627 0.7420001 5.5469279e-40
0.016253266 0.0091866627 0.7420001 4.628629e-40
0.017666588 0.0091866702 0.7420001 4.6358597e-40
0.019079935 0.0091866627 0.7420001 3.7283087e-40
0.020520914 0.0091990381 0.74300009 8.3344889e-40
0.021936132 0.0091990456 0.74300009 1.2911914e-39
0.023351373 0.0091990605 0.74300009 1.0146102e-39
0.024766618 0.009199053 0.74300009 6.4798283e-40
0.026181862 0.0091990605 0.74300009 8.3272582e-40
0.027597105 0.009199053 0.74300009 9.2275784e-40
0.029090438 0.0092238262 0.74500006 1.1961021e-39
0.030509476 0.0092238188 0.74500006 1.3822969e-39
0.032014269 0.0092485771 0.74700004 2.2109827e-39
0.03348187 0.0092609674 0.74800003 2.9485492e-39
0.034906622 0.0092609674 0.74800003 3.4088155e-39
0.036428526 0.0092857182 0.75000006 3.8690565e-39
0.037857123 0.0092857182 0.75000006 3.9626731e-39
0.039390434 0.009310469 0.75200003 4.0548463e-39
0.04087713 0.0093228593 0.75300002 4.1459447e-39
0.042423736 0.0093476102 0.75500011 4.1530983e-39
0.04386184 0.0093476251 0.75500005 6.5573033e-39
0.045359936 0.0093600005 0.7560001 8.8499817e-39
0.046923745 0.0093847662 0.75800002 8.3868764e-39
0.048367564 0.0093847662 0.75800002 7.8373306e-39
0.049679957 0.0093600154 0.75600004 7.4678684e-39
