# .PCD v0.7 - Point Cloud Data file format
VERSION 0.7
FIELDS x y z rgb
SIZE 4 4 4 4
TYPE F F F F
COUNT 1 1 1 1
WIDTH 969
HEIGHT 1
VIEWPOINT 0 0 0 1 0 0 0
POINTS 969
DATA ascii
-0.02205429 0.033437133 0.74699998 1.3847912e-39
-0.020576177 0.033347607 0.74500012 1.4755323e-39
-0.019105718 0.033258088 0.74300003 1.4758714e-39
-0.017666683 0.03321334 0.74200004 1.5687999e-39
-0.01620952 0.033123791 0.74000007 1.5680992e-39
-0.014779991 0.033079043 0.73900002 1.6592341e-39
-0.013372376 0.033079036 0.73900002 1.7518024e-39
-0.011932372 0.032989524 0.73700005 1.843275e-39
-0.010514294 0.032944754 0.73600006 1.106433e-39
-0.009112387 0.032944769 0.736 2.8317019e-40
-0.0077104839 0.032944769 0.73600006 5.540779e-39
-0.0063085668 0.032944754 0.73600006 1.0697657e-38
-0.0046866541 0.031467602 0.70300007 1.1260966e-38
-0.0033476078 0.031467609 0.70300007 1.1845341e-38
-0.0020028544 0.031378098 0.70100003 1.1912783e-38
-0.00066762004 0.03137809 0.70100003 1.2095267e-38
0.00066762179 0.031378098 0.70100003 6.9968514e-39
0.0020028562 0.031378098 0.70100003 2.0215706e-39
0.0033380981 0.03137809 0.70100003 2.7648417e-39
0.0046733334 0.031378105 0.70100003 3.4934357e-39
0.0060085771 0.031378083 0.70100009 2.5754478e-39
0.0073438189 0.03137809 0.70100009 1.5648903e-39
0.0086790537 0.03137809 0.70100009 1.105703e-39
0.010014295 0.031378075 0.70100009 5.5540325e-40
0.011349529 0.03137809 0.70100009 5.5468158e-40
0.013227613 0.032720961 0.73100001 5.5540465e-40
0.014640003 0.032765709 0.73200005 7.3979731e-40
0.016078111 0.03285522 0.73400009 9.2456412e-40
0.017476197 0.032855228 0.73400003 1.3826836e-39
0.018874299 0.03285522 0.73400009 1.9311785e-39
0.020272393 0.032855235 0.73400003 1.3805172e-39
0.021729523 0.032944761 0.73600006 9.2275784e-40
0.023131425 0.032944769 0.73600006 5.5360538e-40
0.024566676 0.032989524 0.73699999 1.8415724e-40
0.025970489 0.032989524 0.73700005 4.427289e-39
0.027448591 0.033079036 0.73900002 8.6761436e-39
0.028895251 0.033123791 0.74000007 7.8464222e-39
0.03030478 0.033123791 0.74000007 7.1031357e-39
0.031799998 0.033213325 0.74200004 8.7644311e-39
0.033213336 0.03321334 0.74200004 1.0331377e-38
0.03462667 0.033213332 0.74200004 1.2172753e-38
0.036088578 0.03325808 0.74300003 1.4119629e-38
0.037604772 0.033347599 0.74500012 1.5778083e-38
0.039390482 0.033660963 0.75200003 1.7523676e-38
0.040877152 0.033705711 0.75300002 1.696836e-38
0.042423822 0.03379523 0.75500005 1.6508477e-38
0.043920014 0.033839986 0.7560001 1.6138637e-38
-0.033839993 0.035279974 0.7560001 4.1380232e-39
-0.032399993 0.035279982 0.7560001 3.5027123e-39
-0.030919043 0.035233334 0.75500005 3.3154568e-39
-0.029480953 0.035233334 0.75500005 3.0417551e-39
-0.027931431 0.035093337 0.75200003 2.5822301e-39
-0.026499037 0.035093322 0.75200003 2.1216051e-39
-0.025 0.034999996 0.75000006 1.5709397e-39
-0.023508566 0.034906663 0.74800003 9.2666606e-40
-0.022054285 0.034860007 0.74700004 1.2929403e-39
-0.020576177 0.034766659 0.74500012 1.5680656e-39
-0.019105712 0.034673311 0.74300003 1.5687606e-39
-0.017666662 0.034626663 0.74200004 1.5684285e-39
-0.016209519 0.034533322 0.74000001 1.5688125e-39
-0.01477999 0.034486651 0.73900008 1.5684748e-39
-0.013372375 0.034486666 0.73900002 1.5684944e-39
-0.011932364 0.034393333 0.73700005 1.4755841e-39
-0.010528562 0.034393333 0.73700005 1.0135382e-39
-0.0091247577 0.034393333 0.73700005 4.6289793e-40
-0.0077209538 0.034393348 0.73700005 2.7637109e-40
-0.0063342741 0.034486674 0.73900002 1.0351812e-40
-0.0046866597 0.032806657 0.70300001 9.245487e-41
-0.0033476134 0.032806665 0.70300001 1.1899686e-40
-0.0020028562 0.032713331 0.70100003 7.5179803e-40
-0.00066761539 0.032713324 0.70100003 1.3067066e-39
0.00066761993 0.032713339 0.70100003 2.5733417e-39
0.0020028553 0.032713324 0.70100003 3.8665482e-39
0.0033380971 0.032713331 0.70100003 3.6911042e-39
0.0046666623 0.032666668 0.70000005 3.407707e-39
0.0060000033 0.032666661 0.70000005 2.3932132e-39
0.0073333341 0.032666661 0.70000005 1.381578e-39
0.0086666746 0.032666661 0.70000005 9.2095577e-40
0.010014294 0.032713316 0.70100009 4.6285729e-40
0.011333339 0.032666668 0.70000005 4.617839e-40
0.013245719 0.034159996 0.73200005 4.6321602e-40
0.014680011 0.034253307 0.73400009 7.3979731e-40
0.016078101 0.034253329 0.73400003 9.2384105e-40
0.017476207 0.034253314 0.73400009 1.6581803e-39
0.018925712 0.034346662 0.73600006 2.2995854e-39
0.02032762 0.034346655 0.73600006 1.5645343e-39
0.02172952 0.034346677 0.736 8.3090973e-40
0.023162868 0.034393333 0.73700005 4.6390967e-40
0.024566669 0.034393333 0.73700005 9.8054459e-41
0.025970489 0.034393333 0.73700005 4.4262128e-39
0.027448591 0.034486659 0.73900008 8.7611632e-39
0.028895246 0.034533329 0.74000001 7.9379004e-39
0.030386664 0.034626678 0.74200004 7.0141672e-39
0.031799994 0.03462667 0.74200004 8.7672953e-39
0.033213332 0.034626663 0.74200004 1.0514328e-38
0.034673348 0.034673333 0.74300003 1.1889356e-38
0.036088586 0.034673326 0.74300003 1.3286655e-38
0.03785716 0.034999996 0.75000012 1.5135241e-38
0.039390482 0.035093337 0.75200003 1.6877956e-38
0.040877149 0.03514 0.75300002 1.6230437e-38
0.042423837 0.035233319 0.75500011 1.5585448e-38
0.043920014 0.035279982 0.7560001 1.4571681e-38
-0.034019046 0.036914274 0.76000005 6.1806889e-39
-0.032485712 0.036817133 0.75800002 6.08991e-39
-0.031041909 0.036817141 0.75799996 4.5200774e-39
-0.029520001 0.036719985 0.75600004 2.8616757e-39
-0.028042849 0.036671422 0.75500005 2.6740754e-39
-0.026534295 0.036574274 0.75300002 2.394969e-39
-0.025066661 0.036525711 0.75200003 1.8446595e-39
-0.023571417 0.036428571 0.75000006 1.2932864e-39
-0.022083804 0.03633143 0.74800003 1.2925661e-39
-0.020631431 0.036282852 0.74700004 1.3833002e-39
-0.019157141 0.036185697 0.74500006 1.3832736e-39
-0.01769047 0.036088549 0.74300003 1.4751441e-39
-0.01625333 0.036039986 0.74200004 1.4766141e-39
-0.014799994 0.035942845 0.74000007 1.5688335e-39
-0.013390479 0.035942852 0.74000001 1.2937096e-39
-0.011964758 0.035894282 0.73900002 1.0182101e-39
-0.010557144 0.03589429 0.73900002 9.2387047e-40
-0.0091495141 0.035894305 0.73900002 9.2064328e-40
-0.0077418871 0.035894282 0.73900008 7.3697229e-40
-0.0063342722 0.03589429 0.73900002 6.4335714e-40
-0.0046866597 0.034145705 0.70300007 5.5261186e-40
-0.0033476134 0.034145713 0.70300007 4.5969316e-40
-0.0019999971 0.033999987 0.70000005 9.2567955e-40
-0.00066666264 0.033999979 0.70000005 1.2862168e-39
0.00066761806 0.034048572 0.70100003 2.5805346e-39
0.00200286 0.034048557 0.70100003 3.8744571e-39
0.0033333334 0.034000002 0.70000005 3.5063711e-39
0.0046666744 0.033999979 0.70000005 3.1347201e-39
0.0060000052 0.033999979 0.70000005 2.3950083e-39
0.0073333387 0.033999979 0.70000005 1.6567271e-39
0.008666669 0.033999994 0.70000005 1.1975385e-39
0.01000001 0.033999987 0.70000005 7.3908825e-40
0.011349533 0.034048565 0.70100009 5.5506693e-40
0.012684766 0.034048572 0.70100009 3.7138753e-40
0.014020009 0.034048565 0.70100003 5.5576758e-40
0.0160781 0.035651423 0.73400003 8.3164121e-40
0.017476197 0.035651408 0.73400009 1.1982741e-39
0.018925708 0.035748571 0.73600006 1.5648903e-39
0.020327616 0.035748556 0.73600006 1.105703e-39
0.021729516 0.035748579 0.736 6.4794359e-40
0.023131426 0.035748571 0.73600006 3.7062523e-40
0.024566671 0.035797149 0.73700005 9.2666466e-41
0.025970483 0.035797149 0.73699999 4.5198406e-39
0.02744858 0.035894282 0.73900002 8.9530851e-39
0.028895251 0.035942845 0.74000007 8.0279422e-39
0.030386679 0.036039993 0.74200004 7.186356e-39
0.031799991 0.036040001 0.74199998 9.0406424e-39
0.033213332 0.036039993 0.74199998 1.0976731e-38
0.034673352 0.036088571 0.74300003 1.2356067e-38
0.036331438 0.036331423 0.74800003 1.3746913e-38
0.037857156 0.036428556 0.75000012 1.5590838e-38
0.039390489 0.036525719 0.75200003 1.7427892e-38
0.040877145 0.036574282 0.75300002 1.6782874e-38
0.042423826 0.036671408 0.75500005 1.6225414e-38
0.044036206 0.036817141 0.75800002 1.5492174e-38
-0.034019046 0.0383619 0.76000005 8.2133158e-39
-0.032571435 0.038361896 0.76000005 8.6659996e-39
-0.031041918 0.038260952 0.75799996 5.7211303e-39
-0.029519994 0.038159981 0.7560001 2.6780061e-39
-0.028042845 0.038109515 0.75500005 2.6737055e-39
-0.026534289 0.038008567 0.75300002 2.6719062e-39
-0.02506667 0.037958093 0.75200003 2.1198114e-39
-0.023571419 0.037857145 0.75000006 1.5687943e-39
-0.022083798 0.037756186 0.74800003 1.3847617e-39
-0.020631423 0.037705697 0.74700004 1.1081594e-39
-0.019157143 0.037604734 0.74500012 1.1981817e-39
-0.017690465 0.037503801 0.74300003 1.2925577e-39
-0.01627524 0.037503801 0.74300003 1.4769756e-39
-0.014799993 0.037352368 0.74000001 1.5691922e-39
-0.013372368 0.037301905 0.73900002 1.1111134e-39
-0.011964743 0.037301905 0.73900008 5.5938714e-40
-0.010557127 0.037301905 0.73900002 9.2637459e-40
-0.0091495123 0.037301905 0.73900002 1.2912069e-39
-0.0077418964 0.037301898 0.73900002 1.2904922e-39
-0.0060085705 0.035383798 0.70100003 1.1979532e-39
-0.0046733287 0.035383806 0.70100003 1.014655e-39
-0.0033380943 0.035383806 0.70100003 8.331392e-40
-0.0020000017 0.03533332 0.70000005 1.1129533e-39
-0.00066666078 0.035333313 0.70000005 1.295911e-39
0.00066666998 0.035333328 0.70000005 2.5880707e-39
0.0020000027 0.035333313 0.70000005 3.7826244e-39
0.0033333334 0.035333313 0.70000005 3.3252154e-39
0.0046666744 0.03533332 0.70000005 2.7677382e-39
0.0059999977 0.03533332 0.70000005 2.3957271e-39
0.0073333387 0.03533332 0.70000005 1.9329469e-39
0.008666669 0.03533332 0.70000005 1.4730379e-39
0.010000003 0.035333313 0.70000005 9.2273962e-40
0.011333333 0.035333328 0.70000005 6.4722893e-40
0.013245724 0.036948554 0.73200005 2.7989676e-40
0.014720004 0.037150472 0.73600006 4.6429502e-40
0.016121905 0.03715048 0.73600006 6.4798003e-40
0.017523814 0.037150472 0.73600006 7.3875334e-40
0.018925708 0.037150472 0.73600006 8.3021749e-40
0.020327624 0.03715048 0.73600006 6.4545909e-40
0.021759059 0.037200958 0.73700005 3.7101479e-40
0.023162872 0.03720095 0.73700005 2.7737162e-40
0.024566673 0.037200958 0.73700005 9.6265001e-41
0.026040969 0.037301898 0.73900008 4.6066608e-39
0.027485732 0.037352353 0.74000007 9.0384648e-39
0.028895248 0.037352376 0.74000001 8.2173515e-39
0.030386675 0.037453324 0.74200004 7.2907401e-39
0.031799998 0.037453324 0.74200004 9.3236711e-39
0.033258114 0.037503794 0.74300003 1.1342994e-38
0.034673341 0.037503798 0.74300003 1.2719111e-38
0.036331445 0.037756186 0.74800003 1.4114266e-38
0.037857153 0.037857149 0.75000006 1.6052541e-38
0.039390489 0.037958093 0.75200003 1.789031e-38
0.040877149 0.038008563 0.75300002 1.7430757e-38
0.042480018 0.038159989 0.7560001 1.6876157e-38
0.044036191 0.038260952 0.75800002 1.6416263e-38
0.045600012 0.038361892 0.76000011 1.5953856e-38
-0.034063812 0.039861906 0.76100004 7.5672864e-39
-0.03257142 0.03980951 0.76000005 7.6601476e-39
-0.03112381 0.03980951 0.76000005 5.254795e-39
-0.029598098 0.039704762 0.75800002 2.9445471e-39
-0.028042851 0.039547615 0.75500005 2.6718992e-39
-0.026534297 0.039442852 0.75300002 2.4885898e-39
-0.025066661 0.039390486 0.75200003 2.0290564e-39
-0.023571419 0.039285712 0.75000006 1.5695145e-39
-0.022083795 0.039180953 0.74800003 1.2014495e-39
-0.020631429 0.039128575 0.74700004 9.2557165e-40
-0.019208569 0.039128579 0.74700004 1.2010655e-39
-0.017690472 0.038919039 0.74300003 1.5705837e-39
-0.016275235 0.038919047 0.74300003 2.1201842e-39
-0.014840002 0.038866676 0.74200004 2.579024e-39
-0.013390479 0.038761899 0.74000001 1.7528842e-39
-0.01196475 0.038709532 0.73900002 8.3417196e-40
-0.010557125 0.038709518 0.73900008 1.1093197e-39
-0.0091495104 0.038709518 0.73900008 1.2919187e-39
-0.0077418946 0.038709514 0.73900002 1.2915628e-39
-0.0063342797 0.038709518 0.73900002 1.3844885e-39
-0.0046733306 0.036719047 0.70100003 1.2019077e-39
-0.0033380878 0.036719047 0.70100003 1.1125959e-39
-0.0019942825 0.036561899 0.69800001 1.480668e-39
-0.00066666544 0.036666654 0.70000005 1.8494449e-39
0.00066666532 0.036666669 0.70000005 2.6777566e-39
0.0020000064 0.036666654 0.70000005 3.5064047e-39
0.0033333371 0.036666669 0.70000005 3.1379613e-39
0.0046666707 0.036666662 0.70000005 2.7663061e-39
0.0060000014 0.036666647 0.70000005 2.2109799e-39
0.007333335 0.036666662 0.70000005 1.7474794e-39
0.0086666644 0.036666662 0.70000005 1.3811954e-39
0.010000005 0.036666662 0.70000005 1.0145555e-39
0.011333336 0.036666662 0.70000005 7.390322e-40
0.01266667 0.036666647 0.70000005 4.6355374e-40
0.014719999 0.038552374 0.73600006 5.5613472e-40
0.016121902 0.038552377 0.73600006 7.4090153e-40
0.01752381 0.03855237 0.73600006 1.0157102e-39
0.018925712 0.038552381 0.736 1.1975721e-39
0.020355251 0.038604759 0.73700005 7.3873793e-40
0.021759059 0.038604766 0.73700005 2.802681e-40
0.023162864 0.03860477 0.73700005 1.862704e-40
0.024633348 0.038709521 0.73900002 9.2330155e-41
0.026040962 0.038709536 0.73900002 4.7031654e-39
0.027485725 0.038761888 0.74000001 9.2332593e-39
0.02897333 0.038866676 0.74200004 8.214839e-39
0.030427637 0.038919028 0.74300003 7.2817648e-39
0.031842858 0.038919032 0.74300003 9.3164838e-39
0.03325811 0.038919039 0.74300003 1.1341916e-38
0.034766681 0.039023798 0.74500012 1.2818846e-38
0.036331445 0.039180957 0.74800003 1.4398033e-38
0.037857153 0.039285716 0.75000006 1.5962154e-38
0.039390489 0.039390482 0.75200003 1.7527644e-38
0.040985733 0.039547615 0.75500011 1.7062709e-38
0.042760983 0.039861895 0.7610001 1.6604958e-38
0.044152383 0.03980951 0.76000005 1.6417691e-38
0.045600008 0.039809529 0.76000005 1.6326215e-38
-0.03415332 0.041419987 0.76300001 7.0101651e-39
-0.032614265 0.041311413 0.7610001 6.5473499e-39
-0.0311238 0.041257117 0.76000011 4.8766826e-39
-0.029598095 0.041148569 0.75800002 3.2218304e-39
-0.027968571 0.040877126 0.75300002 2.764427e-39
-0.026534291 0.040877137 0.75300002 2.2134238e-39
-0.025066663 0.040822875 0.75199997 1.9379285e-39
-0.023571417 0.04071429 0.75000006 1.5698565e-39
-0.022142852 0.04071429 0.75000012 1.1088727e-39
-0.020659043 0.04060572 0.74800003 6.5040568e-40
-0.019208563 0.04055142 0.74700004 1.2936045e-39
-0.017738095 0.040442854 0.74500006 1.8442867e-39
-0.016275233 0.040334277 0.74300003 2.7619523e-39
-0.014840008 0.040280007 0.74199998 3.5892172e-39
-0.013390467 0.040171422 0.74000007 2.3946677e-39
-0.01198094 0.040171415 0.74000007 1.1089666e-39
-0.010557135 0.040117141 0.73900002 1.2004405e-39
-0.0091495188 0.040117145 0.73900002 1.2919173e-39
-0.0077418936 0.040117126 0.73900008 1.3833941e-39
-0.0059999996 0.038000003 0.70000005 1.4763184e-39
-0.0046666688 0.038000003 0.70000005 1.3870066e-39
-0.0033333278 0.037999988 0.70000005 1.2951837e-39
-0.0019914196 0.037837129 0.69700003 1.8472869e-39
-0.00066476181 0.037891448 0.69799995 2.3075406e-39
0.00066666718 0.038000003 0.70000005 2.7674355e-39
0.0020000008 0.037999991 0.70000005 3.1376264e-39
0.0033333306 0.037999991 0.70000005 2.9539344e-39
0.0046533332 0.03789144 0.69800001 2.7662991e-39
0.0059999949 0.037999995 0.70000005 2.1176941e-39
0.0073333359 0.037999995 0.70000005 1.473761e-39
0.0086666662 0.037999995 0.70000005 1.2890054e-39
0.010000007 0.037999988 0.70000005 1.1060393e-39
0.011333331 0.038000003 0.70000005 8.3016144e-40
0.012666672 0.037999991 0.70000005 5.5539344e-40
0.014719999 0.039954282 0.73600006 7.3980151e-40
0.016121898 0.039954279 0.73600006 8.3308595e-40
0.01752381 0.039954279 0.73600006 1.2015181e-39
0.018925708 0.039954297 0.736 1.5666951e-39
0.020355251 0.040008575 0.73700005 8.3128108e-40
0.021759061 0.040008571 0.73700005 9.587544e-41
0.023162864 0.040008571 0.73700005 9.4436306e-41
0.024633348 0.040117141 0.73900008 9.5917479e-41
0.026040969 0.040117152 0.73900002 4.7878249e-39
0.027485728 0.040171418 0.74000007 9.4079648e-39
0.028973334 0.040280007 0.74200004 8.3102688e-39
0.030427627 0.040334273 0.74300003 7.1971081e-39
0.03192858 0.040442843 0.74500006 9.2268007e-39
0.033258107 0.040334269 0.74300003 1.1250079e-38
0.034906682 0.04060572 0.74800003 1.2907451e-38
0.036331438 0.040605716 0.74800003 1.4575596e-38
0.037857153 0.040714283 0.75000006 1.5869583e-38
0.039390478 0.040822864 0.75199997 1.7061641e-38
0.041040018 0.041039981 0.7560001 1.6687831e-38
0.042704768 0.041257143 0.76000005 1.6231872e-38
0.04415239 0.041257139 0.76000005 1.6414458e-38
0.045600008 0.041257132 0.76000005 1.6601001e-38
-0.034153327 0.042873345 0.76300001 5.1705755e-39
-0.032614283 0.04276095 0.76100004 5.1730376e-39
-0.031164743 0.042760953 0.7610001 3.9619066e-39
-0.029598104 0.042592369 0.75800002 2.7612012e-39
-0.028042838 0.042423807 0.75500011 2.4874589e-39
-0.026534287 0.042311426 0.75300002 2.2137657e-39
-0.02506667 0.042255245 0.75199997 1.8457245e-39
-0.023571419 0.042142857 0.75000006 1.5705571e-39
-0.02214285 0.042142849 0.75000012 1.2935961e-39
-0.020659041 0.042030476 0.74800003 1.017728e-39
-0.019208582 0.041974284 0.74700004 1.292873e-39
-0.017738082 0.041861884 0.74500006 1.6595311e-39
-0.016275227 0.0417495 0.74300003 2.2116526e-39
-0.014840002 0.041693322 0.74200004 2.7641369e-39
-0.013426663 0.041693326 0.74200004 1.9365763e-39
-0.011980953 0.041580949 0.74000001 1.1086149e-39
-0.010557133 0.041524753 0.73900002 9.2493546e-40
-0.0091495179 0.041524772 0.73900002 8.3309716e-40
-0.007741903 0.041524768 0.73900002 1.0160465e-39
-0.0059999977 0.039333321 0.70000005 1.2915642e-39
-0.004666667 0.039333321 0.70000005 1.2011748e-39
-0.0033333325 0.039333321 0.70000005 1.1097121e-39
-0.0019942862 0.039220974 0.69799995 1.662174e-39
-0.00066475809 0.039220959 0.69800001 2.2142646e-39
0.00066476263 0.039220951 0.69799995 2.7677887e-39
0.0019942899 0.039220951 0.69800001 3.4138489e-39
0.0033333325 0.039333336 0.70000005 3.320919e-39
0.004653336 0.039220974 0.69799995 3.2265458e-39
0.0059999968 0.039333336 0.70000005 2.4886066e-39
0.0073333378 0.039333314 0.70000005 1.7510556e-39
0.0086666625 0.039333329 0.70000005 1.3819213e-39
0.010000004 0.039333317 0.70000005 1.0152884e-39
0.011333334 0.039333332 0.70000005 8.3160758e-40
0.012666668 0.039333329 0.70000005 6.4759047e-40
0.014720003 0.041356191 0.73600006 7.3979731e-40
0.016143817 0.041412391 0.73700005 8.3343487e-40
0.017547628 0.041412383 0.73700005 1.1093071e-39
0.018951431 0.041412394 0.73699999 1.383729e-39
0.020355254 0.041412391 0.73700005 9.234655e-40
0.021759063 0.041412387 0.73700005 4.6357195e-40
0.02322573 0.041524768 0.73900002 2.7846603e-40
0.024633344 0.041524764 0.73900002 9.2328753e-41
0.026076199 0.041580942 0.74000001 4.6127607e-39
0.027485715 0.041580953 0.74000001 9.0553336e-39
0.028973337 0.041693322 0.74200004 7.2032276e-39
0.030427631 0.041749518 0.74300003 5.3471279e-39
0.03192858 0.041861884 0.74500006 8.2097943e-39
0.033437148 0.04197428 0.74700004 1.1065332e-38
0.034906685 0.042030472 0.74800003 1.2725214e-38
0.036428582 0.042142861 0.75000006 1.4392274e-38
0.037958112 0.042255245 0.75200003 1.5589754e-38
0.03944286 0.042311415 0.75300002 1.6783254e-38
0.041040011 0.042479977 0.7560001 1.6321921e-38
0.042704772 0.042704746 0.76000005 1.595421e-38
0.04415239 0.042704742 0.76000005 1.6138588e-38
0.045660026 0.04276095 0.7610001 1.632585e-38
-0.034242861 0.044442847 0.7650001 3.3277167e-39
-0.032699998 0.044326667 0.76300001 3.6885735e-39
-0.031123813 0.044152364 0.76000005 3.0367301e-39
-0.029676188 0.044152364 0.76000005 2.3027524e-39
-0.028154282 0.044036184 0.75800002 2.2109071e-39
-0.026639998 0.043919984 0.75600004 2.11981e-39
-0.025066664 0.043687623 0.75200003 1.8446847e-39
-0.023571407 0.04357142 0.75000012 1.5691544e-39
-0.022142852 0.043571416 0.75000012 1.4772951e-39
-0.020659033 0.043455239 0.74800003 1.2925423e-39
-0.019208575 0.043397129 0.74700004 1.3836561e-39
-0.017738082 0.043280944 0.74500012 1.4762315e-39
-0.016275235 0.043164745 0.74300003 1.7521205e-39
-0.014859997 0.043164752 0.74300003 1.9368958e-39
-0.013426668 0.043106668 0.74200004 1.5699419e-39
-0.011980941 0.042990461 0.74000007 1.1089694e-39
-0.010557132 0.042932373 0.73900008 7.4126867e-40
-0.009149516 0.042932384 0.73900008 2.8137092e-40
-0.0077419011 0.042932376 0.73900002 7.3982814e-40
-0.0060000024 0.040666655 0.70000005 1.1075387e-39
-0.0046666614 0.040666666 0.70000005 1.0164304e-39
-0.0033333316 0.040666666 0.70000005 8.3313079e-40
-0.0019914205 0.040492378 0.69700003 1.4770681e-39
-0.00066476368 0.040550485 0.69799995 2.1220745e-39
0.00066476635 0.04055047 0.69800001 2.8592752e-39
0.0019942853 0.040550485 0.69800001 3.5964479e-39
0.0033238125 0.040550485 0.69799995 3.5975017e-39
0.0046533397 0.040550485 0.69800001 3.5953311e-39
0.0060000108 0.040666658 0.70000005 2.7669997e-39
0.0073333341 0.040666658 0.70000005 1.9343734e-39
0.0086666746 0.040666662 0.70000005 1.4719589e-39
0.010000005 0.040666662 0.70000005 9.2308995e-40
0.011333339 0.040666647 0.70000005 8.3267957e-40
0.013336196 0.042816196 0.73700005 7.3942316e-40
0.014740008 0.042816199 0.73700005 7.3836238e-40
0.016143819 0.042816192 0.73700005 7.4052038e-40
0.01754763 0.042816196 0.73700005 9.267081e-40
0.018951431 0.042816188 0.73699999 1.1082239e-39
0.020410491 0.04293238 0.73900002 9.2275644e-40
0.021759065 0.042816188 0.73700005 7.3872251e-40
0.023225732 0.042932384 0.73900008 4.6321322e-40
0.024633348 0.042932376 0.73900002 9.6990873e-41
0.026076203 0.042990465 0.74000007 4.4233471e-39
0.027485728 0.042990457 0.74000007 8.6714885e-39
0.028973341 0.04310666 0.74200004 6.0997681e-39
0.030427633 0.043164749 0.74300003 3.432957e-39
0.031928577 0.043280941 0.74500012 7.2003704e-39
0.033437144 0.043397151 0.74700004 1.0885265e-38
0.035000019 0.043571413 0.75000012 1.253543e-38
0.036428582 0.043571431 0.75000006 1.411318e-38
0.037958104 0.043687619 0.75200003 1.5313185e-38
0.039442867 0.043745708 0.75300002 1.6415909e-38
0.041040011 0.043919988 0.75600004 1.6045679e-38
0.042704776 0.044152375 0.76000011 1.5677265e-38
0.04415239 0.044152372 0.76000011 1.5859506e-38
0.045660011 0.044210471 0.76100004 1.595708e-38
-0.034242846 0.045899987 0.7650001 1.8475364e-39
-0.032699995 0.045780003 0.76300001 2.0229509e-39
-0.031123802 0.045599982 0.76000011 2.1183681e-39
-0.02967619 0.045599997 0.76000011 2.1201702e-39
-0.028154295 0.045479994 0.75800002 2.1198185e-39
-0.026639991 0.045359984 0.7560001 2.0265733e-39
-0.02510001 0.045179997 0.75300002 1.751092e-39
-0.023634288 0.045120012 0.75199997 1.4751987e-39
-0.02214285 0.045000006 0.75000006 1.2003803e-39
-0.020659041 0.04488001 0.74800003 1.0156275e-39
-0.019208578 0.044819992 0.74700004 1.2918444e-39
-0.017738085 0.044699982 0.74500012 1.6602752e-39
-0.016275229 0.044579983 0.74300003 2.2113008e-39
-0.014860006 0.04457999 0.74300003 2.7634124e-39
-0.013426674 0.044519998 0.74200004 2.11915e-39
-0.012013336 0.044519998 0.74200004 1.5674266e-39
-0.010571426 0.044399988 0.74000001 1.107896e-39
-0.0091618998 0.044399984 0.74000007 7.3983514e-40
-0.0073438049 0.042059984 0.70100009 1.3823235e-39
-0.0060000014 0.041999992 0.70000005 2.1166571e-39
-0.0046666604 0.041999981 0.70000005 1.5670861e-39
-0.0033333371 0.041999996 0.70000005 1.1064863e-39
-0.0019914196 0.041819997 0.69700003 1.3845151e-39
-0.00066475809 0.041879997 0.69800001 1.753662e-39
0.00066476915 0.041880012 0.69800001 2.4912256e-39
0.0019942871 0.041880012 0.69799995 3.320947e-39
0.0033238162 0.041880012 0.69800001 3.6889785e-39
0.004653336 0.041880012 0.69799995 4.0552344e-39
0.0060000052 0.041999996 0.70000005 2.9470988e-39
0.0073333359 0.042000003 0.70000005 1.8385975e-39
0.008666669 0.041999981 0.70000005 1.3811954e-39
0.0099999988 0.041999996 0.70000005 9.2308575e-40
0.011300956 0.041880008 0.69800001 8.3088171e-40
0.013336204 0.044220001 0.73700005 7.3870429e-40
0.014740007 0.044220008 0.73700005 8.305552e-40
0.016143821 0.044220008 0.73700005 9.2275364e-40
0.01754763 0.044220004 0.73700005 1.0163856e-39
0.018951433 0.044220008 0.73700005 1.1082253e-39
0.020410493 0.04434 0.73900008 9.2276485e-40
0.021818107 0.044340011 0.73900002 7.3800925e-40
0.023225723 0.044340007 0.73900002 3.6994139e-40
0.024633355 0.04434 0.73900008 9.2324549e-41
0.026076198 0.044399992 0.74000001 5.1587444e-39
0.027559996 0.044519987 0.74200004 1.0332418e-38
0.029012393 0.044579983 0.74300003 1.0430746e-38
0.030427631 0.044579986 0.74300003 1.0512208e-38
0.031928577 0.044699997 0.74500012 1.1809772e-38
0.033481926 0.044880006 0.74800003 1.3198748e-38
0.035000011 0.045000002 0.75000012 1.5579618e-38
0.036525726 0.045120005 0.75200003 1.7884533e-38
0.038008574 0.045179993 0.75300002 1.8901598e-38
0.039547637 0.045299992 0.75500005 1.9909602e-38
0.041148577 0.045479991 0.75800002 1.8440199e-38
0.042704768 0.04559999 0.76000005 1.6961883e-38
0.044152386 0.045599982 0.76000005 1.6504877e-38
0.045660019 0.045659997 0.76100004 1.6143269e-38
-0.034242846 0.047357135 0.7650001 4.6891791e-40
-0.032699995 0.047233332 0.76300001 3.7456708e-40
-0.031164752 0.047109522 0.76100004 1.2014425e-39
-0.029676188 0.047047604 0.76000005 1.9372096e-39
-0.028154287 0.046923798 0.75800002 1.9372167e-39
-0.026639992 0.04679998 0.7560001 1.9354398e-39
-0.025166657 0.046738096 0.75500005 1.6581551e-39
-0.023634279 0.04655239 0.75199997 1.2915067e-39
-0.022201901 0.046552382 0.75200003 1.0163352e-39
-0.020714268 0.046428565 0.75000012 6.4862463e-40
-0.019234277 0.046304759 0.74800003 1.1999851e-39
-0.017738096 0.046119049 0.74500006 1.7506576e-39
-0.016319048 0.046119042 0.74500006 2.668672e-39
-0.01486 0.045995235 0.74300003 3.5874039e-39
-0.013444751 0.045995228 0.74300003 2.7598265e-39
-0.01201334 0.045933343 0.74200004 1.9340385e-39
-0.010600002 0.045933336 0.74200004 1.5659945e-39
-0.0091866786 0.045933332 0.74200004 1.1061009e-39
-0.0073438063 0.043395236 0.70100009 2.1162914e-39
-0.006008565 0.043395229 0.70100003 3.1279196e-39
-0.0046733306 0.04339524 0.70100009 2.2117184e-39
-0.0033333343 0.043333337 0.70000005 1.2919411e-39
-0.0019942825 0.04320953 0.69800001 1.2919537e-39
-0.00066667009 0.043333322 0.70000005 1.2937544e-39
0.00066667091 0.043333326 0.70000005 2.2142688e-39
0.0020000017 0.043333326 0.70000005 3.0447175e-39
0.0033333353 0.043333329 0.70000005 3.7818944e-39
0.0046533276 0.043209542 0.69799995 4.5129784e-39
0.006000007 0.043333314 0.70000005 3.1268238e-39
0.0073333294 0.043333329 0.70000005 1.657439e-39
0.0086666699 0.043333314 0.70000005 1.2911578e-39
0.010000001 0.043333337 0.70000005 8.3090273e-40
0.011300949 0.043209534 0.69799995 7.3691203e-40
0.013318086 0.045561902 0.736 6.4651847e-40
0.01474001 0.045623809 0.73700005 8.3091394e-40
0.016143821 0.045623813 0.73700005 1.0149521e-39
0.017547626 0.045623828 0.73700005 1.107512e-39
0.018951435 0.045623824 0.73700005 1.1071505e-39
0.020410497 0.045747615 0.73900008 9.2204318e-40
0.021818109 0.045747615 0.73900008 6.4616955e-40
0.023225732 0.045747619 0.73900002 3.7029592e-40
0.024633348 0.045747623 0.73900002 9.3044817e-41
0.026146661 0.045933336 0.74200004 5.9698482e-39
0.027559992 0.045933336 0.74200004 1.1896525e-38
0.029012391 0.045995232 0.74300003 1.4777923e-38
0.03050953 0.046119045 0.74500006 1.7515775e-38
0.031928584 0.046119034 0.74500012 1.651169e-38
0.033481915 0.046304766 0.74800003 1.5492162e-38
0.035000011 0.046428569 0.75000006 1.8607383e-38
0.036525723 0.046552379 0.75200003 2.1658431e-38
0.038008578 0.046614289 0.75300002 2.2591166e-38
0.039547645 0.046738092 0.75500011 2.3411928e-38
0.041148577 0.046923809 0.75800002 2.0844104e-38
0.042704768 0.047047615 0.76000005 1.8166161e-38
0.04415239 0.047047611 0.76000005 1.7238475e-38
0.045780018 0.047233332 0.76300001 1.6232944e-38
-0.03424285 0.048814282 0.7650001 6.5257769e-40
-0.032700002 0.048686665 0.76300001 9.2736531e-40
-0.031246651 0.048686661 0.76300001 1.3861827e-39
-0.029676188 0.048495237 0.76000005 1.9382788e-39
-0.028154284 0.048367623 0.75800002 1.9375684e-39
-0.026710469 0.04836762 0.75800002 1.935423e-39
-0.025166646 0.048176184 0.75500011 1.5673705e-39
-0.023665709 0.048048563 0.75300002 1.2918458e-39
-0.022201894 0.04798476 0.75200003 1.199632e-39
-0.02071427 0.047857132 0.75000012 1.0155883e-39
-0.019234285 0.047729522 0.74799997 1.4743916e-39
-0.017785717 0.047665711 0.74700004 1.8410399e-39
-0.016319036 0.047538079 0.74500012 2.3931515e-39
-0.0149 0.047538079 0.74500006 2.9438212e-39
-0.013444758 0.04741047 0.74300003 2.3938984e-39
-0.012029509 0.047410466 0.74300003 1.750715e-39
-0.010600007 0.047346666 0.74200004 1.2901265e-39
-0.0091866693 0.047346666 0.74199998 7.3660515e-40
-0.0073647513 0.044858091 0.70300001 1.5656385e-39
-0.0060085678 0.044730477 0.70100009 2.3939489e-39
-0.004673325 0.044730477 0.70100009 1.8429317e-39
-0.0033333316 0.044666655 0.70000005 1.2919313e-39
-0.0019942806 0.044539064 0.69800001 1.3837794e-39
-0.0006666673 0.044666659 0.70000005 1.4766953e-39
0.0006666737 0.044666663 0.70000005 2.3068063e-39
0.0019999952 0.044666663 0.70000005 3.1376236e-39
0.0033333362 0.044666655 0.70000005 3.5067508e-39
0.004666667 0.04466667 0.70000005 3.9655541e-39
0.0060000005 0.044666655 0.70000005 2.8566969e-39
0.0073333313 0.04466667 0.70000005 1.751071e-39
0.0086666718 0.044666659 0.70000005 1.2908033e-39
0.0099999951 0.044666652 0.70000005 9.2274943e-40
0.011300954 0.044539057 0.69800001 7.3836518e-40
0.0133362 0.047027618 0.73700005 5.5433405e-40
0.014740011 0.047027618 0.73700005 9.2274943e-40
0.016143821 0.04702761 0.73700005 1.2904628e-39
0.017547633 0.047027625 0.73700005 1.3826682e-39
0.018951437 0.047027621 0.73700005 1.5659721e-39
0.020410493 0.047155239 0.73900002 1.2897383e-39
0.021818109 0.047155239 0.73900002 1.0135059e-39
0.023225732 0.047155224 0.73900008 5.5288511e-40
0.024666686 0.047219027 0.74000007 9.2328753e-41
0.026146673 0.047346659 0.74200004 6.0839335e-39
0.027560003 0.047346655 0.74200004 1.2005971e-38
0.029012388 0.047410458 0.74300003 1.3113102e-38
0.030509537 0.047538079 0.74500012 1.4301927e-38
0.032014288 0.047665715 0.74700004 1.31902e-38
0.033481918 0.047729511 0.74800003 1.2181458e-38
0.035000011 0.047857136 0.75000006 1.6415589e-38
0.036525723 0.047984764 0.75200003 2.0662624e-38
0.038008574 0.048048567 0.75300002 2.203944e-38
0.039600007 0.048239984 0.75600004 2.3414461e-38
0.041148573 0.048367616 0.75800002 2.1576675e-38
0.042704772 0.048495218 0.76000011 1.9823521e-38
0.044152386 0.048495218 0.76000011 1.7977812e-38
0.045780018 0.048686668 0.76300001 1.6141459e-38
-0.03424285 0.050271422 0.7650001 8.3586893e-40
-0.032785714 0.050271429 0.76500005 1.3858127e-39
-0.031246662 0.050140012 0.76300001 1.6613262e-39
-0.029715221 0.050008569 0.76100004 1.8464405e-39
-0.028228562 0.049942855 0.76000005 1.8475265e-39
-0.026710479 0.049811419 0.75800002 1.8457343e-39
-0.025199994 0.04967998 0.75600004 1.5680782e-39
-0.023728564 0.04961428 0.75500005 1.292206e-39
-0.022231437 0.049482867 0.75300002 1.3825995e-39
-0.02071427 0.049285714 0.75000012 1.3825855e-39
-0.019285712 0.049285717 0.75000006 1.6573605e-39
-0.017785721 0.049088571 0.74699998 1.9335971e-39
-0.016319036 0.048957132 0.74500012 2.1183569e-39
-0.0149 0.048957139 0.74500006 2.3023866e-39
-0.013444752 0.048825704 0.74300003 1.9368397e-39
-0.012029518 0.048825707 0.74300003 1.5677391e-39
-0.01061428 0.048825711 0.74300003 1.0156864e-39
-0.0091990437 0.0488257 0.74300003 3.7141276e-40
-0.0077733351 0.048760012 0.74199998 1.0153472e-39
-0.0060085687 0.046065714 0.70100009 1.5666965e-39
-0.0046666688 0.046 0.70000005 1.4744813e-39
-0.0033238041 0.04586859 0.69800001 1.2908327e-39
-0.001999998 0.046000004 0.70000005 1.4741674e-39
-0.00066667382 0.046000004 0.70000005 1.5692385e-39
0.00066666718 0.045999989 0.70000005 2.3986362e-39
0.0019999971 0.045999996 0.70000005 3.1376236e-39
0.0033333306 0.045999981 0.70000005 3.2330464e-39
0.0046666614 0.045999996 0.70000005 3.3212735e-39
0.0060000024 0.045999993 0.70000005 2.5826239e-39
0.0073333331 0.045999993 0.70000005 1.8443414e-39
0.0086666681 0.045999996 0.70000005 1.3822814e-39
0.0099999988 0.045999996 0.70000005 9.2383264e-40
0.011300949 0.045868579 0.69799995 6.4797723e-40
0.013336201 0.04843143 0.73700005 3.7172945e-40
0.014740012 0.048431434 0.73700005 9.2307594e-40
0.016143823 0.048431426 0.73700005 1.473754e-39
0.017547626 0.048431426 0.73700005 1.7500004e-39
0.018951435 0.048431426 0.73700005 2.0251411e-39
0.020355247 0.048431441 0.73700005 1.6570747e-39
0.021818109 0.048562851 0.73900002 1.289011e-39
0.023319997 0.048759997 0.74200004 7.3584144e-40
0.024733327 0.048760008 0.74200004 9.8069873e-41
0.026146669 0.048760004 0.74200004 6.0839335e-39
0.027597146 0.048825711 0.74300003 1.2084155e-38
0.029090486 0.048957124 0.74500006 1.1549349e-38
0.030509541 0.048957117 0.74500012 1.0973539e-38
0.032014288 0.049088564 0.74700004 9.8574789e-39
0.033481918 0.049154285 0.74800003 8.7737945e-39
0.035000011 0.049285721 0.75000006 1.4210789e-38
0.036525715 0.049417153 0.75199997 1.9643089e-38
0.038109537 0.049614288 0.75500005 2.1580977e-38
0.039547637 0.049614288 0.75500005 2.3416254e-38
0.041148573 0.049811419 0.75800002 2.24075e-38
0.042592384 0.049811419 0.75800002 2.1381854e-38
0.044036195 0.04981143 0.75800002 1.8707835e-38
0.045900013 0.050271422 0.7650001 1.6048914e-38
-0.03424285 0.051728569 0.76500005 1.0162903e-39
-0.032785706 0.051728569 0.7650001 1.6598717e-39
-0.03124667 0.051593345 0.76300001 1.7531561e-39
-0.029715229 0.051458083 0.7610001 1.9379145e-39
-0.028228577 0.051390477 0.76000005 1.8468077e-39
-0.026780952 0.051390477 0.76000005 1.7556868e-39
-0.025199996 0.051119991 0.75600004 1.6616962e-39
-0.023728555 0.051052373 0.75500011 1.6609843e-39
-0.022231432 0.050917137 0.75300002 1.5666433e-39
-0.020769525 0.050849531 0.75200003 1.4740777e-39
-0.019337142 0.050849542 0.75199997 1.9332412e-39
-0.017785717 0.05051142 0.74700004 2.3927802e-39
-0.016362857 0.050511416 0.74700004 2.3013048e-39
-0.014900002 0.050376177 0.74500006 2.2108902e-39
-0.013480941 0.050376184 0.74500012 1.8446104e-39
-0.012029513 0.050240938 0.74300003 1.5677181e-39
-0.010614287 0.050240938 0.74300003 1.1986301e-39
-0.0091990381 0.050240945 0.74300003 9.2134673e-40
-0.0077838139 0.050240949 0.74300003 1.1983036e-39
-0.0063685649 0.050240938 0.74300003 1.474847e-39
-0.004666667 0.04733333 0.70000005 1.4740889e-39
-0.003333326 0.047333315 0.70000005 1.4737638e-39
-0.0020000027 0.047333322 0.70000005 1.29156e-39
-0.00066666171 0.047333322 0.70000005 1.1104113e-39
0.00066666998 0.047333322 0.70000005 2.1241989e-39
0.0020000036 0.047333326 0.70000005 3.2301779e-39
0.0033333343 0.047333326 0.70000005 3.5060488e-39
0.0046666753 0.047333315 0.70000005 3.6879023e-39
0.0059999987 0.04733333 0.70000005 2.7659348e-39
0.0073333397 0.047333322 0.70000005 1.7535821e-39
0.0086666699 0.047333337 0.70000005 1.384794e-39
0.0099714315 0.047198113 0.69799995 9.2599204e-40
0.011300961 0.047198102 0.69800001 7.4018407e-40
0.013336202 0.049835235 0.73700005 5.5539063e-40
0.014740014 0.049835246 0.73700005 9.2232624e-40
0.016143817 0.049835242 0.73700005 1.2889858e-39
0.01754763 0.049835242 0.73700005 1.4737666e-39
0.018951438 0.049835242 0.73700005 1.7492675e-39
0.020410486 0.049970474 0.73900002 1.3819199e-39
0.021818109 0.049970463 0.73900008 1.1064148e-39
0.023320001 0.050173342 0.74200004 5.5324945e-40
0.024733331 0.050173342 0.74200004 9.2331556e-41
0.026146661 0.050173335 0.74200004 5.7194613e-39
0.027597142 0.050240953 0.74300003 1.1257976e-38
0.029012386 0.050240945 0.74300003 9.9601254e-39
0.03050953 0.050376184 0.74500006 8.5523866e-39
0.032014284 0.050511423 0.74700004 8.744953e-39
0.033481929 0.050579049 0.74800003 8.9469992e-39
0.035000015 0.050714284 0.75000006 1.34689e-38
0.036574289 0.05091713 0.75300002 1.8076847e-38
0.038008571 0.050917145 0.75300002 1.8631835e-38
0.039547637 0.051052377 0.75500005 1.9190743e-38
0.041148577 0.051255241 0.75800002 1.8905911e-38
0.042704768 0.051390462 0.76000005 1.8619616e-38
0.04415239 0.051390462 0.76000005 1.7424652e-38
0.046080008 0.051931433 0.76800001 1.6326222e-38
-0.03424285 0.053185716 0.76500005 1.2007082e-39
-0.032785717 0.053185724 0.76500005 1.9350348e-39
-0.031246662 0.053046681 0.76299995 1.9368299e-39
-0.029715229 0.052907612 0.76100004 1.9372096e-39
-0.028265705 0.052907601 0.7610001 1.8461126e-39
-0.026780954 0.05283808 0.76000005 1.6631507e-39
-0.025266666 0.052699029 0.75800002 1.8457371e-39
-0.023759997 0.052559998 0.75600004 1.9354328e-39
-0.022290463 0.052490465 0.75500005 1.748906e-39
-0.020769518 0.052281916 0.75200003 1.4740973e-39
-0.019337149 0.052281916 0.75200003 2.1172849e-39
-0.017809514 0.052003801 0.74800003 2.7590572e-39
-0.016362861 0.051934291 0.74700004 2.4835521e-39
-0.014899989 0.051795229 0.74500012 2.1194303e-39
-0.013480942 0.051795222 0.74500012 1.8460692e-39
-0.012061906 0.051795226 0.74500006 1.4758896e-39
-0.010614282 0.051656183 0.74300003 1.4737694e-39
-0.0091990465 0.051656175 0.74300003 1.3819465e-39
-0.0077838078 0.051656175 0.74300003 1.3812417e-39
-0.0063685584 0.051656183 0.74300003 1.2901012e-39
-0.0046666642 0.048666656 0.70000005 1.4730323e-39
-0.0033333306 0.048666656 0.70000005 1.5673972e-39
-0.0019999999 0.048666656 0.70000005 1.1082393e-39
-0.00066761166 0.048736185 0.70100003 5.5975007e-40
0.00066762272 0.048736185 0.70100003 1.9415999e-39
0.0020000055 0.048666656 0.70000005 3.3205701e-39
0.0033333362 0.048666663 0.70000005 3.6893498e-39
0.0046666698 0.048666649 0.70000005 4.0534408e-39
0.0060000005 0.048666663 0.70000005 2.8563297e-39
0.0073123821 0.048527624 0.69800001 1.6613823e-39
0.0086419079 0.048527636 0.69799995 1.2929543e-39
0.009971438 0.048527628 0.69800001 9.245445e-40
0.011964778 0.051378082 0.73900008 8.3128248e-40
0.0133724 0.051378101 0.73900008 6.4722753e-40
0.014780016 0.051378101 0.73900002 9.21634e-40
0.016187631 0.051378101 0.73900002 1.106405e-39
0.017595258 0.051378086 0.73900008 1.2900998e-39
0.019002872 0.05137809 0.73900002 1.3830087e-39
0.02049334 0.051586658 0.74200004 1.106782e-39
0.021906668 0.051586665 0.74200004 8.3055801e-40
0.023319997 0.051586673 0.74199998 4.6178249e-40
0.024733327 0.051586673 0.74200004 9.9147472e-41
0.02618191 0.051656179 0.74300003 5.259558e-39
0.027671441 0.051795226 0.74500006 1.0416719e-38
0.029168572 0.051934283 0.74699998 8.2969929e-39
0.030591432 0.05193428 0.74700004 6.1650364e-39
0.032057159 0.052003805 0.74800003 7.6229151e-39
0.033571441 0.052142855 0.75000006 9.0413949e-39
0.035000011 0.052142859 0.75000006 1.2824997e-38
0.036574293 0.052351419 0.75300002 1.6508828e-38
0.038109545 0.052490473 0.75500005 1.5678728e-38
0.039600011 0.052559987 0.75600004 1.4857591e-38
0.041257154 0.052838095 0.76000005 1.5313541e-38
0.042704772 0.052838091 0.76000005 1.577235e-38
0.044152383 0.052838087 0.76000005 1.6136453e-38
0.046080008 0.053394288 0.76800001 1.6507387e-38
0.047542863 0.053394292 0.76800001 1.6785409e-38
-0.032785706 0.054642856 0.7650001 1.4737204e-39
-0.031246662 0.054500002 0.76300001 1.6591738e-39
-0.029715218 0.054357138 0.7610001 1.8435931e-39
-0.028265707 0.054357141 0.76100004 1.7542996e-39
-0.026780954 0.054285709 0.76000005 1.6646024e-39
-0.025266664 0.054142851 0.75800002 1.9372237e-39
-0.023759989 0.053999983 0.7560001 2.2105988e-39
-0.022290466 0.053928569 0.75500011 1.7503661e-39
-0.02076952 0.053714305 0.75199997 1.3829989e-39
-0.01933714 0.053714294 0.75200003 1.7488807e-39
-0.017809521 0.053428575 0.74800003 2.2059044e-39
-0.016362853 0.053357139 0.74700004 2.0251019e-39
-0.014899989 0.053214267 0.74500012 1.9364936e-39
-0.013480953 0.053214274 0.74500006 1.6617032e-39
-0.012061906 0.053214267 0.74500012 1.4755379e-39
-0.01061429 0.053071424 0.74300003 1.5673902e-39
-0.0091990409 0.053071417 0.74300003 1.6592341e-39
-0.0077838018 0.053071421 0.74300003 1.9343902e-39
-0.0063685668 0.053071409 0.74300003 2.2091751e-39
-0.0046666698 0.04999999 0.70000005 2.0276509e-39
-0.0033333288 0.049999993 0.70000005 1.9390496e-39
-0.001999998 0.049999993 0.70000005 1.5699181e-39
-0.00066761259 0.050071422 0.70100009 1.2015153e-39
0.00066762179 0.050071418 0.70100003 2.2149498e-39
0.0020000073 0.049999982 0.70000005 3.2269325e-39
0.0033333316 0.050000004 0.70000005 3.4116783e-39
0.0046666726 0.04999999 0.70000005 3.5917438e-39
0.0060000033 0.04999999 0.70000005 2.6722944e-39
0.0073333369 0.049999993 0.70000005 1.8443316e-39
0.0086419145 0.049857151 0.69800001 1.3840681e-39
0.0099714315 0.049857151 0.69800001 1.0149325e-39
0.011932383 0.052642867 0.73700005 8.3162019e-40
0.013372391 0.052785721 0.73900002 6.479478e-40
0.014780016 0.05278571 0.73900008 9.2273402e-40
0.016187632 0.05278571 0.73900002 1.2000482e-39
0.017619062 0.052857131 0.74000007 1.2004209e-39
0.019080004 0.053000003 0.74200004 1.2933326e-39
0.020493332 0.053000003 0.74200004 9.2419697e-40
0.021906663 0.052999996 0.74200004 6.4761429e-40
0.023351436 0.053071413 0.74300003 3.6995541e-40
0.02476668 0.053071409 0.74300003 9.2331556e-41
0.026181908 0.053071424 0.74300003 5.2573958e-39
0.027671445 0.053214282 0.74500012 1.0516058e-38
0.029168582 0.053357136 0.74700004 1.0322347e-38
0.030632393 0.053428575 0.74800003 1.0105726e-38
0.032057151 0.053428575 0.74800003 1.0131606e-38
0.033571444 0.053571437 0.75000006 1.0168222e-38
0.035093345 0.053714298 0.75199997 1.3566878e-38
0.036671437 0.053928573 0.75500005 1.6975538e-38
0.038109541 0.053928558 0.75500011 1.6508812e-38
0.039600007 0.053999983 0.75600004 1.6043538e-38
0.041257162 0.054285694 0.76000011 1.6231872e-38
0.042760968 0.054357145 0.76100004 1.6417702e-38
0.044210501 0.054357141 0.7610001 1.6691422e-38
0.046020009 0.054785714 0.76700002 1.6964776e-38
-0.032785706 0.056100003 0.7650001 9.2161018e-40
-0.03124667 0.055953339 0.76300001 1.2900214e-39
-0.029715236 0.055806663 0.76100004 1.6595396e-39
-0.028265698 0.055806655 0.76100004 1.6624332e-39
-0.026780944 0.055733312 0.76000011 1.6620759e-39
-0.025266659 0.055586658 0.75800002 2.0276256e-39
-0.023759991 0.05543999 0.7560001 2.3942586e-39
-0.022290464 0.055366665 0.75500005 1.8428967e-39
-0.020797152 0.055220012 0.75300002 1.2907893e-39
-0.019337133 0.055146676 0.75200003 1.4733672e-39
-0.017809518 0.054853339 0.74800003 1.5662775e-39
-0.016362857 0.054779999 0.74699998 1.658469e-39
-0.014899991 0.054633308 0.74500012 1.661343e-39
-0.013480955 0.054633323 0.74500006 1.5720215e-39
-0.012061893 0.054633319 0.74500012 1.4784091e-39
-0.010614284 0.054486666 0.74300003 1.753215e-39
-0.0091990503 0.054486662 0.74300003 1.9361727e-39
-0.0077838097 0.054486662 0.74300003 2.5790268e-39
-0.0063685607 0.054486655 0.74300003 3.1307628e-39
-0.0049533364 0.054486658 0.74300003 2.6730245e-39
-0.0033333334 0.051333323 0.70000005 2.2142057e-39
-0.0020000027 0.051333338 0.70000005 2.0301746e-39
-0.00066761539 0.051406659 0.70100003 1.75325e-39
0.00066762738 0.051406659 0.70100003 2.3982677e-39
0.0020000008 0.051333323 0.70000005 3.0432713e-39
0.0033333316 0.051333316 0.70000005 3.0465027e-39
0.0046666651 0.051333327 0.70000005 3.0421517e-39
0.0059999959 0.051333327 0.70000005 2.4878653e-39
0.0073333369 0.051333331 0.70000005 1.9350685e-39
0.0086666672 0.051333331 0.70000005 1.4751833e-39
0.010000001 0.051333316 0.70000005 1.0152898e-39
0.01198096 0.054266661 0.74000007 8.3162159e-40
0.013372392 0.054193333 0.73900002 5.5540044e-40
0.014800002 0.054266665 0.74000001 9.2095157e-40
0.016209528 0.054266658 0.74000001 1.2911788e-39
0.017619055 0.05426665 0.74000001 1.2018713e-39
0.019079998 0.054413334 0.74200004 1.10894e-39
0.020493336 0.05441333 0.74200004 7.4050356e-40
0.021906666 0.05441333 0.74200004 3.7137212e-40
0.023351436 0.054486658 0.74300003 2.7738703e-40
0.02476668 0.054486651 0.74300003 9.7358013e-41
0.026252391 0.054633327 0.74500006 5.3449489e-39
0.027671443 0.054633319 0.74500012 1.0516088e-38
0.029207636 0.054853331 0.74800003 1.2278553e-38
0.030714296 0.054999992 0.75000006 1.4005147e-38
0.032142866 0.055000007 0.75000012 1.2628708e-38
0.033660963 0.055146668 0.75200003 1.125623e-38
0.035140008 0.05522 0.75300002 1.438979e-38
0.036671448 0.055366654 0.75500011 1.7430398e-38
0.038160015 0.055439983 0.7560001 1.733748e-38
0.039600018 0.055439979 0.7560001 1.7152379e-38
0.041257147 0.055733338 0.76000005 1.7152744e-38
0.042760972 0.055806659 0.76100004 1.7061634e-38
0.04421049 0.055806663 0.76100004 1.7246032e-38
-0.032785706 0.057557136 0.7650001 6.4572254e-40
-0.031246666 0.057406675 0.76299995 1.1981676e-39
-0.029715225 0.057256188 0.76100004 1.7499163e-39
-0.028265713 0.057256196 0.76100004 1.6609675e-39
-0.026780954 0.057180949 0.76000005 1.4776734e-39
-0.025266668 0.057030458 0.75800002 1.7517618e-39
-0.023759993 0.056879986 0.75600004 2.0258306e-39
-0.022290453 0.056804754 0.75500011 1.5666489e-39
-0.020797146 0.056654286 0.75300002 1.1071043e-39
-0.01933714 0.056579053 0.75200003 1.2000061e-39
-0.017857131 0.056428563 0.75000006 1.3861855e-39
-0.016384751 0.056278095 0.74800003 1.4773007e-39
-0.014939995 0.056202844 0.74700004 1.6616976e-39
-0.013480942 0.056052364 0.74500006 1.2954402e-39
-0.012061895 0.056052357 0.74500012 1.0210267e-39
-0.010614282 0.055901885 0.74300003 1.4787847e-39
-0.0091990428 0.055901904 0.74300003 1.9368888e-39
-0.0077837934 0.055901896 0.74300003 2.3053083e-39
-0.0063685696 0.055901896 0.74300003 2.7662949e-39
-0.0049533206 0.055901889 0.74300003 2.3982495e-39
-0.003338085 0.052741893 0.70100009 2.1230961e-39
-0.0020028506 0.0527419 0.70100009 1.9372657e-39
-0.00066760887 0.052741896 0.70100009 1.8425786e-39
0.00066762458 0.052741885 0.70100003 2.120613e-39
0.002002859 0.0527419 0.70100003 2.4911906e-39
0.0033333362 0.052666649 0.70000005 2.5841093e-39
0.004666667 0.052666664 0.70000005 2.7666312e-39
0.006000008 0.052666649 0.70000005 2.211958e-39
0.0073333313 0.052666657 0.70000005 1.7485052e-39
0.0086666718 0.052666657 0.70000005 1.4741029e-39
0.010000003 0.052666657 0.70000005 1.1989608e-39
0.012013333 0.055826671 0.74200004 8.3126426e-40
0.013426671 0.055826671 0.74200004 4.6357055e-40
0.014840002 0.055826664 0.74200004 8.3056081e-40
0.016209537 0.055676177 0.74000007 1.1993559e-39
0.01766666 0.055826671 0.74199998 1.2919271e-39
0.019079993 0.055826668 0.74200004 1.3837262e-39
0.020493329 0.05582666 0.74200004 1.1067469e-39
0.021936197 0.0559019 0.74300003 7.3833575e-40
0.023351435 0.0559019 0.74300003 4.6104261e-40
0.024766678 0.055901892 0.74300003 9.2338562e-41
0.026252398 0.056052361 0.74500012 6.1797416e-39
0.027745716 0.056202862 0.74700004 1.2180278e-38
0.029207628 0.056278106 0.74800003 1.2647725e-38
0.030714305 0.05642857 0.75000012 1.30172e-38
0.032228585 0.056579057 0.75200003 1.1152489e-38
0.033705726 0.056654278 0.75300002 9.2153731e-39
0.035140011 0.056654274 0.75300002 1.3376708e-38
0.036671445 0.056804758 0.75500005 1.7528679e-38
0.038160011 0.056879994 0.75600004 1.7340703e-38
0.03970477 0.057030469 0.75799996 1.7157043e-38
0.04125715 0.057180934 0.76000005 1.7063066e-38
0.042760964 0.057256185 0.76100004 1.706236e-38
0.04421049 0.057256192 0.76100004 1.7063446e-38
-0.03278571 0.059014283 0.7650001 2.7912464e-40
-0.031328574 0.059014283 0.76500005 1.1067035e-39
-0.029793337 0.058860004 0.76300001 1.8428378e-39
-0.028265705 0.058705706 0.76100004 1.5702166e-39
-0.026780955 0.058628555 0.76000005 1.2940165e-39
-0.025266662 0.058474284 0.75800002 1.475919e-39
-0.023759997 0.058319997 0.75600004 1.5677405e-39
-0.022290466 0.05824285 0.75500005 1.1993097e-39
-0.020797143 0.058088563 0.75300002 8.3231944e-40
-0.019337144 0.058011442 0.75199997 1.017061e-39
-0.017857131 0.057857148 0.75000006 1.2010837e-39
-0.016384749 0.057702854 0.74800003 1.3858239e-39
-0.014939998 0.057625715 0.74700004 1.5695005e-39
-0.013480942 0.057471417 0.74500012 1.019212e-39
-0.012061906 0.057471421 0.74500006 4.6964798e-40
-0.010642859 0.057471417 0.74500012 1.2039886e-39
-0.0092237983 0.057471409 0.74500012 1.9386768e-39
-0.0077838022 0.057317123 0.74300003 2.1223534e-39
-0.0063685635 0.057317141 0.74300003 2.3060272e-39
-0.0049533281 0.057317134 0.74300003 2.1216415e-39
-0.0033476134 0.054231435 0.70300001 1.9379734e-39
-0.0020028534 0.054077134 0.70100009 1.9372601e-39
-0.00066761073 0.054077134 0.70100009 1.9351231e-39
0.00066762365 0.054077137 0.70100009 1.9337022e-39
0.0020028655 0.054077134 0.70100003 1.8458156e-39
0.0033333399 0.05399999 0.70000005 2.1238374e-39
0.0046666707 0.054000005 0.70000005 2.3978641e-39
0.0060000042 0.053999983 0.70000005 2.0279661e-39
0.007333335 0.053999998 0.70000005 1.5666545e-39
0.0086666755 0.053999986 0.70000005 1.4734037e-39
0.010014286 0.054077148 0.70100003 1.29009e-39
0.011349529 0.054077141 0.70100003 8.3126987e-40
