# .PCD v0.7 - Point Cloud Data file format
VERSION 0.7
FIELDS x y z rgb
SIZE 4 4 4 4
TYPE F F F F
COUNT 1 1 1 1
WIDTH 961
HEIGHT 1
VIEWPOINT 0 0 0 1 0 0 0
POINTS 961
DATA ascii
-0.0092485752 -0.00071145594 0.74700004 7.3727217e-40
-0.0078257108 -0.00071144104 0.74700004 9.2060124e-40
-0.0063857255 -0.00070954114 0.74500012 1.1039065e-39
-0.0049666734 -0.00070954114 0.74500006 8.2875173e-40
-0.0035380875 -0.00070763379 0.74300003 6.4544088e-40
-0.0021199868 -0.00070666522 0.74199998 6.4508214e-40
-0.00070475735 -0.00070476532 0.74000001 7.3656591e-40
0.00070478168 -0.00070477277 0.74000001 9.2024391e-40
0.0021114298 -0.00070381165 0.73900002 1.1957574e-39
0.0035190431 -0.00070382655 0.73900002 9.2133272e-40
0.0049266713 -0.00070381165 0.73900002 6.4582623e-40
0.0063342848 -0.0007038191 0.73900002 7.3730159e-40
0.0077418978 -0.00070382655 0.73900002 9.2025512e-40
0.0091495262 -0.0007038191 0.73900002 8.2985456e-40
0.01052857 -0.0007019192 0.73700011 8.3093075e-40
0.011964753 -0.00070381165 0.73900008 8.3057202e-40
0.013336202 -0.00070192665 0.73700005 9.2205719e-40
0.014740004 -0.00070192665 0.73700005 8.2987137e-40
0.016143819 -0.0007019192 0.73700005 8.2986997e-40
0.01754762 -0.00070191175 0.73700005 8.2950984e-40
0.018951437 -0.00070192665 0.73700005 9.2134673e-40
0.020355253 -0.0007019192 0.73700005 1.013541e-39
0.021759056 -0.0007019192 0.73700005 1.1053723e-39
0.023162872 -0.00070192665 0.73700005 1.0138899e-39
0.024633327 -0.00070381165 0.73900002 9.209824e-40
0.026040955 -0.0007038191 0.73900002 8.291497e-40
0.027448567 -0.0007038191 0.73900002 8.2769095e-40
0.028856181 -0.0007038191 0.73900002 7.3583163e-40
0.030304771 -0.00070477277 0.74000001 6.4437449e-40
0.031800017 -0.00070667267 0.74200004 1.1050051e-39
0.033213351 -0.00070668012 0.74200004 1.473789e-39
0.034626689 -0.00070668012 0.74199998 2.1187955e-39
0.036040016 -0.00070667267 0.74200004 2.764867e-39
0.037503809 -0.00070764124 0.74300003 3.4116559e-39
0.038919047 -0.00070764869 0.74300003 4.05737e-39
0.04044285 -0.00070953369 0.74500012 3.5978282e-39
0.041974287 -0.00071144849 0.74700004 3.2290527e-39
0.043455228 -0.00071238726 0.74800003 2.579747e-39
0.044879999 -0.00071239471 0.74800003 2.0212329e-39
0.046552382 -0.00071620196 0.75199997 5.7025771e-39
0.048048582 -0.00071715564 0.75300002 9.2766098e-39
0.049679987 -0.00072002411 0.7560001 9.6636625e-39
0.051390469 -0.00072383136 0.76000005 1.010705e-38
0.052907608 -0.00072477758 0.76100004 9.7583566e-39
0.054499999 -0.00072667748 0.76300001 9.3841623e-39
0.055953339 -0.00072668493 0.76300001 7.1872486e-39
0.057406671 -0.00072668493 0.76300001 5.082204e-39
-0.025433334 0.00072665513 0.76300001 3.3201637e-39
-0.023885721 0.00072378665 0.76000005 4.6054865e-39
-0.022438094 0.0007237941 0.76000005 3.6867588e-39
-0.021018099 0.00072474778 0.76100004 2.7666228e-39
-0.019491432 0.0007218942 0.75800002 2.398576e-39
-0.018047614 0.00072188675 0.75800002 1.9375908e-39
-0.016538082 0.00071904808 0.755 1.5691586e-39
-0.015059991 0.00071713328 0.75300002 1.1074658e-39
-0.013607611 0.00071617961 0.75199997 9.2235567e-40
-0.01211048 0.00071237236 0.74800003 6.4649185e-40
-0.010685722 0.00071237236 0.74800003 7.3797142e-40
-0.0092485808 0.00071139634 0.7470001 8.2910066e-40
-0.0078047714 0.00070951134 0.74500006 1.103182e-39
-0.0063857227 0.00070950389 0.74500012 1.2872075e-39
-0.0049666706 0.00070951879 0.74500006 9.1950263e-40
-0.0035380833 0.00070760399 0.74299997 5.5324244e-40
-0.0021142731 0.00070475787 0.74000001 5.5324945e-40
-0.00070475921 0.00070475042 0.74000001 5.5289352e-40
0.0007038117 0.00070380419 0.73900002 9.2023831e-40
0.0021114247 0.00070380419 0.73900002 1.2879488e-39
0.0035190382 0.00070379674 0.73900002 1.0120934e-39
0.0049266662 0.00070380419 0.73900002 6.4581923e-40
0.0063342797 0.00070379674 0.73900002 1.0124353e-39
0.0077419034 0.00070379674 0.73899996 1.3797843e-39
0.0091619212 0.00070475042 0.74000001 1.1053624e-39
0.010557145 0.00070380419 0.73900002 8.3021329e-40
0.011964758 0.00070381165 0.73900002 9.2240752e-40
0.013372387 0.00070380419 0.73900002 9.2241312e-40
0.01478 0.00070380419 0.73900002 9.2205999e-40
0.016143823 0.00070189685 0.73700005 9.2169986e-40
0.017547624 0.0007018894 0.73700005 9.2169846e-40
0.01895144 0.0007018894 0.73700005 9.2133973e-40
0.020410482 0.00070380419 0.73900002 1.1046534e-39
0.021818096 0.00070380419 0.73900002 1.2883216e-39
0.023225708 0.00070379674 0.73900002 1.1964847e-39
0.024633335 0.00070380419 0.73900002 1.0124564e-39
0.026040949 0.00070379674 0.73900002 1.0121004e-39
0.027448563 0.00070378929 0.73900002 9.2025372e-40
0.028895246 0.00070474297 0.74000001 9.1952505e-40
0.030304769 0.00070475787 0.74000001 9.2060965e-40
0.031800017 0.00070666522 0.74200004 1.2893964e-39
0.033213355 0.00070665777 0.74199998 1.5666965e-39
0.034626678 0.00070664287 0.74200004 2.1198619e-39
0.036040016 0.00070666522 0.74200004 2.6737419e-39
0.037503809 0.00070759654 0.74300003 3.5031271e-39
0.038919047 0.00070759654 0.74300003 4.2399564e-39
0.040442847 0.00070951134 0.74500012 3.3219532e-39
0.041974276 0.00071141124 0.7470001 2.3085411e-39
0.043455236 0.00071236491 0.74800003 1.2908243e-39
0.044879992 0.00071237236 0.74800009 1.9031175e-40
0.046552379 0.00071618706 0.75199997 4.9597376e-39
0.048176199 0.00071902573 0.75500005 9.6774036e-39
0.049679998 0.00071999431 0.75600004 1.1987975e-38
0.051390477 0.00072378665 0.76000005 1.4283498e-38
0.05290762 0.00072475523 0.76100004 1.2916363e-38
0.054500014 0.00072665513 0.76300001 1.1421112e-38
0.055953335 0.00072665513 0.76300001 6.1692151e-39
0.057406671 0.00072664768 0.76300001 8.4204445e-40
0.062289543 0.00075046718 0.78799999 4.3389764e-39
0.06379047 0.00075047463 0.78799999 6.4605212e-39
-0.025333336 0.0021714196 0.76000005 2.8598862e-39
-0.023822861 0.0021656901 0.75800002 4.1448643e-39
-0.022379046 0.0021656975 0.75800002 3.5931325e-39
-0.020990478 0.0021714121 0.76000005 2.9492274e-39
-0.019491432 0.0021656975 0.75800002 2.4897094e-39
-0.018047612 0.002165705 0.75800002 1.937602e-39
-0.016538085 0.0021571219 0.75500005 1.3840597e-39
-0.015059988 0.0021514148 0.75300002 9.2273542e-40
-0.013607611 0.0021485686 0.75199997 7.387113e-40
-0.01214285 0.0021428391 0.75000006 6.4686459e-40
-0.010685715 0.002137132 0.74800003 6.4613592e-40
-0.0092485668 0.0021342635 0.74700004 6.4578139e-40
-0.0078047686 0.0021285489 0.74500006 8.2909645e-40
-0.0063857269 0.0021285638 0.74500012 1.1035253e-39
-0.0049533281 0.0021228418 0.74300003 8.2801605e-40
-0.0035380875 0.0021228567 0.74299997 5.5323964e-40
-0.0021142759 0.0021142736 0.74000001 4.6141676e-40
-0.0007038074 0.0021114126 0.73900002 3.6850366e-40
0.00070380612 0.00211142 0.73900008 6.4508354e-40
0.0021114196 0.0021114126 0.73900002 1.013157e-39
0.003519058 0.0021114275 0.73900002 7.3802326e-40
0.0049266717 0.0021114275 0.73900002 5.5541305e-40
0.0063342853 0.00211142 0.73900002 8.294678e-40
0.0077419137 0.0021114349 0.73900002 1.1039135e-39
0.0091619194 0.0021142736 0.74000001 1.0131682e-39
0.01055714 0.0021114126 0.73900002 9.2169005e-40
0.011964769 0.0021114349 0.73900002 9.2168865e-40
0.013372381 0.00211142 0.73900002 8.3093215e-40
0.014779995 0.0021114126 0.73900002 8.3021749e-40
0.016143812 0.0021057054 0.73700005 8.2913989e-40
0.017547628 0.002105698 0.73700005 9.2133272e-40
0.018951429 0.0021057054 0.73700005 1.0128109e-39
0.020410476 0.0021114275 0.73900008 1.1042891e-39
0.02181809 0.00211142 0.73900008 1.1954071e-39
0.023225714 0.00211142 0.73899996 1.2876013e-39
0.024666674 0.0021142811 0.74000001 1.470915e-39
0.026076199 0.0021142736 0.74000001 1.1050079e-39
0.027485715 0.0021142736 0.74000001 8.3022029e-40
0.028895253 0.0021142885 0.74000001 7.3731e-40
0.030386677 0.0021199957 0.74199998 6.4547451e-40
0.031800006 0.0021199882 0.74200004 1.1060869e-39
0.033213343 0.0021199808 0.74200004 1.5666937e-39
0.034626678 0.0021199957 0.74200004 2.0287341e-39
0.036088567 0.0021228418 0.74300003 2.5829742e-39
0.037503816 0.0021228418 0.74299997 3.3201679e-39
0.039023809 0.0021285564 0.74500006 3.9648002e-39
0.04055142 0.0021342561 0.7470001 3.505613e-39
0.042030476 0.002137132 0.74800003 3.1364913e-39
0.043455236 0.0021371469 0.74800003 2.6733804e-39
0.045000006 0.0021428391 0.75000006 2.2240134e-39
0.046428576 0.0021428466 0.75000006 7.6661087e-39
0.048176207 0.0021571293 0.755 1.3036305e-38
0.049680006 0.0021599904 0.75600004 1.2927581e-38
0.051390469 0.0021714121 0.76000011 1.2847219e-38
0.053046681 0.0021799952 0.76300001 1.0524421e-38
0.054500002 0.0021799877 0.76300001 8.3070234e-39
0.056100011 0.0021857098 0.76499999 4.4236722e-39
0.059287626 0.0022514164 0.78800005 5.5224752e-40
0.060634296 0.0022457018 0.78600001 2.1195634e-39
0.06228954 0.0022514164 0.78799999 3.7751079e-39
0.063628584 0.0022457168 0.78599995 4.4276365e-39
-0.025433334 0.0036333129 0.76300001 2.4932701e-39
-0.023979994 0.0036333129 0.76300001 3.6853309e-39
-0.022438103 0.0036190301 0.76000005 3.4073077e-39
-0.020990478 0.0036190301 0.76000005 3.131811e-39
-0.019491432 0.0036095157 0.75800002 2.5815253e-39
-0.018047621 0.0036095083 0.75800008 1.9361475e-39
-0.016538082 0.003595233 0.755 1.2907696e-39
-0.015059994 0.0035856888 0.75300002 6.4685619e-40
-0.013607613 0.0035809427 0.75200003 6.4651007e-40
-0.012142849 0.0035714135 0.75000006 6.4614012e-40
-0.01071428 0.0035714209 0.75000006 5.5357735e-40
-0.009260959 0.0035618916 0.74800009 4.6281665e-40
-0.0078257089 0.0035571232 0.74700004 6.4720511e-40
-0.0063857315 0.003547594 0.74500012 8.2943837e-40
-0.0049666716 0.0035476014 0.74500006 6.4432965e-40
-0.003538094 0.0035380721 0.74300003 4.6139994e-40
-0.0021199882 0.0035333186 0.74199998 3.7030573e-40
-0.00070475222 0.0035238042 0.74000001 1.862746e-40
0.0007038117 0.0035190508 0.73900002 4.6213842e-40
0.0021114252 0.0035190433 0.73900002 6.4581642e-40
0.0035190531 0.0035190359 0.73900002 5.5542426e-40
0.0049266666 0.0035190433 0.73900002 3.7174627e-40
0.0063428641 0.0035237968 0.74000001 5.5433405e-40
0.0077419076 0.0035190433 0.73900002 7.3729459e-40
0.0091619128 0.0035237968 0.73999995 9.2097399e-40
0.010571442 0.0035237968 0.74000001 1.0124437e-39
0.011980967 0.0035238117 0.74000001 9.2024251e-40
0.013372377 0.0035190433 0.73900002 7.3729319e-40
0.01477999 0.0035190359 0.73900002 7.3801626e-40
0.016187618 0.0035190433 0.73900008 6.4581923e-40
0.017595241 0.0035190433 0.73900002 9.2204038e-40
0.019002868 0.0035190433 0.73900002 1.1049995e-39
0.020410482 0.0035190508 0.73900002 1.1039303e-39
0.021818096 0.0035190433 0.73900002 1.103573e-39
0.023225708 0.0035190359 0.73900002 1.4712737e-39
0.024666674 0.0035237968 0.74000001 1.8396933e-39
0.026076199 0.0035237968 0.74000001 1.2904768e-39
0.027485723 0.0035238042 0.74000001 7.3875054e-40
0.028895253 0.0035237968 0.74000001 5.5436628e-40
0.03038667 0.0035333186 0.74200004 3.7069109e-40
0.031800009 0.0035333186 0.74200004 9.2277606e-40
0.033213343 0.0035333186 0.74200004 1.4755785e-39
0.034626681 0.0035333335 0.74199998 2.029097e-39
0.036088571 0.0035380796 0.74300003 2.4918576e-39
0.03750382 0.0035380721 0.74299997 3.1375703e-39
0.039023805 0.0035476014 0.74500012 3.6900168e-39
0.040551431 0.0035571158 0.74700004 3.7822083e-39
0.042030469 0.0035618916 0.74800003 3.8690187e-39
0.043455243 0.0035618916 0.74800009 4.0419263e-39
0.045000017 0.0035714135 0.75000006 4.2501242e-39
0.046428584 0.0035714135 0.75000006 1.035158e-38
0.048048586 0.0035857111 0.75299996 1.6316541e-38
0.049679991 0.0035999864 0.7560001 1.3839095e-38
0.051255237 0.0036095083 0.75800002 1.1249747e-38
0.052838102 0.0036190376 0.76000005 8.2105482e-39
0.054357145 0.0036238134 0.76100004 5.071585e-39
0.05580667 0.0036238059 0.76100004 2.666231e-39
0.059287634 0.0037523806 0.78799999 1.8848305e-40
0.060788572 0.0037523806 0.78799999 1.6575091e-39
0.062289532 0.0037523732 0.78799999 3.1297371e-39
0.063628577 0.0037428439 0.78600001 2.4879564e-39
0.065291427 0.0037523732 0.78800005 1.7651106e-39
-0.025433326 0.0050866529 0.76300001 2.7666312e-39
-0.023980005 0.005086638 0.76300001 3.8690047e-39
-0.022438105 0.0050666481 0.76000011 3.4994991e-39
-0.020990478 0.0050666407 0.76000005 3.1303648e-39
-0.019491425 0.005053319 0.75800002 2.4867989e-39
-0.018047621 0.0050533116 0.75800008 1.7506618e-39
-0.016538087 0.0050333217 0.75500005 1.2896724e-39
-0.015059986 0.0050200075 0.75300002 9.2091513e-40
-0.013607613 0.0050133318 0.75200003 7.3762109e-40
-0.012142851 0.0049999729 0.75000012 5.5394029e-40
-0.010714271 0.0049999878 0.75000006 4.6281105e-40
-0.0092609581 0.0049866512 0.74800003 4.6424177e-40
-0.0078257136 0.0049799755 0.74700004 6.471897e-40
-0.006385718 0.0049666539 0.74500006 8.3049915e-40
-0.0049666762 0.0049666464 0.74500006 7.3758326e-40
-0.0035380903 0.0049533173 0.74300003 6.4542546e-40
-0.0021142759 0.0049333274 0.74000001 5.53625e-40
-0.00070474384 0.0049333274 0.74000001 5.5398373e-40
0.00070380705 0.0049266666 0.73900002 7.3693586e-40
0.0021114349 0.0049266592 0.73900002 9.2024952e-40
0.0035190484 0.0049266666 0.73900002 7.3837219e-40
0.0049266615 0.0049266592 0.73900002 6.4833316e-40
0.0063342894 0.0049266517 0.73900002 8.3021189e-40
0.007741903 0.0049266592 0.73900002 1.1050023e-39
0.0091619119 0.0049333349 0.74000001 1.2879558e-39
0.010571451 0.0049333274 0.74000001 1.470538e-39
0.011980965 0.00493332 0.74000001 1.1953777e-39
0.013372382 0.0049266666 0.73900002 8.2768535e-40
0.01478001 0.0049266592 0.73900002 7.3729179e-40
0.016187621 0.0049266666 0.73900002 6.4545209e-40
0.017595235 0.0049266592 0.73900002 7.3799944e-40
0.019002864 0.0049266592 0.73900002 9.2168305e-40
0.020410476 0.0049266592 0.73900002 9.2025933e-40
0.02181809 0.0049266592 0.73900002 9.1954326e-40
0.023225719 0.0049266517 0.73900002 1.1957686e-39
0.024666682 0.00493332 0.74000001 1.4730716e-39
0.026076198 0.00493332 0.74000001 1.1982853e-39
0.027485723 0.00493332 0.74000001 9.220698e-40
0.028973334 0.004946664 0.74200004 6.4585286e-40
0.03038667 0.0049466565 0.74200004 4.6181472e-40
0.031800006 0.0049466565 0.74200004 9.2277746e-40
0.033213343 0.0049466565 0.74199998 1.3837458e-39
0.034673337 0.0049533099 0.74299997 2.0294599e-39
0.036088575 0.0049533173 0.74300003 2.6769635e-39
0.037604753 0.0049666613 0.74500006 3.1379262e-39
0.039023802 0.0049666464 0.74500012 3.6910972e-39
0.040551435 0.0049799755 0.74700004 3.4145201e-39
0.042030469 0.0049866512 0.74800003 3.138278e-39
0.043455239 0.0049866512 0.74800003 2.9484903e-39
0.044879995 0.0049866661 0.74800003 2.7703446e-39
0.04642858 0.0049999952 0.75000006 5.5391843e-39
0.048048586 0.00502 0.75300002 8.2941959e-39
0.049679998 0.0050399974 0.75600004 8.1093955e-39
0.051255252 0.0050533116 0.75800002 7.8984314e-39
0.052838102 0.0050666481 0.76000005 7.1795022e-39
0.054285716 0.0050666407 0.76000005 6.3371635e-39
0.057859994 0.0052599758 0.78900003 5.4302516e-39
0.059362862 0.0052599758 0.78900003 4.601958e-39
0.060788583 0.0052533299 0.78799999 4.0523982e-39
0.06228954 0.005253315 0.78800005 3.4959916e-39
0.063628577 0.0052400008 0.78600001 2.395388e-39
0.065291449 0.0052533299 0.78799999 1.2980396e-39
0.066792391 0.0052533299 0.78799999 2.7753122e-39
-0.02543333 0.0065399855 0.76299995 3.1339676e-39
-0.024042852 0.0065571442 0.76500005 3.9601241e-39
-0.022438094 0.0065142661 0.76000005 3.5909829e-39
-0.020935237 0.0064971298 0.75800002 3.1300117e-39
-0.019491425 0.0064971298 0.75800002 2.3920992e-39
-0.018000005 0.006479986 0.75600004 1.5655671e-39
-0.016538082 0.0064714104 0.755 1.3800912e-39
-0.015099992 0.0064714178 0.755 1.1049519e-39
-0.013625699 0.0064542815 0.75300002 8.2909645e-40
-0.012175239 0.0064457059 0.75200003 4.6245792e-40
-0.01071428 0.0064285621 0.75000006 4.6316137e-40
-0.0092609497 0.0064114183 0.74800003 3.7133008e-40
-0.0078361919 0.0064114332 0.74800003 6.4648204e-40
-0.0063857213 0.0063856989 0.74500006 8.3015583e-40
-0.004966673 0.0063857064 0.74500012 8.3016004e-40
-0.0035476317 0.0063856989 0.74500012 8.294678e-40
-0.0021199896 0.0063599944 0.74200004 8.2841822e-40
-0.00070474524 0.0063428581 0.74000001 8.2877836e-40
0.00070380192 0.0063342825 0.73900002 1.0117333e-39
0.0021114303 0.006334275 0.73900002 1.1046436e-39
0.0035190436 0.0063342825 0.73900002 1.0135241e-39
0.0049266568 0.006334275 0.73900002 9.2205019e-40
0.0063342848 0.006334275 0.73900008 1.1972021e-39
0.0077419085 0.0063342974 0.73900002 1.3808731e-39
0.0091495225 0.0063342825 0.73900002 1.6553048e-39
0.01055715 0.0063342825 0.73900002 1.9304498e-39
0.011964764 0.0063342899 0.73900002 1.470552e-39
0.013372377 0.0063342825 0.73900002 9.2061245e-40
0.014740004 0.0063171312 0.73700005 8.2913429e-40
0.016143819 0.0063171387 0.73700005 6.4617936e-40
0.01754762 0.0063171238 0.73700005 6.4653669e-40
0.019002859 0.006334275 0.73900002 6.4582343e-40
0.020410473 0.0063342825 0.73900002 6.4403397e-40
0.021818085 0.006334275 0.73900002 6.4439551e-40
0.023257151 0.0063428506 0.74000001 9.1954747e-40
0.024666682 0.0063428506 0.74000001 1.1057282e-39
0.026076205 0.0063428506 0.74000001 1.1071617e-39
0.027485719 0.0063428432 0.74000001 1.0145989e-39
0.028973334 0.0063599944 0.74200004 7.3729038e-40
0.030386684 0.0063599944 0.74200004 4.6250977e-40
0.031799998 0.0063599795 0.74200004 8.3129649e-40
0.033213332 0.0063599944 0.74200004 1.2007895e-39
0.034673341 0.0063685626 0.74299997 2.028025e-39
0.036088578 0.0063685477 0.74300003 2.7673683e-39
0.037503816 0.0063685551 0.74300003 3.2294114e-39
0.039023798 0.0063856915 0.74500012 3.597831e-39
0.040442854 0.0063857064 0.74500006 3.0457418e-39
0.042030472 0.0064114034 0.74800009 2.3996606e-39
0.043455232 0.0064114258 0.74800009 1.8432624e-39
0.045000017 0.0064285696 0.75000006 1.2951879e-39
0.046552379 0.0064457059 0.75200003 8.3177433e-40
0.04798476 0.0064457133 0.75200003 2.9256449e-40
0.049614288 0.0064714178 0.75500005 2.4969401e-39
0.051119998 0.006479986 0.75600004 4.610946e-39
0.052699056 0.0064971298 0.75800002 6.1803946e-39
0.054142866 0.0064971298 0.75800002 7.6476004e-39
0.057786677 0.0067542791 0.78799999 8.2990472e-39
0.05928763 0.0067542791 0.78799999 8.9336392e-39
0.060788576 0.0067542791 0.78800005 6.3622411e-39
0.062131435 0.0067371354 0.78600001 3.781516e-39
0.063628577 0.0067371279 0.78600001 2.2992295e-39
0.065291442 0.0067542791 0.78799999 7.4558187e-40
0.066792399 0.0067542717 0.78799999 9.2927528e-40
0.068293341 0.0067542791 0.78800005 1.1197594e-39
0.06979429 0.0067542642 0.78800005 4.8028608e-39
0.071385711 0.0067628324 0.78900003 8.4820078e-39
-0.024042856 0.0080142915 0.76500005 3.7771706e-39
-0.022438094 0.0079618916 0.76000005 3.3162008e-39
-0.020935236 0.0079409406 0.75800002 2.9467051e-39
-0.019491423 0.0079409406 0.75800002 2.393897e-39
-0.018000003 0.007919997 0.75600004 1.7492493e-39
-0.016560007 0.0079199895 0.75600004 1.4733785e-39
-0.015099996 0.007909514 0.75500005 1.1063952e-39
-0.01360762 0.0078781024 0.75200003 9.2236548e-40
-0.012142851 0.0078571364 0.75000006 8.3051176e-40
-0.010714282 0.007857129 0.75000006 7.3829932e-40
-0.0092857126 0.0078571215 0.75000006 7.379546e-40
-0.0078361938 0.0078361854 0.74800003 8.3016144e-40
-0.0064028604 0.007825695 0.7470001 9.2200815e-40
-0.0049666772 0.0078047439 0.74500012 8.3018386e-40
-0.0035380898 0.0077838004 0.74299997 8.3019928e-40
-0.0021199891 0.0077733323 0.74199998 8.2913849e-40
-0.000704762 0.0077523589 0.74000001 9.2061946e-40
0.0007038117 0.0077418983 0.73900008 1.0124592e-39
0.0021114247 0.0077418908 0.73900008 1.1053681e-39
0.0035190487 0.0077419057 0.73900002 1.1968406e-39
0.0049266764 0.0077419132 0.73900002 1.1957686e-39
0.0063342894 0.0077418983 0.73900002 1.2886845e-39
0.007741903 0.0077419057 0.73900002 1.3815976e-39
0.0091495318 0.0077419057 0.73900002 1.5649099e-39
0.010557146 0.0077418983 0.73900002 1.6556762e-39
0.011964759 0.0077418983 0.73900002 1.1965057e-39
0.013336192 0.0077209324 0.73700005 7.3803447e-40
0.014740008 0.0077209473 0.73700005 9.2133552e-40
0.016143823 0.0077209398 0.73700005 1.0138899e-39
0.017595241 0.0077418908 0.73900002 9.2205579e-40
0.019002855 0.0077418908 0.73900002 8.2985876e-40
0.020410467 0.0077418983 0.73900008 8.2877976e-40
0.021847626 0.0077523664 0.74000001 9.2026213e-40
0.023257149 0.0077523738 0.74000001 1.1961316e-39
0.024666689 0.0077523738 0.74000001 1.4737862e-39
0.026146676 0.0077733174 0.74200004 1.3823039e-39
0.027560012 0.0077733323 0.74200004 1.1993237e-39
0.028973348 0.0077733323 0.74199998 8.3052017e-40
0.030386673 0.0077733174 0.74200004 4.6248735e-40
0.031799998 0.0077733099 0.74200004 9.2456131e-40
0.033258099 0.0077837929 0.74300003 1.3858926e-39
0.034673337 0.0077837855 0.74300003 2.1223716e-39
0.036088582 0.0077837929 0.74299997 2.859208e-39
0.037604757 0.0078047439 0.74500006 3.4123734e-39
0.039023794 0.0078047514 0.74500012 4.0570113e-39
0.040551435 0.0078256875 0.74700004 3.1354235e-39
0.042030476 0.0078361854 0.74800003 2.3053266e-39
0.043571427 0.0078571215 0.75000006 3.5949794e-39
0.045000002 0.007857129 0.75000012 4.9699937e-39
0.046428591 0.0078571364 0.75000006 4.4243547e-39
0.048048582 0.007888563 0.75300002 3.8733263e-39
0.049614295 0.0079095215 0.755 5.075063e-39
0.051119991 0.0079199821 0.75600004 6.2764775e-39
0.052559994 0.0079199821 0.75600004 7.0118985e-39
0.05414287 0.0079409406 0.75800002 7.8448906e-39
0.05558667 0.0079409406 0.75800002 8.2079418e-39
0.059287626 0.0082552209 0.78800005 8.5738194e-39
0.060788568 0.0082552284 0.78800005 7.3788524e-39
0.062131431 0.0082342848 0.78600001 6.2750383e-39
0.063628577 0.0082342699 0.78600001 5.624302e-39
0.065291435 0.0082552284 0.78799999 4.9761047e-39
0.066792399 0.0082552284 0.78800005 2.856027e-39
0.068379998 0.0082656965 0.78900003 7.4202117e-40
0.06988284 0.008265689 0.78900009 2.4947919e-39
0.071385711 0.0082656816 0.78900009 4.337959e-39
0.076279044 0.008307606 0.79300004 1.0326199e-38
0.077985726 0.008328557 0.79500002 1.1151245e-38
0.079700023 0.0083495229 0.79699999 1.1606437e-38
0.081218101 0.008349508 0.79699999 1.2060589e-38
-0.022526659 0.0094466582 0.76300001 3.1332655e-39
-0.020990478 0.0094095021 0.76000005 2.7641229e-39
-0.019491423 0.0093847513 0.75800002 2.395339e-39
-0.018000005 0.0093599856 0.7560001 1.9343594e-39
-0.016538082 0.0093476102 0.755 1.566293e-39
-0.015059993 0.009322837 0.75300002 1.1064008e-39
-0.013625707 0.0093228444 0.75300002 1.106405e-39
-0.012175241 0.009310469 0.75200003 1.1056833e-39
-0.01071428 0.0092857033 0.75000006 1.1046043e-39
-0.0092857042 0.0092856959 0.75000006 1.0131234e-39
-0.0078361928 0.009260945 0.74800003 1.0134765e-39
-0.0064028553 0.0092485622 0.74700004 9.2201095e-40
-0.0049666814 0.0092237815 0.74500012 8.2982793e-40
-0.0035476219 0.0092237964 0.74500006 7.3800785e-40
-0.0021199915 0.0091866553 0.74200004 9.2133552e-40
-0.00070666237 0.0091866553 0.74200004 1.0128221e-39
0.00070477562 0.009161897 0.74000001 1.1043087e-39
0.0021142997 0.009161897 0.74000001 1.1050191e-39
0.0035238243 0.009161897 0.74000001 1.2890404e-39
0.0049333381 0.009161897 0.74000001 1.4723569e-39
0.0063342848 0.0091495067 0.73900002 1.4720024e-39
0.0077418983 0.009149529 0.73900002 1.3819591e-39
0.0091495272 0.0091495141 0.73900002 1.3830325e-39
0.01055714 0.0091495141 0.73900002 1.3819577e-39
0.011964753 0.0091495216 0.73900002 1.0135396e-39
0.013336196 0.0091247335 0.73700005 5.5399634e-40
0.014740012 0.0091247559 0.73700005 1.0117319e-39
0.016187606 0.0091495216 0.73900002 1.380513e-39
0.017595246 0.009149529 0.73900002 1.1975651e-39
0.01900286 0.0091495141 0.73900002 9.2169566e-40
0.02043811 0.009161897 0.74000001 1.0131682e-39
0.021847636 0.009161897 0.74000001 1.1042891e-39
0.023257149 0.0091618896 0.74000001 1.4712751e-39
0.02473334 0.0091866553 0.74200004 1.8400492e-39
0.026146676 0.0091866553 0.74200004 1.6570929e-39
0.027560012 0.0091866627 0.74199998 1.3826444e-39
0.028973339 0.0091866553 0.74200004 9.2273262e-40
0.030386675 0.0091866553 0.74200004 4.6464815e-40
0.031800013 0.0091866627 0.74200004 1.0178317e-39
0.033258103 0.0091990456 0.74300003 1.5699251e-39
0.034673341 0.0091990307 0.74300003 2.2163651e-39
0.036088586 0.0091990381 0.74299997 2.8592108e-39
0.037604753 0.0092237964 0.74500012 3.6875225e-39
0.039128575 0.0092485473 0.74700004 4.5140392e-39
0.040605709 0.0092609376 0.74800009 3.3173037e-39
0.042030469 0.0092609301 0.74800009 2.125589e-39
0.043571435 0.0092856884 0.75000006 5.3530989e-39
0.045000006 0.0092857033 0.75000006 8.5673398e-39
0.0466143 0.0093228593 0.75299996 8.0217078e-39
0.048176199 0.0093476102 0.75500005 7.4663873e-39
0.049680002 0.009359993 0.75600004 7.6529267e-39
0.05139048 0.009409517 0.76000005 7.837304e-39
0.052838095 0.0094095021 0.76000005 7.9298457e-39
0.05428572 0.0094095096 0.76000005 7.9309443e-39
0.055733342 0.0094095096 0.76000005 8.1139203e-39
0.070237137 0.0098180771 0.79300004 2.7996122e-40
0.071928576 0.0098428503 0.79500002 1.0275862e-40
0.073258094 0.0098180696 0.79300004 4.4251352e-39
0.074957155 0.0098428428 0.79500002 8.6685472e-39
0.076471448 0.0098428428 0.79500002 1.0327291e-38
0.078181915 0.0098676011 0.79700005 1.1982824e-38
0.079700015 0.0098676085 0.79700005 1.2516242e-38
-0.024042856 0.010928571 0.76499999 3.5041948e-39
-0.022526665 0.010899983 0.76300001 3.0428818e-39
-0.021018101 0.010871425 0.76100004 2.6733748e-39
-0.019542854 0.010857128 0.76000005 2.2120323e-39
-0.018000003 0.010799982 0.75600004 1.8428868e-39
-0.016538087 0.010785706 0.75500005 1.3822646e-39
-0.015059986 0.010757126 0.75299996 1.0142122e-39
-0.013607622 0.010742851 0.75200003 1.1975315e-39
-0.012175241 0.010742843 0.75200003 1.2890208e-39
-0.010714273 0.010714278 0.75000006 1.3805088e-39
-0.0092857042 0.01071427 0.75000006 1.4723219e-39
-0.0078571336 0.010714263 0.75000006 1.2889858e-39
-0.0064114379 0.010685705 0.74800003 1.1056847e-39
-0.004979996 0.010671414 0.74700004 1.0138605e-39
-0.0035476265 0.010642849 0.74500006 8.2984615e-40
-0.002119991 0.010599993 0.74200004 1.0135312e-39
-0.0007066619 0.010599993 0.74199998 1.1965015e-39
0.00070476957 0.01057142 0.74000001 1.1968756e-39
0.0021142983 0.010571405 0.74000001 1.1972232e-39
0.0035238231 0.01057142 0.74000001 1.4734345e-39
0.0049266666 0.010557137 0.73900002 1.7493039e-39
0.0063342801 0.01055713 0.73900002 1.5656371e-39
0.0077419081 0.010557137 0.73900002 1.4745149e-39
0.0091495225 0.01055713 0.73900002 1.4755855e-39
0.010557135 0.01055713 0.73900002 1.4748624e-39
0.011964774 0.010557145 0.73900002 1.1071561e-39
0.013372387 0.010557137 0.73900002 8.3021189e-40
0.014740015 0.010528564 0.73700005 9.2132571e-40
0.016187629 0.010557145 0.73900002 1.0128123e-39
0.017595241 0.010557137 0.73900002 9.220614e-40
0.019002853 0.01055713 0.73900002 7.383848e-40
0.020438105 0.010571428 0.73999995 1.0128095e-39
0.021847634 0.01057142 0.74000001 1.1961231e-39
0.023257157 0.010571428 0.74000001 1.4719884e-39
0.02473334 0.010599993 0.74200004 1.8389716e-39
0.026146678 0.010599993 0.74199998 1.5652574e-39
0.027560001 0.010599993 0.74200004 1.3837304e-39
0.028973339 0.010599993 0.74200004 1.0156611e-39
0.030386675 0.010599986 0.74200004 7.4088191e-40
0.031842869 0.010614276 0.74299997 1.108591e-39
0.033258107 0.010614268 0.74300003 1.5681343e-39
0.034673344 0.010614261 0.74300003 2.121664e-39
0.036088582 0.010614276 0.74300003 2.6741091e-39
0.037604749 0.010642841 0.74500012 3.4120174e-39
0.039128564 0.010671407 0.74700004 4.0559393e-39
0.040605713 0.010685697 0.74800003 2.8566941e-39
0.042030483 0.010685712 0.74800003 1.750701e-39
0.043571431 0.010714278 0.75000006 5.5381768e-39
0.045000013 0.01071427 0.75000006 9.4038828e-39
0.046614304 0.010757141 0.75300002 8.3904679e-39
0.048176207 0.010785706 0.755 7.4699732e-39
0.049811438 0.010828547 0.75800002 8.0231512e-39
0.051255245 0.010828555 0.75800008 8.6634465e-39
0.052838087 0.010857113 0.76000005 8.2038682e-39
0.054285713 0.010857128 0.76000005 7.8344047e-39
0.055733334 0.010857128 0.76000005 7.6525568e-39
0.071928583 0.011357136 0.79500002 9.2348371e-41
0.073442884 0.011357129 0.79500002 4.331869e-39
0.074957155 0.011357129 0.79500002 8.6764491e-39
0.076471426 0.011357136 0.79500002 1.3192861e-38
0.077985719 0.011357121 0.79500002 1.7701415e-38
0.079700008 0.011385709 0.79700005 1.7977643e-38
0.081218101 0.011385702 0.79699999 1.8274728e-38
-0.025600009 0.012434274 0.76800007 3.5945702e-39
-0.024105716 0.012418069 0.76700002 3.4109118e-39
-0.022585714 0.012385696 0.76500005 2.9517469e-39
-0.021018105 0.012320943 0.76100004 2.4900485e-39
-0.019542862 0.012304746 0.76000005 2.1194695e-39
-0.018000003 0.01224 0.75600004 1.6595704e-39
-0.016538082 0.012223803 0.755 1.2897131e-39
-0.01505999 0.01219143 0.75300002 9.2199974e-40
-0.013607622 0.012175225 0.75200003 1.1964174e-39
-0.012175241 0.012175217 0.75200003 1.4719295e-39
-0.010714273 0.012142844 0.75000006 1.7474416e-39
-0.0092857042 0.012142844 0.75000006 1.9311e-39
-0.0078571346 0.012142837 0.75000006 1.6559396e-39
-0.0064114295 0.012110472 0.74800003 1.2893459e-39
-0.0049800016 0.012094267 0.74700004 1.1057058e-39
-0.0035571475 0.012094252 0.7470001 9.2240051e-40
-0.0021199905 0.012013324 0.74199998 1.197914e-39
-0.00070665678 0.012013301 0.74200004 1.3808689e-39
0.00070667971 0.012013324 0.74200004 1.3805116e-39
0.0021142922 0.011980951 0.74000001 1.2893992e-39
0.003523821 0.011980936 0.74000001 1.6581817e-39
0.004926662 0.011964753 0.73900008 1.9336924e-39
0.0063342755 0.011964746 0.73900002 1.7496669e-39
0.0077419137 0.011964761 0.73900002 1.5677853e-39
0.0091495272 0.011964768 0.73900002 1.5692161e-39
0.010557141 0.011964753 0.73900002 1.4766533e-39
0.011964769 0.011964761 0.73900002 1.2929739e-39
0.013372382 0.011964761 0.73900002 1.1071393e-39
0.014779995 0.011964753 0.73900002 9.2238229e-40
0.016187621 0.011964753 0.73900002 6.4618216e-40
0.017619064 0.011980951 0.74000001 6.4728218e-40
0.019028578 0.011980943 0.74000001 5.5435367e-40
0.020438103 0.011980936 0.74000001 9.1988518e-40
0.021847643 0.011980951 0.74000001 1.2883104e-39
0.023257157 0.011980943 0.74000001 1.5649015e-39
0.02473334 0.012013324 0.74199998 1.747855e-39
0.026146667 0.012013316 0.74200004 1.5649029e-39
0.027560005 0.012013324 0.74200004 1.2908257e-39
0.028973339 0.012013324 0.74199998 1.1067918e-39
0.030427622 0.012029506 0.74300003 9.2348512e-40
0.031842861 0.012029506 0.74300003 1.1997147e-39
0.03325811 0.012029514 0.74299997 1.4770162e-39
0.034673348 0.012029514 0.74300003 2.028032e-39
0.036088586 0.012029506 0.74300003 2.4915101e-39
0.037604745 0.012061886 0.74500012 3.0464649e-39
0.039128564 0.012094252 0.7470001 3.5949415e-39
0.040551439 0.012094259 0.74700004 2.4860758e-39
0.042030472 0.012110464 0.74800009 1.3022855e-39
0.043571439 0.012142852 0.75000006 5.7366034e-39
0.045000009 0.012142837 0.75000006 1.0141822e-38
0.046614304 0.012191422 0.75300002 8.7578169e-39
0.048176203 0.012223803 0.75500005 7.3781559e-39
0.049679995 0.012239985 0.75600004 8.3973399e-39
0.051255241 0.012272358 0.75800008 9.3999633e-39
0.052699059 0.012272373 0.75800002 8.5716166e-39
0.054357138 0.012320951 0.76100004 7.7447412e-39
0.055806663 0.012320943 0.76100004 7.2862854e-39
0.073627621 0.012903787 0.79700005 4.3171581e-39
0.075145714 0.012903795 0.79700005 8.5839536e-39
0.076663814 0.01290381 0.79699999 1.6066785e-38
0.0781819 0.012903795 0.79699999 2.3411116e-38
0.079700008 0.012903795 0.79700005 2.3417576e-38
0.081218101 0.012903802 0.79700005 2.3417603e-38
0.082840011 0.012919992 0.79800004 2.3417631e-38
-0.025600007 0.013897143 0.76800001 3.1346668e-39
-0.024105722 0.013879038 0.76700002 3.3179875e-39
-0.022526663 0.013806663 0.76299995 2.9506539e-39
-0.021018101 0.013770454 0.76100004 2.6744244e-39
-0.019542862 0.013752349 0.76000005 2.3052817e-39
-0.018000005 0.013679989 0.7560001 1.9375824e-39
-0.016538087 0.013661891 0.75500005 1.3833422e-39
-0.015039996 0.013607614 0.75200003 9.2269759e-40
-0.013607621 0.013607614 0.75200003 8.290362e-40
-0.012142851 0.013571411 0.75000006 8.2867747e-40
-0.010714282 0.013571411 0.75000006 9.2087029e-40
-0.0092857024 0.013571411 0.75000006 1.0116282e-39
-0.0078571336 0.013571419 0.75000006 8.2867326e-40
-0.0064114379 0.013535231 0.74800003 7.3832314e-40
-0.0049800058 0.013517119 0.7470001 6.4581923e-40
-0.0035571423 0.013517126 0.74700004 5.5541866e-40
-0.0021228553 0.013444737 0.74300003 6.4581923e-40
-0.00070665631 0.013426654 0.74200004 7.3800084e-40
0.00070668018 0.013426654 0.74200004 7.3726936e-40
0.0021142908 0.013390459 0.74000001 7.3836798e-40
0.0035238303 0.013390474 0.74000001 8.3058463e-40
0.0049333447 0.013390459 0.74000001 1.0164136e-39
0.0063428688 0.013390459 0.74000001 9.2350613e-40
0.0077419085 0.013372384 0.73900002 8.3525516e-40
0.0091495225 0.013372377 0.73900002 8.3273983e-40
0.01055715 0.013372369 0.73900002 8.3452088e-40
0.011964764 0.013372384 0.73900002 7.4016024e-40
0.013372377 0.013372369 0.73900002 6.4830793e-40
0.014780005 0.013372369 0.73900002 4.62109e-40
0.016187618 0.013372377 0.73900002 3.6923654e-40
0.017619062 0.013390459 0.74000001 3.6999184e-40
0.019028587 0.013390459 0.74000001 3.7139874e-40
0.020438101 0.013390474 0.74000001 5.5324805e-40
0.021847626 0.013390474 0.74000001 8.2984475e-40
0.023257164 0.013390467 0.74000001 9.2097679e-40
0.024733344 0.013426647 0.74200004 1.0128151e-39
0.026146682 0.013426669 0.74200004 8.2950423e-40
0.027560018 0.013426661 0.74199998 7.3982113e-40
0.028973345 0.013426647 0.74200004 6.4619197e-40
0.030427627 0.013444752 0.74300003 5.5399914e-40
0.031842865 0.013444752 0.74300003 6.476297e-40
0.033258103 0.013444737 0.74300003 8.3596282e-40
0.034766655 0.013480946 0.74500006 1.8454344e-39
0.036185704 0.013480939 0.74500006 2.8602828e-39
0.037604757 0.013480932 0.74500012 3.3208896e-39
0.039128579 0.013517126 0.74700004 3.780381e-39
0.040551424 0.013517112 0.7470001 2.8565988e-39
0.042030476 0.013535231 0.74800003 1.939753e-39
0.043571435 0.013571419 0.75000012 6.2819243e-39
0.045000017 0.013571419 0.75000006 1.0607483e-38
0.046614293 0.013625704 0.75300002 7.4681795e-39
0.048239984 0.013679989 0.7560001 4.4283189e-39
0.049942859 0.013752371 0.76000005 4.890044e-39
0.051458098 0.013770483 0.76100004 5.4467715e-39
0.052907623 0.013770483 0.76100004 5.0743806e-39
0.054357134 0.013770469 0.76100004 4.7156258e-39
0.055953342 0.013806649 0.76300001 4.157057e-39
0.075240016 0.01444 0.79800004 4.3567084e-39
0.076663822 0.014421888 0.79700005 1.3758102e-38
0.078181908 0.014421895 0.79700005 2.3234019e-38
0.079800017 0.01444 0.79800004 2.3325854e-38
0.081218101 0.014421903 0.79699999 2.341769e-38
0.082840018 0.01444 0.79799998 2.341769e-38
0.084360003 0.014439993 0.79800004 2.341769e-38
-0.022585714 0.015300006 0.76500005 2.9496029e-39
-0.021073326 0.015259996 0.76299995 2.7652033e-39
-0.019568579 0.015219994 0.76100004 2.4896856e-39
-0.018000005 0.015119985 0.75600004 2.2123798e-39
-0.016494278 0.015059993 0.75300002 1.5673734e-39
-0.015040003 0.015039995 0.75200003 8.2942716e-40
-0.013607623 0.015039988 0.75200003 4.5954042e-40
-0.012142852 0.014999993 0.75000006 1.0444718e-40
-0.010714281 0.014999986 0.75000006 9.5890854e-41
-0.0092857135 0.014999978 0.75000006 1.0193465e-40
-0.0078571336 0.014999993 0.75000006 9.219563e-41
-0.0064114295 0.014959991 0.74800003 9.7244508e-41
-0.0049800011 0.014939979 0.74700004 9.2247478e-41
-0.0035571479 0.014939971 0.7470001 9.4404076e-41
-0.0021228516 0.014859989 0.74300003 9.2254484e-41
-0.00070665585 0.014839992 0.74199998 9.2976153e-41
0.00070666993 0.014839984 0.74200004 9.2262892e-41
0.0021200068 0.014839977 0.74200004 9.3711835e-41
0.0035333431 0.014839984 0.74200004 9.2292319e-41
0.0049466793 0.014839992 0.74199998 9.3734256e-41
0.0063428669 0.014799997 0.74000001 9.2306332e-41
0.0077419034 0.014779992 0.73900002 9.4450319e-41
0.0091495169 0.01478 0.73900002 9.2290918e-41
0.010557145 0.014779985 0.73900002 9.4063561e-41
0.011964758 0.014779992 0.73900002 9.2248879e-41
0.013390494 0.014799997 0.74000001 9.4042541e-41
0.014780001 0.014779985 0.73900002 9.2248879e-41
0.016209532 0.01479999 0.74000001 9.2995771e-41
0.017619045 0.014799982 0.74000001 9.2307734e-41
0.019028585 0.014799997 0.74000001 9.3372721e-41
0.02043811 0.01479999 0.74000001 1.8412221e-40
0.021906674 0.014839992 0.74200004 2.7668218e-40
0.02332001 0.014839984 0.74200004 2.7597172e-40
0.024733348 0.014839999 0.74200004 1.8484948e-40
0.026146684 0.014839999 0.74199998 1.8412922e-40
0.027560009 0.014839984 0.74200004 9.4081778e-41
0.028973347 0.014839992 0.74200004 9.2283912e-41
0.030427631 0.014859997 0.74299997 9.3008383e-41
0.031842854 0.014859982 0.74300003 9.2297925e-41
0.033258107 0.014859989 0.74300003 9.5527918e-41
0.034766667 0.014899991 0.74500006 1.6567342e-39
0.0361857 0.014899977 0.74500006 3.225471e-39
0.037705719 0.014939986 0.74700004 3.596759e-39
0.039128564 0.014939979 0.7470001 3.8700823e-39
0.040551439 0.014939979 0.74700004 3.2196682e-39
0.042030476 0.014960006 0.74800003 2.4975945e-39
0.043571431 0.014999986 0.75000006 6.7522155e-39
0.045119997 0.015039988 0.75200003 1.096619e-38
0.04673811 0.01509998 0.75500005 6.1709597e-39
0.048367627 0.015159972 0.75800002 1.3883575e-39
0.049942866 0.015199997 0.76000005 1.3797675e-39
0.051458094 0.015220001 0.76100004 1.3869281e-39
0.05290762 0.015219994 0.76100004 1.4719351e-39
0.05450001 0.015259989 0.76300001 1.5723774e-39
0.055953331 0.015259981 0.76300001 9.2342906e-40
0.075240016 0.015960008 0.79799998 1.2181628e-40
0.076760024 0.015959986 0.79800004 1.1558285e-38
0.078280017 0.01596 0.79800004 2.2951662e-38
0.079800017 0.01596 0.79800004 2.3234019e-38
0.081320025 0.01596 0.79799998 2.341769e-38
0.082840011 0.015959993 0.79800004 2.341769e-38
0.084360011 0.015960008 0.79800004 2.341769e-38
0.085880019 0.01596 0.79799998 2.341769e-38
-0.022585718 0.016757138 0.76500005 3.0411035e-39
-0.021073334 0.016713321 0.76300001 2.671235e-39
-0.019568574 0.016669512 0.76100004 2.2127582e-39
-0.018000012 0.016559996 0.7560001 1.6613739e-39
-0.016494272 0.016494282 0.75299996 1.1060435e-39
-0.015040005 0.016472369 0.75200003 4.5957265e-40
-0.013607623 0.016472377 0.75200003 3.8757463e-39
-0.012142851 0.01642856 0.75000006 7.3907129e-39
-0.010714282 0.016428553 0.75000006 8.3981386e-39
-0.0092857042 0.016428553 0.75000006 9.4932436e-39
-0.0078361956 0.016384751 0.74800003 9.1225665e-39
-0.0064114388 0.016384743 0.74800003 8.7412368e-39
-0.0049799988 0.016362831 0.74700004 8.1952474e-39
-0.0035571419 0.016362846 0.74700004 7.5359043e-39
-0.0021228548 0.01627522 0.74300003 7.7271157e-39
-0.00070760999 0.01627522 0.74300003 7.8067767e-39
0.00070667086 0.016253315 0.74200004 6.7140988e-39
0.0021200073 0.016253315 0.74200004 5.6041877e-39
0.0035333436 0.016253322 0.74199998 6.3482043e-39
0.0049466691 0.016253315 0.74200004 7.1636129e-39
0.0063428753 0.01620952 0.74000001 6.2484964e-39
0.0077418988 0.016187616 0.73900002 5.3272589e-39
0.0091495272 0.016187608 0.73900002 5.7042741e-39
0.010571439 0.01620952 0.74000001 6.0615435e-39
0.011980968 0.016209505 0.74000001 4.8683701e-39
0.013390492 0.01620952 0.74000001 3.7677973e-39
0.014800017 0.01620952 0.74000001 4.0497778e-39
0.01620953 0.01620952 0.74000001 4.4092487e-39
0.017666677 0.01625333 0.74200004 4.04372e-39
0.019028584 0.016209505 0.74000001 3.7657094e-39
0.020493338 0.016253322 0.74200004 3.4902085e-39
0.021906674 0.01625333 0.74200004 3.3065375e-39
0.02332001 0.016253322 0.74200004 3.398373e-39
0.024733348 0.01625333 0.74199998 3.4902001e-39
0.026146673 0.016253322 0.74200004 5.2476203e-39
0.027560009 0.016253322 0.74200004 7.0739172e-39
0.029012388 0.016275227 0.74300003 6.5350913e-39
0.030427635 0.01627522 0.74299997 6.0622946e-39
0.031842858 0.016275235 0.74299997 6.0658945e-39
0.03325811 0.016275227 0.74300003 5.9697599e-39
0.034766667 0.016319029 0.74500006 4.8799364e-39
0.0361857 0.016319044 0.74500012 3.7772e-39
0.037705705 0.016362831 0.74700004 3.8715522e-39
0.039180953 0.016384751 0.74800003 4.0566413e-39
0.040605709 0.016384758 0.74800003 3.3151232e-39
0.042142864 0.016428567 0.75000006 2.6708749e-39
0.043571435 0.01642856 0.75000006 6.8311296e-39
0.045300014 0.016538084 0.75500005 1.0966883e-38
0.046738118 0.016538084 0.75500005 6.7258753e-39
0.048367631 0.016603805 0.75800002 2.4820709e-39
0.050008565 0.016669519 0.76100004 3.3150476e-39
0.051458091 0.016669512 0.76100004 4.1361861e-39
0.053046677 0.016713321 0.76300001 4.326673e-39
0.05450001 0.016713321 0.76300001 4.5042637e-39
0.076760024 0.017480001 0.79800004 5.8267476e-39
0.078280024 0.017480001 0.79799998 1.1647251e-38
0.07980001 0.017479986 0.79800004 1.3939621e-38
0.081320018 0.017480001 0.79800004 1.6346357e-38
0.082840011 0.017480008 0.79800004 1.5963948e-38
0.084571429 0.017523795 0.80000007 1.5611673e-38
0.085880011 0.017479993 0.79800004 1.5874265e-38
0.087619051 0.017523788 0.80000001 1.607085e-38
-0.021018105 0.018119045 0.76100004 2.5808288e-39
-0.019542852 0.018095225 0.76000005 1.8446987e-39
-0.018000005 0.017999992 0.7560001 1.1082029e-39
-0.016494276 0.017928563 0.75300002 6.4362619e-40
-0.015040005 0.017904751 0.75200003 9.9822897e-41
-0.013607613 0.017904758 0.75199997 7.3774637e-39
-0.012142843 0.017857134 0.75000006 1.4569048e-38
-0.010714274 0.017857127 0.75000006 1.6703583e-38
-0.0092857042 0.017857134 0.75000006 1.8804267e-38
-0.0078571355 0.017857134 0.75000006 1.8164236e-38
-0.0064285668 0.017857127 0.75000006 1.7416629e-38
-0.0049866722 0.017809518 0.74800003 1.6227783e-38
-0.003557147 0.017785691 0.74700004 1.5019221e-38
-0.0021228511 0.017690465 0.74299997 1.5289712e-38
-0.00070762116 0.017690465 0.74300003 1.5563423e-38
0.00070761616 0.01769045 0.74300003 1.3352554e-38
0.0021200078 0.01766666 0.74199998 1.1060258e-38
0.0035333338 0.017666645 0.74200004 1.2624337e-38
0.00494667 0.017666653 0.74200004 1.4178369e-38
0.006342859 0.017619029 0.74000001 1.2318345e-38
0.0077419044 0.017595239 0.73900002 1.050208e-38
0.0091495328 0.017595232 0.73900002 1.1243936e-38
0.010571438 0.017619044 0.74000001 1.1969966e-38
0.011980962 0.017619044 0.74000001 9.6431839e-39
0.013390491 0.017619029 0.74000001 7.3753141e-39
0.014800015 0.017619051 0.74000001 8.0217863e-39
0.016209537 0.017619044 0.74000001 8.6635586e-39
0.017666677 0.017666668 0.74199998 7.9991876e-39
0.019080002 0.017666653 0.74200004 7.3666919e-39
0.020493338 0.01766666 0.74200004 6.8880924e-39
0.021906676 0.01766666 0.74199998 6.3493142e-39
0.023320012 0.01766666 0.74199998 6.612663e-39
0.024766669 0.017690465 0.74300003 6.8246963e-39
0.026181908 0.017690457 0.74300003 1.0426035e-38
0.027597154 0.017690457 0.74299997 1.4007259e-38
0.029012391 0.017690472 0.74300003 1.3095361e-38
0.030427627 0.017690457 0.74300003 1.2069008e-38
0.031842861 0.017690465 0.74299997 1.1954913e-38
0.033347599 0.017738067 0.74500012 1.1878865e-38
0.034766659 0.017738089 0.74500006 8.1157644e-39
0.036282863 0.017785691 0.74700004 4.2432228e-39
0.037756186 0.017809518 0.74800009 4.2388928e-39
0.039180946 0.017809518 0.74800009 4.1459615e-39
0.040605728 0.017809518 0.74800003 3.4962789e-39
0.042142875 0.017857134 0.75000006 2.7716535e-39
0.043571427 0.017857134 0.75000006 6.9340396e-39
0.045300018 0.017976187 0.755 1.0967219e-38
0.046799995 0.017999999 0.75600004 7.2833469e-39
0.048495241 0.018095218 0.76000011 3.5087771e-39
0.050008584 0.018119045 0.76100004 5.1700795e-39
0.051458094 0.018119045 0.76100004 6.818822e-39
0.05304667 0.018166646 0.76300001 7.1018717e-39
0.054499991 0.018166661 0.76300001 7.3705749e-39
0.076952383 0.019047596 0.80000001 1.9246834e-40
0.078476191 0.01904761 0.80000001 2.1257698e-40
0.07980001 0.018999994 0.79800004 4.7143296e-39
0.081320018 0.019000009 0.79799998 9.2275182e-39
0.082840003 0.019000001 0.79800004 8.4795387e-39
0.084360003 0.018999986 0.79800004 7.7620907e-39
0.086095236 0.019047603 0.80000001 8.2123153e-39
0.087619059 0.019047596 0.80000001 8.6811897e-39
-0.021018099 0.019568563 0.76100004 2.7666466e-39
-0.019568572 0.019568563 0.76100004 2.1219989e-39
-0.018000003 0.019439995 0.75600004 1.568451e-39
-0.016538087 0.019414276 0.75500005 8.287195e-40
-0.015040004 0.019337133 0.75200003 9.2348371e-41
-0.013607613 0.01933714 0.75199997 7.9375739e-39
-0.012142844 0.019285709 0.75000006 1.5875652e-38
-0.010714273 0.019285716 0.75000006 1.7718508e-38
-0.0092857042 0.019285709 0.75000006 1.9652435e-38
-0.0078571355 0.019285701 0.75000006 1.863507e-38
-0.0064285658 0.019285694 0.75000006 1.7624862e-38
-0.0049866741 0.01923427 0.74800003 1.7799189e-38
-0.0035619168 0.019234277 0.74800009 1.7900718e-38
-0.0021228474 0.019105695 0.74299997 1.8169415e-38
-0.00070761744 0.01910571 0.74300003 1.845817e-38
0.00070761988 0.019105695 0.74300003 1.7705524e-38
0.002120012 0.019079991 0.74200004 1.6976225e-38
0.0035333484 0.019079983 0.74200004 1.7707324e-38
0.00494667 0.019079983 0.74199998 1.8454204e-38
0.0063599963 0.019079983 0.74200004 1.7607951e-38
0.0077523966 0.019028559 0.74000001 1.6792201e-38
0.0091495272 0.019002855 0.73900002 1.6233662e-38
0.010571445 0.019028574 0.74000001 1.5695861e-38
0.011980959 0.019028559 0.74000001 1.5399488e-38
0.013390484 0.019028574 0.74000001 1.5232016e-38
0.014800014 0.019028567 0.74000001 1.5499327e-38
0.016253341 0.019079991 0.74199998 1.5784859e-38
0.017666666 0.019079983 0.74200004 1.5399562e-38
0.019080004 0.019079991 0.74200004 1.4946736e-38
0.020493338 0.019079991 0.74200004 1.2623835e-38
0.021906665 0.019079983 0.74200004 1.03352e-38
0.023351436 0.019105703 0.74299997 1.1525191e-38
0.024766674 0.019105703 0.74300003 1.2831392e-38
0.026181912 0.019105703 0.74300003 1.5134151e-38
0.027597157 0.01910571 0.74299997 1.7444037e-38
0.02901238 0.019105703 0.74300003 1.7158493e-38
0.030427618 0.019105695 0.74300003 1.6796123e-38
0.031928562 0.019157127 0.74500012 1.6229634e-38
0.033347622 0.019157134 0.74500006 1.5596832e-38
0.034860004 0.019208543 0.74700004 8.9473678e-39
0.036282852 0.019208558 0.7470001 2.3107608e-39
0.037756186 0.019234285 0.74800003 2.862075e-39
0.039180946 0.019234277 0.74800003 3.5059801e-39
0.040714286 0.019285694 0.75000006 2.4896716e-39
0.042142868 0.019285709 0.75000006 1.4751693e-39
0.043687616 0.019337125 0.75200003 7.8405101e-39
0.045300014 0.019414276 0.75500005 1.4276144e-38
0.046799995 0.019439988 0.7560001 1.2159598e-38
0.048495244 0.019542843 0.76000005 1.0120229e-38
0.05000858 0.019568563 0.76100004 9.7633144e-39
0.051593337 0.019619979 0.76300001 9.3977857e-39
0.05304667 0.019619986 0.76299995 7.8287084e-39
0.054642852 0.01967141 0.76500005 6.2732531e-39
0.079800017 0.020520002 0.79799998 5.8090506e-39
0.08132001 0.020520002 0.79800004 9.6660966e-39
0.082840011 0.020519994 0.79800004 9.3066004e-39
0.084360003 0.020520002 0.79799998 9.0304087e-39
0.086095244 0.020571403 0.80000001 9.0322346e-39
0.087619051 0.020571411 0.80000001 9.0186252e-39
0.089142859 0.020571418 0.80000001 9.3996214e-39
-0.020935232 0.020935223 0.75800002 2.858831e-39
-0.01949143 0.020935223 0.75800002 2.4918492e-39
-0.018000012 0.020879976 0.7560001 2.0269068e-39
-0.016538082 0.02085238 0.755 1.1024281e-39
-0.015059992 0.020797141 0.75300002 1.0419215e-40
-0.013607621 0.020769522 0.75199997 8.5883299e-39
-0.012142853 0.020714261 0.75000006 1.7063782e-38
-0.010714282 0.020714261 0.75000006 1.8825915e-38
-0.0092857033 0.020714283 0.75000006 2.0478237e-38
-0.0078571336 0.020714276 0.75000006 1.9190387e-38
-0.0064285654 0.020714276 0.75000006 1.7802442e-38
-0.0049866731 0.020659052 0.74800003 1.9259244e-38
-0.0035571395 0.02063141 0.74700004 2.0746194e-38
-0.0021228543 0.02052094 0.74300003 2.102924e-38
-0.00070761371 0.02052094 0.74299997 2.1210746e-38
0.00070762361 0.020520933 0.74300003 2.20351e-38
0.0021200129 0.020493321 0.74200004 2.2862339e-38
0.0035333494 0.020493321 0.74199998 2.2774811e-38
0.0049466756 0.020493321 0.74200004 2.2681898e-38
0.0063600116 0.020493321 0.74200004 2.2866643e-38
0.0077523901 0.020438097 0.74000001 2.2952379e-38
0.0091619203 0.020438083 0.74000001 2.1202121e-38
0.010571444 0.020438083 0.74000001 1.9367181e-38
0.011980969 0.020438097 0.74000001 2.1210681e-38
0.013390482 0.020438083 0.74000001 2.2954866e-38
0.014800007 0.020438083 0.74000001 2.2958482e-38
0.016253332 0.020493314 0.74200004 2.2864125e-38
0.017666668 0.020493306 0.74200004 2.2682957e-38
0.019080019 0.020493329 0.74199998 2.2483416e-38
0.020493329 0.020493314 0.74200004 1.8324905e-38
0.021906665 0.020493306 0.74200004 1.4202422e-38
0.023320002 0.020493329 0.74200004 1.6505194e-38
0.024766678 0.020520948 0.74300003 1.8719677e-38
0.026181916 0.020520933 0.74300003 1.9834645e-38
