# .PCD v0.7 - Point Cloud Data file format
VERSION 0.7
FIELDS x y z rgb
SIZE 4 4 4 4
TYPE F F F F
COUNT 1 1 1 1
WIDTH 972
HEIGHT 1
VIEWPOINT 0 0 0 1 0 0 0
POINTS 972
DATA ascii
0.026148561 0.036876187 0.704 3.0451098e-39
0.027450461 0.036823794 0.70300007 3.7816057e-39
0.028830476 0.036876179 0.70400006 4.5162518e-39
0.030171417 0.036876187 0.70400006 4.0548827e-39
0.03151238 0.036876187 0.70400006 3.5910305e-39
0.032853317 0.036876179 0.70400006 3.5002586e-39
0.034194279 0.036876202 0.70400006 3.4289465e-39
0.035535228 0.036876187 0.704 1.0342153e-38
0.036876183 0.036876172 0.70400006 1.7251376e-38
0.038271416 0.036928564 0.70500004 1.68812e-38
0.039558087 0.036876187 0.70400006 1.6606754e-38
0.043861888 0.039547615 0.75500005 1.6326568e-38
0.04529997 0.039547592 0.75500011 1.6054655e-38
0.046738081 0.039547611 0.75500005 1.6048923e-38
-0.032785725 0.041528568 0.76500005 4.7092443e-39
-0.031164778 0.041311409 0.76100004 8.1204587e-39
-0.029676195 0.041257139 0.76000005 1.1522331e-38
-0.028154302 0.041148558 0.75800002 1.0884517e-38
-0.026710484 0.041148555 0.75800002 1.0240974e-38
-0.025200007 0.041039988 0.75600004 1.1077203e-38
-0.023728598 0.0409857 0.75500011 1.1891496e-38
-0.022231439 0.040877134 0.75300002 1.0865134e-38
-0.020769536 0.040822856 0.75200003 9.7774774e-39
-0.019337159 0.040822852 0.75200003 1.0252101e-38
-0.017809553 0.040605694 0.74800009 1.0686451e-38
-0.016362868 0.040551424 0.74700004 5.5202696e-39
-0.014900016 0.040442843 0.74500006 2.8024708e-40
-0.013444774 0.040334269 0.74300003 1.2000202e-39
-0.01202954 0.040334277 0.74300003 2.0287074e-39
-0.010614304 0.040334266 0.74300003 2.029799e-39
-0.0091866748 0.040279992 0.74200004 2.0301578e-39
-0.007752392 0.040171411 0.74000001 2.0315927e-39
-0.0063342866 0.040117145 0.73899996 1.9401075e-39
-0.0049266689 0.040117137 0.73899996 2.675502e-39
-0.0035095387 0.040008549 0.73700005 3.4076608e-39
-0.0021028654 0.039954282 0.73600006 2.6708118e-39
-0.00070096308 0.039954282 0.73600006 1.84324e-39
0.00070094282 0.039954279 0.73600006 1.936893e-39
0.0020971335 0.039845705 0.73400003 1.9365174e-39
0.0034952164 0.039845705 0.73400009 2.8580841e-39
0.0048933248 0.039845705 0.73400003 3.6824484e-39
0.0062914225 0.039845698 0.73400009 2.1140689e-39
0.0076895161 0.039845716 0.73400003 5.5248574e-40
0.0090876138 0.039845709 0.73400003 3.68435e-40
0.010514269 0.039954282 0.73600006 1.8693041e-40
0.011916175 0.039954279 0.73600006 4.6352571e-40
0.013318084 0.039954279 0.73600006 6.4938973e-40
0.014739987 0.04000856 0.73700005 8.323825e-40
0.016143791 0.040008556 0.73700005 1.0167934e-39
0.017547598 0.040008549 0.73700005 1.291965e-39
0.018951405 0.04000856 0.73700005 1.5678288e-39
0.020327605 0.039954275 0.73600006 1.7522172e-39
0.021729514 0.039954267 0.73600006 1.9355253e-39
0.023131421 0.039954286 0.73600006 1.750055e-39
0.023499981 0.038271416 0.70500004 1.5678232e-39
0.024807617 0.038217127 0.70400006 2.027365e-39
0.026111409 0.038162854 0.70300007 2.4912172e-39
0.027450461 0.03816285 0.70300007 3.2298584e-39
0.0287895 0.03816285 0.70300007 3.9645046e-39
0.030128554 0.038162839 0.70300007 3.4130964e-39
0.031467605 0.038162842 0.70300007 2.7623586e-39
0.032853324 0.038217142 0.70400012 3.398394e-39
0.034194268 0.038217135 0.70400006 4.0717936e-39
0.035535235 0.038217142 0.704 1.0713064e-38
0.036876172 0.038217135 0.70400006 1.7336383e-38
0.038217135 0.038217142 0.70400006 1.6879757e-38
0.03955809 0.038217135 0.70400006 1.6326589e-38
0.043861892 0.040985715 0.75500005 1.6508822e-38
0.045299973 0.0409857 0.75500011 1.6602457e-38
0.046799995 0.041039992 0.75600004 1.7062e-38
-0.032785725 0.042985715 0.76500005 5.3456075e-39
-0.031246683 0.042873327 0.76300001 6.5499311e-39
-0.029715259 0.04276095 0.7610001 7.850713e-39
-0.028228574 0.042704754 0.76000005 8.7676498e-39
-0.026780955 0.04270475 0.76000005 9.7821591e-39
-0.025266679 0.042592369 0.75800002 1.0427174e-38
-0.023760004 0.042479992 0.75600004 1.1063533e-38
-0.022231445 0.042311411 0.75300008 1.0693646e-38
-0.020769538 0.042255223 0.75200003 1.0332788e-38
-0.01928572 0.042142853 0.75 7.936841e-39
-0.017785732 0.041974261 0.7470001 5.5271499e-39
-0.01636287 0.041974284 0.74700004 3.1296558e-39
-0.014900014 0.041861892 0.74500012 7.3620438e-40
-0.013444774 0.0417495 0.74300003 1.0160269e-39
-0.012013352 0.041693322 0.7420001 1.385887e-39
-0.010600012 0.041693322 0.7420001 1.5706412e-39
-0.0091866776 0.041693319 0.74200004 1.8461463e-39
-0.0077523948 0.041580953 0.74000001 1.8465022e-39
-0.0063428762 0.041580942 0.74000001 1.9379678e-39
-0.0049266699 0.041524753 0.73900002 2.1223436e-39
-0.0035190522 0.041524753 0.73900002 2.3964138e-39
-0.00210287 0.041356176 0.73600006 1.9354412e-39
-0.00070096774 0.041356191 0.73600006 1.5663252e-39
0.0007009391 0.041356187 0.73600006 1.6588964e-39
0.0021028328 0.04135618 0.73600006 1.8425295e-39
0.0034952201 0.041243795 0.73400009 2.4925134e-39
0.0049066478 0.041356184 0.73600006 3.2318679e-39
0.0063085537 0.041356195 0.73600006 1.8425029e-39
0.0077104638 0.04135618 0.73600006 4.5993138e-40
0.0091123693 0.041356184 0.73600006 2.7731977e-40
0.010514265 0.041356176 0.73600006 1.8693322e-40
0.011916185 0.041356187 0.73600006 3.7241188e-40
0.01331808 0.04135618 0.73600006 5.5755284e-40
0.014739981 0.041412376 0.73699999 7.4090013e-40
0.016143803 0.041412376 0.73699999 1.016429e-39
0.017547607 0.041412383 0.73699999 1.2004798e-39
0.018951414 0.041412372 0.73699999 1.4759877e-39
0.020327616 0.041356184 0.73600006 1.4770639e-39
0.02172951 0.041356176 0.73600006 1.5681791e-39
0.023131415 0.04135618 0.73600006 1.384864e-39
0.023499988 0.039614275 0.7050001 1.2951851e-39
0.024807606 0.039558087 0.70400006 1.4785002e-39
0.026111409 0.039501891 0.70300001 1.5699826e-39
0.027450461 0.039501905 0.70300001 2.6763175e-39
0.028789502 0.039501894 0.70300007 3.779742e-39
0.030128554 0.039501891 0.70300007 2.8588394e-39
0.031467605 0.039501891 0.70300007 1.9318931e-39
0.032806642 0.039501894 0.70300007 4.2338972e-39
0.034194272 0.039558083 0.70400006 6.5531442e-39
0.035535239 0.03955809 0.70400006 1.1906549e-38
0.036876176 0.03955809 0.70400006 1.715485e-38
0.038217138 0.03955809 0.70400006 1.650846e-38
0.039558079 0.039558075 0.70400006 1.5861317e-38
0.043919995 0.042479996 0.75600004 1.604715e-38
0.045359991 0.042479984 0.75600004 1.6141504e-38
0.046799984 0.042479984 0.75600004 1.6326257e-38
-0.032785729 0.044442847 0.76500005 5.9041483e-39
-0.031246677 0.044326663 0.76300001 5.0661438e-39
-0.029793343 0.044326667 0.76300001 4.156418e-39
-0.028265737 0.044210453 0.7610001 6.7364425e-39
-0.02681621 0.044210464 0.7610001 9.2203463e-39
-0.025333345 0.044152357 0.76000011 9.6939151e-39
-0.02382287 0.04403618 0.75800002 1.0144456e-38
-0.022231439 0.043745704 0.75300002 1.0513565e-38
-0.020769536 0.043687612 0.75199997 1.0879437e-38
-0.019337149 0.043687623 0.75199997 5.6343745e-39
-0.017785728 0.043397147 0.74700004 2.8817002e-40
-0.016362872 0.043397136 0.7470001 7.3513379e-40
-0.01490001 0.043280933 0.74500006 1.1064204e-39
-0.013480963 0.043280948 0.74500006 9.2597803e-40
-0.012029544 0.043164741 0.74300003 6.5155614e-40
-0.010614293 0.043164745 0.74300003 1.1118182e-39
-0.009186673 0.043106653 0.74200004 1.5709957e-39
-0.0077523994 0.042990465 0.74000007 1.754308e-39
-0.0063428697 0.042990468 0.74000001 1.9383251e-39
-0.0049266689 0.042932384 0.73900002 1.6631633e-39
-0.0035190503 0.042932369 0.73900002 1.2943836e-39
-0.0021028747 0.042758085 0.73600006 1.2918683e-39
-0.00070096215 0.042758096 0.73600006 1.2908019e-39
0.00070094096 0.042758081 0.73600006 1.4726904e-39
0.0021028537 0.042758092 0.73600006 1.6609941e-39
0.0035047489 0.042758092 0.73600006 2.2205872e-39
0.0049066548 0.042758089 0.73600006 2.6769033e-39
0.0063085645 0.042758103 0.73600006 1.5644839e-39
0.0077104699 0.0427581 0.73600006 3.6916648e-40
0.0091123646 0.042758085 0.73600006 2.7695263e-40
0.010514284 0.042758096 0.73600006 9.5449445e-41
0.011932367 0.042816188 0.73700005 2.8164698e-40
0.013318086 0.0427581 0.73600006 4.65353e-40
0.01473998 0.042816177 0.73700005 7.4089452e-40
0.016143786 0.042816177 0.73700005 9.2458373e-40
0.017547607 0.04281617 0.73700005 1.108989e-39
0.018951412 0.042816181 0.73700005 1.2933747e-39
0.020327611 0.042758092 0.73600006 1.2029727e-39
0.021729518 0.042758096 0.73600006 1.1093449e-39
0.023131412 0.042758081 0.73600006 1.108989e-39
0.023499981 0.04095713 0.7050001 1.0196688e-39
0.02480761 0.040899035 0.70400006 8.3779712e-40
0.026148573 0.040899038 0.70400006 6.5376879e-40
0.027450465 0.040840946 0.70300001 2.1249318e-39
0.028789502 0.040840942 0.70300001 3.5964339e-39
0.030128554 0.040840946 0.70300001 2.3110761e-39
0.031467605 0.040840931 0.70300007 1.015336e-39
0.032806642 0.040840942 0.70300007 5.0514343e-39
0.034194279 0.040899038 0.70400006 9.0384634e-39
0.03548475 0.040840946 0.70300007 1.3021546e-38
0.036823783 0.040840935 0.70300007 1.6970118e-38
0.038162839 0.040840939 0.70300007 1.6228981e-38
0.039501891 0.040840939 0.70300007 1.5402121e-38
0.043920003 0.043919988 0.75600004 1.5584736e-38
0.045359999 0.043919999 0.75600004 1.5680523e-38
0.046799995 0.043919988 0.75600004 1.558941e-38
-0.031246675 0.045780003 0.76300001 5.8997678e-39
-0.029793344 0.045779992 0.76299995 4.9620637e-39
-0.028265733 0.045659985 0.76100004 5.5270897e-39
-0.026816212 0.045659974 0.7610001 6.0763791e-39
-0.025333341 0.04559999 0.76000005 5.90318e-39
-0.023822868 0.045479987 0.75800002 5.7255878e-39
-0.022320008 0.045359991 0.75600004 6.4641968e-39
-0.020797154 0.045179997 0.75300002 7.2106209e-39
-0.019285722 0.044999994 0.75000006 3.9708104e-39
-0.017809546 0.044879977 0.74800003 7.3509735e-40
-0.016362876 0.044819996 0.74700004 1.0135269e-39
-0.014900018 0.044699982 0.74500006 1.2933256e-39
-0.01348096 0.044699989 0.74500006 1.1099993e-39
-0.012029534 0.044579998 0.74300003 1.0185338e-39
-0.0106143 0.04457999 0.74300003 1.3873205e-39
-0.0091866758 0.044519991 0.74200004 1.7546653e-39
-0.0077733416 0.044519991 0.74200004 2.0301732e-39
-0.0063428725 0.044399992 0.74000001 2.3060244e-39
-0.004933354 0.044399977 0.74000007 1.8468315e-39
-0.0035190484 0.04434 0.73899996 1.4787664e-39
-0.0021057329 0.044219989 0.73700005 1.2929375e-39
-0.00070096587 0.044160001 0.73600006 1.198951e-39
0.0007009363 0.044159986 0.73600006 1.2904291e-39
0.0021028491 0.044159986 0.73600006 1.4747966e-39
0.0035047443 0.044160001 0.73600006 2.399945e-39
0.0049066497 0.044159997 0.73600006 3.3226174e-39
0.0063085598 0.044159979 0.73600006 1.8435763e-39
0.0077104652 0.044160008 0.73600006 4.6099777e-40
0.0091123609 0.044159994 0.73600006 2.7766028e-40
0.010514281 0.044160005 0.73600006 1.8727793e-40
0.011932367 0.044219989 0.73700005 3.7204194e-40
0.013336172 0.044219986 0.73700005 5.561067e-40
0.014739978 0.044219978 0.73700005 8.3236568e-40
0.016143795 0.044220008 0.73699999 1.0160507e-39
0.017547602 0.044220001 0.73699999 1.2930047e-39
0.018951423 0.044220001 0.73699999 1.5688643e-39
0.020327607 0.044160001 0.73600006 1.477382e-39
0.021729514 0.044160005 0.73600006 1.3837598e-39
0.022157123 0.042299993 0.7050001 1.3844843e-39
0.02346666 0.042240001 0.70400006 1.3873611e-39
0.024807613 0.04223999 0.70400006 1.2040545e-39
0.026148561 0.04223999 0.70400006 1.1125763e-39
0.027450463 0.042179994 0.70300001 2.400783e-39
0.028789502 0.042179994 0.70300001 3.7815426e-39
0.030042835 0.042059973 0.70100003 2.4000627e-39
0.031467605 0.042179987 0.70300001 1.1039457e-39
0.032806642 0.042179987 0.70300001 5.5227947e-39
0.034145694 0.042179994 0.70300001 1.0058362e-38
0.03548475 0.042179987 0.70300007 1.5133461e-38
0.036719035 0.042059988 0.70100003 2.0097563e-38
0.038054261 0.042059988 0.70100003 1.8348704e-38
0.039389517 0.042059984 0.70100003 1.6504489e-38
0.043919999 0.045359991 0.75600004 1.6230085e-38
0.045479987 0.045479979 0.75800002 1.5957813e-38
0.046923794 0.045479983 0.75800002 1.6141488e-38
-0.031246688 0.047233317 0.76300001 6.8271261e-39
-0.029793344 0.047233317 0.76300001 5.7147053e-39
-0.028340017 0.047233324 0.76300001 4.3332352e-39
-0.026816212 0.047109507 0.7610001 2.9503442e-39
-0.025366683 0.047109514 0.76100004 2.1159551e-39
-0.023885731 0.047047596 0.76000011 1.3005395e-39
-0.022320019 0.046799973 0.75600004 2.4072108e-39
-0.020797161 0.046614274 0.75300008 3.417362e-39
-0.019337159 0.046552371 0.75200003 2.3030999e-39
-0.017809547 0.046304755 0.74800003 1.1064008e-39
-0.016362865 0.046242859 0.74700004 1.2908229e-39
-0.014940013 0.046242852 0.74700004 1.3840849e-39
-0.013480959 0.046119038 0.74500006 1.3851513e-39
-0.012061921 0.046119027 0.74500006 1.2951165e-39
-0.010614299 0.045995221 0.74300003 1.6635403e-39
-0.0091990633 0.045995224 0.74300003 1.938695e-39
-0.0077733379 0.045933325 0.74200004 2.3049678e-39
-0.0063600144 0.045933306 0.7420001 2.5811764e-39
-0.0049333484 0.045809515 0.74000001 2.1230611e-39
-0.0035190494 0.045747597 0.73900002 1.5709635e-39
-0.0021057338 0.045623794 0.73700005 1.2936549e-39
-0.00070192793 0.045623787 0.73700005 1.0159834e-39
0.00070094282 0.04556191 0.73600006 1.1985656e-39
0.0021028449 0.045561895 0.73600006 1.293271e-39
0.0035047508 0.045561902 0.73600006 2.5818378e-39
0.0049066604 0.045561887 0.73600006 3.8675417e-39
0.0063085654 0.045561887 0.73600006 2.2091288e-39
0.0077104601 0.045561902 0.73600006 4.6171944e-40
0.0091123665 0.045561895 0.73600006 3.6878392e-40
0.010528554 0.045623809 0.73699999 2.7839597e-40
0.011932361 0.045623809 0.73699999 4.6279703e-40
0.013336182 0.045623805 0.73699999 6.4793519e-40
0.014739987 0.045623798 0.73700005 9.245501e-40
0.016143795 0.045623794 0.73699999 1.1085952e-39
0.0175476 0.045623802 0.73700005 1.4777449e-39
0.018951407 0.045623802 0.73700005 1.844368e-39
0.020327613 0.045561895 0.73600006 1.7536087e-39
0.021729507 0.045561895 0.73600006 1.5677895e-39
0.0221257 0.043580946 0.70400006 1.6581957e-39
0.023466665 0.043580942 0.70400006 1.659995e-39
0.024807602 0.043580949 0.70400006 1.6617942e-39
0.026148565 0.043580946 0.70400006 1.5717482e-39
0.027450465 0.043519031 0.70300001 2.7677578e-39
0.028789502 0.043519042 0.70300001 3.8722921e-39
0.030128554 0.043519035 0.70300001 2.4947569e-39
0.031467605 0.043519039 0.70300001 1.1075345e-39
0.032806646 0.043519035 0.70300001 6.0616248e-39
0.034145694 0.043519042 0.70300001 1.1067488e-38
0.035383794 0.043395214 0.70100009 1.7172866e-38
0.03671902 0.043395206 0.70100009 2.3227174e-38
0.038054261 0.043395218 0.70100009 2.0471373e-38
0.039389502 0.043395206 0.70100009 1.7613708e-38
0.04403618 0.046923786 0.75800002 1.6964401e-38
0.045479987 0.04692379 0.75800002 1.6231878e-38
0.046923798 0.046923798 0.75800002 1.6692497e-38
-0.032700017 0.048686646 0.76300001 4.5186817e-39
-0.031246683 0.04868665 0.76300001 4.6137822e-39
-0.029715257 0.048559032 0.7610001 4.8071334e-39
-0.028265726 0.048559044 0.76100004 4.0606056e-39
-0.026816217 0.048559036 0.7610001 3.408765e-39
-0.025366686 0.048559029 0.7610001 2.6704685e-39
-0.023885719 0.048495222 0.76000005 2.0240187e-39
-0.022320017 0.048239987 0.75600004 2.3038145e-39
-0.020852407 0.048176184 0.75500011 2.5750359e-39
-0.019362867 0.048048552 0.75300002 1.9336405e-39
-0.017809551 0.047729503 0.74800009 1.2908061e-39
-0.016384788 0.0477295 0.74800009 1.3830129e-39
-0.014940009 0.047665715 0.74700004 1.4744855e-39
-0.013480965 0.047538083 0.74500012 1.476991e-39
-0.012061909 0.047538079 0.74500006 1.3880282e-39
-0.010614306 0.047410451 0.74300003 1.5720593e-39
-0.0091990642 0.047410462 0.74300003 1.7553842e-39
-0.0077733407 0.047346652 0.74200004 2.0301844e-39
-0.0063600172 0.047346644 0.7420001 2.3045993e-39
-0.0049466756 0.047346655 0.74200004 1.8468413e-39
-0.0035238317 0.047219027 0.74000007 1.4802056e-39
-0.002105732 0.047027607 0.73699999 1.1096238e-39
-0.00070191862 0.047027607 0.73700005 8.3158096e-40
0.00070188718 0.047027618 0.73700005 1.1084957e-39
0.0021057003 0.04702761 0.73700005 1.3865344e-39
0.0035095075 0.04702761 0.73700005 2.1223156e-39
0.0049133133 0.047027621 0.73700005 2.9484777e-39
0.0063171196 0.047027607 0.73700005 1.7499541e-39
0.0077209412 0.04702761 0.73700005 5.5212421e-40
0.0091247475 0.047027603 0.73700005 4.6098375e-40
0.010528553 0.047027603 0.73700005 3.7023286e-40
0.01193236 0.047027614 0.73700005 5.5498706e-40
0.013336167 0.047027607 0.73700005 7.3940494e-40
0.014739987 0.04702761 0.73700005 9.2418156e-40
0.016143793 0.047027618 0.73700005 1.1078694e-39
0.0175476 0.04702761 0.73700005 1.38375e-39
0.018951405 0.047027603 0.73700005 1.7503787e-39
0.020327609 0.046963789 0.73600006 1.7507403e-39
0.021729503 0.046963803 0.73600006 1.7507445e-39
0.023131423 0.0469638 0.73600006 1.5660001e-39
0.023433322 0.044858087 0.70300001 1.3808984e-39
0.024807606 0.04492189 0.70400006 1.4759667e-39
0.026111413 0.044858091 0.70300001 1.6625019e-39
0.027450465 0.044858087 0.70300001 2.5837197e-39
0.028789502 0.044858083 0.70300001 3.5060165e-39
0.030128554 0.044858091 0.70300001 2.4003976e-39
0.031467605 0.044858087 0.70300001 1.2901307e-39
0.032806642 0.044858076 0.70300001 5.0647214e-39
0.034145694 0.044858091 0.70300001 8.8652419e-39
0.035383787 0.044730451 0.70100003 1.5963589e-38
0.036719028 0.044730455 0.70100003 2.304425e-38
0.038054269 0.044730455 0.70100003 2.1114628e-38
0.039333321 0.044666667 0.69999999 1.9085965e-38
0.040666651 0.044666655 0.70000005 1.7701586e-38
0.045599993 0.048495233 0.76000005 1.6323347e-38
0.047109511 0.048559044 0.76100004 1.6692134e-38
0.048559025 0.048559036 0.76100004 1.7059482e-38
-0.032700017 0.050140001 0.76300001 1.1110517e-39
-0.031246681 0.050139993 0.76300001 2.4857395e-39
-0.02979335 0.050139993 0.76300001 3.7814866e-39
-0.028265741 0.050008558 0.7610001 3.7847208e-39
-0.026780955 0.049942836 0.76000005 3.7782468e-39
-0.025333337 0.049942844 0.76000005 3.3169001e-39
-0.023822865 0.049811423 0.75800002 2.7615781e-39
-0.022320015 0.049679987 0.75600004 2.2087687e-39
-0.020852402 0.049614269 0.75500005 1.6577627e-39
-0.019337151 0.049417127 0.75200003 1.5655755e-39
-0.017857151 0.049285717 0.75000006 1.3829905e-39
-0.01638479 0.049154274 0.74800009 1.4755533e-39
-0.014940018 0.049088564 0.7470001 1.5677447e-39
-0.013517155 0.049088564 0.74700004 1.5684608e-39
-0.012061915 0.048957128 0.74500006 1.4787805e-39
-0.010642869 0.048957117 0.74500006 1.5724138e-39
-0.0091990698 0.048825689 0.74300003 1.5720649e-39
-0.0077838255 0.048825707 0.74300003 1.7557457e-39
-0.0063600116 0.048759975 0.7420001 1.9386866e-39
-0.0049466784 0.048759989 0.74200004 1.6628088e-39
-0.0035333443 0.048759989 0.74200004 1.2943864e-39
-0.002111428 0.048562847 0.73899996 1.0167219e-39
-0.000701927 0.048431411 0.73700005 6.4864705e-40
0.00070188625 0.048431419 0.73700005 1.0170484e-39
0.0021056994 0.048431415 0.73700005 1.3858295e-39
0.003509507 0.048431411 0.73700005 1.6638528e-39
0.0049133128 0.048431408 0.73700005 1.9361292e-39
0.0063171186 0.048431415 0.73700005 1.2893347e-39
0.0077209244 0.048431415 0.73700005 5.5355353e-40
0.0091247465 0.048431411 0.73700005 5.5281505e-40
0.010528552 0.048431419 0.73700005 4.6206556e-40
0.011932368 0.048431426 0.73699999 6.4718129e-40
0.013336176 0.048431423 0.73699999 7.4011961e-40
0.014739996 0.048431423 0.73699999 9.2453469e-40
0.016143803 0.048431415 0.73699999 1.0156695e-39
0.017547609 0.048431426 0.73699999 1.2904754e-39
0.018951416 0.048431423 0.73699999 1.56527e-39
0.020355221 0.048431419 0.73699999 1.7478704e-39
0.02172951 0.048365701 0.73600006 1.9329763e-39
0.022094261 0.046197131 0.70300007 1.5656343e-39
0.023433324 0.046197131 0.70300001 1.1061009e-39
0.02480761 0.046262853 0.70400006 1.3819704e-39
0.026111413 0.046197139 0.70300001 1.660704e-39
0.027450465 0.046197139 0.70300001 2.3986152e-39
0.028789502 0.046197139 0.70300001 3.1361676e-39
0.030128554 0.046197142 0.70300001 2.3110817e-39
0.031467605 0.046197124 0.70300001 1.47631e-39
0.032806646 0.046197139 0.70300001 4.0412453e-39
0.034194279 0.04626283 0.70400006 6.5618015e-39
0.03548475 0.046197139 0.70300001 1.4771136e-38
0.036719035 0.046065703 0.70100003 2.2860206e-38
0.038054276 0.046065684 0.70100003 2.1764651e-38
0.039333317 0.045999989 0.70000005 2.0553903e-38
0.040318083 0.045605697 0.69400001 1.8433049e-38
0.04157998 0.045539975 0.69300002 1.6324428e-38
0.042899985 0.045539975 0.69300002 1.6693212e-38
-0.031246673 0.05159333 0.76300001 1.476942e-39
-0.029793337 0.051593333 0.76299995 2.0279717e-39
-0.028340016 0.051593326 0.76300001 2.4914708e-39
-0.026816219 0.051458079 0.7610001 3.0413978e-39
-0.02536669 0.051458072 0.7610001 2.8566408e-39
-0.023885714 0.051390473 0.76000005 2.7619439e-39
-0.022320013 0.051119987 0.75600004 2.2102204e-39
-0.020797156 0.050917137 0.75300002 1.6584858e-39
-0.019337161 0.050849508 0.75200003 1.3829737e-39
-0.017857151 0.050714273 0.75000006 1.1081917e-39
-0.016384792 0.050579034 0.74800003 1.2007516e-39
-0.014960021 0.050579026 0.74800003 1.3851401e-39
-0.013517164 0.050511416 0.7470001 1.4766169e-39
-0.012061913 0.050376177 0.745 1.5695342e-39
-0.010642866 0.050376184 0.74500006 1.4794965e-39
-0.0091990586 0.050240949 0.74300003 1.3880282e-39
-0.0077838246 0.050240941 0.74300003 1.5720663e-39
-0.0063685901 0.05024093 0.74300003 1.7557275e-39
-0.0049533481 0.050240941 0.74300003 1.4780588e-39
-0.0035333396 0.05017332 0.74200004 1.293313e-39
-0.0021114373 0.049970459 0.73900002 8.3198453e-40
-0.00070381945 0.049970455 0.73900002 4.6320201e-40
0.00070379919 0.049970463 0.73900002 9.2380741e-40
0.0021114349 0.04997047 0.73899996 1.3836911e-39
0.0035095164 0.049835242 0.73699999 1.66062e-39
0.0049133222 0.049835239 0.73699999 1.9346887e-39
0.006317128 0.049835235 0.73699999 1.1982083e-39
0.0077209338 0.049835227 0.73699999 5.5498145e-40
0.009124741 0.049835224 0.73699999 4.6169141e-40
0.010528562 0.049835239 0.73700005 4.6206275e-40
0.011932367 0.049835235 0.73700005 6.4753862e-40
0.013336174 0.049835227 0.73700005 8.3338723e-40
0.014739981 0.049835239 0.73700005 9.2452908e-40
0.016143788 0.049835235 0.73700005 1.0156653e-39
0.017547607 0.049835235 0.73700005 1.2904712e-39
0.018951414 0.049835224 0.73700005 1.6563852e-39
0.020355221 0.04983522 0.73700005 1.7496627e-39
0.021759026 0.049835235 0.73700005 1.9329721e-39
0.023162834 0.049835231 0.73700005 1.4737918e-39
0.023366656 0.04740094 0.70100003 9.220642e-40
0.02477235 0.047536172 0.70300007 1.3819605e-39
0.026111413 0.047536191 0.70300001 1.7500242e-39
0.027450465 0.047536187 0.70300001 2.397539e-39
0.028789502 0.047536179 0.70300001 2.9517834e-39
0.030128554 0.047536183 0.70300001 2.0323536e-39
0.031467609 0.047536194 0.70300001 1.1096826e-39
0.032806646 0.047536179 0.70300001 4.3282186e-39
0.034145698 0.047536176 0.70300001 7.4772669e-39
0.03548475 0.047536179 0.70300001 1.3475367e-38
0.036823787 0.047536194 0.70300001 1.9463356e-38
0.037999984 0.047333334 0.70000005 1.871973e-38
0.03922094 0.047198087 0.69800001 1.7972467e-38
0.040318061 0.046927601 0.69400007 1.7240988e-38
0.04163998 0.046927601 0.69400001 1.6603167e-38
0.042961888 0.046927609 0.69400001 1.6785766e-38
0.044283781 0.046927601 0.69400007 1.7061638e-38
-0.028340016 0.053046666 0.76300001 1.2958199e-39
-0.026816214 0.052907612 0.7610001 2.3056418e-39
-0.025333341 0.052838091 0.76000005 2.4900219e-39
-0.023822865 0.052699041 0.75800002 2.6715517e-39
-0.022320006 0.052559983 0.75600004 2.1198325e-39
-0.020852409 0.052490462 0.75500011 1.5673776e-39
-0.019337151 0.052281901 0.75199997 1.1989524e-39
-0.017857151 0.052142855 0.75000006 8.3269219e-40
-0.016428586 0.052142851 0.75000006 1.0174464e-39
-0.014960022 0.052003786 0.74800003 1.1085686e-39
-0.01351716 0.051934283 0.74700004 1.3837206e-39
-0.0120943 0.051934268 0.7470001 1.569188e-39
-0.010642873 0.051795214 0.74500006 1.3876722e-39
-0.0092238262 0.051795214 0.74500006 1.1128916e-39
-0.0078047691 0.051795237 0.74500006 1.296571e-39
-0.0063685887 0.051656179 0.74300003 1.4795063e-39
-0.0049533546 0.051656172 0.74300003 1.384424e-39
-0.0035381089 0.051656175 0.74300003 1.2918739e-39
-0.0021143057 0.0514476 0.74000007 7.387099e-40
-0.00070381013 0.051378079 0.73900002 1.8805425e-40
0.0007038085 0.051378094 0.73900002 7.3906723e-40
0.0021114261 0.051378086 0.73900002 1.2915123e-39
0.0035190438 0.051378079 0.73900002 1.6606466e-39
0.0049133212 0.051239043 0.73700005 1.9354258e-39
0.006317127 0.05123904 0.73700005 1.1978636e-39
0.0077209328 0.051239036 0.73700005 4.6208798e-40
0.00912474 0.051239043 0.73700005 4.602775e-40
0.010528547 0.05123904 0.73700005 4.6207957e-40
0.011964764 0.05137809 0.73900002 7.3867066e-40
0.013372382 0.051378082 0.73900002 9.2343327e-40
0.01473998 0.051239025 0.73700005 1.0156443e-39
0.016143786 0.051239036 0.73700005 1.0156611e-39
0.017547607 0.051239036 0.73700005 1.3826612e-39
0.018951412 0.051239032 0.73700005 1.6599768e-39
0.020410473 0.051378086 0.73900002 1.8443806e-39
0.021759026 0.051239036 0.73700005 1.93477e-39
0.023162842 0.051239043 0.73699999 1.3819535e-39
0.023366638 0.048736177 0.70100009 7.394638e-40
0.024701893 0.048736162 0.70100009 1.2901166e-39
0.026148567 0.048944741 0.70400006 1.843289e-39
0.027489515 0.048944764 0.704 2.3057021e-39
0.028830469 0.048944756 0.70400006 2.7670334e-39
0.030171417 0.048944756 0.70400006 1.7572045e-39
0.031512368 0.048944741 0.70400006 7.4128689e-40
0.03285332 0.048944749 0.70400006 4.5933681e-39
0.034194272 0.048944753 0.70400006 8.3967275e-39
0.035535235 0.048944749 0.70400006 1.2281521e-38
0.036876183 0.048944764 0.704 1.6052167e-38
0.038054269 0.048736177 0.70100009 1.5769495e-38
0.03938951 0.048736174 0.70100003 1.5402504e-38
0.040318076 0.048249513 0.69400007 1.6138256e-38
0.041579992 0.048179988 0.69299996 1.6783979e-38
-0.02834001 0.054499984 0.76300001 1.4769826e-39
-0.026780959 0.05428569 0.76000005 2.3034937e-39
-0.025333339 0.054285698 0.76000005 2.6719034e-39
-0.02382287 0.054142851 0.75800002 3.0381846e-39
-0.022320013 0.053999998 0.75600004 2.3946327e-39
-0.020797156 0.053785704 0.75300002 1.7506996e-39
-0.019337153 0.053714287 0.75200003 1.1993181e-39
-0.017857157 0.053571414 0.75000006 7.4014623e-40
-0.016428588 0.053571425 0.75000006 1.0156583e-39
-0.014960033 0.053428553 0.74800009 1.290097e-39
-0.013517148 0.053357147 0.74700004 1.4755701e-39
-0.012094298 0.053357136 0.74700004 1.7525129e-39
-0.010642868 0.053214278 0.74500006 1.7539492e-39
-0.0092238151 0.053214271 0.74500006 1.6642745e-39
-0.0078047761 0.053214274 0.74500006 1.8479539e-39
-0.0063857296 0.053214267 0.74500006 1.940839e-39
-0.004953342 0.053071428 0.74300003 1.6620773e-39
-0.003538108 0.053071421 0.74300003 1.3837038e-39
-0.0021200138 0.052999988 0.7420001 9.2345289e-40
-0.00070477778 0.052857127 0.74000001 5.5539764e-40
0.00070474122 0.052857123 0.74000007 9.2274383e-40
0.0021114275 0.05278571 0.73900002 1.2900942e-39
0.0035190457 0.052785706 0.73900002 1.6599543e-39
0.0049266638 0.052785698 0.73900002 2.0294347e-39
0.0063171363 0.052642852 0.73699999 1.3826248e-39
0.0077209426 0.052642852 0.73699999 7.3653508e-40
0.0091247493 0.052642848 0.73699999 5.5356895e-40
0.010528556 0.052642856 0.73699999 3.7061962e-40
0.011932362 0.052642852 0.73699999 6.4684778e-40
0.013372384 0.052785706 0.73899996 1.0145569e-39
0.014739989 0.05264286 0.73699999 8.3161178e-40
0.016143795 0.052642856 0.73699999 6.490324e-40
0.0175476 0.052642848 0.73699999 1.29369e-39
0.019002855 0.052785702 0.73900002 1.9397908e-39
0.020438077 0.052857138 0.74000001 2.1220507e-39
0.021847606 0.052857142 0.74000001 2.30427e-39
0.023319993 0.052999996 0.74200004 1.7514451e-39
0.023366647 0.050071411 0.70100003 1.2000706e-39
0.024772365 0.050214268 0.70300007 1.4748554e-39
0.026148556 0.050285704 0.70400006 1.6603299e-39
0.027528558 0.050357137 0.70500004 2.3056993e-39
0.028830457 0.050285697 0.70400006 3.0428972e-39
0.03017142 0.050285712 0.70400006 1.8468862e-39
0.031512376 0.050285697 0.70400006 7.3879818e-40
0.032853324 0.050285704 0.70400006 4.9797691e-39
0.034194272 0.050285727 0.704 9.235116e-39
0.035535224 0.050285704 0.70400006 1.301299e-38
0.03687619 0.050285697 0.704 1.678613e-38
0.038162839 0.050214283 0.70300001 1.6507747e-38
0.039220937 0.049857125 0.69799995 1.6230095e-38
0.040550474 0.04985714 0.69800001 1.6599955e-38
-0.02987144 0.056099992 0.76500005 1.1085532e-39
-0.028340012 0.055953342 0.76300001 1.7514059e-39
-0.02681621 0.055806652 0.7610001 2.3042125e-39
-0.025333347 0.055733312 0.76000011 2.8563003e-39
-0.02382287 0.055586655 0.75800002 3.4058783e-39
-0.022320006 0.055439997 0.75600004 2.6697608e-39
-0.020852398 0.055366661 0.75500005 1.8432344e-39
-0.019362863 0.055219997 0.75300002 1.2914969e-39
-0.017904773 0.055146661 0.75200003 6.4936171e-40
-0.01642859 0.054999992 0.75000006 1.015266e-39
-0.014960025 0.054853316 0.74800009 1.3833436e-39
-0.013535263 0.054853324 0.74800009 1.6595858e-39
-0.012094297 0.054779999 0.74700004 1.9361699e-39
-0.010642868 0.054633319 0.74500006 2.1198423e-39
-0.0092238206 0.054633323 0.74500006 2.2138372e-39
-0.0078047719 0.054633331 0.74500006 2.3063971e-39
-0.0063857255 0.054633319 0.74500006 2.398576e-39
-0.004953342 0.054486658 0.74300003 1.9386656e-39
-0.003538107 0.054486655 0.74300003 1.38478e-39
-0.0021200175 0.054413326 0.7420001 1.1993125e-39
-0.00070477312 0.054266665 0.74000001 9.2309135e-40
0.00070474634 0.05426665 0.74000001 1.1064078e-39
0.002114268 0.054266654 0.74000001 1.2911578e-39
0.0035237875 0.054266639 0.74000007 1.6599375e-39
0.0049266657 0.054193325 0.73899996 2.0276326e-39
0.0063342839 0.054193322 0.73899996 1.4741029e-39
0.0077209417 0.054046668 0.73700005 9.2200815e-40
0.0091247484 0.054046664 0.73700005 5.5430323e-40
0.010557139 0.054193322 0.73900002 1.8768291e-40
0.011964757 0.054193329 0.73900002 6.4650586e-40
0.013372375 0.054193322 0.73900002 1.0142094e-39
0.014779993 0.054193314 0.73900002 6.4722893e-40
0.016187612 0.05419331 0.73900002 2.8241489e-40
0.01759523 0.054193325 0.73900002 1.2951333e-39
0.019002859 0.054193329 0.73899996 2.2145771e-39
0.020438083 0.054266647 0.74000001 2.4915311e-39
0.021847602 0.05426665 0.74000007 2.6726797e-39
0.023319991 0.054413326 0.74200004 2.2109799e-39
0.024733324 0.054413311 0.7420001 1.6588837e-39
0.024772365 0.051553324 0.70300007 1.5656063e-39
0.026148561 0.05162666 0.70400006 1.4777267e-39
0.02752855 0.051699996 0.7050001 2.3975264e-39
0.028871413 0.051699985 0.7050001 3.2269213e-39
0.030171424 0.051626652 0.70400006 1.9408726e-39
0.031512361 0.051626652 0.70400006 6.5341426e-40
0.032853328 0.051626667 0.70400006 5.3510474e-39
0.03424285 0.051699989 0.70500004 1.00584e-38
0.035585701 0.051700003 0.70500004 1.3748747e-38
0.036928564 0.051699996 0.70500004 1.742862e-38
0.038217131 0.051626656 0.70400006 1.7245664e-38
0.039389499 0.051406644 0.70100009 1.706128e-38
0.040724739 0.051406652 0.70100009 1.7154914e-38
-0.029871441 0.057557143 0.76500005 1.4762455e-39
-0.028414294 0.057557128 0.76500005 1.7524751e-39
-0.026816204 0.057256181 0.76100004 2.121259e-39
-0.025333336 0.057180941 0.76000005 2.579726e-39
-0.023885718 0.057180945 0.76000005 3.038172e-39
-0.022320013 0.056879982 0.75600004 2.487145e-39
-0.020852402 0.056804765 0.75500005 1.9368453e-39
-0.019362867 0.056654274 0.75300002 1.4773035e-39
-0.017904777 0.056579039 0.75200003 1.0199071e-39
-0.016428582 0.056428563 0.75000006 1.2932485e-39
-0.014960026 0.056278076 0.74800009 1.6606186e-39
-0.013535265 0.056278087 0.74800003 1.7524821e-39
-0.012094292 0.056202862 0.74700004 1.9375894e-39
-0.010642875 0.056052364 0.74500006 2.1212618e-39
-0.0092238169 0.056052368 0.74500006 2.3049384e-39
-0.0078047724 0.056052368 0.74500006 2.6730034e-39
-0.0063685826 0.0559019 0.74300003 3.1332543e-39
-0.0049533485 0.055901892 0.74300003 2.4893254e-39
-0.0035381136 0.055901885 0.74300003 1.7524807e-39
-0.0021200185 0.05582666 0.7420001 1.4751707e-39
-0.00070667767 0.055826657 0.7420001 1.1982321e-39
0.00070665602 0.055826657 0.74200004 1.3826234e-39
0.0021199873 0.055826642 0.7420001 1.6588459e-39
0.0035333135 0.055826657 0.7420001 1.8443092e-39
0.0049333214 0.055676177 0.74000001 2.0287004e-39
0.0063428399 0.055676181 0.74000007 1.7510443e-39
0.0077418932 0.055600934 0.73900002 1.473747e-39
0.0091495216 0.055600949 0.73899996 1.4733911e-39
0.010571403 0.055676185 0.74000007 1.4744729e-39
0.011980947 0.055676181 0.74000001 1.6606592e-39
0.013390452 0.05567617 0.74000007 1.8407401e-39
0.014779994 0.055600941 0.73900002 1.382636e-39
0.016187612 0.055600941 0.73900002 9.256291e-40
0.017595232 0.055600934 0.73900002 1.4777365e-39
0.019002849 0.055600945 0.73900002 2.1216626e-39
0.020438086 0.055676188 0.74000001 2.3982467e-39
0.021847606 0.055676177 0.74000001 2.7659432e-39
0.023319989 0.055826657 0.74200004 2.3046077e-39
0.02473332 0.055826649 0.7420001 1.8421904e-39
0.02480761 0.052967615 0.70400006 1.5681076e-39
0.026148563 0.052967615 0.70400006 1.3891114e-39
0.027528558 0.053042844 0.7050001 2.2170756e-39
0.028871408 0.053042844 0.7050001 3.0471922e-39
0.030214272 0.053042844 0.7050001 1.8472407e-39
0.031557132 0.053042844 0.70500004 6.4408021e-40
0.032899994 0.053042859 0.70500004 5.2584832e-39
0.034242846 0.053042863 0.70500004 9.8786679e-39
0.035585694 0.053042851 0.70500004 1.3656549e-38
0.036928561 0.05304284 0.70500004 1.7341807e-38
0.038217135 0.052967608 0.70400006 1.7155984e-38
0.039558079 0.052967619 0.70400006 1.6971957e-38
-0.02987144 0.059014276 0.76500005 1.7513779e-39
-0.028414294 0.059014283 0.76500005 1.8443064e-39
-0.026886676 0.058859996 0.76300001 1.9365188e-39
-0.025366684 0.058705702 0.76100004 2.3035217e-39
-0.023885725 0.058628548 0.76000011 2.5789973e-39
-0.022320013 0.058319978 0.75600004 2.30346e-39
-0.020797152 0.058088567 0.75300002 1.9361306e-39
-0.019337153 0.058011409 0.75200003 1.6613556e-39
-0.017857157 0.057857141 0.75000006 1.3851233e-39
-0.01642859 0.057857137 0.75000006 1.6613402e-39
-0.015000015 0.05785713 0.75000006 1.8435917e-39
-0.013535256 0.057702847 0.74800003 1.9358027e-39
-0.012094298 0.057625711 0.74700004 1.9368719e-39
-0.010671436 0.057625715 0.74700004 2.123047e-39
-0.0092485789 0.057625718 0.74700004 2.3042167e-39
-0.0078047798 0.057471413 0.74500006 3.1303873e-39
-0.0063857227 0.057471409 0.74500006 3.8668579e-39
-0.0049666762 0.057471417 0.74500006 3.0410489e-39
-0.0035476298 0.057471409 0.74500006 2.1194499e-39
-0.0021200138 0.057239991 0.7420001 1.841777e-39
-0.00070668047 0.057239994 0.7420001 1.4740917e-39
0.00070665323 0.057239991 0.74200004 1.7510485e-39
0.002114268 0.057085704 0.74000007 1.9350769e-39
0.0035237968 0.0570857 0.74000001 1.9379439e-39
0.0049333265 0.057085715 0.74000001 1.9368775e-39
0.0063428455 0.057085704 0.74000001 1.9350937e-39
0.0077523747 0.057085708 0.74000001 1.9332944e-39
0.0091618793 0.057085689 0.74000007 2.3903139e-39
0.010571409 0.057085708 0.74000001 2.7684165e-39
0.011980938 0.057085708 0.74000001 2.77308e-39
0.013390457 0.057085708 0.74000007 2.6758565e-39
0.014799986 0.057085708 0.74000001 2.1173045e-39
0.016187631 0.057008564 0.73899996 1.5677559e-39
0.017595232 0.057008561 0.73899996 1.7525339e-39
0.019002866 0.057008553 0.73900002 1.9372769e-39
0.020438083 0.0570857 0.74000007 2.3971677e-39
0.021847613 0.057085712 0.74000001 2.7655858e-39
0.023257127 0.057085715 0.74000001 2.3996802e-39
0.024666645 0.057085704 0.74000001 1.9361601e-39
0.024807613 0.054308578 0.70400006 1.5666293e-39
0.026185701 0.054385699 0.7050001 1.2039788e-39
0.027528562 0.054385718 0.70500004 2.034471e-39
0.028871424 0.054385711 0.70500004 2.7698794e-39
0.030214274 0.054385714 0.70500004 1.7571834e-39
0.031557139 0.054385718 0.70500004 6.5088912e-40
0.032899987 0.054385707 0.70500004 5.1605506e-39
0.034242854 0.054385699 0.70500004 9.6885355e-39
0.035585701 0.054385707 0.70500004 1.3472509e-38
0.036928553 0.054385714 0.7050001 1.7244948e-38
0.038271416 0.054385699 0.7050001 1.7063798e-38
0.039614264 0.054385707 0.7050001 1.6877595e-38
-0.034869544 0.061578084 0.77900004 2.1165562e-39
-0.033214301 0.061261885 0.77500004 3.7381879e-40
-0.031656209 0.061103798 0.77300006 9.2409888e-40
-0.030183824 0.061103798 0.77300006 1.475856e-39
-0.028414296 0.06047143 0.76500005 1.7521065e-39
-0.026886676 0.060313333 0.76300001 2.1194807e-39
-0.025433341 0.060313337 0.76299995 2.120229e-39
-0.023917167 0.060155228 0.7610001 2.1198227e-39
-0.022379057 0.059918083 0.75800002 1.6598787e-39
-0.020880008 0.059759982 0.75600004 1.1996572e-39
-0.019362869 0.059522845 0.75300002 1.1993293e-39
-0.017904777 0.059443798 0.75200003 1.2890096e-39
-0.016428582 0.059285708 0.75000006 1.3822772e-39
-0.015000009 0.059285715 0.75000006 1.565235e-39
-0.013535268 0.059127599 0.74800009 1.7507038e-39
-0.012110507 0.059127592 0.74800009 1.9347181e-39
-0.010671444 0.059048563 0.74700004 2.1194499e-39
-0.0092485771 0.059048578 0.74700004 2.3009839e-39
-0.0078047682 0.058890466 0.74500006 2.7630453e-39
-0.0063857292 0.058890454 0.74500006 3.2236479e-39
-0.0049666823 0.058890462 0.74500006 2.672265e-39
-0.0035476256 0.058890462 0.74500006 2.0261669e-39
-0.0021200166 0.05865331 0.7420001 1.6577277e-39
-0.00070668233 0.058653325 0.7420001 1.2886215e-39
0.00070665788 0.058653325 0.74200004 1.4737554e-39
0.0021199821 0.05865331 0.7420001 1.7499766e-39
0.0035238029 0.058495227 0.74000001 1.8439616e-39
0.0049333214 0.058495216 0.74000007 1.9368902e-39
0.0063599907 0.05865334 0.74200004 2.6694385e-39
0.007752365 0.058495227 0.74000001 3.4037498e-39
0.0091618849 0.058495231 0.74000001 3.6903615e-39
0.010571414 0.058495231 0.74000001 3.9766244e-39
0.011980933 0.058495216 0.74000007 3.6978823e-39
0.013390462 0.058495216 0.74000001 3.42165e-39
0.014799992 0.058495235 0.74000001 2.5832825e-39
0.016187619 0.05841618 0.73900002 1.7514241e-39
0.017595239 0.058416173 0.73900002 1.9354945e-39
0.019002855 0.058416169 0.73900002 2.0280376e-39
0.020438073 0.058495224 0.74000001 2.5797582e-39
0.021906659 0.058653332 0.74200004 3.1318544e-39
0.023257121 0.058495224 0.74000007 2.5815645e-39
0.024733316 0.058653314 0.7420001 1.9361433e-39
0.024842843 0.055728562 0.7050001 1.292873e-39
0.026185704 0.05572857 0.70500004 7.4333979e-40
0.027606651 0.055886656 0.70700008 1.7575197e-39
0.028871417 0.055728562 0.70500004 2.7713017e-39
0.030214269 0.055728562 0.70500004 1.6638976e-39
0.031557132 0.055728555 0.70500004 4.6003648e-40
0.03289998 0.055728566 0.7050001 4.8843267e-39
0.034242846 0.05572857 0.7050001 9.3233403e-39
0.035686646 0.055886663 0.70700008 1.2918257e-38
0.037033323 0.055886649 0.70700008 1.6509905e-38
0.038379982 0.055886641 0.70700008 1.6230471e-38
0.039726652 0.055886656 0.70700002 1.5953124e-38
0.041073315 0.05588666 0.70700002 1.5947697e-38
-0.034869537 0.063061893 0.77900004 2.2047876e-39
-0.033214308 0.062738083 0.77500004 1.879912e-40
-0.031656206 0.062576182 0.77300006 6.4716447e-40
-0.030066688 0.062333327 0.7700001 1.1081594e-39
-0.028414298 0.061928563 0.76500005 1.6606312e-39
-0.026886677 0.061766673 0.76299995 2.2120253e-39
-0.025433347 0.061766651 0.76300001 1.9383363e-39
-0.023917168 0.061604746 0.7610001 1.5688195e-39
-0.022438111 0.061523799 0.76000011 1.0163478e-39
-0.020880008 0.061199993 0.75600004 3.7316438e-40
-0.019414313 0.061119042 0.75500011 7.3873512e-40
-0.017904777 0.060876176 0.75200003 1.1064246e-39
-0.016472399 0.060876183 0.75200003 1.1975315e-39
-0.015000018 0.060714271 0.75000006 1.2915249e-39
-0.013571445 0.060714278 0.75000006 1.5666783e-39
-0.012110498 0.060552366 0.74800009 1.8432554e-39
-0.010685737 0.060552362 0.74800003 2.1183989e-39
-0.0092485826 0.060471419 0.74700004 2.3035063e-39
-0.0078257211 0.060471434 0.74700004 2.4882549e-39
-0.0063857287 0.060309496 0.74500012 2.5818784e-39
-0.0049666716 0.060309514 0.74500006 2.306725e-39
-0.0035381089 0.06014761 0.74299997 1.9361419e-39
-0.0021200185 0.060066648 0.7420001 1.4737246e-39
-0.00070667767 0.060066659 0.7420001 1.0138464e-39
0.00070665649 0.060066655 0.74200004 1.2893712e-39
0.0021199896 0.060066659 0.74200004 1.47484e-39
0.0035237977 0.05990475 0.74000007 1.7510696e-39
0.0049333111 0.059904754 0.74000001 1.9340357e-39
0.0063428408 0.05990475 0.74000001 3.4012625e-39
0.0077419025 0.059823796 0.73900002 4.8821337e-39
0.0091618896 0.059904754 0.74000001 5.0826889e-39
0.010599987 0.060066652 0.74200004 5.1723328e-39
0.012013318 0.060066655 0.7420001 4.6202058e-39
0.013390467 0.059904754 0.74000001 4.0594972e-39
0.014799986 0.059904747 0.74000007 3.0428411e-39
0.016209515 0.059904743 0.74000001 1.9361713e-39
0.017619029 0.059904762 0.74000001 2.0262341e-39
0.019028548 0.059904747 0.74000007 2.1187801e-39
0.020493314 0.060066648 0.7420001 2.8530997e-39
0.021906655 0.060066663 0.74200004 3.4984635e-39
0.023319997 0.060066663 0.74200004 2.7662935e-39
0.024733327 0.060066652 0.7420001 1.9368663e-39
0.024842847 0.057071429 0.70500004 1.1092342e-39
0.026185697 0.057071421 0.70500004 1.9270236e-40
0.027606661 0.057233334 0.70700002 1.4813e-39
0.028953321 0.057233319 0.70700002 2.7694983e-39
0.030214274 0.057071421 0.70500004 1.5756284e-39
0.031646643 0.057233311 0.70700008 2.8066046e-40
0.032899987 0.057071418 0.7050001 4.5937548e-39
0.034339983 0.057233322 0.70700008 8.949523e-39
0.035686653 0.057233326 0.70700002 1.2366847e-38
0.037033316 0.05723333 0.70700002 1.567795e-38
0.038379978 0.057233319 0.70700002 1.5394195e-38
0.039726652 0.057233319 0.70700008 1.5031478e-38
0.041073315 0.057233326 0.70700008 1.5385865e-38
-0.031615261 0.063965708 0.77200007 6.4717148e-40
-0.030066693 0.063799992 0.7700001 8.3301589e-40
-0.0284143 0.06338571 0.76500005 1.5687957e-39
-0.026957151 0.06338571 0.76500005 2.2116596e-39
-0.025433347 0.063219994 0.76300001 2.0287214e-39
-0.023980012 0.063219994 0.76300001 1.8439771e-39
-0.0224381 0.062971428 0.76000005 1.4762777e-39
-0.020935249 0.062805697 0.75800002 1.0178331e-39
-0.019440014 0.062639996 0.75600004 1.1082477e-39
-0.01790477 0.062308572 0.75200003 1.2926166e-39
-0.01647239 0.062308565 0.75199997 1.2933144e-39
-0.015000014 0.062142842 0.75000006 1.2961913e-39
-0.013571445 0.062142849 0.75000006 1.5691922e-39
-0.0121105 0.061977126 0.74800003 1.7525115e-39
-0.010685738 0.061977141 0.74800003 2.1205766e-39
-0.0092609748 0.061977133 0.74800003 2.4893409e-39
-0.0078257294 0.061894283 0.74700004 2.3982102e-39
-0.0063857245 0.061728548 0.74500006 2.4010801e-39
-0.0049666781 0.061728559 0.74500006 2.2152553e-39
-0.0035476317 0.061728559 0.74500012 1.937595e-39
-0.0021200036 0.061479989 0.74200004 1.4748274e-39
-0.00070668047 0.061479993 0.7420001 1.1060561e-39
0.00070665369 0.061479989 0.74200004 1.1993321e-39
0.0021199868 0.061479989 0.74200004 1.2929753e-39
0.0035333172 0.061479993 0.7420001 1.2000762e-39
0.0049333177 0.061314274 0.74000001 1.0146186e-39
0.0063428362 0.061314262 0.74000007 3.7739952e-39
0.0077523654 0.061314277 0.74000001 6.5384488e-39
0.0091618951 0.061314281 0.74000001 6.548555e-39
0.010599999 0.061479989 0.74200004 6.6424728e-39
0.012013315 0.061479986 0.7420001 4.7034527e-39
0.013426656 0.061479986 0.74200004 2.7659306e-39
0.014839998 0.061480001 0.74200004 2.1209213e-39
0.016209505 0.061314285 0.74000001 1.4755603e-39
0.017619025 0.06131427 0.74000007 1.6599473e-39
0.019028556 0.061314274 0.74000001 1.934735e-39
0.020493312 0.061479986 0.7420001 2.2105974e-39
0.021906653 0.061479993 0.7420001 2.5786582e-39
0.02335142 0.061562844 0.74300003 2.2123924e-39
0.023499992 0.05841428 0.70500004 1.8439616e-39
0.02484284 0.058414288 0.70500004 1.2932948e-39
0.026259985 0.058579996 0.70700002 8.3521032e-40
0.027606644 0.058579996 0.70700008 2.0323158e-39
0.028953321 0.058579985 0.70700008 3.321579e-39
0.030299982 0.058579974 0.70700008 1.8486027e-39
0.031646654 0.058579993 0.70700002 3.7105122e-40
0.032993317 0.058579996 0.70700002 5.6229595e-39
0.034339976 0.058579989 0.70700002 1.0983517e-38
0.035686653 0.058579989 0.70700008 1.522196e-38
0.037033316 0.058579978 0.70700008 1.9542521e-38
0.038434286 0.058662854 0.708 1.9358477e-38
0.039782848 0.058662832 0.708 1.9269837e-38
0.041073322 0.058579989 0.70700002 1.9452757e-38
-0.033128597 0.065520942 0.77300006 5.5568491e-40
-0.031615261 0.065436177 0.77200007 5.5282205e-40
-0.029988594 0.065097138 0.76800001 5.5678913e-40
-0.028488589 0.065012366 0.76700002 1.3854834e-39
-0.027027629 0.065012366 0.76700002 2.2120183e-39
-0.025500007 0.06484285 0.76500005 2.2123924e-39
-0.023980007 0.064673334 0.76299995 2.1198381e-39
-0.022467643 0.064503789 0.7610001 1.9347322e-39
-0.020990489 0.064419031 0.76000005 1.6592327e-39
-0.019440012 0.06408 0.75600004 1.5674042e-39
-0.017928584 0.063825719 0.75300002 1.3848024e-39
-0.016472401 0.063740946 0.75200003 1.3869492e-39
-0.015040014 0.063740954 0.75200003 1.2947605e-39
-0.013571447 0.063571408 0.75000006 1.4777211e-39
-0.012142872 0.063571416 0.75000006 1.6613935e-39
-0.010685732 0.063401893 0.74800003 2.1216486e-39
-0.0092609785 0.063401878 0.74800009 2.5808162e-39
-0.0078257248 0.06331715 0.74700004 2.398213e-39
-0.0064028744 0.063317135 0.74700004 2.2156154e-39
-0.0049666748 0.063147612 0.74500006 2.1230611e-39
-0.0035476279 0.063147619 0.74500006 1.9372349e-39
-0.0021200073 0.062893324 0.74200004 1.565944e-39
-0.00070668419 0.062893331 0.7420001 1.1078483e-39
0.00070665835 0.062893331 0.74200004 1.1082141e-39
0.0021199989 0.062893324 0.74200004 1.109663e-39
0.0035333149 0.062893331 0.7420001 6.497821e-40
0.0049333223 0.062723801 0.74000001 9.8057261e-41
0.0063428408 0.062723801 0.74000007 4.1409771e-39
0.0077523706 0.062723801 0.74000001 8.1965086e-39
0.0091618896 0.062723786 0.74000007 8.1144191e-39
0.010571419 0.062723801 0.74000001 8.0156977e-39
0.012013312 0.062893324 0.7420001 4.6934054e-39
0.013426654 0.062893316 0.74200004 1.3851457e-39
0.014839995 0.062893331 0.74200004 1.1989342e-39
0.016209511 0.062723808 0.74000001 1.0177883e-39
0.017619029 0.062723793 0.74000001 1.386938e-39
0.019028559 0.062723808 0.74000001 1.6602907e-39
0.020493325 0.062893316 0.7420001 1.6595718e-39
0.021906652 0.062893331 0.74200004 1.6592131e-39
0.023319991 0.062893331 0.74200004 1.6602907e-39
0.023499984 0.059757136 0.70500004 1.6602696e-39
0.024913322 0.059926651 0.70700008 1.5687704e-39
0.026259983 0.059926659 0.70700008 1.4776776e-39
0.027645711 0.060011424 0.708 2.6747929e-39
0.028953318 0.059926666 0.70700002 3.7796775e-39
0.030299993 0.059926651 0.70700002 2.1255512e-39
0.031646658 0.059926655 0.70700002 3.7752382e-40
0.032993317 0.059926659 0.70700008 6.6353262e-39
0.034339976 0.059926651 0.70700008 1.2914609e-38
0.035737138 0.06001142 0.708 1.8177962e-38
0.037085708 0.060011417 0.708 2.3410427e-38
0.038542837 0.060180932 0.71000004 2.3411499e-38
0.039782848 0.060011409 0.708 2.3412194e-38
0.041131418 0.06001142 0.708 2.3416837e-38
-0.033000015 0.066733345 0.77000004 6.47519e-40
-0.031533349 0.066733323 0.7700001 7.3828391e-40
-0.0299886 0.066559993 0.76800007 9.2448844e-40
-0.028488576 0.06647332 0.76699996 1.3847645e-39
-0.027027631 0.066473313 0.76700002 1.9361531e-39
-0.025500007 0.066300005 0.76500005 1.9372447e-39
-0.024042862 0.06629999 0.76500005 1.9372405e-39
-0.022526681 0.06612666 0.76300001 1.8432484e-39
-0.020935249 0.065693319 0.75800002 1.6577837e-39
-0.01944001 0.065519996 0.75600004 1.5670244e-39
-0.017928582 0.065259986 0.75300008 1.4755547e-39
-0.016472399 0.065173313 0.75200003 1.2936829e-39
-0.015040014 0.06517332 0.75200003 1.2022132e-39
-0.013571437 0.065000005 0.75 1.3855311e-39
-0.012142873 0.064999983 0.75000006 1.660676e-39
-0.0107143 0.064999998 0.75000006 2.2120449e-39
-0.0092609804 0.064826638 0.74800009 2.763411e-39
-0.007836218 0.064826652 0.74800009 2.5811679e-39
-0.0064028641 0.064740002 0.74700004 2.3985704e-39
-0.0049800132 0.064739987 0.74700004 2.1230597e-39
-0.0035476345 0.064566657 0.74500006 1.8464742e-39
-0.0021228702 0.064393312 0.74300003 1.2933046e-39
-0.00070763601 0.064393312 0.74300003 7.4230003e-40
0.00070665556 0.064306661 0.74200004 1.0188897e-39
0.0021199961 0.064306661 0.74200004 1.3873219e-39
0.0035333135 0.064306647 0.7420001 1.0178415e-39
0.0049466542 0.064306654 0.74200004 7.3982954e-40
0.0063599949 0.064306661 0.74200004 3.0428958e-39
0.0077733113 0.064306661 0.7420001 5.267097e-39
0.0091866525 0.064306654 0.74200004 5.9071358e-39
0.010599993 0.064306654 0.74200004 6.6431847e-39
0.012013325 0.064306647 0.7420001 4.7012947e-39
0.013426651 0.064306654 0.74200004 2.7594257e-39
0.014839992 0.064306669 0.74200004 2.0275612e-39
0.016209505 0.064133316 0.74000007 1.3868945e-39
0.017619036 0.064133316 0.74000001 1.4769644e-39
0.019028563 0.064133331 0.74000001 1.4755294e-39
