# .PCD v0.7 - Point Cloud Data file format
VERSION 0.7
FIELDS x y z rgb
SIZE 4 4 4 4
TYPE F F F F
COUNT 1 1 1 1
WIDTH 948
HEIGHT 1
VIEWPOINT 0 0 0 1 0 0 0
POINTS 948
DATA ascii
-0.021670479 -0.0076895282 0.73400003 4.6325246e-40
-0.020272383 -0.0076895356 0.73399997 9.6618128e-41
-0.018822858 -0.0076685771 0.73200005 1.8521662e-40
-0.017404763 -0.0076580867 0.73100001 2.7777239e-40
-0.015968574 -0.0076371506 0.72900003 3.6853589e-40
-0.014520001 -0.007605724 0.72600001 3.688722e-40
-0.014277142 -0.0082657337 0.78900009 4.6068388e-40
-0.012774286 -0.0082657263 0.78900009 4.6140695e-40
-0.011300001 -0.0082866624 0.79100001 3.6921832e-40
-0.0097933346 -0.0082866699 0.79100001 2.7810029e-40
-0.0082866671 -0.0082866773 0.79100001 1.8590606e-40
-0.0067971437 -0.0083076283 0.7930001 9.3354504e-41
-0.0053000012 -0.0083285645 0.79500002 9.2279708e-41
-0.0037952387 -0.0083495229 0.79700005 9.3702026e-41
-0.0022714287 -0.0083285645 0.79500002 9.2254484e-41
-0.00075714284 -0.0083285645 0.79500002 9.2628631e-41
0.00075714296 -0.0083285645 0.79500002 9.2285313e-41
0.0022657146 -0.0083076358 0.7930001 9.2639841e-41
0.0037857145 -0.0083285645 0.79500002 9.2276905e-41
0.005286667 -0.0083076209 0.79300004 9.2274103e-41
0.0068142856 -0.0083285645 0.79500002 9.2269899e-41
0.0083285738 -0.008328557 0.79500002 9.2248879e-41
0.0098428605 -0.0083285645 0.79500002 9.222786e-41
0.011357146 -0.0083285645 0.79500002 9.2971949e-41
0.01287143 -0.0083285645 0.79500002 4.596245e-40
0.014349526 -0.0083076209 0.79300004 8.273126e-40
0.015860002 -0.0083076134 0.79300004 6.4327167e-40
0.017326672 -0.0082866699 0.79100001 4.6248735e-40
0.018833339 -0.0082866624 0.79100001 7.3801205e-40
0.020340005 -0.0082866699 0.79100001 1.0171073e-39
0.021846673 -0.0082866773 0.79100001 1.2936928e-39
0.023294287 -0.0082657263 0.78900009 1.5710041e-39
0.024797143 -0.0082657188 0.78900009 1.7575562e-39
0.0263 -0.0082657263 0.78900003 1.9408768e-39
0.027802859 -0.0082657337 0.78900009 2.313967e-39
0.029305717 -0.0082657263 0.78900009 2.6780832e-39
0.030769527 -0.0082552433 0.78800005 3.4181509e-39
0.029936194 -0.0076580867 0.73099995 4.0588638e-39
0.031328574 -0.0076581016 0.73100001 4.0592394e-39
0.032720957 -0.0076580867 0.73100001 4.0570659e-39
0.03411334 -0.0076580793 0.73099995 3.5935626e-39
0.035651434 -0.0076895282 0.73399997 3.1364955e-39
0.037049528 -0.0076895207 0.73399997 6.4586743e-39
0.038552385 -0.0077104867 0.73600006 9.7694297e-39
0.03995429 -0.0077104867 0.73600006 9.7762596e-39
0.041356198 -0.0077104867 0.73600012 9.6819046e-39
0.042816196 -0.0077209696 0.73700005 9.6804613e-39
0.044520006 -0.0077733323 0.7420001 9.6793654e-39
0.04593334 -0.0077733323 0.7420001 9.6782696e-39
-0.03038667 -0.0063600093 0.7420001 2.5877246e-39
-0.028973335 -0.0063600019 0.7420001 2.1303464e-39
-0.027448572 -0.0063342899 0.73900002 1.6693809e-39
-0.026040953 -0.0063343048 0.73900008 1.3027451e-39
-0.024566669 -0.0063171387 0.73700005 1.1161917e-39
-0.02313143 -0.006308578 0.73600006 9.3359829e-40
-0.021670479 -0.0062914342 0.73400003 8.3781813e-40
-0.020272383 -0.0062914416 0.73400003 7.4704622e-40
-0.018822858 -0.0062742978 0.73200005 7.4344629e-40
-0.017404763 -0.0062657073 0.73100001 8.3133012e-40
-0.015968574 -0.006248571 0.72900003 1.3830536e-39
-0.01456 -0.0062400177 0.7280001 1.9297393e-39
-0.013137143 -0.006222859 0.72600001 1.6577977e-39
-0.012806667 -0.0067799985 0.79100001 1.3790599e-39
-0.0113 -0.0067799911 0.79100001 1.2922424e-39
-0.0089885723 -0.0062228739 0.72600001 1.2868586e-39
-0.0075952401 -0.0062142909 0.72500002 9.2453609e-40
-0.0067971437 -0.0067971423 0.79300004 6.4328848e-40
-0.0053133345 -0.0068314224 0.79700005 2.4878891e-39
-0.0037952382 -0.0068314373 0.79700011 4.4124801e-39
-0.0022771433 -0.0068314373 0.79700005 4.6955101e-39
-0.0007571429 -0.0068142787 0.79499996 5.0513839e-39
0.00075904769 -0.0068314299 0.79700011 5.3376622e-39
0.0022714292 -0.0068142787 0.79500002 5.6942394e-39
0.0037857145 -0.0068142787 0.79500002 5.6138791e-39
0.0052866675 -0.0067971572 0.7930001 5.5105642e-39
0.0068142856 -0.0068142861 0.79500002 5.4305668e-39
0.0083285738 -0.0068142861 0.79500002 5.419079e-39
0.0098428596 -0.0068142787 0.79500002 5.523103e-39
0.011357145 -0.0068142712 0.79500002 5.6056325e-39
0.012871431 -0.0068142787 0.79500002 3.9601479e-39
0.014349527 -0.0067971423 0.7930001 2.297433e-39
0.01582 -0.0067799985 0.79100001 2.0283921e-39
0.017326668 -0.006780006 0.79100001 1.7536325e-39
0.018833337 -0.006780006 0.79100001 2.0309607e-39
0.020340003 -0.0067800134 0.79100001 2.3107776e-39
0.021791434 -0.0067628622 0.78900009 2.0334831e-39
0.023353336 -0.0067799911 0.79100001 1.7630212e-39
0.024797145 -0.0067628548 0.78900003 1.8520079e-39
0.026300002 -0.0067628771 0.78900009 2.0385403e-39
0.025582861 -0.006222859 0.72600001 2.4051551e-39
0.026965719 -0.006222859 0.72600001 2.8668282e-39
0.028465716 -0.006248571 0.72900003 3.1405243e-39
0.029936194 -0.0062657073 0.73099995 3.5057026e-39
0.031328574 -0.0062657073 0.73099995 3.689361e-39
0.032720953 -0.0062657222 0.73100001 3.7801035e-39
0.034160003 -0.0062742829 0.73200011 3.5013516e-39
0.035651434 -0.0062914342 0.73400003 3.1300229e-39
0.037150484 -0.006308578 0.73600006 6.3628787e-39
0.038552389 -0.006308578 0.73600006 9.4942918e-39
0.040008578 -0.0063171387 0.73700005 9.496482e-39
0.041412391 -0.0063171461 0.73700005 9.4968169e-39
0.042932384 -0.0063342825 0.73900002 9.587551e-39
0.044520002 -0.0063600019 0.7420001 9.6793795e-39
-0.031842861 -0.0049533322 0.74300003 3.3198204e-39
-0.030386671 -0.0049466714 0.74200004 2.8606555e-39
-0.02889524 -0.0049333349 0.74000001 2.3082132e-39
-0.027448574 -0.0049266741 0.73900002 1.9394419e-39
-0.025970478 -0.0049133375 0.73700005 1.4824224e-39
-0.024566669 -0.0049133301 0.73700005 1.2998346e-39
-0.023131434 -0.0049066693 0.73600006 1.1150987e-39
-0.021670479 -0.0048933402 0.73400003 1.2994997e-39
-0.020272383 -0.0048933327 0.73399997 1.3916982e-39
-0.018822858 -0.0048799962 0.73200011 1.3942149e-39
-0.017404763 -0.0048733354 0.73099995 1.2980676e-39
-0.015968574 -0.0048599988 0.72900003 2.4029564e-39
-0.014560001 -0.004853338 0.72800004 3.4999545e-39
-0.013137144 -0.0048400015 0.72600001 2.8610465e-39
-0.011754286 -0.0048400015 0.72600001 2.2189155e-39
-0.01037143 -0.0048400164 0.72600001 2.2253741e-39
-0.0089885732 -0.0048400089 0.72600001 2.220356e-39
-0.0075952392 -0.0048333481 0.72500002 1.673652e-39
-0.0062142862 -0.0048333481 0.72500002 1.1208454e-39
-0.0048333346 -0.0048333332 0.72500002 4.9876234e-39
-0.0034428574 -0.0048200041 0.72300005 8.7543305e-39
-0.002071429 -0.0048333555 0.72500002 9.4097514e-39
-0.00075904769 -0.0053133294 0.79700005 9.9528723e-39
0.00075904769 -0.0053133443 0.79700011 1.0605049e-38
0.0022714292 -0.0053000003 0.79500002 1.1239648e-38
0.0037857145 -0.0052999929 0.79500002 1.1158936e-38
0.0053000003 -0.0052999854 0.79500002 1.0965574e-38
0.0068314285 -0.0053133518 0.79700005 1.0884136e-38
0.0083285738 -0.0053000003 0.79500002 1.0690778e-38
0.0098428596 -0.0052999929 0.79500002 1.0883414e-38
0.011357145 -0.0052999854 0.79500002 1.1055597e-38
0.01287143 -0.0053000003 0.79500002 7.477592e-39
0.014349527 -0.0052866712 0.79300004 3.7876649e-39
0.015820002 -0.0052733421 0.79100001 3.4188838e-39
0.01732667 -0.0052733347 0.79100001 3.0454462e-39
0.018833337 -0.0052733347 0.79100001 3.3209568e-39
0.020340005 -0.0052733421 0.79100001 3.5935921e-39
0.021846673 -0.0052733272 0.79100001 2.7663537e-39
0.02134572 -0.0048200041 0.72300005 1.9401944e-39
0.022785719 -0.0048333332 0.72500002 2.0327488e-39
0.024200002 -0.0048400015 0.72600001 2.0320299e-39
0.025582859 -0.0048400164 0.72600001 2.4922822e-39
0.026965717 -0.0048400015 0.72600001 2.9539596e-39
0.028465716 -0.0048600063 0.72900003 2.9543071e-39
0.029936194 -0.0048733205 0.73099995 2.9546602e-39
0.031371433 -0.0048799962 0.73200005 3.2290835e-39
0.03276572 -0.0048799962 0.73200005 3.5038557e-39
0.034160007 -0.0048799962 0.73200011 3.3172981e-39
0.035651434 -0.0048933402 0.73399997 3.1382682e-39
0.037150484 -0.0049066693 0.73600006 6.1849615e-39
0.03860477 -0.0049133375 0.73700005 9.2177035e-39
0.040008578 -0.0049133375 0.73700005 9.3099159e-39
0.041524768 -0.0049266741 0.73900008 9.3106067e-39
0.042990483 -0.0049333423 0.74000001 9.4938924e-39
0.044520006 -0.0049466714 0.7420001 9.6779361e-39
0.045995247 -0.0049533397 0.74300009 1.0045651e-38
-0.031800006 -0.0035333261 0.74200004 3.5005753e-39
-0.03038667 -0.003533341 0.74200004 2.8566436e-39
-0.028895242 -0.0035238191 0.74000001 2.2109309e-39
-0.027448574 -0.0035190508 0.73900008 1.9368649e-39
-0.026040955 -0.0035190582 0.73900008 1.6624599e-39
-0.024566669 -0.0035095289 0.73700005 1.3876947e-39
-0.023131432 -0.0035047606 0.73600006 1.1107771e-39
-0.021670479 -0.0034952387 0.73399997 1.1125931e-39
-0.020217145 -0.003485702 0.73200005 1.0236499e-39
-0.018822858 -0.0034857169 0.73200011 1.0218773e-39
-0.017428573 -0.0034857243 0.73200011 1.022229e-39
-0.015968572 -0.0034714267 0.72900003 1.6632768e-39
-0.014560001 -0.0034666732 0.72800004 2.3064952e-39
-0.013137144 -0.0034571439 0.72600001 2.0327922e-39
-0.011754287 -0.0034571439 0.72600001 1.7673358e-39
-0.01037143 -0.0034571588 0.72600001 1.7641129e-39
-0.0089885732 -0.0034571439 0.72600001 1.7673527e-39
-0.0075952397 -0.0034523904 0.72500002 1.4889875e-39
-0.0062142867 -0.0034523755 0.72500002 1.219941e-39
-0.0048333346 -0.0034523979 0.72500002 3.2431932e-39
-0.0034523811 -0.0034523979 0.72500008 5.3701611e-39
-0.0020628574 -0.0034381002 0.72200012 6.0112579e-39
-0.00068761915 -0.0034381077 0.72200006 6.7556193e-39
0.00068571436 -0.0034285635 0.72000003 6.8381193e-39
0.002057143 -0.0034285709 0.72000003 7.0311243e-39
0.003438096 -0.0034381002 0.72200006 6.7484502e-39
0.004813334 -0.0034381002 0.72200006 6.5740965e-39
0.0068400004 -0.0038000047 0.79800004 6.2878168e-39
0.0083495267 -0.0037952438 0.79700005 6.0252289e-39
0.0098428596 -0.0037857071 0.79500002 6.0116012e-39
0.011385716 -0.0037952587 0.79700005 5.929055e-39
0.01287143 -0.0037857145 0.79500002 4.0704231e-39
0.014349526 -0.0037761852 0.79300004 2.2315426e-39
0.015820002 -0.0037666708 0.79100001 2.1285668e-39
0.015815241 -0.0034381002 0.72200006 2.1274695e-39
0.017214289 -0.0034428611 0.72300005 2.3068133e-39
0.018591434 -0.0034428611 0.72300005 2.4861711e-39
0.019968577 -0.0034428611 0.72300005 1.8429555e-39
0.02134572 -0.0034428611 0.72300005 1.1986539e-39
0.022785719 -0.0034523979 0.72500002 1.3826654e-39
0.024166668 -0.003452383 0.72500002 1.5638309e-39
0.02554762 -0.003452383 0.72500002 2.1205892e-39
0.026965717 -0.0034571514 0.72600001 2.6762601e-39
0.028426671 -0.0034666657 0.7280001 2.9539133e-39
0.02985429 -0.0034714267 0.72900003 3.2312135e-39
0.031328574 -0.0034809411 0.73099995 3.4138069e-39
0.032765716 -0.0034857169 0.73200005 3.6889378e-39
0.034160007 -0.0034857169 0.73200011 3.4094671e-39
0.035651434 -0.0034952462 0.73400003 3.1343165e-39
0.03715048 -0.0035047606 0.73600006 6.1813868e-39
0.038604774 -0.0035095289 0.73700005 9.3106082e-39
0.040008582 -0.0035095289 0.73700005 9.2184125e-39
0.041524768 -0.0035190508 0.73900002 9.1258315e-39
0.042990483 -0.0035238117 0.74000001 9.3101906e-39
0.044580009 -0.003538087 0.74300003 9.401345e-39
0.04599525 -0.0035380945 0.74300003 9.6779641e-39
-0.031842858 -0.0021228567 0.74300003 3.5913402e-39
-0.030386671 -0.0021200106 0.7420001 2.8544996e-39
-0.028973335 -0.0021200031 0.7420001 2.0269054e-39
-0.027485715 -0.002114296 0.74000001 1.9347125e-39
-0.026040953 -0.0021114275 0.73900002 1.8439644e-39
-0.024566669 -0.0021057203 0.73700005 1.4769924e-39
-0.02313143 -0.0021028593 0.73600006 1.1089288e-39
-0.021670479 -0.0020971522 0.73400003 9.2381862e-40
-0.020217145 -0.0020914227 0.73200005 6.4904782e-40
-0.018822858 -0.0020914376 0.73200011 7.38389e-40
-0.017428571 -0.0020914376 0.73200011 7.3982393e-40
-0.015968574 -0.002082862 0.72900009 9.2170126e-40
-0.014580001 -0.0020828545 0.72900003 1.1060981e-39
-0.013173333 -0.0020800084 0.72800004 1.1954323e-39
-0.011754286 -0.0020743012 0.72600001 1.2951655e-39
-0.01037143 -0.0020743012 0.72600001 1.2958886e-39
-0.0089885723 -0.0020743012 0.72600001 1.2973333e-39
-0.0075952397 -0.0020714477 0.72500002 1.2951907e-39
-0.0062142867 -0.0020714477 0.72500002 1.2076614e-39
-0.0048333341 -0.0020714328 0.72500002 1.5782348e-39
-0.0034523811 -0.0020714328 0.72500002 1.859502e-39
-0.0020628574 -0.0020628646 0.72200006 2.6928584e-39
-0.00068761915 -0.0020628572 0.72200006 3.4235992e-39
0.00068571436 -0.0020571351 0.71999997 3.1434334e-39
0.002057143 -0.0020571351 0.72000003 2.7796745e-39
0.0034285719 -0.00205715 0.72000003 2.4123283e-39
0.0048000007 -0.0020571277 0.71999997 2.0435486e-39
0.0061714291 -0.0020571426 0.72000003 1.6668782e-39
0.0075428574 -0.0020571351 0.72000003 1.3070653e-39
0.0089142891 -0.0020571351 0.71999997 1.0250975e-39
0.011385716 -0.0022771657 0.79700011 7.5171535e-40
0.01287143 -0.0022714138 0.79500002 6.4370887e-40
0.013028573 -0.0020571351 0.71999997 5.5868228e-40
0.014400003 -0.0020571351 0.72000003 8.2772458e-40
0.015815241 -0.0020628646 0.72200006 1.1082589e-39
0.017214287 -0.0020657331 0.72300005 1.2001014e-39
0.018591432 -0.0020657182 0.72300005 1.2912083e-39
0.019968577 -0.0020657182 0.72300005 9.2062647e-40
0.02134572 -0.0020657331 0.72300005 4.6142656e-40
0.022785718 -0.0020714253 0.72500002 7.3511697e-40
0.024166666 -0.0020714253 0.72500002 1.0127899e-39
0.025582861 -0.0020743012 0.72600001 1.7492815e-39
0.026965719 -0.0020742863 0.72600001 2.3989431e-39
0.02842667 -0.0020800084 0.7280001 2.9538993e-39
0.029936194 -0.0020885617 0.73100001 3.4141558e-39
0.03132857 -0.0020885617 0.73100001 3.6900224e-39
0.03276572 -0.0020914376 0.73200005 3.8715368e-39
0.034160007 -0.0020914376 0.73200011 3.4973761e-39
0.035651434 -0.0020971522 0.73400003 3.1443792e-39
0.03715048 -0.0021028519 0.73600006 6.2789802e-39
0.038604766 -0.0021057129 0.73700005 9.311341e-39
0.040117148 -0.0021114424 0.73900008 9.1276658e-39
0.041524768 -0.0021114424 0.73900008 8.9436333e-39
0.043106671 -0.0021200106 0.74200004 9.0361835e-39
0.044580005 -0.0021228641 0.74300003 9.1273029e-39
0.04611906 -0.0021285787 0.74500006 9.2184237e-39
-0.031842861 -0.00070761889 0.74300003 3.2240052e-39
-0.030427622 -0.00070761889 0.74300009 2.7626711e-39
-0.028973337 -0.00070667267 0.7420001 2.3009811e-39
-0.027485715 -0.00070476532 0.74000001 2.0261893e-39
-0.026040953 -0.0007038191 0.73900008 1.8417994e-39
-0.024633333 -0.00070380419 0.73900002 1.5673663e-39
-0.023162862 -0.0007019043 0.73700005 1.2914703e-39
-0.021729527 -0.00070095062 0.73600006 9.2301988e-40
-0.020272383 -0.00069905072 0.73400003 6.4429882e-40
-0.018822856 -0.00069715083 0.73200011 7.3686439e-40
-0.017428571 -0.00069715828 0.73200011 9.1910746e-40
-0.016012382 -0.0006961748 0.73099995 1.0120248e-39
-0.01458 -0.0006942749 0.72900003 1.194628e-39
-0.013173334 -0.00069333613 0.7280001 1.2875467e-39
-0.011754286 -0.00069143623 0.72599995 1.3808241e-39
-0.01037143 -0.00069143623 0.72600001 1.5666531e-39
-0.0089885723 -0.00069143623 0.72600001 1.6567033e-39
-0.0076057152 -0.00069142878 0.72599995 1.3829975e-39
-0.0062142862 -0.00069047511 0.72500002 1.1968182e-39
-0.0048333346 -0.00069049746 0.72500002 1.2004083e-39
-0.0034523811 -0.00069049746 0.72500008 1.286144e-39
-0.0020657144 -0.00068856776 0.72300005 1.8461238e-39
-0.0006885716 -0.00068858266 0.72300005 2.4803796e-39
0.00068761915 -0.00068762153 0.72200006 2.3942992e-39
0.002057143 -0.00068571419 0.72000003 2.3881853e-39
0.0034285719 -0.00068570673 0.71999997 2.3042251e-39
0.0048000007 -0.00068572164 0.72000003 2.29634e-39
0.0061885719 -0.00068762898 0.72200006 1.6574446e-39
0.0075638099 -0.00068762898 0.72200012 1.102473e-39
0.0089142872 -0.00068570673 0.72000003 9.2309415e-40
0.010314289 -0.00068762898 0.72200006 7.3510015e-40
0.011689525 -0.00068762153 0.72200012 7.3544067e-40
0.013064763 -0.00068762898 0.72200006 8.2692304e-40
0.014440002 -0.00068762898 0.72200006 1.0113171e-39
0.015837146 -0.00068858266 0.72300005 1.287216e-39
0.017214289 -0.00068857521 0.72299999 1.5688545e-39
0.018591434 -0.00068856776 0.72300005 1.8436295e-39
0.019968577 -0.00068858266 0.72300005 1.105703e-39
0.02134572 -0.00068858266 0.72300005 4.6067547e-40
0.022785718 -0.00069049746 0.72500002 7.3615533e-40
0.024166668 -0.00069048256 0.72500002 1.1053134e-39
0.02554762 -0.00069048256 0.72500002 1.6592187e-39
0.026965717 -0.00069143623 0.72600001 2.2159728e-39
0.02842667 -0.00069332868 0.72800004 2.8609736e-39
0.02985429 -0.0006942898 0.72900003 3.5056214e-39
0.03132857 -0.0006961748 0.73100001 4.3339387e-39
0.03276572 -0.00069715083 0.73200005 5.2530209e-39
0.034160007 -0.00069713593 0.73200011 6.5480547e-39
0.035554294 -0.00069713593 0.73200005 7.9316814e-39
0.037150484 -0.00070096552 0.73600012 8.669231e-39
0.03860477 -0.0007019043 0.73700005 9.4975372e-39
0.040117145 -0.0007038191 0.73900002 9.2205887e-39
0.041580964 -0.00070475042 0.74000001 9.0362241e-39
0.043164767 -0.00070760399 0.74300003 9.128082e-39
0.044700012 -0.00070951879 0.74500006 9.2209629e-39
0.046119057 -0.00070952624 0.74500006 9.3113312e-39
-0.031928577 0.00070951879 0.74500006 2.8562919e-39
-0.030509526 0.00070951134 0.74500006 2.6708286e-39
-0.029012382 0.00070762634 0.74300003 2.4868017e-39
-0.027485717 0.00070475787 0.74000001 2.2112966e-39
-0.026076192 0.00070476532 0.74000001 1.8435931e-39
-0.024633335 0.00070381165 0.73900008 1.6592018e-39
-0.02316286 0.0007019043 0.73700005 1.3836743e-39
-0.021729527 0.00070093572 0.73600006 1.0163127e-39
-0.020272383 0.00069905072 0.73399997 6.461107e-40
-0.018822858 0.00069714338 0.73200011 8.2907403e-40
-0.017428573 0.00069715083 0.73200005 1.0123891e-39
-0.01601238 0.0006962046 0.73099995 1.1964216e-39
-0.014580001 0.00069428235 0.72900009 1.287904e-39
-0.013173333 0.00069332868 0.7280001 1.3793864e-39
-0.011786668 0.00069333613 0.72800004 1.4726624e-39
-0.01037143 0.00069142133 0.72599995 1.7496108e-39
-0.0089885732 0.00069142878 0.72600001 2.0254816e-39
-0.0076057152 0.00069142133 0.72600001 1.5670272e-39
-0.0062142862 0.00069046021 0.72500002 1.1082113e-39
-0.0048333341 0.00069047511 0.72500002 9.245431e-40
-0.0034523811 0.00069047511 0.72500002 6.4759467e-40
-0.0020657144 0.00068856031 0.72300005 1.1082001e-39
-0.00068857154 0.00068856031 0.72300005 1.564886e-39
0.00068761921 0.00068761408 0.72200006 1.7485781e-39
0.0020628576 0.00068762153 0.72200006 1.932598e-39
0.0034285719 0.00068572164 0.72000003 2.2116834e-39
0.0048000002 0.00068571419 0.72000003 2.4843242e-39
0.0061714286 0.00068572909 0.72000003 1.7482095e-39
0.0075638099 0.00068760663 0.72200006 9.2095998e-40
0.0089142872 0.00068572164 0.72000003 8.2911187e-40
0.010314289 0.00068759918 0.72200006 6.447094e-40
0.011705717 0.00068856031 0.72300005 9.2020187e-40
0.013064763 0.00068762153 0.72200006 1.1031456e-39
0.014460002 0.00068856776 0.72300005 1.2868082e-39
0.015837144 0.00068856031 0.72300005 1.382629e-39
0.017214287 0.00068856776 0.72299999 1.8529678e-39
0.018591432 0.00068856776 0.72300005 2.3042377e-39
0.019968575 0.00068856031 0.72300005 1.3819227e-39
0.021345718 0.00068857521 0.72299999 3.6956444e-40
0.022785719 0.00069047511 0.72500002 7.3581622e-40
0.024166668 0.00069047511 0.72500002 1.1049659e-39
0.025582859 0.00069141388 0.72600001 1.5663112e-39
0.026965719 0.00069142878 0.72600001 2.0305165e-39
0.028426668 0.00069333613 0.72800004 2.8599114e-39
0.02985429 0.00069428235 0.72900003 3.5974723e-39
0.03132857 0.00069619715 0.73100001 5.0707919e-39
0.03276572 0.00069714338 0.73200011 6.5530868e-39
0.034160007 0.00069714338 0.73200011 9.6019661e-39
0.035554294 0.00069715083 0.73200005 1.2622465e-38
0.03715048 0.00070093572 0.73600006 1.1151993e-38
0.03860477 0.0007019043 0.73700005 9.5893558e-39
0.040171433 0.00070475787 0.74000001 9.4042513e-39
0.041693337 0.00070667267 0.7420001 9.127684e-39
0.043164771 0.00070762634 0.74300003 9.2191776e-39
0.044700008 0.00070952624 0.745 9.3109949e-39
-0.031928573 0.0021285713 0.74500006 2.9488322e-39
-0.030509526 0.0021285638 0.74500006 2.6722566e-39
-0.029012382 0.0021228492 0.74300009 2.4885926e-39
-0.027559999 0.0021199957 0.7420001 2.212733e-39
-0.026146667 0.0021199957 0.7420001 1.9375824e-39
-0.024666669 0.0021142736 0.74000001 1.660278e-39
-0.02316286 0.0021057129 0.73700005 1.3836855e-39
-0.021729525 0.0021028519 0.73600006 9.2306332e-40
-0.020272383 0.0020971447 0.73400003 4.6174046e-40
-0.018822858 0.0020914301 0.73200011 7.3761128e-40
-0.017428573 0.0020914376 0.73200005 9.2128227e-40
-0.016012382 0.0020885766 0.73100001 1.1053106e-39
-0.01458 0.002082862 0.72900003 1.2893445e-39
-0.013191428 0.002082862 0.72900003 1.3808255e-39
-0.011786667 0.0020799935 0.72800004 1.4730253e-39
-0.01037143 0.0020742714 0.72600001 1.6577781e-39
-0.0089885732 0.0020742863 0.72600001 1.750694e-39
-0.0076057157 0.0020742863 0.72600001 1.3851499e-39
-0.0062142862 0.0020714253 0.72500002 9.2741015e-40
-0.0048333337 0.0020714179 0.72500002 8.3342506e-40
-0.0034428574 0.0020656958 0.72300005 6.4866526e-40
-0.0020657144 0.0020657033 0.72300005 1.0152758e-39
-0.00068857148 0.0020657107 0.72300005 1.4734023e-39
0.00068857154 0.0020657033 0.72300005 1.8407681e-39
0.0020657144 0.0020657033 0.72300005 2.2084674e-39
0.0034380956 0.0020628572 0.72200006 2.3028126e-39
0.0048133335 0.0020628422 0.72200012 2.395367e-39
0.0061971429 0.0020657033 0.72300005 1.7492899e-39
0.0075638103 0.0020628422 0.72200006 1.105354e-39
0.0089142872 0.00205715 0.72000003 8.2911747e-40
0.010314289 0.0020628497 0.72200006 6.4507794e-40
0.011689525 0.0020628348 0.72200006 7.3654349e-40
0.013064764 0.0020628422 0.72200012 8.2799784e-40
0.014460002 0.0020657107 0.72300005 1.1031218e-39
0.015837146 0.0020657033 0.72300005 1.3786745e-39
0.017214291 0.0020657182 0.72300005 2.2113373e-39
0.018591434 0.0020657107 0.72300005 3.128602e-39
0.019968577 0.0020657033 0.72300005 1.8400198e-39
0.02134572 0.0020657256 0.72300005 5.5216765e-40
0.022785719 0.0020714104 0.72500002 7.3619317e-40
0.024166668 0.0020714179 0.72500002 1.0127829e-39
0.025582859 0.0020742714 0.72600001 1.5673902e-39
0.027040005 0.0020799935 0.72800004 2.2149134e-39
0.028465716 0.0020828471 0.72900003 2.4922247e-39
0.02985429 0.0020828545 0.72900009 2.7695333e-39
0.031328574 0.0020885766 0.73099995 5.3542073e-39
0.03276572 0.0020914301 0.73200011 7.9388897e-39
0.034160007 0.0020914227 0.73200011 8.8586936e-39
0.035651438 0.0020971373 0.73400003 9.7734094e-39
0.037200958 0.0021057054 0.73700005 9.4964161e-39
0.03860477 0.0021057203 0.73699999 9.2219956e-39
0.040280003 0.0021200031 0.7420001 9.2191356e-39
0.041693337 0.0021200031 0.7420001 9.2177105e-39
0.043280959 0.0021285787 0.745 9.4021087e-39
0.044820007 0.0021342859 0.74700004 9.6761747e-39
-0.031928577 0.0035476089 0.74500006 3.0424614e-39
-0.030509526 0.0035476089 0.74500006 2.7644536e-39
-0.029012382 0.0035381019 0.74300003 2.3971228e-39
-0.027597144 0.003538087 0.74300003 2.2127456e-39
-0.026146669 0.0035333261 0.7420001 2.0283487e-39
-0.024666669 0.0035238042 0.74000001 1.7517576e-39
-0.023225715 0.0035190508 0.73900002 1.3829723e-39
-0.021729525 0.0035047606 0.73600006 8.308747e-40
-0.020272382 0.0034952313 0.73400003 2.7950159e-40
-0.018822858 0.0034857169 0.73200011 5.5429061e-40
-0.017428573 0.0034857169 0.73200005 8.2980271e-40
-0.016012382 0.0034809634 0.73100001 1.1053162e-39
-0.01462 0.003480956 0.73100001 1.2889914e-39
-0.013191429 0.0034714267 0.72900009 1.3808325e-39
-0.011786668 0.0034666657 0.72800004 1.4726778e-39
-0.010400002 0.0034666583 0.7280001 1.4734065e-39
-0.0089885723 0.0034571365 0.72600001 1.4762721e-39
-0.0076057157 0.0034571439 0.72600001 1.1114371e-39
-0.0062142857 0.0034523606 0.72500002 7.430245e-40
-0.0048333341 0.0034523755 0.72500002 7.4087771e-40
-0.0034523811 0.0034523755 0.72500002 6.4795901e-40
-0.0020657144 0.0034428537 0.72300005 1.0138605e-39
-0.00068857154 0.0034428611 0.72299999 1.2893796e-39
0.00068857148 0.0034428537 0.72300005 1.8404065e-39
0.0020657144 0.0034428537 0.72300005 2.3928503e-39
0.0034428574 0.0034428537 0.72300005 2.394997e-39
0.0048133335 0.0034380928 0.72200006 2.3020896e-39
0.0061971433 0.0034428537 0.72300005 1.840045e-39
0.0075742868 0.0034428537 0.72300005 1.2883104e-39
0.0089390501 0.0034380704 0.72200006 9.2024671e-40
0.010314289 0.0034380853 0.72200006 5.5325365e-40
0.011689525 0.0034380853 0.72200006 5.5288651e-40
0.013082859 0.0034428462 0.72300005 5.5251517e-40
0.014460002 0.0034428537 0.72300005 9.1948721e-40
0.015837144 0.0034428462 0.72300005 1.2882893e-39
0.017214289 0.0034428537 0.72300005 2.5761639e-39
0.018591432 0.0034428537 0.72300005 3.861128e-39
0.019968575 0.0034428462 0.72300005 2.297398e-39
0.021404764 0.0034523755 0.72500002 7.3583864e-40
0.022785718 0.0034523755 0.72500002 8.2695947e-40
0.024166666 0.0034523755 0.72500002 8.2911747e-40
0.025582859 0.0034571365 0.72600001 1.5677531e-39
0.027040003 0.0034666657 0.72800004 2.307109e-39
0.028465716 0.0034714267 0.72900009 2.1241639e-39
0.029854288 0.0034714341 0.72900003 1.8544167e-39
0.03132857 0.0034809634 0.73099995 5.5461515e-39
0.032765716 0.0034857094 0.73200011 9.2224469e-39
0.034253344 0.0034952313 0.73400003 8.027875e-39
0.035651438 0.0034952238 0.73400003 6.8282065e-39
0.037200958 0.0035095289 0.73700005 7.8386898e-39
0.03876191 0.0035238117 0.74000001 8.8503292e-39
0.040280007 0.0035333335 0.7420001 9.124775e-39
0.04174953 0.0035381019 0.74300003 9.310618e-39
0.043280959 0.0035476089 0.74500006 9.6790558e-39
0.044820007 0.0035571456 0.74700004 9.952756e-39
-0.03476667 0.0049666762 0.745 1.1999809e-39
-0.033347622 0.0049666762 0.745 2.3988842e-39
-0.031928573 0.0049666613 0.74500006 3.5956282e-39
-0.030509526 0.0049666539 0.74500006 3.0413978e-39
-0.029090477 0.0049666613 0.74500006 2.489324e-39
-0.027597142 0.0049533322 0.74300009 1.9379678e-39
-0.026181905 0.0049533322 0.74300009 1.476984e-39
-0.024666669 0.0049333349 0.74000001 1.4755365e-39
-0.023225717 0.0049266592 0.73900002 1.3819003e-39
-0.021759052 0.0049133226 0.73700005 1.0149086e-39
-0.020272383 0.0048933327 0.73400003 6.4791837e-40
-0.018822858 0.0048800036 0.73200011 7.3866926e-40
-0.017428573 0.0048799962 0.73200005 9.216368e-40
-0.016012382 0.0048733354 0.73099995 1.0134849e-39
-0.01462 0.0048733354 0.73100001 1.105326e-39
-0.013191429 0.0048599988 0.72900003 1.2890026e-39
-0.011786668 0.0048533306 0.7280001 1.3801375e-39
-0.010400002 0.0048533231 0.7280001 1.3823053e-39
-0.0089885714 0.0048400015 0.72600001 1.476998e-39
-0.0076057152 0.004839994 0.72600001 1.2025537e-39
-0.0062228576 0.0048400015 0.72600001 9.2669829e-40
-0.0048333341 0.0048333257 0.72500002 1.0160311e-39
-0.0034523816 0.0048333183 0.72500002 1.0145961e-39
-0.0020657144 0.0048199967 0.72300005 1.1979084e-39
-0.00068857148 0.0048199967 0.72299999 1.289388e-39
0.00068857154 0.0048199967 0.72300005 1.6574502e-39
0.0020657144 0.0048199967 0.72300005 2.0247838e-39
0.0034428574 0.0048200041 0.72299999 2.1180458e-39
0.0048133335 0.0048133284 0.72200006 2.210247e-39
0.0061971429 0.0048199967 0.72300005 1.6567285e-39
0.0075742868 0.0048199967 0.72299999 1.1039247e-39
0.0089390501 0.0048133209 0.72200006 9.2061526e-40
0.010328575 0.0048200041 0.72300005 6.4546049e-40
0.011689526 0.0048133209 0.72200006 6.4473462e-40
0.013082859 0.0048199892 0.72300005 5.5254039e-40
0.014460003 0.0048199967 0.72300005 1.1039121e-39
0.015837146 0.0048199743 0.72300005 1.5638127e-39
0.017214291 0.0048199967 0.72300005 2.3953586e-39
0.018591434 0.0048199967 0.72300005 3.2175578e-39
0.019968577 0.0048199743 0.72300005 1.8385737e-39
0.021404766 0.0048333332 0.72500002 4.6033215e-40
0.022785719 0.0048333108 0.72500002 6.4365282e-40
0.024166668 0.0048333257 0.72500002 8.2697068e-40
0.025653336 0.004853338 0.72800004 1.7528632e-39
0.027040003 0.004853338 0.72800004 2.5862042e-39
0.028465718 0.0048600063 0.72900003 2.2167154e-39
0.029936194 0.0048733354 0.73100001 1.9372951e-39
0.03132857 0.0048733503 0.73099995 5.6315523e-39
0.032765716 0.0048799887 0.73200011 9.31609e-39
0.03425334 0.0048933327 0.73399997 7.286738e-39
0.035748571 0.0049066618 0.73600006 5.3459144e-39
0.037200958 0.004913345 0.73699999 7.0081991e-39
0.03876191 0.0049333274 0.74000001 8.5733682e-39
0.040280003 0.0049466714 0.74200004 8.850688e-39
0.04174953 0.0049533322 0.74300003 9.2202132e-39
0.043280959 0.0049666613 0.74500006 9.3113606e-39
0.044820007 0.0049799979 0.7470001 9.4946547e-39
-0.034766674 0.0063857213 0.745 1.3836505e-39
-0.033347625 0.0063857138 0.745 2.765506e-39
-0.031928577 0.0063857213 0.745 4.051926e-39
-0.03059143 0.0064028576 0.74700004 3.3161728e-39
-0.029090479 0.0063857213 0.74500006 2.4896674e-39
-0.02767143 0.0063857064 0.74500006 1.7557163e-39
-0.026181905 0.0063685775 0.74300003 9.2632415e-40
-0.024666671 0.0063428581 0.74000001 1.198958e-39
-0.023225717 0.0063342899 0.73900002 1.3826206e-39
-0.021759052 0.0063171536 0.73699999 1.1982251e-39
-0.020272383 0.0062914267 0.73400003 1.0145457e-39
-0.01882286 0.0062742829 0.73200011 1.0145373e-39
-0.017428573 0.0062742978 0.73200005 9.2163961e-40
-0.016012382 0.0062657148 0.73099995 9.2093475e-40
-0.014619999 0.0062657222 0.73100001 9.2201375e-40
-0.013191429 0.006248571 0.72900003 1.1056875e-39
-0.011802857 0.0062485635 0.72900009 1.2900886e-39
-0.010414287 0.0062485784 0.72900003 1.3819367e-39
-0.0090133343 0.0062399879 0.72800004 1.3837248e-39
-0.0076266676 0.0062399805 0.72800004 1.2943934e-39
-0.0062228572 0.0062228441 0.72600001 1.1092945e-39
-0.004840001 0.006222859 0.72600001 1.2901026e-39
-0.0034523811 0.006214276 0.72500002 1.3815794e-39
-0.002071429 0.0062142685 0.72500002 1.3812207e-39
-0.00069047627 0.006214276 0.72500002 1.2904628e-39
0.0006885716 0.0061971396 0.72300005 1.4755701e-39
0.0020657144 0.0061971247 0.72300005 1.657432e-39
0.0034428579 0.0061971471 0.72299999 1.841805e-39
0.0048133335 0.0061885566 0.72200006 2.0244181e-39
0.0061885719 0.0061885566 0.72200006 1.4719884e-39
0.0075742863 0.0061971471 0.72299999 9.2061806e-40
0.0089390492 0.0061885566 0.72200006 8.291427e-40
0.010314289 0.006188564 0.72200006 7.3730159e-40
0.011705717 0.0061971396 0.72299999 6.4402697e-40
0.013082859 0.0061971396 0.72300005 5.525446e-40
0.014460003 0.0061971471 0.72300005 1.1953889e-39
0.015837144 0.0061971322 0.72299999 1.843254e-39
0.017214289 0.0061971396 0.72300005 2.2235061e-39
0.01864286 0.0062142834 0.72500002 2.4871576e-39
0.020023813 0.0062142685 0.72500002 1.2871823e-39
0.021404766 0.006214276 0.72500002 9.3333484e-41
0.022785718 0.0062142834 0.72500002 4.6068948e-40
0.024200002 0.0062228516 0.72600001 8.305482e-40
0.025653336 0.0062399954 0.72800004 1.8468413e-39
0.027077146 0.006248571 0.72900003 2.8606233e-39
0.028465718 0.0062485784 0.72900003 2.4021675e-39
0.02985429 0.0062485784 0.72900003 1.9448215e-39
0.031328574 0.0062657148 0.73100001 5.6340648e-39
0.032765716 0.0062742904 0.73200011 9.3107118e-39
0.03425334 0.0062914267 0.73400003 6.6399477e-39
0.035748575 0.0063085705 0.73600006 3.8805205e-39
0.037200954 0.0063171461 0.73700005 6.0913323e-39
0.03876191 0.0063428581 0.74000001 8.2982513e-39
0.040171433 0.0063428432 0.74000001 8.6673855e-39
0.04174953 0.0063685775 0.74300003 9.0354632e-39
0.043280959 0.0063857213 0.74500006 9.0351227e-39
0.044820007 0.0064028651 0.74700004 8.9432648e-39
0.046304774 0.0064114183 0.74800003 9.0365128e-39
0.047729526 0.0064114332 0.74800003 9.0354408e-39
-0.033437148 0.0078257024 0.74700004 2.3978024e-39
-0.032014292 0.007825695 0.7470001 3.3161574e-39
-0.03059143 0.0078257173 0.74700004 2.9484567e-39
-0.029090479 0.0078047663 0.74500006 2.4896534e-39
-0.02767143 0.0078047588 0.74500006 2.2138021e-39
-0.026181905 0.0077838153 0.74300009 1.9372265e-39
-0.024733333 0.0077733323 0.7420001 1.7521261e-39
-0.023225717 0.0077419057 0.73900008 1.4751777e-39
-0.021759052 0.0077209622 0.73700005 1.2904235e-39
-0.02032762 0.0077104717 0.73600006 1.1975034e-39
-0.018874289 0.0076895058 0.73400003 1.0138226e-39
-0.017428575 0.0076685771 0.73200005 9.2092494e-40
-0.01601238 0.0076581091 0.73099995 7.3762529e-40
-0.01462 0.0076581016 0.73099995 6.4758346e-40
-0.013227619 0.0076581016 0.73100001 1.0160016e-39
-0.011802858 0.0076371357 0.72900003 1.3847884e-39
-0.010414287 0.0076371431 0.72900003 1.3830031e-39
-0.0090133352 0.0076266602 0.72800004 1.3812109e-39
-0.0076266681 0.0076266527 0.7280001 1.2918865e-39
-0.0062228576 0.0076057091 0.72600001 1.2926082e-39
-0.004840001 0.0076057017 0.72600001 1.6574432e-39
-0.003457143 0.0076057166 0.72600001 2.0237104e-39
-0.002071429 0.0075952262 0.72500002 1.4730562e-39
-0.00069047627 0.0075952262 0.72500002 9.2311938e-40
0.00069047621 0.0075952262 0.72500008 9.2168305e-40
0.002071429 0.0075952411 0.72500002 1.0124213e-39
0.0034523811 0.0075952187 0.72500002 1.2882641e-39
0.0048200008 0.0075742826 0.72300005 1.4712471e-39
0.0061971433 0.0075742751 0.72300005 1.1035758e-39
0.0075742863 0.00757429 0.72300005 8.2771057e-40
0.0089514302 0.0075742826 0.72300005 8.2950423e-40
0.010328574 0.0075742751 0.72300005 8.2986156e-40
0.011705716 0.0075742826 0.72300005 5.5327607e-40
0.013082859 0.00757429 0.72300005 3.6852048e-40
0.014500001 0.0075952411 0.72500002 9.1988238e-40
0.015880955 0.0075952262 0.72500002 1.4712387e-39
0.017261907 0.0075952262 0.72500002 1.9397278e-39
0.01864286 0.0075952262 0.72500008 2.4857031e-39
0.020023813 0.0075952262 0.72500002 1.288955e-39
0.021404766 0.0075952336 0.72500002 1.8515497e-40
0.022817148 0.0076057017 0.72600001 5.5323263e-40
0.024300002 0.0076371506 0.72900003 9.2237389e-40
0.025688574 0.0076371431 0.72900003 1.8457553e-39
0.027077144 0.0076371357 0.72900009 2.7702115e-39
0.028543815 0.0076580942 0.73099995 2.5843909e-39
0.029936196 0.0076580942 0.73099995 2.3060594e-39
0.03137143 0.0076685771 0.73200011 5.7230304e-39
0.032765716 0.0076685697 0.73200011 9.1324232e-39
0.03425334 0.0076895207 0.73399997 7.099128e-39
0.035748575 0.0077104717 0.73600006 5.1587121e-39
0.037200958 0.0077209547 0.73700005 6.732439e-39
0.038761914 0.0077523813 0.74000001 8.3911952e-39
0.040280003 0.0077733323 0.7420001 8.6673953e-39
0.04174953 0.0077838078 0.74300003 9.0351031e-39
0.043397147 0.0078257248 0.74700004 8.8503615e-39
0.044880006 0.0078361854 0.74800003 8.7570644e-39
0.04642858 0.0078571439 0.75000006 8.5748017e-39
0.047857143 0.0078571439 0.75000006 8.3933e-39
-0.033481911 0.0092609525 0.74800003 2.0326072e-39
-0.032057147 0.0092609525 0.74800003 2.581821e-39
-0.030591428 0.0092485771 0.74700004 2.5803804e-39
-0.029090479 0.0092238188 0.745 2.4892834e-39
-0.02767143 0.0092238113 0.74500006 2.7637361e-39
-0.026181905 0.009199053 0.74300003 2.9474225e-39
-0.024733333 0.0091866627 0.7420001 2.3045895e-39
-0.023225715 0.009149529 0.73900002 1.5673804e-39
-0.021759052 0.0091247708 0.73700005 1.4744547e-39
-0.020327624 0.0091123655 0.73600012 1.290048e-39
-0.018874289 0.0090876147 0.73399997 1.1056427e-39
-0.017428575 0.0090628564 0.73200005 9.216326e-40
-0.016034288 0.0090628564 0.73200005 6.447108e-40
-0.01462 0.0090504885 0.73099995 2.8024148e-40
-0.013227619 0.0090504885 0.73099995 8.3340965e-40
-0.011802858 0.0090257078 0.72900003 1.3837178e-39
-0.010414287 0.0090257004 0.72900009 1.3837304e-39
-0.0090257153 0.0090257153 0.72900003 1.3826542e-39
-0.0076266676 0.0090133324 0.72800004 1.3822969e-39
-0.0062400009 0.0090133399 0.72800004 1.3830143e-39
-0.0048533343 0.0090133324 0.72800004 2.0237104e-39
-0.003457143 0.0089885592 0.72600001 2.5754422e-39
-0.0020742861 0.0089885741 0.72600001 1.5645371e-39
-0.00069047627 0.0089761913 0.72500002 4.617881e-40
0.00069047627 0.0089761764 0.72500002 4.596301e-40
0.002071429 0.0089761838 0.72500002 3.7138893e-40
0.0034523816 0.0089761838 0.72500002 6.443899e-40
0.0048333341 0.0089761913 0.72500002 9.2491584e-40
0.0062142862 0.0089761913 0.72500002 8.2733923e-40
0.0075742863 0.008951433 0.72300005 6.454703e-40
0.0089514302 0.0089514107 0.72300005 7.3910787e-40
0.010328574 0.0089514181 0.72300005 8.3057622e-40
0.011705716 0.008951433 0.72300005 5.54704e-40
0.013082858 0.0089514181 0.72300005 1.8591027e-40
0.014500002 0.0089761764 0.72500002 6.43636e-40
0.015880954 0.0089761764 0.72500002 1.0160058e-39
0.017285718 0.0089885667 0.72600001 1.7625336e-39
0.018668575 0.0089885592 0.72600001 2.398199e-39
0.020051431 0.0089885667 0.72599995 1.3819017e-39
0.021434288 0.0089885667 0.72600001 2.7809188e-40
0.022880005 0.0090133399 0.72800004 6.4400875e-40
0.024300002 0.0090257153 0.72900003 9.2274803e-40
0.025688574 0.0090257078 0.72900009 1.8439771e-39
0.027077144 0.0090257227 0.72900003 2.6748097e-39
0.028543813 0.0090504736 0.73100001 2.675537e-39
0.029936194 0.0090504885 0.73099995 2.6805817e-39
0.03137143 0.0090628639 0.73200011 5.819514e-39
0.032765716 0.0090628564 0.73200011 8.8515274e-39
0.03439334 0.0091247633 0.73699999 7.6490619e-39
0.035748579 0.0091123804 0.73600006 6.4522984e-39
0.037301909 0.0091495067 0.73900008 7.4721424e-39
0.038866669 0.0091866553 0.7420001 8.3919099e-39
0.040334292 0.0091990456 0.74300009 8.6681114e-39
0.04186191 0.0092238039 0.745 8.9425417e-39
0.043397151 0.0092485622 0.74700004 8.7581532e-39
0.044880006 0.009260945 0.74800003 8.4811866e-39
0.046304774 0.0092609525 0.74799997 8.1116684e-39
-0.036282863 0.010671422 0.74700004 3.6788022e-39
-0.034860007 0.010671422 0.74700004 1.4779901e-39
-0.033437148 0.010671422 0.74700004 2.0315254e-39
-0.032014292 0.010671422 0.74700004 2.674004e-39
-0.03059143 0.010671414 0.74700004 2.489963e-39
-0.029090479 0.010642856 0.745 2.3066788e-39
-0.02767143 0.010642849 0.745 2.3971074e-39
-0.026252383 0.010642856 0.74500006 2.4882507e-39
-0.024766667 0.010614283 0.74300009 2.0280222e-39
-0.023225717 0.01055713 0.73900008 1.6585068e-39
-0.021759052 0.010528572 0.73700005 1.4744547e-39
-0.020327622 0.010514274 0.73600012 1.290041e-39
-0.018925717 0.010514282 0.73600006 1.1981803e-39
-0.017428575 0.010457143 0.73200005 1.10637e-39
-0.016034286 0.010457136 0.73200005 9.2272421e-40
-0.01462 0.010442875 0.73099995 7.4013502e-40
-0.013227619 0.010442868 0.73099995 1.2911536e-39
-0.011835238 0.010442868 0.73100001 1.9333014e-39
-0.010442858 0.010442853 0.73100001 1.6581691e-39
-0.0090257144 0.01041428 0.72900003 1.382664e-39
-0.0076371431 0.010414273 0.72900009 1.4755771e-39
-0.0062400009 0.010399997 0.72800004 1.6596026e-39
-0.0048533343 0.01039999 0.7280001 1.9354622e-39
-0.0034666667 0.010399997 0.72800004 2.1187787e-39
-0.0020742861 0.010371439 0.72599995 1.1975581e-39
-0.00069047633 0.010357127 0.72500002 2.7668218e-40
0.00069047621 0.010357127 0.72500008 3.0407042e-39
0.002071429 0.010357141 0.72500002 5.706121e-39
0.0034523811 0.010357134 0.72500002 5.8952066e-39
0.0048200008 0.010328561 0.72300005 6.08279e-39
0.0061971433 0.010328576 0.72299999 4.7920358e-39
0.0075742863 0.010328561 0.72300005 3.4938e-39
0.0089390483 0.010314278 0.722 2.1166431e-39
0.010328574 0.010328561 0.72300005 6.4798003e-40
0.011705716 0.010328561 0.72300005 5.5541305e-40
0.013082858 0.010328561 0.72300005 5.5467177e-40
0.014500001 0.010357149 0.72500002 8.287195e-40
0.015880954 0.010357141 0.72500002 1.1042526e-39
0.017285716 0.010371417 0.72600001 2.2141973e-39
0.018668575 0.010371424 0.72600001 3.3198106e-39
0.020051431 0.010371417 0.72600001 2.0269376e-39
0.021493338 0.010400005 0.72800004 8.2913008e-40
0.022880005 0.01039999 0.72800004 8.2913008e-40
0.0243 0.010414287 0.72900003 9.2276345e-40
0.025759049 0.010442868 0.73099995 1.6603201e-39
0.027151432 0.010442868 0.73100001 2.4911597e-39
0.028543813 0.01044286 0.73100001 2.5833694e-39
0.029936194 0.010442868 0.73099995 2.7681194e-39
0.03137143 0.010457143 0.73200011 5.6322403e-39
0.032855239 0.010485709 0.73400003 8.5810333e-39
0.03434667 0.010514274 0.73600006 7.7416121e-39
0.035748575 0.010514289 0.73600006 6.9990038e-39
0.037200958 0.010528564 0.73700005 7.9291647e-39
0.038761906 0.010571443 0.74000001 8.8521621e-39
0.040280003 0.010599993 0.7420001 8.942899e-39
0.041861914 0.010642856 0.745 9.1254868e-39
0.043397147 0.010671429 0.74700004 8.7581378e-39
0.04488001 0.01068572 0.74800003 8.4815341e-39
0.04642858 0.010714285 0.75000006 8.0198231e-39
-0.037756197 0.012110472 0.74800003 5.8922456e-39
-0.036282863 0.012094282 0.74700004 3.6741387e-39
-0.034860007 0.012094274 0.74700004 1.38544e-39
-0.033481911 0.012110479 0.74800003 2.0333261e-39
-0.032057144 0.012110472 0.74800003 2.6750998e-39
-0.030632384 0.012110479 0.74800003 2.3988786e-39
-0.029090479 0.012061909 0.745 2.1226659e-39
-0.02767143 0.012061901 0.745 2.0301241e-39
-0.026252383 0.012061901 0.745 1.9375866e-39
-0.024766667 0.012029536 0.74300003 1.844333e-39
-0.023257148 0.011980951 0.74000001 1.6592145e-39
-0.021818096 0.011964761 0.73900008 1.4744547e-39
-0.020355241 0.01193238 0.73700005 1.2900536e-39
-0.018925715 0.011916183 0.73600006 1.2900396e-39
-0.017428575 0.011851422 0.73200005 1.2904123e-39
-0.016034286 0.01185143 0.73200011 1.1993083e-39
-0.01462 0.011835247 0.73100001 1.1074784e-39
-0.013227619 0.011835255 0.73099995 1.7492549e-39
-0.011835238 0.011835247 0.73099995 2.3924775e-39
-0.010442857 0.01183524 0.73100001 1.8407625e-39
-0.0090257153 0.011802852 0.72900003 1.291553e-39
-0.0076371436 0.011802852 0.72900003 1.6606998e-39
-0.0062485724 0.011802852 0.72900003 1.9372699e-39
-0.0048600012 0.011802845 0.72900003 1.8475742e-39
-0.0034666671 0.011786669 0.72800004 1.6603159e-39
-0.0020742861 0.011754289 0.72600001 9.2168445e-40
-0.00069142866 0.011754282 0.72599995 9.9850923e-41
0.00069142866 0.011754274 0.72600001 5.6279397e-39
0.002071429 0.011738084 0.72500002 1.1050547e-38
0.0034428579 0.011705711 0.72300005 1.1146697e-38
0.0048200008 0.011705704 0.72300005 1.1147406e-38
0.0061971433 0.011705719 0.72299999 8.7646973e-39
0.0075742863 0.011705711 0.72300005 6.3536372e-39
0.0089390492 0.011689514 0.72200012 3.4012513e-39
0.010328574 0.011705719 0.72299999 4.639447e-40
0.011705716 0.011705704 0.72300005 6.4832895e-40
0.013082858 0.011705711 0.72300005 8.3019507e-40
0.014500002 0.011738084 0.72500002 1.0117039e-39
0.015880954 0.011738084 0.72500002 1.1975441e-39
0.01728572 0.011754267 0.72600001 2.6697987e-39
0.018668577 0.011754282 0.72600001 4.1405973e-39
0.020051433 0.011754282 0.72600001 2.7605496e-39
0.021493338 0.011786655 0.72800004 1.3808591e-39
0.022911433 0.01180286 0.72900003 1.104631e-39
0.024300002 0.01180286 0.72900003 8.3164542e-40
0.025759049 0.011835255 0.73099995 1.5674168e-39
0.027151432 0.011835247 0.73099995 2.306421e-39
0.028543815 0.011835247 0.73100001 2.5826617e-39
0.029977147 0.01185143 0.73200005 2.7731472e-39
0.03137143 0.011851422 0.73200011 5.5436362e-39
0.032855239 0.011883818 0.73399997 8.206874e-39
0.034393337 0.011932373 0.73700005 7.8294959e-39
0.035797145 0.01193238 0.73700005 7.4649986e-39
0.037301905 0.011964768 0.73900002 8.3926554e-39
0.03876191 0.011980951 0.74000001 9.3109711e-39
0.040280007 0.012013331 0.74200004 9.3087795e-39
0.04174953 0.012029529 0.74300009 9.2173097e-39
0.043397151 0.012094282 0.74700004 8.8503335e-39
0.04488001 0.012110479 0.74799997 8.4812006e-39
0.046304774 0.012110472 0.74800003 8.0170051e-39
0.04798476 0.01217524 0.75200003 7.5607269e-39
-0.037756201 0.013535246 0.74800003 5.8854227e-39
-0.036282863 0.013517134 0.7470001 3.5862493e-39
-0.034860007 0.013517141 0.74700004 1.3868791e-39
-0.033481907 0.013535239 0.74800003 2.0315381e-39
-0.032057144 0.013535231 0.74800003 2.6754795e-39
-0.030632384 0.013535231 0.74800003 2.6737013e-39
-0.029090477 0.013480939 0.74500006 2.6726195e-39
-0.027671428 0.013480946 0.745 2.3974661e-39
-0.026181906 0.013444759 0.74300003 2.1219666e-39
-0.024733333 0.013426661 0.7420001 1.8443134e-39
-0.023257148 0.013390481 0.74000001 1.5670104e-39
-0.021818098 0.013372384 0.73900002 1.3826192e-39
-0.020355241 0.013336189 0.73700005 1.1975118e-39
-0.018925719 0.013318084 0.73600012 1.1978692e-39
-0.017476194 0.013281889 0.73400003 1.1985894e-39
-0.016034286 0.013245717 0.73200011 1.0163562e-39
-0.014640001 0.013245709 0.73200011 9.2524234e-40
-0.01322762 0.013227627 0.73100001 1.3837066e-39
-0.01183524 0.013227634 0.73099995 1.8421806e-39
-0.010442858 0.013227619 0.73099995 1.4755701e-39
-0.0090504764 0.013227619 0.73100001 1.1086065e-39
-0.0076371436 0.013191417 0.72900003 1.3852088e-39
-0.0062485724 0.013191424 0.72900009 1.6621306e-39
-0.0048600012 0.013191439 0.72900003 1.4787987e-39
-0.0034714285 0.013191432 0.72900003 1.2944046e-39
-0.0020742861 0.013137147 0.72600001 7.3908124e-40
-0.00069142861 0.013137124 0.72600001 9.3418963e-41
0.00069142866 0.013137139 0.72599995 3.418923e-39
0.002071429 0.013119042 0.72500002 6.8433658e-39
0.0034428574 0.013082854 0.72300005 7.2024401e-39
0.0048200004 0.013082847 0.72300005 7.57554e-39
0.0061971433 0.013082854 0.72299999 6.0911221e-39
0.0075638099 0.013064742 0.72200006 4.6116564e-39
0.0089390492 0.01306475 0.72200006 2.762695e-39
0.010314288 0.013064764 0.72200006 9.2347671e-40
0.011705716 0.013082862 0.72300005 8.3164401e-40
0.013082858 0.013082854 0.72300005 8.3021189e-40
0.014460002 0.013082847 0.72299999 1.1053624e-39
0.015880954 0.013119042 0.72500002 1.3819521e-39
0.017285718 0.013137139 0.72600001 2.3024665e-39
0.018668575 0.013137132 0.72600001 3.3122912e-39
0.020051431 0.013137139 0.72600001 2.2084632e-39
0.021522863 0.013191432 0.72900003 1.1964707e-39
0.022911433 0.013191432 0.72900003 8.3091254e-40
0.024366667 0.013227619 0.73100001 4.6609849e-40
0.025759049 0.013227619 0.73100001 1.2944284e-39
0.02715143 0.013227634 0.73099995 2.124552e-39
0.028543813 0.013227627 0.73099995 2.4004341e-39
0.029977147 0.013245717 0.73200005 2.7692068e-39
0.03154286 0.013318092 0.73600006 5.539693e-39
0.032944765 0.013318077 0.73600006 8.3012192e-39
0.03439334 0.013336182 0.73700005 8.018901e-39
0.035797149 0.013336182 0.73700005 7.7408652e-39
0.037301905 0.013372384 0.73900008 8.4841391e-39
0.03876191 0.013390474 0.74000001 9.3123962e-39
0.040279999 0.013426661 0.74200004 9.1257979e-39
0.041861914 0.013480946 0.74500006 8.9410731e-39
0.043397147 0.013517134 0.74700004 8.6666639e-39
0.045000002 0.013571426 0.75000006 8.4844558e-39
0.04630477 0.013535231 0.74800003 6.1781932e-39
0.048048571 0.013625711 0.75300008 3.9716526e-39
0.049482856 0.013625711 0.75300008 4.522688e-39
0.05105238 0.013661899 0.75500005 4.9840263e-39
-0.032057144 0.014959998 0.74799997 2.6740404e-39
-0.030632384 0.014960013 0.74800003 2.9481232e-39
-0.029168574 0.014939986 0.74700004 3.1317872e-39
-0.027671428 0.014899999 0.74500006 2.6726041e-39
-0.026181905 0.014860012 0.74300003 2.2130777e-39
-0.024766667 0.014860012 0.74300003 1.8443106e-39
-0.023257148 0.014800012 0.74000001 1.4755323e-39
-0.021818098 0.014779992 0.73900008 1.2907851e-39
-0.02035524 0.014740005 0.73699999 1.014201e-39
-0.018951429 0.014739998 0.73700005 1.1049589e-39
-0.017476194 0.014679998 0.73399997 1.1074784e-39
-0.016034286 0.014639996 0.73200011 9.2596962e-40
-0.014640001 0.014639989 0.73200011 6.5045612e-40
-0.013245715 0.014640003 0.73200005 1.0174338e-39
-0.011851429 0.014640003 0.73200005 1.2932976e-39
-0.010442858 0.014620006 0.73099995 1.1107028e-39
-0.0090504764 0.014620006 0.73100001 8.3450547e-40
-0.0076580956 0.014620006 0.73100001 1.1093225e-39
-0.0062657148 0.014619999 0.73100001 1.2944116e-39
-0.0048600007 0.014580004 0.72900003 1.1114413e-39
-0.0034714285 0.014579996 0.72900009 9.2525776e-40
-0.0020800002 0.014559984 0.7280001 5.5540325e-40
-0.00069333345 0.014559999 0.72800004 9.6613924e-41
0.00069142866 0.014519982 0.72600001 1.2937348e-39
0.002071429 0.014499992 0.72500002 2.5015854e-39
0.0034428574 0.014459997 0.72300005 3.2438014e-39
0.0048200004 0.014459983 0.72300005 3.8830737e-39
0.0061885715 0.014439978 0.72200012 3.3202338e-39
0.0075638099 0.014439993 0.72200006 2.7652453e-39
0.0089142863 0.014400013 0.71999997 2.0226398e-39
0.010285716 0.014399998 0.72000003 1.2908257e-39
0.011657145 0.014400005 0.72000003 1.1082295e-39
0.013064764 0.014439985 0.72200006 8.3165102e-40
0.014440002 0.014439985 0.72200012 1.1972035e-39
0.015837148 0.014460005 0.72300005 1.4752338e-39
0.017285716 0.014519997 0.72600001 1.936935e-39
0.018720003 0.014559992 0.7280001 2.3942978e-39
0.02010667 0.014559999 0.72800004 1.6567243e-39
0.021522861 0.014579996 0.72900003 9.2237248e-40
0.022974292 0.014620014 0.73099995 5.5572274e-40
0.024366667 0.014620006 0.73099995 9.8732687e-41
0.025759049 0.014619999 0.73100001 1.0196338e-39
