# .PCD v0.7 - Point Cloud Data file format
VERSION 0.7
FIELDS x y z rgb
SIZE 4 4 4 4
TYPE F F F F
COUNT 1 1 1 1
WIDTH 977
HEIGHT 1
VIEWPOINT 0 0 0 1 0 0 0
POINTS 977
DATA ascii
-0.013480962 0.04753812 0.74500006 2.2142225e-39
-0.012061892 0.047538117 0.74500006 2.5779576e-39
-0.010614302 0.047410492 0.74300003 1.6588655e-39
-0.0091990512 0.047410484 0.74300003 8.4212152e-40
-0.0077838269 0.047410473 0.74300003 8.7748609e-39
-0.006360021 0.047346685 0.74200004 1.6683778e-38
-0.0049466887 0.047346681 0.74200004 1.3821038e-38
-0.0035333598 0.047346696 0.74200004 1.0958333e-38
-0.0021142887 0.04721906 0.74000001 1.0786122e-38
-0.00070475257 0.047219053 0.74000001 1.0606142e-38
0.00070475944 0.047219068 0.74000001 1.5222054e-38
0.0021142957 0.047219064 0.74000001 1.9828164e-38
0.0035333091 0.047346685 0.74200004 1.6785382e-38
0.0049466374 0.047346685 0.74200004 1.3720643e-38
0.006359993 0.047346681 0.74200004 6.8974629e-39
0.0077838064 0.047410481 0.74300003 9.2751945e-41
0.0091990279 0.047410481 0.74300009 7.5637971e-39
0.010614255 0.047410477 0.74300003 1.504448e-38
0.012029506 0.047410477 0.74300003 1.6338106e-38
0.013444757 0.047410488 0.74300003 1.7625238e-38
0.014859985 0.047410488 0.74300003 1.5767363e-38
0.016275236 0.047410484 0.74300003 1.4006994e-38
0.0177381 0.047538117 0.745 1.3738592e-38
0.019157145 0.047538131 0.745 1.3468164e-38
0.020576186 0.047538117 0.74500006 1.282573e-38
0.022054277 0.047665734 0.74699998 1.2181049e-38
0.023508558 0.047729537 0.74800003 1.3552444e-38
0.024933342 0.047729548 0.74800003 1.494006e-38
0.026358102 0.047729544 0.74799997 1.5041619e-38
0.027857123 0.047857154 0.75 1.5212683e-38
0.029402841 0.048048593 0.75300002 1.4376425e-38
0.03091906 0.048176207 0.755 1.3655788e-38
0.032400019 0.048240025 0.75600004 1.5314623e-38
0.033929516 0.048367634 0.75799996 1.6965872e-38
0.035466671 0.04849527 0.75999999 1.871613e-38
0.037059978 0.048686683 0.76300001 2.0478949e-38
0.038513307 0.048686683 0.76300001 2.1947246e-38
-0.063439988 0.048102882 0.73199999 1.469857e-39
-0.062045697 0.048102871 0.73199999 1.0927606e-40
-0.060651414 0.048102871 0.73199999 1.1822699e-38
-0.059176195 0.048037168 0.73100001 2.3411929e-38
-0.057783797 0.048037164 0.73100001 2.341769e-38
-0.056391437 0.048037164 0.73100001 2.341769e-38
-0.054848585 0.047905732 0.72900003 2.341769e-38
-0.053460009 0.047905732 0.72900003 2.341769e-38
-0.052071441 0.047905732 0.72900003 2.341769e-38
-0.050682887 0.047905724 0.72900003 2.341769e-38
-0.049429525 0.04803716 0.73100001 2.341769e-38
-0.035700005 0.05027144 0.76500005 1.5680558e-39
-0.034063812 0.050008595 0.76100004 1.5691446e-39
-0.032571442 0.049942885 0.75999999 1.5662621e-39
-0.031041916 0.049811438 0.75800002 1.2882319e-39
-0.029598089 0.049811453 0.75799996 1.0138198e-39
-0.028079998 0.049680021 0.75600004 1.1982251e-39
-0.026604749 0.04961431 0.75500005 1.2907753e-39
-0.025100004 0.049482878 0.75300002 1.3829681e-39
-0.023634292 0.049417172 0.75200003 1.4762693e-39
-0.022142902 0.049285728 0.75000006 1.5699307e-39
-0.020714324 0.049285728 0.75000006 1.6606844e-39
-0.019285746 0.04928574 0.75 1.7532304e-39
-0.017785735 0.049088597 0.74699998 1.7543108e-39
-0.016362872 0.049088594 0.74699998 1.7553926e-39
-0.014900001 0.048957169 0.745 1.7553968e-39
-0.013480961 0.048957162 0.74500006 2.3986096e-39
-0.012061916 0.048957173 0.74500006 2.9460128e-39
-0.010614293 0.048825718 0.74300003 1.5623609e-39
-0.0091990661 0.048825722 0.74300003 1.1068576e-40
-0.0077838157 0.048825718 0.74300003 1.0065266e-38
-0.0063685891 0.048825733 0.74300003 1.9911367e-38
-0.0049533383 0.048825726 0.74300003 2.0846195e-38
-0.003538117 0.048825711 0.74300003 2.1745886e-38
-0.0021200145 0.048760016 0.74200004 2.1487948e-38
-0.000706686 0.048760016 0.74200004 2.1105229e-38
0.00070666865 0.048760023 0.74200004 2.14841e-38
0.0021199675 0.048760016 0.74200004 2.185072e-38
0.0035332979 0.048760012 0.74200004 1.9836075e-38
0.0049466542 0.048760027 0.74200004 1.7683232e-38
0.0063599828 0.048760019 0.74200004 8.908549e-39
0.0077733113 0.048760019 0.74200004 1.0676773e-40
0.0091990419 0.048825722 0.74300003 8.8717537e-39
0.010614293 0.048825722 0.74300003 1.7521165e-38
0.01202952 0.048825722 0.74300003 1.606042e-38
0.013444741 0.048825726 0.74300003 1.4467283e-38
0.014859992 0.048825718 0.74300003 1.1784676e-38
0.016319033 0.048957173 0.74500006 9.0475242e-39
0.017738104 0.048957165 0.74500006 1.2556619e-38
0.019208549 0.04908859 0.74699998 1.6043887e-38
0.02063141 0.049088601 0.74699998 1.3562205e-38
0.022083817 0.049154308 0.74799997 1.0983952e-38
0.023508577 0.049154308 0.74799997 1.2991376e-38
0.024933305 0.049154297 0.74800003 1.5034767e-38
0.026428554 0.049285725 0.75000006 1.5143872e-38
0.027931416 0.049417164 0.75200003 1.5211267e-38
0.029402865 0.049482886 0.75300002 1.5102884e-38
0.030919051 0.04961431 0.75500005 1.5033326e-38
0.03248572 0.049811441 0.75799996 1.6240497e-38
0.034019023 0.049942888 0.76000005 1.7429694e-38
0.035513327 0.050008591 0.76100004 1.8164016e-38
0.037157126 0.050271425 0.76500005 1.8815491e-38
0.038715243 0.050402876 0.76700002 2.1121798e-38
0.040333346 0.05060003 0.76999998 2.3415892e-38
-0.06361334 0.049632397 0.73400003 1.3812417e-39
-0.062045701 0.049497161 0.73199999 9.2414232e-41
-0.06065141 0.049497176 0.73199999 1.1715801e-38
-0.05925712 0.049497154 0.73199999 2.3325836e-38
-0.057862833 0.049497169 0.73199999 2.3325854e-38
-0.056468569 0.049497169 0.73199999 2.341769e-38
-0.054999065 0.04942954 0.73100007 2.341769e-38
-0.053606674 0.049429536 0.73100007 2.341769e-38
-0.052214306 0.049429536 0.73100007 2.341769e-38
-0.050891418 0.049497172 0.73199999 2.341769e-38
-0.049497128 0.049497169 0.73199999 2.341769e-38
-0.037254285 0.051863823 0.76699996 1.7495758e-39
-0.035700031 0.05172858 0.76500005 1.5673523e-39
-0.034153346 0.051593348 0.76300001 1.475528e-39
-0.032700017 0.051593348 0.76300001 1.3822506e-39
-0.03112381 0.05139051 0.75999999 1.1978537e-39
-0.029598091 0.051255248 0.75800002 1.0145513e-39
-0.028079983 0.051120028 0.75599998 1.1985894e-39
-0.026640005 0.051120017 0.75600004 1.4737232e-39
-0.025166649 0.051052395 0.755 1.4747854e-39
-0.023665715 0.050917163 0.75300002 1.5670146e-39
-0.022201892 0.050849542 0.75200003 1.7510794e-39
-0.020769555 0.050849535 0.75200003 1.9336714e-39
-0.019285737 0.050714299 0.75000006 1.9351035e-39
-0.017785743 0.050511442 0.74699998 1.9369056e-39
-0.016362878 0.050511446 0.74699998 2.0294669e-39
-0.014899999 0.050376222 0.745 2.1213052e-39
-0.013517181 0.050511446 0.74700004 2.4900835e-39
-0.012061883 0.050376214 0.745 2.9495973e-39
-0.010642869 0.050376218 0.74500006 1.4730309e-39
-0.009199053 0.050240967 0.74300003 9.4562423e-41
-0.0077838325 0.050240953 0.74300003 9.5128632e-39
-0.0063685798 0.050240964 0.74300003 1.8917751e-38
-0.0049533551 0.05024096 0.74300003 1.7900744e-38
-0.0035381021 0.05024096 0.74300003 1.6977008e-38
-0.0021200257 0.050173361 0.74200004 1.4671435e-38
-0.0007066711 0.050173353 0.74200004 1.2292316e-38
0.00070665748 0.05017335 0.74200004 1.2921886e-38
0.0021199582 0.050173353 0.74200004 1.3581242e-38
0.0035333128 0.050173346 0.74200004 1.6429224e-38
0.004946643 0.05017335 0.74200004 1.9267785e-38
0.0063599716 0.050173357 0.74200004 1.2615003e-38
0.0077733272 0.050173357 0.74200004 6.0631858e-39
0.0091990251 0.05024096 0.74300003 1.1162637e-38
0.010614277 0.050240956 0.74300003 1.6241203e-38
0.012029503 0.050240956 0.74300003 1.4094898e-38
0.013444754 0.050240967 0.74300003 1.1847428e-38
0.014860006 0.050240964 0.74300003 1.2525778e-38
0.016319066 0.050376214 0.745 1.3086857e-38
0.017738082 0.050376218 0.74500006 1.4111416e-38
0.019208541 0.050511442 0.74699998 1.5220978e-38
0.020631405 0.05051145 0.74699998 1.4022097e-38
0.022054268 0.05051145 0.74699998 1.291572e-38
0.023508567 0.050579064 0.74800003 1.448154e-38
0.024933325 0.050579078 0.74799997 1.6144686e-38
0.026428534 0.050714292 0.75000006 1.5126308e-38
0.027857114 0.050714292 0.75000006 1.4099575e-38
0.029480956 0.051052399 0.755 1.4932511e-38
0.030960009 0.051120013 0.75599998 1.5868461e-38
0.032400019 0.051120028 0.75599998 1.6420208e-38
0.034019046 0.05139051 0.75999999 1.7063049e-38
0.035606638 0.05159336 0.76300001 1.7336036e-38
0.037157126 0.05172858 0.7650001 1.7517942e-38
0.038614277 0.05172858 0.76500005 1.8354891e-38
0.040176205 0.051863831 0.76699996 1.9097825e-38
0.041691445 0.051931467 0.76799995 1.8720795e-38
0.043154281 0.051931456 0.76800001 1.8340874e-38
-0.06343998 0.050891448 0.73199999 1.1946896e-39
-0.062045693 0.050891448 0.73199999 1.0494604e-40
-0.060651436 0.050891448 0.73199999 1.1622135e-38
-0.059257142 0.050891463 0.73199999 2.3131384e-38
-0.057862852 0.050891455 0.73199999 2.3325853e-38
-0.056468569 0.050891452 0.73199999 2.3417687e-38
-0.054999053 0.05082193 0.73100001 2.3417684e-38
-0.053679988 0.050891448 0.73199999 2.34173e-38
-0.052285697 0.050891463 0.73199999 2.3417634e-38
-0.051030461 0.051030502 0.73400003 2.3411555e-38
-0.049632378 0.051030502 0.73399997 2.3325836e-38
-0.037254296 0.053324796 0.76699996 1.5644572e-39
-0.035793323 0.053324793 0.76699996 1.5655503e-39
-0.034153365 0.053046685 0.76300001 1.3829737e-39
-0.032700002 0.053046685 0.76300001 1.1071043e-39
-0.031164778 0.052907635 0.76100004 1.1067413e-39
-0.029676195 0.052838124 0.75999999 1.0152814e-39
-0.028154289 0.052699056 0.75800002 1.2918823e-39
-0.026639994 0.05256002 0.75600004 1.5673748e-39
-0.025166662 0.052490499 0.75500005 1.6595564e-39
-0.023665719 0.052351445 0.75300002 1.6592271e-39
-0.022201896 0.05228192 0.75200003 1.9340455e-39
-0.020714302 0.052142873 0.75 2.1180542e-39
-0.019285753 0.052142859 0.75000006 2.1165997e-39
-0.01780951 0.052003831 0.74799997 2.119129e-39
-0.016362883 0.051934306 0.74699998 2.3035371e-39
-0.014939994 0.051934306 0.74699998 2.4886444e-39
-0.013517156 0.051934306 0.74699998 2.6741119e-39
-0.012094297 0.051934306 0.74700004 2.8556066e-39
-0.010642838 0.051795259 0.745 1.4697995e-39
-0.0092238225 0.051795263 0.74500006 1.0923822e-40
-0.0078047798 0.051795263 0.74500006 8.9739868e-39
-0.0063857087 0.051795259 0.74500006 1.779917e-38
-0.0049666655 0.05179527 0.745 1.5045548e-38
-0.0035381189 0.051656194 0.74300003 1.2169209e-38
-0.0021200127 0.051586676 0.74200004 7.8367743e-39
-0.00070668414 0.051586691 0.74200004 3.4286677e-39
0.00070664816 0.051586691 0.74200004 4.3290832e-39
0.0021200029 0.051586688 0.74200004 5.1872202e-39
0.0035380886 0.051656198 0.74300003 1.3032028e-38
0.0049533094 0.051656201 0.74300003 2.0830104e-38
0.0063685603 0.051656198 0.74300003 1.6404016e-38
0.007783785 0.05165619 0.74300003 1.1990206e-38
0.0091990391 0.051656205 0.74300003 1.3474674e-38
0.01061429 0.051656198 0.74300003 1.493756e-38
0.012029486 0.051656194 0.74300003 1.2139065e-38
0.013444738 0.051656201 0.74300003 9.3165763e-39
0.014899998 0.051795267 0.745 1.3292067e-38
0.01631904 0.051795267 0.745 1.7142342e-38
0.017785706 0.051934317 0.74699998 1.576481e-38
0.019208537 0.051934306 0.74700004 1.4298318e-38
0.020659041 0.052003827 0.74800003 1.4573116e-38
0.0220838 0.052003842 0.74799997 1.4854703e-38
0.023508584 0.052003834 0.74799997 1.6057514e-38
0.024999969 0.05214287 0.75000006 1.7151668e-38
0.026499022 0.052281924 0.75200003 1.5025122e-38
0.027968567 0.05235146 0.75300002 1.2908946e-38
0.029480943 0.052490499 0.755 1.4750666e-38
0.03096002 0.05256002 0.75599998 1.6598854e-38
0.032485727 0.052699063 0.75799996 1.6692842e-38
0.034019038 0.052838117 0.76000005 1.6693552e-38
0.035606645 0.053046688 0.76300001 1.6507362e-38
0.037157156 0.053185716 0.76500005 1.6232594e-38
0.038715258 0.053324785 0.76699996 1.5497572e-38
0.04022859 0.053394314 0.76799995 1.4767193e-38
0.04169143 0.053394318 0.76800001 1.5128079e-38
0.043154299 0.053394318 0.76799995 1.5496842e-38
-0.063613325 0.052428588 0.73400003 1.1971895e-39
-0.062045712 0.052285738 0.73199999 9.2366588e-41
-0.060817137 0.052428596 0.73400003 8.671525e-39
-0.059257139 0.052285731 0.73199999 1.7170309e-38
-0.057862848 0.052285742 0.73199999 1.8361713e-38
-0.056468565 0.052285742 0.73199999 1.9652428e-38
-0.055074275 0.052285735 0.73199999 1.8262335e-38
-0.053679984 0.052285735 0.73199999 1.6895514e-38
-0.052285701 0.052285731 0.73199999 1.5312019e-38
-0.051030461 0.052428592 0.73399997 1.3749777e-38
-0.049632356 0.052428592 0.73399997 1.2721688e-38
-0.037302852 0.054857165 0.76799995 1.4715329e-39
-0.03583996 0.054857172 0.76799995 1.1967663e-39
-0.034153353 0.054500021 0.76299995 9.2235847e-40
-0.032700025 0.054500006 0.76300001 6.4756945e-40
-0.03124669 0.054500021 0.76299995 8.3088171e-40
-0.029676201 0.054285739 0.75999999 1.1064134e-39
-0.028154284 0.054142885 0.75799996 1.4752156e-39
-0.026639981 0.054000027 0.75599998 1.8439813e-39
-0.025166646 0.053928595 0.755 1.6595802e-39
-0.023665722 0.053785749 0.75300002 1.4762918e-39
-0.02220192 0.053714313 0.75200003 1.7521808e-39
-0.020714298 0.053571444 0.75000006 1.9361727e-39
-0.01928572 0.053571444 0.75 2.3023992e-39
-0.01780952 0.05342859 0.74800003 2.7616061e-39
-0.016362863 0.053357158 0.74700004 2.4872053e-39
-0.01494 0.053357154 0.74699998 2.304972e-39
-0.01348095 0.0532143 0.74500006 2.5822736e-39
-0.012094304 0.05335715 0.74700004 2.7680731e-39
-0.010671441 0.053357154 0.74700004 1.4730253e-39
-0.0092237908 0.053214308 0.745 9.2705703e-41
-0.0078047779 0.053214308 0.74500006 7.9465156e-39
-0.0063857329 0.053214308 0.74500006 1.576941e-38
-0.0049666637 0.053214308 0.74500006 1.0974249e-38
-0.0035476165 0.053214323 0.745 6.153557e-39
-0.0021200238 0.053000014 0.74200004 3.9569922e-39
-0.00070669345 0.053000018 0.74200004 1.7454069e-39
0.0007066612 0.053000025 0.74200004 2.207813e-39
0.0021199917 0.053000025 0.74200004 2.663853e-39
0.00353807 0.053071432 0.74300003 9.781195e-39
0.0049533225 0.053071439 0.74300003 1.6892339e-38
0.0063685733 0.053071436 0.74300003 1.5506906e-38
0.0077837692 0.053071428 0.74300003 1.4130806e-38
0.0091990223 0.053071439 0.74300003 1.4582088e-38
0.010614273 0.053071436 0.74300003 1.5139877e-38
0.012061913 0.053214315 0.745 1.4020591e-38
0.013480959 0.053214315 0.745 1.2936551e-38
0.014899998 0.053214297 0.74500006 1.4581388e-38
0.016319044 0.053214312 0.74500006 1.6231895e-38
0.017785724 0.053357165 0.74699998 1.5309214e-38
0.0192343 0.053428598 0.74800003 1.4388719e-38
0.020659029 0.05342859 0.74800003 1.4300483e-38
0.022142852 0.053571437 0.75000006 1.4219421e-38
0.0235714 0.053571429 0.75000006 1.5594095e-38
0.024999978 0.05357144 0.75000006 1.706308e-38
0.026499024 0.053714294 0.75200003 1.5764803e-38
0.027968561 0.05378573 0.75300002 1.4555531e-38
0.029480958 0.053928602 0.75500005 1.5765192e-38
0.030960005 0.054000016 0.75600004 1.6971592e-38
0.032485701 0.054142877 0.75800002 1.6970498e-38
0.034019031 0.054285735 0.76000005 1.6969773e-38
0.03560663 0.054500017 0.76300001 1.6876853e-38
0.037254278 0.054785743 0.76699996 1.6785032e-38
0.038715251 0.05478574 0.76699996 1.6325151e-38
0.040228579 0.054857165 0.76800001 1.58649e-38
0.041691445 0.054857176 0.76799995 1.604965e-38
-0.063613325 0.05382669 0.73399997 1.1057002e-39
-0.06221522 0.053826686 0.73400003 9.7351007e-41
-0.060982861 0.053973347 0.73600006 5.6179331e-39
-0.059419032 0.053826697 0.73399997 1.115933e-38
-0.058020927 0.05382669 0.73400003 1.3481822e-38
-0.056468561 0.053680025 0.73199999 1.5755788e-38
-0.055074267 0.05368001 0.73199999 1.2990997e-38
-0.053680006 0.053680025 0.73199999 1.0232315e-38
-0.052285694 0.053680018 0.73199999 7.1855699e-39
-0.051169507 0.053973358 0.73600006 4.0646203e-39
-0.049767606 0.053973358 0.73600006 2.1185181e-39
-0.037400007 0.056466684 0.77000004 1.3783018e-39
-0.035840001 0.056320027 0.76799995 8.2872231e-40
-0.03424285 0.056100007 0.76500005 4.6173905e-40
-0.032785725 0.056100007 0.76500005 9.5104725e-41
-0.031246683 0.055953361 0.76300001 6.4646663e-40
-0.029676208 0.055733349 0.76000005 1.1063882e-39
-0.028154284 0.055586681 0.75800002 1.5666699e-39
-0.026640002 0.055440027 0.75600004 2.025839e-39
-0.025166657 0.055366684 0.755 1.65849e-39
-0.023665726 0.055220019 0.75300002 1.2926067e-39
-0.022201918 0.055146687 0.75200003 1.5695706e-39
-0.020769551 0.055146676 0.75200003 1.752859e-39
-0.019337155 0.05514669 0.75200003 2.5789959e-39
-0.017857157 0.055000018 0.75 3.3140583e-39
-0.016362868 0.054780006 0.74700004 2.7619887e-39
-0.014940005 0.054780021 0.74699998 2.1209367e-39
-0.013535228 0.054853357 0.74800003 2.3985984e-39
-0.01209431 0.054780003 0.74700004 2.6719315e-39
-0.010671446 0.054780018 0.74700004 1.377964e-39
-0.0092238169 0.054633357 0.745 1.0811999e-40
-0.0078047463 0.054633357 0.745 6.9502932e-39
-0.0063857031 0.054633372 0.745 1.3647471e-38
-0.0049666879 0.054633357 0.74500006 6.9280574e-39
-0.0035476165 0.054633353 0.74500006 1.024209e-40
-0.0021228718 0.05448667 0.74300003 9.2341365e-41
-0.00070762105 0.054486662 0.74300003 9.4855294e-41
0.00070760556 0.054486681 0.74300003 9.2348371e-41
0.0021199787 0.054413367 0.74200004 9.7798021e-41
0.0035380793 0.054486666 0.74300009 6.5367533e-39
0.0049533038 0.054486673 0.74300003 1.2919704e-38
0.0063685575 0.054486673 0.74300003 1.4600032e-38
0.0077838083 0.05448667 0.74300003 1.6143623e-38
0.0091990344 0.054486681 0.74300003 1.5675084e-38
0.010614287 0.054486681 0.74300003 1.5218056e-38
0.012061914 0.054633345 0.74500006 1.5866642e-38
0.01348096 0.05463336 0.745 1.6503791e-38
0.014900004 0.05463336 0.745 1.5864212e-38
0.016362857 0.054780018 0.74699998 1.5217034e-38
0.017785721 0.054780014 0.74699998 1.4851101e-38
0.019234262 0.054853342 0.74800003 1.4387626e-38
0.02065905 0.054853357 0.74800003 1.402065e-38
0.022142835 0.055000018 0.75000006 1.3564719e-38
0.023571411 0.055000015 0.75000006 1.521957e-38
0.025066657 0.055146683 0.75200003 1.6876188e-38
0.026499053 0.055146683 0.75199997 1.6507404e-38
0.027968587 0.055220027 0.75300002 1.613575e-38
0.029480977 0.055366695 0.755 1.6691062e-38
0.030960016 0.055440024 0.75599998 1.7246017e-38
0.032571413 0.055733364 0.76000005 1.7247446e-38
0.034063805 0.055806674 0.76100004 1.7153814e-38
0.035606664 0.055953365 0.76300001 1.7244571e-38
0.037157126 0.056100015 0.76500005 1.7336775e-38
0.038715236 0.056246698 0.76699996 1.7153474e-38
0.040176183 0.056246702 0.76699996 1.6877966e-38
0.041691434 0.056320027 0.76800001 1.6878682e-38
0.043154299 0.056320023 0.76799995 1.6879044e-38
-0.062384766 0.055375256 0.73600006 6.4438149e-40
-0.060982868 0.055375252 0.736 3.1304195e-39
-0.059580937 0.055375248 0.73600006 5.6125521e-39
-0.058020927 0.055224776 0.73399997 8.0146873e-39
-0.056622844 0.055224791 0.73399997 1.0377941e-38
-0.055224739 0.055224791 0.73399997 9.1987117e-39
-0.053826656 0.055224791 0.73399997 8.0819679e-39
-0.05228572 0.055074308 0.73199999 5.8872332e-39
-0.051030442 0.05522478 0.73399997 3.7656954e-39
-0.049632363 0.055224795 0.73399997 2.3924733e-39
-0.048234258 0.055224787 0.73399997 1.1038701e-39
-0.03740003 0.057933349 0.77000004 2.766634e-39
-0.035839986 0.057782888 0.76799995 4.3188453e-39
-0.034242876 0.057557151 0.76500005 2.2137797e-39
-0.032785729 0.057557147 0.7650001 9.4370445e-41
-0.031164778 0.057256199 0.76100004 4.6169281e-40
-0.02971524 0.057256196 0.76100004 9.2197592e-40
-0.028154276 0.057030488 0.75799996 1.0138394e-39
-0.026639987 0.056880035 0.75600004 1.1971489e-39
-0.02516667 0.056804784 0.755 1.1989398e-39
-0.023665704 0.056654297 0.75300002 1.2003971e-39
-0.022231439 0.056654301 0.75300002 1.29369e-39
-0.020769522 0.056579065 0.75200003 1.4780686e-39
-0.019337155 0.056579065 0.75200003 2.0294305e-39
-0.017809536 0.05627811 0.74799997 2.6740824e-39
-0.016384752 0.056278117 0.74799997 2.2127624e-39
-0.014940009 0.05620287 0.74699998 1.8443484e-39
-0.013535264 0.056278102 0.74800003 2.3964404e-39
-0.012094283 0.056202877 0.74699998 2.9488729e-39
-0.01067145 0.05620287 0.74700004 1.5645077e-39
-0.0092485882 0.056202881 0.74699998 9.2325951e-41
-0.0078257248 0.056202877 0.74699998 6.7400522e-39
-0.0063856994 0.056052402 0.745 1.3370852e-38
-0.0049666543 0.056052417 0.745 9.1263192e-39
-0.0035476389 0.056052405 0.74500006 4.867783e-39
-0.002122855 0.055901911 0.74300003 6.629494e-39
-0.00070763408 0.0559019 0.74300009 8.4593964e-39
0.00070759066 0.055901915 0.74300003 8.4708828e-39
0.0021228434 0.055901911 0.74300003 8.454426e-39
0.0035380942 0.055901907 0.74300003 1.1608446e-38
0.0049533187 0.055901919 0.74300003 1.4752077e-38
0.0063685733 0.055901919 0.74300003 1.6143299e-38
0.0077837943 0.055901904 0.74300009 1.7597177e-38
0.0091990195 0.055901919 0.74300003 1.5578165e-38
0.010642879 0.056052413 0.745 1.3547416e-38
0.012061893 0.056052402 0.74500006 1.0968882e-38
0.013480938 0.056052402 0.745 8.3993143e-39
0.014939988 0.056202874 0.74700004 9.2255073e-39
0.016362851 0.05620287 0.74699998 1.015603e-38
0.017809523 0.056278117 0.74800003 1.1991634e-38
0.019234283 0.056278113 0.74799997 1.3830856e-38
0.020659039 0.056278102 0.74800003 1.4570564e-38
0.022142814 0.056428581 0.75000006 1.5390293e-38
0.023571394 0.056428589 0.75000006 1.641378e-38
0.025066657 0.056579061 0.75200003 1.7520121e-38
0.026499052 0.056579057 0.75200003 1.5769874e-38
0.027968556 0.056654297 0.75300002 1.4033224e-38
0.029480964 0.056804787 0.755 1.5776635e-38
0.030960029 0.056880035 0.75599998 1.7431117e-38
0.032571405 0.057180975 0.76000005 1.7246377e-38
0.034063824 0.057256207 0.76100004 1.7153467e-38
0.035699975 0.057557147 0.76500005 1.7060557e-38
0.037254285 0.057707638 0.76700002 1.6969447e-38
0.038715258 0.057707649 0.76699996 1.6970171e-38
0.040176198 0.057707634 0.76700002 1.6971242e-38
0.041691452 0.057782888 0.76799995 1.6971236e-38
0.043154284 0.057782888 0.76800001 1.7063442e-38
-0.062384754 0.056777157 0.736 1.1989734e-39
-0.061065704 0.056854296 0.73700005 6.4729199e-40
-0.059661914 0.056854311 0.73699999 1.0024609e-40
-0.058179058 0.056777153 0.73600006 2.5855638e-39
-0.056622826 0.056622893 0.73399997 5.0650718e-39
-0.055224739 0.056622878 0.73399997 5.5277861e-39
-0.053826638 0.056622889 0.73399997 5.8911722e-39
-0.052428558 0.056622885 0.73399997 4.6990933e-39
-0.051030446 0.056622885 0.73399997 3.4980515e-39
-0.049632341 0.056622878 0.73399997 2.7658717e-39
-0.048234291 0.05662287 0.73400003 1.9364656e-39
-0.037399996 0.059400026 0.76999998 4.0677424e-39
-0.035839997 0.059245739 0.76799995 7.8408983e-39
-0.03424288 0.059014291 0.76500005 3.9798698e-39
-0.032700025 0.058860015 0.76299995 1.080303e-40
-0.03116479 0.058705732 0.76100004 3.6771333e-40
-0.02967619 0.0586286 0.75999999 6.4467717e-40
-0.028154276 0.058474299 0.75800002 4.6174746e-40
-0.026639977 0.058320027 0.75599998 2.8021765e-40
-0.025166683 0.058242876 0.75500005 7.3938533e-40
-0.023665734 0.058088589 0.75300002 1.1092749e-39
-0.022231441 0.058088597 0.75300002 1.10967e-39
-0.020769522 0.058011454 0.75200003 1.1103763e-39
-0.019337155 0.058011442 0.75200003 1.5706202e-39
-0.017857168 0.057857156 0.75000006 1.9383265e-39
-0.01642859 0.057857167 0.75000006 1.7546611e-39
-0.014940014 0.057625733 0.74700004 1.5692006e-39
-0.013535244 0.057702877 0.74799997 2.3939307e-39
-0.012110488 0.057702877 0.74800003 3.2207976e-39
-0.010671455 0.057625733 0.74700004 1.6549181e-39
-0.0092485938 0.057625726 0.74700004 9.9162886e-41
-0.0078257304 0.057625741 0.74699998 6.5470878e-39
-0.0064028674 0.057625741 0.74699998 1.2997464e-38
-0.0049666525 0.057471447 0.74500006 1.1338695e-38
-0.0035571719 0.057625741 0.74700004 9.6867293e-39
-0.0021228737 0.057317149 0.74300003 1.328266e-38
-0.00070762105 0.057317145 0.74300003 1.6769903e-38
0.0007076037 0.057317156 0.74300003 1.6877169e-38
0.0021228546 0.057317156 0.74300003 1.6860677e-38
0.0035380775 0.057317138 0.74300009 1.6782483e-38
0.0049533038 0.057317156 0.74300003 1.6598495e-38
0.0063685547 0.057317149 0.74300003 1.7807108e-38
0.0077838073 0.057317149 0.74300003 1.8984074e-38
0.0091990326 0.057317149 0.74300003 1.540102e-38
0.010642854 0.057471465 0.745 1.1799694e-38
0.012061925 0.057471458 0.745 5.9699238e-39
0.01351715 0.057625733 0.74699998 2.1407497e-40
0.014939982 0.057625737 0.74700004 2.5741881e-39
0.016362846 0.05762573 0.74700004 5.0013828e-39
0.017809514 0.057702877 0.74800003 9.128253e-39
0.019234274 0.057702877 0.74800003 1.3287762e-38
0.020659033 0.057702877 0.74799997 1.5223491e-38
0.022142855 0.057857163 0.75 1.7150614e-38
0.023571402 0.057857152 0.75000006 1.7709173e-38
0.025066657 0.058011454 0.75200003 1.8159724e-38
0.026534287 0.058088582 0.75300002 1.5018646e-38
0.02796858 0.058088593 0.75300002 1.1909155e-38
0.029520033 0.058320027 0.75599998 1.4767895e-38
0.030960012 0.058320016 0.75600004 1.761551e-38
0.032485738 0.058474306 0.75799996 1.7337491e-38
0.034063783 0.058705717 0.76100004 1.7058753e-38
0.035699978 0.059014287 0.76500005 1.6874719e-38
0.037157129 0.059014305 0.76500005 1.6601009e-38
0.038715251 0.059168588 0.76699996 1.6878672e-38
0.040071428 0.059014302 0.76500005 1.7061627e-38
0.04163716 0.059168588 0.76699996 1.7154542e-38
0.0430981 0.059168592 0.76700002 1.7153104e-38
-0.061065719 0.058258113 0.73700005 9.2568656e-40
-0.059661899 0.05825812 0.73700005 6.4692905e-40
-0.058179043 0.058179058 0.73600006 1.940137e-39
-0.056777146 0.058179069 0.73600006 3.3294823e-39
-0.055375241 0.058179066 0.73600006 3.5070297e-39
-0.053973339 0.058179066 0.73600006 3.7861123e-39
-0.052428562 0.058020975 0.73400003 3.3172378e-39
-0.051030487 0.058020975 0.73400003 2.8526611e-39
-0.049632378 0.058020972 0.73400003 2.0275584e-39
-0.048234269 0.058020972 0.73400003 1.2031941e-39
-0.037400015 0.060866687 0.77000004 7.3928191e-39
-0.035700023 0.060471445 0.76500005 1.4496838e-38
-0.034153346 0.060313351 0.76299995 1.0894487e-38
-0.032614309 0.060155254 0.76100004 7.285219e-39
-0.031164771 0.060155246 0.76100004 3.8650026e-39
-0.029598098 0.059918113 0.75800002 3.6845602e-40
-0.028154274 0.059918109 0.75799996 5.5537242e-40
-0.026639964 0.059760034 0.75599998 8.3480674e-40
-0.025199989 0.059760019 0.75600004 1.1099363e-39
-0.023728583 0.059680972 0.75500005 1.3880057e-39
-0.022231447 0.059522871 0.75300002 1.3862625e-39
-0.020797152 0.059522863 0.75300002 1.3851751e-39
-0.019337155 0.059443817 0.75200003 1.6613865e-39
-0.017857157 0.059285741 0.75 1.9376118e-39
-0.016428608 0.05928573 0.75000006 1.845419e-39
-0.015000031 0.05928573 0.75000006 1.7525129e-39
-0.013535255 0.059127636 0.74800003 2.3035315e-39
-0.012110471 0.059127647 0.74800003 2.9460142e-39
-0.010685712 0.05912764 0.74799997 1.4723331e-39
-0.0092485975 0.059048597 0.74700004 9.2369391e-41
-0.0078257341 0.059048597 0.74699998 6.9176906e-39
-0.0064028711 0.059048589 0.74699998 1.3753007e-38
-0.0049800077 0.059048589 0.74699998 1.3469638e-38
-0.0035571756 0.059048593 0.74700004 1.3298182e-38
-0.0021228606 0.058732394 0.74300003 1.3386449e-38
-0.00070763781 0.058732379 0.74300003 1.3490484e-38
0.00070758694 0.05873239 0.74300003 1.1173791e-38
0.0021228397 0.05873239 0.74300003 8.8900757e-39
0.0035380905 0.058732387 0.74300003 8.5919438e-39
0.0049533169 0.058732398 0.74300003 8.4194202e-39
0.0063685677 0.058732398 0.74300003 1.033723e-38
0.0077837887 0.058732383 0.74300003 1.2365858e-38
0.0092238113 0.058890499 0.74500006 1.4023196e-38
0.010642855 0.058890514 0.74500006 1.5586137e-38
0.012094282 0.059048586 0.74699998 1.3558167e-38
0.013517145 0.059048582 0.74699998 1.1462804e-38
0.014959987 0.05912764 0.74800003 1.2734503e-38
0.016362842 0.059048586 0.74700004 1.4034244e-38
0.017809533 0.059127651 0.74800003 1.5134888e-38
0.019234292 0.059127644 0.74799997 1.6162672e-38
0.020659022 0.059127636 0.74800003 1.6605362e-38
0.022142837 0.059285745 0.75000006 1.7064898e-38
0.023571415 0.059285738 0.75 1.5962513e-38
0.025066659 0.059443831 0.75200003 1.4860086e-38
0.026534285 0.059522882 0.75300002 1.3734341e-38
0.028042858 0.059680987 0.755 1.272454e-38
0.029520014 0.059760023 0.75600004 1.4949428e-38
0.030960023 0.059760023 0.75600004 1.725212e-38
0.032614291 0.060155246 0.76099998 1.7057675e-38
0.034153331 0.060313359 0.76300001 1.6777497e-38
0.035606638 0.060313348 0.76300001 1.6319387e-38
0.037157126 0.060471442 0.76500005 1.595599e-38
0.038614281 0.060471438 0.76500005 1.5953119e-38
0.040071405 0.060471442 0.76500005 1.5956716e-38
0.041637152 0.060629543 0.76699996 1.6044615e-38
0.043098092 0.060629547 0.76700002 1.6046036e-38
0.044559062 0.060629543 0.76699996 1.6133551e-38
-0.061231464 0.059823826 0.73900002 1.1129154e-39
-0.059661891 0.059661932 0.73700005 1.1086036e-39
-0.058258094 0.059661936 0.73700005 1.2901152e-39
-0.056854274 0.059661929 0.73700005 1.4795105e-39
-0.055450473 0.059661925 0.73699999 1.5688181e-39
-0.053973328 0.059580967 0.736 1.5709579e-39
-0.052571401 0.059580978 0.736 1.8385582e-39
-0.051030487 0.059419081 0.73400003 2.1151143e-39
-0.049632378 0.059419058 0.73400003 1.2885696e-39
-0.048234273 0.059419073 0.73400003 4.6528994e-40
-0.035700027 0.061928581 0.76500005 2.1115219e-38
-0.034063835 0.061604772 0.76100004 1.7815618e-38
-0.032614294 0.061604772 0.76100004 1.4448797e-38
-0.031123817 0.06152384 0.75999999 7.2553755e-39
-0.029598068 0.06136192 0.75799996 9.3662789e-41
-0.028154299 0.06136192 0.75800002 7.3976087e-40
-0.026639983 0.061200015 0.75600004 1.2925577e-39
-0.025199974 0.061200026 0.75599998 1.4769378e-39
-0.023728564 0.061119072 0.755 1.5695229e-39
-0.022231422 0.060957167 0.75300002 1.6624683e-39
-0.02079713 0.060957164 0.75300002 1.6613879e-39
-0.019337151 0.06087622 0.75199997 1.8443386e-39
-0.017857149 0.060714301 0.75000006 1.936537e-39
-0.016428571 0.060714301 0.75 1.9372601e-39
-0.015000023 0.060714301 0.75000006 1.9365482e-39
-0.013535237 0.060552407 0.74799997 2.3046133e-39
-0.012110509 0.060552392 0.74800003 2.5786708e-39
-0.010685721 0.060552403 0.74800003 1.3794144e-39
-0.0092609618 0.060552403 0.74799997 9.8104905e-41
-0.0078361761 0.060552396 0.74799997 7.2774992e-39
-0.0064114467 0.060552403 0.74800003 1.4382953e-38
-0.0049800151 0.060471453 0.74699998 1.5672276e-38
-0.0035476277 0.060309552 0.74500006 1.6874716e-38
-0.0021285827 0.060309548 0.745 1.347426e-38
-0.00070951349 0.060309555 0.745 1.0051951e-38
0.00070953154 0.060309555 0.745 5.4368573e-39
0.0021228527 0.060147632 0.74300003 8.5007109e-40
0.0035476161 0.060309555 0.74500006 4.597352e-40
0.004966659 0.060309552 0.745 1.0825031e-40
0.0063857301 0.060309548 0.745 2.9394379e-39
0.0078047733 0.060309559 0.745 5.7443666e-39
0.0092238197 0.060309563 0.745 1.255526e-38
0.010671414 0.060471453 0.74700004 1.9362542e-38
0.012094276 0.060471453 0.74699998 2.1029907e-38
0.013535221 0.0605524 0.74800003 2.2678995e-38
0.014960007 0.060552407 0.74800003 2.286661e-38
0.016384766 0.060552407 0.74799997 2.3046349e-38
0.017809495 0.060552392 0.74800003 2.1029928e-38
0.019234281 0.060552407 0.74800003 1.898658e-38
0.02071424 0.060714293 0.75000006 1.7970641e-38
0.022142818 0.060714301 0.75000006 1.6970879e-38
0.023571396 0.060714301 0.75 1.4215479e-38
0.025066659 0.060876206 0.75200003 1.1431689e-38
0.026534282 0.060957164 0.75300002 1.2425709e-38
0.028042872 0.061119076 0.75500005 1.3468562e-38
0.029520025 0.06120003 0.75600004 1.5236413e-38
0.031041916 0.061361913 0.75800002 1.6876165e-38
0.03261428 0.061604775 0.76100004 1.6680282e-38
0.03406382 0.061604768 0.76100004 1.6503749e-38
0.035606645 0.06176668 0.76299995 1.5852972e-38
0.037059978 0.061766684 0.76300001 1.5215865e-38
0.038513333 0.061766695 0.76300001 1.5020714e-38
0.040176205 0.062090501 0.76699996 1.4847099e-38
0.041637145 0.062090501 0.76699996 1.4928903e-38
0.043098114 0.062090509 0.76699996 1.4938549e-38
0.044559054 0.062090497 0.76699996 1.5479837e-38
-0.061231457 0.061231442 0.73900002 8.3235587e-40
-0.059823819 0.061231434 0.73900002 1.0171129e-39
-0.058258086 0.06106573 0.73700005 1.4755813e-39
-0.056854289 0.061065741 0.73699999 1.9340343e-39
-0.055450469 0.061065741 0.73700005 2.1198507e-39
-0.054046646 0.061065733 0.73700005 2.3960592e-39
-0.052571446 0.060982872 0.73600006 2.7619509e-39
-0.051030464 0.060817163 0.73400003 3.1231608e-39
-0.049497146 0.060651451 0.73199999 2.760806e-39
-0.048102863 0.060651444 0.73199999 2.3924102e-39
-0.03560669 0.063220009 0.76300001 1.9285093e-38
-0.034063816 0.063054308 0.76100004 1.3276684e-38
-0.032571446 0.062971458 0.76000005 7.2555437e-39
-0.03104192 0.062805735 0.75800002 4.1333204e-39
-0.029598093 0.062805735 0.75800002 1.0112961e-39
-0.028154269 0.062805727 0.75799996 1.1982195e-39
-0.026639994 0.062640026 0.75599998 1.2918486e-39
-0.025199961 0.062640041 0.75599998 1.4755196e-39
-0.023728553 0.062557168 0.755 1.659206e-39
-0.022290464 0.062557168 0.755 1.6602963e-39
-0.02079716 0.062391452 0.75300002 1.5691838e-39
-0.019362841 0.062391449 0.75300002 1.752143e-39
-0.017904783 0.062308587 0.75200003 1.9354636e-39
-0.016428588 0.062142875 0.75000006 2.1195004e-39
-0.01500001 0.062142871 0.75 2.2113429e-39
-0.013571464 0.06214286 0.75000006 2.3049776e-39
-0.012110488 0.061977163 0.74799997 2.4904227e-39
-0.010685703 0.061977163 0.74799997 1.2904417e-39
-0.009260973 0.061977163 0.74800003 9.2362384e-41
-0.0078362133 0.061977159 0.74800003 7.1942733e-39
-0.0064028562 0.061894301 0.74699998 1.4308705e-38
-0.0049799946 0.061894305 0.74699998 1.3753079e-38
-0.003547596 0.061728608 0.745 1.3207724e-38
-0.0021285827 0.061728593 0.74500006 9.2192561e-39
-0.00070953771 0.061728597 0.745 5.3270053e-39
0.00070953154 0.061728604 0.745 3.0357758e-39
0.0021285766 0.0617286 0.745 7.3518143e-40
0.0035476198 0.0617286 0.745 4.6973374e-39
0.0049666609 0.0617286 0.74500006 8.6345433e-39
0.0063857059 0.0617286 0.74500006 1.0232455e-38
0.0078257136 0.061894305 0.74699998 1.1830255e-38
0.0092485473 0.061894309 0.74700004 1.5780979e-38
0.010671411 0.061894305 0.74700004 1.9830359e-38
0.012094272 0.061894301 0.74699998 2.0385684e-38
0.01353524 0.06197717 0.74799997 2.1029967e-38
0.014959995 0.061977152 0.74800003 1.8450681e-38
0.016384754 0.061977167 0.74800003 1.5887155e-38
0.017809514 0.061977167 0.74799997 1.2726339e-38
0.0192343 0.061977163 0.74799997 9.5787901e-39
0.020714279 0.062142875 0.75 1.3841216e-38
0.022142826 0.062142864 0.75000006 1.8172959e-38
0.023634294 0.062308595 0.75200003 1.399808e-38
0.025066659 0.062308583 0.75200003 9.8270875e-39
0.026534306 0.06239146 0.75300002 1.3177277e-38
0.028042858 0.062557161 0.75500005 1.6610353e-38
0.029520012 0.062640026 0.75599998 1.61458e-38
0.030960016 0.062640011 0.75600004 1.5672255e-38
0.032614268 0.063054308 0.76100004 1.7423927e-38
0.034063779 0.063054293 0.76100004 1.9183445e-38
0.035606652 0.063220017 0.76300001 1.9269835e-38
0.037059985 0.063220017 0.76299995 1.9360597e-38
0.038614281 0.06338571 0.76500005 1.9266612e-38
0.040176194 0.063551456 0.76699996 1.9176226e-38
0.041637138 0.063551456 0.76699996 1.9174086e-38
0.043098107 0.063551456 0.76699996 1.9176893e-38
0.044559047 0.063551456 0.76699996 1.9451976e-38
-0.059823815 0.062639058 0.73900002 9.2346269e-40
-0.058258105 0.062469542 0.73700005 1.6606718e-39
-0.056854282 0.062469535 0.73700005 2.302807e-39
-0.055450462 0.062469538 0.73700005 2.7641425e-39
-0.054046664 0.062469549 0.73699999 3.1332711e-39
-0.052642841 0.062469549 0.73699999 3.6893008e-39
-0.05116953 0.062384788 0.73600006 4.1445196e-39
-0.049632359 0.062215261 0.73400003 4.2395725e-39
-0.04843143 0.062469527 0.73700005 4.2370599e-39
-0.047027636 0.062469538 0.73700005 5.0686016e-39
-0.036817133 0.064249545 0.75799996 1.8642244e-38
-0.035373338 0.064249545 0.75800002 1.731954e-38
-0.033839989 0.064080022 0.75600004 8.7493657e-39
-0.032399986 0.064080022 0.75600004 9.9503401e-41
-0.030959979 0.06408003 0.75599998 1.0105772e-39
-0.029519998 0.064080022 0.75600004 1.9311e-39
-0.02807999 0.064080022 0.75599998 1.6581186e-39
-0.026639987 0.06408003 0.75599998 1.2911368e-39
-0.02519998 0.06408003 0.75600004 1.5659286e-39
-0.023728564 0.063995257 0.75500005 1.750687e-39
-0.022231426 0.063825734 0.75300002 1.6588627e-39
-0.020797132 0.063825741 0.75300002 1.4766323e-39
-0.019362872 0.063825734 0.75300002 1.7514269e-39
-0.017904781 0.063740976 0.75200003 1.9351049e-39
-0.016428608 0.063571438 0.75000006 2.2102597e-39
-0.015000029 0.063571438 0.75 2.4879326e-39
-0.013571424 0.063571438 0.75 2.3975446e-39
-0.012110498 0.063401923 0.74800003 2.3053308e-39
-0.010685712 0.063401923 0.74800003 1.1989804e-39
-0.0092609525 0.063401923 0.74800003 1.002531e-40
-0.0078361928 0.06340193 0.74799997 7.0981176e-39
-0.0064114393 0.063401923 0.74800003 1.4109578e-38
-0.0049800002 0.063317165 0.74699998 1.1823411e-38
-0.0035476203 0.063147664 0.745 9.4987395e-39
-0.002128551 0.063147649 0.745 5.0521658e-39
-0.00070953585 0.063147642 0.74500006 5.5187898e-40
0.00070950732 0.063147649 0.74500006 5.5153146e-40
0.0021285785 0.063147649 0.74500006 5.7667496e-40
0.0035476217 0.063147649 0.745 8.8684494e-39
0.0049666665 0.063147649 0.745 1.7136566e-38
0.0063857357 0.063147657 0.745 1.7525842e-38
0.0078047519 0.063147649 0.74500006 1.7802076e-38
0.0092485715 0.063317165 0.74699998 1.9000252e-38
0.010671403 0.06331715 0.74700004 2.0198406e-38
0.012094266 0.063317172 0.74699998 1.9743881e-38
0.013535229 0.06340193 0.74800003 1.9266397e-38
0.014959989 0.063401923 0.74799997 1.3926655e-38
0.016384775 0.063401923 0.74799997 8.5786399e-39
0.017809505 0.063401923 0.74800003 4.3168667e-39
0.01923429 0.063401923 0.74800003 1.347923e-40
0.020714261 0.063571438 0.75000006 9.8259763e-39
0.022201896 0.063740969 0.75200003 1.9346384e-38
0.023634292 0.063740969 0.75200003 1.3775994e-38
0.025099983 0.063825741 0.75300002 8.2913401e-39
0.026604764 0.063995257 0.755 1.4029987e-38
0.028080016 0.064080037 0.75599998 1.9639854e-38
0.029519994 0.06408003 0.75600004 1.7064524e-38
0.031123787 0.064419061 0.75999999 1.4385838e-38
0.032614287 0.064503819 0.76099998 1.8067837e-38
0.034063797 0.064503834 0.76100004 2.1755585e-38
0.035606664 0.064673334 0.76299995 2.2591053e-38
0.037059966 0.064673342 0.76300001 2.3413626e-38
0.038614281 0.064842865 0.76500005 2.3417572e-38
0.040071405 0.064842872 0.76500005 2.3412194e-38
0.04163713 0.06501241 0.76699996 2.3414709e-38
0.0430981 0.065012425 0.76699996 2.3411806e-38
0.044559039 0.06501241 0.76699996 2.341285e-38
-0.059823815 0.064046673 0.73900002 3.8607426e-39
-0.05825809 0.063873351 0.73700005 2.5757814e-39
-0.05685427 0.063873351 0.73700005 1.1997021e-39
-0.055600945 0.064046681 0.73899996 1.4766603e-39
-0.054046649 0.063873358 0.73700005 1.6635627e-39
-0.05264286 0.063873351 0.73699999 2.4922359e-39
-0.051239036 0.063873351 0.73699999 3.3212777e-39
-0.049835213 0.063873351 0.73699999 3.2276584e-39
-0.048431419 0.063873351 0.73699999 3.1358005e-39
-0.047155235 0.064046673 0.73900002 3.7804202e-39
-0.045747623 0.064046681 0.73900002 4.5179894e-39
-0.036817133 0.065693349 0.75800002 1.3190229e-38
-0.035373334 0.065693356 0.75799996 8.7335815e-39
-0.033839982 0.065520018 0.75600004 4.8770932e-39
-0.032485712 0.065693364 0.75799996 1.0145835e-39
-0.031041913 0.065693349 0.75800002 1.3811702e-39
-0.029519988 0.065520011 0.75599998 1.7488765e-39
-0.028079979 0.065520026 0.75599998 1.6588403e-39
-0.026640002 0.065520033 0.75600004 1.4755323e-39
-0.025199967 0.065520026 0.75600004 1.6595648e-39
-0.023728546 0.065433353 0.755 1.8428854e-39
-0.022290464 0.065433353 0.75500005 1.7521332e-39
-0.020852381 0.065433353 0.755 1.7539324e-39
-0.019362845 0.06526003 0.75300002 1.9358154e-39
-0.017904781 0.06517335 0.75200003 2.1191346e-39
-0.016428599 0.065000013 0.75000006 2.5790366e-39
-0.01500002 0.065000013 0.75000006 3.0400287e-39
-0.013571444 0.065000027 0.75000006 2.7652593e-39
-0.012110479 0.064826682 0.74799997 2.5833624e-39
-0.010685721 0.064826697 0.74799997 1.2929823e-39
-0.0092609655 0.064826697 0.74800003 9.2360983e-41
-0.0078362059 0.064826682 0.74800003 6.544218e-39
-0.0064114206 0.06482669 0.74800003 1.3013618e-38
-0.0049866629 0.064826697 0.74799997 1.0889224e-38
-0.0035571402 0.064740017 0.74699998 8.8303706e-39
-0.0021343066 0.064740017 0.74700004 5.605994e-39
-0.00070950418 0.064566694 0.745 2.4800264e-39
0.00070954085 0.064566702 0.745 6.2750832e-39
0.0021285561 0.064566687 0.74500006 1.0151298e-38
0.0035476254 0.064566702 0.74500006 1.4393776e-38
0.0049666702 0.064566694 0.745 1.8731913e-38
0.0063857143 0.064566702 0.745 1.8909829e-38
0.0078257034 0.064740017 0.74699998 1.8994864e-38
0.009260945 0.064826675 0.74800003 1.6608231e-38
0.010685705 0.064826682 0.74800003 1.4229805e-38
0.01211049 0.064826697 0.74800003 1.1903752e-38
0.013535248 0.064826682 0.74799997 9.6910705e-39
0.014959978 0.064826682 0.74800003 7.0066549e-39
0.016384764 0.064826697 0.74800003 4.3168386e-39
0.017809523 0.064826682 0.74799997 6.7206639e-39
0.019285694 0.065000013 0.75 9.0517953e-39
0.020714268 0.065000013 0.75000006 1.375917e-38
0.022201898 0.06517335 0.75200003 1.8437366e-38
0.023665715 0.065260023 0.75300002 1.6023063e-38
0.025100008 0.06526003 0.75300002 1.3623883e-38
0.026604753 0.065433361 0.75500005 1.4855791e-38
0.028079998 0.065520018 0.75600004 1.6068678e-38
0.029598102 0.065693364 0.75800002 1.1621127e-38
0.03112378 0.065866694 0.76000005 7.289748e-39
0.032614276 0.065953329 0.76100004 1.4571614e-38
0.034063816 0.065953344 0.76100004 2.1853907e-38
0.035606645 0.066126682 0.76300001 2.2590408e-38
0.03706 0.066126689 0.76300001 2.3417642e-38
0.038513307 0.066126697 0.76300001 2.3416563e-38
0.039966665 0.066126689 0.76300001 2.3415121e-38
0.041691456 0.06656003 0.76799995 2.3416191e-38
-0.056854285 0.065277152 0.73700005 9.9447349e-41
-0.055600975 0.065454304 0.73900002 1.8701169e-40
-0.054193363 0.065454289 0.73900002 1.8953543e-40
-0.052785717 0.065454297 0.73900002 1.3869968e-39
-0.051378101 0.065454289 0.73900002 2.4893885e-39
-0.049970485 0.065454289 0.73900002 2.2131716e-39
-0.048562873 0.065454304 0.73900002 1.9390888e-39
-0.047219072 0.065542862 0.74000001 2.4904507e-39
-0.045809537 0.065542877 0.74000001 3.0439804e-39
-0.044399995 0.065542862 0.74000001 2.2156743e-39
-0.043164775 0.065808594 0.74300003 1.3913366e-39
-0.041861892 0.065985739 0.745 5.3510558e-39
-0.04044285 0.065985747 0.745 9.3100841e-39
-0.036720011 0.066960029 0.75600004 7.8439475e-39
-0.03528 0.066960022 0.75599998 1.0419635e-40
-0.033795226 0.066871449 0.75500005 1.0113325e-39
-0.032485738 0.067137167 0.75800002 1.9332692e-39
-0.030959982 0.066960022 0.75600004 1.7499527e-39
-0.029519975 0.066960022 0.75599998 1.5673621e-39
-0.028079996 0.066960022 0.75600004 1.6606368e-39
-0.026639991 0.066960037 0.75599998 1.6606382e-39
-0.025199983 0.066960037 0.75599998 1.845028e-39
-0.023728559 0.066871457 0.755 1.9357957e-39
-0.022290476 0.066871449 0.75500005 1.9361643e-39
-0.020852368 0.066871457 0.75500005 1.9361671e-39
-0.01941428 0.066871457 0.755 2.1187647e-39
-0.017928559 0.066694297 0.75300002 2.3031447e-39
-0.01647241 0.066605732 0.75200003 2.9459848e-39
-0.015040014 0.066605724 0.75200003 3.5899361e-39
-0.013571461 0.066428587 0.75000006 3.2236983e-39
-0.012142883 0.066428579 0.75 2.7666634e-39
-0.010714304 0.066428594 0.75 1.4809567e-39
-0.0092857573 0.066428579 0.75000006 9.6304237e-41
-0.0078571793 0.066428579 0.75000006 5.9731132e-39
-0.006411456 0.066251449 0.74800003 1.180326e-38
-0.0050000274 0.066428587 0.75000006 9.9805703e-39
-0.0035571458 0.066162877 0.74699998 8.1078765e-39
-0.0021342824 0.066162877 0.74699998 6.2452271e-39
-0.00071145064 0.066162869 0.74700004 4.3487042e-39
0.00071141281 0.066162884 0.74699998 1.2009173e-38
0.0021342763 0.066162877 0.74699998 1.9633008e-38
0.0035571398 0.066162869 0.74699998 2.0007221e-38
0.004966672 0.065985739 0.74500006 2.0291689e-38
0.0064028339 0.066162877 0.74699998 2.0295269e-38
0.0078361798 0.066251449 0.74800003 2.0187256e-38
0.0092609655 0.066251457 0.74799997 1.4208229e-38
0.010685695 0.066251449 0.74800003 8.1201589e-39
0.012110455 0.066251449 0.74800003 4.1331845e-39
0.013535238 0.066251457 0.74800003 1.0423699e-40
0.014999999 0.066428587 0.75 9.2374996e-41
0.016428547 0.066428587 0.75000006 9.5644225e-41
0.017857125 0.066428587 0.75000006 9.0130564e-39
0.019285701 0.066428587 0.75000006 1.7969215e-38
0.020769501 0.066605732 0.75200003 1.7721374e-38
0.022201898 0.066605732 0.75200003 1.7435432e-38
0.023665715 0.066694319 0.75300002 1.8162552e-38
0.025099976 0.066694289 0.75300002 1.8897233e-38
0.026604772 0.066871464 0.755 1.5700566e-38
0.028154306 0.067137167 0.75799996 1.2365055e-38
0.029598076 0.067137159 0.75800002 6.2454233e-39
0.031123802 0.067314312 0.75999999 1.2977285e-40
0.03257142 0.067314304 0.76000005 1.09836e-38
0.034063809 0.067402884 0.76099998 2.1846748e-38
0.035513319 0.067402869 0.76100004 2.2682965e-38
0.036962859 0.067402884 0.76099998 2.3417284e-38
0.038513318 0.067580014 0.76299995 2.34162e-38
0.039966647 0.067580014 0.76300001 2.3416561e-38
0.041908547 0.068377167 0.77199996 2.3417638e-38
-0.055600967 0.066861913 0.73900002 5.1568848e-39
-0.054193355 0.066861928 0.73900002 4.2249205e-39
-0.052785739 0.066861928 0.73900002 2.7591623e-39
-0.051378101 0.06686192 0.73900002 1.2912335e-39
-0.049970485 0.066861935 0.73900002 1.2919551e-39
-0.048562869 0.06686192 0.73899996 1.2937502e-39
-0.047219045 0.066952392 0.74000001 1.6625271e-39
-0.045933347 0.067133367 0.74200004 1.9412608e-39
-0.044580016 0.06722381 0.74300009 1.7568695e-39
-0.043280963 0.067404784 0.74500006 1.4839316e-39
-0.041861892 0.067404792 0.74500006 3.6058899e-39
-0.040551431 0.067585751 0.74699998 5.6449291e-39
-0.039285757 0.067857154 0.75000006 6.7308163e-39
-0.037857175 0.067857161 0.75000006 7.8066015e-39
-0.036671434 0.068309553 0.75500005 3.9587831e-39
-0.035140008 0.068128586 0.75300002 1.8411801e-40
-0.033795208 0.06830956 0.755 9.2230522e-40
-0.032485705 0.06858097 0.75799996 1.6606059e-39
-0.030959969 0.068400018 0.75599998 1.660634e-39
-0.029519994 0.068400018 0.75600004 1.5695187e-39
-0.028079987 0.068400025 0.75600004 1.5691628e-39
-0.026639977 0.068400033 0.75599998 1.4773259e-39
-0.025199998 0.06840001 0.75600004 1.4773245e-39
-0.023759995 0.068400025 0.75599998 1.4762595e-39
-0.022319989 0.06840001 0.75600004 1.752136e-39
-0.020852376 0.068309546 0.75500005 1.9350895e-39
-0.019414293 0.06830956 0.755 1.9354482e-39
-0.017928589 0.068128586 0.75300002 2.0279774e-39
-0.016472409 0.068038121 0.75200003 2.4867723e-39
-0.015040013 0.068038113 0.75200003 2.9463421e-39
-0.013607617 0.068038106 0.75200003 2.4897094e-39
-0.012175249 0.068038106 0.75200003 2.0341192e-39
-0.010714298 0.067857161 0.75000006 1.0192653e-39
-0.0092857182 0.067857154 0.75 9.3072843e-41
-0.00785717 0.067857154 0.75000006 4.9758329e-39
-0.0064285924 0.067857161 0.75000006 9.9798291e-39
-0.0050000162 0.067857161 0.75 8.9625018e-39
-0.0035571514 0.067585751 0.74699998 7.9267096e-39
-0.002134288 0.067585751 0.74699998 9.7715387e-39
-0.00070952653 0.067404799 0.74500006 1.1628862e-38
0.00071140722 0.067585737 0.74700004 1.5316077e-38
0.0021342707 0.067585737 0.74699998 1.9007434e-38
0.0035571323 0.067585737 0.74699998 2.0108025e-38
0.0049799639 0.067585744 0.74700004 2.1213638e-38
0.0064028283 0.067585737 0.74700004 1.5683419e-38
0.0078256922 0.067585737 0.74699998 1.0168543e-38
0.0092609534 0.067676201 0.74800003 8.2983886e-39
0.010685713 0.067676216 0.74800003 6.4290214e-39
0.012110471 0.067676216 0.74799997 5.6024879e-39
0.013535227 0.067676201 0.74800003 4.867776e-39
0.014999982 0.067857161 0.75000006 5.5224346e-39
0.01642856 0.067857161 0.75 6.2454051e-39
0.017857106 0.067857146 0.75000006 1.2902526e-38
0.019285684 0.067857161 0.75000006 1.9652435e-38
0.020769503 0.068038121 0.75200003 1.9466253e-38
0.022231417 0.068128586 0.75300002 1.9369365e-38
0.023665709 0.068128601 0.75300002 1.9829229e-38
0.025166672 0.068309546 0.75500005 2.0295196e-38
0.026604785 0.068309546 0.755 1.5969932e-38
0.02815428 0.06858097 0.75800002 1.1721062e-38
0.029676178 0.068761915 0.76000005 6.1829058e-39
0.031123798 0.06876193 0.75999999 7.040684e-40
0.032614283 0.068852402 0.76099998 1.1185952e-38
0.034063794 0.06885241 0.76100004 2.1580942e-38
0.035606634 0.069033355 0.76300001 2.2407462e-38
0.037059993 0.069033347 0.76299995 2.3142136e-38
0.038513299 0.069033355 0.76300001 2.3325437e-38
0.040438101 0.069847643 0.77199996 2.3417641e-38
0.041962843 0.069938123 0.77300006 2.3417651e-38
-0.054193355 0.068269536 0.73900002 8.194303e-39
-0.05278571 0.068269536 0.73900002 4.1330696e-39
-0.051378097 0.068269536 0.73900002 1.0307391e-40
-0.050038096 0.068361923 0.74000001 3.6997643e-40
-0.048628584 0.068361923 0.74000001 6.4872272e-40
-0.047346689 0.068546697 0.74200004 7.4092956e-40
