# .PCD v0.7 - Point Cloud Data file format
VERSION 0.7
FIELDS x y z rgb
SIZE 4 4 4 4
TYPE F F F F
COUNT 1 1 1 1
WIDTH 941
HEIGHT 1
VIEWPOINT 0 0 0 1 0 0 0
POINTS 941
DATA ascii
0.01620953 -0.010571443 0.74000001 2.4018522e-39
0.017666673 -0.010600008 0.74200004 3.138334e-39
0.019080002 -0.010600008 0.74200004 3.8744571e-39
0.02052097 -0.010614306 0.74300003 3.876255e-39
0.021936202 -0.010614298 0.74300003 3.8740508e-39
0.023414293 -0.010642879 0.74500006 2.952058e-39
0.024933331 -0.01068572 0.74799997 1.9458178e-39
0.02642859 -0.010714307 0.75000006 5.6314388e-39
0.027931429 -0.010742873 0.75200003 9.2173447e-39
0.029402869 -0.010757148 0.75300002 9.3156542e-39
0.03096002 -0.010800026 0.75600004 9.404952e-39
0.032400023 -0.010800026 0.75600004 9.7711911e-39
0.033929534 -0.010828592 0.75800002 1.004708e-38
-0.039599996 -0.0093600154 0.75600004 2.4901158e-39
-0.038109522 -0.0093476251 0.75500005 1.9387287e-39
-0.036671415 -0.00934764 0.75500005 1.6624893e-39
-0.03514 -0.0093228668 0.75300002 1.293718e-39
-0.033660963 -0.0093104914 0.75200003 1.0178584e-39
-0.032014288 -0.009248592 0.74700004 8.3239791e-40
-0.030591425 -0.0092485994 0.74700004 8.3168325e-40
-0.029090475 -0.0092238337 0.74500006 9.2424882e-40
-0.027597133 -0.009199068 0.74300003 9.2533763e-40
-0.026181892 -0.0091990754 0.74300009 9.2678237e-40
-0.024733342 -0.0091866702 0.74199998 7.4240372e-40
-0.023320002 -0.0091866851 0.74200004 6.5019968e-40
-0.021906674 -0.0091866702 0.74200004 8.3386087e-40
-0.020410476 -0.0091495588 0.73900002 1.1097415e-39
-0.019002855 -0.0091495365 0.73899996 1.2026672e-39
-0.017547604 -0.0091247782 0.73700005 1.3874158e-39
-0.016143799 -0.0091247857 0.73700011 1.3881347e-39
-0.01473999 -0.0091247857 0.73700005 1.4835547e-39
-0.013336185 -0.0091247857 0.73700005 3.0487e-39
-0.011932366 -0.0091247857 0.73700011 4.7046172e-39
-0.01052857 -0.0091247782 0.73700005 4.8886553e-39
-0.0091247503 -0.0091247708 0.73700011 5.0669439e-39
-0.0077209314 -0.0091247782 0.73700011 4.6074063e-39
-0.0063171363 -0.0091247708 0.73700005 4.0420384e-39
-0.0049133166 -0.0091247782 0.73700011 3.4077925e-39
-0.0035190294 -0.0091495514 0.73900002 2.7591903e-39
-0.0021057019 -0.0091247857 0.73700005 2.1199151e-39
-0.00070189667 -0.0091247931 0.73700011 1.5617107e-39
0.0007019231 -0.0091247782 0.73700011 1.4745205e-39
0.0021114436 -0.0091495439 0.73900002 1.3783704e-39
0.0035095375 -0.0091247782 0.73700005 1.107875e-39
0.0049133501 -0.0091247857 0.73700011 9.2349492e-40
0.0063171517 -0.0091247782 0.73700005 9.2242713e-40
0.0077209645 -0.0091247857 0.73700005 1.0124494e-39
0.0091247782 -0.0091247931 0.73700011 8.3019367e-40
0.010528579 -0.0091247782 0.73700005 7.3873793e-40
0.011964772 -0.0091495439 0.73900002 1.1082519e-39
0.013372395 -0.0091495439 0.73900002 1.5720915e-39
0.014800003 -0.0091619119 0.74000001 1.9412244e-39
0.016209537 -0.0091619268 0.74000001 2.4022039e-39
0.017666662 -0.0091866702 0.74200004 3.1376124e-39
0.019080004 -0.0091866776 0.74200004 3.8730306e-39
0.020520963 -0.0091990605 0.74300003 3.9666766e-39
0.02199525 -0.0092238337 0.74500006 3.965875e-39
0.023477159 -0.009248592 0.74700004 2.9527292e-39
0.024933329 -0.0092609674 0.74800003 1.9422053e-39
0.026428588 -0.0092857257 0.75000006 5.4448923e-39
0.027931431 -0.0093104839 0.75200003 8.9422082e-39
0.029402871 -0.0093228742 0.75300002 9.12914e-39
0.030960016 -0.0093600228 0.75600004 9.3124298e-39
0.032400019 -0.0093600228 0.75600004 9.5882712e-39
0.033840012 -0.0093600303 0.75600004 9.9552545e-39
-0.04104 -0.0079200119 0.75600004 2.9478065e-39
-0.039599989 -0.0079200193 0.75600004 2.4886416e-39
-0.038159996 -0.0079200193 0.75600004 1.9372545e-39
-0.036671434 -0.0079095289 0.75500005 1.6595816e-39
-0.035093341 -0.0078781098 0.75200003 1.2926011e-39
-0.033571407 -0.0078571662 0.75000012 1.1082169e-39
-0.032014269 -0.0078257397 0.74700004 8.3128108e-40
-0.03050952 -0.0078047737 0.74500006 6.4474723e-40
-0.029090466 -0.0078047812 0.74500006 4.6288111e-40
-0.027597131 -0.0077838153 0.74300003 6.4692205e-40
-0.026146671 -0.0077733546 0.74200004 7.3948482e-40
-0.024733342 -0.0077733472 0.74200004 5.5474744e-40
-0.023320012 -0.0077733397 0.74200004 2.7995421e-40
-0.021906672 -0.0077733472 0.74200004 4.625434e-40
-0.02043809 -0.0077523887 0.74000001 6.4728078e-40
-0.019002859 -0.0077419207 0.73900002 7.3802887e-40
-0.017595228 -0.0077419132 0.73900002 8.323825e-40
-0.016143797 -0.0077209696 0.73700011 7.4127287e-40
-0.014739987 -0.0077209696 0.73700005 6.4944018e-40
-0.013336183 -0.0077209771 0.73700005 7.3805129e-40
-0.011932363 -0.0077209845 0.73700011 8.3420278e-40
-0.010528568 -0.0077209771 0.73700005 1.1965337e-39
-0.0091247484 -0.0077209696 0.73700005 1.4770625e-39
-0.0077209431 -0.0077209771 0.73700011 9.1959091e-40
-0.006317134 -0.0077209696 0.73700005 2.7816755e-40
-0.0049266513 -0.0077419281 0.73900002 1.8560338e-40
-0.0035190338 -0.0077419356 0.73900002 9.4834275e-41
-0.0021057141 -0.0077209696 0.73700005 3.6997362e-40
-0.00070189434 -0.0077209622 0.73700005 6.4512418e-40
0.00070095173 -0.0077104941 0.73600006 9.220698e-40
0.0021057206 -0.0077209622 0.73700005 1.1064513e-39
0.0035095334 -0.0077209696 0.73700005 9.2600325e-40
0.0049133454 -0.0077209771 0.73700011 6.487073e-40
0.0063171545 -0.0077209771 0.73700005 9.2278166e-40
0.0077209673 -0.0077209547 0.73700005 1.1975623e-39
0.0091247801 -0.0077209622 0.73700011 1.1986301e-39
0.010528581 -0.0077209622 0.73700005 1.106803e-39
0.011964774 -0.0077419207 0.73900002 1.3841115e-39
0.013372389 -0.0077419132 0.73899996 1.5706552e-39
0.014800008 -0.0077523887 0.74000001 2.0323466e-39
0.016209526 -0.0077523813 0.74000001 2.4014879e-39
0.017666671 -0.0077733472 0.74200004 3.137255e-39
0.01908 -0.0077733397 0.74200004 3.8733823e-39
0.020520957 -0.0077838078 0.74300003 3.9670213e-39
0.021936197 -0.0077838153 0.74300003 4.0570127e-39
0.023414299 -0.0078047737 0.74500006 3.0431859e-39
0.024900019 -0.0078257397 0.7470001 1.9458262e-39
0.026358094 -0.0078362152 0.74800003 5.2633877e-39
0.027857156 -0.0078571588 0.75000006 8.5734229e-39
0.029285729 -0.0078571662 0.75000006 8.8536041e-39
0.030919058 -0.0079095364 0.75500005 9.130177e-39
0.032357149 -0.0079095364 0.75500005 9.4975105e-39
0.033795238 -0.0079095364 0.755 9.7719422e-39
0.035233345 -0.0079095438 0.75500005 9.4964371e-39
-0.041040003 -0.0064800158 0.75600004 2.7615949e-39
-0.039599992 -0.0064800158 0.75600004 2.3045713e-39
-0.03816 -0.0064800158 0.75600004 1.9368565e-39
-0.036671419 -0.0064714625 0.75500005 1.6606186e-39
-0.035093352 -0.0064457282 0.75200003 1.291843e-39
-0.033571407 -0.0064285845 0.75000006 1.107456e-39
-0.032014284 -0.0064028874 0.7470001 1.0145541e-39
-0.030509526 -0.0063857362 0.74500006 6.4650306e-40
-0.029012371 -0.0063685775 0.74300003 2.7881215e-40
-0.027597144 -0.0063685849 0.74300003 4.6321042e-40
-0.026146667 -0.0063600093 0.74200004 5.5433966e-40
-0.024733337 -0.0063600093 0.74199998 5.547082e-40
-0.023319997 -0.0063600093 0.74200004 5.5399074e-40
-0.021847626 -0.0063428655 0.74000001 6.4618496e-40
-0.020438083 -0.006342873 0.74000001 8.2910346e-40
-0.019028565 -0.0063428655 0.74000001 7.3830773e-40
-0.017619047 -0.006342873 0.74000001 7.3832174e-40
-0.016143795 -0.006317161 0.73700011 6.4685759e-40
-0.01474 -0.006317161 0.73700005 4.6140414e-40
-0.01333618 -0.0063171685 0.73700005 1.0142206e-39
-0.011932375 -0.006317161 0.73700011 1.656367e-39
-0.010528566 -0.0063171461 0.73700005 2.8559822e-39
-0.0091247605 -0.0063171536 0.73700005 4.051996e-39
-0.0077209412 -0.006317161 0.73700011 2.7645054e-39
-0.0063171322 -0.006317161 0.73700005 1.5670426e-39
-0.004926655 -0.0063343123 0.73900002 8.316258e-40
-0.0035095068 -0.0063171759 0.73700011 9.4785229e-41
-0.0021057117 -0.0063171536 0.73700005 5.5359837e-40
-0.00070189248 -0.006317161 0.73700005 9.2096558e-40
0.0007009508 -0.006308578 0.73600006 8.2987137e-40
0.0021057229 -0.0063171536 0.73700005 7.394694e-40
0.0035095348 -0.006317161 0.73700005 5.5579701e-40
0.0049133468 -0.0063171685 0.73700011 3.7284208e-40
0.0063171494 -0.0063171685 0.73700005 5.5471801e-40
0.0077209622 -0.006317161 0.73700005 6.4655631e-40
0.0091247745 -0.0063171685 0.73700011 6.4620038e-40
0.010528577 -0.006317161 0.73700005 6.4655631e-40
0.011964777 -0.0063343048 0.73900002 7.394638e-40
0.013372391 -0.0063342974 0.73900002 8.3453489e-40
0.014800008 -0.0063428655 0.74000001 1.7550493e-39
0.016209526 -0.0063428655 0.74000001 2.5851616e-39
0.017666668 -0.0063600019 0.74200004 3.1376138e-39
0.019079998 -0.0063600019 0.74199998 3.6900631e-39
0.020520968 -0.0063685849 0.74300003 3.9662884e-39
0.02193621 -0.0063685924 0.74300003 4.2410634e-39
0.023414293 -0.0063857287 0.74500006 3.0450356e-39
0.024933334 -0.0064114481 0.74800003 1.8504384e-39
0.026358102 -0.0064114407 0.74800003 5.1672601e-39
0.027857166 -0.0064285919 0.75000012 8.5716208e-39
0.029285727 -0.0064285919 0.75000006 8.8528572e-39
0.030837158 -0.0064543039 0.75300002 9.2245082e-39
0.032357149 -0.0064714476 0.75500005 9.6811787e-39
0.033795241 -0.0064714402 0.75500005 1.0230761e-38
-0.042592391 -0.0050533414 0.75800002 2.7637459e-39
-0.041148584 -0.0050533265 0.75800002 2.4889597e-39
-0.039599985 -0.0050400272 0.75600004 2.2152511e-39
-0.038159993 -0.0050400272 0.75600004 1.9375838e-39
-0.036719982 -0.0050400347 0.75600004 1.6617088e-39
-0.035139993 -0.0050200149 0.75300002 1.2918486e-39
-0.033660959 -0.0050133392 0.75200003 1.1989285e-39
-0.032014277 -0.0049800128 0.74700004 1.1070888e-39
-0.030509517 -0.0049666762 0.74500006 6.4790716e-40
-0.029012373 -0.004953362 0.74300003 9.6557872e-41
-0.027597133 -0.0049533546 0.74300009 2.8096875e-40
-0.026146676 -0.0049466714 0.74199998 3.7245532e-40
-0.024733339 -0.0049466863 0.74200004 6.4797162e-40
-0.023320006 -0.004946664 0.74200004 8.3056642e-40
-0.021906678 -0.004946664 0.74199998 9.2276064e-40
-0.020438101 -0.0049333498 0.74000001 9.223865e-40
-0.019028572 -0.0049333423 0.74000007 8.3197052e-40
-0.01761904 -0.0049333349 0.74000001 6.468744e-40
-0.016187605 -0.004926689 0.73900002 4.6321462e-40
-0.014779998 -0.0049266815 0.73900002 2.802723e-40
-0.013336178 -0.0049133524 0.73700005 1.3851807e-39
-0.011932373 -0.004913345 0.73700005 2.397532e-39
-0.010528553 -0.0049133524 0.73700011 4.5190839e-39
-0.0091247587 -0.004913345 0.73700005 6.6298653e-39
-0.0077209393 -0.0049133524 0.73700005 4.7034737e-39
-0.006317134 -0.0049133599 0.73700011 2.7663005e-39
-0.004913325 -0.0049133599 0.73700005 1.4795105e-39
-0.0035095194 -0.004913345 0.73700005 9.5869834e-41
-0.0021028614 -0.0049066693 0.73600006 6.4543807e-40
-0.00070188969 -0.004913345 0.73700005 1.1957476e-39
0.00070095918 -0.0049066842 0.73600006 8.2806089e-40
0.0021057271 -0.0049133599 0.73700011 3.6923934e-40
0.0035095296 -0.0049133599 0.73700005 2.7632625e-40
0.0049133496 -0.0049133599 0.73700005 9.4085981e-41
0.006317162 -0.0049133524 0.73700011 9.2288116e-41
0.0077209636 -0.0049133524 0.73700005 9.3379727e-41
0.0091247782 -0.0049133524 0.73700005 9.2317543e-41
0.010557156 -0.0049266964 0.73900002 9.4838479e-41
0.011964769 -0.0049266741 0.73900002 9.2337161e-41
0.01339048 -0.0049333423 0.74000001 9.7352408e-41
0.014800005 -0.0049333349 0.74000001 1.4755967e-39
0.016253328 -0.004946664 0.74200004 2.7670376e-39
0.017666666 -0.004946664 0.74199998 3.1376124e-39
0.019080006 -0.0049466714 0.74200004 3.5063879e-39
0.020520963 -0.0049533546 0.74300003 3.9670003e-39
0.021936204 -0.0049533471 0.74300003 4.3325388e-39
0.023414295 -0.0049666837 0.74500006 3.044681e-39
0.024933333 -0.0049866885 0.74800003 1.6674821e-39
0.02635809 -0.004986681 0.74799997 5.0754162e-39
0.027857164 -0.0050000176 0.75000006 8.4790496e-39
0.029363815 -0.0050133467 0.75200003 8.8531879e-39
0.030919055 -0.0050333515 0.75500005 9.2216229e-39
0.032400008 -0.0050400123 0.75600004 9.9559635e-39
0.033840012 -0.0050400123 0.75600004 1.059738e-38
-0.042592388 -0.0036095381 0.75799996 2.7655382e-39
-0.041148581 -0.0036095232 0.75799996 2.4911149e-39
-0.039599989 -0.0036000237 0.75600004 2.2138204e-39
-0.038159993 -0.0036000162 0.75600004 1.936516e-39
-0.03672 -0.0036000162 0.75600004 1.2915109e-39
-0.035140004 -0.0035857335 0.75300002 7.3976368e-40
-0.033660967 -0.0035809651 0.75200003 6.4683517e-40
-0.032014288 -0.0035571605 0.74700004 6.4789315e-40
-0.03050952 -0.0035476312 0.74500006 3.7093351e-40
-0.029012371 -0.0035381019 0.74300003 9.6180923e-41
-0.027597131 -0.0035381094 0.74300003 1.8769272e-40
-0.026146676 -0.0035333484 0.74200004 2.8168902e-40
-0.024733346 -0.0035333484 0.74200004 3.7102179e-40
-0.023319993 -0.003533341 0.74200004 4.6249856e-40
-0.021906678 -0.003533341 0.74200004 4.6213983e-40
-0.020438094 -0.0035238117 0.74000001 5.5469839e-40
-0.019080007 -0.0035333484 0.74200004 4.6250977e-40
-0.017619047 -0.0035238266 0.74000007 3.7032255e-40
-0.016187619 -0.0035190582 0.73900002 2.7885279e-40
-0.014779987 -0.0035190657 0.73900002 1.8882497e-40
-0.013336191 -0.0035095364 0.73700005 7.4056942e-40
-0.011932371 -0.0035095438 0.73700005 1.2951711e-39
-0.01052855 -0.0035095438 0.73700011 2.3082328e-39
-0.0091247559 -0.0035095438 0.73700005 3.417795e-39
-0.0077209366 -0.0035095438 0.73700005 2.4000725e-39
-0.0063171317 -0.0035095513 0.73700011 1.4781092e-39
-0.0049133222 -0.0035095289 0.73700005 9.2348792e-40
-0.0035095168 -0.0035095364 0.73700005 3.6779741e-40
-0.0021056968 -0.0035095438 0.73700011 1.0113493e-39
-0.00070190226 -0.0035095364 0.73700005 1.7453186e-39
0.00070191798 -0.0035095438 0.73700005 2.3885286e-39
0.0021057299 -0.0035095438 0.73700011 3.0310156e-39
0.0035095324 -0.0035095438 0.73700005 4.5983147e-39
0.004913345 -0.0035095364 0.73700005 6.1544902e-39
0.0063171568 -0.0035095438 0.73700011 6.5358158e-39
0.0077209589 -0.0035095364 0.73700005 6.7966409e-39
0.0091247726 -0.0035095438 0.73700005 7.2719879e-39
0.010557149 -0.0035190657 0.73899996 7.7218608e-39
0.011964774 -0.0035190582 0.73900002 7.6433208e-39
0.01339048 -0.0035238266 0.74000001 7.4463585e-39
0.014800006 -0.0035238266 0.74000001 4.5108316e-39
0.016253335 -0.003533341 0.74200004 1.5735335e-39
0.017666671 -0.003533341 0.74200004 2.6784321e-39
0.019080002 -0.0035333335 0.74200004 3.6896973e-39
0.020520957 -0.0035381019 0.74300003 3.874083e-39
0.021936199 -0.0035381019 0.74300003 3.9651968e-39
0.023477159 -0.0035571754 0.74700004 2.5829952e-39
0.024933331 -0.003561914 0.74799997 1.1989762e-39
0.026358098 -0.0035619214 0.74800003 4.7966727e-39
0.027857162 -0.0035714433 0.75000006 8.4772377e-39
0.029363813 -0.0035809726 0.75200003 8.8506487e-39
0.030919056 -0.0035952628 0.75500005 9.1276182e-39
0.032400012 -0.0036000237 0.75600004 9.6786592e-39
0.033840019 -0.0036000237 0.75600004 1.0228597e-38
-0.042592384 -0.0021657273 0.75800002 2.8580757e-39
-0.041148577 -0.0021657273 0.75800002 2.4896632e-39
-0.039599981 -0.0021600202 0.75600004 2.2120099e-39
-0.038109522 -0.0021571591 0.75500005 1.842863e-39
-0.036671415 -0.0021571591 0.75500005 1.0113101e-39
-0.035140004 -0.002151452 0.75300002 9.3665592e-41
-0.033660963 -0.0021485835 0.75200003 9.2225057e-41
-0.032014269 -0.0021343008 0.7470001 9.3650178e-41
-0.030509524 -0.0021285862 0.74500006 9.220684e-41
-0.029012371 -0.0021228641 0.74300003 9.3664191e-41
-0.027560001 -0.0021200106 0.74200004 9.2251682e-41
-0.026146671 -0.0021200031 0.74200004 9.4053752e-41
-0.024733331 -0.002120018 0.74200004 9.2269899e-41
-0.023320001 -0.0021200031 0.74200004 9.2987363e-41
-0.021906672 -0.0021199957 0.74200004 9.2269899e-41
-0.020438086 -0.002114296 0.74000001 9.4066363e-41
-0.019080002 -0.0021200106 0.74200004 9.2275504e-41
-0.017619051 -0.002114296 0.74000001 9.3004179e-41
-0.016187608 -0.0021114573 0.73900002 9.2297925e-41
-0.014779991 -0.0021114498 0.73900002 9.3742663e-41
-0.013336189 -0.0021057203 0.73700005 9.2318944e-41
-0.011932369 -0.0021057278 0.73700005 9.5553141e-41
-0.010528564 -0.0021057352 0.73700005 9.2331556e-41
-0.009124754 -0.0021057352 0.73700005 1.0166701e-40
-0.0077209496 -0.0021057427 0.73700005 9.2348371e-41
-0.0063171298 -0.0021057352 0.73700011 1.0130827e-40
-0.0049133343 -0.0021057278 0.73700005 3.6783664e-40
-0.003509515 -0.0021057278 0.73700005 5.6191508e-40
-0.002105695 -0.0021057352 0.73700011 1.469871e-39
-0.00070189993 -0.0021057278 0.73700005 2.3107482e-39
0.00070191239 -0.0021057352 0.73700005 3.9494462e-39
0.0021057248 -0.0021057278 0.73700011 5.6261643e-39
0.0035095273 -0.0021057278 0.73700005 8.9318848e-39
0.0049133389 -0.0021057352 0.73700005 1.2253405e-38
0.0063171592 -0.0021057352 0.73700011 1.2916718e-38
0.0077209612 -0.0021057278 0.73700005 1.3545234e-38
0.0091247736 -0.0021057278 0.73700005 1.4477236e-38
0.010557151 -0.0021114424 0.73900002 1.5388432e-38
0.011964768 -0.0021114498 0.73900002 1.5129084e-38
0.013390487 -0.002114296 0.74000007 1.4825532e-38
0.014800006 -0.002114296 0.74000001 7.6396999e-39
0.016253334 -0.0021200031 0.74200004 3.7931888e-40
0.017666664 -0.0021199957 0.74200004 2.1285037e-39
0.019080004 -0.0021200106 0.74200004 3.8737299e-39
0.02052097 -0.002122879 0.74300009 3.781886e-39
0.021995246 -0.0021285862 0.74500006 3.5967772e-39
0.023477163 -0.0021343082 0.7470001 2.123459e-39
0.024933336 -0.0021371618 0.74800003 6.554994e-40
0.026358087 -0.0021371618 0.74799997 4.6191071e-39
0.027857156 -0.0021428615 0.75000006 8.4790482e-39
0.029363815 -0.002148591 0.75200003 8.761351e-39
0.030919051 -0.0021571591 0.75500005 9.0358009e-39
0.032400008 -0.0021600202 0.75600004 9.402445e-39
0.033840016 -0.0021600202 0.75600004 9.7694325e-39
-0.044036202 -0.00072191656 0.75800002 2.857682e-39
-0.042592395 -0.00072192401 0.75800002 2.5821937e-39
-0.041039996 -0.00072000921 0.75600004 2.2134224e-39
-0.0396 -0.00072000921 0.75600004 2.2123518e-39
-0.038159993 -0.00072001666 0.75600004 2.2119748e-39
-0.036671426 -0.00071906298 0.75500005 3.6845532e-39
-0.03514 -0.00071716309 0.75300002 5.1438808e-39
-0.033660959 -0.00071620196 0.75200003 4.9709746e-39
-0.032057147 -0.00071238726 0.74800003 4.8690946e-39
-0.030591417 -0.00071145594 0.7470001 5.2468398e-39
-0.029090477 -0.00070953369 0.74500006 5.6034296e-39
-0.027597144 -0.00070763379 0.74300003 5.8897079e-39
-0.026146673 -0.00070668012 0.74200004 6.154821e-39
-0.02473334 -0.00070668757 0.74200004 6.2581443e-39
-0.023320012 -0.00070666522 0.74199998 6.3374242e-39
-0.02190667 -0.00070666522 0.74200004 6.4439677e-39
-0.020438094 -0.00070478022 0.74000007 6.4324882e-39
-0.019028561 -0.00070478022 0.74000001 6.6276387e-39
-0.017619044 -0.00070475787 0.74000001 6.7051403e-39
-0.016187612 -0.00070382655 0.73900002 7.1790412e-39
-0.014779996 -0.000703834 0.73900002 7.5316822e-39
-0.013372364 -0.00070382655 0.73900002 7.4552792e-39
-0.01193238 -0.0007019192 0.73700005 7.3505419e-39
-0.010528561 -0.00070192665 0.73700005 7.4599665e-39
-0.009124741 -0.00070192665 0.73700011 7.5489476e-39
-0.0077209468 -0.00070191175 0.73700005 7.6515591e-39
-0.006317127 -0.0007019192 0.73700005 7.7426799e-39
-0.0049133222 -0.00070192665 0.73700011 7.8406166e-39
-0.0035095119 -0.0007019192 0.73700005 7.9403667e-39
-0.0021057071 -0.00070192665 0.73700005 8.4917608e-39
-0.00070188736 -0.0007019341 0.73700011 9.0571371e-39
0.00070191518 -0.0007019341 0.73700005 9.4158835e-39
0.0021057271 -0.00070192665 0.73700005 9.8061914e-39
0.0035047659 -0.00070097297 0.73600006 1.0798811e-38
0.0049133417 -0.0007019192 0.73700005 1.1826979e-38
0.0063171545 -0.00070192665 0.73700005 1.1077267e-38
0.0077209673 -0.0007019341 0.73700011 1.034797e-38
0.0091247698 -0.00070192665 0.73700005 1.1169831e-38
0.010528581 -0.0007019192 0.73700005 1.2103261e-38
0.011964771 -0.000703834 0.73900002 1.3202785e-38
0.013390477 -0.00070476532 0.74000001 1.439295e-38
0.014800011 -0.00070477277 0.74000007 7.3745994e-39
0.016253332 -0.00070666522 0.74199998 3.6964011e-40
0.017666671 -0.00070667267 0.74200004 2.217119e-39
0.019105729 -0.00070763379 0.74300003 4.0584798e-39
0.020520963 -0.00070764124 0.74300003 4.0577484e-39
0.02199525 -0.00070954114 0.74500006 4.1485063e-39
0.023477156 -0.00071144104 0.74700004 3.0414553e-39
0.024933327 -0.00071240216 0.74799997 2.0265789e-39
0.026358094 -0.00071240962 0.74800003 4.8870872e-39
0.027857166 -0.00071430206 0.75000012 7.8340642e-39
0.029285727 -0.00071429461 0.75000006 8.3904469e-39
0.030919053 -0.00071906298 0.75500005 9.035459e-39
0.032400016 -0.00072003156 0.75600004 9.4024535e-39
0.033840016 -0.00072003156 0.75600004 9.7698038e-39
-0.04403621 0.0007218942 0.75800002 2.5814846e-39
-0.042592391 0.0007218942 0.75800002 2.3077858e-39
-0.041148584 0.0007218942 0.75800002 1.9393662e-39
-0.039599992 0.00071997941 0.75600004 2.2116427e-39
-0.038159985 0.00071997195 0.75600004 2.4950778e-39
-0.03672 0.00071998686 0.75600004 6.3712179e-39
-0.035139997 0.00071711093 0.75300008 1.0227944e-38
-0.033660967 0.00071618706 0.75200003 9.9624768e-39
-0.032142852 0.00071427971 0.75000006 9.5883245e-39
-0.03063238 0.00071235746 0.74800003 1.0330189e-38
-0.029090468 0.00070951134 0.74500006 1.1058428e-38
-0.027597129 0.00070760399 0.74300003 1.1616268e-38
-0.02614668 0.00070665032 0.74200004 1.2163341e-38
-0.024733352 0.00070665777 0.74199998 1.244854e-38
-0.023319997 0.00070666522 0.74200004 1.2624686e-38
-0.021906681 0.00070665777 0.74200004 1.2729444e-38
-0.020493327 0.00070665032 0.74200004 1.2809802e-38
-0.019080011 0.00070665777 0.74200004 1.309679e-38
-0.017619036 0.00070475042 0.74000001 1.3361543e-38
-0.016187618 0.00070378929 0.73900002 1.4203497e-38
-0.014779985 0.00070378184 0.73900002 1.5016746e-38
-0.013372378 0.00070380419 0.73900002 1.484671e-38
-0.011932379 0.0007018894 0.73700005 1.4558653e-38
-0.010528559 0.00070188195 0.73700005 1.4756319e-38
-0.009124754 0.0007018894 0.73700011 1.4932095e-38
-0.0077209449 0.00070189685 0.73700005 1.5129754e-38
-0.0063171401 0.0007018894 0.73700005 1.5301588e-38
-0.0049133198 0.00070188195 0.73700011 1.5311993e-38
-0.0035095101 0.0007018894 0.73700005 1.5211203e-38
-0.0021057052 0.0007018894 0.73700005 1.5498922e-38
-0.0007018855 0.00070189685 0.73700011 1.5671482e-38
0.00070190913 0.00070189685 0.73700005 1.485107e-38
0.002105722 0.0007018894 0.73700005 1.3925537e-38
0.0035095348 0.00070188195 0.73700011 1.2630151e-38
0.004913344 0.0007018894 0.73700005 1.1257656e-38
0.0063171559 0.00070188195 0.73700005 9.125009e-39
0.0077209687 0.00070187449 0.73700011 7.0228427e-39
0.0091247708 0.00070189685 0.73700005 7.8418344e-39
0.010528583 0.00070189685 0.73700005 8.6895274e-39
0.011964776 0.00070378184 0.73900002 1.1276715e-38
0.013390483 0.00070475787 0.74000001 1.3829724e-38
0.014800001 0.00070475042 0.74000001 7.0955098e-39
0.01625333 0.00070666522 0.74200004 2.8677713e-40
0.01766667 0.00070666522 0.74200004 2.2199945e-39
0.019105723 0.00070761889 0.74300003 4.1495993e-39
0.020520965 0.00070761144 0.74300003 4.425089e-39
0.022054294 0.00071141124 0.74700004 4.6065907e-39
0.023477159 0.00071141124 0.74700004 3.9594193e-39
0.024933334 0.00071237236 0.74800003 3.3180071e-39
0.026358102 0.00071236491 0.74800003 5.2519349e-39
0.027857164 0.00071427226 0.75000006 7.0968733e-39
0.029285736 0.00071426481 0.75000012 8.0227392e-39
0.030919051 0.00071904063 0.755 8.9429032e-39
0.032400012 0.00071998686 0.75600004 9.3099033e-39
0.033929523 0.00072190911 0.75799996 9.6776166e-39
0.035466686 0.00072378665 0.76000011 9.4032003e-39
0.036962867 0.00072474778 0.76100004 9.1269456e-39
-0.042592384 0.002165705 0.75800002 2.4000011e-39
-0.041148577 0.002165705 0.75800002 2.6769341e-39
-0.039704774 0.002165705 0.75800002 2.9481274e-39
-0.038159989 0.0021599755 0.75600004 3.3177142e-39
-0.036719993 0.0021599755 0.75600004 6.9273708e-39
-0.035233341 0.0021571293 0.75500005 1.0617994e-38
-0.033705708 0.0021514073 0.75300002 9.6910144e-39
-0.032142844 0.0021428391 0.75000012 8.8745521e-39
-0.030632382 0.0021371171 0.74800003 9.1425364e-39
-0.029090472 0.0021285489 0.74500006 9.5202956e-39
-0.027597129 0.0021228418 0.74300003 9.787924e-39
-0.026146665 0.0021199808 0.74200004 1.0168901e-38
-0.024733337 0.0021199882 0.74200004 1.0066306e-38
-0.023320006 0.0021200031 0.74200004 1.0074932e-38
-0.021906666 0.0021199882 0.74200004 9.9723517e-39
-0.020493336 0.0021199957 0.74200004 9.9806068e-39
-0.019080007 0.0021199957 0.74200004 9.7879717e-39
-0.017619044 0.0021142662 0.74000007 9.7065408e-39
-0.016187606 0.0021114051 0.73900002 9.5149791e-39
-0.01478 0.0021114126 0.73899996 9.4335469e-39
-0.013372368 0.0021114051 0.73900002 8.4111581e-39
-0.011964751 0.0021114126 0.73900002 7.5060748e-39
-0.010528557 0.002105698 0.73700005 7.4884942e-39
-0.0091247521 0.0021056905 0.73700005 7.5989627e-39
-0.0077209324 0.0021056905 0.73700011 1.043221e-38
-0.0063171377 0.002105698 0.73700005 1.328772e-38
-0.004913318 0.0021056905 0.73700011 1.4112087e-38
-0.0035095124 0.0021056831 0.73700011 1.483817e-38
-0.0021028572 0.002102837 0.73600006 1.5118706e-38
-0.00070189807 0.002105698 0.73700011 1.5380227e-38
0.0007019217 0.002105698 0.73700011 1.4933611e-38
0.0021057243 0.002105698 0.73700005 1.4558004e-38
0.0035095371 0.0021056905 0.73700005 1.410778e-38
0.0049133482 0.0021056905 0.73700011 1.3561064e-38
0.0063171508 0.002105698 0.73700005 1.2450781e-38
0.0077209636 0.0021057054 0.73700011 1.1429475e-38
0.0091247763 0.002105698 0.73700011 1.0237413e-38
0.010528579 0.0021057054 0.73700005 9.0460724e-39
0.011964777 0.0021114051 0.73900002 1.0986106e-38
0.013372391 0.0021114051 0.73900002 1.2910994e-38
0.014800008 0.0021142662 0.74000001 6.822876e-39
0.01625333 0.0021200031 0.74200004 8.2918474e-40
0.017666668 0.0021199957 0.74200004 2.4908431e-39
0.019105729 0.0021228418 0.74300009 4.1503195e-39
0.020520959 0.0021228492 0.74300003 4.3336108e-39
0.021995246 0.0021285489 0.74500006 4.4243379e-39
0.023477163 0.002134271 0.74700004 3.6881853e-39
0.02493334 0.0021371245 0.74800003 3.0446446e-39
0.026428591 0.0021428466 0.75000012 4.9764438e-39
0.027857155 0.0021428466 0.75000006 7.0032483e-39
0.029363813 0.0021485537 0.75200003 8.0223735e-39
0.030919055 0.0021571368 0.75500005 9.0354548e-39
0.032400016 0.0021599829 0.75600004 9.4017402e-39
0.033929531 0.0021656975 0.75800002 9.8598611e-39
0.035513334 0.0021742731 0.76100004 9.4939723e-39
0.036962863 0.0021742657 0.76100004 9.2198643e-39
-0.046199992 0.0036666393 0.7700001 1.3840471e-39
-0.044733327 0.0036666393 0.77000004 1.5709537e-39
-0.042873327 0.0036333054 0.76300001 2.4932617e-39
-0.041419998 0.0036333203 0.76300001 3.3169057e-39
-0.039704781 0.0036095157 0.75799996 3.6777849e-39
-0.038159978 0.003599979 0.7560001 4.0634979e-39
-0.036719996 0.0035999864 0.75600004 7.4944889e-39
-0.035233341 0.0035952181 0.755 1.0880544e-38
-0.033705708 0.0035856962 0.75300008 9.4929479e-39
-0.032142848 0.0035714135 0.75000006 8.0225108e-39
-0.030632392 0.0035618991 0.74799997 8.0286162e-39
-0.029168569 0.0035571158 0.7470001 7.9328501e-39
-0.027597142 0.003538087 0.74300003 8.0293659e-39
-0.026181901 0.003538087 0.74300003 8.0268562e-39
-0.024766661 0.0035380796 0.74300003 7.7556573e-39
-0.023320006 0.0035333261 0.74200004 7.4736978e-39
-0.021906678 0.0035333261 0.74200004 7.2875199e-39
-0.020493347 0.0035333261 0.74200004 7.0112988e-39
-0.019080006 0.0035333186 0.74200004 6.4595711e-39
-0.017619047 0.0035238042 0.74000001 5.9096358e-39
-0.016209519 0.0035237893 0.74000007 4.9001642e-39
-0.01477999 0.0035190284 0.73900002 3.7956271e-39
-0.013372373 0.003519021 0.73900002 2.0421431e-39
-0.011964755 0.003519021 0.73900002 2.9800434e-40
-0.010557138 0.0035190359 0.73900002 2.7613988e-40
-0.0091495169 0.0035190359 0.73900002 2.1552111e-40
-0.0077209445 0.0035094991 0.73700011 5.7120275e-39
-0.0063171354 0.0035095066 0.73700005 1.1259104e-38
-0.0049133301 0.0035094991 0.73700005 1.2918957e-38
-0.0035095101 0.0035095066 0.73700011 1.4478733e-38
-0.0021028516 0.0035047457 0.73600006 1.4757475e-38
-0.00070189527 0.0035095066 0.73700005 1.502724e-38
0.00070191704 0.0035094991 0.73700011 1.5129119e-38
0.0021057196 0.0035095066 0.73700005 1.5209105e-38
0.0035095389 0.0035094991 0.73700005 1.5590426e-38
0.0049266764 0.003519021 0.73900002 1.5854458e-38
0.0063342894 0.003519021 0.73899996 1.5871681e-38
0.0077209664 0.0035095066 0.73700005 1.5757964e-38
0.0091247801 0.0035094991 0.73700011 1.2540136e-38
0.010557156 0.0035190284 0.73900002 9.325169e-39
0.012013337 0.0035333186 0.74200004 1.0618034e-38
0.013426668 0.0035333112 0.74200004 1.1895425e-38
0.014839998 0.0035333335 0.74200004 6.6395833e-39
0.016253337 0.0035333261 0.74200004 1.2973277e-39
0.017666666 0.0035333186 0.74200004 2.7634559e-39
0.019105731 0.0035380647 0.74300003 4.1481545e-39
0.020576196 0.003547594 0.74500006 4.2424914e-39
0.0220543 0.0035571083 0.7470001 4.2417557e-39
0.023508571 0.0035618842 0.74800003 3.5074122e-39
0.024933331 0.0035618916 0.74800003 2.6787558e-39
0.02642859 0.0035714209 0.75000006 4.7899128e-39
0.02785716 0.0035714135 0.75000012 6.8217437e-39
0.029363815 0.0035809353 0.75200003 7.9362945e-39
0.030919056 0.0035952181 0.75500005 9.0358177e-39
0.032400016 0.0035999864 0.75600004 9.5846867e-39
0.033929527 0.0036095232 0.75800002 1.0044231e-38
0.035466682 0.0036190376 0.76000005 9.6761803e-39
0.036962863 0.0036238059 0.76099998 9.2176951e-39
-0.05861048 0.005193308 0.77900004 1.6600104e-39
-0.057126671 0.0051933303 0.77900004 2.3035763e-39
-0.055642862 0.0051933229 0.77900004 3.5074823e-39
-0.054020002 0.0051799864 0.77700001 4.6285421e-39
-0.052540008 0.0051799864 0.77700001 4.1622096e-39
-0.051060017 0.0051799938 0.77699995 3.6993481e-39
-0.049452394 0.0051666647 0.77500004 2.2130216e-39
-0.04785239 0.0051533133 0.77300006 7.3614412e-40
-0.046320006 0.005146645 0.77200001 1.014903e-39
-0.044733327 0.0051333085 0.7700001 1.2943626e-39
-0.043154273 0.0051199868 0.76800001 2.1226813e-39
-0.041528583 0.005099982 0.76500005 2.9499154e-39
-0.040071428 0.005099982 0.76500005 3.5906087e-39
-0.038159996 0.0050399825 0.75600004 4.3346786e-39
-0.036719989 0.0050399825 0.75600004 7.017337e-39
-0.03523333 0.0050333142 0.75500005 9.7634097e-39
-0.033705704 0.0050199851 0.75300008 6.9042872e-39
-0.032142848 0.0049999878 0.75000006 4.0412467e-39
-0.030632377 0.0049866512 0.74800003 4.0509339e-39
-0.029168565 0.0049799755 0.7470001 4.0412677e-39
-0.027671415 0.0049666539 0.74500006 4.0509717e-39
-0.026252378 0.0049666464 0.74500006 4.0412873e-39
-0.024766659 0.0049533248 0.74300003 3.9598551e-39
-0.023351418 0.0049533173 0.74300003 3.8576079e-39
-0.02190667 0.004946664 0.74199998 3.7736561e-39
-0.02049333 0.0049466565 0.74200004 3.6739299e-39
-0.019080002 0.004946664 0.74200004 3.3141227e-39
-0.01761904 0.0049333274 0.74000001 3.0310856e-39
-0.016209524 0.0049333349 0.74000001 2.5801604e-39
-0.014779994 0.0049266517 0.73900002 2.2045676e-39
-0.013372377 0.0049266443 0.73900002 4.5104995e-39
-0.011964746 0.0049266443 0.73900002 6.8882171e-39
-0.010557139 0.0049266592 0.73899996 7.4672491e-39
-0.0091495216 0.0049266592 0.73900002 7.9379424e-39
-0.0077418904 0.0049266517 0.73900002 9.6928978e-39
-0.0063342736 0.0049266443 0.73900002 1.1464674e-38
-0.0049133277 0.0049133301 0.73700005 9.4242002e-39
-0.0035095077 0.0049133226 0.73700011 7.4109995e-39
-0.0021057131 0.0049133226 0.73700005 7.4852628e-39
-0.00070189295 0.0049133152 0.73700005 7.5874945e-39
0.00070191984 0.0049133077 0.73700011 7.6635373e-39
0.002105721 0.0049133152 0.73700005 7.6613779e-39
0.0035095338 0.0049133077 0.73700005 7.840377e-39
0.0049266787 0.0049266368 0.73900002 8.0176062e-39
0.0063342927 0.0049266443 0.73900002 1.0875643e-38
0.0077419099 0.0049266443 0.73900002 1.3823344e-38
0.0091495346 0.0049266517 0.73900002 1.2083848e-38
0.010571435 0.0049333274 0.74000007 1.0331058e-38
0.012013335 0.0049466565 0.74200004 1.1256563e-38
0.013426664 0.0049466565 0.74199998 1.2270303e-38
0.014840004 0.004946664 0.74200004 6.7350244e-39
0.016253335 0.004946664 0.74200004 1.2940977e-39
0.017666664 0.004946664 0.74199998 2.7673781e-39
0.019105725 0.0049533248 0.74300003 4.2417711e-39
0.020576198 0.004966639 0.74500006 4.4250848e-39
0.022054292 0.004979983 0.74700004 4.700587e-39
0.023508569 0.0049866512 0.74799997 4.0570169e-39
0.024933336 0.0049866438 0.74800003 3.4138181e-39
0.026428584 0.0049999952 0.75000006 4.7938687e-39
0.027931426 0.0050133243 0.75200003 6.1803428e-39
0.029363811 0.0050133169 0.75200003 7.7483355e-39
0.03096002 0.005039975 0.75600004 9.2191356e-39
0.032400016 0.005039975 0.75600004 9.4024436e-39
0.033840016 0.0050399676 0.75600004 9.6779473e-39
0.035466686 0.0050666556 0.76000005 9.4935561e-39
-0.060094293 0.0066771209 0.7790001 9.2459214e-40
-0.058610484 0.0066771209 0.77900004 1.5656484e-39
-0.057126679 0.0066771209 0.77900004 2.1173774e-39
-0.055642869 0.0066771209 0.77900004 2.943178e-39
-0.054159056 0.0066771135 0.77900004 3.6922127e-39
-0.052675247 0.0066771284 0.77900004 3.1480156e-39
-0.051060006 0.0066599846 0.77700001 2.4947078e-39
-0.049452387 0.0066428483 0.77500004 1.3818625e-39
-0.047976192 0.0066428483 0.77500004 1.8692901e-40
-0.046319984 0.0066171288 0.77200001 6.4539463e-40
-0.044849522 0.0066171288 0.77200001 1.0163352e-39
-0.04326665 0.0065999776 0.7700001 1.7535429e-39
-0.041691419 0.0065828413 0.76800001 2.487145e-39
-0.039966661 0.0065399781 0.76300001 3.4919503e-39
-0.038513321 0.0065399706 0.76300001 4.520502e-39
-0.036719993 0.006479986 0.75600004 6.6604066e-39
-0.035233334 0.0064714029 0.75500005 8.6610138e-39
-0.033705711 0.0064542815 0.75300002 4.4107102e-39
-0.032142852 0.0064285621 0.75000006 9.3015389e-41
-0.030714281 0.0064285547 0.75000006 9.2307734e-41
-0.029207628 0.0064114109 0.74800003 9.2665065e-41
-0.027745709 0.0064028352 0.74700004 9.2304931e-41
-0.026322858 0.0064028352 0.74700004 9.2672071e-41
-0.024833329 0.0063856989 0.74500006 1.8415864e-40
-0.023414288 0.0063857138 0.745 1.8487611e-40
-0.021936191 0.0063685626 0.74300003 2.7599554e-40
-0.02049334 0.0063600019 0.74200004 2.7635848e-40
-0.019080002 0.0063599944 0.74200004 1.8416705e-40
-0.017619049 0.0063428432 0.74000007 9.2316142e-41
-0.016209515 0.0063428432 0.74000001 3.6780862e-40
-0.014779998 0.0063342676 0.73900002 5.6410391e-40
-0.013372367 0.0063342601 0.73900002 7.0902325e-39
-0.01196476 0.006334275 0.73899996 1.3544571e-38
-0.010557143 0.0063342676 0.73900002 1.4674245e-38
-0.0091495104 0.006334275 0.73900002 1.5671143e-38
-0.0077418941 0.0063342676 0.73900002 1.3656123e-38
-0.006334288 0.006334275 0.73899996 1.1613129e-38
-0.0049133259 0.0063171312 0.73700005 5.9020968e-39
-0.0035190387 0.0063342601 0.73900002 2.0613241e-40
-0.0021057006 0.0063171163 0.73700011 1.8459725e-40
-0.00070189108 0.0063171312 0.73700005 1.1141864e-40
0.00070191378 0.0063171238 0.73700005 9.2408627e-41
0.0021057336 0.0063171163 0.73700011 1.020972e-40
0.003519058 0.0063342601 0.73900002 9.2415634e-41
0.0049266717 0.0063342676 0.73899996 9.9993856e-41
0.0063342964 0.0063342601 0.73900002 5.9728483e-39
0.0077419137 0.0063342601 0.73900002 1.1804761e-38
0.0091495384 0.0063342601 0.73900002 1.1548986e-38
0.010571433 0.0063428581 0.74000001 1.1254433e-38
0.012013325 0.0063599944 0.74199998 1.1898685e-38
0.013426665 0.006359987 0.74200004 1.2539354e-38
0.014839995 0.0063600019 0.74200004 6.9201415e-39
0.016253334 0.0063599944 0.74200004 1.2998417e-39
0.017690483 0.00636857 0.74300003 2.7698892e-39
0.019105718 0.0063685626 0.74300003 4.2403362e-39
0.0205762 0.0063857138 0.74500006 4.6988004e-39
0.022054296 0.0064028352 0.74700004 5.1586897e-39
0.023477159 0.0064028352 0.74700004 4.6058775e-39
0.024933327 0.0064114109 0.74799997 4.0548687e-39
0.026428593 0.0064285547 0.75000012 4.7909932e-39
0.027857156 0.0064285621 0.75000006 5.5364111e-39
0.029363817 0.0064456984 0.75200003 7.4738982e-39
0.030919053 0.0064714104 0.75500005 9.4024422e-39
0.032357141 0.0064714178 0.75500005 9.3109627e-39
0.033840016 0.0064799711 0.75600004 9.2191272e-39
0.035373326 0.0064971447 0.75800002 9.31132e-39
0.036817141 0.0064971372 0.75800002 9.3095221e-39
-0.062900007 0.0081399828 0.77700001 4.9735894e-39
-0.061420009 0.0081399754 0.77700001 4.5140518e-39
-0.060094282 0.0081609339 0.77900004 4.049136e-39
-0.058610477 0.0081609339 0.77900004 3.8683363e-39
-0.057126671 0.0081609413 0.77900004 3.6767704e-39
-0.055642854 0.0081609339 0.77900004 3.5892368e-39
-0.054159049 0.0081609339 0.77900004 3.4055476e-39
-0.052540015 0.0081399903 0.77700001 2.5822371e-39
-0.051060006 0.0081399903 0.77699995 1.7499625e-39
-0.049452387 0.0081190392 0.77500004 1.3836799e-39
-0.047976192 0.0081190392 0.77500004 1.1070832e-39
-0.046320003 0.0080875978 0.77200001 1.1981859e-39
-0.044849526 0.0080876052 0.77200001 1.3825925e-39
-0.043266661 0.0080666542 0.77000004 1.9361349e-39
-0.04169143 0.0080457106 0.76800001 2.5800525e-39
-0.040071443 0.0080142692 0.76499999 3.2210989e-39
-0.038614292 0.0080142617 0.76500005 3.8704788e-39
-0.036817148 0.0079409406 0.75800002 6.6474993e-39
-0.035279993 0.0079199746 0.75600004 9.401069e-39
-0.033705711 0.0078885555 0.75300002 4.7877086e-39
-0.032142844 0.007857129 0.75000012 1.8447113e-40
-0.030714281 0.0078571364 0.75000006 3.6887641e-40
-0.029207626 0.007836163 0.74800003 4.6068948e-40
-0.027745705 0.007825695 0.74700004 3.6847283e-40
-0.026322857 0.007825695 0.74700004 1.8482006e-40
-0.02483332 0.0078047439 0.74500006 3.6958406e-40
-0.023414293 0.0078047514 0.745 5.5434246e-40
-0.021936178 0.0077837855 0.74300003 3.7032255e-40
-0.020520937 0.0077837929 0.74300009 1.8558096e-40
-0.019080011 0.0077733174 0.74200004 4.6001686e-40
-0.017619051 0.0077523738 0.74000001 7.3513238e-40
-0.016209509 0.0077523589 0.74000007 4.7051917e-39
-0.014799991 0.0077523664 0.74000001 8.7572116e-39
-0.013372371 0.0077418834 0.73900002 1.2268263e-38
-0.011964764 0.0077418908 0.73900002 1.5790669e-38
-0.010557133 0.0077418834 0.73900002 1.2835443e-38
-0.0091495151 0.0077418759 0.73900002 9.9777061e-39
-0.0077418988 0.0077418834 0.73900002 7.9292684e-39
-0.0063342778 0.0077418908 0.73900002 5.8780141e-39
-0.0049266606 0.0077418834 0.73900002 3.3126962e-39
-0.0035190431 0.0077418759 0.73900002 7.3517723e-40
-0.0021114114 0.0077418759 0.73900002 3.8783625e-39
-0.00070380495 0.0077418834 0.73900002 6.9993471e-39
0.00070381927 0.0077418759 0.73900002 6.4483467e-39
0.0021114366 0.0077418834 0.73900002 5.9698131e-39
0.003519051 0.0077418908 0.73899996 6.5301672e-39
0.004926675 0.0077418834 0.73900002 7.1637657e-39
0.0063342988 0.0077418834 0.73900002 1.0416468e-38
0.007741916 0.0077418834 0.73900002 1.3760934e-38
0.0091619138 0.0077523664 0.74000007 1.0620953e-38
0.010600002 0.0077733174 0.74200004 7.5659467e-39
0.012013333 0.0077733248 0.74200004 1.0334243e-38
0.013426663 0.0077733174 0.74200004 1.3098618e-38
0.014840003 0.0077733248 0.74200004 7.4726006e-39
0.016275249 0.0077837929 0.74300003 1.9290639e-39
0.017690491 0.0077837929 0.74300003 3.0396546e-39
0.019105731 0.0077838004 0.74300003 4.1485021e-39
0.020576196 0.0078047514 0.74500006 4.4243715e-39
0.022054298 0.007825695 0.7470001 4.7002297e-39
0.023508566 0.0078361854 0.74799997 4.2388928e-39
0.024933334 0.0078361779 0.74800003 3.7764896e-39
0.026428591 0.0078571364 0.75000006 4.4250791e-39
0.027857166 0.0078571215 0.75000012 5.0775868e-39
0.029363805 0.00787808 0.75200003 7.1955149e-39
0.030919047 0.007909514 0.755 9.3102424e-39
0.032400019 0.0079199821 0.75600004 9.2184055e-39
0.033929531 0.0079409555 0.75800002 9.2187656e-39
0.035373334 0.007940948 0.75800002 9.2191258e-39
-0.064380005 0.0096199811 0.77700001 6.7338753e-39
-0.062900022 0.0096199885 0.77699995 8.291483e-39
-0.061420009 0.0096199885 0.77699995 7.7436902e-39
-0.060094289 0.0096447393 0.77900004 7.0943958e-39
-0.058610484 0.0096447542 0.77900004 6.1810743e-39
-0.057126667 0.0096447468 0.77900004 5.2530293e-39
-0.055642862 0.0096447468 0.77900004 4.2396061e-39
-0.054159056 0.0096447468 0.77900004 3.1314494e-39
-0.052675236 0.0096447393 0.7790001 2.1165632e-39
-0.05106001 0.0096199885 0.77700001 1.0166841e-39
-0.049452387 0.0095952228 0.77500004 1.4790845e-39
-0.047976188 0.0095952153 0.77500004 1.9378991e-39
-0.046380002 0.0095704496 0.77300012 1.8410371e-39
-0.044849519 0.0095580742 0.77200001 1.6588151e-39
-0.04326665 0.0095333084 0.7700001 2.2116371e-39
-0.041691422 0.0095085502 0.76800001 2.6711649e-39
-0.040176194 0.0094961822 0.76700002 2.9423582e-39
-0.038715243 0.0094961822 0.76700008 3.1386577e-39
-0.036817141 0.0093847439 0.75800002 6.657178e-39
-0.035279997 0.009359993 0.75600004 1.0041402e-38
-0.033795241 0.0093476027 0.75500005 5.1546932e-39
-0.032228578 0.0093104616 0.75200003 2.8060862e-40
-0.030714273 0.0092856959 0.75000012 5.5397672e-40
-0.02928571 0.0092857182 0.75000006 8.283944e-40
-0.027745701 0.0092485473 0.7470001 5.5251657e-40
-0.026322853 0.0092485473 0.7470001 2.7809609e-40
-0.024833325 0.009223789 0.74500006 5.5432985e-40
-0.023414284 0.0092237964 0.745 8.3018666e-40
-0.021936178 0.0091990456 0.74300003 4.6498726e-40
-0.020520937 0.0091990381 0.74300003 9.4087383e-41
-0.01910571 0.0091990381 0.74300003 7.3517162e-40
-0.017666666 0.0091866553 0.74200004 1.3138462e-39
-0.016253335 0.0091866553 0.74200004 9.1442964e-39
-0.014799999 0.009161897 0.74000007 1.6960427e-38
-0.013390467 0.009161897 0.74000001 1.7435098e-38
-0.011980949 0.009161897 0.74000001 1.7889572e-38
-0.010557137 0.0091494992 0.73900002 1.1081866e-38
-0.0091619026 0.0091618896 0.74000001 4.1632984e-39
-0.0077523706 0.0091618896 0.74000001 2.113088e-39
-0.0063428525 0.0091619045 0.74000001 9.341476e-41
-0.0049333242 0.009161897 0.74000007 7.3517723e-40
-0.0035238063 0.009161897 0.74000001 1.3059695e-39
-0.0021142883 0.009161897 0.74000001 7.5942375e-39
-0.00070380961 0.0091494992 0.73900002 1.3825785e-38
0.00070382253 0.0091494918 0.73900002 1.2823134e-38
0.0021114398 0.0091495067 0.73900002 1.1793203e-38
0.0035190533 0.0091495141 0.73900002 1.2986695e-38
0.0049333428 0.009161897 0.74000007 1.4189924e-38
0.0063428683 0.0091618896 0.74000001 1.4952269e-38
0.0077523859 0.009161897 0.74000001 1.5684085e-38
0.0091866702 0.0091866553 0.74200004 9.7915492e-39
0.010600001 0.0091866627 0.74200004 3.8010403e-39
0.012013329 0.0091866553 0.74200004 8.6819184e-39
0.013426669 0.0091866478 0.74200004 1.3552407e-38
0.014840001 0.0091866702 0.74200004 8.0347231e-39
0.016275249 0.0091990381 0.74300003 2.4922696e-39
0.017690491 0.0091990381 0.74300003 3.219025e-39
0.019105725 0.0091990381 0.74300003 3.9626857e-39
0.020576198 0.0092237964 0.74500006 4.1503125e-39
0.02205429 0.0092485547 0.74700004 4.2410606e-39
0.023508571 0.0092609376 0.74800003 3.8726312e-39
0.024933333 0.0092609301 0.74800003 3.4116503e-39
0.026428588 0.0092857033 0.75000006 3.9633709e-39
0.027931429 0.0093104765 0.75200003 4.5226165e-39
0.029363815 0.0093104616 0.75200003 6.8285316e-39
0.030960014 0.0093599856 0.75600004 9.1258694e-39
0.03248572 0.0093847439 0.75800002 9.1258834e-39
0.033929527 0.0093847588 0.75800002 9.1265966e-39
0.035466678 0.0094094947 0.76000005 9.2195041e-39
0.036962863 0.0094219074 0.76099998 9.3099019e-39
-0.065860011 0.011099994 0.77699995 5.5371398e-39
-0.064380005 0.011099979 0.77700001 5.9019594e-39
-0.062900014 0.011099979 0.77700001 6.2753845e-39
-0.061261903 0.011071421 0.77500004 5.2580039e-39
-0.059940003 0.011099987 0.77699995 4.2510631e-39
-0.058460012 0.011100002 0.77699995 4.3382561e-39
-0.056980003 0.011099994 0.77700001 4.4343908e-39
-0.055500012 0.011099987 0.77700001 3.9644457e-39
-0.054159049 0.011128552 0.7790001 3.4984061e-39
-0.052675243 0.011128552 0.77900004 3.1317353e-39
-0.051060013 0.011099994 0.77699995 2.8530058e-39
-0.049580004 0.011099979 0.77700001 3.9657994e-39
-0.047976188 0.011071421 0.77500004 5.069626e-39
-0.046379991 0.011042826 0.77300006 3.2225184e-39
-0.044849508 0.011028551 0.77200001 1.3836673e-39
-0.043266658 0.010999992 0.77000004 2.121231e-39
-0.041691426 0.01097142 0.76799995 2.8587764e-39
-0.040176183 0.010957122 0.76700002 2.9441463e-39
-0.038513333 0.010899991 0.76300001 3.0331834e-39
-0.036817148 0.010828562 0.75800002 6.4602255e-39
-0.035279986 0.010799982 0.75600004 9.8613156e-39
-0.033795245 0.010785699 0.75500005 5.066445e-39
-0.032228574 0.010742851 0.75200003 3.7208398e-40
-0.030714277 0.01071427 0.75000006 7.3800084e-40
-0.029285703 0.010714263 0.75000012 1.1039051e-39
-0.027782872 0.010685705 0.74799997 9.2094877e-40
-0.026358098 0.010685697 0.74800003 8.3090973e-40
-0.024899986 0.0106714 0.7470001 6.4652268e-40
-0.023477135 0.010671407 0.7470001 4.6174746e-40
-0.021995235 0.010642856 0.745 2.298428e-39
-0.020576198 0.010642849 0.745 4.1337562e-39
-0.01910571 0.010614261 0.74300003 6.9208015e-39
-0.017666675 0.010599993 0.74200004 9.6096116e-39
-0.016253337 0.010599986 0.74200004 1.3111308e-38
-0.014840007 0.010600001 0.74200004 1.6709753e-38
-0.013390474 0.010571413 0.74000007 1.3385738e-38
-0.011980942 0.010571413 0.74000001 1.0077057e-38
-0.010557126 0.010557123 0.73900002 6.0935982e-39
-0.0091619054 0.010571428 0.74000001 2.1127111e-39
-0.007752378 0.01057142 0.74000001 1.4712625e-39
-0.0063428599 0.01057142 0.74000001 8.3021189e-40
-0.004933327 0.01057142 0.74000001 8.3164962e-40
-0.0035237989 0.010571413 0.74000007 8.4289504e-40
-0.0021142813 0.010571413 0.74000001 6.5648002e-39
-0.00070476328 0.010571413 0.74000001 1.2365862e-38
0.00070476177 0.010571428 0.74000001 1.0430501e-38
0.0021142971 0.01057142 0.74000007 8.4129546e-39
0.0035238157 0.010571413 0.74000001 1.1349502e-38
0.0049333326 0.01057142 0.74000001 1.4310124e-38
0.0063428679 0.01057142 0.74000007 1.4402321e-38
0.0077523864 0.010571413 0.74000001 1.4496668e-38
0.0091866683 0.010599993 0.74200004 8.2077302e-39
0.010599999 0.010599993 0.74199998 2.0210017e-39
0.012013339 0.010599978 0.74200004 7.8446342e-39
0.013426667 0.010599986 0.74200004 1.3649617e-38
0.014860013 0.010614268 0.74300009 8.4859973e-39
0.016275244 0.010614276 0.74300003 3.3065893e-39
0.017738102 0.010642849 0.74500006 3.7714757e-39
0.019157145 0.010642849 0.74500006 4.3329059e-39
0.020631446 0.010671414 0.74700004 4.1496063e-39
0.022054296 0.010671414 0.74700004 4.0573966e-39
0.023508571 0.01068569 0.74800003 3.5974863e-39
0.024933331 0.010685697 0.74800003 3.1361354e-39
0.026428595 0.01071427 0.75000012 3.8722319e-39
0.027931426 0.010742851 0.75200003 4.6083438e-39
0.029363811 0.010742843 0.75200003 7.0093328e-39
0.03096002 0.010799982 0.75600004 9.4021087e-39
0.032485712 0.010828555 0.75800002 9.3099439e-39
0.033929534 0.01082857 0.75800002 9.2177399e-39
0.035466678 0.01085712 0.76000005 9.1262533e-39
-0.065860011 0.012579985 0.77700001 5.897628e-39
-0.064380027 0.012579985 0.77700001 5.0607137e-39
-0.062900014 0.012579992 0.77699995 4.1480985e-39
-0.061261903 0.012547597 0.77500004 2.7619579e-39
-0.059939992 0.01258 0.77700001 1.3901665e-39
-0.058460001 0.01258 0.77700001 2.4860955e-39
-0.056980006 0.01258 0.77700001 3.5992435e-39
-0.055642851 0.012612358 0.7790001 3.6853393e-39
-0.054159041 0.012612358 0.77900004 3.7810956e-39
-0.052675236 0.012612358 0.77900004 4.2431163e-39
-0.051191431 0.012612373 0.77900004 4.7041057e-39
-0.049580008 0.012579985 0.77700001 6.4615554e-39
-0.047976185 0.012547605 0.77500004 8.1956412e-39
-0.046319988 0.012499027 0.77200001 4.6875704e-39
-0.044733334 0.012466654 0.77000004 1.1085154e-39
-0.043266661 0.012466647 0.7700001 2.0308346e-39
-0.041691422 0.012434289 0.76800001 2.9481176e-39
-0.040071432 0.012385704 0.76500005 2.9423821e-39
-0.038412381 0.012320936 0.76100004 2.9553315e-39
-0.036914278 0.012304746 0.76000011 6.3812624e-39
-0.035373341 0.012272365 0.75799996 9.6736832e-39
-0.033839997 0.012239978 0.75600004 5.0610781e-39
-0.032228582 0.012175217 0.75200003 3.735063e-40
-0.030796196 0.012175225 0.75200003 8.3051737e-40
-0.029285707 0.012142837 0.75000006 1.2886299e-39
-0.027857132 0.012142844 0.75000012 1.2886397e-39
-0.026358098 0.012110449 0.74800003 1.2889844e-39
-0.024933346 0.012110472 0.74800003 7.3867487e-40
-0.023477143 0.012094267 0.74700004 9.4056554e-41
-0.021995241 0.012061901 0.745 4.1330485e-39
-0.020576188 0.012061894 0.745 8.2076055e-39
-0.019105706 0.012029514 0.74300003 1.3113345e-38
-0.01766666 0.012013316 0.74200004 1.7890282e-38
-0.016253332 0.012013324 0.74200004 1.7164624e-38
-0.014840001 0.012013316 0.74199998 1.6317253e-38
-0.013390477 0.011980943 0.74000001 9.3212076e-39
-0.011980949 0.011980943 0.74000007 2.2325908e-39
-0.010557131 0.011964738 0.73900002 1.1943561e-39
-0.0091618989 0.011980943 0.74000001 9.4468536e-41
-0.0077523813 0.011980943 0.74000001 8.2913849e-40
-0.006342853 0.011980936 0.74000007 1.4727128e-39
