# .PCD v0.7 - Point Cloud Data file format
VERSION 0.7
FIELDS x y z rgb
SIZE 4 4 4 4
TYPE F F F F
COUNT 1 1 1 1
WIDTH 963
HEIGHT 1
VIEWPOINT 0 0 0 1 0 0 0
POINTS 963
DATA ascii
0.034999993 0.0035714358 0.75000012 9.1247511e-39
0.036671348 0.0035952479 0.75500011 9.2162433e-39
0.03810944 0.0035952479 0.75500011 9.2166175e-39
-0.042480014 0.0050400198 0.75600004 1.4758896e-39
-0.040985774 0.005033344 0.75500011 2.3956753e-39
-0.039442893 0.0050200075 0.75300002 2.6715349e-39
-0.037857138 0.0050000176 0.75000012 3.0381566e-39
-0.036428589 0.0050000176 0.75000012 2.2119917e-39
-0.034860056 0.0049800202 0.7470001 1.3851051e-39
-0.03334767 0.0049666613 0.74500012 1.10923e-39
-0.031842884 0.0049533322 0.74300009 9.2448284e-40
-0.030386703 0.0049466714 0.7420001 6.4754142e-40
-0.028895261 0.0049333423 0.74000007 3.7097135e-40
-0.0274486 0.0049266592 0.73900008 4.6461312e-40
-0.025970524 0.0049133375 0.73700011 6.4972745e-40
-0.024566719 0.0049133375 0.73700017 1.0170764e-39
-0.023068616 0.0048933327 0.73400009 1.3862219e-39
-0.021670511 0.0048933402 0.73400009 1.3837192e-39
-0.020217203 0.0048799962 0.73200011 1.4748386e-39
-0.018822903 0.0048799962 0.73200011 1.1064218e-39
-0.017428603 0.0048800036 0.73200011 7.3764631e-40
-0.016012428 0.0048733354 0.73100007 9.2275364e-40
-0.014620052 0.0048733279 0.73100007 1.107861e-39
-0.013227663 0.0048733354 0.73100007 8.3271461e-40
-0.011835284 0.0048733354 0.73100007 6.4976528e-40
-0.010442908 0.0048733279 0.73100007 9.2455851e-40
-0.0090257758 0.0048599988 0.72900009 1.1993237e-39
-0.0076372093 0.0048599988 0.72900009 1.014194e-39
-0.006248639 0.0048599914 0.72900009 8.2765312e-40
-0.0048600724 0.0048599988 0.72900009 2.8537723e-39
-0.0034666779 0.004853338 0.7280001 4.9847367e-39
-0.0020800168 0.0048533529 0.72800004 8.4010379e-39
-0.00069337245 0.004853338 0.7280001 1.1920215e-38
0.00069331098 0.0048533455 0.7280001 1.1171552e-38
0.0020799572 0.004853338 0.7280001 1.0448359e-38
0.0034666406 0.0048533455 0.7280001 1.0990413e-38
0.0048533259 0.004853338 0.72800004 1.1553985e-38
0.0062484937 0.0048599914 0.72900009 1.0622358e-38
0.0076370994 0.0048599988 0.72900009 9.7179628e-39
0.009013298 0.0048533306 0.7280001 9.1425252e-39
0.010414236 0.0048599988 0.72900009 8.6819506e-39
0.011835204 0.0048733354 0.73100007 7.7453381e-39
0.013227579 0.0048733354 0.73100007 6.8889878e-39
0.014639988 0.0048800036 0.73200005 5.4314006e-39
0.016012335 0.0048733354 0.73100007 4.0412845e-39
0.017476158 0.0048933402 0.73400009 6.256069e-39
0.018874267 0.0048933402 0.73400009 8.5430357e-39
0.020327589 0.0049066767 0.73600006 1.0513959e-38
0.021729503 0.0049066693 0.73600006 1.2553727e-38
0.023162792 0.0049133301 0.73700011 1.0318479e-38
0.024633303 0.0049266592 0.73900008 8.0867491e-39
0.026040928 0.0049266666 0.73900008 8.3822886e-39
0.027485695 0.0049333423 0.74000001 8.5763656e-39
0.028895225 0.0049333423 0.74000001 9.4057563e-39
0.030509481 0.0049666762 0.74500012 1.0322648e-38
0.032014243 0.0049799979 0.7470001 9.7705311e-39
0.0334819 0.0049866661 0.74800003 9.3102312e-39
0.034906663 0.0049866736 0.74800009 9.3087486e-39
0.036525674 0.0050133392 0.75200009 9.3995346e-39
-0.04578007 0.0065400079 0.76300007 4.1369175e-39
-0.044152398 0.0065142885 0.76000005 5.5499687e-40
-0.042592417 0.0064971372 0.75800008 1.5677223e-39
-0.041148633 0.0064971372 0.75800014 2.4878681e-39
-0.039600033 0.0064800158 0.75600004 2.3052705e-39
-0.038160019 0.0064800233 0.75600004 2.0290465e-39
-0.036428586 0.0064285845 0.75000012 1.5705865e-39
-0.034860022 0.0064028651 0.7470001 1.1092525e-39
-0.033347674 0.0063857138 0.74500012 9.2450106e-40
-0.031842902 0.00636857 0.74300009 7.3939233e-40
-0.030386692 0.0063599944 0.74200004 5.5464374e-40
-0.028973375 0.0063600019 0.74200004 2.8021765e-40
-0.027485758 0.0063428655 0.74000001 4.6676271e-40
-0.026040969 0.0063342825 0.73900008 5.5753322e-40
-0.024633383 0.006334275 0.73900008 1.0163632e-39
-0.023131473 0.006308578 0.73600012 1.3837094e-39
-0.021670494 0.0062914491 0.73400009 1.4751903e-39
-0.020217182 0.0062742904 0.73200011 1.4744631e-39
-0.018822884 0.0062742904 0.73200011 1.0138422e-39
-0.017404817 0.0062657148 0.73100007 4.6319921e-40
-0.01601244 0.0062657148 0.73100007 8.3091254e-40
-0.014620063 0.0062657148 0.73100007 1.1075008e-39
-0.013227646 0.0062657222 0.73100007 1.0163884e-39
-0.011835272 0.0062657222 0.73100007 8.3236708e-40
-0.010442919 0.0062657222 0.73100007 1.0167654e-39
-0.0090505416 0.0062657148 0.73100007 1.1993461e-39
-0.0076581249 0.0062657148 0.73100007 6.4724435e-40
-0.0062486073 0.006248571 0.72900009 9.3358708e-41
-0.004860037 0.006248571 0.72900009 4.959561e-39
-0.0034714928 0.0062485635 0.72900009 9.7731389e-39
-0.0020829244 0.0062485635 0.72900009 1.2105366e-38
-0.00069435406 0.0062485561 0.72900009 1.4389743e-38
0.0006942125 0.0062485635 0.72900009 1.1350174e-38
0.0020827828 0.0062485635 0.72900009 8.3074032e-39
0.0034713885 0.006248571 0.72900009 7.8489417e-39
0.0048599569 0.006248571 0.72900009 7.2918247e-39
0.0062485253 0.006248571 0.72900009 4.7132506e-39
0.0076370938 0.006248571 0.72900009 2.0471233e-39
0.0090256399 0.0062485635 0.72900009 1.102913e-39
0.010414208 0.0062485561 0.72900009 1.045733e-40
0.011802777 0.0062485486 0.72900009 9.2389009e-41
0.01322757 0.0062657148 0.73100007 9.2715512e-41
0.014619947 0.0062657148 0.73100007 9.2325951e-41
0.016012324 0.0062657148 0.73100007 9.6658765e-41
0.017428549 0.0062742829 0.73200011 6.7217583e-39
0.018822825 0.0062742904 0.73200005 1.326723e-38
0.020327603 0.0063085705 0.73600012 1.3204852e-38
0.021729499 0.006308578 0.73600006 1.2993534e-38
0.023162818 0.0063171387 0.73700011 9.0930145e-39
0.024566634 0.006317161 0.73700011 5.170626e-39
0.026040912 0.0063342825 0.73900008 9.1507536e-39
0.027485685 0.006342873 0.74000001 1.3082799e-38
0.028973296 0.0063600019 0.7420001 1.1798157e-38
0.030427556 0.0063685775 0.74300009 1.0416269e-38
0.031928509 0.0063857138 0.74500012 1.0044931e-38
0.033347558 0.0063857138 0.74500012 9.5850202e-39
0.034906648 0.0064114332 0.74800009 9.5839286e-39
0.036428545 0.0064285845 0.75000012 9.4924659e-39
0.037857112 0.006428577 0.75000006 9.3088103e-39
-0.045780074 0.007993333 0.76300007 4.6029025e-39
-0.04415239 0.0079619065 0.76000005 9.2089832e-40
-0.042592421 0.007940948 0.75800008 2.0261781e-39
-0.041148599 0.007940948 0.75800008 3.0392384e-39
-0.039600018 0.0079200193 0.75600004 2.304553e-39
-0.037857171 0.0078571513 0.75000012 1.5698733e-39
-0.036331441 0.0078362003 0.74800009 1.476607e-39
-0.034860045 0.0078257099 0.7470001 1.2911424e-39
-0.033347677 0.0078047588 0.74500012 1.1067539e-39
-0.031842921 0.0077838078 0.74300009 8.2909085e-40
-0.030386722 0.0077733397 0.7420001 5.5465635e-40
-0.028973365 0.0077733472 0.74200004 1.8802763e-40
-0.027485771 0.0077523962 0.74000001 3.7205315e-40
-0.026076237 0.0077523813 0.74000007 6.4793379e-40
-0.024633361 0.0077418908 0.73900008 9.2309696e-40
-0.023131454 0.0077104792 0.73600012 1.1982433e-39
-0.021670515 0.0076895207 0.73400009 1.3826304e-39
-0.020217184 0.0076685771 0.73200011 1.5662817e-39
-0.018822884 0.0076685548 0.73200011 1.4740679e-39
-0.017428584 0.0076685697 0.73200011 1.474449e-39
-0.016034346 0.0076685697 0.73200011 1.3822772e-39
-0.014620037 0.0076581016 0.73100007 1.2915292e-39
-0.013227659 0.0076581016 0.73100007 1.0149563e-39
-0.011835285 0.0076581016 0.73100007 7.383876e-40
-0.010442906 0.0076581016 0.73100007 9.231474e-40
-0.0090505304 0.0076580942 0.73100007 1.1068156e-39
-0.0076581361 0.0076581091 0.73100007 6.4620038e-40
-0.0062657623 0.0076581091 0.73100007 9.2313339e-41
-0.0048733847 0.0076580942 0.73100007 4.7891925e-39
-0.0034714984 0.0076371282 0.72900009 9.4205484e-39
-0.002082889 0.0076371431 0.72900009 1.1635483e-38
-0.0006943224 0.0076371431 0.72900009 1.3826549e-38
0.00069422368 0.0076371431 0.72900009 9.0266378e-39
0.0020827921 0.0076371431 0.72900009 4.2249891e-39
0.0034713605 0.0076371357 0.72900009 3.9602292e-39
0.004859929 0.0076371431 0.72900009 3.6739481e-39
0.0062484974 0.0076371357 0.72900009 2.6709197e-39
0.007637105 0.0076371357 0.72900009 1.7453663e-39
0.0090256734 0.0076371282 0.72900009 1.4709108e-39
0.010442828 0.0076581016 0.73100007 1.1943155e-39
0.011835205 0.0076581091 0.73100007 6.4508354e-40
0.013227583 0.0076580942 0.73100007 9.2988765e-41
0.014619936 0.0076581016 0.73100007 2.0211684e-39
0.016012313 0.0076580867 0.73100007 3.9498007e-39
0.017428545 0.0076685846 0.73200011 1.0145912e-38
0.018822843 0.0076685771 0.73200005 1.633408e-38
0.0203276 0.0077104867 0.73600012 1.2644192e-38
0.021758983 0.0077209547 0.73700011 8.9495468e-39
0.023162821 0.0077209473 0.73700011 7.277076e-39
0.024666658 0.0077523962 0.74000001 5.7392295e-39
0.026076166 0.0077523962 0.74000001 8.4010632e-39
0.027559986 0.0077733397 0.74200004 1.0958422e-38
0.028973302 0.0077733472 0.74200004 1.0506733e-38
0.030509476 0.0078047663 0.74500012 1.0049636e-38
0.032014232 0.0078257248 0.7470001 9.7708282e-39
0.033571407 0.0078571513 0.75000012 9.492826e-39
0.034999996 0.0078571513 0.75000012 9.4013646e-39
0.036525715 0.0078781024 0.75200003 9.4017276e-39
-0.044152416 0.009409517 0.76000011 1.2900298e-39
-0.042592425 0.0093847513 0.75800008 2.4853486e-39
-0.041148625 0.0093847588 0.75800008 3.5884549e-39
-0.039600041 0.0093600079 0.75600004 2.3953137e-39
-0.037857175 0.0092857182 0.75000012 1.1089049e-39
-0.036185782 0.0092237964 0.74500012 1.291148e-39
-0.03476673 0.0092238113 0.74500012 1.4741001e-39
-0.033347681 0.0092238113 0.74500012 1.1982349e-39
-0.031800032 0.0091866776 0.7420001 9.2200955e-40
-0.030304795 0.0091619045 0.74000007 5.5538503e-40
-0.028895287 0.0091619194 0.74000007 9.4754401e-41
-0.027485756 0.0091619119 0.74000007 3.6880774e-40
-0.026041003 0.0091495141 0.73900008 6.4649745e-40
-0.024566708 0.0091247559 0.73700011 8.3020068e-40
-0.023131458 0.0091123879 0.73600012 1.015301e-39
-0.021670477 0.0090876371 0.73400009 1.3826388e-39
-0.020217184 0.009062849 0.73200011 1.6588613e-39
-0.018822886 0.009062849 0.73200005 2.0254844e-39
-0.017428624 0.009062849 0.73200011 2.3924719e-39
-0.016034326 0.009062849 0.73200011 1.9318651e-39
-0.014620024 0.0090504885 0.73100007 1.3815724e-39
-0.013227669 0.0090504885 0.73100007 1.0138759e-39
-0.011835291 0.0090504736 0.73100007 5.5470119e-40
-0.010442915 0.0090504661 0.73100007 8.2985035e-40
-0.0090505397 0.0090504661 0.73100007 1.0142472e-39
-0.0076581249 0.009050481 0.73100007 5.5471941e-40
-0.0062657474 0.009050481 0.73100007 9.3383931e-41
-0.004873394 0.0090504885 0.73100007 4.5922414e-39
-0.0034810165 0.009050481 0.73100007 9.0435123e-39
-0.0020829169 0.0090257153 0.72900009 1.1188492e-38
-0.00069435034 0.0090257078 0.72900009 1.3174323e-38
0.00069421995 0.0090257078 0.72900009 6.6126364e-39
0.0020827865 0.0090257078 0.72900009 9.2324549e-41
0.0034713941 0.0090257004 0.72900009 9.2332957e-41
0.0048599625 0.0090257004 0.72900009 9.269169e-41
0.0062485086 0.0090257078 0.72900009 7.3518283e-40
0.007637077 0.0090257078 0.72900009 1.3801655e-39
0.0090256454 0.0090257078 0.72900009 1.8411184e-39
0.010442819 0.0090504736 0.73100007 2.2091568e-39
0.011835194 0.0090504736 0.73100007 1.200739e-39
0.013227572 0.0090504736 0.73100007 9.4077574e-41
0.014619947 0.0090504736 0.73100007 3.9494028e-39
0.016034247 0.0090628564 0.73200005 7.7516986e-39
0.017523784 0.009112373 0.73600012 1.3577604e-38
0.01887426 0.0090876222 0.73400009 1.9265638e-38
0.020327594 0.0091123879 0.73600012 1.2087735e-38
0.021729508 0.0091123953 0.73600012 4.8004155e-39
0.023162825 0.0091247633 0.73700011 5.5106763e-39
0.024566626 0.0091247633 0.73700011 6.2729981e-39
0.026076159 0.0091619119 0.74000001 7.5723436e-39
0.027559955 0.0091866627 0.7420001 8.853349e-39
0.02901235 0.009199068 0.74300003 9.2210231e-39
0.030509496 0.0092238113 0.74500012 9.5886706e-39
0.032014247 0.0092485771 0.7470001 9.4960644e-39
0.033571407 0.0092857108 0.75000012 9.3109613e-39
0.034999996 0.0092857331 0.75000012 9.3109655e-39
0.036574271 0.0093228668 0.75300008 9.2187741e-39
-0.036088634 0.010614291 0.74300009 1.6584942e-39
-0.034673396 0.010614283 0.74300009 2.0240411e-39
-0.033258129 0.010614291 0.74300009 2.3031335e-39
-0.031714339 0.010571435 0.74000001 2.5746982e-39
-0.030263839 0.01055713 0.73900008 1.3808395e-39
-0.028856216 0.010557145 0.73900008 1.8479343e-40
-0.027448606 0.010557137 0.73900008 3.6986712e-40
-0.026040981 0.010557137 0.73900008 6.4757365e-40
-0.024566682 0.010528572 0.73700011 8.3236708e-40
-0.023131466 0.010514282 0.73600012 1.1096588e-39
-0.0216705 0.010485716 0.73400009 1.2922452e-39
-0.020272391 0.010485716 0.73400009 1.4766505e-39
-0.018874304 0.010485731 0.73400003 1.4752324e-39
-0.017428627 0.010457143 0.73200011 1.5659791e-39
-0.016034327 0.010457143 0.73200011 1.3819367e-39
-0.014640029 0.010457151 0.73200011 1.1975455e-39
-0.013227656 0.01044286 0.73100007 8.3020068e-40
-0.011835278 0.010442853 0.73100007 4.6249155e-40
-0.010442925 0.01044286 0.73100007 6.468702e-40
-0.0090505118 0.010442868 0.73100007 9.2311377e-40
-0.0076581342 0.010442868 0.73100007 4.6323704e-40
-0.0062657567 0.010442853 0.73100007 9.3019593e-41
-0.004873381 0.010442853 0.73100007 4.0523422e-39
-0.0034810035 0.010442853 0.73100007 8.1255076e-39
-0.0020829095 0.010414295 0.72900009 1.0895038e-38
-0.00069433916 0.010414273 0.72900009 1.3723132e-38
0.00069422927 0.01041428 0.72900009 6.8988123e-39
0.0020827977 0.010414273 0.72900009 9.2255886e-41
0.0034713661 0.010414273 0.72900009 3.6851207e-40
0.004873286 0.01044286 0.73100007 6.443913e-40
0.0062656635 0.01044286 0.73100007 9.20988e-40
0.0076580411 0.010442853 0.73100007 1.2904712e-39
0.0090504168 0.01044286 0.73100007 1.2000594e-39
0.010442832 0.01044286 0.73100007 1.2028998e-39
0.011835185 0.010442868 0.73100007 1.5655475e-39
0.013227562 0.010442868 0.73100007 2.0208419e-39
0.014639965 0.010457151 0.73200011 7.7523727e-39
0.016034266 0.010457136 0.73200011 1.3478913e-38
0.017523779 0.010514282 0.73600012 1.4308398e-38
0.018925695 0.010514282 0.73600012 1.5134114e-38
0.02035521 0.010528579 0.73700011 8.7629401e-39
0.021729505 0.010514289 0.73600006 2.4801021e-39
0.023162788 0.010528572 0.73700011 3.2219607e-39
0.024566628 0.010528572 0.73700011 3.9734995e-39
0.026076173 0.010571435 0.74000001 6.2776307e-39
0.027559964 0.010600016 0.74200004 8.6710836e-39
0.029012328 0.010614291 0.74300009 8.9451439e-39
0.030509492 0.010642864 0.74500012 9.2198993e-39
0.032014262 0.010671437 0.7470001 9.1276714e-39
0.033481896 0.01068572 0.74800009 9.1269456e-39
0.035 0.010714293 0.75000012 9.1269358e-39
0.036574259 0.010757141 0.75300008 9.0351045e-39
-0.035894327 0.011964761 0.73900008 2.0277013e-39
-0.034486704 0.011964753 0.73900008 2.4936891e-39
-0.033123858 0.011980958 0.74000007 3.324149e-39
-0.031671472 0.011964761 0.73900008 4.1449049e-39
-0.030181957 0.01193238 0.73700011 2.2077261e-39
-0.028778138 0.01193238 0.73700011 1.8588785e-40
-0.027374335 0.01193238 0.73700011 4.6173065e-40
-0.02597052 0.01193238 0.73700011 6.4758066e-40
-0.024533367 0.01191619 0.73600012 9.2526757e-40
-0.023068568 0.01188381 0.73400009 1.1082197e-39
-0.021670522 0.011883825 0.73400009 1.1993363e-39
-0.020272413 0.011883818 0.73400009 1.2004223e-39
-0.018874304 0.01188381 0.73400009 1.0164038e-39
-0.017428605 0.011851422 0.73200011 7.4052879e-40
-0.016034327 0.011851445 0.73200011 9.245501e-40
-0.014620044 0.011835247 0.73100007 1.0156653e-39
-0.013227669 0.011835255 0.73100007 6.4688702e-40
-0.011835291 0.011835232 0.73100007 2.7989956e-40
-0.010442915 0.01183524 0.73100007 5.5504451e-40
-0.0090504987 0.01183524 0.73100007 7.4016024e-40
-0.0076581454 0.011835247 0.73100007 4.6538103e-40
-0.0062657697 0.011835247 0.73100007 9.445172e-41
-0.004873394 0.01183524 0.73100007 3.5820482e-39
-0.0034809774 0.011835247 0.73100007 7.1088572e-39
-0.0020829132 0.011802845 0.72900009 1.0726425e-38
-0.00069434475 0.011802852 0.72900009 1.4277017e-38
0.00069422182 0.011802845 0.72900009 7.1668009e-39
0.0020827698 0.011802852 0.72900009 9.3695019e-41
0.0034713754 0.01180286 0.72900009 6.4508915e-40
0.004873299 0.01183524 0.73100007 1.1046366e-39
0.0062656747 0.01183524 0.73100007 1.196842e-39
0.0076580299 0.01183524 0.73100007 1.1982475e-39
0.0090504428 0.011835262 0.73100007 6.4971484e-40
0.010442822 0.011835232 0.73100007 9.619914e-41
0.0118352 0.01183524 0.73100007 2.0208069e-39
0.013245686 0.01185143 0.73200011 3.8895393e-39
0.014639963 0.01185143 0.73200005 1.1560052e-38
0.016034266 0.01185143 0.73200005 1.9177055e-38
0.017476169 0.011883818 0.73400009 1.5042345e-38
0.018925691 0.011916205 0.73600006 1.0879145e-38
0.020327607 0.01191619 0.73600012 5.5332035e-39
0.021729501 0.01191619 0.73600006 9.9859331e-41
0.023162814 0.011932373 0.73700011 9.2352715e-40
0.024566632 0.011932388 0.73700011 1.6693472e-39
0.026146617 0.012013339 0.7420001 5.0766031e-39
0.027559973 0.012013346 0.74200004 8.3912737e-39
0.029012345 0.012029536 0.74300003 8.5763614e-39
0.030509487 0.012061909 0.74500012 8.7596498e-39
0.032057136 0.012110472 0.74800009 8.8514629e-39
0.033571411 0.012142867 0.75000012 8.9429271e-39
0.035 0.012142874 0.75000012 8.9425557e-39
0.036671352 0.01222381 0.75500011 8.8503601e-39
0.038159974 0.012240015 0.75600004 8.9411166e-39
-0.036645718 0.013137154 0.72600007 1.7536872e-39
-0.035262879 0.013137147 0.72600007 1.9409595e-39
-0.03439337 0.013336197 0.73700011 2.13897e-39
-0.032989573 0.013336197 0.73700011 2.7775025e-39
-0.031585753 0.013336182 0.73700011 3.4224529e-39
-0.03014099 0.013318092 0.73600012 2.0290858e-39
-0.028739093 0.013318099 0.73600012 6.4472481e-40
-0.027337177 0.013318107 0.73600012 7.3798122e-40
-0.025935262 0.013318084 0.73600012 7.3942456e-40
-0.024533371 0.013318099 0.73600012 9.2346129e-40
-0.02306859 0.013281919 0.73400009 1.1064204e-39
-0.021729557 0.013318107 0.73600012 1.4752029e-39
-0.020272398 0.013281912 0.73400003 1.8439855e-39
-0.018925728 0.013318092 0.73600012 1.5677657e-39
-0.017476222 0.013281919 0.73400009 1.2000594e-39
-0.016078135 0.013281919 0.73400009 1.2922466e-39
-0.014640032 0.013245717 0.73200005 1.3851569e-39
-0.013245768 0.013245702 0.73200011 1.1082141e-39
-0.011851468 0.013245709 0.73200011 8.327104e-40
-0.010442925 0.013227619 0.73100007 9.234711e-40
-0.0090505099 0.013227634 0.73100007 9.245487e-40
-0.0076581342 0.013227634 0.73100007 7.3944278e-40
-0.0062657567 0.013227619 0.73100007 5.5290893e-40
-0.0048734015 0.013227619 0.73100007 3.0392889e-39
-0.0034809886 0.013227627 0.73100007 5.5419112e-39
-0.002082902 0.013191432 0.72900009 9.9763076e-39
-0.00069623534 0.013227627 0.73100007 1.4471454e-38
0.00069423486 0.013191432 0.72900009 7.2704885e-39
0.0020884955 0.013227634 0.73100007 9.2264293e-41
0.0034809122 0.013227619 0.73100007 3.6957565e-40
0.0048732879 0.013227619 0.73100007 6.4652688e-40
0.0062656635 0.013227619 0.73100007 8.3020628e-40
0.0076580411 0.013227612 0.73100007 1.105305e-39
0.0090504335 0.013227627 0.73100007 5.5388424e-40
0.010442811 0.013227627 0.73100007 9.2243274e-41
0.011851386 0.013245717 0.73200011 5.0768763e-39
0.013245686 0.013245709 0.73200011 1.0058722e-38
0.014679991 0.013281912 0.73400009 1.3480081e-38
0.016078077 0.013281919 0.73400003 1.6790804e-38
0.017523792 0.013318099 0.73600012 1.1981619e-38
0.018925684 0.013318099 0.73600006 7.1640669e-39
0.020327602 0.013318099 0.73600012 4.5118223e-39
0.02172952 0.013318099 0.73600012 1.8403771e-39
0.023162818 0.013336189 0.73700011 1.7496515e-39
0.024566621 0.013336182 0.73700017 1.6625173e-39
0.026146626 0.013426669 0.7420001 5.1691644e-39
0.027559968 0.013426669 0.7420001 8.668934e-39
0.029012324 0.013444774 0.74300009 8.575997e-39
0.030591393 0.013517141 0.7470001 8.5749082e-39
0.032057121 0.013535239 0.74800009 8.6674472e-39
0.033571415 0.013571426 0.75000012 8.7592673e-39
0.035093315 0.013607629 0.75200003 8.6666989e-39
0.036671359 0.013661914 0.75500011 8.6656143e-39
0.038109452 0.013661906 0.75500011 8.8492769e-39
-0.037976231 0.0145 0.72500008 3.5035601e-39
-0.036645737 0.014520012 0.72600007 1.9376847e-39
-0.035262894 0.014520012 0.72600007 1.8436884e-39
-0.034113366 0.014619999 0.73100007 1.7597338e-39
-0.032855287 0.014679998 0.73400009 2.2239223e-39
-0.031371463 0.014640003 0.73200011 2.6776908e-39
-0.030059071 0.014679998 0.73400009 1.9336532e-39
-0.028660985 0.014680021 0.73400009 1.1060379e-39
-0.027262876 0.014680013 0.73400009 1.0141842e-39
-0.025864771 0.014679998 0.73400009 8.3052858e-40
-0.024533374 0.014719993 0.73600012 9.2202076e-40
-0.023131456 0.01472 0.73600012 1.0149395e-39
-0.021729542 0.01472 0.73600012 1.7507066e-39
-0.020327648 0.014720008 0.73600006 2.4861067e-39
-0.018925732 0.014720008 0.73600012 2.1184059e-39
-0.017476207 0.014679998 0.73400009 1.6599431e-39
-0.016078098 0.014679998 0.73400009 1.6592243e-39
-0.014640045 0.014639996 0.73200011 1.6602991e-39
-0.013245746 0.014640003 0.73200011 1.5681034e-39
-0.01185147 0.014640003 0.73200011 1.383722e-39
-0.01045717 0.014640003 0.73200005 1.2900998e-39
-0.0090629077 0.014640003 0.73200011 1.1071211e-39
-0.0076686097 0.014639989 0.73200011 1.0152618e-39
-0.006265766 0.014620006 0.73100007 9.2092915e-40
-0.0048733884 0.014619999 0.73100007 2.4799956e-39
-0.0034809755 0.014619999 0.73100007 3.9817672e-39
-0.0020886203 0.014619999 0.73100007 9.3488818e-39
-0.00069624279 0.014619999 0.73100007 1.4558275e-38
0.00069613289 0.014619991 0.73100007 7.351939e-39
0.0020885477 0.014620006 0.73100007 9.4076172e-41
0.0034809234 0.014620006 0.73100007 9.4804848e-41
0.0048732786 0.014620006 0.73100007 9.5527918e-41
0.0062656542 0.014620014 0.73100007 5.5542847e-40
0.0076580318 0.014620006 0.73100007 9.2058443e-40
0.0090504466 0.014620006 0.73100007 5.5141375e-40
0.010457107 0.014640003 0.73200011 1.1096182e-40
0.011851382 0.014639996 0.73200005 8.2269953e-39
0.01328186 0.014680006 0.73400009 1.6230397e-38
0.014679968 0.014680006 0.73400009 1.5326471e-38
0.016078077 0.014679998 0.73400009 1.4379367e-38
0.017523786 0.014719993 0.73600012 8.9283774e-39
0.018925702 0.01472 0.73600012 3.4167426e-39
0.020355204 0.014740005 0.73700011 3.5092255e-39
0.021759005 0.014740005 0.73700011 3.5917354e-39
0.023162821 0.014740013 0.73700011 2.6636974e-39
0.024666635 0.014800012 0.74000007 1.668257e-39
0.026146635 0.014840014 0.74200004 5.2688976e-39
0.027597101 0.014860004 0.74300009 8.8526036e-39
0.029012326 0.014860004 0.74300009 8.6667507e-39
0.030591408 0.014940016 0.7470001 8.3919351e-39
0.032057144 0.014959998 0.74800003 8.4833866e-39
0.033660937 0.01504001 0.75200003 8.5755753e-39
0.035139959 0.01506 0.75300008 8.482658e-39
0.036671363 0.015100002 0.75500011 8.3897266e-39
0.038109455 0.015100002 0.75500011 8.7552568e-39
-0.040794313 0.015902869 0.72600007 3.0476518e-39
-0.039411437 0.015902869 0.72600007 3.5064453e-39
-0.037976254 0.015880942 0.72500008 2.489055e-39
-0.036746707 0.015946671 0.7280001 1.5677993e-39
-0.035360027 0.015946679 0.7280001 1.2000664e-39
-0.033880014 0.015902862 0.72600007 9.245487e-40
-0.032720998 0.016012393 0.73100007 1.3876596e-39
-0.031371463 0.01603429 0.73200011 1.8443218e-39
-0.029977163 0.016034275 0.73200011 1.3840639e-39
-0.028660985 0.016078092 0.73400009 1.0152632e-39
-0.027262898 0.016078092 0.73400009 8.3085088e-40
-0.025864793 0.0160781 0.73400009 5.5500808e-40
-0.024533357 0.016121902 0.73600012 8.3125445e-40
-0.023068596 0.016078115 0.73400003 1.1071295e-39
-0.021729546 0.016121902 0.73600012 1.5670328e-39
-0.020327652 0.016121909 0.73600006 2.1183975e-39
-0.018951489 0.016143806 0.73700011 1.8432428e-39
-0.01752382 0.016121909 0.73600006 1.6613682e-39
-0.016078118 0.016078107 0.73400009 1.6606522e-39
-0.01468001 0.016078107 0.73400009 1.6606522e-39
-0.013245747 0.016034298 0.73200011 1.5684566e-39
-0.011851448 0.01603429 0.73200011 1.5684692e-39
-0.01045717 0.01603429 0.73200005 1.6603159e-39
-0.0090629095 0.016034283 0.73200011 1.658113e-39
-0.0076686097 0.016034283 0.73200011 1.3818386e-39
-0.0062743099 0.01603429 0.73200011 1.1045623e-39
-0.0048800083 0.016034283 0.73200011 2.1194387e-39
-0.00348577 0.01603429 0.73200011 3.1480562e-39
-0.0020886092 0.016012385 0.73100007 8.9657514e-39
-0.00069625396 0.016012393 0.73100007 1.4846344e-38
0.00069612358 0.016012385 0.73100007 7.4588581e-39
0.0020885384 0.016012378 0.73100007 9.2300727e-41
0.0034809159 0.016012378 0.73100007 2.7741786e-40
0.0048732916 0.016012378 0.73100007 3.7140855e-40
0.0062742671 0.01603429 0.73200011 4.6181052e-40
0.0076580597 0.016012385 0.73100007 5.51474e-40
0.0090504372 0.016012393 0.73100007 3.1282293e-39
0.010485684 0.0160781 0.73400009 5.7155041e-39
0.011883791 0.016078092 0.73400009 1.1081519e-38
0.013281875 0.016078107 0.73400003 1.6523882e-38
0.014719971 0.016121909 0.73600012 1.2919729e-38
0.016121887 0.016121909 0.73600012 9.3082876e-39
0.017523782 0.016121909 0.73600012 7.6469151e-39
0.018925697 0.016121909 0.73600012 6.0953919e-39
0.02035521 0.016143821 0.73700011 7.1041418e-39
0.021759009 0.016143821 0.73700011 8.0981599e-39
0.023225676 0.016187608 0.73900008 7.4520534e-39
0.024666628 0.016209528 0.74000007 6.9043166e-39
0.026146665 0.016253337 0.74200004 7.6577009e-39
0.027559984 0.016253345 0.74200004 8.3977309e-39
0.029012345 0.016275249 0.74300009 8.2093599e-39
0.030591384 0.016362861 0.7470001 8.1185628e-39
0.032142866 0.016428597 0.75000006 7.9330603e-39
0.033660918 0.016472384 0.75200009 7.7497522e-39
0.035139952 0.016494296 0.75300008 7.6557671e-39
0.03667137 0.016538098 0.75500011 7.5631862e-39
0.038159944 0.016560018 0.75600004 7.7439579e-39
0.039704714 0.016603813 0.75800008 7.9280114e-39
-0.042177163 0.01728572 0.72600007 4.7438858e-40
-0.040794291 0.017285727 0.72600007 1.1975609e-39
-0.039411452 0.017285727 0.72600007 1.842189e-39
-0.037976217 0.017261915 0.72500008 1.4698122e-39
-0.036595263 0.017261907 0.72500008 1.10534e-39
-0.035262864 0.017285727 0.72600007 6.4723874e-40
-0.033880025 0.01728572 0.72600007 9.8366948e-41
-0.032586671 0.017333344 0.7280001 5.5717589e-40
-0.03132863 0.017404765 0.73100007 9.248766e-40
-0.029977163 0.017428569 0.73200011 9.2631153e-40
-0.02866097 0.017476201 0.73400009 9.2342626e-40
-0.027262861 0.017476209 0.73400009 6.4646803e-40
-0.025864815 0.017476201 0.73400009 2.7986032e-40
-0.024533363 0.01752381 0.73600012 7.4084828e-40
-0.023131443 0.01752381 0.73600012 1.1078399e-39
-0.021729549 0.017523818 0.73600006 1.383715e-39
-0.020327637 0.017523825 0.73600012 1.6592215e-39
-0.018951485 0.017547622 0.73700011 1.6588627e-39
-0.017523827 0.01752381 0.73600006 1.568465e-39
-0.016121909 0.017523825 0.73600012 1.5695454e-39
-0.014680033 0.017476194 0.73400009 1.5688251e-39
-0.01328195 0.017476201 0.73400009 1.6606592e-39
-0.011883841 0.017476209 0.73400009 1.7539534e-39
-0.010457189 0.017428562 0.73200011 2.0319963e-39
-0.009062889 0.017428562 0.73200011 2.2131127e-39
-0.0076686135 0.017428562 0.73200011 1.749587e-39
-0.0062743137 0.017428577 0.73200005 1.1960629e-39
-0.0048800493 0.017428569 0.73200011 1.7452808e-39
-0.0034857513 0.017428577 0.73200011 2.323329e-39
-0.0020886203 0.017404765 0.73100007 8.7031579e-39
-0.00069624279 0.017404757 0.73100007 1.5019969e-38
0.00069613475 0.017404765 0.73100007 7.5445951e-39
0.0020885272 0.017404772 0.73100007 9.5888051e-41
0.0034809047 0.017404772 0.73100007 3.6781983e-40
0.0048732786 0.017404772 0.73100007 6.4510877e-40
0.0062656561 0.017404772 0.73100007 4.6035037e-40
0.0076580727 0.017404757 0.73100007 1.8450897e-40
0.0090504484 0.017404757 0.73100007 5.6943052e-39
0.010457103 0.017428569 0.73200005 1.1249719e-38
0.011883768 0.017476194 0.73400009 1.4042537e-38
0.013281875 0.017476194 0.73400009 1.6694627e-38
0.014719965 0.017523803 0.73600012 1.0427912e-38
0.016121881 0.017523818 0.73600012 4.1561335e-39
0.017547555 0.017547622 0.73700011 6.4390463e-39
0.018951394 0.01754763 0.73700011 8.6682557e-39
0.020355172 0.01754763 0.73700011 1.0713435e-38
0.021818051 0.017595239 0.73900008 1.2623292e-38
0.023225699 0.017595239 0.73900008 1.2325868e-38
0.02466662 0.017619051 0.74000007 1.2070457e-38
0.026146637 0.01766666 0.7420001 9.9682936e-39
0.027559953 0.017666668 0.7420001 7.8395264e-39
0.029012321 0.017690487 0.74300009 7.8384012e-39
0.030591398 0.017785721 0.7470001 7.8390836e-39
0.032142829 0.017857149 0.75000012 7.3802284e-39
0.033705655 0.017928585 0.75300008 6.8292169e-39
0.035139978 0.017928585 0.75300002 6.7352318e-39
0.036671381 0.017976202 0.75500005 6.6430221e-39
0.03810947 0.017976202 0.75500011 6.7298214e-39
0.039599996 0.018000022 0.75600004 6.7323437e-39
-0.044881005 0.018642858 0.72500008 1.2831408e-38
-0.043500047 0.018642858 0.72500008 6.5445347e-39
-0.042119097 0.01864285 0.72500008 2.7595631e-40
-0.040794306 0.018668585 0.72600007 1.103105e-39
-0.039357193 0.018642858 0.72500008 2.0207425e-39
-0.037976239 0.018642865 0.72500008 2.4838646e-39
-0.036595289 0.018642858 0.72500008 2.9409219e-39
-0.035214338 0.018642865 0.72500008 2.2141609e-39
-0.033833385 0.018642865 0.72500008 1.5698677e-39
-0.032497171 0.018668599 0.72600007 1.292199e-39
-0.031114331 0.018668585 0.72600007 1.1056637e-39
-0.029977167 0.018822864 0.73200005 1.0145499e-39
-0.028660992 0.018874288 0.73400009 9.2198853e-40
-0.027262883 0.018874288 0.73400009 6.4647363e-40
-0.025864776 0.018874288 0.73400009 3.7097835e-40
-0.024533367 0.018925712 0.73600012 7.3976508e-40
-0.023131453 0.018925712 0.73600012 1.1081931e-39
-0.021729557 0.018925726 0.73600006 1.6592145e-39
-0.020355297 0.018951423 0.73700011 2.3020699e-39
-0.018951481 0.018951431 0.73700011 1.9343762e-39
-0.01754768 0.018951423 0.73700011 1.5673986e-39
-0.016121915 0.018925719 0.73600006 1.4762847e-39
-0.014720039 0.018925712 0.73600012 1.3848052e-39
-0.013281913 0.018874303 0.73400003 1.6599501e-39
-0.011916229 0.018925726 0.73600012 1.9383629e-39
-0.010457191 0.018822856 0.73200011 2.9518184e-39
-0.0090628909 0.018822856 0.73200011 4.055603e-39
-0.0076685911 0.018822864 0.73200011 3.1314719e-39
-0.0062743137 0.018822864 0.73200005 2.1137242e-39
-0.0048800511 0.018822856 0.73200011 1.9321804e-39
-0.0034857513 0.018822849 0.73200011 1.8490848e-39
-0.0020886296 0.018797144 0.73100007 8.5019062e-39
-0.0006962521 0.018797144 0.73100007 1.5210813e-38
0.00069616269 0.018797144 0.73100007 7.6457577e-39
0.0020885384 0.018797144 0.73100007 9.2300727e-41
0.0034809159 0.018797144 0.73100007 5.5220828e-40
0.0048732692 0.018797144 0.73100007 1.0127969e-39
0.0062742261 0.018822849 0.73200011 9.1950122e-40
0.0076580616 0.018797152 0.73100007 9.1885242e-40
0.0090504372 0.018797152 0.73100007 7.6602205e-39
0.010457125 0.018822856 0.73200011 1.431227e-38
0.011883785 0.018874288 0.73400003 1.4403821e-38
0.013281892 0.018874295 0.73400003 1.457989e-38
0.014719984 0.018925726 0.73600012 8.2959041e-39
0.016121877 0.018925712 0.73600006 2.1127545e-39
0.017547581 0.018951423 0.73700011 3.4106091e-39
0.018951396 0.018951431 0.73700011 4.7204406e-39
0.020355199 0.018951431 0.73700011 8.5934138e-39
0.021818055 0.01900284 0.73900014 1.2468042e-38
0.023257138 0.019028582 0.74000001 1.2641628e-38
0.024666648 0.019028582 0.74000001 1.2837822e-38
0.026146645 0.019080006 0.74200004 8.396324e-39
0.027559964 0.019080013 0.74200004 4.0520129e-39
0.029012339 0.019105718 0.74300009 6.7263013e-39
0.030632393 0.019234292 0.74800003 9.4888659e-39
0.032142829 0.019285731 0.75000012 1.0781345e-38
0.033705685 0.019362867 0.75300002 1.2063455e-38
0.035233255 0.019414291 0.75500011 1.2346495e-38
0.036671385 0.019414306 0.75500005 1.2615185e-38
0.038109478 0.019414298 0.75500005 1.2986832e-38
0.039599974 0.019440003 0.7560001 1.3346282e-38
0.041039962 0.01944001 0.75600004 1.3354533e-38
-0.046325725 0.02005145 0.72600007 1.5781702e-38
-0.044880986 0.020023808 0.72500008 1.114855e-38
-0.043500036 0.020023815 0.72500008 5.6027822e-39
-0.04211906 0.020023808 0.72500008 9.4765611e-41
-0.040738169 0.020023808 0.72500008 1.1024043e-39
-0.039357197 0.0200238 0.72500014 2.1183303e-39
-0.037871461 0.019968577 0.72300011 3.4119151e-39
-0.036595289 0.0200238 0.72500014 4.6998051e-39
-0.035117175 0.019968569 0.72300011 3.882296e-39
-0.033833388 0.020023808 0.72500014 2.9535182e-39
-0.032452434 0.0200238 0.72500014 2.1194457e-39
-0.031800054 0.020493343 0.7420001 1.2900522e-39
-0.030181948 0.02035524 0.73700011 1.1045819e-39
-0.028778149 0.020355232 0.73700011 8.2942296e-40
-0.027374331 0.02035524 0.73700011 6.4574075e-40
-0.025970532 0.02035524 0.73700011 4.6315997e-40
-0.024566712 0.020355247 0.73700011 7.3904061e-40
-0.023162911 0.020355232 0.73700011 1.0156331e-39
-0.021759072 0.020355232 0.73700011 1.9339993e-39
-0.020355294 0.02035524 0.73700011 2.852364e-39
-0.018951455 0.020355247 0.73700011 2.2088093e-39
-0.017547676 0.02035524 0.73700011 1.5663294e-39
-0.016143838 0.02035524 0.73700011 1.3830283e-39
-0.014720042 0.02032762 0.73600012 1.1071435e-39
-0.013281933 0.020272389 0.73400009 1.5645091e-39
-0.011932419 0.020355247 0.73700011 2.0290998e-39
-0.010457193 0.02021715 0.73200011 3.9641346e-39
-0.0090628928 0.02021715 0.73200011 5.8926618e-39
-0.007668593 0.020217158 0.73200005 4.514751e-39
-0.0062743304 0.020217136 0.73200011 3.0392524e-39
-0.004880053 0.020217143 0.73200011 2.2044499e-39
-0.0034857551 0.020217143 0.73200011 1.3113365e-39
-0.0020886147 0.020189524 0.73100007 8.4276416e-39
-0.00069623906 0.020189516 0.73100007 1.5388031e-38
0.00069615338 0.020189531 0.73100007 7.7347387e-39
0.0020885291 0.020189531 0.73100007 9.7306165e-41
0.0034809066 0.020189531 0.73100007 7.3511277e-40
0.0048732841 0.020189531 0.73100007 1.2868418e-39
0.0062742447 0.020217136 0.73200011 1.4697939e-39
0.0076685222 0.020217143 0.73200011 1.6797561e-39
0.009062822 0.02021715 0.73200011 9.5310772e-39
0.010457124 0.02021715 0.73200005 1.7342855e-38
0.011883785 0.020272389 0.73400009 1.4864395e-38
0.013318062 0.02032762 0.73600012 1.2349238e-38
0.014719979 0.020327628 0.73600012 6.2463986e-39
0.016121874 0.020327628 0.73600006 9.4492358e-41
0.017547583 0.02035524 0.73700011 3.7071211e-40
0.018951362 0.020355247 0.73700011 6.6457561e-40
0.0203552 0.020355247 0.73700011 6.4717975e-39
0.021818077 0.020410478 0.73900008 1.2178161e-38
0.023257131 0.020438112 0.74000001 1.2842899e-38
0.024666639 0.02043812 0.74000001 1.3462377e-38
0.026146652 0.020493336 0.74200004 6.8185978e-39
0.027559973 0.020493343 0.74200004 1.9637516e-40
0.029012319 0.020520955 0.74300009 5.7097111e-39
0.030632379 0.020659044 0.74800003 1.1153442e-38
0.032142833 0.020714298 0.75000012 1.4193307e-38
0.033705674 0.020797156 0.75300008 1.7231795e-38
0.035233263 0.02085238 0.75500011 1.7880051e-38
0.036671355 0.020852394 0.75500011 1.8521815e-38
0.038109485 0.020852387 0.75500005 1.9255775e-38
0.039599989 0.020880006 0.7560001 1.9899336e-38
0.041039977 0.020880021 0.75600004 1.9812159e-38
-0.04626194 0.021404766 0.72500008 1.6115313e-38
-0.04488099 0.021404766 0.72500008 1.359219e-38
-0.043380007 0.021345712 0.72300005 7.4483806e-39
-0.042119086 0.021404766 0.72500008 1.2035753e-39
-0.040738132 0.021404773 0.72500008 1.7517268e-39
-0.039357182 0.021404773 0.72500008 2.213407e-39
-0.037871469 0.021345712 0.72300005 2.7683576e-39
-0.0364943 0.021345705 0.72300011 3.3294669e-39
-0.035117157 0.021345712 0.72300005 2.8660351e-39
-0.03374001 0.021345705 0.72300005 2.4057534e-39
-0.032362867 0.02134572 0.72300005 1.752831e-39
-0.03180005 0.021906666 0.74200004 1.1971405e-39
-0.030386703 0.021906674 0.7420001 9.2090112e-40
-0.028895283 0.021847621 0.74000007 7.3649865e-40
-0.027448609 0.021818101 0.73900008 5.5352971e-40
-0.026040997 0.021818079 0.73900008 4.6386623e-40
-0.024633372 0.021818101 0.73900008 8.3158516e-40
-0.023225727 0.021818094 0.73900008 1.200016e-39
-0.021818118 0.021818087 0.73900008 1.8425183e-39
-0.020410493 0.021818087 0.73900008 2.3928278e-39
-0.019002905 0.021818087 0.73900008 2.117334e-39
-0.017547648 0.021759048 0.73700011 1.8411268e-39
-0.016143871 0.021759048 0.73700011 1.9333379e-39
-0.014740032 0.021759056 0.73700011 2.0247796e-39
-0.013336255 0.021759063 0.73700011 2.0251019e-39
-0.011932415 0.021759041 0.73700011 2.0272837e-39
-0.010514322 0.021729529 0.73600012 3.4102252e-39
-0.0091124279 0.021729529 0.73600012 4.7913435e-39
-0.0076895459 0.021670483 0.73400009 4.0584504e-39
-0.0062743323 0.021611415 0.73200011 3.4155613e-39
-0.0048800325 0.02161143 0.73200011 2.3981556e-39
-0.0034952825 0.021670483 0.73400009 1.4889006e-39
-0.0020886278 0.021581918 0.73100007 8.319296e-39
-0.0006962521 0.021581911 0.73100007 1.5118267e-38
0.00069616456 0.021581911 0.73100007 7.5568215e-39
0.0020885179 0.021581911 0.73100007 9.2265695e-41
0.0034808954 0.021581911 0.73100007 3.6772034e-40
0.004879945 0.021611422 0.73200011 7.3508474e-40
0.0062742447 0.021611422 0.73200011 3.0396027e-39
0.0076685427 0.021611422 0.73200011 5.4525756e-39
0.0090628443 0.02161143 0.73200011 1.2008549e-38
0.010485691 0.021670498 0.73400003 1.8540678e-38
0.011916163 0.021729536 0.73600012 1.2639499e-38
0.013318056 0.021729521 0.73600012 6.8189678e-39
0.014719973 0.021729529 0.73600012 3.4055294e-39
0.016143749 0.021759048 0.73700011 9.6969854e-41
0.017547587 0.021759056 0.73700011 6.4765353e-40
0.018951388 0.021759041 0.73700011 1.1972568e-39
0.020410473 0.021818087 0.73900008 4.3365493e-39
0.021847611 0.021847636 0.74000001 7.470849e-39
0.02325712 0.021847636 0.74000001 9.9712685e-39
0.024733307 0.021906674 0.7420001 1.2534336e-38
0.026146624 0.021906666 0.7420001 6.3536596e-39
0.027559962 0.021906674 0.7420001 1.8419648e-40
0.029012335 0.021936201 0.74300003 7.2860374e-39
0.030632362 0.022083804 0.74800009 1.4395363e-38
0.032142833 0.022142865 0.75000012 1.7339087e-38
0.033660915 0.022201918 0.75200009 2.0382266e-38
0.035139944 0.022231437 0.75300008 2.0654596e-38
0.036671359 0.022290483 0.75500011 2.1029816e-38
0.038109489 0.022290476 0.75500005 2.1298132e-38
0.039600004 0.02232001 0.75600004 2.1672639e-38
0.041039955 0.022320002 0.7560001 2.1575054e-38
-0.04764292 0.022785708 0.72500008 1.6852806e-38
-0.046261966 0.022785716 0.72500008 1.6479291e-38
-0.044881012 0.022785716 0.72500008 1.610755e-38
-0.043380044 0.022722863 0.72300011 9.2111846e-39
-0.042002879 0.022722855 0.72300011 2.3073837e-39
-0.040625732 0.022722863 0.72300011 2.3038005e-39
-0.039248589 0.022722863 0.72300011 2.3037963e-39
-0.037871446 0.022722863 0.72300005 2.1179701e-39
-0.036443859 0.022691436 0.72200012 1.939355e-39
-0.035068601 0.022691444 0.72200012 1.9375964e-39
-0.033740018 0.022722863 0.72300005 1.8453798e-39
-0.032362875 0.022722863 0.72300005 1.4722756e-39
-0.032014348 0.023477152 0.7470001 1.0138156e-39
-0.030427674 0.023351438 0.74300009 8.2942716e-40
-0.02897338 0.023320004 0.7420001 5.5355353e-40
-0.027485719 0.023257159 0.74000001 5.5211159e-40
-0.026076211 0.023257159 0.74000001 4.6280404e-40
-0.02466668 0.023257151 0.74000001 9.227172e-40
-0.023225743 0.023225702 0.73900008 1.3829779e-39
-0.021818133 0.02322571 0.73900008 1.6592088e-39
-0.02041051 0.02322571 0.73900008 1.9350825e-39
-0.019002901 0.023225695 0.73900014 2.0269264e-39
-0.017547645 0.023162857 0.73700011 2.1180612e-39
-0.016143868 0.023162864 0.73700011 2.4847026e-39
-0.014740028 0.023162857 0.73700011 2.8520221e-39
-0.013318135 0.023131423 0.73600012 2.3924635e-39
-0.011932413 0.023162864 0.73700011 1.9361713e-39
-0.010514325 0.02313143 0.73600012 2.7659348e-39
-0.0090876529 0.023068577 0.73400009 3.5974779e-39
-0.0076895664 0.023068577 0.73400009 3.6950559e-39
-0.0062743342 0.023005709 0.73200011 3.7803936e-39
-0.0048800344 0.023005717 0.73200011 2.6668475e-39
-0.0034857364 0.023005717 0.73200005 1.5861129e-39
-0.0020914739 0.023005717 0.73200011 8.2425202e-39
-0.0006971946 0.023005717 0.73200011 1.4745904e-38
0.00069710519 0.023005702 0.73200011 7.4649972e-39
0.002091405 0.023005717 0.73200005 9.8731286e-41
0.0034856675 0.023005709 0.73200011 9.2219452e-41
0.0048799654 0.023005717 0.73200011 9.2274103e-41
0.0062742429 0.023005717 0.73200011 4.684105e-39
0.0076685445 0.023005724 0.73200011 9.2293511e-39
0.0090628443 0.023005724 0.73200005 1.450964e-38
0.010485693 0.02306857 0.73400009 1.9633726e-38
0.011916158 0.02313143 0.73600012 1.0425736e-38
0.013318074 0.02313143 0.73600012 1.211969e-39
0.014719968 0.02313143 0.73600012 6.4329549e-40
0.016143775 0.023162872 0.73700011 9.6613924e-41
0.017547553 0.023162849 0.73700011 9.2566974e-40
0.018951392 0.023162849 0.73700011 1.6564217e-39
0.020410454 0.023225717 0.73900008 2.2056536e-39
0.02181804 0.023225702 0.73900008 2.7854226e-39
0.023257114 0.023257151 0.74000001 7.2204902e-39
0.024733314 0.023320019 0.74200004 1.1518741e-38
0.026146634 0.023319997 0.74200004 5.7861169e-39
0.027597075 0.023351423 0.74300009 1.0240969e-40
0.029012339 0.023351423 0.74300009 8.8551693e-39
0.030632384 0.023508579 0.74800003 1.7517839e-38
0.032142837 0.023571439 0.75000012 2.0477023e-38
0.033660937 0.0236343 0.75200003 2.341506e-38
0.035139974 0.023665726 0.75300002 2.3417588e-38
0.036671367 0.023728572 0.75500011 2.3415783e-38
0.038159985 0.023760021 0.75600004 2.3417565e-38
0.039704725 0.023822866 0.75800008 2.3416497e-38
-0.049023833 0.024166673 0.72500008 1.1241236e-38
-0.047642879 0.024166666 0.72500008 1.5428932e-38
-0.046261929 0.024166666 0.72500008 1.7592659e-38
-0.044757169 0.024099991 0.72300011 1.9820717e-38
-0.043380026 0.024099991 0.72300011 1.1793332e-38
-0.042002879 0.024099998 0.72300005 3.8574552e-39
-0.04062574 0.024099991 0.72300005 2.6678985e-39
-0.039248597 0.024100006 0.72300005 1.4783433e-39
-0.037819095 0.024066679 0.72200012 1.7513386e-39
-0.036443874 0.024066664 0.72200012 1.9332342e-39
-0.034971464 0.024000011 0.72000009 2.2101938e-39
-0.033693369 0.024066672 0.72200012 2.4846073e-39
-0.032318149 0.024066672 0.72200012 1.8424595e-39
-0.032057151 0.024933331 0.74800003 1.2907444e-39
-0.030591473 0.024900012 0.7470001 1.0148932e-39
-0.029090524 0.024833336 0.74500012 7.3831053e-40
-0.027560027 0.024733335 0.7420001 5.542794e-40
-0.026181946 0.024766676 0.74300009 3.7170142e-40
-0.02473337 0.02473332 0.7420001 8.3125445e-40
-0.023257174 0.024666682 0.74000001 1.2907921e-39
-0.021847643 0.024666682 0.74000001 1.4758994e-39
-0.020410525 0.024633326 0.73900008 1.752845e-39
-0.019002879 0.024633333 0.73900008 1.9354426e-39
-0.017595293 0.024633326 0.73900008 2.0272949e-39
-0.016143842 0.024566665 0.73700011 2.2109813e-39
-0.014740066 0.024566665 0.73700011 2.3024497e-39
-0.013336225 0.02456668 0.73700011 1.7514283e-39
-0.011916227 0.024533339 0.73600012 1.2022104e-39
-0.010514331 0.024533331 0.73600012 2.1237953e-39
-0.0090876361 0.024466679 0.73400009 3.0450272e-39
-0.0076895291 0.024466679 0.73400009 3.2319338e-39
-0.0062914835 0.024466679 0.73400009 3.4159228e-39
-0.0048800362 0.024400011 0.73200005 2.3956458e-39
-0.0034857756 0.024400003 0.73200011 1.38522e-39
-0.0020886241 0.024366662 0.73100007 8.039828e-39
-0.00069717411 0.024399996 0.73200011 1.4658376e-38
0.00069712568 0.024399996 0.73200011 7.3760428e-39
0.0020914031 0.024400003 0.73200005 9.228251e-41
0.0034856638 0.024399996 0.73200011 9.2223656e-41
0.0048932983 0.024466671 0.73400009 9.2313339e-41
0.0062742652 0.024400003 0.73200011 5.7087162e-39
0.0076685427 0.024400003 0.73200005 1.1353086e-38
0.0090875989 0.024466671 0.73400009 1.5138505e-38
0.010514258 0.024533331 0.73600012 1.8895805e-38
0.011916154 0.024533339 0.73600012 9.7685119e-39
0.013318068 0.024533339 0.73600012 7.3520385e-40
0.014719986 0.024533339 0.73600012 8.2840701e-40
0.016143778 0.024566673 0.73700011 9.2456972e-40
0.017547579 0.024566665 0.73700011 1.1990224e-39
0.018951397 0.024566673 0.73700011 1.3787488e-39
0.020410437 0.024633333 0.73900008 3.1318754e-39
0.021818085 0.024633333 0.73900008 4.9894535e-39
0.023257123 0.024666674 0.74000001 8.8692047e-39
0.024733286 0.024733342 0.7420001 1.2727646e-38
0.026146667 0.024733342 0.74200004 6.4429279e-39
0.027597088 0.024766669 0.74300009 9.3804321e-41
0.029090429 0.024833329 0.74500012 9.3194055e-39
0.03071429 0.025000021 0.75000006 1.8446309e-38
0.032228556 0.025066666 0.75200003 2.0932717e-38
0.033705682 0.025100008 0.75300002 2.3414052e-38
0.035233285 0.025166675 0.75500005 2.3321482e-38
0.03671997 0.025200009 0.7560001 2.3135292e-38
0.038159959 0.025200009 0.75600004 2.3137436e-38
0.039704718 0.025266662 0.75800008 2.3138183e-38
-0.050404809 0.025547609 0.72500008 1.3049003e-39
-0.049023855 0.025547616 0.72500008 7.6228843e-39
-0.047642905 0.025547609 0.72500008 1.4000391e-38
-0.046261951 0.025547616 0.72500008 1.8733827e-38
-0.044757172 0.025477156 0.72300005 2.3403402e-38
-0.043380029 0.025477149 0.72300005 1.4376215e-38
-0.042002883 0.025477149 0.72300005 5.3393816e-39
-0.040569585 0.025441915 0.72200012 3.0320105e-39
-0.039248575 0.025477149 0.72300005 6.4787493e-40
-0.037871432 0.025477156 0.72300005 1.2921583e-39
-0.036443859 0.025441915 0.72200012 1.9343076e-39
-0.035068605 0.025441907 0.72200012 2.4856989e-39
-0.033693384 0.025441915 0.72200012 3.0377965e-39
-0.033571459 0.026428588 0.75000012 2.3052747e-39
-0.032057166 0.026358098 0.74800003 1.5684327e-39
-0.03059146 0.026322871 0.7470001 1.2014425e-39
-0.029090526 0.026252396 0.74500012 8.3157535e-40
-0.027597172 0.026181914 0.74300009 5.5533738e-40
-0.02618197 0.026181914 0.74300009 1.8802202e-40
-0.024766704 0.026181899 0.74300009 6.47945e-40
-0.023257187 0.026076205 0.74000001 1.1071253e-39
-0.021847652 0.026076198 0.74000007 1.3837108e-39
-0.020410484 0.026040964 0.73900008 1.5677349e-39
-0.019002896 0.026040941 0.73900008 1.7506842e-39
-0.017547678 0.025970474 0.73700011 1.9361783e-39
-0.016143838 0.025970481 0.73700011 1.8461659e-39
-0.014740062 0.025970489 0.73700011 1.7525241e-39
-0.013336222 0.025970481 0.73700011 1.1085868e-39
-0.011932421 0.025970474 0.73700011 4.6789075e-40
-0.010514314 0.02593524 0.73600012 1.4816685e-39
-0.0090876603 0.025864772 0.73400009 2.401464e-39
-0.0076895533 0.025864772 0.73400009 2.6794873e-39
-0.0062914426 0.025864765 0.73400009 2.9513728e-39
-0.0048800139 0.02579429 0.73200011 2.1140577e-39
-0.0034857513 0.025794283 0.73200011 1.2173374e-39
-0.0020886371 0.025759056 0.73100007 7.8730119e-39
-0.00069717411 0.025794283 0.73200011 1.4471836e-38
0.00069712382 0.02579429 0.73200005 7.2881603e-39
0.0020913864 0.025794283 0.73200011 1.0055017e-40
0.0034856638 0.02579429 0.73200011 9.2253083e-41
0.0048933132 0.025864765 0.73400003 9.2348371e-41
0.0062913829 0.025864765 0.73400009 6.7964363e-39
0.0076894918 0.025864772 0.73400009 1.3464606e-38
0.0090875765 0.02586478 0.73400009 1.5887179e-38
0.010514255 0.025935255 0.73600012 1.8150695e-38
0.011916171 0.025935233 0.73600012 9.2002363e-39
0.013318063 0.025935233 0.73600012 1.881089e-40
0.01471998 0.025935248 0.73600012 1.0106305e-39
0.016143782 0.025970489 0.73700011 1.7496458e-39
0.017547583 0.025970489 0.73700011 1.4748834e-39
0.018951362 0.025970466 0.73700011 1.1053793e-39
0.020410458 0.026040949 0.73900008 4.1366583e-39
0.021847585 0.026076198 0.74000001 7.1055992e-39
0.023257116 0.026076198 0.74000001 1.0539459e-38
0.024733294 0.02614668 0.74200004 1.3911078e-38
0.026181867 0.026181906 0.74300009 6.9799041e-39
0.027671354 0.026252382 0.74500012 1.1317727e-40
0.029090423 0.026252382 0.74500012 9.7904716e-39
0.03071429 0.026428588 0.75000006 1.936397e-38
0.03214284 0.02642858 0.75000012 2.1392966e-38
0.033660933 0.026499055 0.75200003 2.3414044e-38
0.035233289 0.026604772 0.75500005 2.3134929e-38
0.036719985 0.026639998 0.7560001 2.2859425e-38
0.03826087 0.026710473 0.75800008 2.2858712e-38
0.039704714 0.026710473 0.75800008 2.2860873e-38
-0.051785786 0.026928574 0.72500014 1.1993938e-39
-0.050404835 0.026928574 0.72500014 7.3511977e-40
-0.049023882 0.026928581 0.72500014 9.6707096e-39
-0.047642905 0.026928566 0.72500014 1.871586e-38
-0.046134297 0.026854299 0.72300011 2.1117285e-38
-0.044757154 0.026854284 0.72300005 2.3417418e-38
-0.043380011 0.026854292 0.72300005 1.5110192e-38
-0.042002868 0.026854284 0.72300005 6.7961981e-39
-0.040569577 0.026817143 0.72200012 3.5826619e-39
-0.039248578 0.026854284 0.72300005 4.6169001e-40
-0.037871432 0.026854292 0.72300005 1.1066909e-39
-0.036494326 0.026854284 0.72300005 1.7502764e-39
-0.035117161 0.026854277 0.72300011 2.2109071e-39
-0.035000011 0.02785717 0.75000006 2.7633914e-39
-0.033571459 0.027857162 0.75000012 2.2124135e-39
-0.032142874 0.02785717 0.75000006 1.6602977e-39
-0.030632401 0.027782857 0.74800003 1.1996572e-39
-0.029168606 0.027745724 0.7470001 7.3865945e-40
-0.027671499 0.027671419 0.74500012 5.546017e-40
