# .PCD v0.7 - Point Cloud Data file format
VERSION 0.7
FIELDS x y z rgb
SIZE 4 4 4 4
TYPE F F F F
COUNT 1 1 1 1
WIDTH 960
HEIGHT 1
VIEWPOINT 0 0 0 1 0 0 0
POINTS 960
DATA ascii
0.045933317 -0.0021200106 0.74200004 8.852846e-39
0.047410492 -0.0021228716 0.74300003 8.8517754e-39
0.048825711 -0.0021228716 0.74300003 9.2187642e-39
0.050240956 -0.0021228716 0.74300003 9.5857503e-39
-0.032228593 -0.00071619451 0.75199997 8.372216e-39
-0.030796202 -0.00071617961 0.75199997 4.2301739e-39
-0.029363811 -0.00071618706 0.75199997 1.912324e-40
-0.02793142 -0.00071619451 0.75199997 1.757126e-39
-0.026428604 -0.00071430206 0.75000006 3.3201105e-39
-0.024833344 -0.00070951879 0.745 2.859484e-39
-0.023414278 -0.00070951879 0.74500006 2.4917973e-39
-0.021995241 -0.00070952624 0.74500006 2.1223156e-39
-0.020520965 -0.00070762634 0.74300003 1.8446609e-39
-0.019105719 -0.00070764124 0.74300003 1.5666475e-39
-0.017690498 -0.00070762634 0.74300003 1.2875467e-39
-0.01618761 -0.0007038191 0.73900002 1.013108e-39
-0.014780003 -0.00070380419 0.73900002 8.2977889e-40
-0.013336198 -0.0007019043 0.73700005 6.4609108e-40
-0.011916194 -0.00070095807 0.73600006 5.5356614e-40
-0.01048574 -0.00069907308 0.73400003 7.3833996e-40
-0.0090876352 -0.00069905072 0.73400003 1.0138464e-39
-0.0076685864 -0.00069714338 0.73200005 9.2236968e-40
-0.0062914584 -0.00069905072 0.73400003 8.3089432e-40
-0.0048799906 -0.00069714338 0.73200005 6.4829952e-40
-0.0034857357 -0.00069714338 0.73200005 5.5682977e-40
-0.0020828603 -0.0006943047 0.72900003 6.4759607e-40
-0.00069431792 -0.00069429725 0.72900003 7.3836658e-40
0.00069428032 -0.0006942898 0.72900003 9.2169005e-40
0.0020828207 -0.00069431216 0.72900003 1.1975539e-39
0.0034714171 -0.0006942898 0.72900003 1.1057156e-39
0.0048533436 -0.00069334358 0.72800004 1.106433e-39
0.0062485561 -0.0006942898 0.72900003 1.0138787e-39
0.007626662 -0.00069333613 0.72799999 9.2237669e-40
0.0090133352 -0.00069334358 0.72800004 9.2199273e-40
0.01040001 -0.00069332868 0.72800004 9.2165082e-40
0.011754277 -0.00069145113 0.72600001 8.2911467e-40
0.013137134 -0.00069142878 0.72600001 7.3688541e-40
0.014519987 -0.00069144368 0.72600001 4.6098516e-40
0.01588095 -0.00069048256 0.72500002 2.7698906e-40
0.017285695 -0.00069144368 0.72600001 3.6993299e-40
0.018668577 -0.00069143623 0.72600001 5.5467037e-40
0.020051433 -0.00069143623 0.72599995 9.2200114e-40
0.021434287 -0.00069143623 0.72600001 1.289004e-39
0.022817144 -0.00069142878 0.72600001 1.2886635e-39
0.024266664 -0.00069333613 0.72799999 1.2886579e-39
0.02568855 -0.00069429725 0.72900009 9.2202636e-40
0.027077122 -0.00069429725 0.72900003 6.4650586e-40
0.028465688 -0.0006943047 0.72900003 4.6246212e-40
0.029854285 -0.0006942898 0.72900003 3.7136932e-40
0.031328563 -0.00069618225 0.73099995 9.2348371e-40
0.03272095 -0.00069619715 0.73100001 1.4755771e-39
0.03411331 -0.0006962046 0.73100001 2.398241e-39
0.035554294 -0.00069713593 0.73199999 3.4127195e-39
0.037049502 -0.00069905072 0.73400003 3.3212259e-39
0.038447607 -0.00069905072 0.73399997 3.3211881e-39
0.039954271 -0.00070096552 0.73600006 2.6765067e-39
0.041412372 -0.0007019043 0.73699999 2.0304745e-39
0.042932391 -0.00070381165 0.73900002 5.4452917e-39
0.044340003 -0.0007038191 0.73900002 8.8546649e-39
0.045933314 -0.00070668012 0.74200004 8.9450458e-39
0.047410484 -0.00070761889 0.74300003 9.033989e-39
0.04895715 -0.00070951879 0.745 9.4938602e-39
0.050376218 -0.00070951134 0.745 9.9519853e-39
-0.032228589 0.00071618706 0.75200003 6.9946499e-39
-0.030796196 0.00071619451 0.75200003 3.5819445e-39
-0.029363805 0.00071618706 0.75200003 9.9045177e-41
-0.027931444 0.00071619451 0.75199997 1.4819922e-39
-0.026499052 0.00071620196 0.75199997 2.7673038e-39
-0.024933344 0.00071237981 0.74800003 2.7647661e-39
-0.023414264 0.00070953369 0.745 2.6736677e-39
-0.021995226 0.00070954114 0.745 2.2148699e-39
-0.020520942 0.00070761144 0.74300003 1.6613514e-39
-0.019105697 0.00070761144 0.74300003 1.4751735e-39
-0.017690478 0.00070761144 0.74300003 1.2893459e-39
-0.016209509 0.00070475787 0.74000001 1.1056707e-39
-0.014779993 0.00070380419 0.73900002 9.216326e-40
-0.013336177 0.0007019043 0.73699999 6.4575897e-40
-0.011932387 0.00070189685 0.73699999 3.7062383e-40
-0.010514304 0.00070094317 0.73600006 8.3017265e-40
-0.0090876296 0.00069903582 0.73400003 1.2882781e-39
-0.0076685976 0.00069714338 0.73200005 1.1038939e-39
-0.0062914528 0.00069903582 0.73400003 9.2201375e-40
-0.0048800036 0.00069714338 0.73200005 8.3125305e-40
-0.0034809543 0.00069619715 0.73100001 6.4723173e-40
-0.0020828603 0.0006942749 0.72900003 8.3163e-40
-0.00069431978 0.00069426745 0.72900003 9.2240331e-40
0.00069427845 0.00069426745 0.72900003 1.1968462e-39
0.0020828207 0.00069426745 0.72900003 1.3812235e-39
0.0034714171 0.0006942749 0.72900003 1.2900928e-39
0.0048533492 0.00069333613 0.72799999 1.1071505e-39
0.0062485561 0.0006942749 0.72900003 1.1071617e-39
0.0076266974 0.00069332868 0.72799999 1.0153052e-39
0.0090133427 0.00069332123 0.72800004 1.0163618e-39
0.010400016 0.00069332868 0.72799999 9.2309976e-40
0.011786662 0.00069332868 0.72800004 8.3019647e-40
0.013137149 0.00069142133 0.72600001 6.4578559e-40
0.014520001 0.00069142133 0.72600001 5.5285148e-40
0.015902858 0.00069142133 0.72600001 3.6992037e-40
0.01728571 0.00069142133 0.72600001 5.5468858e-40
0.018668568 0.00069142878 0.72600001 6.4687861e-40
0.020051418 0.00069141388 0.72600001 1.0152926e-39
0.021493349 0.00069332868 0.72799999 1.2897341e-39
0.022879994 0.00069333613 0.72800004 1.380506e-39
0.024266696 0.00069332868 0.72799999 1.4726946e-39
0.025688551 0.00069426745 0.72900009 1.0135115e-39
0.027077122 0.00069426745 0.72900003 5.5432705e-40
0.02846569 0.00069426745 0.72900003 3.6885539e-40
0.029854286 0.00069426745 0.72900003 9.5159376e-41
0.031328555 0.0006961897 0.73100001 8.3165382e-40
0.032720942 0.00069618225 0.73099995 1.568493e-39
0.034113329 0.0006961897 0.73100001 2.4900807e-39
0.035554279 0.00069715828 0.73199999 3.4112902e-39
0.037049506 0.00069902837 0.73400003 3.6882162e-39
0.038552377 0.00070095062 0.736 3.8718633e-39
0.040008575 0.00070191175 0.73699999 2.9527671e-39
0.041412365 0.00070189685 0.73699999 1.9458234e-39
0.042932373 0.00070380419 0.73900002 5.448865e-39
0.044400003 0.00070475787 0.74000001 8.9429242e-39
0.04593331 0.00070665032 0.74200004 9.1309056e-39
0.047410473 0.00070760399 0.74300003 9.2205593e-39
0.048957158 0.00070953369 0.74500006 9.7704667e-39
0.050376195 0.00070952624 0.74500006 1.0320423e-38
-0.032271434 0.0021514371 0.75299996 7.5363037e-39
-0.030796221 0.0021485761 0.75200003 3.8610383e-39
-0.029402856 0.0021514371 0.75299996 2.8415811e-40
-0.027931442 0.0021485612 0.75200003 1.6645996e-39
-0.02649905 0.0021485761 0.75200003 3.1346458e-39
-0.025000032 0.002142854 0.75000006 2.857305e-39
-0.02347715 0.0021342784 0.74700004 2.6722271e-39
-0.021995248 0.0021285713 0.745 2.2130777e-39
-0.020576183 0.0021285713 0.74500006 1.8446651e-39
-0.019105734 0.0021228567 0.74300003 1.7506828e-39
-0.017690491 0.0021228418 0.74300003 1.7485304e-39
-0.016209532 0.0021142885 0.74000001 1.3808283e-39
-0.01478001 0.0021114275 0.73900002 9.2165082e-40
-0.013336184 0.0021057054 0.73699999 7.3761969e-40
-0.011932395 0.0021057129 0.73699999 5.5466476e-40
-0.010514306 0.0021028444 0.73600006 7.3725815e-40
-0.0091124121 0.0021028593 0.73600006 1.0116969e-39
-0.0076895505 0.0020971373 0.73400003 9.2058723e-40
-0.0062914751 0.0020971298 0.73400003 9.2165782e-40
-0.0048800185 0.0020914152 0.73200005 8.2981672e-40
-0.0034857059 0.0020914301 0.73199999 6.4508214e-40
-0.0020828845 0.0020828471 0.72900003 6.4616955e-40
-0.00069431606 0.0020828322 0.72900003 6.465437e-40
0.00069427845 0.0020828471 0.72900003 1.0139011e-39
0.0020828207 0.0020828396 0.72900003 1.3812221e-39
0.003471419 0.0020828471 0.72900003 1.4741113e-39
0.0048533287 0.0020799935 0.72800004 1.5674042e-39
0.0062400028 0.0020800084 0.72799999 1.3826794e-39
0.0076266732 0.0020800009 0.72800004 1.1986357e-39
0.0089885723 0.0020742714 0.72600001 1.107861e-39
0.010399994 0.0020799935 0.72800004 1.1075022e-39
0.011754282 0.0020742714 0.72600001 9.2275364e-40
0.013137133 0.0020742714 0.72600007 8.30551e-40
0.014519989 0.0020742863 0.72600001 6.4615273e-40
0.015902871 0.0020742789 0.72600001 3.7101619e-40
0.017285699 0.0020742789 0.72600001 5.5469699e-40
0.018668583 0.0020742789 0.72600001 7.3836938e-40
0.020051409 0.0020742789 0.72600001 9.2275924e-40
0.021493327 0.002079986 0.72800004 1.1064358e-39
0.022880003 0.0020800084 0.72799999 1.1975581e-39
0.024299983 0.0020828471 0.72900003 1.1971951e-39
0.025688551 0.0020828322 0.72900009 8.3056501e-40
0.027077124 0.0020828471 0.72900003 4.6358176e-40
0.02846569 0.0020828322 0.72900003 3.7031134e-40
0.029936187 0.002088584 0.73099995 3.6996241e-40
0.031328544 0.0020885691 0.73100001 9.2349492e-40
0.032720961 0.0020885617 0.73099995 1.5688573e-39
0.034113321 0.0020885691 0.73100001 2.3986068e-39
0.035554294 0.0020914227 0.73200005 3.2276248e-39
0.037150476 0.0021028519 0.73600006 3.5045522e-39
0.038604777 0.0021057129 0.73699999 3.7807663e-39
0.040171441 0.0021142736 0.74000001 2.9535196e-39
0.041580945 0.0021142885 0.74000001 2.126277e-39
0.043106657 0.0021199808 0.74200004 5.536739e-39
0.04451998 0.0021199808 0.7420001 8.938988e-39
0.045995247 0.0021228418 0.74300003 9.0340829e-39
0.047410492 0.0021228492 0.74300003 9.1305469e-39
0.048957143 0.0021285638 0.74500006 9.4957001e-39
0.05037621 0.0021285713 0.745 9.8627001e-39
-0.032228578 0.0035809577 0.75199997 8.0069774e-39
-0.030796217 0.0035809577 0.75200003 4.224793e-39
-0.029402887 0.0035857186 0.75300002 4.656683e-40
-0.027931437 0.0035809427 0.75200003 1.9411655e-39
-0.026499072 0.0035809577 0.75200003 3.4101593e-39
-0.024933351 0.0035618916 0.74800003 3.041367e-39
-0.023508569 0.0035618916 0.74800003 2.5807714e-39
-0.02205432 0.0035571307 0.74700004 2.303488e-39
-0.020576173 0.0035476312 0.745 1.9347083e-39
-0.019157134 0.0035476312 0.745 2.1173003e-39
-0.01769047 0.003538087 0.74300003 2.2077023e-39
-0.0162095 0.0035237968 0.74000001 1.563063e-39
-0.014780002 0.0035190359 0.73900002 9.2058022e-40
-0.013372393 0.0035190433 0.73900002 8.2803567e-40
-0.011932405 0.0035095066 0.73699999 6.4507794e-40
-0.010514282 0.0035047606 0.73600006 6.4435627e-40
-0.0091123898 0.003504768 0.73600006 6.4508495e-40
-0.0076895449 0.0034952313 0.73400003 8.2912728e-40
-0.0062914416 0.0034952238 0.73399997 9.213089e-40
-0.0048800018 0.0034857243 0.73199999 8.2874473e-40
-0.003485719 0.0034857094 0.73200005 6.4544228e-40
-0.0020828845 0.0034714267 0.72900003 4.6106363e-40
-0.00069431606 0.0034714118 0.72900009 2.7883737e-40
0.00069428218 0.0034714118 0.72900003 8.3093776e-40
0.0020828226 0.0034714192 0.72900003 1.3822983e-39
0.0034666581 0.0034666583 0.72800004 1.7499864e-39
0.0048533343 0.0034666583 0.72799999 2.0255069e-39
0.0062400065 0.0034666583 0.72800004 1.65746e-39
0.0076266825 0.0034666583 0.72800004 1.2908271e-39
0.0089885872 0.0034571365 0.72600001 1.2922536e-39
0.010400001 0.0034666732 0.72799999 1.1993377e-39
0.011754295 0.0034571514 0.72600001 1.106782e-39
0.013137122 0.0034571365 0.72600001 1.0135101e-39
0.014520004 0.003457129 0.72600001 7.3836238e-40
0.01590283 0.0034571365 0.72600001 3.7067427e-40
0.017333338 0.0034666508 0.72800004 5.5435788e-40
0.018720014 0.0034666583 0.72800004 7.383834e-40
0.020106656 0.0034666583 0.72800004 8.3021609e-40
0.021493332 0.0034666583 0.72799999 9.2241172e-40
0.022880005 0.0034666583 0.72800004 9.2205579e-40
0.024299985 0.0034714118 0.72900003 9.2204318e-40
0.025688551 0.0034714118 0.72900009 6.4724154e-40
0.027077124 0.0034714118 0.72900003 3.710232e-40
0.028465692 0.0034714192 0.72900009 4.6214683e-40
0.029936207 0.003480956 0.73099995 5.5506974e-40
0.031328563 0.0034809485 0.73100001 1.1075289e-39
0.032720953 0.003480956 0.73099995 1.5702965e-39
0.034159999 0.0034857094 0.73199999 2.3082132e-39
0.035554279 0.0034857169 0.73200005 3.0446768e-39
0.037150472 0.003504768 0.73600006 3.4137999e-39
0.038604766 0.003509514 0.73699999 3.6889434e-39
0.040117148 0.0035190359 0.73900002 2.9538979e-39
0.041580979 0.0035237968 0.74000001 2.2220684e-39
0.043106649 0.0035333186 0.7420001 5.632522e-39
0.044520006 0.0035333186 0.74200004 8.9396844e-39
0.045933329 0.0035333261 0.74200004 8.9357468e-39
0.047410484 0.0035380796 0.74299997 8.9414739e-39
0.04895715 0.0035476163 0.745 9.1276434e-39
0.050376188 0.0035476238 0.745 9.3113368e-39
0.051795255 0.0035476163 0.74500006 9.219165e-39
-0.032271434 0.0050199926 0.75300002 7.6543602e-39
-0.030837143 0.0050200075 0.75300002 4.0500903e-39
-0.029402856 0.00502 0.75299996 4.6386623e-40
-0.027931461 0.0050133318 0.75200003 2.0308318e-39
-0.02649907 0.0050133392 0.75200003 3.6863917e-39
-0.024933331 0.0049866661 0.74800003 3.1332347e-39
-0.023508577 0.0049866587 0.74800003 2.5807924e-39
-0.02205429 0.0049799904 0.74699998 2.2113022e-39
-0.02057619 0.0049666688 0.745 1.8410792e-39
-0.019157153 0.0049666688 0.745 1.8414267e-39
-0.017690478 0.0049533248 0.74300003 1.8399974e-39
-0.016209519 0.00493332 0.74000001 1.380108e-39
-0.014780018 0.0049266666 0.73900002 9.202285e-40
-0.013372384 0.0049266592 0.73900002 8.2876715e-40
-0.011932414 0.0049133301 0.73699999 6.4544788e-40
-0.010514285 0.0049066618 0.736 7.3691764e-40
-0.0091123916 0.0049066693 0.73600006 8.2912728e-40
-0.0076895393 0.0048933178 0.73400003 9.2133692e-40
-0.0062914342 0.0048933327 0.73399997 1.0131542e-39
-0.0048800129 0.0048800111 0.73199999 8.2982373e-40
-0.003485732 0.0048800036 0.73200005 7.3799664e-40
-0.0020885619 0.0048733428 0.73100001 6.4545068e-40
-0.00069431606 0.0048599839 0.72900009 6.4545769e-40
0.00069428218 0.0048599914 0.72900003 9.2312218e-40
0.0020828245 0.0048599839 0.72900003 1.2000622e-39
0.0034714227 0.0048599914 0.72900003 1.3833717e-39
0.0048533138 0.0048533231 0.72800004 1.6581649e-39
0.0062400121 0.0048533306 0.72800004 1.4737806e-39
0.0076266583 0.0048533231 0.72800004 1.2908243e-39
0.0090133343 0.0048533306 0.72800004 1.198986e-39
0.010399979 0.0048533306 0.72800004 1.1064274e-39
0.011786678 0.0048533231 0.72800004 1.01315e-39
0.013137137 0.0048399866 0.72600001 9.1952925e-40
0.014519993 0.0048400089 0.72600001 5.536292e-40
0.015902845 0.0048399866 0.72600001 2.7813813e-40
0.017333345 0.0048533306 0.72800004 3.7034637e-40
0.01871999 0.0048533306 0.72800004 5.5436769e-40
0.02013428 0.0048599914 0.72900003 6.4655351e-40
0.021522848 0.0048599839 0.72900003 6.4727097e-40
0.022911387 0.0048599765 0.72900009 5.5400055e-40
0.024299985 0.0048599839 0.72900003 5.5398093e-40
0.025688553 0.0048599765 0.72900009 3.6993018e-40
0.027077124 0.0048599914 0.72900003 2.781059e-40
0.028465692 0.0048599839 0.72900009 5.5434106e-40
0.029936198 0.0048733279 0.73099995 8.3129509e-40
0.031328559 0.0048733279 0.73099995 1.4766673e-39
0.032765727 0.0048800111 0.73199999 2.1231087e-39
0.034253318 0.0048933253 0.73399997 3.043979e-39
0.035651423 0.0048933253 0.73400003 3.9637563e-39
0.037200943 0.0049133226 0.73699999 3.8726256e-39
0.038709525 0.0049266666 0.73899996 3.6893162e-39
0.040171426 0.00493332 0.74000001 3.3198232e-39
0.041580956 0.0049333274 0.74000001 2.8584695e-39
0.043106679 0.0049466565 0.74200004 5.9044425e-39
0.044520002 0.004946664 0.74200004 9.0372386e-39
0.045995228 0.0049533248 0.74300003 9.2165894e-39
0.047410473 0.0049533173 0.74300003 9.398478e-39
0.048957136 0.0049666688 0.74500006 9.2180468e-39
0.050376199 0.0049666613 0.74500006 9.0361975e-39
0.051934261 0.0049799904 0.74700004 8.9447487e-39
-0.032271434 0.0064542964 0.75299996 7.2791177e-39
-0.030837147 0.006454289 0.75299996 3.857451e-39
-0.026499065 0.0064457133 0.75200003 3.8686473e-39
-0.024933359 0.0064114183 0.74800003 3.2243864e-39
-0.023571448 0.0064285621 0.75000006 2.4896912e-39
-0.021995248 0.0063857138 0.74500006 2.1198269e-39
-0.020576211 0.0063857213 0.74500006 1.6595634e-39
-0.019105734 0.0063685551 0.74300003 1.5666433e-39
-0.017619049 0.0063428506 0.74000001 1.381543e-39
-0.016209515 0.0063428655 0.73999995 1.1971601e-39
-0.014780009 0.0063342899 0.73900002 9.2129629e-40
-0.013372373 0.0063342899 0.73899996 8.2910206e-40
-0.011932367 0.0063171387 0.73699999 6.4507654e-40
-0.010528577 0.0063171238 0.73699999 8.28393e-40
-0.0091247875 0.0063171312 0.73699999 1.0131472e-39
-0.0077209417 0.0063171312 0.73699999 1.1057072e-39
-0.0062742829 0.0062742978 0.73199999 1.1057002e-39
-0.0048800018 0.0062742755 0.73200005 9.2273962e-40
-0.0034857152 0.0062742978 0.73199999 7.3764351e-40
-0.0020885712 0.0062657222 0.73099995 9.2096558e-40
-0.00069431419 0.0062485561 0.72900009 1.0138787e-39
0.00069425796 0.0062485486 0.72900003 1.015315e-39
0.0020828226 0.0062485635 0.72900009 9.2383964e-40
0.0034714208 0.0062485561 0.72900003 1.1089456e-39
0.0048599634 0.0062485635 0.72900003 1.2908257e-39
0.0062485598 0.0062485635 0.72900003 1.2890334e-39
0.007626662 0.0062399954 0.72800004 1.289395e-39
0.009013338 0.0062400103 0.72799999 1.1057268e-39
0.010400011 0.0062399954 0.72800004 9.2168725e-40
0.011786686 0.0062399879 0.72799999 9.1952505e-40
0.013137126 0.006222859 0.72600001 8.2840982e-40
0.014520009 0.0062228516 0.72599995 4.6142937e-40
0.015902862 0.0062228516 0.72600001 9.4460128e-41
0.017285718 0.0062228516 0.72600001 2.7850387e-40
0.018719995 0.0062399954 0.72800004 3.7069249e-40
0.020106671 0.0062399954 0.72799999 3.7068829e-40
0.021522848 0.0062485635 0.72900003 3.6961069e-40
0.02291139 0.0062485561 0.72900009 2.7634026e-40
0.024299985 0.0062485486 0.72900003 9.3734256e-41
0.025759052 0.0062657073 0.73100001 1.8412361e-40
0.027151441 0.0062657148 0.73099995 1.8592148e-40
0.028543802 0.0062657148 0.73100001 6.4510456e-40
0.029936187 0.0062656999 0.73100001 1.1082393e-39
0.031371433 0.0062742978 0.73199999 1.9365636e-39
0.032765716 0.0062742904 0.73199999 2.675565e-39
0.034159999 0.0062742904 0.73200005 3.7811909e-39
0.035748545 0.0063085631 0.73600006 4.8821084e-39
0.037200931 0.0063171312 0.73699999 4.3317821e-39
0.038709532 0.0063342825 0.73900002 3.6875127e-39
0.040117141 0.0063342825 0.73900002 3.5931787e-39
0.041580964 0.0063428506 0.73999995 3.506706e-39
0.042990495 0.0063428581 0.74000001 6.2728733e-39
0.044519994 0.006359987 0.74200004 9.0343786e-39
0.045933317 0.0063599721 0.74200004 9.403496e-39
0.04734664 0.006359987 0.74200004 9.7686982e-39
0.048957173 0.0063857213 0.745 9.3102508e-39
0.050511431 0.0064028651 0.74700004 8.7606868e-39
0.052003797 0.0064114183 0.74800003 8.761777e-39
-0.023571463 0.007857129 0.75000006 2.5840546e-39
-0.022054294 0.0078257099 0.74700004 2.2141735e-39
-0.020576173 0.0078047663 0.745 1.9375852e-39
-0.019157136 0.0078047588 0.745 1.6599193e-39
-0.017666673 0.0077733248 0.74200004 1.3815486e-39
-0.016209511 0.0077523738 0.74000001 1.1060477e-39
-0.01478 0.0077418983 0.73900002 9.2200394e-40
-0.013372361 0.0077418983 0.73900002 7.3760147e-40
-0.011964752 0.0077419057 0.73900002 5.528697e-40
-0.010528585 0.0077209473 0.73699999 7.3727357e-40
-0.0091247708 0.0077209324 0.73700005 8.3018386e-40
-0.007720951 0.0077209547 0.73699999 1.0142122e-39
-0.0062914249 0.0076895133 0.73400003 1.2893641e-39
-0.0048933495 0.0076895207 0.73400003 8.2983213e-40
-0.0034857022 0.0076685697 0.73199999 4.6106643e-40
-0.0020885824 0.0076580867 0.73100001 6.4618356e-40
-0.00069619174 0.0076580867 0.73100001 9.2204598e-40
0.0006961709 0.0076580942 0.73100001 1.0138787e-39
0.0020828263 0.0076371208 0.72900009 1.0135241e-39
0.0034714208 0.0076371282 0.72900003 1.1067974e-39
0.0048599634 0.0076371282 0.72900003 1.1982741e-39
0.0062485617 0.0076371282 0.72900003 1.1975567e-39
0.0076371022 0.0076371282 0.72900003 1.1042947e-39
0.0090256995 0.0076371282 0.72900003 1.1050191e-39
0.010414268 0.0076371282 0.72900009 1.105724e-39
0.011786662 0.0076266602 0.72800004 9.2096278e-40
0.013137139 0.0076057091 0.72600001 7.3800785e-40
0.014519992 0.0076056942 0.72600001 4.6214123e-40
0.015902849 0.0076057091 0.72600001 1.8628862e-40
0.017333329 0.0076266602 0.72800004 4.6216645e-40
0.018720003 0.0076266676 0.72799999 6.4619618e-40
0.020106675 0.0076266602 0.72800004 6.4475984e-40
0.021522848 0.0076371282 0.72900003 6.4332351e-40
0.02291142 0.0076371282 0.72900003 2.5822694e-39
0.024299989 0.0076371282 0.72900003 4.5036387e-39
0.025759045 0.0076580867 0.73100001 4.2378152e-39
0.027151406 0.0076581016 0.73100001 3.9522642e-39
0.028543821 0.0076580942 0.73099995 2.485406e-39
0.029977133 0.0076685697 0.73200005 1.0196352e-39
0.031457126 0.0076895133 0.73400003 1.7546863e-39
0.032765701 0.0076685697 0.73200005 2.4936961e-39
0.034253329 0.0076895207 0.73400003 3.1362055e-39
0.035748567 0.0077104643 0.73600006 3.8704816e-39
0.037200924 0.0077209473 0.73699999 3.319777e-39
0.03870954 0.0077419132 0.73900002 2.860266e-39
0.040117148 0.0077419057 0.73900002 4.1467042e-39
0.041580968 0.0077523813 0.74000001 5.4345409e-39
0.043106642 0.0077733174 0.74200004 7.1011991e-39
0.044519991 0.0077733099 0.74200004 8.7603168e-39
0.045995235 0.0077837929 0.74300003 8.6659492e-39
0.047410455 0.0077837929 0.74300003 8.6663219e-39
0.049088575 0.0078257248 0.74700004 8.3901106e-39
0.050511431 0.0078257173 0.74700004 8.2100269e-39
0.052142825 0.0078571215 0.75000006 8.1167565e-39
0.053571392 0.0078571364 0.75000006 8.118546e-39
-0.0236343 0.0093104765 0.75199997 2.6751572e-39
-0.02208381 0.009260945 0.74799997 2.3989165e-39
-0.020659057 0.009260945 0.74799997 2.1216135e-39
-0.019208582 0.0092485696 0.74700004 1.7539114e-39
-0.017666677 0.0091866553 0.74200004 1.2918641e-39
-0.016209504 0.0091619119 0.73999995 1.1071169e-39
-0.014799973 0.0091619045 0.74000001 8.3053138e-40
-0.013372379 0.009149529 0.73899996 6.4649745e-40
-0.011964745 0.0091495216 0.73900002 4.6212581e-40
-0.010528596 0.0091247559 0.73700005 5.5361799e-40
-0.0091247503 0.0091247633 0.73699999 6.4687721e-40
-0.0077209584 0.0091247559 0.73699999 1.0152828e-39
-0.0063171443 0.0091247633 0.73700005 1.3819143e-39
-0.0049066953 0.009112373 0.73600006 7.3763651e-40
-0.003504772 0.009112373 0.736 9.5874038e-41
-0.0020885861 0.0090504661 0.73100001 4.6430063e-40
-0.00069619733 0.0090504885 0.73099995 8.3091814e-40
0.00069618953 0.009050481 0.73100001 1.0127885e-39
0.0020828263 0.0090257004 0.72900009 1.1060673e-39
0.0034714246 0.0090256929 0.72900003 1.1064358e-39
0.0048599653 0.0090256855 0.72900009 1.106796e-39
0.0062485617 0.0090257004 0.72900003 1.0146045e-39
0.007637104 0.0090257004 0.72900003 9.2169706e-40
0.0090257004 0.0090257078 0.72900003 1.1046548e-39
0.010414268 0.0090256929 0.72900009 1.2886705e-39
0.011786669 0.0090133399 0.72800004 9.2095717e-40
0.01317334 0.009013325 0.72800004 5.5433265e-40
0.014560016 0.0090133324 0.72800004 4.6249856e-40
0.015946662 0.009013325 0.72800004 2.7848425e-40
0.017333334 0.0090133175 0.72799999 6.4548291e-40
0.018720007 0.009013325 0.72800004 9.2062507e-40
0.020134281 0.0090257004 0.72900003 9.188258e-40
0.02152285 0.0090257078 0.72900003 8.3851038e-40
0.02291142 0.0090257078 0.72900003 4.9062192e-39
0.024366649 0.0090504736 0.73100001 8.940884e-39
0.025759064 0.0090504661 0.73100001 8.3116687e-39
0.027151424 0.0090504736 0.73100001 7.6443788e-39
0.028543813 0.009050481 0.73099995 4.3239054e-39
0.029977152 0.0090628564 0.73199999 9.2528438e-40
0.03145713 0.0090876147 0.73400003 1.6599796e-39
0.032855205 0.0090876073 0.73400003 2.3053504e-39
0.034253336 0.0090875998 0.73400003 2.5823044e-39
0.035651408 0.0090876073 0.73400003 2.7663033e-39
0.037150454 0.009112373 0.73600006 2.4000067e-39
0.038552381 0.0091123804 0.736 2.0348339e-39
0.039954275 0.0091123804 0.736 4.698799e-39
0.041412394 0.0091247633 0.73699999 7.3720757e-39
0.042990502 0.0091619119 0.74000001 7.937082e-39
0.044520017 0.0091866627 0.74200004 8.3908281e-39
0.04593334 0.0091866553 0.74200004 7.9255017e-39
0.047346663 0.0091866553 0.74200004 7.4677886e-39
0.048759986 0.0091866627 0.74200004 7.556785e-39
0.050173309 0.0091866553 0.74200004 7.5614457e-39
-0.023634298 0.010742851 0.75200003 2.7659025e-39
-0.022142893 0.010714278 0.75000006 2.3978347e-39
-0.020659065 0.010685712 0.74800003 2.0287018e-39
-0.019208604 0.010671429 0.74700004 1.6606438e-39
-0.017666683 0.010599971 0.7420001 1.2915039e-39
-0.016209502 0.01057142 0.74000001 1.0152744e-39
-0.01478001 0.01055713 0.73900002 7.3833996e-40
-0.013372372 0.010557145 0.73900002 5.5467597e-40
-0.011964763 0.010557152 0.73900002 3.7102179e-40
-0.010528574 0.010528572 0.73699999 5.547096e-40
-0.0091247577 0.010528564 0.73699999 7.3871691e-40
-0.0077209678 0.010528572 0.73699999 8.3124745e-40
-0.0063171517 0.010528564 0.73700005 1.0152856e-39
-0.0049133338 0.010528564 0.73699999 7.3907003e-40
-0.003509518 0.010528564 0.73699999 4.6536421e-40
-0.0020885693 0.010442853 0.73100001 7.4051898e-40
-0.0006961787 0.010442868 0.73099995 1.1078498e-39
0.00069618021 0.01044286 0.73099995 1.4744617e-39
0.0020885409 0.01044286 0.73100001 1.9336546e-39
0.0034809557 0.01044286 0.73100001 1.4744925e-39
0.0048733167 0.010442846 0.73100001 1.0153192e-39
0.0062485635 0.010414265 0.72900003 1.0146045e-39
0.0076371059 0.010414273 0.72900003 1.1053652e-39
0.0090257023 0.010414265 0.72900003 1.7485725e-39
0.010414268 0.010414273 0.72900009 2.2988554e-39
0.01180284 0.010414273 0.72900003 1.5641574e-39
0.013173347 0.01039999 0.72800004 7.3871831e-40
0.014560021 0.010400012 0.72799999 4.6213842e-40
0.015946666 0.010399997 0.72800004 2.7812692e-40
0.017333342 0.01039999 0.72799999 5.5401035e-40
0.018745685 0.010414265 0.72900003 8.291483e-40
0.020134281 0.01041428 0.72900003 8.2949582e-40
0.021522824 0.010414273 0.72900003 8.3388469e-40
0.022911422 0.010414265 0.72900003 4.6207481e-39
0.024366667 0.010442853 0.73100001 8.4904001e-39
0.025759058 0.010442868 0.73099995 7.2011201e-39
0.027151417 0.01044286 0.73100001 6.0003502e-39
0.028543804 0.010442846 0.73100001 3.7779105e-39
0.030059034 0.010485709 0.73399997 1.473066e-39
0.031457108 0.010485716 0.73400003 1.8425716e-39
0.032855209 0.010485701 0.73400003 2.1173648e-39
0.034253314 0.010485716 0.73400003 2.3031924e-39
0.035651416 0.010485701 0.73400003 2.4872109e-39
0.037049491 0.010485709 0.73400003 2.6751741e-39
0.038552348 0.010514274 0.73600006 2.9549951e-39
0.03973715 0.010457143 0.73199999 4.7027492e-39
0.041131433 0.010457143 0.73200005 6.4580465e-39
0.042758085 0.010514274 0.73600006 7.47256e-39
0.044160005 0.010514289 0.736 8.5730697e-39
0.045561898 0.010514274 0.73600006 8.0187469e-39
0.046963792 0.010514289 0.73600006 7.3748699e-39
0.048365686 0.010514274 0.73600006 7.9298765e-39
0.050173305 0.010599986 0.74200004 8.4794504e-39
-0.023634294 0.012175232 0.75200003 2.7662388e-39
-0.022142908 0.01214283 0.75000006 2.3059669e-39
-0.020659065 0.012110472 0.74799997 1.8446483e-39
-0.019208578 0.012094289 0.74700004 1.5677181e-39
-0.017690469 0.012029506 0.74300003 1.2914815e-39
-0.016209524 0.011980951 0.74000001 1.0152449e-39
-0.01479999 0.011980951 0.73999995 6.4684077e-40
-0.013372362 0.011964761 0.73900002 4.6246773e-40
-0.011964753 0.011964761 0.73900002 1.8732278e-40
-0.010528583 0.011932373 0.73699999 5.5466896e-40
-0.009124767 0.011932373 0.73699999 8.3052578e-40
-0.0077209789 0.011932373 0.73700005 7.3939934e-40
-0.0063171331 0.011932366 0.73699999 5.5609549e-40
-0.0049133431 0.011932373 0.73699999 6.4650446e-40
-0.0035047813 0.011916183 0.73600006 7.4050216e-40
-0.0020914304 0.01185143 0.73199999 1.1074966e-39
-0.00069621595 0.011835232 0.73100001 1.3833646e-39
0.0006962007 0.01183524 0.73100001 2.0269334e-39
0.0020885596 0.01183524 0.73100001 2.6687071e-39
0.0034809501 0.01183524 0.73099995 1.7499962e-39
0.0048733354 0.01183524 0.73100001 8.3128668e-40
0.0062657259 0.01183524 0.73099995 1.1060813e-39
0.0076580849 0.011835232 0.73099995 1.2893922e-39
0.0090257023 0.011802845 0.72900003 2.3010162e-39
0.010414245 0.011802837 0.72900003 3.3094045e-39
0.011802843 0.01180283 0.72900003 2.1144599e-39
0.013191408 0.011802837 0.72900009 9.2095857e-40
0.014579981 0.011802845 0.72900003 5.5325926e-40
0.015968548 0.011802845 0.72900003 1.870215e-40
0.017357145 0.011802845 0.72900003 4.6363081e-40
0.018745687 0.011802845 0.72900003 6.4585005e-40
0.020134283 0.011802845 0.72900003 7.3551774e-40
0.021522824 0.011802837 0.72900003 7.4380642e-40
0.022911422 0.011802845 0.72900003 4.3440827e-39
0.024366658 0.01183524 0.73100001 7.9260412e-39
0.025759019 0.01183524 0.73100001 6.185487e-39
0.027151436 0.011835232 0.73100001 4.3350892e-39
0.028543795 0.01183524 0.73100001 3.2218864e-39
0.03005904 0.011883803 0.73400003 2.025881e-39
0.031457115 0.011883803 0.73400003 2.0280404e-39
0.032855213 0.011883803 0.73400009 1.9354861e-39
0.034253318 0.011883803 0.73400003 2.0255251e-39
0.035554286 0.011851437 0.73199999 2.1209283e-39
0.036948569 0.011851437 0.73200005 3.0421335e-39
0.038342852 0.011851422 0.73200005 3.8715424e-39
0.039682869 0.01183524 0.73099995 4.698799e-39
0.041075233 0.01183524 0.73100001 5.4417296e-39
0.04246762 0.011835247 0.73099995 7.1048102e-39
0.043860007 0.011835232 0.73100001 8.7556561e-39
0.045252368 0.01183524 0.73100001 8.0177043e-39
0.046963792 0.01191619 0.73600006 7.2855763e-39
0.048365682 0.011916183 0.73600006 8.4005615e-39
-0.023665717 0.013625711 0.75300002 3.0413656e-39
-0.022201927 0.013607621 0.75200003 2.6725592e-39
-0.020769536 0.013607621 0.75200003 2.3030859e-39
-0.019285748 0.013571419 0.75000006 1.935046e-39
-0.017738087 0.013480961 0.745 1.5662481e-39
-0.016253339 0.013426654 0.74200004 1.1981676e-39
-0.014799987 0.013390481 0.74000001 9.2196611e-40
-0.013372378 0.013372384 0.73899996 7.3831754e-40
-0.011964746 0.013372377 0.73900002 5.5463814e-40
-0.010528591 0.013336189 0.73699999 8.3013482e-40
-0.0091247763 0.013336174 0.73700005 1.0138114e-39
-0.0077209566 0.013336182 0.73699999 7.3974546e-40
-0.0063171405 0.013336189 0.73699999 5.5715907e-40
-0.0049133506 0.013336182 0.73699999 7.4083707e-40
-0.003504785 0.013318099 0.73600006 9.2595841e-40
-0.0020914415 0.013245717 0.73200005 1.200044e-39
-0.00069712865 0.013245717 0.73199999 1.4744925e-39
0.00069715438 0.013245724 0.73200005 1.7500158e-39
0.0020885521 0.013227619 0.73100001 2.0251523e-39
0.003480939 0.013227604 0.73100001 1.3822913e-39
0.0048733298 0.013227619 0.73100001 7.3980852e-40
0.0062656887 0.013227612 0.73100001 1.0138871e-39
0.0076581053 0.013227634 0.73100001 1.1964791e-39
0.0090257041 0.013191409 0.72900003 1.7482053e-39
0.010414245 0.013191417 0.72900003 2.3899748e-39
0.011802842 0.013191417 0.72900003 1.5630938e-39
0.01319141 0.013191402 0.72900009 7.3621559e-40
0.01457998 0.013191417 0.72900003 4.617853e-40
0.015968548 0.013191402 0.72900009 2.7922694e-40
0.01735712 0.013191424 0.72900003 4.6293436e-40
0.018797126 0.013227619 0.73100001 6.4658293e-40
0.020134283 0.013191409 0.72900003 7.3660235e-40
0.021581903 0.013227627 0.73100001 8.2699591e-40
0.022974262 0.013227612 0.73100001 2.397518e-39
0.024366679 0.013227634 0.73100001 4.051301e-39
0.025759038 0.013227619 0.73100001 3.2262417e-39
0.027151428 0.013227619 0.73099995 2.4832873e-39
0.028543813 0.013227619 0.73100001 2.0251663e-39
0.029936204 0.013227619 0.73099995 1.4727226e-39
0.031457119 0.013281904 0.73400003 1.8429387e-39
0.032765705 0.013245724 0.73199999 2.1216654e-39
0.034160018 0.013245724 0.73199999 2.6726699e-39
0.035554301 0.013245717 0.73200005 3.2243724e-39
0.036898114 0.013227619 0.73099995 3.964768e-39
0.038290475 0.013227627 0.73100001 4.6976891e-39
0.039682835 0.013227612 0.73100001 4.698436e-39
0.040962845 0.013191424 0.72900003 4.7902449e-39
0.042351414 0.013191402 0.72900009 5.6257061e-39
0.043739986 0.013191424 0.72900003 6.5519559e-39
0.044757176 0.013082854 0.72300005 5.6242753e-39
0.04607049 0.013064757 0.72200006 4.6144857e-39
0.047445703 0.013064735 0.72200006 4.7999909e-39
0.048820946 0.01306475 0.72200006 4.9900995e-39
0.050196197 0.013064757 0.72200006 4.6148444e-39
0.05157141 0.013064757 0.72200006 4.3461482e-39
-0.025166666 0.015099987 0.75500005 2.3953067e-39
-0.023665715 0.015060015 0.75299996 3.2225268e-39
-0.022201924 0.015040003 0.75200003 3.040274e-39
-0.020769561 0.015040003 0.75200003 2.7619102e-39
-0.019285763 0.014999993 0.75000006 2.3034642e-39
-0.017738104 0.014900014 0.74500006 1.8414127e-39
-0.016253343 0.014839999 0.74200004 1.4733504e-39
-0.014800009 0.014799997 0.74000001 1.1060239e-39
-0.013372369 0.014779992 0.73900002 1.013845e-39
-0.011964761 0.014780007 0.73900002 9.2236127e-40
-0.010557152 0.014780007 0.73900002 1.1056665e-39
-0.0091247559 0.014739998 0.73699999 1.1978594e-39
-0.0077209678 0.014740005 0.73699999 8.3159357e-40
-0.0063171498 0.01473999 0.73699999 4.6569072e-40
-0.0049133599 0.014740005 0.73700005 7.4227761e-40
-0.0035095161 0.014739998 0.73699999 1.0170778e-39
-0.0020971468 0.014679991 0.73400003 1.2918795e-39
-0.00069907139 0.014679998 0.73400003 1.5663238e-39
0.00069900212 0.014679991 0.73400003 1.4734261e-39
0.0020914243 0.014640018 0.73199999 1.2893838e-39
0.0034809296 0.014620006 0.73100001 1.0135073e-39
0.0048733465 0.014619999 0.73099995 6.4617516e-40
0.0062657073 0.014620006 0.73100001 9.2097399e-40
0.007658096 0.014620014 0.73099995 1.1050065e-39
0.0090504838 0.014619999 0.73100001 1.289039e-39
0.010442843 0.014620006 0.73100001 1.3808647e-39
0.011835234 0.014619999 0.73099995 9.2024251e-40
0.01319141 0.014579982 0.72900009 4.6141115e-40
0.014579982 0.014579982 0.72900003 3.6956304e-40
0.015968548 0.014579982 0.72900009 2.7812131e-40
0.01735712 0.014579982 0.72900003 4.6182874e-40
0.018797146 0.014619999 0.73100001 6.4548572e-40
0.020134283 0.014579989 0.72900003 8.291441e-40
0.021581896 0.014620006 0.73099995 9.1989779e-40
0.022974281 0.014619991 0.73100001 5.51474e-40
0.024366671 0.014620014 0.73099995 9.517479e-41
0.025759032 0.014619999 0.73100001 3.6853729e-40
0.027151417 0.014619999 0.73100001 6.4583604e-40
0.028543808 0.014619999 0.73100001 8.302245e-40
0.029936166 0.014619999 0.73100001 9.2242573e-40
0.031371433 0.014639996 0.73199999 1.6578356e-39
0.032765694 0.014640003 0.73200005 2.3046329e-39
0.034113333 0.014620014 0.73099995 3.3184135e-39
0.035505719 0.014619999 0.73100001 4.2417781e-39
0.036898077 0.014619999 0.73100001 4.8942997e-39
0.038290467 0.014620006 0.73100001 5.5310596e-39
0.039574251 0.014579982 0.72900009 4.7906443e-39
0.040962849 0.014579989 0.72900003 4.0541498e-39
0.04229334 0.014559992 0.72800004 4.2395977e-39
0.043380011 0.01445999 0.72299999 4.3314248e-39
0.044757146 0.01445999 0.72300005 3.1289467e-39
0.046070494 0.014439993 0.72200006 1.9368761e-39
0.047445737 0.014439985 0.72200006 1.2868502e-39
0.048820954 0.014439993 0.72200006 5.5932968e-40
0.050196197 0.014439985 0.72200006 7.3509875e-40
0.051571444 0.01444 0.72200006 8.3446483e-40
-0.025166646 0.016538091 0.75500005 4.0472583e-39
-0.023665719 0.016494282 0.75300002 2.3013034e-39
-0.022231432 0.016494296 0.75300002 2.0268689e-39
-0.020769525 0.016472392 0.75199997 1.6559452e-39
-0.019285722 0.01642856 0.75000006 1.3808031e-39
-0.017785748 0.016362861 0.74700004 1.0127576e-39
-0.016275249 0.016275242 0.74300003 8.2945939e-40
-0.014799978 0.016209528 0.74000001 6.4723173e-40
-0.013372361 0.016187616 0.73900002 6.4616395e-40
-0.011964753 0.016187623 0.73900002 6.4723594e-40
-0.010557143 0.016187616 0.73900002 7.3834836e-40
-0.0091247652 0.016143806 0.73699999 8.3017685e-40
-0.0077209733 0.016143799 0.73699999 7.4012801e-40
-0.0063171592 0.016143806 0.73700005 6.4937012e-40
-0.0049133394 0.016143806 0.73699999 8.3304111e-40
-0.0035095236 0.016143799 0.73699999 1.0163632e-39
-0.0021028707 0.016121902 0.73600006 1.3833548e-39
-0.00069906766 0.016078085 0.73400003 1.7499906e-39
0.00069903751 0.016078085 0.73399997 1.5645371e-39
0.0020914392 0.016034283 0.73199999 1.4719716e-39
0.0034809501 0.016012385 0.73100001 1.1964525e-39
0.0048733391 0.016012385 0.73099995 9.1988378e-40
0.0062656999 0.016012385 0.73100001 1.1964791e-39
0.0076580849 0.016012378 0.73100001 1.471994e-39
0.0090504764 0.016012378 0.73099995 1.5656315e-39
0.010442837 0.016012385 0.73100001 1.7500046e-39
0.011835252 0.016012378 0.73099995 1.2893754e-39
0.013227613 0.016012378 0.73100001 8.3017265e-40
0.014620001 0.016012385 0.73099995 5.5356474e-40
0.016012387 0.016012385 0.73100001 2.7737582e-40
0.017404748 0.016012385 0.73100001 5.5327467e-40
0.018797139 0.016012378 0.73099995 7.36224e-40
0.020189526 0.016012378 0.73100001 1.1039205e-39
0.021581914 0.016012385 0.73099995 1.4712597e-39
0.022974275 0.016012385 0.73100001 9.1952505e-40
0.024366634 0.016012378 0.73100001 4.5962169e-40
0.025759051 0.016012393 0.73100001 4.6068808e-40
0.027151411 0.016012385 0.73100001 3.7066586e-40
0.028543826 0.016012378 0.73100001 6.4619057e-40
0.030059028 0.0160781 0.73400003 9.22067e-40
0.031371422 0.01603429 0.73200005 1.4745247e-39
0.032765735 0.016034283 0.73199999 2.1198997e-39
0.034113318 0.016012378 0.73100001 3.1333328e-39
0.035505708 0.016012378 0.73099995 4.2436124e-39
0.036797114 0.015968546 0.72900009 5.4457275e-39
0.038185682 0.015968569 0.72900003 6.731772e-39
0.039574251 0.015968546 0.72900009 4.516228e-39
0.040906701 0.015946664 0.72799999 2.3035595e-39
0.042119041 0.015880935 0.72500002 3.0385938e-39
0.043380011 0.01583714 0.72300005 3.7725435e-39
0.044695228 0.015815213 0.72200012 3.3119143e-39
0.046070468 0.015815228 0.72200006 2.8498193e-39
0.047445718 0.015815228 0.72200006 3.4969249e-39
0.048820931 0.015815221 0.72200006 4.1329575e-39
0.050057147 0.015771426 0.71999997 4.3234444e-39
0.051428545 0.015771419 0.72000003 4.5006582e-39
0.0528 0.015771426 0.72000003 4.4156386e-39
-0.025199991 0.017999999 0.75600004 5.7910915e-39
-0.023728577 0.017976187 0.75500005 1.3916015e-39
-0.022231432 0.017928578 0.75299996 1.0185254e-39
-0.020769522 0.017904766 0.75200003 5.6433933e-40
-0.019285737 0.017857127 0.75000006 3.6772454e-40
-0.017738087 0.017738104 0.745 1.8946676e-40
-0.016275259 0.017690472 0.74300003 1.8411941e-40
-0.01484 0.01766666 0.74200004 9.3353102e-41
-0.013390467 0.017619036 0.74000001 1.8446413e-40
-0.011964768 0.017595246 0.73900002 2.7809329e-40
-0.010557134 0.017595232 0.73900002 3.7064765e-40
-0.0091495253 0.017595239 0.73900002 4.6391387e-40
-0.0077418871 0.017595239 0.73900002 6.4865686e-40
-0.0063171387 0.017547615 0.73699999 8.3304391e-40
-0.0049133487 0.017547622 0.73699999 9.2416054e-40
-0.0035095348 0.017547607 0.73699999 9.2452768e-40
-0.0021028726 0.01752381 0.736 1.3833562e-39
-0.00069908629 0.017476179 0.73400003 1.8407499e-39
0.00069714506 0.017428569 0.73199999 1.7464131e-39
0.0020914262 0.017428577 0.73200005 1.5638113e-39
0.0034809427 0.017404772 0.73100001 1.3804934e-39
0.0048733037 0.017404757 0.73100001 1.1049939e-39
0.0062657185 0.017404765 0.73099995 1.472703e-39
0.0076580793 0.017404757 0.73100001 1.8407625e-39
0.0090504689 0.017404772 0.73099995 1.9347518e-39
0.010442856 0.017404757 0.73100001 2.02586e-39
0.011835244 0.017404772 0.73099995 1.5655979e-39
0.013227605 0.017404765 0.73099995 1.1056861e-39
0.014619992 0.01740475 0.73100001 7.3725115e-40
0.01601238 0.017404772 0.73099995 2.7810169e-40
0.017404741 0.017404765 0.73100001 5.5327748e-40
0.018822858 0.017428584 0.73199999 8.2877275e-40
0.020189518 0.017404757 0.73100001 1.3794158e-39
0.021581879 0.017404757 0.73100001 1.9307805e-39
0.023005711 0.017428577 0.73199999 1.3786829e-39
0.024366653 0.017404757 0.73100001 8.2766012e-40
0.025759043 0.017404772 0.73099995 4.6030833e-40
0.027262829 0.017476179 0.73400003 9.4060758e-41
0.028660959 0.017476186 0.73400003 4.6142096e-40
0.030059032 0.017476179 0.73400003 8.3057342e-40
0.031371411 0.017428577 0.73200005 1.3812459e-39
0.032765724 0.017428584 0.73199999 1.9337064e-39
0.034160003 0.017428577 0.73200005 3.0346702e-39
0.035505701 0.017404772 0.73099995 4.1525014e-39
0.036797114 0.017357118 0.72900009 6.0053753e-39
0.038185686 0.017357126 0.72900003 7.8380999e-39
0.039574254 0.017357126 0.72900009 4.1467042e-39
0.040906679 0.017333329 0.72800004 4.6862784e-40
0.042002868 0.017214261 0.72300005 1.838994e-39
0.043319989 0.017190464 0.72200006 3.1271937e-39
0.044695236 0.017190471 0.72200006 3.4041253e-39
0.046070475 0.017190471 0.72200012 3.6849778e-39
0.047314286 0.017142862 0.71999997 5.718238e-39
0.048820965 0.017190471 0.72200006 7.7353833e-39
0.050057136 0.017142855 0.72000003 8.0169827e-39
0.051428564 0.017142855 0.71999997 8.1956202e-39
0.052800015 0.017142855 0.71999997 8.1999152e-39
0.054171413 0.017142855 0.72000003 8.1977656e-39
-0.026710482 0.019491427 0.75800002 1.0787271e-38
-0.025199978 0.019439995 0.75600004 8.4812595e-39
-0.023760006 0.019439995 0.75600004 6.1893335e-39
-0.022290483 0.019414276 0.75500005 6.9240315e-39
-0.020797173 0.019362867 0.75300002 7.7551486e-39
-0.019337155 0.01933714 0.75200003 7.5610071e-39
-0.017785722 0.019208565 0.74700004 7.4588203e-39
-0.01627524 0.019105703 0.74300003 5.8912115e-39
-0.014840006 0.019079991 0.74200004 4.408548e-39
-0.013390461 0.019028567 0.74000001 3.8643285e-39
-0.011964761 0.019002855 0.73900002 3.3075829e-39
-0.010557152 0.019002847 0.73900002 1.7488976e-39
-0.0091495439 0.019002855 0.73900002 2.8096314e-40
-0.0077419057 0.019002855 0.73899996 6.4937993e-40
-0.006317148 0.018951423 0.73699999 1.0177939e-39
-0.0049133319 0.018951423 0.73699999 1.0167135e-39
-0.0035095403 0.018951416 0.73700005 1.0163646e-39
-0.0021028521 0.018925704 0.73600006 1.107491e-39
-0.00069908256 0.018874288 0.73400003 1.1971839e-39
0.00069715624 0.018822864 0.73199999 1.2883104e-39
0.0020914113 0.018822856 0.73200005 1.3805046e-39
0.0034857241 0.018822871 0.73199999 1.5648917e-39
0.0048733223 0.018797152 0.73100001 1.7485654e-39
0.0062657129 0.018797144 0.73099995 1.8407611e-39
0.0076580979 0.018797152 0.73100001 1.9325896e-39
0.0090504903 0.018797152 0.73099995 2.3942712e-39
0.010442847 0.018797144 0.73099995 2.8530885e-39
0.011835234 0.018797144 0.73100001 2.0258488e-39
0.013227623 0.018797137 0.73099995 1.1982461e-39
0.014619984 0.018797152 0.73100001 8.2981952e-40
0.0160124 0.018797152 0.73099995 4.6249996e-40
0.017404759 0.018797144 0.73100001 6.4619197e-40
0.01879712 0.018797144 0.73100001 7.3729179e-40
0.020189509 0.018797144 0.73099995 1.1056918e-39
0.021581896 0.018797144 0.73100001 1.5655755e-39
0.022974284 0.018797144 0.73099995 1.1960685e-39
0.024400009 0.018822856 0.73199999 8.2835657e-40
0.025759062 0.018797144 0.73099995 6.4467437e-40
0.027262833 0.018874288 0.73400003 5.5357455e-40
0.02858286 0.018822864 0.73199999 8.3089152e-40
0.029936196 0.018797144 0.73100001 1.1089344e-39
0.031457111 0.01887428 0.73400003 1.6581789e-39
0.032720946 0.018797152 0.73099995 2.2084856e-39
0.034113333 0.018797137 0.73100001 2.1195312e-39
0.035505723 0.018797152 0.73099995 2.1321275e-39
0.03689808 0.018797137 0.73100001 7.8471327e-39
0.038185686 0.018745705 0.72900003 1.3550193e-38
0.039574284 0.018745705 0.72900003 1.0320458e-38
0.040906686 0.018719994 0.72800004 7.0843569e-39
0.041944779 0.018565707 0.72200006 4.3228586e-39
0.043319996 0.018565707 0.72200006 1.6556818e-39
0.044571422 0.01851429 0.71999997 1.7503857e-39
0.045942876 0.01851429 0.71999997 1.9408502e-39
0.047314275 0.018514276 0.72000003 5.0732778e-39
0.0486857 0.01851429 0.71999997 8.2982695e-39
0.050057154 0.018514283 0.71999997 7.7479614e-39
0.051428553 0.018514276 0.72000003 7.2898391e-39
0.05272666 0.018488578 0.71900004 7.1029185e-39
0.054171432 0.018514298 0.71999997 6.833516e-39
-0.028154295 0.020935252 0.75800002 1.1905527e-38
-0.026710507 0.02093523 0.75800002 1.1345487e-38
-0.025200022 0.020879991 0.75600004 1.1157452e-38
-0.023760019 0.020879984 0.75600004 1.0977034e-38
-0.022319991 0.020879991 0.75600004 1.2917082e-38
-0.020797145 0.020797148 0.75299996 1.4842021e-38
-0.019337151 0.020769522 0.75200003 1.4753754e-38
-0.017785722 0.020631425 0.74700004 1.4647203e-38
-0.016275246 0.020520955 0.74300003 1.1696261e-38
-0.01486 0.020520948 0.74300003 8.7528549e-39
-0.013426687 0.020493329 0.7420001 7.5564753e-39
-0.011980925 0.020438097 0.73999995 6.2628527e-39
-0.010557143 0.020410478 0.73900002 3.2204109e-39
-0.0091495346 0.020410471 0.73900002 9.7285146e-41
-0.0077418964 0.020410471 0.73900002 6.4973305e-40
-0.0063171573 0.02035524 0.73699999 1.1088965e-39
-0.0049133413 0.020355225 0.73700005 1.1078077e-39
-0.0035095217 0.020355247 0.73699999 1.0167065e-39
-0.002102854 0.02032762 0.736 8.3341245e-40
-0.00070096011 0.02032762 0.73600006 5.5612491e-40
0.0006971432 0.020217158 0.73200005 8.2949162e-40
0.0020971277 0.020272389 0.73400003 1.1071561e-39
0.0034809557 0.020189539 0.73099995 1.7503689e-39
0.0048733149 0.020189531 0.73100001 2.3942908e-39
0.0062657017 0.020189516 0.73100001 2.2091821e-39
0.0076580904 0.020189531 0.73100001 1.9361839e-39
0.0090504512 0.020189516 0.73100001 2.8563311e-39
0.010442867 0.020189531 0.73099995 3.6817688e-39
0.011835226 0.020189531 0.73100001 2.4857507e-39
0.013227617 0.020189524 0.73099995 1.2904473e-39
0.014620001 0.020189531 0.73100001 1.0131416e-39
0.016012363 0.020189516 0.73100001 6.4652408e-40
0.017404752 0.020189539 0.73099995 6.4724855e-40
0.018797139 0.020189524 0.73100001 6.4687721e-40
0.020189529 0.020189516 0.73099995 9.2344728e-40
0.021611428 0.020217143 0.73200005 1.1056735e-39
0.023068557 0.020272374 0.73400003 9.2020047e-40
0.024466662 0.020272374 0.73399997 7.3615954e-40
0.025864737 0.020272367 0.73400003 8.2798522e-40
0.027262837 0.020272367 0.73400003 9.2126406e-40
0.028660944 0.020272382 0.73399997 1.1989327e-39
0.029977128 0.020217136 0.73200005 1.3840639e-39
0.031371441 0.020217158 0.73199999 1.9343846e-39
0.032765694 0.020217143 0.73200005 2.3924915e-39
0.034160007 0.020217143 0.73199999 1.2861678e-39
0.035505682 0.020189524 0.73100001 1.1140743e-40
0.036898103 0.020189516 0.73099995 9.7004129e-39
0.03829046 0.020189524 0.73100001 1.9166969e-38
0.039574284 0.020134285 0.72900003 1.6500836e-38
0.040738087 0.0200238 0.72500002 1.3723811e-38
0.041944757 0.019940935 0.72200006 6.8956216e-39
0.043200016 0.019885719 0.71999997 9.5518109e-41
0.044571411 0.019885711 0.72000003 9.2317543e-41
0.045942865 0.019885711 0.71999997 9.9852325e-41
0.04731429 0.019885711 0.71999997 4.426884e-39
0.048685689 0.019885711 0.72000003 8.7589282e-39
0.050057139 0.019885704 0.71999997 7.5704393e-39
0.051428564 0.019885726 0.71999997 6.3765274e-39
0.052726656 0.019858085 0.71900004 5.9040278e-39
0.054171417 0.019885726 0.72000003 5.4495166e-39
-0.028154293 0.022379048 0.75800002 1.0889605e-38
-0.026710473 0.022379056 0.75800002 1.1807562e-38
-0.025200007 0.022319987 0.75600004 1.2174506e-38
-0.023760004 0.022320002 0.75600004 1.2541882e-38
-0.022320004 0.022319995 0.75600004 1.3467802e-38
-0.020797143 0.022231437 0.75299996 1.4390492e-38
-0.019337174 0.022201903 0.75200003 1.4389802e-38
-0.017785722 0.022054285 0.74700004 1.4393681e-38
-0.01631905 0.021995246 0.74500006 1.3278313e-38
-0.014860012 0.021936186 0.74300003 1.2176296e-38
-0.013444763 0.021936186 0.74299997 9.5033876e-39
-0.012013339 0.021906659 0.74200004 6.8336281e-39
-0.010571416 0.021847613 0.74000001 3.5020074e-39
-0.0091495253 0.021818087 0.73900002 1.8624378e-40
-0.007741889 0.021818109 0.73900002 7.4048534e-40
-0.0063171647 0.021759048 0.73699999 1.3843876e-39
-0.0049133189 0.021759048 0.73699999 1.2921709e-39
-0.0035095292 0.021759041 0.73699999 1.2921976e-39
-0.0021028875 0.021729514 0.73600006 1.2925829e-39
-0.00070096384 0.021729521 0.736 1.2933172e-39
0.0007009281 0.021729521 0.73600006 1.6606746e-39
0.0020971315 0.021670468 0.73400003 2.0298215e-39
0.0034952087 0.021670461 0.73400003 2.9514162e-39
0.0048933122 0.021670468 0.73399997 3.9612409e-39
0.0062656943 0.021581896 0.73100001 3.0414426e-39
0.0076685492 0.02161143 0.73200005 2.2152861e-39
0.009062862 0.021611445 0.73199999 2.5826309e-39
0.010457143 0.02161143 0.73200005 2.9499645e-39
0.011835219 0.021581911 0.73100001 2.0280138e-39
0.013227606 0.021581911 0.73100001 1.1075022e-39
0.014619997 0.021581911 0.73099995 9.223907e-40
0.016034281 0.021611445 0.73199999 8.3018947e-40
0.017404772 0.021581918 0.73099995 7.3906443e-40
0.018797131 0.021581903 0.73100001 6.4722193e-40
0.020217132 0.021611437 0.73199999 7.3905042e-40
0.021670463 0.021670483 0.73400003 8.2980271e-40
0.023068536 0.021670468 0.73400003 8.2836077e-40
0.024466667 0.021670468 0.73400003 9.1911166e-40
0.025864741 0.021670476 0.73400003 1.0116548e-39
0.027337138 0.021729529 0.736 1.1042078e-39
0.028739031 0.021729521 0.736 1.3825841e-39
0.030140925 0.021729507 0.73600006 1.6617032e-39
0.031542871 0.021729521 0.736 2.1201884e-39
