# .PCD v0.7 - Point Cloud Data file format
VERSION 0.7
FIELDS x y z rgb
SIZE 4 4 4 4
TYPE F F F F
COUNT 1 1 1 1
WIDTH 952
HEIGHT 1
VIEWPOINT 0 0 0 1 0 0 0
POINTS 952
DATA ascii
-0.022438083 -0.0050666556 0.76000005 3.0417649e-39
-0.020935217 -0.0050533488 0.75800008 2.5822245e-39
-0.019439999 -0.0050399974 0.75599998 2.3978333e-39
-0.01792855 -0.0050199926 0.75300002 2.1198283e-39
-0.016428551 -0.0050000101 0.75000012 1.7510654e-39
-0.014959972 -0.004986681 0.74800009 1.382629e-39
-0.013517136 -0.0049799979 0.74700004 1.01491e-39
-0.012061894 -0.0049666539 0.74500006 6.4684638e-40
-0.010642838 -0.0049666613 0.74500006 6.4648484e-40
-0.0091990428 -0.0049533322 0.74300009 6.4684778e-40
-0.0077838092 -0.0049533322 0.74300003 8.2944678e-40
-0.0063685654 -0.0049533397 0.74300003 9.2126826e-40
-0.0049466598 -0.0049466789 0.74200004 8.2834255e-40
-0.0035237907 -0.0049333498 0.74000001 6.4469118e-40
-0.0021056996 -0.0049133375 0.73700005 8.2945799e-40
-0.00070095365 -0.0049066618 0.73600006 9.2094596e-40
0.00070095831 -0.0049066767 0.73600006 1.0131514e-39
0.0021028707 -0.0049066618 0.73600006 1.1049883e-39
0.0035047645 -0.0049066544 0.73600006 6.4796321e-40
0.0049066693 -0.0049066693 0.73600006 1.8770113e-40
0.0063085807 -0.0049066618 0.73600006 4.642754e-40
0.0076895389 -0.0048933402 0.73400009 7.3728618e-40
0.0090876389 -0.0048933551 0.73400009 1.012092e-39
0.010485727 -0.0048933402 0.73400003 1.2883174e-39
0.011851449 -0.0048800111 0.73200011 1.1979196e-39
0.013245727 -0.0048800111 0.73200005 1.1050051e-39
0.014680011 -0.0048933402 0.73400003 8.2949722e-40
0.016078113 -0.0048933402 0.73400003 5.525446e-40
0.01747621 -0.0048933551 0.73400009 6.4365282e-40
0.018874301 -0.0048933402 0.73400003 6.4401996e-40
0.020272395 -0.0048933476 0.73400003 7.3586386e-40
0.021729523 -0.0049066544 0.73600006 8.2768955e-40
0.023131436 -0.0049066544 0.73600006 1.0113493e-39
0.024533341 -0.0049066618 0.73600006 1.1042582e-39
0.025935246 -0.0049066618 0.73600006 1.1968084e-39
0.027337156 -0.0049066693 0.73600006 1.2875579e-39
0.028739052 -0.0049066693 0.73600006 1.1031596e-39
0.03018192 -0.0049133301 0.73700005 9.191481e-40
0.031585716 -0.0049133301 0.73700005 9.1916771e-40
0.032989528 -0.0049133301 0.73699999 8.2770076e-40
0.034393344 -0.0049133226 0.73700005 1.471994e-39
0.035797149 -0.0049133375 0.73700005 2.1209297e-39
0.037301902 -0.0049266592 0.73899996 2.8634946e-39
0.038761921 -0.0049333498 0.74000007 3.5063486e-39
0.040171437 -0.0049333572 0.74000007 3.3241196e-39
0.041580975 -0.0049333423 0.74000007 3.1379319e-39
0.043106671 -0.0049466863 0.7420001 2.4925666e-39
0.044520009 -0.0049466863 0.7420001 1.8515048e-39
0.046242878 -0.0049800053 0.74700004 5.6314612e-39
0.047729552 -0.0049866885 0.74800009 9.3102746e-39
0.049285736 -0.0050000325 0.75000012 9.4042737e-39
0.051120002 -0.0050399974 0.75600004 9.4035409e-39
0.052560009 -0.0050400048 0.75600004 9.7701514e-39
0.054000001 -0.0050399974 0.75599998 1.0045662e-38
0.055440009 -0.0050399899 0.75600004 9.953472e-39
0.056880016 -0.0050400048 0.75600004 9.8627099e-39
0.058320008 -0.0050400123 0.75600004 9.9549014e-39
-0.022467598 -0.0036238059 0.7610001 3.2272254e-39
-0.020990461 -0.003619045 0.76000005 2.8584415e-39
-0.01943999 -0.0036000013 0.75600004 2.3056278e-39
-0.017976172 -0.0035952479 0.75500005 1.8428672e-39
-0.016428549 -0.0035714358 0.75000012 1.5670048e-39
-0.01495998 -0.003561914 0.74800003 1.2900592e-39
-0.01351713 -0.0035571456 0.74700004 8.3051877e-40
-0.012061896 -0.0035476238 0.74500006 4.6281665e-40
-0.01064284 -0.0035476089 0.74500006 5.5500948e-40
-0.0091990372 -0.0035380945 0.74300003 6.4649185e-40
-0.0077837934 -0.0035380945 0.74300009 7.3869028e-40
-0.0063685593 -0.0035380945 0.74300003 9.216298e-40
-0.0049466547 -0.0035333484 0.7420001 7.3722592e-40
-0.0035237931 -0.0035238266 0.74000007 4.6102719e-40
-0.0021057071 -0.0035095215 0.73700005 7.376337e-40
-0.00070189475 -0.0035095215 0.73700005 9.2095717e-40
0.00070095412 -0.0035047531 0.73600006 1.0128039e-39
0.0021028665 -0.0035047606 0.73600006 1.1046352e-39
0.003504771 -0.0035047531 0.73600006 8.3055801e-40
0.0049066758 -0.003504768 0.73600012 5.5540184e-40
0.006308578 -0.0035047606 0.73600006 6.4651007e-40
0.0076895342 -0.0034952536 0.73400003 7.3800645e-40
0.009112386 -0.0035047531 0.73600006 7.373072e-40
0.010485734 -0.0034952536 0.73400009 8.2986016e-40
0.011883818 -0.0034952536 0.73400003 9.2241172e-40
0.013281917 -0.0034952462 0.73400003 1.0142458e-39
0.014680017 -0.0034952536 0.73400009 7.3802046e-40
0.016078107 -0.0034952387 0.73400003 4.6105662e-40
0.017476207 -0.0034952536 0.73400003 5.528683e-40
0.018874306 -0.0034952536 0.73400009 5.5252918e-40
0.020272391 -0.0034952462 0.73400003 5.525474e-40
0.021729538 -0.0035047606 0.73600006 5.5253058e-40
0.023131443 -0.003504768 0.73600006 8.2909645e-40
0.024533344 -0.0035047531 0.73600006 1.1056819e-39
0.025935248 -0.0035047606 0.73600006 1.2886383e-39
0.027337154 -0.0035047606 0.73600006 1.4712163e-39
0.028739065 -0.0035047606 0.73600012 1.1034987e-39
0.030181913 -0.0035095289 0.73700005 8.2766012e-40
0.031585716 -0.0035095215 0.73700005 6.4401435e-40
0.032989532 -0.0035095289 0.73700005 5.5219287e-40
0.034393344 -0.0035095289 0.73700005 1.5649085e-39
0.035797141 -0.003509514 0.73700005 2.5786778e-39
0.037301905 -0.0035190508 0.73900002 3.4102112e-39
0.038761914 -0.0035238117 0.74000001 4.3317989e-39
0.040171441 -0.0035238117 0.74000001 3.8733431e-39
0.041693345 -0.003533341 0.74200004 3.5059815e-39
0.043106668 -0.0035333335 0.74200004 2.6751376e-39
0.044579998 -0.0035380945 0.74300003 1.9361559e-39
0.046242867 -0.0035571456 0.74700004 5.6289543e-39
0.047729548 -0.003561914 0.74800003 9.2230999e-39
0.049154308 -0.0035619214 0.74800009 9.2209517e-39
0.051052392 -0.003595233 0.75500005 9.2195055e-39
0.052560002 -0.0035999939 0.75600004 9.5864776e-39
0.054000013 -0.0036000013 0.75600004 9.9534692e-39
0.055440009 -0.0036000088 0.75600004 9.8619995e-39
0.056880005 -0.0035999864 0.75600004 9.8619953e-39
0.058320008 -0.0035999939 0.75600004 9.8627071e-39
-0.022438083 -0.002171427 0.76000005 3.411583e-39
-0.020990461 -0.0021714345 0.76000005 3.0424502e-39
-0.019440005 -0.0021599904 0.75599998 2.3066914e-39
-0.017976185 -0.0021571368 0.75500005 1.5691446e-39
-0.016428564 -0.0021428689 0.75000006 1.3836869e-39
-0.014959976 -0.0021371692 0.74800009 1.1982167e-39
-0.013517123 -0.0021342859 0.74700004 7.3831613e-40
-0.012061897 -0.0021285713 0.74500006 1.8838776e-40
-0.010642841 -0.0021285787 0.74500006 3.7170983e-40
-0.0091990456 -0.0021228418 0.74300003 5.5539203e-40
-0.0077838027 -0.0021228492 0.74300003 7.4122663e-40
-0.0063685686 -0.0021228492 0.74300003 9.2306893e-40
-0.0049533243 -0.0021228492 0.74300003 6.4645261e-40
-0.00353808 -0.0021228567 0.74300009 2.7878553e-40
-0.0021057001 -0.0021057203 0.73700005 6.4688001e-40
-0.00070190127 -0.0021057054 0.73700005 9.2167884e-40
0.00070095086 -0.0021028519 0.73600006 1.0124494e-39
0.0021028633 -0.002102837 0.73600006 1.1049995e-39
0.0035047673 -0.0021028519 0.73600006 1.0138801e-39
0.0049066795 -0.0021028519 0.73600006 8.2948601e-40
0.0063085849 -0.0021028519 0.73600012 7.3620998e-40
0.0076895407 -0.0020971596 0.73400003 6.4474163e-40
0.0091123832 -0.0021028593 0.73600006 5.5255581e-40
0.010485724 -0.0020971447 0.73400003 3.7103861e-40
0.011883823 -0.0020971522 0.73400003 6.4798003e-40
0.013281923 -0.0020971671 0.73400009 9.2240612e-40
0.014680014 -0.0020971522 0.73400003 6.4725416e-40
0.016121911 -0.0021028519 0.73600006 3.7030293e-40
0.017476207 -0.0020971671 0.73400009 4.6212862e-40
0.018874297 -0.0020971522 0.73400003 4.6106363e-40
0.020272397 -0.0020971522 0.73400003 3.6923934e-40
0.021670496 -0.0020971522 0.73400009 2.7774997e-40
0.023068586 -0.0020971522 0.73400003 7.3799103e-40
0.024533352 -0.0021028593 0.73600006 1.1056946e-39
0.025935246 -0.0021028593 0.73600006 1.3808451e-39
0.027337149 -0.0021028444 0.73600006 1.6549055e-39
0.028739063 -0.0021028593 0.73600006 1.1950007e-39
0.030140966 -0.0021028668 0.73600006 6.4436328e-40
0.031585716 -0.0021057203 0.73699999 4.6035037e-40
0.032989539 -0.0021057203 0.73700005 2.7776538e-40
0.034393344 -0.0021057203 0.73700005 1.656744e-39
0.035797149 -0.0021057203 0.73700005 2.9463814e-39
0.037301902 -0.0021114349 0.73900002 4.0509128e-39
0.038761918 -0.002114296 0.74000001 5.0646976e-39
0.040171437 -0.002114296 0.74000001 4.4232925e-39
0.041693348 -0.0021200106 0.7420001 3.7800699e-39
0.043164771 -0.0021228492 0.74300003 2.9495889e-39
0.044580016 -0.0021228641 0.74300009 2.0344556e-39
0.046304785 -0.0021371543 0.74800003 5.6328947e-39
0.047729548 -0.0021371618 0.74800009 9.1269652e-39
0.049285736 -0.0021428615 0.75000006 9.0365828e-39
0.051052388 -0.0021571368 0.75500005 8.9436515e-39
0.052560009 -0.0021599978 0.75600004 9.4031681e-39
0.054000016 -0.0021599978 0.75600004 9.7708702e-39
0.055440009 -0.0021599978 0.75600004 9.7705129e-39
0.056880008 -0.0021600053 0.75600004 9.7701738e-39
0.058320019 -0.0021599978 0.75600004 9.7716283e-39
-0.023885703 -0.000723809 0.76000005 4.1466467e-39
-0.022379024 -0.00072192401 0.75800008 3.4097585e-39
-0.020935213 -0.00072192401 0.75800008 2.7665625e-39
-0.019439995 -0.00072000176 0.75600004 2.2134084e-39
-0.017976185 -0.00071905553 0.75500005 1.7528072e-39
-0.016472375 -0.00071619451 0.75200003 1.5673523e-39
-0.014959984 -0.00071239471 0.74800003 1.3808045e-39
-0.013517126 -0.00071142614 0.74699998 9.2305492e-40
-0.012061898 -0.00070951879 0.74500006 5.5788494e-40
-0.010642841 -0.00070951879 0.74500006 6.4722753e-40
-0.0092237853 -0.00070953369 0.74500006 7.3800505e-40
-0.0078047547 -0.00070951134 0.74500006 8.3129369e-40
-0.0063685668 -0.00070761889 0.74300009 1.0159862e-39
-0.0049533332 -0.00070761889 0.74300003 9.2230242e-40
-0.0035333221 -0.00070668757 0.7420001 9.216298e-40
-0.0021142738 -0.00070478022 0.74000001 1.0135087e-39
-0.00070189429 -0.0007019043 0.73700005 1.1975497e-39
0.00070096483 -0.00070095062 0.73600006 1.3808717e-39
0.0021028698 -0.00070095062 0.73600012 1.6563782e-39
0.0035047636 -0.00070095062 0.73600006 1.3808717e-39
0.0049066758 -0.00070093572 0.73600006 1.1046464e-39
0.0063085807 -0.00070094317 0.73600006 9.2025512e-40
0.0076895286 -0.00069905072 0.73400003 8.2805949e-40
0.009112386 -0.00070093572 0.73600006 7.3729879e-40
0.01048573 -0.00069906563 0.73400003 6.4725976e-40
0.011883819 -0.00069905072 0.73400003 9.2240892e-40
0.013281919 -0.00069906563 0.73400003 1.288309e-39
0.014680021 -0.00069906563 0.73400003 9.2095998e-40
0.016078113 -0.00069906563 0.73400009 5.5362219e-40
0.017476201 -0.00069905818 0.73400003 5.5290753e-40
0.018925725 -0.00070095062 0.73600006 5.5183554e-40
0.020327635 -0.00070095807 0.73600006 5.5255581e-40
0.021729531 -0.00070094317 0.73600006 6.4474163e-40
0.023131436 -0.00070095062 0.73600006 9.213145e-40
0.024533348 -0.00070095807 0.73600006 1.1975413e-39
0.025935249 -0.00070095062 0.73600006 1.2886621e-39
0.027337147 -0.00070094317 0.73600006 1.470894e-39
0.028739057 -0.00070095807 0.73600006 1.1035478e-39
0.030140961 -0.00070094317 0.73600006 8.2876715e-40
0.031542867 -0.00070095807 0.73600006 7.3694006e-40
0.032989532 -0.00070189685 0.73700005 6.4582903e-40
0.034393344 -0.00070189685 0.73700005 1.6581775e-39
0.035797145 -0.00070189685 0.73699999 2.7641467e-39
0.037301905 -0.00070381165 0.73900002 3.6842925e-39
0.038761914 -0.00070478767 0.74000007 4.6051698e-39
0.040280011 -0.00070668012 0.74200004 4.1481559e-39
0.041693345 -0.00070668757 0.74200004 3.6904036e-39
0.04316476 -0.00070761144 0.74300003 2.765939e-39
0.044700015 -0.00070952624 0.74500006 1.8429009e-39
0.046304788 -0.00071240216 0.74800009 5.350924e-39
0.047857162 -0.00071429461 0.75000006 8.8503895e-39
0.049417153 -0.00071619451 0.75200003 8.9444068e-39
0.051052395 -0.00071904808 0.75500005 9.0337046e-39
0.052560013 -0.00072000921 0.75600004 9.218065e-39
0.054000005 -0.00072000176 0.75600004 9.404959e-39
0.05544002 -0.00072000176 0.75600004 9.4932015e-39
0.056880005 -0.00071999431 0.75600004 9.5843644e-39
0.058474302 -0.00072190911 0.75800002 9.5851253e-39
-0.025366658 0.00072476268 0.76100004 2.8566716e-39
-0.023822855 0.00072188675 0.75800002 4.5111189e-39
-0.02237903 0.00072188675 0.75800008 3.4976732e-39
-0.020935221 0.0007218793 0.75800008 2.4882016e-39
-0.019439997 0.00072000176 0.75599998 2.2116203e-39
-0.017976174 0.00071904808 0.75500005 1.8439294e-39
-0.016472366 0.00071619451 0.75200003 1.6599109e-39
-0.014999986 0.00071426481 0.75000006 1.4747868e-39
-0.013517134 0.00071143359 0.74700004 1.1989047e-39
-0.012094267 0.00071142614 0.74700004 9.2270319e-40
-0.010642842 0.00070953369 0.74500006 9.2093195e-40
-0.0092237862 0.00070952624 0.74500012 9.2130469e-40
-0.0078047556 0.00070952624 0.74500006 1.0135115e-39
-0.0063685612 0.00070761889 0.74300003 1.0138408e-39
-0.0049533169 0.00070761144 0.74300009 1.2882417e-39
-0.0035380831 0.00070762634 0.74300003 1.563779e-39
-0.0021057145 0.0007019043 0.73700005 1.4719744e-39
-0.00070190127 0.0007019043 0.73699999 1.3812277e-39
0.0007009611 0.00070096552 0.73600006 1.7492997e-39
0.0021028661 0.00070095062 0.73600006 2.1159214e-39
0.0035047701 0.00070095807 0.73600006 1.7485753e-39
0.0049066721 0.00070096552 0.73600006 1.3805158e-39
0.0062914421 0.00069904327 0.73400003 1.1957672e-39
0.0076895352 0.00069903582 0.73400003 9.2060965e-40
0.0090876352 0.00069903582 0.73400009 9.2167604e-40
0.010485725 0.00069903582 0.73400003 9.2204178e-40
0.0119162 0.00070096552 0.73600006 1.2890334e-39
0.013281925 0.00069903582 0.73400009 1.5634525e-39
0.014680008 0.00069904327 0.73400003 1.103189e-39
0.016078109 0.00069903582 0.73400003 6.4438149e-40
0.017476207 0.00069903582 0.73400009 6.4403257e-40
0.018874299 0.00069903582 0.73400003 6.4403397e-40
0.020327631 0.00070095807 0.73600006 8.2770637e-40
0.021670498 0.00069903582 0.73400003 9.1988798e-40
0.023131432 0.00070095807 0.73600006 1.1042638e-39
0.024533344 0.00070095807 0.73600006 1.2890208e-39
0.025935249 0.00070095807 0.73600006 1.289388e-39
0.027337151 0.00070094317 0.73600006 1.1961133e-39
0.028739056 0.00070095807 0.73600006 1.1035548e-39
0.030140959 0.00070095807 0.73600006 9.2060825e-40
0.031585727 0.0007019043 0.73700005 9.2097399e-40
0.032989532 0.0007019043 0.73700005 9.2169706e-40
0.034393337 0.0007019192 0.73700005 1.7489396e-39
0.035894286 0.00070381165 0.73899996 2.5794009e-39
0.037352402 0.00070475042 0.74000007 3.4091448e-39
0.038866669 0.00070665032 0.74200004 4.1467028e-39
0.040280003 0.00070667267 0.74200004 3.8729956e-39
0.041749533 0.00070761144 0.74300003 3.5949653e-39
0.043164779 0.00070761889 0.74300009 2.5801002e-39
0.044700015 0.00070952624 0.74500006 1.5716964e-39
0.046304792 0.00071236491 0.74800009 5.0768637e-39
0.047857158 0.00071427226 0.75000006 8.5730964e-39
0.049417157 0.00071619451 0.75200003 8.8572405e-39
0.051120006 0.00072000176 0.75600004 9.1248254e-39
0.052560005 0.00071998686 0.75600004 9.122645e-39
0.054142877 0.00072188675 0.75800002 9.028992e-39
0.055586684 0.0007218942 0.75800002 9.2122818e-39
0.057030495 0.0007218942 0.75800008 9.3959963e-39
0.058628581 0.000723809 0.76000011 9.3989082e-39
-0.025433334 0.0021799952 0.76300001 2.3974675e-39
-0.02382285 0.0021656975 0.75800002 3.8697053e-39
-0.022379039 0.002165705 0.75800002 3.2243443e-39
-0.020935228 0.0021656975 0.75800002 2.5786176e-39
-0.019440001 0.0021599978 0.75600004 2.2116245e-39
-0.01799999 0.0021599904 0.75600004 1.935053e-39
-0.016472371 0.0021485686 0.75200003 1.7513933e-39
-0.014999975 0.0021428466 0.75000012 1.4755e-39
-0.013535207 0.002137132 0.74800009 1.1070524e-39
-0.012094274 0.0021342784 0.74700004 8.2977889e-40
-0.010642843 0.0021285638 0.74500006 8.2944678e-40
-0.0092237871 0.0021285787 0.74500006 9.2021448e-40
-0.0078047574 0.0021285787 0.74500006 9.2129909e-40
-0.00636857 0.0021228641 0.74300003 9.2165362e-40
-0.0049533262 0.0021228492 0.74300003 9.2093055e-40
-0.0035380917 0.0021228641 0.74300003 9.202313e-40
-0.0021057066 0.0021057203 0.73700005 9.2132571e-40
-0.00070189848 0.0021057129 0.73700011 1.0142528e-39
0.00070095691 0.0021028593 0.73600006 1.3816088e-39
0.0021028623 0.0021028668 0.73600006 1.7475089e-39
0.0035047738 0.0021028593 0.73600006 1.5645483e-39
0.0049066786 0.0021028593 0.73600006 1.3808787e-39
0.0062914402 0.0020971224 0.73400003 1.1964903e-39
0.0076895407 0.0020971298 0.73400009 1.1035604e-39
0.0090876305 0.0020971298 0.73400003 1.0131416e-39
0.010514295 0.0021028593 0.73600006 9.2203617e-40
0.011916196 0.0021028668 0.73600006 1.0131668e-39
0.013281921 0.0020971298 0.73400003 1.1035548e-39
0.014680015 0.0020971373 0.73400003 8.28393e-40
0.016121916 0.0021028593 0.73600006 4.607105e-40
0.017523823 0.0021028519 0.73600012 5.5256281e-40
0.018925717 0.0021028668 0.73600006 5.5220268e-40
0.020327628 0.0021028593 0.73600006 7.3587227e-40
0.021729533 0.0021028444 0.73600006 9.1952785e-40
0.023131438 0.0021028668 0.73600006 1.1964539e-39
0.024533341 0.0021028668 0.73600006 1.473052e-39
0.025935242 0.0021028593 0.73600006 1.2890376e-39
0.027337158 0.0021028668 0.73600006 1.1957616e-39
0.028739059 0.0021028519 0.73600006 1.1039205e-39
0.030140961 0.0021028593 0.73600006 1.0120906e-39
0.031585719 0.0021057129 0.73700005 1.0124536e-39
0.032989535 0.0021057203 0.73700005 1.0131766e-39
0.034393337 0.0021057129 0.73700005 1.7503773e-39
0.035894286 0.00211142 0.73900002 2.3953726e-39
0.037352391 0.0021142736 0.74000001 3.0425202e-39
0.038866676 0.0021199882 0.7420001 3.6893134e-39
0.040334292 0.0021228567 0.74300009 3.2283394e-39
0.041861914 0.0021285713 0.74500006 2.7662795e-39
0.043280967 0.0021285713 0.74500006 2.3935439e-39
0.044820007 0.0021343008 0.74699998 2.0208279e-39
0.046304785 0.002137132 0.74800003 4.2428221e-39
0.047857169 0.0021428391 0.75000012 6.4565836e-39
0.049417157 0.0021485835 0.75200003 5.5353826e-39
0.051052388 0.0021571442 0.75500005 4.6177156e-39
0.052490488 0.0021571442 0.75500005 6.6312498e-39
0.054000009 0.0021599904 0.75600004 8.6519502e-39
0.055440012 0.0021599904 0.75600004 8.4689561e-39
0.056880001 0.0021600053 0.75600004 8.3782388e-39
0.05847431 0.002165705 0.75800008 7.923048e-39
-0.02543333 0.0036333278 0.76300001 2.0355051e-39
-0.023822846 0.0036095083 0.75800008 3.2279302e-39
-0.022379031 0.0036095083 0.75800002 2.9509888e-39
-0.020935223 0.0036095083 0.75800002 2.5811315e-39
-0.019440003 0.0036000088 0.75599998 2.3052635e-39
-0.01799999 0.0036000088 0.75600004 2.0279774e-39
-0.016472379 0.0035809502 0.75200003 1.7514101e-39
-0.014999988 0.0035714135 0.75000006 1.475521e-39
-0.013535215 0.0035619065 0.74800003 1.1077965e-39
-0.012094278 0.003557153 0.74700004 6.471981e-40
-0.010671409 0.0035571456 0.74700004 8.3052578e-40
-0.009223789 0.0035476089 0.74500012 9.2200394e-40
-0.0078047435 0.0035476387 0.74500006 9.2164801e-40
-0.0063685686 0.003538087 0.74300009 8.2980131e-40
-0.0049533346 0.0035380945 0.74300003 5.5356754e-40
-0.0035333282 0.0035333186 0.74200004 2.7844361e-40
-0.0021057141 0.0035095289 0.73700005 4.6249856e-40
-0.00070189056 0.0035095289 0.73700005 5.5506413e-40
0.00070096343 0.003504768 0.73600012 1.0146144e-39
0.0021028582 0.003504768 0.73600006 1.3815934e-39
0.0035047696 0.0035047606 0.73600006 1.3815906e-39
0.0049066748 0.003504768 0.73600006 1.2894076e-39
0.0063085798 0.0035047606 0.73600006 1.2894188e-39
0.0076895365 0.0034952238 0.73400003 1.2886817e-39
0.009112386 0.0035047755 0.73600006 1.1046338e-39
0.010514291 0.0035047606 0.73600006 9.2204598e-40
0.011916203 0.0035047606 0.73600006 8.2986016e-40
0.013318097 0.0035047755 0.73600006 6.4582063e-40
0.014720008 0.003504768 0.73600006 4.6178109e-40
0.016121913 0.0035047606 0.73600006 2.7776818e-40
0.017523818 0.003504768 0.73600006 3.6997783e-40
0.018925723 0.003504768 0.73600006 4.6073152e-40
0.020327624 0.0035047606 0.73600006 6.4367944e-40
0.021729529 0.0035047755 0.73600006 8.2841402e-40
0.023131434 0.0035047606 0.73600006 1.1964623e-39
0.024533344 0.0035047531 0.73600006 1.5645287e-39
0.025935242 0.0035047755 0.73600006 1.3819423e-39
0.027374296 0.0035095215 0.73700005 1.1049967e-39
0.028778102 0.0035095364 0.73700005 1.1046352e-39
0.030181915 0.0035095215 0.73700005 1.0124451e-39
0.031585719 0.0035095215 0.73700005 1.1032086e-39
0.032989524 0.0035095289 0.73700005 1.1053666e-39
0.034486677 0.0035190508 0.73900002 1.6596152e-39
0.035894293 0.0035190508 0.73900002 2.2120519e-39
0.037352394 0.0035238042 0.74000007 2.7673585e-39
0.038866669 0.0035333186 0.74200004 3.2286926e-39
0.040334299 0.0035380945 0.74300003 2.5840546e-39
0.041861918 0.0035476312 0.74500006 1.8461365e-39
0.043397155 0.003557153 0.74699998 2.1155389e-39
0.044820007 0.0035571456 0.74700004 2.3975474e-39
0.046304788 0.0035618991 0.74800009 3.4163937e-39
0.047857162 0.0035714135 0.75000006 4.3386863e-39
0.04928574 0.0035714135 0.75000012 2.2096025e-39
0.050917167 0.0035857111 0.75300008 1.0420896e-40
0.052490488 0.0035952255 0.75500005 4.1331396e-39
0.054000013 0.0035999939 0.75600004 8.2004322e-39
0.055586688 0.0036095083 0.75800008 7.8169333e-39
0.057030495 0.0036095157 0.75800002 7.3778378e-39
0.059168573 0.0036523789 0.76700002 6.5380382e-39
0.060708582 0.0036571473 0.76800007 5.632557e-39
0.062333353 0.0036666542 0.77000004 4.8935276e-39
-0.025433337 0.0050866753 0.76300001 2.0351436e-39
-0.023885703 0.005066663 0.76000005 3.0456928e-39
-0.022319989 0.0050399974 0.75600004 2.8595093e-39
-0.020879989 0.0050400048 0.75600004 2.580777e-39
-0.019439992 0.0050399974 0.75600004 2.2127189e-39
-0.017976185 0.005033344 0.755 1.844319e-39
-0.016472369 0.0050133392 0.75200003 1.65959e-39
-0.014999988 0.0049999878 0.75000006 1.3837066e-39
-0.013571411 0.0049999803 0.75000012 9.2343467e-40
-0.012110458 0.0049866661 0.74800003 4.6282506e-40
-0.010671418 0.0049799904 0.74700004 6.4721492e-40
-0.009223789 0.0049666688 0.74500006 8.3231804e-40
-0.0078047444 0.0049666688 0.74500006 9.2307313e-40
-0.006368563 0.0049533322 0.74300003 1.0145331e-39
-0.004953329 0.0049533397 0.74300003 7.3829231e-40
-0.0035333335 0.004946664 0.74200004 5.5465215e-40
-0.0021057061 0.004913345 0.73699999 6.4615974e-40
-0.00070189801 0.0049133301 0.73700005 7.3836658e-40
0.0007009597 0.0049066693 0.73600006 1.0146017e-39
0.0021028721 0.0049066618 0.73600006 1.2908271e-39
0.0035047659 0.0049066842 0.73600006 1.1986329e-39
0.0049066707 0.0049066767 0.73600006 1.1061009e-39
0.0063085821 0.0049066618 0.73600006 1.1979574e-39
0.0077104871 0.0049066767 0.73600006 1.1982966e-39
0.0091123814 0.0049066693 0.73600006 1.1060827e-39
0.010514295 0.0049066618 0.73600006 1.0149675e-39
0.0119162 0.0049066767 0.73600006 9.2277606e-40
0.013318105 0.0049066693 0.73600006 7.3874073e-40
0.014720015 0.0049066618 0.73600012 5.5398793e-40
0.016121909 0.0049066767 0.73600006 4.6180912e-40
0.017523814 0.0049066693 0.73600006 5.532999e-40
0.018925726 0.0049066618 0.73600006 7.3624361e-40
0.02032763 0.0049066618 0.73600006 6.4439691e-40
0.021729533 0.0049066767 0.73600006 5.536292e-40
0.023131438 0.0049066693 0.73600006 1.1046338e-39
0.024533343 0.0049066693 0.73600006 1.6560055e-39
0.025970489 0.0049133375 0.73700005 1.1053512e-39
0.027374296 0.0049133375 0.73700005 6.4617235e-40
0.0287781 0.0049133375 0.73700005 6.4581222e-40
0.030181918 0.0049133375 0.73700005 7.3836938e-40
0.031585719 0.0049133375 0.73700005 6.4510316e-40
0.032989532 0.0049133301 0.73700005 6.454689e-40
0.034486666 0.0049266741 0.73899996 1.3819521e-39
0.035894293 0.0049266592 0.73900002 2.1173382e-39
0.037352402 0.0049333125 0.74000007 2.675509e-39
0.038866676 0.0049466491 0.7420001 3.3233895e-39
0.040334288 0.0049533397 0.74300003 2.1241569e-39
0.041861918 0.0049666762 0.74500006 1.0203401e-39
0.043397158 0.0049799979 0.74700004 1.7550254e-39
0.044820014 0.0049799904 0.74700004 2.5877274e-39
0.046304792 0.0049866438 0.74800009 4.1579833e-39
0.047857154 0.0049999952 0.75000006 5.82354e-39
0.049285732 0.0049999803 0.75000012 3.9699304e-39
0.050917152 0.00502 0.75300002 2.1293193e-39
0.05249048 0.0050333366 0.75500005 6.6497498e-39
0.054000009 0.0050399974 0.75600004 1.1280636e-38
0.055733345 0.005066663 0.76000011 1.1631128e-38
0.057406671 0.0050866678 0.76300001 1.2012764e-38
0.059168581 0.0051133335 0.76700002 1.1715319e-38
0.060866684 0.0051333383 0.77000004 1.1343217e-38
0.062171433 0.0051199943 0.76800001 1.0414721e-38
0.063634299 0.0051199943 0.76800001 9.4684392e-39
0.065266676 0.0051333234 0.77000004 8.2922089e-39
0.066733345 0.0051333383 0.77000004 7.1937618e-39
0.068200022 0.0051333234 0.7700001 7.2870239e-39
0.069485731 0.0051200092 0.76800001 7.4724997e-39
0.070948593 0.0051200017 0.76800001 8.9454662e-39
-0.025433332 0.006539993 0.76300001 2.1287742e-39
-0.023917135 0.0065228567 0.76100004 2.8616645e-39
-0.022319993 0.0064800084 0.75600004 2.768394e-39
-0.020879995 0.0064800009 0.75600004 2.5814931e-39
-0.019414287 0.0064714253 0.75500005 2.119803e-39
-0.017928561 0.0064542815 0.75300002 1.6595494e-39
-0.016472375 0.0064457208 0.75200003 1.4751609e-39
-0.015039986 0.0064457059 0.75200003 1.2911326e-39
-0.01357141 0.0064285621 0.75000006 8.3088031e-40
-0.012142844 0.0064285621 0.75000006 2.795128e-40
-0.0106857 0.0064114109 0.74800003 4.6354673e-40
-0.0092485677 0.0064028576 0.74699998 6.4793519e-40
-0.0078256996 0.0064028576 0.74700004 9.2344168e-40
-0.006368571 0.00636857 0.74300003 1.1067455e-39
-0.0049533271 0.00636857 0.74300003 1.0145429e-39
-0.0035333282 0.006359987 0.7420001 8.2981392e-40
-0.0021114254 0.006334275 0.73900002 8.2911327e-40
-0.00070189056 0.0063171461 0.73700005 8.2948321e-40
0.00070190732 0.0063171461 0.73700005 1.0146017e-39
0.0021057229 0.0063171461 0.73700011 1.1067918e-39
0.0035047729 0.0063085705 0.73600006 1.0156709e-39
0.0049066674 0.006308578 0.73600006 9.2313479e-40
0.0063085789 0.0063085854 0.73600006 1.0135522e-39
0.0077104839 0.006308578 0.73600006 1.1064485e-39
0.0091123879 0.0063085705 0.73600006 1.106433e-39
0.010514291 0.0063085854 0.73600006 1.1071561e-39
0.011916196 0.006308578 0.73600006 1.0160437e-39
0.013318108 0.0063085631 0.73600006 8.3056782e-40
0.014720012 0.006308578 0.73600006 7.3692605e-40
0.016121916 0.0063085705 0.73600012 5.5327187e-40
0.01752382 0.0063085705 0.73600006 7.3731981e-40
0.018925725 0.0063085854 0.73600006 9.2026633e-40
0.020327626 0.0063085705 0.73600006 5.5255861e-40
0.021729538 0.0063085631 0.73600006 1.8664455e-40
0.023131434 0.006308578 0.73600006 9.2096138e-40
0.024533337 0.0063085705 0.73600006 1.6563614e-39
0.025935251 0.0063085705 0.73600006 9.2024111e-40
0.027337154 0.006308578 0.73600006 1.8663053e-40
0.028778104 0.0063171387 0.73700011 2.781059e-40
0.030181916 0.0063171387 0.73700005 3.7030853e-40
0.031585719 0.0063171536 0.73700005 2.7740525e-40
0.032989524 0.0063171536 0.73699999 1.8701029e-40
0.034393348 0.0063171312 0.73700005 1.105731e-39
0.035942864 0.0063428581 0.74000001 1.9369e-39
0.037453339 0.006359987 0.74200004 2.6780285e-39
0.038919054 0.0063685775 0.74300003 3.4094853e-39
0.04044288 0.0063857138 0.74500012 1.7517842e-39
0.041861918 0.0063857138 0.74500006 1.0017182e-40
0.043397162 0.0064028576 0.74700004 1.4794895e-39
0.044820018 0.0064028502 0.74700004 2.7703082e-39
0.046242867 0.0064028651 0.74699998 4.987374e-39
0.047729537 0.0064114109 0.74800003 7.19569e-39
0.049285732 0.0064285696 0.75000006 5.6247616e-39
0.050849542 0.0064457208 0.75200003 4.0689686e-39
0.052490488 0.0064714327 0.75500005 9.2394082e-39
0.05414287 0.0064971149 0.75800002 1.4293616e-38
0.055806685 0.0065228567 0.7610001 1.5505799e-38
0.05770763 0.0065742806 0.76700008 1.6592741e-38
0.059245717 0.0065828562 0.76800001 1.6875048e-38
0.060866684 0.0066 0.7700001 1.7048616e-38
0.062171441 0.0065828562 0.76800007 1.5954423e-38
0.063634299 0.0065828487 0.76800001 1.4830157e-38
0.065266684 0.0065999851 0.7700001 9.5897973e-39
0.06673336 0.0066 0.77000004 4.2514737e-39
0.068200022 0.0066 0.77000004 4.5215726e-39
0.069485724 0.0065828487 0.76800001 4.8035432e-39
0.070948586 0.0065828562 0.76800001 7.8416564e-39
0.072600022 0.0066 0.77000004 1.0783939e-38
0.074066691 0.0066 0.7700001 1.0602021e-38
0.075533353 0.0066000074 0.77000004 1.0418696e-38
-0.0255 0.0080142841 0.76500005 2.2177398e-39
-0.023979994 0.0079933405 0.76300001 3.0442607e-39
-0.02237903 0.0079409406 0.75800002 2.7666018e-39
-0.020879995 0.0079200044 0.75600004 2.5807742e-39
-0.019414274 0.0079095066 0.75500005 2.1197988e-39
-0.017928557 0.007888563 0.75300002 1.5666152e-39
-0.016472356 0.0078780875 0.75200009 1.3836435e-39
-0.015039979 0.0078780949 0.75200003 1.1996348e-39
-0.01357141 0.0078571215 0.75000006 9.227144e-40
-0.012142833 0.0078571364 0.75000012 6.4649745e-40
-0.010671414 0.0078257173 0.74700004 7.3905602e-40
-0.0092237918 0.0078047514 0.74500006 8.3161319e-40
-0.0078047463 0.0078047737 0.74500006 9.2309275e-40
-0.0063685654 0.0077838227 0.74300003 1.0145695e-39
-0.0049533211 0.0077838078 0.74300003 9.2165782e-40
-0.0035380917 0.0077838004 0.74300009 9.202271e-40
-0.0021114254 0.0077418908 0.73900002 9.202313e-40
-0.00070380024 0.0077419057 0.73900002 9.1952505e-40
0.00070190732 0.0077209547 0.73700005 1.1964777e-39
0.0021057234 0.0077209473 0.73700005 1.4734121e-39
0.0035095287 0.0077209547 0.73700005 1.3830031e-39
0.0049066814 0.0077104792 0.73600006 1.2922564e-39
0.0063085752 0.0077104792 0.73600006 1.1989986e-39
0.0077104801 0.0077104792 0.73600006 1.1071519e-39
0.0091123916 0.0077104867 0.73600006 1.1071407e-39
0.010514297 0.0077104867 0.73600006 1.1067918e-39
0.011916192 0.0077104792 0.73600006 1.0149647e-39
0.013318105 0.0077104867 0.73600006 9.2167604e-40
0.014720008 0.0077104792 0.73600006 8.2874613e-40
0.016121913 0.0077104717 0.73600006 7.3549532e-40
0.017523825 0.0077104792 0.73600006 8.2842663e-40
0.018925721 0.0077104867 0.73600006 1.0120948e-39
0.020327622 0.0077104792 0.73600006 7.3802046e-40
0.021729534 0.0077104867 0.73600006 5.5577739e-40
0.02316286 0.0077209547 0.73700005 1.0145891e-39
0.024566676 0.0077209547 0.73700005 1.4744813e-39
0.025970483 0.0077209547 0.73700005 1.1057002e-39
0.027374286 0.0077209473 0.73700005 6.4652128e-40
0.02877811 0.0077209473 0.73700005 6.4580101e-40
0.030181916 0.0077209473 0.73700005 6.4617235e-40
0.031585719 0.0077209547 0.73700005 5.5434807e-40
0.032989535 0.0077209547 0.73700005 5.5579e-40
0.03453334 0.0077523589 0.74000001 1.2915558e-39
0.036040008 0.0077733248 0.7420001 2.121294e-39
0.037453342 0.0077733248 0.7420001 2.3985844e-39
0.038919054 0.0077838227 0.74300003 2.7626908e-39
0.040334299 0.0077838078 0.74300003 1.7517744e-39
0.041861914 0.0078047663 0.74500006 7.4048955e-40
0.043397162 0.0078257024 0.74700004 1.2918416e-39
0.044820011 0.0078257173 0.74699998 1.8426108e-39
0.04624287 0.0078257173 0.74700004 3.1416957e-39
0.047729541 0.0078361779 0.74800009 4.4492347e-39
0.049285747 0.0078571215 0.75000012 3.5100326e-39
0.05071431 0.0078571364 0.75000012 2.6795825e-39
0.052142873 0.0078571364 0.75000006 5.6308881e-39
0.054357149 0.0079723746 0.76100004 8.658633e-39
0.0561 0.0080142915 0.76499999 8.9427911e-39
0.057707634 0.0080352426 0.76700008 9.303341e-39
0.059168573 0.0080352426 0.76700002 9.4056022e-39
0.060708579 0.0080457106 0.76800001 9.6036014e-39
0.062171441 0.0080456957 0.76800007 9.7858165e-39
0.063634306 0.0080457181 0.76800001 9.9812766e-39
0.065097161 0.0080457106 0.76800001 7.0145106e-39
0.066560015 0.0080457255 0.76800001 3.9652403e-39
0.068022877 0.0080457106 0.76800007 4.3314598e-39
0.069485731 0.0080457032 0.76800007 4.7045457e-39
0.070948593 0.0080457181 0.76800001 6.0899745e-39
0.07241144 0.0080457181 0.76800001 7.4782058e-39
0.074066684 0.0080666766 0.77000004 9.4978048e-39
0.07553336 0.0080666691 0.7700001 1.1516749e-38
0.077000022 0.0080666617 0.77000004 1.1699341e-38
0.078670494 0.0080876127 0.77200001 1.1879784e-38
0.080140963 0.0080876276 0.77199996 1.1505985e-38
-0.025499996 0.0094714314 0.76500005 2.3113914e-39
-0.02397999 0.0094466582 0.76300001 3.1357514e-39
-0.022438081 0.009409517 0.76000011 2.856652e-39
-0.020935228 0.0093847439 0.75800002 2.5804239e-39
-0.019439999 0.0093600079 0.75599998 2.0279717e-39
-0.017928552 0.0093228519 0.75300002 1.4762315e-39
-0.016472362 0.009310469 0.75200009 1.2929094e-39
-0.015039984 0.0093104839 0.75200003 1.1078133e-39
-0.013571414 0.0092857033 0.75000012 1.0141954e-39
-0.012110458 0.0092609376 0.74800003 9.2236408e-40
-0.010685693 0.0092609376 0.74800009 9.2236968e-40
-0.0092485547 0.0092485696 0.74700004 9.2273402e-40
-0.0078047472 0.0092238113 0.74500006 9.2273962e-40
-0.0063857059 0.0092238262 0.74500006 8.3053839e-40
-0.0049666502 0.0092238113 0.74500006 9.2129208e-40
-0.0035380856 0.0091990456 0.74300003 1.0120388e-39
-0.0021142701 0.009161897 0.74000001 1.0113101e-39
-0.00070474879 0.009161897 0.74000001 1.0113339e-39
0.00070381002 0.009149529 0.73899996 1.3787011e-39
0.002111438 0.0091495141 0.73900002 1.7481829e-39
0.0035095287 0.0091247633 0.73700005 1.6584886e-39
0.0049133338 0.0091247782 0.73699999 1.5666755e-39
0.0063171498 0.0091247633 0.73700005 1.3826682e-39
0.0077104764 0.0091123953 0.73600006 1.1075162e-39
0.0091123879 0.0091123879 0.73600006 1.1078722e-39
0.010514293 0.0091123804 0.73600006 1.1075134e-39
0.011916198 0.0091123804 0.73600006 1.0146003e-39
0.01331811 0.0091123804 0.73600006 9.2204038e-40
0.014720004 0.0091123879 0.73600006 9.2023971e-40
0.016121909 0.0091123879 0.73600006 9.1989078e-40
0.017523821 0.0091123879 0.73600006 1.0117361e-39
0.018925726 0.009112373 0.73600006 1.0131668e-39
0.020355251 0.0091247708 0.73700005 1.015315e-39
0.021759056 0.0091247708 0.73700005 9.2275924e-40
0.023162872 0.0091247559 0.73700011 1.1071435e-39
0.024566676 0.0091247633 0.73700005 1.2900956e-39
0.025970483 0.0091247708 0.73700005 1.1982601e-39
0.027374288 0.0091247708 0.73699999 1.1049883e-39
0.028778102 0.0091247633 0.73700005 1.0117179e-39
0.030263817 0.0091495141 0.73900002 8.2948882e-40
0.031671431 0.009149529 0.73900002 8.2985456e-40
0.033123821 0.0091618896 0.74000007 8.3057763e-40
0.034533348 0.0091618896 0.74000007 1.5663434e-39
0.036040004 0.0091866478 0.74200004 2.3046133e-39
0.037453335 0.0091866404 0.74200004 2.2152889e-39
0.03891905 0.0091990456 0.74300009 2.02872e-39
0.040334288 0.009199053 0.74300003 1.6599151e-39
0.041861914 0.0092238262 0.74500006 1.2907823e-39
0.043280963 0.0092238188 0.74500006 1.105319e-39
0.044820007 0.0092485771 0.74700004 9.2099921e-40
0.046304781 0.009260945 0.74800003 1.2866176e-39
0.047857162 0.0092856959 0.75000006 1.5739398e-39
0.049417164 0.009310469 0.75200009 1.3780495e-39
0.050849542 0.0093104839 0.75200003 1.2105187e-39
0.053185724 0.0094714165 0.76500005 2.129947e-39
0.054642852 0.0094714388 0.76500005 3.0490405e-39
0.056100011 0.0094714239 0.76500005 2.4869278e-39
0.057707626 0.0094961822 0.76700008 1.943465e-39
0.059245721 0.0095085651 0.76800001 2.0238379e-39
0.060708575 0.0095085725 0.76800001 2.0399767e-39
0.062171437 0.0095085725 0.76800007 3.6033283e-39
0.063634306 0.0095085651 0.76800007 5.0784177e-39
0.065097161 0.0095085725 0.76800001 4.4298113e-39
0.066560015 0.0095085651 0.76800001 3.6836283e-39
0.068022877 0.0095085502 0.76800007 4.1341766e-39
0.069485731 0.0095085725 0.76800007 4.5126281e-39
0.070948593 0.0095085651 0.76800001 4.3354016e-39
0.072600022 0.0095333308 0.77000004 4.1603318e-39
0.074066691 0.0095333233 0.77000004 8.3948022e-39
0.075533353 0.0095333382 0.77000004 1.2531701e-38
0.077000014 0.0095333382 0.77000004 1.2887921e-38
0.078466691 0.0095333308 0.77000004 1.3173482e-38
0.080140971 0.0095580816 0.77200001 1.2313971e-38
0.081611454 0.0095580965 0.77200001 1.1510383e-38
-0.023979995 0.010899998 0.76300001 3.687856e-39
-0.022438081 0.010857135 0.76000011 3.1339592e-39
-0.020935221 0.010828562 0.75800002 2.5811497e-39
-0.019491412 0.010828555 0.75800002 2.3034866e-39
-0.017928546 0.010757141 0.75300002 2.0272613e-39
-0.016472368 0.010742866 0.75200009 1.3836926e-39
-0.015039991 0.010742866 0.75200003 7.4084548e-40
-0.013571413 0.01071427 0.75000006 8.3160478e-40
-0.012110455 0.010685697 0.74800009 9.2272561e-40
-0.010685701 0.010685697 0.74800003 8.3089292e-40
-0.0092485473 0.010671414 0.74700004 8.3090133e-40
-0.0078047481 0.010642864 0.74500006 9.2274383e-40
-0.0063857068 0.010642856 0.74500006 1.0145667e-39
-0.0049666506 0.010642856 0.74500006 9.2164241e-40
-0.0035380947 0.010614283 0.74300003 8.2834396e-40
-0.0021142729 0.01057142 0.74000007 9.1979269e-40
-0.00070475205 0.010571413 0.74000007 1.0113073e-39
0.00070477626 0.010571405 0.74000007 1.1957336e-39
0.0021114287 0.010557137 0.73899996 1.4712247e-39
0.0035190561 0.010557145 0.73900002 1.4740791e-39
0.0049133445 0.010528557 0.73700005 1.4741113e-39
0.0063171498 0.010528579 0.73700005 1.5659777e-39
0.0077209552 0.010528579 0.73700005 1.7503717e-39
0.0091123842 0.010514289 0.73600006 1.4755869e-39
0.010514289 0.010514304 0.73600006 1.2929823e-39
0.011916202 0.010514289 0.73600006 1.1997007e-39
0.013318107 0.010514282 0.73600006 1.0153164e-39
0.01472001 0.010514289 0.73600012 1.0131682e-39
0.016143816 0.010528579 0.73700005 1.0113746e-39
0.01754762 0.010528587 0.73700005 1.0120906e-39
0.018951438 0.010528572 0.73700005 1.0135213e-39
0.020355241 0.010528572 0.73700005 8.3020348e-40
0.021759056 0.010528564 0.73700005 7.3729179e-40
0.023162862 0.010528572 0.73700005 1.1053512e-39
0.024566675 0.010528564 0.73700005 1.4719772e-39
0.025970481 0.010528587 0.73700005 1.1975483e-39
0.027448582 0.010557137 0.73900002 9.2096698e-40
0.028778104 0.010528572 0.73700005 7.3729599e-40
0.030181907 0.010528572 0.73700005 5.5434526e-40
0.031585731 0.010528572 0.73700011 7.3801906e-40
0.033123828 0.01057142 0.74000007 9.2133552e-40
0.034626674 0.010599986 0.74200004 1.8418471e-39
0.036040001 0.010600001 0.74200004 2.7637978e-39
0.037453331 0.010599993 0.74200004 2.30427e-39
0.038919058 0.010614283 0.74300003 1.8439686e-39
0.040334303 0.010614291 0.74300009 1.5669796e-39
0.041861922 0.010642856 0.74500006 1.290062e-39
0.043397162 0.010671429 0.74700004 1.471603e-39
0.044820014 0.010671422 0.74700004 1.7453397e-39
0.046304788 0.010685712 0.74800009 2.8538452e-39
0.047729544 0.010685712 0.74800003 3.957662e-39
0.049285728 0.01071427 0.75000006 4.7960155e-39
0.05071431 0.01071427 0.75000012 5.6343535e-39
0.053185716 0.010928571 0.76500005 5.6289515e-39
0.054642856 0.010928579 0.76499999 5.5331685e-39
0.056246683 0.010957137 0.76700008 5.1629553e-39
0.057707638 0.010957137 0.76700008 4.88746e-39
0.059245721 0.010971412 0.76800001 4.2345782e-39
0.060708582 0.010971434 0.76800001 3.5820566e-39
0.062171433 0.010971427 0.76800001 7.6472248e-39
0.063634299 0.01097142 0.76800007 1.175867e-38
0.065012395 0.010957137 0.76700008 8.0999704e-39
0.066473342 0.010957129 0.76700008 4.3167854e-39
0.06793429 0.010957159 0.76700002 3.3087529e-39
0.069395252 0.010957152 0.76700002 2.3042742e-39
0.070948593 0.010971427 0.76800007 2.2152805e-39
0.07241144 0.01097142 0.76800001 2.1263625e-39
0.073874295 0.010971427 0.76800001 7.7438009e-39
0.07553336 0.011000007 0.7700001 1.3377692e-38
0.077000022 0.011 0.77000004 1.5864424e-38
0.078466676 0.011000007 0.77000004 1.8366603e-38
0.07993336 0.010999992 0.7700001 1.7886639e-38
0.081611447 0.011028565 0.77199996 1.7540053e-38
0.083081931 0.011028565 0.77200001 1.7058223e-38
-0.020935217 0.012272358 0.75800008 2.4878639e-39
-0.01943999 0.01224 0.75599998 2.4860632e-39
-0.017928556 0.012191415 0.75300002 2.4846353e-39
-0.01647236 0.01217524 0.75200009 1.3811828e-39
-0.014999978 0.012142852 0.75000012 2.7987013e-40
-0.013571411 0.012142852 0.75000006 6.4792678e-40
-0.012110461 0.012110472 0.74800003 9.2308014e-40
-0.010671409 0.012094267 0.74700004 8.3089292e-40
-0.0092485659 0.012094289 0.74699998 6.4759327e-40
-0.0078047491 0.012061916 0.74500006 9.2311237e-40
-0.0063856933 0.012061909 0.74500006 1.1067693e-39
-0.0049666516 0.012061894 0.74500006 8.2981532e-40
-0.0035380784 0.012029514 0.74300009 5.5357875e-40
-0.0021199819 0.012013324 0.7420001 8.2799643e-40
-0.00070473994 0.011980943 0.74000007 1.0124059e-39
0.00070478092 0.011980936 0.74000007 1.1046226e-39
0.0021114291 0.011964761 0.73899996 1.1067651e-39
0.0035190557 0.011964761 0.73900002 1.2918627e-39
0.004913344 0.011932373 0.73700005 1.3830017e-39
0.0063171498 0.011932388 0.73700005 1.8407653e-39
0.0077209552 0.01193238 0.73700005 2.3017462e-39
0.0091123907 0.01191619 0.73600006 1.9347728e-39
0.010514297 0.01191619 0.73600006 1.4762876e-39
0.011916198 0.011916198 0.73600006 1.2925899e-39
0.013318103 0.011916205 0.73600006 1.1071365e-39
0.014720013 0.01191619 0.73600006 1.1053526e-39
0.016143816 0.011932388 0.73700005 1.0124451e-39
0.017547632 0.011932373 0.73700011 1.0120892e-39
0.018951437 0.01193238 0.73700005 9.2132712e-40
0.020355243 0.011932388 0.73700005 7.3765192e-40
0.021759048 0.011932388 0.73700005 5.5433686e-40
0.023162864 0.01193238 0.73700005 1.1046296e-39
0.024566671 0.01193238 0.73700005 1.6567257e-39
0.026040953 0.011964761 0.73899996 1.1982741e-39
0.027374297 0.01193238 0.73700005 7.3837359e-40
0.028778104 0.011932388 0.73700005 4.6214543e-40
0.030263806 0.011964761 0.73899996 1.8699767e-40
0.031714298 0.011980943 0.74000001 5.5433966e-40
0.033123817 0.011980958 0.74000001 9.2168305e-40
0.034626678 0.012013324 0.7420001 2.1155473e-39
0.036040004 0.012013316 0.7420001 3.2211648e-39
0.037453335 0.012013324 0.7420001 2.3939321e-39
0.03891905 0.012029521 0.74300003 1.5670244e-39
0.040334295 0.012029529 0.74300003 1.4744434e-39
0.041749526 0.012029536 0.74300003 1.2889886e-39
0.043280967 0.012061901 0.74500006 1.9296945e-39
0.044820014 0.012094289 0.74700004 2.4889891e-39
0.046304796 0.012110449 0.74800009 4.4258148e-39
0.047729548 0.012110464 0.74800009 6.2693379e-39
0.049285732 0.012142852 0.75000006 8.213306e-39
0.050714307 0.012142837 0.75000012 1.0044272e-38
0.053046681 0.012353323 0.76300001 9.0344374e-39
0.05464286 0.012385711 0.76500005 8.0192149e-39
0.056246679 0.012418091 0.76700008 7.9277284e-39
0.057707634 0.012418091 0.76700008 7.7379477e-39
0.059245721 0.012434281 0.76800007 6.4447048e-39
0.060708582 0.012434281 0.76800001 5.0787344e-39
0.062090486 0.012418091 0.76700008 1.1828366e-38
0.063551441 0.012418099 0.76700002 1.8512261e-38
0.065012395 0.012418099 0.76700008 1.1802522e-38
0.066300005 0.012385711 0.76499999 4.983306e-39
0.06793429 0.012418091 0.76700002 2.5718353e-39
0.069395252 0.012418099 0.76700008 9.5527918e-41
0.070856214 0.012418091 0.76700008 9.4834275e-41
0.072411448 0.012434281 0.76800007 9.7741969e-41
0.073874302 0.012434289 0.76800001 7.1683969e-39
0.075337164 0.012434289 0.76800001 1.4199947e-38
0.077000029 0.012466662 0.7700001 1.8825838e-38
0.078466691 0.012466669 0.77000004 2.3417623e-38
0.079933353 0.012466662 0.77000004 2.3417633e-38
0.081611454 0.012499049 0.77200001 2.3417607e-38
0.083081923 0.012499042 0.77200001 2.3417582e-38
0.084552407 0.012499034 0.77200001 2.3417583e-38
-0.019439995 0.013679989 0.75600004 3.6773939e-39
-0.01792855 0.013625704 0.75300008 1.3808073e-39
-0.016472366 0.013607614 0.75200009 8.2909505e-40
-0.014999991 0.013571419 0.75000006 2.784324e-40
-0.013571415 0.013571404 0.75000012 3.7061822e-40
-0.012110459 0.013535224 0.74800009 5.5537662e-40
-0.01068569 0.013535231 0.74800003 4.6283347e-40
-0.0092485584 0.013517141 0.74700004 3.7244972e-40
-0.0078047509 0.013480954 0.74500006 4.6322583e-40
-0.0063856947 0.013480969 0.74500006 6.4867647e-40
-0.0049666534 0.013480954 0.74500006 4.6248034e-40
-0.003538087 0.013444759 0.74300003 3.7136511e-40
-0.0021199866 0.013426669 0.74200004 5.5396271e-40
-0.00070475391 0.013390467 0.74000001 7.387155e-40
0.00070477487 0.013390467 0.74000001 7.3907984e-40
0.0021114296 0.013372384 0.73900002 8.3414253e-40
0.0035190566 0.013372384 0.73900002 1.2004055e-39
0.0049266741 0.013372384 0.73900002 1.6603117e-39
0.0063171498 0.013336189 0.73700005 1.8429163e-39
0.0077209552 0.013336204 0.73700005 2.0283963e-39
0.009112387 0.013318099 0.73600006 1.7521864e-39
0.010514299 0.013318092 0.73600006 1.5677573e-39
0.011932382 0.013336204 0.73700005 1.2914913e-39
0.013318099 0.013318099 0.73600006 1.1071197e-39
0.01472001 0.013318099 0.73600006 9.2203057e-40
0.016121915 0.013318099 0.73600006 6.4545629e-40
0.017547632 0.013336189 0.73700005 7.3729879e-40
0.018951438 0.013336182 0.73700005 9.2168585e-40
0.020355243 0.013336204 0.73700005 6.4689402e-40
0.021759059 0.013336189 0.73700005 3.7245813e-40
0.023162864 0.013336189 0.73700005 9.223879e-40
0.024566678 0.013336204 0.73700005 1.5656091e-39
0.025970487 0.013336189 0.73700005 1.1982811e-39
0.027374297 0.013336189 0.73700005 8.3092935e-40
0.028778104 0.013336204 0.73700005 5.5469559e-40
0.030263815 0.013372384 0.73899996 2.7882757e-40
0.031714294 0.013390459 0.74000001 5.5432985e-40
0.033123821 0.013390459 0.74000001 8.2947761e-40
0.034626674 0.013426661 0.74200004 1.9340147e-39
0.036040001 0.013426654 0.74200004 3.0399867e-39
0.037453331 0.013426661 0.74200004 2.3946271e-39
0.038919058 0.013444752 0.74300009 1.7489004e-39
0.040334292 0.013444766 0.74300003 1.5655783e-39
0.04174953 0.013444759 0.74300009 1.2886341e-39
0.043280967 0.013480961 0.74500006 3.319414e-39
0.044820003 0.013517149 0.74699998 5.3452138e-39
0.046428587 0.013571419 0.75000012 5.5310736e-39
0.047857158 0.013571419 0.75000006 5.7258625e-39
0.049680009 0.013680004 0.75600004 5.352778e-39
0.051458102 0.013770483 0.76100004 5.0812315e-39
0.053046677 0.013806663 0.76300001 4.8003567e-39
0.054642856 0.013842851 0.76500005 4.5309318e-39
0.056100015 0.013842843 0.76500005 4.247515e-39
0.057707626 0.013879038 0.76700008 3.9769957e-39
0.059245724 0.013897136 0.76800007 3.231156e-39
0.060708579 0.013897136 0.76800007 2.5927637e-39
0.064842865 0.013842851 0.76500005 1.6687814e-38
0.066300012 0.013842858 0.76500005 1.3180339e-38
0.067757145 0.013842866 0.76500005 6.91134e-39
0.069214292 0.013842851 0.76500005 6.4615273e-40
0.070856214 0.013879046 0.76700008 5.5295518e-40
0.072317161 0.013879046 0.76700008 5.5155108e-40
0.073874295 0.013897136 0.76800001 5.4375159e-39
0.075337157 0.013897143 0.76800001 1.0355811e-38
0.077000022 0.013933331 0.77000004 1.6891989e-38
0.078466684 0.013933338 0.77000004 2.341769e-38
0.07993336 0.013933323 0.77000004 2.341769e-38
0.081611447 0.013969526 0.77200001 2.341769e-38
0.083081923 0.013969526 0.77199996 2.341769e-38
0.0845524 0.013969511 0.77200001 2.341769e-38
0.086022869 0.013969518 0.77200001 2.341769e-38
-0.020935221 0.015159979 0.75800002 9.6711552e-39
-0.01949141 0.015159987 0.75800008 4.959526e-39
-0.017976187 0.015100002 0.75500005 1.9631631e-40
-0.016494272 0.015059993 0.75300008 1.8415864e-40
-0.015039993 0.015040003 0.75200003 1.9056818e-40
-0.013571415 0.014999986 0.75000006 1.8406476e-40
-0.012142849 0.014999986 0.75000006 9.617812e-41
-0.010685686 0.014959991 0.74800009 9.2234866e-41
-0.0092485519 0.014940001 0.74700004 9.3696421e-41
-0.0078047519 0.014900006 0.74500006 9.2286714e-41
-0.0063856957 0.014899999 0.74500006 9.4053752e-41
-0.0049666539 0.014900006 0.74500006 1.8406756e-40
-0.0035380961 0.014859997 0.74300003 1.855109e-40
-0.0021199819 0.014839977 0.7420001 2.7699607e-40
-0.00070664915 0.014839977 0.7420001 3.6956304e-40
0.00070477952 0.01479999 0.74000007 4.6177269e-40
0.0021143013 0.014799982 0.74000007 4.6284888e-40
0.0035238222 0.014799982 0.74000007 1.1982517e-39
0.004926675 0.014779992 0.73900002 1.9329441e-39
0.0063171503 0.014740005 0.73700005 1.8421932e-39
0.0077209659 0.01473999 0.73700005 1.7514423e-39
0.0091123832 0.014720008 0.73600006 1.6610516e-39
0.010528576 0.014740005 0.73700005 1.5673944e-39
0.011932382 0.014739998 0.73699999 1.3819031e-39
0.013336198 0.014740013 0.73700005 1.1056847e-39
0.014720006 0.014720008 0.73600006 7.3834836e-40
0.016143816 0.014740005 0.73699999 2.781045e-40
0.017547633 0.014740005 0.73700005 5.5362079e-40
0.018951437 0.014739998 0.73700005 8.2985315e-40
0.020355243 0.014739998 0.73700005 5.5614874e-40
0.021759059 0.014739998 0.73700005 1.8771514e-40
0.023162866 0.014740005 0.73700005 8.3090553e-40
0.024566669 0.014740005 0.73700005 1.3815724e-39
0.02604096 0.01478 0.73900002 1.1982713e-39
0.02744858 0.014780007 0.73899996 9.2311517e-40
0.028856197 0.01478 0.73900002 6.4616675e-40
0.03030478 0.014799975 0.74000007 3.7064485e-40
0.031714305 0.01479999 0.74000007 5.5465916e-40
0.033213351 0.014839992 0.7420001 7.3906863e-40
0.034626685 0.014839984 0.7420001 1.7510752e-39
0.036040012 0.014839977 0.7420001 2.7634124e-39
0.037453342 0.014839992 0.7420001 2.39499e-39
