# .PCD v0.7 - Point Cloud Data file format
VERSION 0.7
FIELDS x y z rgb
SIZE 4 4 4 4
TYPE F F F F
COUNT 1 1 1 1
WIDTH 973
HEIGHT 1
VIEWPOINT 0 0 0 1 0 0 0
POINTS 973
DATA ascii
-0.0092857052 0.033571437 0.75 1.9817806e-38
-0.007857101 0.033571437 0.75000006 1.8345924e-38
-0.0064285202 0.033571437 0.75000006 1.6973728e-38
-0.0049999757 0.033571452 0.75 1.5943045e-38
-0.0035618746 0.033481911 0.74800003 1.4992436e-38
-0.0021285412 0.033347622 0.74500006 1.5485724e-38
-0.00071135699 0.033437148 0.74700004 1.5843261e-38
0.00071149343 0.03343714 0.74700004 8.0051963e-39
0.0021286311 0.033347629 0.74500006 9.2307734e-41
0.0035572166 0.033437148 0.74700004 3.6927858e-40
0.0049800668 0.033437148 0.74700004 5.5473903e-40
0.0064029153 0.033437148 0.74700004 6.4477666e-40
0.0078362441 0.033481903 0.74800003 7.3625763e-40
0.0092609776 0.033481903 0.74800003 8.2881339e-40
0.010685752 0.033481896 0.74800003 9.2100061e-40
0.012110487 0.033481896 0.74800003 9.2242854e-40
0.013571477 0.033571437 0.75000006 9.2278587e-40
0.01500002 0.033571444 0.75000006 1.0135424e-39
0.016428603 0.033571437 0.75000006 1.1068142e-39
0.017857185 0.033571437 0.75000006 1.8422156e-39
0.019337161 0.033660971 0.75199997 2.5765493e-39
0.020769551 0.033660963 0.75199997 3.2237109e-39
0.022201942 0.033660963 0.75200003 3.8694307e-39
0.023665726 0.033705719 0.75300002 4.0552555e-39
0.0251667 0.033795245 0.75500005 4.2396285e-39
0.026604781 0.033795238 0.75500005 2.9531973e-39
0.028080031 0.033840001 0.75600004 1.6639438e-39
0.029676242 0.034019046 0.76000011 5.3438503e-39
0.031123864 0.034019053 0.76000005 9.1432455e-39
0.032614369 0.034063816 0.76100004 1.412e-38
0.034153387 0.03415335 0.76300001 1.9177435e-38
0.035700049 0.034242839 0.76500005 1.8259105e-38
0.037254315 0.034332387 0.76700002 1.7427204e-38
0.038765784 0.034377158 0.76800001 1.7336083e-38
0.040333387 0.034466669 0.7700001 1.724388e-38
-0.068025686 0.038313344 0.82099998 1.4698444e-39
-0.066461861 0.038313352 0.82099998 2.7583832e-39
-0.064898044 0.038313344 0.82100004 1.4730169e-39
-0.063334227 0.038313337 0.82100004 9.3018192e-41
-0.061770443 0.03831334 0.82100004 6.6126658e-39
-0.060206626 0.038313348 0.82100004 1.3184737e-38
-0.058642805 0.038313355 0.82099998 1.8366721e-38
-0.057079025 0.038313352 0.82100004 2.3417682e-38
-0.05565048 0.038406674 0.82300001 2.341769e-38
-0.054082848 0.038406681 0.82300001 2.341769e-38
-0.036026608 0.036026686 0.77200001 1.5695061e-39
-0.034332354 0.035793334 0.76700002 2.664705e-39
-0.032785699 0.035700001 0.76500005 3.785825e-39
-0.031328537 0.035699993 0.76500005 6.2945234e-39
-0.029793277 0.035606675 0.76300001 8.7582962e-39
-0.028265661 0.035513341 0.76100004 6.8882227e-39
-0.026780909 0.035466671 0.76000005 4.967931e-39
-0.025266634 0.035373338 0.75800002 3.6739874e-39
-0.02382282 0.035373345 0.75800002 2.413773e-39
-0.022319989 0.035279997 0.75600004 9.8707576e-39
-0.020879984 0.035280012 0.75600004 1.7239878e-38
-0.019414226 0.035233326 0.75500005 1.9376886e-38
-0.017928571 0.035140008 0.75300002 2.1483382e-38
-0.016494257 0.035140008 0.75300002 2.0291692e-38
-0.015039962 0.035093337 0.75200003 1.9085629e-38
-0.013607609 0.035093352 0.75199997 1.6222224e-38
-0.012175221 0.035093345 0.75199997 1.3303223e-38
-0.01074283 0.035093337 0.75200003 1.5698843e-38
-0.0092856791 0.035000004 0.75000006 1.7978926e-38
-0.0078571122 0.035000011 0.75 1.510761e-38
-0.0064285314 0.035000011 0.75000006 1.2272894e-38
-0.0049999505 0.035000011 0.75000006 1.3268005e-38
-0.0035714058 0.035000019 0.75000006 1.4201094e-38
-0.0021370945 0.034906678 0.74800003 1.5230323e-38
-0.00071137934 0.034860015 0.74700004 1.6215641e-38
0.00071147108 0.034860015 0.74700004 8.1867303e-39
0.0021343215 0.034860015 0.74700004 9.5904867e-41
0.0035571943 0.034860007 0.74700004 4.6040362e-40
0.0049800444 0.034860015 0.74700004 8.2917212e-40
0.0064028949 0.034860015 0.74700004 8.2772879e-40
0.0078257676 0.034860007 0.74700004 8.2844485e-40
0.0092609851 0.03490667 0.74800003 8.2844485e-40
0.010685759 0.03490667 0.74800003 7.3839741e-40
0.012110493 0.03490667 0.74800003 8.3166223e-40
0.013571466 0.035000011 0.75000006 8.3094336e-40
0.015000047 0.035000011 0.75000006 8.291483e-40
0.016472431 0.035093337 0.75200003 8.3094757e-40
0.017904779 0.035093337 0.75199997 1.6592649e-39
0.019337172 0.035093337 0.75199997 2.3957467e-39
0.020769561 0.035093345 0.75200003 3.1333048e-39
0.022231452 0.03514 0.75300002 3.8697852e-39
0.023728598 0.035233334 0.75500005 3.9626983e-39
0.025166718 0.035233326 0.75500005 3.9644864e-39
0.026640058 0.035279997 0.75600004 3.047202e-39
0.028154321 0.035373338 0.75800002 2.1216836e-39
0.029715301 0.035513349 0.76100004 5.3284052e-39
0.031164825 0.035513341 0.76100004 8.5814677e-39
0.032614335 0.035513341 0.76100004 1.3293495e-38
0.034153409 0.035606667 0.76300001 1.7982499e-38
0.035606723 0.035606682 0.76300001 1.7342176e-38
0.037400063 0.035933331 0.7700001 1.6600317e-38
0.038866702 0.035933331 0.77000004 1.6598165e-38
0.040438127 0.036026679 0.77200001 1.6507032e-38
0.041908614 0.036026679 0.77200001 1.5955288e-38
-0.06629999 0.039780021 0.81900007 1.4755421e-39
-0.064898029 0.039877146 0.82099998 8.2942996e-40
-0.063334249 0.039877146 0.82100004 1.8407457e-40
-0.06161999 0.039780017 0.81900007 3.9575836e-39
-0.060206652 0.039877154 0.82100004 7.7477288e-39
-0.058642831 0.039877161 0.82099998 1.5592625e-38
-0.057079006 0.039877158 0.82099998 2.3417673e-38
-0.055515196 0.03987715 0.82100004 2.341769e-38
-0.053951371 0.039877158 0.82100004 2.341769e-38
-0.036073294 0.037545726 0.77300006 1.7524723e-39
-0.034466609 0.037399992 0.7700001 3.4091013e-39
-0.032914255 0.037302867 0.76800001 5.0769113e-39
-0.031410452 0.037254296 0.76700002 6.4645499e-39
-0.029871395 0.037157133 0.7650001 7.9263803e-39
-0.028414272 0.037157148 0.76500005 8.469497e-39
-0.026886608 0.03706 0.76300001 9.009399e-39
-0.025333313 0.036914289 0.76000005 8.0200235e-39
-0.02388569 0.036914296 0.76000005 6.946392e-39
-0.022379013 0.036817148 0.75800002 1.2831092e-38
-0.020879952 0.03672 0.75600004 1.8734057e-38
-0.019439969 0.03672 0.75600004 1.9278635e-38
-0.017976163 0.03667143 0.755 1.9826057e-38
-0.016494257 0.036574289 0.75300002 1.7799215e-38
-0.015039952 0.036525704 0.75200003 1.5768423e-38
-0.013607602 0.036525719 0.75199997 1.4205418e-38
-0.012175213 0.036525719 0.75199997 1.2663599e-38
-0.010742823 0.036525711 0.75200003 1.5694181e-38
-0.0092856903 0.036428586 0.75000006 1.8812244e-38
-0.0078571094 0.036428578 0.75000006 1.714912e-38
-0.0064285425 0.036428593 0.75 1.5589371e-38
-0.0049999617 0.036428586 0.75000006 1.6050719e-38
-0.0035713778 0.036428571 0.75000006 1.6527854e-38
-0.002137128 0.036331438 0.74799997 1.6057577e-38
-0.0007123535 0.036331438 0.74800003 1.5591822e-38
0.00071148598 0.03628286 0.74700004 7.8305245e-39
0.0021343364 0.036282852 0.74700004 9.2328753e-41
0.003557211 0.036282867 0.74700004 4.6112669e-40
0.0049800612 0.03628286 0.74700004 7.3913169e-40
0.0064029098 0.036282867 0.74700004 9.2099641e-40
0.0078257844 0.03628286 0.74700004 1.1053807e-39
0.0092609925 0.036331438 0.74800003 1.0135396e-39
0.010685727 0.03633143 0.74799997 1.0146116e-39
0.012110501 0.036331438 0.74800003 9.2384805e-40
0.013535273 0.036331415 0.74800003 8.3129509e-40
0.015000036 0.036428586 0.75000006 8.3021889e-40
0.016428618 0.036428578 0.75000006 8.3094617e-40
0.017904788 0.036525719 0.75199997 1.5674322e-39
0.019337179 0.036525711 0.75199997 2.2131505e-39
0.020769568 0.036525711 0.75200003 3.0425399e-39
0.02223145 0.036574297 0.75300002 3.779379e-39
0.023665724 0.036574289 0.75300002 3.9637703e-39
0.0251667 0.03667143 0.75500005 4.0574037e-39
0.026640067 0.036719993 0.7560001 3.1372592e-39
0.028154312 0.036817148 0.75800002 2.1209647e-39
0.029598126 0.036817163 0.75800002 5.1554765e-39
0.031164849 0.036962859 0.76100004 8.2134055e-39
0.032614335 0.036962867 0.76100004 1.2920067e-38
0.034153417 0.037060007 0.76300001 1.770807e-38
0.035700019 0.037157141 0.76500005 1.7153112e-38
0.0373029 0.037302867 0.76800001 1.6594569e-38
0.038765796 0.037302867 0.76800001 1.6782187e-38
0.040333364 0.0374 0.77000004 1.7056599e-38
0.041800067 0.037400007 0.77000004 1.6504849e-38
0.043266702 0.0374 0.77000004 1.6038131e-38
-0.066299997 0.041340012 0.81900007 1.8589485e-40
-0.064898051 0.041440971 0.82099998 1.8518299e-40
-0.063334234 0.041440967 0.82099998 1.8446132e-40
-0.061620001 0.041340008 0.81900007 1.2864831e-39
-0.060206592 0.041440964 0.82100004 2.32262e-39
-0.05864282 0.041440949 0.82100004 1.2929379e-38
-0.057078999 0.04144096 0.82100004 2.3412641e-38
-0.055515174 0.041440967 0.82099998 2.341769e-38
-0.053951398 0.041440953 0.82100004 2.341769e-38
-0.052387577 0.04144096 0.82099998 2.341769e-38
-0.036026653 0.038967628 0.77200001 1.9361615e-39
-0.034466591 0.038866676 0.7700001 4.1423686e-39
-0.032914218 0.038765721 0.76800007 6.3658453e-39
-0.031410445 0.038715247 0.76700002 6.7436438e-39
-0.029871408 0.038614281 0.76500005 7.0177363e-39
-0.028414248 0.038614281 0.76500005 1.0054068e-38
-0.026886623 0.038513325 0.76300001 1.3082822e-38
-0.025366604 0.038412385 0.76100004 1.2266324e-38
-0.023885677 0.038361907 0.76000005 1.1443106e-38
-0.022379022 0.038260959 0.75800002 1.5865274e-38
-0.020935208 0.038260959 0.75800002 2.0194108e-38
-0.019491393 0.038260952 0.75800002 1.917783e-38
-0.017976144 0.03810953 0.75500005 1.8076518e-38
-0.016494257 0.038008574 0.75300002 1.5310687e-38
-0.015039982 0.037958104 0.75199997 1.2460909e-38
-0.013607594 0.0379581 0.75199997 1.2258937e-38
-0.012175203 0.037958108 0.75200003 1.2013217e-38
-0.010742852 0.037958104 0.75199997 1.5785299e-38
-0.0092857014 0.037857156 0.75000006 1.9549813e-38
-0.0078571206 0.037857153 0.75000006 1.9271413e-38
-0.0064285146 0.037857149 0.75000006 1.8901931e-38
-0.0049999729 0.037857153 0.75 1.8908761e-38
-0.003571389 0.037857149 0.75000006 1.8815129e-38
-0.0021371206 0.037756205 0.74800003 1.6880123e-38
-0.00071234605 0.037756179 0.74800003 1.4839905e-38
0.0007123875 0.03775619 0.74800003 7.4517031e-39
0.002137162 0.037756182 0.74800003 9.5914676e-41
0.0035619217 0.037756197 0.74799997 3.6892966e-40
0.0049866922 0.037756193 0.74800003 6.4549973e-40
0.0064114667 0.037756179 0.74800003 1.0121116e-39
0.0078362022 0.03775619 0.74800003 1.3805242e-39
0.009260999 0.03775619 0.74800003 1.2894006e-39
0.010685734 0.037756197 0.74800003 1.1993545e-39
0.012110508 0.037756193 0.74800003 1.0178331e-39
0.013571481 0.037857156 0.75000006 8.3128668e-40
0.015000024 0.037857167 0.75000006 8.2948742e-40
0.016428607 0.037857141 0.75000006 8.3093776e-40
0.017904798 0.037958104 0.75199997 1.4748778e-39
0.019337187 0.037958097 0.75200003 2.0301984e-39
0.020797176 0.038008574 0.75300002 2.8610255e-39
0.022290515 0.038109526 0.75500005 3.6875477e-39
0.023728596 0.038109522 0.75500005 3.963057e-39
0.025166679 0.038109533 0.75500005 4.1488832e-39
0.026640037 0.038159996 0.75600004 3.1397718e-39
0.028154327 0.038260974 0.75800002 2.120606e-39
0.029715307 0.038412381 0.76100004 4.9596072e-39
0.031164814 0.038412392 0.76100004 7.7524329e-39
0.032700043 0.038513333 0.76300001 1.2648865e-38
0.034153402 0.038513336 0.76300001 1.7428626e-38
0.035700046 0.038614288 0.76500005 1.7059859e-38
0.037302937 0.038765725 0.76800001 1.660139e-38
0.038866721 0.038866669 0.7700001 1.7062713e-38
0.04033336 0.038866658 0.77000004 1.7520453e-38
-0.064898081 0.043004766 0.82099998 1.7528786e-39
-0.063179985 0.042900018 0.81900007 2.9391955e-39
-0.061619963 0.042900007 0.81900007 2.1126634e-39
-0.060059994 0.042900011 0.81900007 1.194408e-39
-0.058642801 0.043004781 0.82100004 9.5935079e-39
-0.057079021 0.04300477 0.82100004 1.8090479e-38
-0.0555152 0.043004777 0.82099998 2.0754461e-38
-0.053951383 0.043004785 0.82099998 2.341769e-38
-0.052387606 0.043004774 0.82099998 2.341769e-38
-0.036026616 0.040438104 0.77200001 1.1950399e-39
-0.034466654 0.040333338 0.77000004 4.3303612e-39
-0.032914218 0.040228575 0.76800001 7.5722708e-39
-0.031410437 0.040176202 0.76700002 8.7694057e-39
-0.029871382 0.040071432 0.76500005 9.9582911e-39
-0.028414242 0.04007142 0.76500005 9.4127054e-39
-0.026886616 0.039966669 0.76300001 8.8795715e-39
-0.025366578 0.039861914 0.76100004 1.1067064e-38
-0.023885667 0.039809529 0.76000011 1.326547e-38
-0.022438046 0.039809518 0.76000005 1.7062387e-38
-0.020935217 0.039704777 0.75800002 2.0754459e-38
-0.019491401 0.039704766 0.75800002 1.9921481e-38
-0.01799996 0.0396 0.75600004 1.9185717e-38
-0.016494261 0.039442863 0.75300002 1.6511721e-38
-0.015059963 0.039442871 0.75300002 1.394355e-38
-0.013607587 0.039390482 0.75200003 1.5320001e-38
-0.012175235 0.039390497 0.75199997 1.6804447e-38
-0.010742845 0.039390478 0.75199997 1.8086568e-38
-0.0092856735 0.039285712 0.75000006 1.9463016e-38
-0.0078571318 0.039285716 0.75000006 1.7061294e-38
-0.0064285258 0.039285723 0.75000006 1.4766491e-38
-0.0049999449 0.039285719 0.75000006 1.605686e-38
-0.0035714002 0.039285731 0.75 1.734217e-38
-0.0021371131 0.039180957 0.74800003 1.6326212e-38
-0.0007123386 0.039180961 0.74800003 1.5303732e-38
0.00071239495 0.039180964 0.74800003 7.6479297e-39
0.0021371695 0.039180957 0.74800003 9.2325951e-41
0.0035619254 0.039180964 0.74799997 4.6076095e-40
0.0049866997 0.039180968 0.74800003 7.3733242e-40
0.0064114332 0.039180957 0.74799997 9.2063207e-40
0.0078362077 0.039180957 0.74800003 1.1042975e-39
0.0092610065 0.039180949 0.74800003 1.1060841e-39
0.01068574 0.039180953 0.74800003 1.1085924e-39
0.012142888 0.039285734 0.75 1.016394e-39
0.01357147 0.039285716 0.75000006 8.3020068e-40
0.015040026 0.039390482 0.75199997 7.3835397e-40
0.016472416 0.039390482 0.75199997 7.3945259e-40
0.017904805 0.039390478 0.75200003 1.2922802e-39
0.019337157 0.039390486 0.75199997 1.8465274e-39
0.020797174 0.039442856 0.75300002 2.6755636e-39
0.022290517 0.039547633 0.75500005 3.5038809e-39
0.0237286 0.039547618 0.755 3.7804664e-39
0.025166722 0.039547622 0.75500005 4.148886e-39
0.026640046 0.039599992 0.75600004 3.3202156e-39
0.028080054 0.039599996 0.75600004 2.4857956e-39
0.029715331 0.03986191 0.76100004 5.1558325e-39
0.031164818 0.03986191 0.76100004 7.8507242e-39
0.032700069 0.039966665 0.76300001 1.2644918e-38
0.034153383 0.039966669 0.76300001 1.7521903e-38
0.035700053 0.040071424 0.76500005 1.6878714e-38
0.037302915 0.040228583 0.76800001 1.6330913e-38
0.038765784 0.040228575 0.76800007 1.6695727e-38
0.040333379 0.040333342 0.77000004 1.7064158e-38
-0.064898029 0.044568591 0.82100004 3.3353678e-39
-0.063179992 0.044460006 0.81900007 5.7151047e-39
-0.061619971 0.044460002 0.81900007 2.9391395e-39
-0.060059961 0.044460006 0.81900007 9.4831472e-41
-0.058499988 0.044460006 0.81900007 6.3429537e-39
-0.056939978 0.044460014 0.81900007 1.2636272e-38
-0.055379964 0.044460021 0.81900007 1.8091231e-38
-0.053819995 0.044460002 0.81900007 2.341769e-38
-0.052259982 0.04446001 0.81900007 2.341769e-38
-0.036026616 0.041908585 0.77200001 3.6998203e-40
-0.034466635 0.0418 0.77000004 4.503664e-39
-0.032914218 0.041691445 0.76800001 8.6703899e-39
-0.031451348 0.041691434 0.76800001 1.0803821e-38
-0.029871376 0.041528564 0.76500005 1.2904923e-38
-0.02833995 0.041419998 0.76300001 8.7587011e-39
-0.026886595 0.041420009 0.76300001 4.6343617e-39
-0.025366616 0.041311447 0.76100004 9.8564363e-39
-0.023885671 0.04125715 0.76000005 1.5124109e-38
-0.022379017 0.041148577 0.75800002 1.8272391e-38
-0.020935202 0.041148577 0.75800002 2.1302954e-38
-0.01949141 0.041148581 0.75800002 2.0751931e-38
-0.017999949 0.041039996 0.75600004 2.0189075e-38
-0.016538061 0.040985722 0.75500005 1.7790583e-38
-0.015059963 0.040877145 0.75300002 1.5313904e-38
-0.013607577 0.04082286 0.75200003 1.845641e-38
-0.012175226 0.040822864 0.75199997 2.1578822e-38
-0.010742836 0.040822867 0.75200003 2.0476802e-38
-0.0093104448 0.040822864 0.75200003 1.9268214e-38
-0.0078571038 0.040714286 0.75000006 1.4927175e-38
-0.006428537 0.040714301 0.75 1.0527689e-38
-0.0049999561 0.040714294 0.75000006 1.3209941e-38
-0.003571376 0.040714297 0.75000006 1.5772361e-38
-0.0021371299 0.040605716 0.74800003 1.5778814e-38
-0.00071233488 0.040605713 0.74800003 1.5670743e-38
0.0007124024 0.040605724 0.74800003 7.9274117e-39
0.0021371751 0.040605705 0.74800003 9.9866338e-41
0.0035619105 0.040605713 0.74800003 4.6002947e-40
0.0049867071 0.040605705 0.74800003 8.2951824e-40
0.0064114407 0.040605716 0.74800003 8.2915391e-40
0.0078362152 0.040605709 0.74800003 7.3731281e-40
0.0092609506 0.04060572 0.74800003 9.2205439e-40
0.010714333 0.040714305 0.75000006 1.0156821e-39
0.012142915 0.040714301 0.75000006 9.2456271e-40
0.013571457 0.04071429 0.75 8.3128668e-40
0.015040033 0.040822864 0.75199997 7.3801065e-40
0.016472423 0.040822871 0.75200003 5.5579e-40
0.017928584 0.040877149 0.75300002 1.1086121e-39
0.019362858 0.040877145 0.75300002 1.6621418e-39
0.020797195 0.040877149 0.75300002 2.4904605e-39
0.022290537 0.040985726 0.75500005 3.2287332e-39
0.02372862 0.040985715 0.75500005 3.6900645e-39
0.025200052 0.041039988 0.7560001 4.1492377e-39
0.026640059 0.041039985 0.7560001 3.5063865e-39
0.028080026 0.04104 0.75600004 2.7634446e-39
0.029715296 0.041311439 0.76100004 5.3272996e-39
0.03124672 0.041420009 0.76300001 7.8446173e-39
0.032700073 0.041420005 0.76300001 1.2742125e-38
0.034242913 0.041528571 0.76500005 1.7520457e-38
0.035793379 0.041637141 0.76700002 1.6785074e-38
0.037302915 0.041691437 0.76800001 1.5959262e-38
0.038866695 0.041799996 0.77000004 1.6324801e-38
-0.063179955 0.046020009 0.81900007 1.3095346e-38
-0.061619982 0.046020012 0.81900012 6.5461504e-39
-0.060059968 0.046020016 0.81900007 9.6563477e-41
-0.058499955 0.046020009 0.81900007 3.2247717e-39
-0.056939986 0.046020009 0.81900007 6.3673825e-39
-0.055379972 0.046020016 0.81900007 1.4206877e-38
-0.053819958 0.046020005 0.81900007 2.2040158e-38
-0.052259993 0.046020005 0.81900007 2.2774842e-38
-0.03602666 0.043379053 0.77200001 1.0117823e-39
-0.034466617 0.043266665 0.77000004 5.06619e-39
-0.032999974 0.043266676 0.77000004 9.2304104e-39
-0.031410426 0.043098096 0.76700002 1.1812261e-38
-0.029871413 0.042985722 0.76500005 1.4476175e-38
-0.028414251 0.042985715 0.76500005 1.2632976e-38
-0.02681612 0.042760953 0.7610001 1.0879205e-38
-0.025333283 0.042704765 0.76000005 1.3101622e-38
-0.02388566 0.042704765 0.76000005 1.5336166e-38
-0.022379026 0.042592388 0.75800002 1.5136711e-38
-0.020935209 0.042592399 0.75800002 1.5055979e-38
-0.019491395 0.042592399 0.75800002 1.4672478e-38
-0.017999977 0.042480003 0.75600004 1.4303692e-38
-0.016538082 0.042423826 0.755 1.4660623e-38
-0.015059965 0.042311426 0.75300002 1.5014358e-38
-0.013607609 0.042255253 0.75199997 1.6237659e-38
-0.012175218 0.042255249 0.75200003 1.735296e-38
-0.010742828 0.042255238 0.75200003 1.5128819e-38
-0.0093104765 0.042255241 0.75199997 1.2837926e-38
-0.0078780884 0.042255245 0.75199997 9.321244e-39
-0.0064285137 0.042142868 0.75000006 5.7274726e-39
-0.0049999692 0.042142872 0.75 1.0787402e-38
-0.003571389 0.042142875 0.75000006 1.5839808e-38
-0.0021371224 0.042030472 0.74800003 1.7060234e-38
-0.00071236654 0.042030483 0.74799997 1.8346915e-38
0.00071240985 0.04203048 0.74800003 9.2149303e-39
0.0021371825 0.04203048 0.74800003 9.2339964e-41
0.0035619198 0.042030483 0.74800003 5.5292575e-40
0.0049867146 0.042030483 0.74800003 1.015692e-39
0.00641145 0.042030472 0.74800003 8.2950984e-40
0.0078571737 0.042142872 0.75000006 5.5292295e-40
0.0092857545 0.042142872 0.75000006 9.2205439e-40
0.01071432 0.042142864 0.75 1.2911914e-39
0.012142903 0.042142864 0.75000006 1.1075204e-39
0.013571483 0.042142861 0.75000006 1.0160437e-39
0.015040042 0.042255249 0.75200003 6.4726677e-40
0.016472431 0.042255253 0.75200003 3.7212742e-40
0.017928584 0.042311426 0.75300002 9.2494247e-40
0.019414315 0.042423807 0.75500005 1.4777547e-39
0.020852434 0.042423811 0.75500005 2.3082258e-39
0.022290517 0.042423811 0.75500005 3.2305269e-39
0.0237286 0.042423818 0.75500005 3.6897029e-39
0.025200022 0.042479996 0.75600004 4.1488734e-39
0.026640028 0.042479988 0.75600004 3.4127461e-39
0.02815434 0.042592388 0.75800008 2.7645124e-39
0.029715298 0.042760964 0.76100004 5.1554583e-39
0.031246725 0.042873349 0.76300001 7.5698199e-39
0.032785781 0.042985704 0.76500005 1.2551987e-38
0.03424288 0.042985715 0.76500005 1.7614794e-38
0.035793364 0.043098092 0.76700002 1.6785779e-38
0.03730293 0.043154296 0.76800001 1.6048941e-38
0.038866717 0.043266661 0.77000004 1.6140056e-38
-0.06318 0.047580011 0.81900007 2.0357575e-38
-0.061619982 0.047580019 0.81900007 1.0237655e-38
-0.060059976 0.047580007 0.81900012 1.116961e-40
-0.058499962 0.04758 0.81900007 9.2665065e-41
-0.056939948 0.047580007 0.81900007 1.1387372e-40
-0.055379983 0.047580007 0.81900012 1.0420659e-38
-0.053819969 0.047580015 0.81900007 2.0640664e-38
-0.052259956 0.047580019 0.81900007 2.2040158e-38
-0.036026657 0.044849537 0.77200001 1.5764482e-39
-0.034466598 0.044733331 0.77000004 5.7025897e-39
-0.032999955 0.044733342 0.77000004 9.7800081e-39
-0.031410418 0.04455905 0.76700002 1.2922211e-38
-0.029949496 0.04455905 0.76700008 1.595491e-38
-0.028414246 0.044442844 0.76500005 1.6509485e-38
-0.026957083 0.044442851 0.76500005 1.7055132e-38
-0.02533331 0.044152379 0.76000005 1.6334814e-38
-0.023885686 0.044152386 0.76000005 1.5480308e-38
-0.022379031 0.044036206 0.75800002 1.2066246e-38
-0.020935219 0.044036206 0.75800002 8.6819422e-39
-0.019439975 0.04392001 0.75600004 8.486768e-39
-0.017999968 0.043919995 0.75600004 8.3128304e-39
-0.016538059 0.0438619 0.75500005 1.1534295e-38
-0.015059964 0.043745719 0.75300002 1.4758939e-38
-0.01362569 0.043745723 0.75300002 1.394318e-38
-0.012191378 0.043745719 0.75300002 1.309403e-38
-0.010742819 0.043687623 0.75200003 9.7556367e-39
-0.0093104672 0.043687634 0.75199997 6.3717041e-39
-0.0078780791 0.04368763 0.75200003 3.7005728e-39
-0.0064285249 0.04357145 0.75000006 9.4878136e-40
-0.0049999431 0.043571442 0.75000006 8.3720759e-39
-0.0035714002 0.043571454 0.75000006 1.5856319e-38
-0.002137115 0.043455236 0.74800003 1.8458572e-38
-0.00071235723 0.043455243 0.74799997 2.0912572e-38
0.00071430602 0.043571439 0.75000006 1.0492383e-38
0.0021371508 0.043455228 0.74799997 9.8079682e-41
0.0035619254 0.043455232 0.74800003 6.4403818e-40
0.0049867202 0.043455224 0.74800003 1.1975665e-39
0.0064114556 0.043455236 0.74800003 8.2771758e-40
0.0078571625 0.043571431 0.75 3.6996662e-40
0.0092857433 0.043571435 0.75000006 9.2204878e-40
0.010742857 0.043687619 0.75199997 1.4741408e-39
0.012175247 0.043687623 0.75200003 1.2904726e-39
0.013607659 0.043687623 0.75199997 1.1075148e-39
0.01504005 0.043687627 0.75200003 6.4618216e-40
0.016494332 0.043745715 0.75300002 1.8952422e-40
0.017976211 0.043861911 0.75500005 7.4126447e-40
0.019414334 0.043861903 0.75500005 1.2036789e-39
0.020852415 0.043861914 0.75500005 2.2171064e-39
0.022290498 0.043861903 0.755 3.2290891e-39
0.023760049 0.043920007 0.75600004 3.6886239e-39
0.025200034 0.043919988 0.75600004 4.057398e-39
0.026710516 0.044036195 0.75800008 3.4145482e-39
0.02815433 0.044036198 0.75800002 2.764874e-39
0.0297153 0.044210486 0.76100004 4.9595904e-39
0.031246748 0.044326678 0.76300001 7.1981731e-39
0.032785747 0.044442862 0.76500005 1.2464816e-38
0.034332402 0.044559058 0.76700002 1.761264e-38
0.035840075 0.044617154 0.76800001 1.6878329e-38
0.037302908 0.044617161 0.76800001 1.6048935e-38
0.038765799 0.04461715 0.76800001 1.5955662e-38
-0.061619993 0.04914001 0.81900007 7.3962831e-39
-0.060206603 0.049260005 0.82099998 4.6213884e-39
-0.058642823 0.049260005 0.82100004 3.7843663e-39
-0.057079002 0.049260013 0.82099998 2.9520804e-39
-0.055515181 0.049260009 0.82099998 6.6401803e-39
-0.053951409 0.049260009 0.82099998 1.042891e-38
-0.052259963 0.04914001 0.81900007 1.5591225e-38
-0.050699949 0.049140003 0.81900007 2.0846296e-38
-0.036026619 0.04632001 0.77200001 4.6170851e-39
-0.034556169 0.046320006 0.77200001 7.6576897e-39
-0.032999936 0.046200007 0.77000004 1.0713092e-38
-0.03153326 0.046199992 0.7700001 1.1728382e-38
-0.029949486 0.046020001 0.76700002 1.2748599e-38
-0.02841422 0.045899998 0.76500005 1.0895726e-38
-0.026957117 0.045899995 0.76500005 8.9768287e-39
-0.025366586 0.045660004 0.76100004 1.0969908e-38
-0.023885677 0.045600008 0.76000005 1.3041218e-38
-0.022438053 0.045600012 0.76000005 1.1696319e-38
-0.020935226 0.045480009 0.75800002 1.0322344e-38
-0.019491414 0.045480013 0.75800002 1.0690733e-38
-0.017999956 0.045359991 0.75600004 1.104921e-38
-0.016538082 0.045300003 0.75500005 1.2733563e-38
-0.015099959 0.045299999 0.75500005 1.4410609e-38
-0.013625692 0.045180012 0.75300002 1.3186227e-38
-0.012191379 0.045180004 0.75300002 1.2059029e-38
-0.010742849 0.045120016 0.75199997 1.1789201e-38
-0.0093104597 0.045120001 0.75200003 1.1406443e-38
-0.0078780698 0.045120001 0.75200003 1.0602174e-38
-0.006445718 0.045120012 0.75199997 9.7803977e-39
-0.0049999543 0.04500002 0.75000006 1.4203648e-38
-0.0035714114 0.045000009 0.75 1.8550407e-38
-0.0021371094 0.044879999 0.74800003 1.9373697e-38
-0.00071424781 0.045000006 0.75000006 2.0281564e-38
0.00071429485 0.045000017 0.75 1.0134734e-38
0.0021371583 0.044880006 0.74800003 9.2339964e-41
0.003561931 0.044880003 0.74800003 7.3694286e-40
0.0050000232 0.045000009 0.75 1.3841045e-39
0.0064286068 0.045000002 0.75000006 1.0139011e-39
0.0078571867 0.045000002 0.75000006 6.465479e-40
0.0092857312 0.045000006 0.75000006 1.106789e-39
0.010742867 0.045120008 0.75200003 1.5666895e-39
0.01217528 0.045120008 0.75199997 1.2926236e-39
0.013607668 0.045120008 0.75200003 1.1093043e-39
0.01504002 0.045120001 0.75199997 8.3235447e-40
0.016494328 0.04518 0.75300002 5.5901019e-40
0.017928606 0.045180008 0.75300002 9.2707945e-40
0.019414313 0.045300007 0.75500005 1.3884205e-39
0.020852434 0.045300007 0.75500005 2.2163861e-39
0.022290517 0.045299999 0.75500005 3.0450566e-39
0.023760058 0.045359999 0.75600004 3.5975017e-39
0.025200063 0.045359991 0.75600004 4.1503125e-39
0.026710508 0.045480005 0.75800002 3.6897029e-39
0.028154323 0.045480009 0.75800002 3.2265668e-39
0.029715326 0.045660011 0.76100004 4.695562e-39
0.031246733 0.045780003 0.76300001 6.1865477e-39
0.032871481 0.046020012 0.76700008 1.1630765e-38
0.03433241 0.046020012 0.76700002 1.7155615e-38
0.035840049 0.046080001 0.76800001 1.8161512e-38
0.037302945 0.046080008 0.76800001 1.9170262e-38
0.038866732 0.046200003 0.7700001 1.9452579e-38
-0.060059987 0.050700009 0.81900007 9.0291069e-39
-0.058499977 0.05070002 0.81900007 7.3788944e-39
-0.057079032 0.050823808 0.82099998 5.7122012e-39
-0.055515211 0.050823819 0.82099998 2.9424073e-39
-0.05381998 0.050700016 0.81900007 1.1818551e-40
-0.052259963 0.050700024 0.81900001 9.1407413e-39
-0.050576195 0.050576195 0.81700003 1.8157174e-38
-0.049019992 0.05057618 0.81700003 2.0846283e-38
-0.034556132 0.047790479 0.77200007 9.689197e-39
-0.033085681 0.04779049 0.77200001 1.162493e-38
-0.031533323 0.047666669 0.77000004 1.0620493e-38
-0.029988492 0.047542866 0.76800007 9.4987353e-39
-0.028488532 0.047480963 0.76700002 5.1638129e-39
-0.026957115 0.047357142 0.76500005 8.5330108e-40
-0.025433281 0.047233343 0.76300001 5.7105547e-39
-0.023917075 0.047109533 0.76100004 1.0597926e-38
-0.022438079 0.04704763 0.76000005 1.1263018e-38
-0.020935195 0.046923809 0.75800008 1.1895433e-38
-0.019491384 0.046923812 0.75800002 1.2813402e-38
-0.017999945 0.046799991 0.7560001 1.373577e-38
-0.016559979 0.046799999 0.75600004 1.3848122e-38
-0.015119972 0.046800006 0.75600004 1.3922707e-38
-0.013625692 0.046614293 0.75300002 1.2515369e-38
-0.012191379 0.046614289 0.75300002 1.1068599e-38
-0.010757104 0.046614293 0.75300002 1.3844469e-38
-0.0093228305 0.0466143 0.75300002 1.6499451e-38
-0.0078780623 0.046552382 0.75200003 1.7612602e-38
-0.0064457105 0.046552394 0.75199997 1.8626062e-38
-0.0050132973 0.046552382 0.75199997 1.9927941e-38
-0.003580909 0.046552382 0.75200003 2.1210409e-38
-0.002137102 0.046304755 0.74800003 2.0387117e-38
-0.0007123684 0.046304759 0.74800003 1.9535763e-38
0.00071242847 0.046304762 0.74800003 9.8567208e-39
0.0021371657 0.046304766 0.74800003 9.9877548e-41
0.0035714714 0.046428591 0.75000006 8.2770777e-40
0.0050000511 0.046428572 0.75000006 1.4734345e-39
0.0064285956 0.04642858 0.75 1.1965029e-39
0.0078571755 0.046428576 0.75000006 8.2987137e-40
0.0093104858 0.04655239 0.75199997 1.1997175e-39
0.010742876 0.046552394 0.75200003 1.5677783e-39
0.012175288 0.046552382 0.75200003 1.3869786e-39
0.013625742 0.046614289 0.75300002 1.108598e-39
0.015060054 0.046614286 0.75300002 1.0142458e-39
0.016494328 0.046614286 0.75300002 8.3309576e-40
0.017928606 0.046614293 0.75300002 1.2026013e-39
0.019414332 0.046738088 0.75500005 1.4784736e-39
0.020852413 0.046738092 0.75500005 2.2146009e-39
0.022290498 0.046738099 0.75500005 2.8610325e-39
0.023760032 0.046800006 0.75600004 3.5060291e-39
0.025200037 0.046799995 0.75600004 4.1503153e-39
0.026710523 0.046923824 0.75800002 3.8755291e-39
0.028228639 0.047047626 0.76000005 3.593906e-39
0.029715328 0.047109533 0.7610001 4.3181671e-39
0.031246714 0.047233328 0.76300001 5.0812904e-39
0.032785773 0.047357131 0.76500005 1.0898953e-38
0.034332436 0.047480956 0.76700002 1.6599227e-38
0.03584009 0.047542866 0.76800007 1.9441838e-38
0.037302919 0.047542859 0.76800001 2.2303087e-38
0.038866729 0.047666665 0.7700001 2.2866656e-38
0.040438157 0.04779049 0.77200007 2.3411918e-38
-0.060059998 0.052260004 0.81900007 5.1454432e-39
-0.058499981 0.052260011 0.81900007 4.6066384e-39
-0.057078972 0.052387632 0.82100004 3.9734603e-39
-0.0555152 0.052387621 0.82100004 2.5794107e-39
-0.053819988 0.052260008 0.81900007 1.1954211e-39
-0.052259974 0.052260011 0.81900007 5.1633588e-39
-0.05057618 0.052132383 0.81700003 9.1220747e-39
-0.049019936 0.052132379 0.81700003 1.0421147e-38
-0.047579978 0.052260011 0.81900007 1.1807125e-38
-0.04601993 0.052260008 0.81900007 9.2187068e-39
-0.034556132 0.049260959 0.77200001 9.6906361e-39
-0.032999944 0.049133342 0.7700001 1.0518181e-38
-0.031533305 0.049133334 0.77000004 9.5825553e-39
-0.029988494 0.049005721 0.76800001 8.6358787e-39
-0.028488522 0.048941903 0.76700002 7.7326074e-39
-0.026957085 0.048814282 0.76500005 6.8882227e-39
-0.0254333 0.048686665 0.76300001 9.5888318e-39
-0.023917072 0.048559058 0.76100004 1.2285079e-38
-0.02243807 0.048495233 0.76000005 1.1446735e-38
-0.020935204 0.048367623 0.75800002 1.0703055e-38
-0.019491389 0.048367631 0.75800002 8.7637192e-39
-0.017999975 0.048239995 0.75600004 6.9464145e-39
-0.01655997 0.048239999 0.75600004 1.0430815e-38
-0.015119962 0.048239999 0.75600004 1.3814704e-38
-0.013661876 0.048176192 0.75500005 1.4379674e-38
-0.012223795 0.048176199 0.75500005 1.4855409e-38
-0.010785674 0.048176195 0.75500005 1.5870678e-38
-0.0093228323 0.048048586 0.75300002 1.6889119e-38
-0.0078780921 0.047984768 0.75199997 1.6978085e-38
-0.0064456789 0.047984768 0.75199997 1.6989205e-38
-0.0050132899 0.047984771 0.75200003 1.5596247e-38
-0.0035809369 0.047984779 0.75199997 1.4221585e-38
-0.0021428128 0.047857158 0.75000006 1.5780636e-38
-0.00071427203 0.047857165 0.75 1.7332431e-38
0.00071431161 0.047857158 0.75000006 8.7597213e-39
0.0021428934 0.047857139 0.75000006 1.8418527e-40
0.0035714584 0.04785715 0.75 1.0121004e-39
0.0050000399 0.04785715 0.75000006 1.9336938e-39
0.0064286217 0.04785715 0.75000006 1.2887027e-39
0.0078571644 0.047857158 0.75000006 7.3625342e-40
0.0093104942 0.047984764 0.75200003 1.3812529e-39
0.010742884 0.04798476 0.75200003 1.933698e-39
0.012175258 0.047984775 0.75199997 1.5674294e-39
0.013607646 0.047984771 0.75199997 1.1990098e-39
0.015040037 0.047984775 0.75199997 1.0156948e-39
0.016494328 0.048048574 0.75300002 7.4019948e-40
0.017928602 0.048048578 0.75300002 1.2008217e-39
0.019414311 0.048176192 0.75500005 1.6596447e-39
0.020852396 0.048176199 0.75500005 2.3068021e-39
0.022290517 0.048176195 0.75500005 3.0454265e-39
0.0237286 0.048176188 0.75500005 3.5982276e-39
0.025200047 0.048239991 0.75600004 4.2425138e-39
0.026710514 0.048367634 0.75800002 4.2425152e-39
0.028228611 0.048495244 0.76000005 4.3332507e-39
0.029793406 0.048686661 0.76300001 4.2360089e-39
0.031328637 0.048814282 0.76500005 4.2479522e-39
0.03287147 0.048941914 0.76700002 1.0525516e-38
0.034332443 0.048941907 0.76700002 1.688012e-38
0.035840064 0.049005717 0.76800001 1.9085266e-38
0.037400045 0.049133342 0.7700001 2.1305468e-38
0.038866706 0.049133338 0.77000004 2.24075e-38
0.040490542 0.049324773 0.77300006 2.3417331e-38
0.042071473 0.049452394 0.77500004 2.1486633e-38
-0.060059961 0.053820003 0.81900007 1.2929445e-39
-0.058499947 0.053820007 0.81900007 1.7453116e-39
-0.056939978 0.05382001 0.81900007 2.2109687e-39
-0.055379964 0.053820014 0.81900007 2.2059689e-39
-0.053819951 0.053820021 0.81900007 2.2070353e-39
-0.052259985 0.053820007 0.81900007 1.1950413e-39
-0.050452333 0.053557143 0.81500012 1.0094954e-40
-0.048899975 0.053557158 0.81500006 9.2383404e-41
-0.047347579 0.053557158 0.81500006 1.127709e-40
-0.045907598 0.053688571 0.81700003 3.9787698e-39
-0.044242829 0.053557158 0.81500006 7.8243938e-39
-0.042638071 0.053491421 0.81400001 4.0501842e-39
-0.04108762 0.053491443 0.81400001 2.975321e-40
-0.034556177 0.050731435 0.77200001 9.7864331e-39
-0.033085641 0.050731447 0.77200001 9.3175348e-39
-0.031533282 0.0506 0.77000004 8.5559108e-39
-0.030066645 0.050600011 0.77000004 7.7455652e-39
-0.028488535 0.050402869 0.76700002 1.0334928e-38
-0.027027588 0.050402857 0.76700002 1.290061e-38
-0.02549996 0.050271429 0.76500005 1.3471739e-38
-0.02397996 0.050139997 0.76300001 1.3927343e-38
-0.022467565 0.05000858 0.76100004 1.1719e-38
-0.020990433 0.049942862 0.76000011 9.4055293e-39
-0.019491401 0.049811427 0.75800002 4.7760806e-39
-0.017999966 0.049679991 0.7560001 1.3265672e-40
-0.01655996 0.049679995 0.7560001 6.9306456e-39
-0.015119953 0.049679998 0.7560001 1.3743336e-38
-0.013679985 0.049680006 0.75600004 1.6241551e-38
-0.012223775 0.04961428 0.75500005 1.8627867e-38
-0.010785693 0.049614284 0.75500005 1.7985046e-38
-0.0093228314 0.049482856 0.75300002 1.7247491e-38
-0.0078885574 0.049482863 0.75300002 1.6329851e-38
-0.0064456714 0.049417146 0.75199997 1.5303125e-38
-0.0050133197 0.049417149 0.75199997 1.1245827e-38
-0.0035809313 0.049417149 0.75199997 7.1189844e-39
-0.002142824 0.049285732 0.75000006 1.1180567e-38
-0.00071424409 0.049285714 0.75000006 1.5121899e-38
0.00071430043 0.049285721 0.75 7.6652259e-39
0.0021428822 0.049285717 0.75000006 1.9494444e-40
0.0035714845 0.049285725 0.75000006 1.2861692e-39
0.0050000288 0.049285728 0.75 2.2988848e-39
0.0064286105 0.049285728 0.75000006 1.4716605e-39
0.0078781117 0.049417149 0.75200003 6.4549553e-40
0.0093105016 0.049417149 0.75200003 1.4720094e-39
0.010742876 0.049417149 0.75199997 2.3006854e-39
0.012175267 0.049417146 0.75199997 1.8418723e-39
0.01362574 0.04948286 0.75300002 1.2919313e-39
0.015060052 0.049482856 0.75300002 1.0167794e-39
0.016494326 0.04948286 0.75300002 6.4836959e-40
0.017976211 0.049614288 0.75500005 1.2004672e-39
0.01941433 0.049614288 0.75500005 1.7525591e-39
0.020852415 0.049614295 0.75500005 2.4904745e-39
0.022290496 0.049614288 0.75500005 3.2291003e-39
0.023760051 0.049680002 0.75600004 3.7822615e-39
0.025200056 0.049679987 0.75600004 4.2418005e-39
0.026781 0.049942859 0.76000011 4.6098628e-39
0.02826581 0.05000858 0.76100004 4.9725076e-39
0.029793391 0.050140001 0.76300001 4.2288217e-39
0.031328604 0.05027144 0.76500005 3.4285934e-39
0.032871459 0.050402869 0.76700002 1.0258605e-38
0.034332428 0.050402861 0.76700002 1.7059476e-38
0.035933364 0.0506 0.77000004 1.8712898e-38
0.037400063 0.050600007 0.7700001 2.0284869e-38
0.03896765 0.050731447 0.77200001 2.1856481e-38
0.040490512 0.050797153 0.77300006 2.3416968e-38
0.04207148 0.050928585 0.77500004 2.2499331e-38
-0.056939941 0.055380009 0.81900007 4.5003597e-39
-0.055379976 0.055380009 0.81900007 3.4001877e-39
-0.053688567 0.055244759 0.81700003 2.3024469e-39
-0.052132361 0.055244759 0.81700003 1.3812024e-39
-0.050452303 0.055109534 0.81500006 5.5466616e-40
-0.04889999 0.055109538 0.81500006 2.7734779e-40
-0.047347587 0.055109527 0.81500006 9.2286714e-41
-0.045795191 0.055109531 0.81500006 4.5223166e-39
-0.044242796 0.055109534 0.81500006 8.9415608e-39
-0.042638108 0.055041913 0.81400001 6.9136661e-39
-0.041087575 0.055041913 0.81400001 4.8832379e-39
-0.034556177 0.052201916 0.77200001 1.0055857e-38
-0.033085689 0.052201919 0.77200007 9.1446566e-39
-0.031615239 0.052201916 0.77200001 9.5944874e-39
-0.030066626 0.052066661 0.77000004 9.9755075e-39
-0.028525647 0.051931445 0.76800001 1.0983233e-38
-0.027027581 0.051863812 0.76700002 1.1999146e-38
-0.025499955 0.051728562 0.76500005 1.2269614e-38
-0.02397994 0.05159333 0.76300001 1.2631948e-38
-0.022526624 0.051593341 0.76300001 1.1348776e-38
-0.021018015 0.051458105 0.76100004 1.005592e-38
-0.019542838 0.051390484 0.76000005 5.9043248e-39
-0.017999971 0.051119998 0.75600004 1.8972684e-39
-0.016559988 0.051120002 0.75600004 9.1554858e-39
-0.015119983 0.051120002 0.75600004 1.6425597e-38
-0.013679975 0.051120006 0.75600004 1.7436903e-38
-0.012239969 0.051119991 0.75600004 1.8449246e-38
-0.010799964 0.051119994 0.75600004 1.650958e-38
-0.0093475888 0.051052377 0.75500005 1.4663539e-38
-0.0079095066 0.05105238 0.75500005 1.1153338e-38
-0.0064542452 0.050917145 0.75300002 7.7395718e-39
-0.0050133104 0.050849531 0.75199997 5.6193946e-39
-0.003580922 0.050849535 0.75199997 3.5829002e-39
-0.002142837 0.050714292 0.75 1.0708431e-38
-0.00071425713 0.050714292 0.75000006 1.7881245e-38
0.00071432465 0.050714288 0.75000006 9.0398857e-39
0.0021428673 0.050714299 0.75000006 1.8417966e-40
0.0035714714 0.050714299 0.75000006 1.1954071e-39
0.005000053 0.050714299 0.75000006 2.3003197e-39
0.0064285975 0.050714307 0.75 1.3805466e-39
0.0078571793 0.050714303 0.75000006 4.62542e-40
0.00931051 0.050849531 0.75200003 1.1986525e-39
0.010742862 0.050849527 0.75199997 1.9351427e-39
0.012175274 0.050849527 0.75199997 1.6596475e-39
0.013625739 0.050917149 0.75300002 1.4770471e-39
0.015060051 0.050917145 0.75300002 1.1079058e-39
0.016494328 0.050917149 0.75300002 7.380597e-40
0.017928602 0.050917152 0.75300002 1.1990364e-39
0.019414313 0.051052377 0.75500005 1.751127e-39
0.020852396 0.05105238 0.75500005 2.4901172e-39
0.022290515 0.05105238 0.75500005 3.2305381e-39
0.023760021 0.051120006 0.75600004 3.781907e-39
0.025266683 0.051255248 0.75800002 4.3329228e-39
0.026710497 0.051255248 0.75800002 4.5162378e-39
0.028228596 0.05139048 0.76000005 4.7895499e-39
0.02971532 0.051458105 0.76100004 3.6856882e-39
0.031328607 0.051728569 0.76500005 2.6924619e-39
0.032785773 0.051728562 0.76500005 9.8826378e-39
0.034377206 0.051931433 0.76800001 1.7151303e-38
0.035840079 0.05193143 0.76800007 1.761015e-38
0.037400059 0.052066661 0.7700001 1.8162604e-38
0.038866725 0.052066661 0.77000004 1.8905543e-38
0.040438138 0.052201916 0.77200001 1.9742108e-38
0.04196291 0.052269533 0.77300006 1.9180334e-38
0.043435287 0.052269526 0.77300006 1.8709294e-38
-0.055379938 0.056940012 0.81900007 4.5922232e-39
-0.053819969 0.056940008 0.81900012 2.3035035e-39
-0.052132353 0.056800954 0.81700009 1.6567033e-39
-0.050452348 0.056661922 0.81500006 9.2309555e-40
-0.049019981 0.056800958 0.81699997 5.5324384e-40
-0.047463778 0.056800947 0.81700009 1.0055998e-40
-0.045907617 0.056800961 0.81700003 5.076575e-39
-0.044242807 0.056661919 0.81500006 9.9553414e-39
-0.042690407 0.056661919 0.81500006 9.6880899e-39
-0.041087616 0.05659239 0.81399995 9.3993173e-39
-0.031615201 0.053672388 0.77200007 1.0609723e-38
-0.030144753 0.053672384 0.77200001 1.2171674e-38
-0.028599929 0.053533342 0.7700001 1.1622487e-38
-0.027062798 0.053394284 0.76800001 1.0980348e-38
-0.025499951 0.053185698 0.7650001 1.1159704e-38
-0.023979934 0.053046677 0.76300001 1.1256586e-38
-0.02252664 0.05304667 0.76300001 1.098792e-38
-0.021018013 0.052907627 0.7610001 1.0600459e-38
-0.019542804 0.052838095 0.76000005 7.0719358e-39
-0.017999962 0.052559998 0.75600004 3.6299348e-39
-0.016559955 0.052559998 0.75600004 1.1368905e-38
-0.015119949 0.052560005 0.75600004 1.8997726e-38
-0.013679965 0.052560002 0.7560001 1.8630761e-38
-0.01223996 0.05255999 0.7560001 1.8256952e-38
-0.010799955 0.052559987 0.7560001 1.5123416e-38
-0.0093476092 0.052490477 0.75500005 1.1985554e-38
-0.0079094879 0.052490477 0.75500005 6.0632125e-39
-0.0064714057 0.05249048 0.75500005 9.8879824e-41
-0.0050133048 0.052281924 0.75199997 9.2376397e-41
-0.0035809146 0.05228192 0.75200003 1.2221565e-40
-0.0021428128 0.052142859 0.75000006 1.0372343e-38
-0.0007142683 0.052142866 0.75 2.0552756e-38
0.00071431347 0.05214287 0.75000006 1.0336361e-38
0.0021428934 0.052142866 0.75000006 1.0490821e-40
0.0035714379 0.052142873 0.75000006 1.1943309e-39
0.0050000418 0.052142873 0.75000006 2.2985331e-39
0.0064286236 0.052142873 0.75000006 1.2880091e-39
0.0078781275 0.052281905 0.75200003 1.8812152e-40
0.0093104793 0.052281916 0.75199997 9.2458513e-40
0.010757187 0.052351438 0.75300002 1.5674266e-39
0.012191463 0.05235143 0.75300002 1.5681385e-39
0.013625737 0.052351434 0.75300002 1.5677867e-39
0.015060049 0.05235143 0.75300002 1.1990182e-39
0.016538149 0.052490469 0.75500005 8.3060705e-40
0.017976234 0.052490477 0.75500005 1.2901503e-39
0.019414315 0.052490488 0.755 1.6596461e-39
0.020880019 0.052559998 0.75600004 2.3968411e-39
0.022320027 0.052559998 0.75600004 3.1354698e-39
0.023760034 0.052560002 0.75600004 3.7811853e-39
0.025266696 0.052699063 0.75800002 4.3325584e-39
0.026781008 0.052838102 0.76000005 4.4243939e-39
0.028265776 0.052907627 0.76100004 4.5126099e-39
0.029793382 0.053046674 0.76300001 3.2161187e-39
0.031328633 0.053185709 0.76500005 1.9570618e-39
0.032914352 0.053394295 0.76800001 9.6121466e-39
0.034377221 0.053394295 0.76800007 1.7149866e-38
0.035933379 0.053533342 0.7700001 1.6597091e-38
0.037400041 0.053533338 0.77000004 1.59546e-38
0.038866717 0.053533338 0.7700001 1.5952087e-38
0.040438157 0.053672384 0.77200007 1.5959621e-38
0.041962903 0.053741917 0.773 1.595424e-38
0.043435276 0.053741921 0.773 1.5954946e-38
-0.053688541 0.058357142 0.81700003 4.7026876e-39
-0.052132379 0.058357142 0.81700003 4.3303303e-39
-0.050452359 0.058214292 0.81500006 4.0494611e-39
-0.04901997 0.058357149 0.81700003 4.0519904e-39
-0.047463764 0.058357142 0.81700003 4.0466403e-39
-0.045907602 0.058357138 0.81700003 6.7325006e-39
-0.044242814 0.058214299 0.81500006 9.5026225e-39
-0.042638067 0.058142852 0.81400001 7.1044865e-39
-0.041087616 0.058142867 0.81400001 4.7967778e-39
-0.031615198 0.055142872 0.77200001 8.3913423e-39
-0.030144716 0.055142857 0.77200007 8.2141468e-39
-0.028599994 0.054999992 0.77000004 8.7680464e-39
-0.027062798 0.054857153 0.76800001 9.3233628e-39
-0.025566639 0.054785717 0.76700002 1.015024e-38
-0.023979947 0.054499995 0.76300001 1.1072576e-38
-0.022526594 0.054499999 0.76300001 1.1532145e-38
-0.021018049 0.054357141 0.76100004 1.2081288e-38
-0.01954283 0.054285727 0.76000005 1.115604e-38
-0.018047588 0.054142877 0.75800002 1.0253199e-38
-0.016559945 0.053999998 0.75600004 1.4770087e-38
-0.01511994 0.053999998 0.75600004 1.9280066e-38
-0.013679933 0.054000001 0.75600004 1.7065248e-38
-0.01223999 0.054000005 0.75600004 1.4854721e-38
-0.010799983 0.053999994 0.75600004 1.1811215e-38
-0.0093475673 0.053928576 0.75500005 8.8781674e-39
-0.0079094851 0.053928584 0.75500005 5.2509708e-39
-0.0064713638 0.05392858 0.75500005 1.7454125e-39
-0.0050132945 0.05371429 0.75199997 5.7176298e-39
-0.0035809053 0.05371429 0.75200003 9.7674623e-39
-0.002142824 0.05357144 0.75000006 1.5136711e-38
-0.00071424223 0.05357144 0.75000006 2.0478887e-38
0.0007143023 0.053571444 0.75 1.1160028e-38
0.0021428822 0.053571444 0.75000006 1.9290709e-39
0.0035714882 0.053571444 0.75000006 1.6542258e-39
0.0050000306 0.053571451 0.75 1.3812627e-39
0.0064286124 0.053571448 0.75000006 1.0139515e-39
0.0078571942 0.053571437 0.75000006 6.4802487e-40
0.00931051 0.05371429 0.75199997 1.015706e-39
0.0107429 0.05371429 0.75199997 1.3819479e-39
0.012191462 0.053785719 0.75300002 1.6592243e-39
0.013625736 0.053785719 0.75300002 1.8429163e-39
0.015060049 0.053785715 0.75300002 1.2908467e-39
0.01653813 0.053928576 0.75500005 7.3804849e-40
0.017976215 0.053928584 0.755 1.2905048e-39
0.019414334 0.05392858 0.75500005 1.842594e-39
0.020880053 0.054000009 0.75600004 2.5801478e-39
0.022320036 0.053999998 0.7560001 3.225506e-39
0.023760041 0.053999998 0.7560001 3.6879107e-39
0.025266686 0.054142877 0.75800002 4.2410746e-39
0.026780982 0.054285716 0.76000005 4.4254617e-39
0.028265778 0.054357145 0.76100004 4.609469e-39
0.029793404 0.054499999 0.76300001 3.1346977e-39
0.0313286 0.054642849 0.76500005 1.6743835e-39
0.032914326 0.054857157 0.76800001 9.4209352e-39
0.034377221 0.05485715 0.76800001 1.7157396e-38
0.035933398 0.055000003 0.7700001 1.6692157e-38
0.037400037 0.055 0.77000004 1.6229026e-38
0.038866717 0.055 0.7700001 1.6413406e-38
0.040438134 0.055142865 0.77200007 1.6597434e-38
0.041908603 0.055142865 0.77200001 1.6691061e-38
-0.053688571 0.059913337 0.81700003 7.0017994e-39
-0.052004721 0.059766676 0.81500006 7.0957845e-39
-0.050452325 0.05976668 0.81500006 7.0929398e-39
-0.048899975 0.059766676 0.81500006 7.5585997e-39
-0.047347575 0.059766669 0.81500006 7.9220012e-39
-0.04579518 0.059766669 0.81500006 8.4877279e-39
-0.044188555 0.059693336 0.81400001 8.9436824e-39
-0.042638104 0.059693344 0.81400001 4.5215936e-39
-0.04108762 0.059693336 0.81400001 1.0593676e-40
-0.031615198 0.056613348 0.77200001 6.2633193e-39
-0.030066615 0.056466661 0.7700001 4.2583527e-39
-0.028525656 0.056320012 0.76800001 6.0039347e-39
-0.027027603 0.056246683 0.76700002 7.6584394e-39
-0.025499959 0.056099996 0.76500005 9.2282833e-39
-0.024042796 0.056099996 0.76500005 1.0787708e-38
-0.022526611 0.055953342 0.76300001 1.2169561e-38
-0.021018047 0.055806682 0.76100004 1.3552447e-38
-0.019542821 0.055733349 0.76000005 1.5217296e-38
-0.018047595 0.055586673 0.75800002 1.6875061e-38
-0.016603781 0.055586677 0.75800002 1.817768e-38
-0.015119967 0.055440005 0.75600004 1.945545e-38
-0.013679963 0.055440005 0.75600004 1.5403892e-38
-0.012239957 0.055440009 0.75600004 1.1341935e-38
-0.01079995 0.055439994 0.75600004 8.4806541e-39
-0.0093475878 0.055366665 0.75500005 5.6262344e-39
-0.0079094665 0.055366665 0.75500005 4.5005475e-39
-0.0064713825 0.055366669 0.75500005 3.3368223e-39
-0.005019974 0.055219997 0.75300002 1.1357364e-38
-0.0035856997 0.055220004 0.75300002 1.9354633e-38
-0.0021428352 0.055000018 0.75 1.9835743e-38
-0.0007142534 0.055000015 0.75000006 2.0280512e-38
0.00071433024 0.055000015 0.75000006 1.1987277e-38
0.002142871 0.055000022 0.75000006 3.6861464e-39
0.0035714547 0.055000018 0.75000006 2.0208489e-39
0.0050000586 0.055000007 0.75000006 3.7033376e-40
0.0064286012 0.055000015 0.75 7.3840582e-40
0.007857183 0.055000015 0.75000006 1.1068226e-39
0.009310496 0.055146668 0.75200003 1.1993742e-39
0.010742908 0.055146672 0.75200003 1.2000762e-39
0.012191461 0.055220004 0.75300002 1.6606746e-39
0.013625735 0.055220008 0.75300002 2.1184312e-39
0.015060048 0.055220004 0.75300002 1.3830437e-39
0.016494324 0.055220008 0.75300002 5.5545509e-40
0.017976234 0.055366661 0.75500005 1.2908635e-39
0.019414315 0.055366665 0.75500005 2.027344e-39
0.02088006 0.055440009 0.75600004 2.6723476e-39
0.022320068 0.055439994 0.7560001 3.3180618e-39
0.023822904 0.055586677 0.75800002 3.6871932e-39
0.025266718 0.055586681 0.75800002 4.0574079e-39
0.026780993 0.055733338 0.76000005 4.3343521e-39
0.028265802 0.055806674 0.76100004 4.6065991e-39
0.029793411 0.055953331 0.76300001 2.9467135e-39
0.031328604 0.056099989 0.76500005 1.3106232e-39
0.032914367 0.056320004 0.76800001 9.2397753e-39
0.034377195 0.056320012 0.76800001 1.7151655e-38
0.03593339 0.056466665 0.7700001 1.6876185e-38
0.037400056 0.056466661 0.77000004 1.6508474e-38
0.038866732 0.056466665 0.7700001 1.6875089e-38
0.040333375 0.056466661 0.7700001 1.7152751e-38
0.041908618 0.05661333 0.77200007 1.7338936e-38
-0.052004736 0.061319061 0.81500006 4.8859788e-39
-0.050452333 0.061319061 0.81500006 4.8009915e-39
-0.048899937 0.061319053 0.81500006 4.4275833e-39
-0.047289502 0.061243821 0.81399995 4.1556445e-39
-0.045739051 0.061243825 0.81399995 6.0895499e-39
-0.044188559 0.061243802 0.81400001 8.1203564e-39
-0.04253329 0.06109336 0.81199998 4.9843388e-39
-0.040986609 0.061093338 0.81200004 1.8489629e-39
