# .PCD v0.7 - Point Cloud Data file format
VERSION 0.7
FIELDS x y z rgb
SIZE 4 4 4 4
TYPE F F F F
COUNT 1 1 1 1
WIDTH 968
HEIGHT 1
VIEWPOINT 0 0 0 1 0 0 0
POINTS 968
DATA ascii
0.032142852 0.006428577 0.75000006 9.4957183e-39
0.033660956 0.0064457208 0.75199997 9.9538238e-39
0.035139985 0.0064542964 0.75300002 9.4935743e-39
0.036671389 0.0064714327 0.75500005 9.03438e-39
0.0381095 0.0064714253 0.75500005 9.4042149e-39
-0.047729578 0.0078362003 0.74800003 6.5372984e-39
-0.046428598 0.0078571439 0.75000006 5.7943285e-39
-0.045000013 0.0078571513 0.75000006 5.5230918e-39
-0.043571454 0.0078571513 0.75000006 5.3272015e-39
-0.042255256 0.0078781024 0.75199997 2.9408897e-39
-0.040822875 0.0078780949 0.75200003 4.6170542e-40
-0.039390486 0.0078781098 0.75199997 6.4610929e-40
-0.03785716 0.0078571439 0.75000006 8.3121522e-40
-0.036428582 0.0078571513 0.75000006 1.2914689e-39
-0.035000023 0.0078571364 0.75000006 1.6595143e-39
-0.033437163 0.0078257099 0.74700004 1.2921569e-39
-0.03192858 0.0078047737 0.745 1.0155953e-39
-0.030509539 0.0078047737 0.745 9.2306332e-40
-0.029012395 0.0077838302 0.74300003 9.2198573e-40
-0.027597159 0.0077838227 0.74300003 7.3974826e-40
-0.026146676 0.0077733472 0.74199998 5.5717308e-40
-0.024666702 0.0077523962 0.74000007 7.4122243e-40
-0.023225736 0.0077419207 0.73900002 1.0159904e-39
-0.02181812 0.0077419132 0.73900002 5.5284588e-40
-0.020355247 0.0077209771 0.73699999 9.2351174e-41
-0.018951442 0.0077209696 0.73700005 7.2061311e-39
-0.017523825 0.0077104867 0.73600006 1.4195612e-38
-0.016121916 0.0077104792 0.73600006 8.7614715e-39
-0.014680015 0.0076895431 0.73399997 3.2147398e-39
-0.013281915 0.0076895431 0.73399997 2.9456779e-39
-0.011883817 0.0076895431 0.73399997 2.6637114e-39
-0.010485738 0.0076895431 0.73400003 2.2106282e-39
-0.0090876361 0.0076895431 0.73400003 1.8371878e-39
-0.0076895365 0.0076895356 0.73399997 1.2929907e-39
-0.0062914379 0.0076895505 0.73399997 7.351534e-40
-0.0048800297 0.0076685697 0.73200005 5.5290753e-40
-0.0034857404 0.0076685697 0.73200005 4.596287e-40
-0.002091463 0.0076685771 0.73200005 4.6069509e-40
-0.00069717341 0.0076685697 0.73200005 4.596259e-40
0.00069711707 0.0076685771 0.73200005 2.7596051e-40
0.0020914075 0.0076685771 0.73200005 9.2265695e-41
0.003485699 0.0076685771 0.73200005 3.7717602e-39
0.0048933318 0.0076895356 0.73399997 7.4435055e-39
0.0062914109 0.0076895356 0.73400003 1.2174588e-38
0.0076895114 0.0076895356 0.73400003 1.6891592e-38
0.009087611 0.0076895356 0.73399997 1.3105921e-38
0.010514257 0.0077104867 0.73600006 9.2268722e-39
0.011916165 0.0077104867 0.73600006 5.0701641e-39
0.01331808 0.0077104941 0.73600006 1.0107145e-39
0.01471999 0.0077104941 0.73600006 4.9804137e-39
0.016143801 0.0077209771 0.73700005 8.9595044e-39
0.017595204 0.0077418983 0.73900002 8.8623188e-39
0.019002827 0.0077419207 0.73899996 8.865602e-39
0.020438071 0.0077523962 0.74000001 1.1998107e-38
0.021906652 0.0077733397 0.74200004 1.5126238e-38
0.023319967 0.0077733472 0.74200004 1.2079148e-38
0.024766648 0.0077838227 0.74300009 9.1281493e-39
0.026181888 0.0077838302 0.74300003 7.834493e-39
0.027671427 0.0078047812 0.74500006 6.5483882e-39
0.029207576 0.0078361928 0.74800003 7.6557447e-39
0.030714285 0.0078571364 0.75000006 8.7610175e-39
0.032228552 0.0078780949 0.75200003 9.2202118e-39
0.033705689 0.0078885704 0.75300002 9.586486e-39
0.035139982 0.0078885853 0.75299996 9.3113466e-39
-0.050511442 0.0092485696 0.74700004 9.7702621e-39
-0.049154326 0.0092609674 0.74800003 8.9387288e-39
-0.04766573 0.0092485696 0.74700004 9.5048183e-39
-0.046304807 0.0092609525 0.74800003 9.953217e-39
-0.044880036 0.0092609674 0.74800003 1.014297e-38
-0.043571439 0.0092857331 0.75 1.0216793e-38
-0.042255256 0.0093104914 0.75199997 5.1471108e-39
-0.04082289 0.0093104765 0.75200003 9.402012e-41
-0.039390482 0.0093104839 0.75199997 2.7734499e-40
-0.037958115 0.0093104839 0.75199997 3.7133148e-40
-0.036428586 0.0092857257 0.75000006 1.1992831e-39
-0.035000008 0.0092857182 0.75000006 1.9343188e-39
-0.033437155 0.0092485771 0.74700004 1.4758503e-39
-0.031928573 0.0092238337 0.745 9.2448704e-40
-0.030427633 0.009199068 0.74300003 9.2305912e-40
-0.029012397 0.009199053 0.74300003 8.3085508e-40
-0.027560018 0.0091866851 0.74199998 6.4753442e-40
-0.026146688 0.0091866702 0.74200004 4.6568371e-40
-0.024666686 0.0091619119 0.74000001 7.4265175e-40
-0.023225751 0.0091495365 0.73900002 9.2379901e-40
-0.021818116 0.0091495365 0.73900002 5.5142075e-40
-0.020355247 0.0091247931 0.73699999 1.0596058e-40
-0.018951442 0.0091247782 0.73699999 7.0338863e-39
-0.017523836 0.0091123804 0.73600006 1.3825742e-38
-0.016121928 0.0091123953 0.73600006 7.2063861e-39
-0.014680033 0.0090876371 0.73400003 5.6227661e-40
-0.013281933 0.0090876371 0.73400003 3.6781843e-40
-0.011883834 0.0090876296 0.73399997 9.4465733e-41
-0.010485735 0.0090876445 0.73399997 8.3166223e-40
-0.0090876408 0.0090876296 0.73400003 1.5652714e-39
-0.0076895412 0.0090876296 0.73400003 1.290125e-39
-0.0062914426 0.0090876371 0.73400003 9.2205719e-40
-0.004893343 0.0090876371 0.73399997 9.2348512e-40
-0.0034952417 0.0090876371 0.73399997 8.3019647e-40
-0.0020914527 0.0090628713 0.73200005 8.3125585e-40
-0.00069716224 0.0090628564 0.73200005 8.2801465e-40
0.00069712731 0.009062849 0.73200005 4.5958526e-40
0.0020914047 0.0090628639 0.73200005 1.0307952e-40
0.0034856943 0.0090628564 0.73199999 7.4589618e-39
0.0049066367 0.0091123953 0.73600006 1.474452e-38
0.0062914127 0.0090876371 0.73399997 1.7626638e-38
0.0076895123 0.0090876371 0.73399997 2.0371269e-38
0.0091123702 0.0091123953 0.73600006 1.2178864e-38
0.010514258 0.0091123953 0.73600006 3.8824095e-39
0.011916166 0.0091123953 0.73600006 2.0208966e-39
0.013318056 0.0091123804 0.73600006 1.0060762e-40
0.014739991 0.0091247931 0.73699999 7.9306641e-39
0.016143784 0.0091247857 0.73700005 1.5667487e-38
0.017595209 0.009149529 0.73900002 1.5319915e-38
0.019002812 0.0091495216 0.73900002 1.4938619e-38
0.020438068 0.0091619194 0.74000001 1.5227077e-38
0.02190664 0.0091866776 0.74200004 1.5393118e-38
0.023319984 0.0091866851 0.74200004 1.1236435e-38
0.024766667 0.0091990605 0.74300003 7.0123259e-39
0.026181888 0.009199053 0.74300003 6.549166e-39
0.027671419 0.0092238337 0.745 6.000985e-39
0.02920757 0.0092609674 0.74800003 7.2902328e-39
0.030796174 0.0093104839 0.75199997 8.5773661e-39
0.032228541 0.0093104839 0.75200003 8.9457871e-39
0.033705682 0.0093228519 0.75300002 9.2198713e-39
0.035140008 0.0093228742 0.75299996 9.1284085e-39
-0.051934302 0.010671437 0.74700004 1.0341856e-38
-0.050511435 0.010671437 0.74700004 8.2131028e-39
-0.049154337 0.010685727 0.74800009 6.0958669e-39
-0.047665738 0.010671437 0.74700004 6.279182e-39
-0.0463048 0.010685712 0.74800003 6.5643756e-39
-0.044880047 0.010685712 0.74800009 6.5593534e-39
-0.043455277 0.010685712 0.74800003 6.5660418e-39
-0.042142875 0.010714285 0.75000006 3.4108628e-39
-0.040822875 0.010742866 0.75200003 3.6774696e-40
-0.039390486 0.010742873 0.75199997 3.691931e-40
-0.037857153 0.010714285 0.75000006 3.7062383e-40
-0.036428597 0.010714293 0.75000006 9.227088e-40
-0.034906708 0.010685727 0.74800003 1.5662747e-39
-0.033437163 0.010671429 0.74700004 1.2925605e-39
-0.031928584 0.010642879 0.745 1.0177659e-39
-0.030427646 0.010614298 0.74300003 9.2377238e-40
-0.029012401 0.010614291 0.74300003 9.219619e-40
-0.027560031 0.010600016 0.74200004 7.3970762e-40
-0.026146701 0.010600008 0.74200004 6.4970082e-40
-0.024666686 0.010571443 0.74000001 9.2595841e-40
-0.023257166 0.01057145 0.74000001 1.2011006e-39
-0.021818109 0.010557167 0.73899996 6.4505972e-40
-0.020410506 0.01055716 0.73900002 9.2306332e-41
-0.018951442 0.010528587 0.73700005 6.8325828e-39
-0.017523833 0.010514289 0.73600006 1.3551295e-38
-0.016121924 0.010514297 0.73600006 8.2083454e-39
-0.014680016 0.010485739 0.73399997 2.7555722e-39
-0.013281917 0.010485739 0.73399997 1.5627463e-39
-0.011883836 0.010485724 0.73400003 2.8028492e-40
-0.010485737 0.010485739 0.73400003 1.0153332e-39
-0.0090876371 0.010485739 0.73399997 1.7507375e-39
-0.0076895384 0.010485731 0.73399997 1.3823221e-39
-0.0062914593 0.010485731 0.73400003 1.0149745e-39
-0.0048933597 0.010485724 0.73400003 1.0146088e-39
-0.0035047859 0.010514289 0.73600006 1.0138661e-39
-0.0020971599 0.010485739 0.73399997 7.3689802e-40
-0.00069716782 0.010457143 0.73199999 5.5140394e-40
0.00069710403 0.010457143 0.73200005 4.0540363e-39
0.0020913945 0.010457143 0.73200005 7.6458389e-39
0.0034952171 0.010485739 0.73399997 1.2636697e-38
0.0049066404 0.010514297 0.73600006 1.763205e-38
0.006291396 0.010485731 0.73400003 1.5690953e-38
0.0077104648 0.010514297 0.73600006 1.3849484e-38
0.009112373 0.010514289 0.73600006 7.9306627e-39
0.010514261 0.010514289 0.73600006 2.0208798e-39
0.011932371 0.010528602 0.73699999 1.1024996e-39
0.013336164 0.010528587 0.73699999 2.7602357e-40
0.014740003 0.010528594 0.73699999 4.1575517e-39
0.016143797 0.010528587 0.73700005 8.1441953e-39
0.017547611 0.010528587 0.73699999 9.1382933e-39
0.019002816 0.010557145 0.73900002 1.023962e-38
0.020438083 0.010571443 0.74000001 1.1721562e-38
0.021906648 0.010600016 0.74199998 1.3187257e-38
0.023351416 0.010614306 0.74300003 9.9535575e-39
0.024766637 0.010614298 0.74300003 6.7371586e-39
0.026181884 0.010614306 0.74300003 6.7375117e-39
0.027745713 0.010671429 0.74700004 6.7385627e-39
0.029207572 0.010685712 0.74800003 7.6576099e-39
0.030714273 0.010714285 0.75000006 8.6695814e-39
0.032228556 0.010742858 0.75200003 9.0361919e-39
0.033705678 0.010757156 0.75300002 9.4946701e-39
0.035139982 0.010757156 0.75300002 9.3106586e-39
-0.053428628 0.012110494 0.74800003 1.3555698e-38
-0.052003853 0.012110494 0.74800003 1.0046189e-38
-0.050511457 0.012094289 0.74700004 6.6435826e-39
-0.04908859 0.012094282 0.74700004 3.142353e-39
-0.047665723 0.012094297 0.74700004 3.1355356e-39
-0.046304815 0.012110494 0.74800003 3.1448725e-39
-0.044820026 0.012094282 0.74700004 2.9630064e-39
-0.043397158 0.012094297 0.74700004 2.7731402e-39
-0.042030532 0.012110487 0.74800003 1.7456339e-39
-0.040714301 0.012142867 0.75000006 6.4468417e-40
-0.039285719 0.012142867 0.75 5.5285008e-40
-0.03785716 0.012142859 0.75000006 3.7060841e-40
-0.036428582 0.012142867 0.75 7.3794479e-40
-0.034906719 0.012110479 0.74800009 1.1081678e-39
-0.033437163 0.012094297 0.74700004 1.1096154e-39
-0.031928599 0.012061909 0.74500006 1.0174113e-39
-0.03042765 0.012029529 0.74300003 1.0163253e-39
-0.029012416 0.012029544 0.74300003 9.2340804e-40
-0.027597165 0.012029536 0.74300003 9.2304511e-40
-0.026146678 0.012013346 0.74199998 8.330285e-40
-0.024666704 0.011980951 0.74000001 1.2014719e-39
-0.023257162 0.011980973 0.74000001 1.4744603e-39
-0.021818124 0.011964761 0.73900002 8.2694126e-40
-0.0204105 0.011964783 0.73900002 1.0235925e-40
-0.018951444 0.011932395 0.73700005 6.7450647e-39
-0.017523844 0.01191619 0.73600006 1.3273646e-38
-0.016121922 0.01191619 0.73600006 9.1360372e-39
-0.014720012 0.011916205 0.73600006 4.9718168e-39
-0.013281935 0.011883833 0.73400003 2.7555133e-39
-0.01188382 0.011883825 0.73399997 4.6250276e-40
-0.010485721 0.011883825 0.73399997 1.1989888e-39
-0.0090876417 0.011883825 0.73400003 1.9336784e-39
-0.007710496 0.01191619 0.73600006 1.5649085e-39
-0.0063085938 0.011916198 0.73600006 1.1064471e-39
-0.0049066851 0.011916198 0.73600006 1.1979224e-39
-0.003504798 0.011916183 0.73600006 1.1960867e-39
-0.0020971645 0.011883825 0.73400003 7.3507493e-40
-0.00069717527 0.011851437 0.73200005 1.9633172e-40
0.00069903559 0.011883825 0.73399997 7.7437771e-39
0.0020971342 0.01188384 0.73399997 1.5210519e-38
0.0034952152 0.011883825 0.73400003 1.7809981e-38
0.0049066423 0.011916205 0.73600006 2.0372367e-38
0.0063085509 0.011916205 0.73600006 1.3839092e-38
0.0077104401 0.011916198 0.73600006 7.2896471e-39
0.0091123488 0.011916213 0.73600006 3.6739159e-39
0.010514285 0.011916198 0.73600006 9.3396543e-41
0.011916175 0.01191619 0.73600006 2.7598153e-40
0.013318082 0.011916205 0.73600006 3.696205e-40
0.014739991 0.011932403 0.73699999 4.625434e-40
0.016143782 0.011932395 0.73700005 4.7658161e-40
0.01759522 0.011964783 0.73899996 2.941481e-39
0.019028544 0.011980966 0.74000001 5.454089e-39
0.020438079 0.011980951 0.74000007 8.2318017e-39
0.021906637 0.012013346 0.74200004 1.0971356e-38
0.023351416 0.012029536 0.74300003 8.6527826e-39
0.024766635 0.012029536 0.74300003 6.3662236e-39
0.02625237 0.012061916 0.745 6.92477e-39
0.027745703 0.012094282 0.74700004 7.4725292e-39
0.029207595 0.012110487 0.74800003 8.1160713e-39
0.030796174 0.01217524 0.75199997 8.668145e-39
0.03227143 0.012191437 0.75300002 9.2180664e-39
0.033705704 0.012191437 0.75300002 9.7687305e-39
0.035233308 0.01222381 0.75500005 9.5847105e-39
-0.056202877 0.013517149 0.74700004 9.1293782e-39
-0.05478001 0.013517141 0.74700004 8.5603516e-39
-0.053428601 0.013535254 0.74800003 7.4578884e-39
-0.051795259 0.013480954 0.745 6.42902e-39
-0.050376214 0.013480969 0.745 4.967519e-39
-0.048957158 0.013480969 0.745 3.3984178e-39
-0.047665749 0.013517134 0.74700004 2.4850781e-39
-0.046242882 0.013517149 0.74700004 1.6607321e-39
-0.044820014 0.013517149 0.74700004 1.9373358e-39
-0.04339717 0.013517141 0.7470001 2.2967198e-39
-0.042030528 0.013535246 0.74800003 1.6559564e-39
-0.040714305 0.013571434 0.75000006 1.0145331e-39
-0.039285727 0.013571434 0.75000006 7.3865805e-40
-0.037857153 0.013571434 0.75000006 3.7238526e-40
-0.036331482 0.013535231 0.74800003 8.322732e-40
-0.034906715 0.013535246 0.74800003 1.2017928e-39
-0.033437155 0.013517141 0.74700004 1.2014579e-39
-0.031928595 0.013480961 0.74500006 1.2007278e-39
-0.03042765 0.013444781 0.74300003 1.1074434e-39
-0.029012397 0.013444789 0.74300003 1.0152562e-39
-0.027560018 0.013426684 0.74200004 1.0159806e-39
-0.026076207 0.013390489 0.74000001 1.1085504e-39
-0.024666689 0.013390481 0.74000001 1.2918781e-39
-0.023257166 0.013390489 0.74000001 1.4744645e-39
-0.02181812 0.013372384 0.73900002 8.2837899e-40
-0.020410515 0.013372391 0.73900002 9.2321747e-41
-0.019002879 0.013372391 0.73900002 6.5531541e-39
-0.01754763 0.013336211 0.73699999 1.2916718e-38
-0.016121933 0.013318099 0.73600006 9.5005177e-39
-0.014720024 0.013318099 0.73600006 6.0666625e-39
-0.013318121 0.013318099 0.73600012 3.2168236e-39
-0.011883837 0.013281912 0.73400003 3.7065045e-40
-0.010485738 0.013281912 0.73400003 1.015301e-39
-0.0090876389 0.013281919 0.73399997 1.6592369e-39
-0.0077104922 0.013318107 0.73600006 1.1997105e-39
-0.006308605 0.013318084 0.73600006 7.3981973e-40
-0.0049066953 0.013318099 0.73600006 6.4547591e-40
-0.0035047729 0.013318099 0.73600006 6.4326606e-40
-0.0020971608 0.013281934 0.73399997 4.1422845e-39
-0.00069906679 0.013281919 0.73400003 7.6418971e-39
0.0006990328 0.013281919 0.73400003 1.263814e-38
0.0020971315 0.013281927 0.73399997 1.7632054e-38
0.003495231 0.013281927 0.73399997 1.5229623e-38
0.004906646 0.013318092 0.73600006 1.2739577e-38
0.0063085547 0.013318107 0.73600006 8.2061916e-39
0.0077104634 0.013318114 0.73600006 3.6739271e-39
0.0091123525 0.013318099 0.73600006 2.0219237e-39
0.01051426 0.013318114 0.73600006 3.7176028e-40
0.011932368 0.013336211 0.73699999 3.7104702e-40
0.013336162 0.013336204 0.73700005 3.7245953e-40
0.014740003 0.013336219 0.73699999 3.6992458e-40
0.016143797 0.013336204 0.73700005 4.5965392e-40
0.017595205 0.013372391 0.73900002 4.7035045e-39
0.019028559 0.013390489 0.74000001 9.0356342e-39
0.020438064 0.013390481 0.74000001 8.6766187e-39
0.021906653 0.013426676 0.74200004 8.3956457e-39
0.023319969 0.013426661 0.74200004 7.4621385e-39
0.024766633 0.013444774 0.74300003 6.6399309e-39
0.026252359 0.013480969 0.745 7.1041362e-39
0.027745686 0.013517156 0.74700004 7.6518968e-39
0.029207569 0.013535246 0.74800003 8.2068306e-39
0.030796187 0.013607629 0.75199997 8.7599791e-39
0.032271426 0.013625719 0.75299996 9.125868e-39
0.033795193 0.013661891 0.75500011 9.3999423e-39
0.035233323 0.013661914 0.75500005 9.308467e-39
0.036719993 0.013680011 0.75599998 9.3091718e-39
0.038260944 0.013716191 0.75800002 9.0336513e-39
-0.05770291 0.014959998 0.74800003 2.3201159e-39
-0.056278139 0.014960013 0.74800003 1.1944486e-39
-0.054853387 0.014959998 0.74800009 1.013349e-40
-0.053428616 0.014960013 0.74800003 1.4698416e-39
-0.051795252 0.014900014 0.745 2.8567011e-39
-0.05037621 0.014900014 0.745 3.3072704e-39
-0.048957169 0.014900014 0.745 3.684633e-39
-0.047665734 0.014940001 0.74700004 1.9289742e-39
-0.046304815 0.014960006 0.74800003 9.8018025e-41
-0.044820022 0.014940001 0.7470001 1.0120822e-39
-0.043397155 0.014940001 0.74700004 1.8400114e-39
-0.042030524 0.014960006 0.74800003 1.6581088e-39
-0.040714312 0.015000008 0.75000012 1.3829513e-39
-0.039285734 0.015000008 0.75000006 9.2340524e-40
-0.03785716 0.015000008 0.75000012 3.7309992e-40
-0.03633146 0.014960013 0.74800003 8.3262632e-40
-0.034860026 0.014940009 0.7470001 1.293257e-39
-0.033347644 0.014900021 0.74500006 1.2932766e-39
-0.031928606 0.014900014 0.74500006 1.2918276e-39
-0.030427631 0.014860019 0.74300003 1.1974684e-39
-0.029012397 0.014860012 0.74300003 1.0145331e-39
-0.027560033 0.014840007 0.74200004 1.200016e-39
-0.026146701 0.014840014 0.74200004 1.2918669e-39
-0.024666687 0.01480002 0.74000001 1.3826416e-39
-0.023257166 0.014800005 0.74000001 1.4741127e-39
-0.021818124 0.014780015 0.73900002 8.283902e-40
-0.020410512 0.014780007 0.73900002 9.9860732e-41
-0.019002873 0.014780022 0.73899996 6.3658971e-39
-0.01754763 0.014740027 0.73699999 1.2540771e-38
-0.016143838 0.01474002 0.73700005 9.8822174e-39
-0.014720019 0.014720008 0.73600006 7.1794518e-39
-0.013318111 0.014720008 0.73600006 3.7656785e-39
-0.011883821 0.014680021 0.73399997 2.7953242e-40
-0.0105143 0.014720008 0.73600006 8.327132e-40
-0.009112413 0.014719993 0.73600006 1.3848094e-39
-0.0077105034 0.014720008 0.73600006 8.3452088e-40
-0.0063085807 0.014720008 0.73600006 2.791877e-40
-0.0049066916 0.01472 0.73600006 1.841082e-40
-0.0035047841 0.014720015 0.73600006 9.841179e-41
-0.0021028819 0.01472 0.73600012 7.640444e-39
-0.000699064 0.014680021 0.73399997 1.5113297e-38
0.00069903466 0.014680021 0.73399997 1.7625955e-38
0.0020971147 0.014680006 0.73400003 2.0005747e-38
0.0034952124 0.014680021 0.73400003 1.2553042e-38
0.0049066497 0.01472 0.73600012 5.0838127e-39
0.0063085584 0.01472 0.73600006 2.5719082e-39
0.0077104662 0.014720015 0.73600006 1.0162637e-40
0.0091123534 0.014720015 0.73600006 3.6775537e-40
0.010514263 0.014720008 0.73600006 6.4543107e-40
0.011916151 0.014720008 0.73600006 5.5540605e-40
0.01331806 0.014720008 0.73600006 3.7028892e-40
0.014739987 0.01474002 0.73699999 3.6884418e-40
0.01614378 0.014740013 0.73700005 3.785776e-40
0.017595215 0.01478 0.73900002 6.5603007e-39
0.019028528 0.014800005 0.74000001 1.262653e-38
0.020438083 0.014800005 0.74000001 9.2272463e-39
0.021906663 0.014840014 0.74199998 5.7194796e-39
0.023319978 0.014840014 0.74199998 6.2517586e-39
0.024766652 0.014860012 0.74300003 6.8203733e-39
0.026252382 0.014900014 0.745 7.2921302e-39
0.027745698 0.014940001 0.74700004 7.7480427e-39
0.029207589 0.014959998 0.74800003 8.2990192e-39
0.030796174 0.015040018 0.75199997 8.8514517e-39
0.032271404 0.015059993 0.75300002 8.9418382e-39
0.033795208 0.015100002 0.75500005 9.0322416e-39
0.035279982 0.015120007 0.75600004 9.1237212e-39
0.036817122 0.015159994 0.75800002 9.2169664e-39
0.038260944 0.015160002 0.75800002 9.032194e-39
-0.05912767 0.016384766 0.74800003 6.7212902e-39
-0.057702899 0.01638478 0.74800003 5.9697571e-39
-0.056278151 0.016384766 0.74800003 6.8924266e-39
-0.054633364 0.016319066 0.745 7.9154964e-39
-0.053214304 0.016319066 0.745 9.6696615e-39
-0.051795263 0.016319074 0.745 1.1516082e-38
-0.050376203 0.016319074 0.745 1.2527374e-38
-0.048957162 0.016319059 0.745 1.3542189e-38
-0.047538124 0.016319066 0.74500006 9.6710684e-39
-0.046242878 0.016362853 0.74700004 5.8918295e-39
-0.044820011 0.016362868 0.74700004 3.5941554e-39
-0.043397162 0.016362861 0.74700004 1.2914689e-39
-0.042142879 0.016428575 0.75000006 1.4758728e-39
-0.040714301 0.01642859 0.75000006 1.6606101e-39
-0.039285738 0.016428567 0.75000006 1.1085112e-39
-0.037857145 0.01642859 0.75000006 6.4896234e-40
-0.036428586 0.016428575 0.75000006 1.0162903e-39
-0.034906715 0.016384766 0.74800003 1.2936045e-39
-0.033437151 0.016362868 0.74700004 1.3850953e-39
-0.031928599 0.016319066 0.74500006 1.384005e-39
-0.030427635 0.016275249 0.74300003 1.2900031e-39
-0.029012399 0.016275249 0.74300003 1.1967635e-39
-0.027560011 0.016253345 0.74199998 1.2904221e-39
-0.026146678 0.01625336 0.74199998 1.2918711e-39
-0.024666693 0.016209535 0.74000001 1.200767e-39
-0.02325717 0.016209528 0.74000007 1.1092889e-39
-0.02181812 0.016187638 0.73899996 5.5468718e-40
-0.020410504 0.016187623 0.73900002 9.2334358e-41
-0.019002888 0.016187631 0.73900002 5.9034925e-39
-0.017595265 0.016187631 0.73900002 1.1722148e-38
-0.016143838 0.016143829 0.73700005 9.8711037e-39
-0.014740012 0.016143829 0.73699999 7.993417e-39
-0.013318108 0.016121909 0.73600006 4.135526e-39
-0.011916221 0.016121902 0.73600006 1.9020805e-40
-0.010514311 0.016121916 0.73600006 7.4160078e-40
-0.0091123888 0.016121916 0.73600006 1.3855297e-39
-0.0077104997 0.016121902 0.73600006 7.3945679e-40
-0.0063171647 0.016143821 0.73699999 1.8446273e-40
-0.0049133375 0.016143844 0.73699999 3.0338392e-39
-0.003509545 0.016143829 0.73699999 5.9770214e-39
-0.0021028735 0.016121916 0.73600006 1.1711499e-38
-0.00070098438 0.016121902 0.73600006 1.7443344e-38
0.00070093828 0.016121909 0.73600006 1.5782429e-38
0.0021028265 0.016121909 0.73600006 1.421182e-38
0.0035047352 0.016121916 0.73600006 8.4824267e-39
0.0049066441 0.016121924 0.73600006 2.8474203e-39
0.0063085323 0.016121916 0.73600006 5.2580628e-39
0.007710469 0.016121902 0.73600006 7.7511928e-39
0.0091123581 0.016121909 0.73600012 4.7937426e-39
0.010528555 0.016143821 0.73700005 1.9300098e-39
0.011932368 0.016143829 0.73699999 1.2875481e-39
0.013336162 0.016143821 0.73700005 6.4326746e-40
0.014740003 0.016143829 0.73699999 1.2871949e-39
0.016187597 0.016187623 0.73900002 2.0237202e-39
0.017619038 0.016209535 0.74000001 7.3882523e-39
0.019028543 0.016209528 0.74000001 1.2825252e-38
0.020493306 0.016253352 0.74199998 8.3902956e-39
0.02190665 0.016253352 0.74200004 4.053864e-39
0.023319965 0.016253352 0.74200004 5.5256674e-39
0.02476665 0.016275249 0.74300003 7.0976748e-39
0.02625237 0.016319059 0.745 7.4733083e-39
0.02774569 0.016362853 0.74700004 7.8406012e-39
0.029207561 0.016384758 0.74800003 8.2089704e-39
0.030796187 0.016472384 0.75199997 8.6699303e-39
0.0322714 0.016494289 0.75300002 8.4826608e-39
0.033795226 0.016538106 0.75500005 8.3879596e-39
0.035280012 0.016560018 0.75599998 8.2972031e-39
0.036817119 0.016603805 0.75800002 8.2081996e-39
-0.060552418 0.01780954 0.74800003 2.0138621e-40
-0.059048593 0.017785713 0.7470001 4.8677591e-39
-0.057625744 0.017785728 0.74700004 9.5710759e-39
-0.056052402 0.017738104 0.74500006 1.2582253e-38
-0.054633357 0.017738119 0.745 1.5652633e-38
-0.0532143 0.017738111 0.745 1.7960706e-38
-0.051795255 0.017738111 0.745 2.0174826e-38
-0.050376214 0.017738119 0.745 2.1743945e-38
-0.048957177 0.017738104 0.74500006 2.329976e-38
-0.04753812 0.017738111 0.74500006 1.7505148e-38
-0.046242882 0.017785728 0.74700004 1.1698667e-38
-0.044820014 0.017785721 0.74700004 6.1809678e-39
-0.04345528 0.017809533 0.74800003 6.539888e-40
-0.042142883 0.017857142 0.75000006 1.2932612e-39
-0.040714305 0.017857149 0.75000006 1.8431937e-39
-0.039285731 0.017857142 0.75000012 1.3840134e-39
-0.0379581 0.017904766 0.75199997 9.2339543e-40
-0.036428589 0.017857142 0.75000012 1.1059832e-39
-0.034906697 0.017809533 0.74800003 1.2918262e-39
-0.033481944 0.017809533 0.74800003 1.3858337e-39
-0.031928595 0.017738111 0.74500006 1.4747868e-39
-0.030509539 0.017738111 0.74500006 1.473698e-39
-0.029012401 0.017690495 0.74300003 1.3808031e-39
-0.027597167 0.017690487 0.74300003 1.38118e-39
-0.026146691 0.017666683 0.74200004 1.2918669e-39
-0.024733361 0.017666683 0.74200004 1.0188841e-39
-0.02325717 0.017619051 0.74000001 6.501086e-40
-0.02184765 0.017619058 0.74000001 3.7244972e-40
-0.0204105 0.017595254 0.73900002 9.7355211e-41
-0.019002883 0.017595239 0.73900002 5.4339117e-39
-0.01759528 0.017595239 0.73900002 1.079232e-38
-0.01614384 0.017547637 0.73700005 9.8865432e-39
-0.014740013 0.017547637 0.73699999 8.8346417e-39
-0.013336199 0.017547645 0.73699999 4.5003373e-39
-0.011932393 0.017547637 0.73699999 9.6563477e-41
-0.010528579 0.017547637 0.73699999 7.4123084e-40
-0.0091247726 0.017547645 0.73699999 1.2911662e-39
-0.0077209594 0.017547645 0.73699999 7.3728198e-40
-0.0063171657 0.017547652 0.73699999 9.3746867e-41
-0.0049133394 0.017547652 0.73699999 5.9730445e-39
-0.0035095459 0.01754763 0.73699999 1.1796083e-38
-0.0021028689 0.017523818 0.73600006 1.5784565e-38
-0.00070098066 0.01752381 0.73600006 1.9639129e-38
0.00070092804 0.01752381 0.73600006 1.4031769e-38
0.0021028498 0.017523825 0.73600006 8.3927829e-39
0.003504738 0.01752381 0.73600006 4.5004648e-39
0.0049066469 0.01752381 0.73600006 5.6555005e-40
0.006308537 0.017523825 0.73600006 8.0458592e-39
0.0077104447 0.017523825 0.73600006 1.538477e-38
0.0091123823 0.01752381 0.73600006 9.3092433e-39
0.01051427 0.01752381 0.73600006 3.141529e-39
0.01193238 0.017547637 0.73699999 2.0208195e-39
0.013336174 0.01754763 0.73700005 9.2349212e-40
0.014739987 0.017547645 0.73699999 2.2963975e-39
0.016187603 0.017595232 0.73900002 3.6133462e-39
0.017619006 0.017619051 0.74000001 8.3267747e-39
0.019028559 0.017619058 0.74000001 1.290203e-38
0.020493323 0.017666675 0.74200004 7.6376147e-39
0.021906639 0.017666668 0.74200004 2.4018802e-39
0.023319982 0.017666675 0.74200004 4.8831958e-39
0.02476665 0.017690502 0.74300003 7.2838681e-39
0.026252363 0.017738111 0.745 7.5712464e-39
0.027745701 0.017785721 0.74700004 7.8427396e-39
0.029207584 0.01780954 0.74800003 8.2096542e-39
0.030796174 0.017904781 0.75199997 8.4833614e-39
0.032271422 0.017928571 0.75300002 8.1149376e-39
0.033795197 0.017976187 0.75500005 7.6518113e-39
0.035279989 0.018000022 0.75600004 7.4688536e-39
0.036914285 0.018095255 0.76000005 7.194775e-39
0.038361914 0.01809527 0.76000005 6.7334381e-39
-0.064393356 0.019105718 0.74300003 1.7496907e-39
-0.062978126 0.019105732 0.74300003 2.7555007e-39
-0.0617286 0.019157149 0.74500006 7.2862153e-39
-0.060309555 0.019157149 0.74500006 1.1800224e-38
-0.058890514 0.019157149 0.74500006 1.4196633e-38
-0.057471454 0.019157156 0.74500006 1.6516858e-38
-0.056052398 0.019157156 0.74500006 1.8065091e-38
-0.054486673 0.01910574 0.74300003 1.9560302e-38
-0.053071436 0.01910574 0.74300003 2.0652655e-38
-0.051656205 0.01910574 0.74300003 2.1855866e-38
-0.050240971 0.019105725 0.74300003 2.2585191e-38
-0.048957169 0.019157149 0.74500006 2.3417474e-38
-0.047538128 0.019157164 0.74500006 1.7881538e-38
-0.04624287 0.01920858 0.74700004 1.2440564e-38
-0.044820026 0.019208573 0.74700004 6.4485751e-39
-0.043571454 0.019285731 0.75000006 3.6986012e-40
-0.042030521 0.0192343 0.74800003 1.1981789e-39
-0.040714309 0.019285724 0.75000006 2.0250613e-39
-0.039285716 0.019285724 0.75000006 1.6580808e-39
-0.037958115 0.019337155 0.75199997 1.289664e-39
-0.036428578 0.019285731 0.75000006 1.105993e-39
-0.035000015 0.019285724 0.75000006 9.2270599e-40
-0.033571437 0.019285716 0.75000006 1.5662958e-39
-0.03201431 0.019208588 0.74700004 2.1147864e-39
-0.030591443 0.01920858 0.74700004 1.6559564e-39
-0.02909049 0.019157164 0.745 1.1957084e-39
-0.027597168 0.01910571 0.74300003 1.4730127e-39
-0.026146706 0.019079998 0.74200004 1.8421596e-39
-0.024733374 0.019080013 0.74200004 1.4762623e-39
-0.023257168 0.019028582 0.74000001 1.1096406e-39
-0.021847645 0.019028589 0.74000001 6.4723734e-40
-0.020410514 0.01900287 0.73900002 9.2332957e-41
-0.019002877 0.01900287 0.73900002 5.0687222e-39
-0.017595273 0.019002855 0.73900002 1.0064818e-38
-0.016143819 0.018951453 0.73699999 9.6899719e-39
-0.014740013 0.018951438 0.73699999 9.3766836e-39
-0.013336199 0.018951461 0.73699999 4.7790527e-39
-0.011932393 0.018951446 0.73699999 9.6548063e-41
-0.010528579 0.018951446 0.73699999 3.7280004e-40
-0.0091247726 0.018951453 0.73699999 7.3870009e-40
-0.0077209594 0.018951453 0.73699999 2.3895796e-39
-0.0063171657 0.018951453 0.73700005 4.1331172e-39
-0.0049133394 0.018951453 0.73699999 9.3133113e-39
-0.0035095459 0.018951446 0.73700005 1.4582422e-38
-0.00210288 0.018925719 0.73600006 1.5871036e-38
-0.00070097041 0.018925734 0.73600006 1.7246011e-38
0.00070093083 0.018925719 0.73600006 1.0694434e-38
0.0021028395 0.018925719 0.73600006 4.2249905e-39
0.0035047287 0.018925726 0.73600006 2.2967394e-39
0.0049066506 0.018925719 0.73600006 3.6863258e-40
0.0063085584 0.018925719 0.73600006 6.5564877e-39
0.0077104475 0.018925726 0.73600006 1.273959e-38
0.0091123553 0.018925726 0.73600006 1.125622e-38
0.010514244 0.018925719 0.73600006 9.7756459e-39
0.011932368 0.018951453 0.73699999 9.0322668e-39
0.013336159 0.018951438 0.73700005 8.3758552e-39
0.014740001 0.018951446 0.73699999 9.2218135e-39
0.016187608 0.019002862 0.73900002 1.0163883e-38
0.017619021 0.019028582 0.74000001 8.7752673e-39
0.019079966 0.019080013 0.74200004 7.481234e-39
0.020493332 0.01908002 0.74199998 4.5180175e-39
0.021906648 0.019080013 0.74199998 1.6650228e-39
0.023351399 0.019105725 0.74300003 4.977202e-39
0.024766648 0.019105732 0.74300003 8.2972984e-39
0.026252382 0.019157156 0.745 8.4910405e-39
0.027745713 0.019208588 0.74700004 8.7592855e-39
0.029207585 0.019234292 0.74800009 9.4863492e-39
0.030796189 0.019337147 0.75199997 1.0224262e-38
0.03235713 0.019414283 0.75500005 1.1145845e-38
0.033929519 0.019491434 0.75800002 1.2145623e-38
0.035373345 0.019491434 0.75800002 1.2708463e-38
0.036962807 0.01956857 0.76100004 1.3255912e-38
0.038412344 0.019568577 0.76100004 1.2893974e-38
0.03986188 0.019568577 0.76100004 1.2608787e-38
-0.064393364 0.020520963 0.74300003 2.7555007e-39
-0.062978126 0.020520963 0.74300003 5.4528419e-39
-0.061728604 0.020576216 0.74500006 1.4496519e-38
-0.060309544 0.020576194 0.74500006 2.3402825e-38
-0.058890503 0.020576209 0.74500006 2.341759e-38
-0.05731716 0.020520978 0.74300003 2.3414334e-38
-0.055901922 0.020520978 0.74300003 2.3417533e-38
-0.054486688 0.02052097 0.74300003 2.341749e-38
-0.053071454 0.02052097 0.74300003 2.3417448e-38
-0.051656205 0.020520963 0.74300003 2.3416708e-38
-0.050240971 0.020520963 0.74300003 2.3414533e-38
-0.043571457 0.020714283 0.75000006 9.5435432e-41
-0.042030536 0.020659044 0.74800003 1.1963978e-39
-0.040714305 0.020714283 0.75000006 2.2083777e-39
-0.039390504 0.020769529 0.75200003 1.9328684e-39
-0.0379581 0.020769551 0.75199997 1.5655236e-39
-0.03652573 0.020769536 0.75199997 1.1052658e-39
-0.035093363 0.020769522 0.75200003 5.5499407e-40
-0.033571441 0.02071429 0.75000006 1.6574012e-39
-0.032057181 0.020659052 0.74800003 2.7590628e-39
-0.030632431 0.020659037 0.74800009 1.8389086e-39
-0.029090498 0.020576216 0.745 9.2127667e-40
-0.02767144 0.020576209 0.745 1.6563236e-39
-0.026252396 0.020576216 0.745 2.3920921e-39
-0.024733353 0.020493358 0.74199998 2.0258362e-39
-0.023320021 0.020493351 0.74200004 1.5670174e-39
-0.021847643 0.020438112 0.74000001 8.3018106e-40
-0.020438125 0.020438097 0.74000001 9.3395141e-41
-0.01900287 0.020410493 0.73899996 4.6841442e-39
-0.017595269 0.020410478 0.73900002 9.225377e-39
-0.016143819 0.020355262 0.73699999 9.6153597e-39
-0.014740014 0.020355269 0.73699999 9.9445696e-39
-0.013336199 0.020355269 0.73699999 5.0513531e-39
-0.011932394 0.020355254 0.73699999 9.5124344e-41
-0.010528579 0.020355262 0.73699999 9.8013821e-41
-0.0091495598 0.020410493 0.73900002 9.4817459e-41
-0.0077209594 0.020355254 0.73699999 4.1331018e-39
-0.0063171666 0.020355262 0.73700005 8.1151058e-39
-0.0049133394 0.020355262 0.73699999 1.2747849e-38
-0.0035095469 0.020355254 0.73699999 1.7339292e-38
-0.0021028772 0.02032762 0.73600006 1.6055055e-38
-0.00070096948 0.02032762 0.73600006 1.4744886e-38
0.00070091966 0.020327628 0.73600006 7.4578772e-39
0.0021028423 0.02032762 0.73600006 9.7021702e-41
0.003504751 0.020327628 0.73600006 9.2334358e-41
0.0049066413 0.020327628 0.73600006 9.7727956e-41
0.0063085631 0.020327628 0.73600006 5.0715668e-39
0.0077104503 0.02032762 0.73600006 9.9622231e-39
0.00911236 0.020327635 0.73600006 1.3199482e-38
0.010514269 0.020327628 0.73600006 1.6313956e-38
0.01193238 0.020355254 0.73699999 1.6048455e-38
0.013336195 0.020355269 0.73699999 1.5761148e-38
0.014739986 0.020355262 0.73699999 1.6234354e-38
0.016187612 0.020410486 0.73900002 1.6680952e-38
0.017619038 0.020438097 0.74000001 9.3125644e-39
0.019028544 0.020438105 0.74000001 1.9491697e-39
0.020493317 0.020493343 0.74200004 1.4712849e-39
0.021906633 0.020493343 0.74200004 9.2889273e-40
0.023351397 0.020520948 0.74300003 5.0625775e-39
0.024833314 0.020576216 0.745 9.2206896e-39
0.026252352 0.020576194 0.74500006 9.51956e-39
0.027745703 0.02063144 0.74700004 9.6755147e-39
0.02920758 0.020659067 0.74800003 1.0752694e-38
0.030919015 0.020852387 0.75500005 1.1888092e-38
0.032399993 0.020880014 0.75599998 1.4281925e-38
0.033929519 0.02093523 0.75800002 1.6583576e-38
0.035373315 0.020935245 0.75800002 1.7963643e-38
0.036962807 0.021018095 0.76100004 1.9345116e-38
0.038412344 0.021018103 0.76100004 1.9161441e-38
0.039861862 0.021018088 0.76100004 1.8978861e-38
-0.064566679 0.021995261 0.745 7.0946522e-39
-0.062978111 0.021936208 0.74300003 1.4018329e-38
-0.061562873 0.021936215 0.74300003 1.8722886e-38
-0.060147639 0.021936208 0.74300003 2.3417654e-38
-0.05873239 0.021936201 0.74300003 2.341769e-38
-0.057240032 0.021906681 0.74200004 2.3417689e-38
-0.055826705 0.021906674 0.74200004 2.3417687e-38
-0.039390504 0.022201896 0.75200003 1.934302e-39
-0.038008589 0.02223143 0.75300002 1.5673117e-39
-0.036574315 0.02223143 0.75300002 1.1063321e-39
-0.035140008 0.022231445 0.75299996 6.4717708e-40
-0.033660959 0.022201918 0.75199997 1.383317e-39
-0.03214287 0.022142865 0.75000006 2.1183597e-39
-0.030632421 0.022083826 0.74800003 1.5651943e-39
-0.029090494 0.021995261 0.745 1.1056637e-39
-0.027671438 0.021995261 0.745 1.3811744e-39
-0.026181929 0.021936201 0.74300003 1.6566879e-39
-0.024766684 0.021936215 0.74300003 1.6581298e-39
-0.023320034 0.021906681 0.74200004 1.6599221e-39
-0.021906704 0.021906666 0.74200004 1.0149184e-39
-0.020438109 0.021847643 0.74000001 3.6852888e-40
-0.019028585 0.021847636 0.74000001 4.5133694e-39
-0.017595261 0.021818109 0.73900002 8.6797394e-39
-0.016187645 0.021818087 0.73900002 9.8797497e-39
-0.014780032 0.021818094 0.73900002 1.105163e-38
-0.013372409 0.021818101 0.73900002 5.5184437e-39
-0.011964792 0.021818109 0.73900002 9.2984561e-41
-0.010557156 0.021818109 0.73899996 9.4069166e-41
-0.0091495542 0.021818101 0.73900002 9.2349773e-41
-0.0077209612 0.021759063 0.73699999 5.3417539e-39
-0.0063171675 0.02175907 0.73700005 1.0711668e-38
-0.0049133413 0.02175907 0.73699999 1.4400563e-38
-0.0035095478 0.021759056 0.73700005 1.8074346e-38
-0.0021028875 0.021729529 0.73600006 1.3926684e-38
-0.00070097973 0.021729529 0.73600006 9.6799007e-39
0.00070094387 0.021729529 0.73600006 4.8817455e-39
0.0021056912 0.02175907 0.73700005 9.2324549e-41
0.0035095045 0.02175907 0.73699999 2.7636829e-40
0.0049133115 0.021759056 0.73700005 3.677932e-40
0.0063085658 0.021729529 0.73600006 2.6740306e-39
0.0077104745 0.021729529 0.73600006 5.0726416e-39
0.0091123637 0.021729521 0.73600006 6.6493952e-39
0.010528572 0.02175907 0.73699999 8.2321282e-39
0.011932365 0.021759063 0.73699999 1.1263421e-38
0.013372367 0.021818109 0.73900002 1.439624e-38
0.01477997 0.021818109 0.73900002 1.3382829e-38
0.016209498 0.021847628 0.74000001 1.2461519e-38
0.017666647 0.021906674 0.74200004 7.2806199e-39
0.019079965 0.021906674 0.74200004 2.2045354e-39
0.020493308 0.021906681 0.74200004 2.7616258e-39
0.021906652 0.021906674 0.74200004 3.4148971e-39
0.023351396 0.021936201 0.74300003 7.0108504e-39
0.024766665 0.021936208 0.74300003 1.0513935e-38
0.026322849 0.022054292 0.74700004 9.3165497e-39
0.027745713 0.022054285 0.74700004 8.0174801e-39
0.029285703 0.022142872 0.75000006 1.2440909e-38
0.03083712 0.022231445 0.75300002 1.6976383e-38
0.032399975 0.02232001 0.75600004 1.8442542e-38
0.033929519 0.022379041 0.75800002 2.0014567e-38
0.035466656 0.022438109 0.76000005 2.0744286e-38
0.036914289 0.022438124 0.75999999 2.1397147e-38
0.038412347 0.022467636 0.76099998 2.1297387e-38
0.039861865 0.022467628 0.76100004 2.1213469e-38
-0.065985724 0.023414299 0.745 1.0054316e-40
-0.064566702 0.023414299 0.74500006 1.1329568e-38
-0.062978111 0.023351453 0.74300003 2.2568772e-38
-0.061562892 0.023351453 0.74300003 2.3050309e-38
-0.060147643 0.023351438 0.74300003 2.3417668e-38
-0.058653373 0.023320004 0.74200004 2.3417684e-38
-0.057240024 0.023320027 0.74199998 2.3417687e-38
-0.05582669 0.023320019 0.74199998 2.341733e-38
-0.038008593 0.023665726 0.75300002 1.4751259e-39
-0.036574304 0.023665719 0.75300002 1.1059846e-39
-0.03514003 0.023665726 0.75300002 6.4789595e-40
-0.033660974 0.023634307 0.75199997 1.0177617e-39
-0.032142878 0.023571439 0.75000006 1.3833058e-39
-0.030714303 0.023571439 0.75000006 1.3818681e-39
-0.029168596 0.023477145 0.74700004 1.2900438e-39
-0.027671434 0.023414306 0.745 1.1060253e-39
-0.026252411 0.023414299 0.74500006 9.2236408e-40
-0.024766697 0.023351438 0.74300003 1.2900746e-39
-0.02335145 0.023351438 0.74300003 1.6588599e-39
-0.021906681 0.023320004 0.74199998 1.1096504e-39
-0.020493351 0.023320019 0.74200004 5.547124e-40
-0.019028606 0.023257144 0.74000001 4.3207062e-39
-0.017619064 0.023257151 0.74000001 8.1201126e-39
-0.016187642 0.023225717 0.73900002 1.0172133e-38
-0.014780026 0.023225725 0.73900002 1.2064698e-38
-0.013372403 0.023225732 0.73899996 6.0615617e-39
-0.011964788 0.023225725 0.73900002 9.2974752e-41
-0.010557171 0.023225732 0.73900002 9.3334886e-41
-0.0091247754 0.023162872 0.73700005 9.2704301e-41
-0.0077209612 0.023162879 0.73699999 6.6127527e-39
-0.0063171685 0.023162872 0.73700005 1.3188011e-38
-0.0049133413 0.023162872 0.73699999 1.6067966e-38
-0.0035095487 0.023162864 0.73700005 1.8805793e-38
-0.0021028661 0.02313143 0.73600006 1.1713635e-38
-0.00070097693 0.023131438 0.73600006 4.6138453e-39
0.00070093176 0.023131438 0.73600006 2.3881545e-39
0.0021028339 0.023131423 0.73600006 9.3371319e-41
0.0035047417 0.023131438 0.73600006 3.6926597e-40
0.0049132975 0.023162857 0.73700005 6.443899e-40
0.0063085398 0.023131438 0.73600006 3.6778479e-40
0.0077104494 0.023131453 0.73600006 9.806707e-41
0.0091247456 0.023162879 0.73699999 9.2736531e-41
0.010528559 0.023162887 0.73699999 1.1678702e-40
0.011964722 0.023225725 0.73900002 6.5599952e-39
0.013372373 0.023225732 0.73899996 1.2915318e-38
0.014779974 0.023225725 0.73900002 1.0531204e-38
0.016209515 0.023257151 0.74000001 8.1132953e-39
0.017666636 0.023320012 0.74200004 5.2358494e-39
0.01907998 0.023320004 0.74200004 2.391449e-39
0.020493316 0.023320027 0.74199998 4.1388233e-39
0.021936169 0.023351453 0.74300003 5.9027386e-39
0.023351416 0.023351446 0.74300003 8.8676913e-39
0.024833303 0.023414306 0.74500006 1.1802146e-38
0.02632286 0.023477152 0.74700004 9.1231565e-39
0.027782802 0.023508571 0.74800003 6.376313e-39
0.029285697 0.023571432 0.75000006 1.4200237e-38
0.030919001 0.023728572 0.75500005 2.1935594e-38
0.032400001 0.023760013 0.75599998 2.268069e-38
0.033929519 0.023822851 0.75800002 2.3413972e-38
0.035373315 0.023822851 0.75800002 2.3417592e-38
0.036962841 0.023917153 0.76100004 2.3416862e-38
0.038513307 0.023980014 0.76300001 2.3417567e-38
0.039966654 0.023980014 0.76299995 2.3416503e-38
-0.067404784 0.024833351 0.745 4.133064e-39
-0.065985724 0.024833344 0.745 6.5208135e-39
-0.064393356 0.024766691 0.74300003 1.4748009e-38
-0.062893376 0.024733342 0.74200004 2.3050249e-38
-0.061480012 0.024733342 0.74199998 2.3234013e-38
-0.060066678 0.024733357 0.74199998 2.3417682e-38
-0.05841621 0.024633348 0.73900002 2.3417679e-38
-0.057008605 0.024633341 0.73900002 2.3417326e-38
-0.05582669 0.024733342 0.74200004 2.341769e-38
-0.035233371 0.025166661 0.75500005 8.3049215e-40
-0.033660959 0.025066674 0.75199997 1.1081538e-39
-0.032142881 0.025000013 0.75000006 1.3825785e-39
-0.030714288 0.025000021 0.75000006 1.290736e-39
-0.029207656 0.024933346 0.74800003 1.1996348e-39
-0.02767146 0.024833344 0.74500006 9.2306893e-40
-0.026252402 0.024833336 0.74500006 6.4685899e-40
-0.024766698 0.024766676 0.74300003 1.0149311e-39
-0.023351464 0.024766684 0.74300003 1.3822927e-39
-0.021936219 0.024766676 0.74300003 1.1986413e-39
-0.020493364 0.02473335 0.74200004 1.0113788e-39
-0.019028602 0.024666674 0.74000001 3.775049e-39
-0.017619081 0.024666667 0.74000001 6.5531653e-39
-0.016187634 0.024633341 0.73900002 9.6021245e-39
-0.014780018 0.024633333 0.73900002 1.2616076e-38
-0.013372418 0.024633341 0.73900002 6.3463925e-39
-0.011964782 0.024633341 0.73900002 9.2964943e-41
-0.010528582 0.024566695 0.73699999 9.2600605e-41
-0.0091247754 0.02456668 0.73700005 9.2341365e-41
-0.0077209622 0.024566688 0.73699999 7.4665442e-39
-0.0063171685 0.024566695 0.73700005 1.4767521e-38
-0.0049133422 0.024566688 0.73699999 1.6243759e-38
-0.0035095487 0.02456668 0.73700005 1.7795236e-38
-0.0021028754 0.024533346 0.73600006 1.0041195e-38
-0.00070097321 0.024533331 0.73600006 2.3882344e-39
0.00070093456 0.024533346 0.73600006 1.5623091e-39
0.0021056903 0.02456668 0.73700005 7.376267e-40
0.0035047333 0.024533331 0.73600006 7.3802747e-40
0.004913331 0.024566695 0.73699999 8.2915251e-40
0.0063171247 0.024566688 0.73699999 9.2027754e-40
0.0077104522 0.024533339 0.73600006 1.0113689e-39
0.0091247577 0.024566695 0.73700005 1.0109836e-39
0.010528572 0.024566688 0.73699999 1.1028457e-39
0.011964729 0.024633341 0.73900002 8.3108812e-39
0.013372358 0.024633341 0.73900002 1.5490585e-38
0.014799975 0.024666674 0.74000001 9.7745753e-39
0.016209509 0.024666667 0.74000001 4.1331298e-39
0.017666645 0.02473335 0.74199998 2.6658947e-39
0.019079989 0.024733342 0.74199998 1.2926656e-39
0.020493304 0.02473335 0.74200004 3.866928e-39
0.021936165 0.024766691 0.74300003 6.5463381e-39
0.023351412 0.024766676 0.74300003 1.0058006e-38
0.024833295 0.024833351 0.74500006 1.3653208e-38
0.026322823 0.024899997 0.7470001 1.1253632e-38
0.027782824 0.024933353 0.74800003 8.9495356e-39
0.029285692 0.025000006 0.75000006 1.5307749e-38
0.030919019 0.025166675 0.75500005 2.1670226e-38
0.032399978 0.025200009 0.75600004 2.2494949e-38
0.033929516 0.02526667 0.75800008 2.3410442e-38
0.035466667 0.025333352 0.75999999 2.3321843e-38
0.036962822 0.025366664 0.76100004 2.3230732e-38
0.038412359 0.025366671 0.76100004 2.3139262e-38
0.039861869 0.025366686 0.76099998 2.2954516e-38
-0.067404784 0.026252389 0.74500006 6.5207911e-39
-0.065808609 0.026181914 0.74300003 1.2991673e-38
-0.064393356 0.026181921 0.74300003 1.8274794e-38
-0.062893353 0.02614668 0.74199998 2.3417634e-38
-0.061480027 0.026146673 0.74200004 2.3417687e-38
-0.059904791 0.02607619 0.74000001 2.3417684e-38
-0.058495268 0.026076205 0.74000001 2.3417683e-38
-0.057008602 0.026040956 0.73900002 2.3417686e-38
-0.036817148 0.026710473 0.75800002 1.2882389e-39
-0.035280012 0.026640013 0.75599998 9.2305632e-40
-0.033705737 0.026534289 0.75300002 1.2014383e-39
-0.032228589 0.026499048 0.75199997 1.3840275e-39
-0.030714294 0.02642858 0.75000006 1.1992747e-39
-0.029168589 0.026322864 0.74700004 1.0156163e-39
-0.027671456 0.026252396 0.74500006 7.4012381e-40
-0.026252415 0.026252404 0.74500006 3.7279444e-40
-0.024766682 0.026181921 0.74300003 7.4050777e-40
-0.023351446 0.026181929 0.74300003 1.1078638e-39
-0.021906704 0.02614668 0.74200004 1.2908313e-39
-0.020493342 0.02614668 0.74199998 1.3801515e-39
-0.019028585 0.026076198 0.74000001 3.1228707e-39
-0.017619081 0.026076205 0.74000001 4.8994019e-39
-0.016187649 0.026040956 0.73900002 9.0668845e-39
-0.014780028 0.026040964 0.73900002 1.3171393e-38
-0.013372412 0.026040956 0.73900002 6.6154516e-39
-0.011964795 0.026040956 0.73900002 9.3336287e-41
-0.01055716 0.026040956 0.73900002 9.226009e-41
-0.0091247763 0.025970496 0.73700005 1.0132089e-40
-0.0077209631 0.025970496 0.73699999 8.2098434e-39
-0.0063171713 0.025970504 0.73700005 1.6326928e-38
-0.0049133422 0.025970504 0.73699999 1.6527507e-38
-0.0035095487 0.025970481 0.73700005 1.6676291e-38
-0.0021028726 0.025935248 0.73600006 8.3589906e-39
-0.00070098345 0.02593524 0.73600006 9.267067e-41
0.00070092524 0.025935233 0.73600006 7.354701e-40
0.002102847 0.025935255 0.73600006 1.2893754e-39
0.0035047361 0.02593524 0.73600006 1.1993545e-39
0.0049133291 0.025970504 0.73699999 1.0138969e-39
0.0063171368 0.025970496 0.73699999 1.4727226e-39
0.0077209501 0.025970489 0.73699999 1.9300826e-39
0.0091247438 0.025970496 0.73699999 2.0208195e-39
0.010528555 0.025970504 0.73699999 2.0460065e-39
0.011964733 0.026040964 0.73899996 1.0090299e-38
0.013390437 0.026076205 0.74000001 1.7970549e-38
0.01479999 0.026076205 0.74000001 9.0344991e-39
0.016209496 0.026076205 0.74000001 1.0131808e-40
0.017666632 0.026146688 0.74200004 9.3397944e-41
0.019079978 0.026146673 0.74200004 9.4102797e-41
0.020520944 0.026181929 0.74300003 3.5820454e-39
0.021936165 0.026181914 0.74300003 7.1048887e-39
0.023351412 0.026181921 0.74300003 1.1347709e-38
0.024899967 0.026322864 0.74700004 1.5492492e-38
0.026358075 0.026358098 0.74800003 1.3471742e-38
0.027857125 0.02642858 0.75000006 1.1442029e-38
0.029363785 0.026499063 0.75199997 1.6410112e-38
0.030919015 0.026604749 0.75500005 2.1296053e-38
0.032399986 0.026640005 0.75600004 2.240167e-38
0.033839971 0.026640013 0.75600004 2.3412944e-38
0.035466664 0.026780963 0.76000005 2.3228564e-38
0.036962826 0.026816204 0.76100004 2.3046332e-38
0.038412362 0.026816197 0.76100004 2.2770114e-38
-0.067223832 0.027597144 0.74300003 8.9382916e-39
-0.065808609 0.027597144 0.74300003 1.780268e-38
-0.064393364 0.027597152 0.74300003 2.0659375e-38
-0.062893368 0.027560018 0.74200004 2.3417679e-38
-0.061314311 0.027485728 0.74000001 2.3417689e-38
-0.059904791 0.027485728 0.74000001 2.3417687e-38
-0.058495272 0.027485713 0.74000001 2.3417686e-38
-0.036817148 0.028154291 0.75800002 1.1060112e-39
-0.035280019 0.028080009 0.75600004 6.4684358e-40
-0.033705741 0.027968578 0.75300002 9.248696e-40
-0.032228589 0.027931444 0.75199997 1.2929248e-39
-0.030714303 0.02785714 0.75000006 1.1996488e-39
-0.029207658 0.027782872 0.74800003 1.1067469e-39
-0.027745731 0.027745716 0.74700004 9.2416054e-40
-0.026252408 0.027671441 0.74500006 7.4157836e-40
-0.02476668 0.027597159 0.74300003 9.2490183e-40
-0.02335145 0.027597159 0.74300003 1.1096588e-39
-0.021906681 0.027560018 0.74200004 1.3830213e-39
-0.020493355 0.027560003 0.74200004 1.6560139e-39
-0.019080024 0.027560018 0.74200004 3.0385644e-39
-0.017619066 0.027485736 0.74000001 4.4359112e-39
-0.016209543 0.027485728 0.74000001 9.0535988e-39
-0.014800023 0.027485728 0.74000001 1.3733885e-38
-0.013372406 0.02744858 0.73900002 6.904241e-39
-0.01196479 0.027448587 0.73900002 9.2274103e-41
-0.010557167 0.027448587 0.73899996 9.2276905e-41
-0.0091247773 0.027374305 0.73700005 9.2363786e-41
-0.0077209631 0.027374305 0.73699999 9.4176996e-39
-0.0063171722 0.027374305 0.73700005 1.8639674e-38
-0.0049133431 0.027374305 0.73699999 1.6149393e-38
-0.0035095506 0.027374312 0.73700005 1.3645661e-38
-0.0021028847 0.027337141 0.73600006 6.9017102e-39
-0.00070096203 0.027337156 0.73600006 9.2276905e-41
0.00070189661 0.02737432 0.73699999 5.5291454e-40
0.0021057089 0.02737432 0.73699999 1.1067988e-39
0.0035095036 0.027374297 0.73699999 9.2241032e-40
0.004913331 0.027374312 0.73699999 7.373114e-40
0.0063171228 0.027374305 0.73699999 9.209894e-40
0.0077209361 0.02737432 0.73699999 1.1032058e-39
0.0091247577 0.027374305 0.73700005 1.1074896e-39
0.010557117 0.027448587 0.73900002 1.1223252e-39
0.011964718 0.02744858 0.73900002 9.524323e-39
0.013390454 0.027485728 0.74000001 1.7980639e-38
0.01479996 0.027485721 0.74000001 9.3942965e-39
0.016209492 0.027485728 0.74000007 9.1884962e-40
0.017666649 0.027560003 0.74200004 6.4366683e-40
0.019079965 0.027560003 0.74200004 3.6777779e-40
0.02052094 0.027597152 0.74300003 6.8217087e-39
0.021936161 0.027597144 0.74300003 1.3372308e-38
0.023414275 0.027671434 0.74500006 1.5406467e-38
0.024899978 0.027745709 0.74700004 1.7528003e-38
0.026358049 0.027782857 0.74800003 1.3373515e-38
