# .PCD v0.7 - Point Cloud Data file format
VERSION 0.7
FIELDS x y z rgb
SIZE 4 4 4 4
TYPE F F F F
COUNT 1 1 1 1
WIDTH 969
HEIGHT 1
VIEWPOINT 0 0 0 1 0 0 0
POINTS 969
DATA ascii
0.040985722 0.022290468 0.75500005 2.1298464e-38
0.042479988 0.022319987 0.75600004 2.1305277e-38
-0.036292389 0.022597134 0.71900004 1.7673508e-38
-0.034922853 0.022597134 0.7190001 8.9085098e-39
-0.033460006 0.022534274 0.71700001 9.2614618e-41
-0.031960011 0.022440001 0.71400005 8.2832994e-40
-0.030685704 0.022502854 0.71600002 1.563723e-39
-0.029321902 0.022502862 0.71600002 1.1974502e-39
-0.027958101 0.022502854 0.71600002 8.3046973e-40
-0.026594298 0.022502854 0.71600002 8.3011239e-40
-0.025230493 0.022502854 0.71600002 8.2941175e-40
-0.02386667 0.022502854 0.71600002 6.4647503e-40
-0.022502868 0.022502854 0.71600002 4.6282086e-40
-0.021493342 0.022879995 0.72800004 6.4650726e-40
-0.020106655 0.022879981 0.72800004 8.305454e-40
-0.018797111 0.022974283 0.73100001 1.1989734e-39
-0.017523784 0.023131408 0.73600012 1.5670412e-39
-0.016078074 0.023068562 0.73400003 1.9361867e-39
-0.01467998 0.023068555 0.73400009 2.3028028e-39
-0.013281868 0.023068555 0.73400009 2.0272879e-39
-0.011883789 0.023068562 0.73400003 1.6581397e-39
-0.010457105 0.023005709 0.73200005 1.4737386e-39
-0.0090628369 0.023005709 0.73200005 1.1996852e-39
-0.0076685515 0.023005702 0.73200005 9.2635077e-40
-0.0062742834 0.023005717 0.73200005 5.5937032e-40
-0.004879978 0.023005702 0.73200005 1.3862527e-39
-0.0034857099 0.023005709 0.73199999 2.1223688e-39
-0.0020885174 0.022974283 0.73100007 2.2156378e-39
-0.00069615856 0.022974275 0.73100007 2.212391e-39
0.00069622457 0.022974268 0.73100007 1.9336391e-39
0.0020886096 0.022974275 0.73100007 1.5630756e-39
0.0034809927 0.022974283 0.73100007 2.8473446e-39
0.0048600207 0.022911429 0.72900003 4.16329e-39
0.0062485947 0.022911422 0.72900003 9.0712229e-39
0.0076371706 0.022911422 0.72900003 1.3817861e-38
0.0090505024 0.022974283 0.73100007 6.9799517e-39
0.010485762 0.023068562 0.73400009 9.2621625e-41
0.011883815 0.023068555 0.73400003 3.6774135e-40
0.013318124 0.023131415 0.73600012 5.708946e-40
0.014720011 0.023131415 0.73600006 9.1615702e-39
0.016121911 0.023131423 0.73600006 1.7615468e-38
0.017523833 0.023131415 0.73600006 1.3756236e-38
0.018925719 0.023131423 0.73600006 9.7677566e-39
0.020355262 0.023162857 0.73700005 5.4198273e-39
0.021759048 0.023162849 0.73700005 1.1089638e-39
0.023225754 0.02322571 0.73900002 2.0334424e-39
0.024633348 0.023225717 0.73900002 2.9507212e-39
0.026040964 0.023225725 0.73900002 5.7154718e-39
0.027485717 0.023257129 0.74000001 8.4798848e-39
0.02897332 0.023320004 0.74200004 9.3946734e-39
0.030427635 0.023351423 0.74300003 1.0333108e-38
0.032057162 0.023508571 0.74800003 1.6884986e-38
0.033660978 0.023634285 0.75200003 2.3413598e-38
0.035093345 0.023634285 0.75200003 2.3417585e-38
0.036574289 0.023665719 0.75300002 2.3414372e-38
0.038109526 0.023728572 0.75500005 2.3417616e-38
0.039600022 0.023759976 0.7560001 2.3416521e-38
0.04104 0.023759991 0.75600004 2.3417578e-38
0.042479984 0.023759998 0.75600004 2.3417568e-38
-0.036191426 0.023899987 0.71700001 1.019426e-38
-0.034825698 0.023899995 0.71700001 5.2350451e-39
-0.033413328 0.023866668 0.71600002 3.6774556e-40
-0.031959988 0.023799993 0.71400005 1.2885934e-39
-0.030599974 0.023799993 0.71400005 2.2076532e-39
-0.029239977 0.023800001 0.71400005 1.4736741e-39
-0.027880024 0.023800008 0.71399999 7.3971043e-40
-0.026520025 0.023800001 0.71400005 7.3791817e-40
-0.025160009 0.023800008 0.71399999 7.3577978e-40
-0.023800015 0.023800001 0.71399999 5.5391507e-40
-0.02244002 0.023800001 0.71400005 3.7097835e-40
-0.021818087 0.024633348 0.73900002 5.5430603e-40
-0.020355232 0.024566665 0.73700011 8.2910766e-40
-0.018951423 0.024566665 0.73700005 1.1978958e-39
-0.017523803 0.024533316 0.73600006 1.5659622e-39
-0.016121881 0.024533331 0.73600006 1.8432694e-39
-0.014719998 0.024533331 0.73600006 2.2102484e-39
-0.013318098 0.024533316 0.73600006 2.0262145e-39
-0.011932357 0.024566658 0.73700011 1.8411058e-39
-0.010457125 0.024400003 0.73200005 1.5659552e-39
-0.0090628201 0.024399996 0.73200005 1.2908131e-39
-0.0076685739 0.024399996 0.73200005 1.0160297e-39
-0.0062742666 0.024399996 0.73200005 7.4088612e-40
-0.0048799985 0.024399988 0.73200005 1.2940543e-39
-0.0034856913 0.024399996 0.73200005 1.9390524e-39
-0.0020885305 0.024366662 0.73100001 1.9390482e-39
-0.00069614738 0.024366662 0.73100001 1.9361433e-39
0.00069621339 0.024366662 0.73100007 1.3822254e-39
0.0020885947 0.024366662 0.73100001 8.2835937e-40
0.0034809797 0.024366662 0.73100001 1.9336307e-39
0.0048799864 0.024399996 0.73200005 3.048337e-39
0.0062486003 0.024300002 0.72900003 8.594106e-39
0.007668599 0.024399988 0.73200005 1.4198839e-38
0.0090876454 0.024466656 0.73400009 7.085789e-39
0.010485758 0.024466649 0.73400009 9.2257287e-41
0.011883815 0.024466649 0.73400003 9.2052697e-40
0.013318107 0.024533316 0.73600006 1.7529137e-39
0.014720033 0.024533331 0.73600006 1.0439745e-38
0.016121894 0.024533324 0.73600006 1.9183112e-38
0.017547643 0.024566665 0.73700005 1.2082343e-38
0.018951423 0.024566658 0.73700005 4.9596283e-39
0.020355271 0.024566665 0.73700011 3.3097353e-39
0.02175908 0.024566673 0.73700005 1.7568093e-39
0.023225743 0.024633333 0.73900002 2.1227416e-39
0.024633341 0.024633348 0.73900002 2.4836544e-39
0.02607622 0.02466666 0.74000001 5.6261769e-39
0.027559999 0.024733335 0.74200004 8.8626607e-39
0.028973348 0.024733335 0.74200004 9.4043452e-39
0.030509524 0.024833322 0.74500006 9.9615113e-39
0.032057155 0.024933346 0.74800003 1.6694972e-38
0.033660967 0.025066659 0.75200003 2.3417631e-38
0.035093334 0.025066666 0.75200003 2.3138551e-38
0.036671437 0.025166661 0.75500005 2.2946269e-38
0.038109515 0.025166668 0.75500005 2.3044559e-38
0.0396 0.025199994 0.75600004 2.3137839e-38
0.041040018 0.025199987 0.75600004 2.3139642e-38
-0.037557118 0.025265701 0.71700001 1.2006279e-38
-0.036140952 0.025230475 0.71600002 2.7724144e-39
-0.03477715 0.025230467 0.71600002 1.6534355e-39
-0.033320002 0.025160007 0.71400005 5.542766e-40
-0.031960007 0.025160007 0.71400005 1.6591682e-39
-0.030600011 0.025159992 0.71400005 2.7604627e-39
-0.02923999 0.025160007 0.71400005 1.7491806e-39
-0.027840924 0.025124758 0.71300006 6.475148e-40
-0.026482813 0.025124758 0.71300006 6.4608127e-40
-0.025124742 0.025124744 0.71300006 6.4573375e-40
-0.023766631 0.025124736 0.71300012 4.6207396e-40
-0.022408538 0.025124751 0.71300006 1.8694443e-40
-0.021818098 0.026040964 0.73900002 5.5430603e-40
-0.020410441 0.026040956 0.73900002 8.3018106e-40
-0.018951416 0.025970481 0.73700011 1.197893e-39
-0.017547607 0.025970474 0.73700005 1.5670426e-39
-0.016121902 0.025935233 0.73600006 1.8447169e-39
-0.014719981 0.025935233 0.73600006 2.0269306e-39
-0.013318057 0.025935233 0.73600006 2.025832e-39
-0.011932383 0.025970474 0.73700005 1.9336489e-39
-0.010485678 0.02586475 0.73400009 1.6581537e-39
-0.0090876026 0.02586475 0.73400003 1.3830115e-39
-0.00768951 0.025864743 0.73400009 1.1060757e-39
-0.006274289 0.025794283 0.73200005 8.3236568e-40
-0.0048799836 0.025794268 0.73200005 1.2929823e-39
-0.0034856745 0.025794275 0.73200005 1.7543094e-39
-0.0020885454 0.025759041 0.73100001 1.7571778e-39
-0.00069712341 0.025794275 0.73200005 1.6617368e-39
0.00069619849 0.025759049 0.73100001 9.2201235e-40
0.0020885817 0.025759049 0.73100001 9.4416688e-41
0.0034809648 0.025759041 0.73100001 1.0106193e-39
0.0048800255 0.025794275 0.73200005 1.8627264e-39
0.0062743085 0.025794275 0.73200005 8.2418252e-39
0.0076685767 0.025794275 0.73200005 1.4463944e-38
0.0090876436 0.025864743 0.73400009 7.2554792e-39
0.010485758 0.025864735 0.73400009 9.228251e-41
0.011916227 0.025935218 0.73600006 1.5616224e-39
0.013318087 0.025935225 0.73600006 2.9690544e-39
0.014720012 0.02593524 0.73600006 1.1844578e-38
0.016121935 0.025935233 0.73600006 2.0646381e-38
0.01754765 0.025970459 0.73700011 1.0429626e-38
0.018951435 0.025970481 0.73700011 1.0524312e-40
0.020355243 0.025970481 0.73700005 1.2864845e-39
0.021759089 0.025970474 0.73700011 2.3978627e-39
0.02322574 0.026040956 0.73900002 2.2170868e-39
0.024666689 0.026076183 0.74000001 1.9408825e-39
0.026076205 0.02607619 0.74000001 5.5346833e-39
0.027560003 0.026146658 0.74200004 9.1306086e-39
0.028973352 0.026146658 0.74200004 9.3982159e-39
0.030509524 0.026252367 0.74500006 9.600953e-39
0.03205714 0.02635809 0.74800003 1.6515573e-38
0.033571441 0.026428573 0.75000006 2.3413305e-38
0.035093322 0.026499048 0.75200003 2.2955948e-38
0.036671422 0.026604764 0.75500005 2.2400981e-38
0.038109522 0.026604764 0.75500005 2.2676121e-38
0.039599989 0.026639991 0.75600004 2.2861236e-38
0.041040011 0.026639998 0.75600004 2.2952721e-38
-0.038922831 0.026631415 0.71700007 1.5703424e-38
-0.037557144 0.026631407 0.71700001 8.5807082e-39
-0.036140945 0.026594296 0.71600002 1.4698276e-39
-0.034679994 0.026519999 0.71400005 1.4711742e-39
-0.033320002 0.026520006 0.71400005 1.4751315e-39
-0.031915225 0.026482843 0.71300006 1.8435609e-39
-0.030557094 0.02648285 0.71300006 2.303439e-39
-0.029239992 0.026520006 0.71400005 1.3836323e-39
-0.027840912 0.026482835 0.71300012 4.6527733e-40
-0.026482819 0.026482835 0.71300006 5.556779e-40
-0.025124749 0.02648285 0.71300006 6.4716447e-40
-0.023766637 0.026482843 0.71300006 4.6206696e-40
-0.023319989 0.027560003 0.74200004 2.7805965e-40
-0.021847587 0.027485706 0.74000001 5.539473e-40
-0.020438071 0.027485698 0.74000001 8.3089712e-40
-0.019002832 0.02744858 0.73900002 1.198965e-39
-0.017547596 0.027374275 0.73700011 1.5677657e-39
-0.016121883 0.027337134 0.73600012 1.6596236e-39
-0.014739968 0.027374282 0.73700011 1.8436127e-39
-0.01333616 0.027374282 0.73700011 1.8424959e-39
-0.011916176 0.027337134 0.73600012 1.8418036e-39
-0.010485682 0.027262837 0.73400009 1.8429037e-39
-0.0090876063 0.027262852 0.73400003 1.8443442e-39
-0.0076895137 0.027262852 0.73400009 1.3833787e-39
-0.0062913974 0.027262844 0.73400009 9.2384665e-40
-0.004880006 0.027188569 0.73200005 1.2922676e-39
-0.0034856987 0.027188562 0.73200005 1.6606858e-39
-0.0020885193 0.027151421 0.73100007 1.8472253e-39
-0.00069714763 0.027188554 0.73200005 1.9390608e-39
0.00069622457 0.027151421 0.73100007 1.2000706e-39
0.0020886078 0.027151413 0.73100007 5.5469419e-40
0.0034809909 0.027151413 0.73100007 9.2381162e-40
0.0048800404 0.027188569 0.73200005 1.3942233e-39
0.0062914728 0.027262844 0.73400009 7.8586934e-39
0.0076685934 0.027188554 0.73200005 1.4383589e-38
0.0090876417 0.027262852 0.73400009 7.2698369e-39
0.010485756 0.027262844 0.73400009 1.8414323e-40
0.011916206 0.027337134 0.73600006 2.7612642e-39
0.013318106 0.027337141 0.73600012 5.4418361e-39
0.014720031 0.027337134 0.73600012 1.2835792e-38
0.016121915 0.027337134 0.73600006 2.0189715e-38
0.017547663 0.027374282 0.73700011 1.0142604e-38
0.018951446 0.027374275 0.73700011 9.2310536e-41
0.020355254 0.027374275 0.73700011 1.5652196e-39
0.021818116 0.027448572 0.73900002 3.0453733e-39
0.023225734 0.02744858 0.73900002 2.9492568e-39
0.024666708 0.027485706 0.74000001 2.8549228e-39
0.026076188 0.027485713 0.74000001 6.8286143e-39
0.027560003 0.027559988 0.74200004 1.088945e-38
0.029090485 0.027671434 0.74500006 1.1063061e-38
0.030591443 0.027745709 0.74700004 1.1161048e-38
0.032057155 0.027782872 0.74800003 1.7340984e-38
0.033571452 0.02785714 0.75000006 2.341759e-38
0.035093337 0.027931429 0.75200003 2.3140327e-38
0.03667143 0.028042853 0.75500005 2.2953773e-38
0.038109526 0.028042845 0.75500005 2.3045596e-38
0.039600007 0.028079987 0.75600004 2.3137081e-38
0.041040029 0.028079979 0.75600004 2.3137806e-38
-0.038922835 0.027997129 0.71700007 1.0138712e-38
-0.03750477 0.02795808 0.71600008 5.143637e-39
-0.036040004 0.027880006 0.71399999 9.2278306e-41
-0.034680009 0.027880006 0.71400005 1.1942552e-39
-0.033320013 0.027880006 0.71400005 2.3012964e-39
-0.031915195 0.027840935 0.71300012 2.1197694e-39
-0.030557122 0.027840935 0.71300006 1.8438958e-39
-0.029199028 0.027840935 0.71300006 1.1081272e-39
-0.027840922 0.027840942 0.71300006 2.8124901e-40
-0.026408559 0.027762875 0.71100003 4.638424e-40
-0.025054298 0.02776286 0.71099997 5.5461151e-40
-0.024733331 0.028973334 0.74200004 4.6099076e-40
-0.023319984 0.028973334 0.74200004 2.7770232e-40
-0.021906659 0.028973326 0.74200004 5.5251517e-40
-0.02043809 0.028895229 0.74000001 8.3017826e-40
-0.01900284 0.028856196 0.73900002 1.1993167e-39
-0.017547585 0.028778091 0.73700011 1.5666797e-39
-0.016143778 0.028778091 0.73700011 1.5663434e-39
-0.014739994 0.028778084 0.73700011 1.5670384e-39
-0.013336151 0.028778076 0.73700011 1.6584942e-39
-0.011916197 0.028739043 0.73600006 1.6592243e-39
-0.010485682 0.028660946 0.73400009 1.9347448e-39
-0.0090876063 0.028660946 0.73400003 2.211689e-39
-0.0076894895 0.028660938 0.73400003 1.659604e-39
-0.0062913992 0.028660946 0.73400009 1.0163982e-39
-0.004893322 0.028660946 0.73400003 1.2908313e-39
-0.003485682 0.028582856 0.73200005 1.5695706e-39
-0.0020914138 0.028582856 0.73200005 1.9394279e-39
-0.00069710665 0.028582849 0.73200005 2.2134953e-39
0.00069713913 0.028582864 0.73200005 1.5677713e-39
0.0020885966 0.028543808 0.73100007 9.2203617e-40
0.0034809778 0.0285438 0.73100001 9.1878936e-40
0.0048800199 0.028582841 0.73200005 9.4078134e-40
0.0062743048 0.028582849 0.73200005 7.5978879e-39
0.0076685729 0.028582856 0.73200005 1.4188078e-38
0.0090876417 0.028660938 0.73400009 7.1636578e-39
0.010514301 0.028739035 0.73600006 1.8416145e-40
0.011916225 0.028739028 0.73600006 4.0412551e-39
0.013318085 0.028739043 0.73600006 7.9382731e-39
0.014740038 0.028778091 0.73700011 1.3866794e-38
0.016143825 0.028778084 0.73700011 1.9720499e-38
0.017547633 0.028778091 0.73700005 9.9503303e-39
0.018951442 0.028778099 0.73700005 1.0020966e-40
0.020355264 0.028778091 0.73700011 1.9289812e-39
0.021759072 0.028778091 0.73700011 3.6796304e-39
0.023225725 0.028856196 0.73900002 3.678948e-39
0.024666691 0.028895237 0.74000001 3.6972756e-39
0.026076231 0.028895229 0.74000001 8.2184123e-39
0.027597155 0.029012367 0.74300003 1.2631876e-38
0.029168613 0.029168561 0.74700004 1.2712213e-38
0.030632393 0.029207624 0.74800003 1.2735227e-38
0.03205714 0.029207617 0.74800003 1.8086137e-38
0.033571485 0.029285707 0.75000012 2.3416551e-38
0.03509333 0.029363811 0.75200003 2.3417635e-38
0.036574304 0.02940286 0.75300002 2.341547e-38
0.038109548 0.029480956 0.75500005 2.3415459e-38
0.0396 0.029519983 0.75600004 2.3413678e-38
-0.038868565 0.029321894 0.71600002 5.2351446e-39
-0.0374 0.02923999 0.71400005 2.8473348e-39
-0.036039978 0.029240005 0.71400005 5.5143897e-40
-0.034679987 0.02923999 0.71400005 1.288983e-39
-0.033273313 0.029199041 0.71300006 1.9361096e-39
-0.031915203 0.029199027 0.71300006 2.1201127e-39
-0.030557131 0.029199041 0.71300006 2.3030663e-39
-0.029198997 0.029199034 0.71300006 1.6591416e-39
-0.027762871 0.029117145 0.71099997 9.2373875e-40
-0.02640857 0.029117152 0.71100003 8.3082566e-40
-0.026146654 0.030386664 0.74200004 7.3792377e-40
-0.024733307 0.030386664 0.74200004 6.4573795e-40
-0.023257121 0.030304752 0.74000001 5.5356895e-40
-0.021847583 0.030304745 0.74000001 7.3726516e-40
-0.020438083 0.030304767 0.74000001 9.2201095e-40
-0.019002851 0.030263811 0.73900002 1.1982335e-39
-0.017595217 0.030263811 0.73900002 1.4744771e-39
-0.016143769 0.0301819 0.73700011 1.5666909e-39
-0.014739984 0.0301819 0.73700011 1.7510766e-39
-0.013336175 0.0301819 0.73700011 1.659597e-39
-0.011932368 0.030181907 0.73700005 1.5688405e-39
-0.010514292 0.030140951 0.73600006 2.1209325e-39
-0.0091123683 0.030140944 0.73600006 2.7644998e-39
-0.0077104461 0.030140951 0.73600006 1.7535919e-39
-0.0062914011 0.030059032 0.73400009 7.4268538e-40
-0.0048933257 0.03005904 0.73400003 1.2015041e-39
-0.0034952094 0.030059032 0.73400003 1.7543206e-39
-0.0020913989 0.029977135 0.73200005 2.0305543e-39
-0.00069713086 0.029977143 0.73200005 2.2131407e-39
0.00069715403 0.029977135 0.73200005 1.3844591e-39
0.0020914222 0.029977135 0.73200005 6.4724715e-40
0.0034857295 0.029977135 0.73200005 6.4543527e-40
0.0048800348 0.029977135 0.73200005 6.480529e-40
0.006291471 0.030059032 0.73400009 7.3955558e-39
0.0076895463 0.03005904 0.73400003 1.419884e-38
0.009087638 0.030059032 0.73400009 7.1776525e-39
0.010514283 0.030140936 0.73600006 1.8418106e-40
0.011916206 0.030140951 0.73600006 4.4197514e-39
0.01331813 0.030140944 0.73600006 8.7698345e-39
0.01474001 0.0301819 0.73700005 1.3941773e-38
0.016143857 0.030181907 0.73700011 1.9079808e-38
0.017547643 0.030181907 0.73700011 9.580843e-39
0.018951451 0.0301819 0.73700005 9.2324549e-41
0.020355234 0.030181915 0.73700011 1.2879334e-39
0.021818124 0.030263811 0.73900002 2.392158e-39
0.023225717 0.030263826 0.73900002 4.511954e-39
0.024733325 0.030386671 0.74200004 6.7408103e-39
0.026146652 0.030386671 0.74200004 9.5127861e-39
0.027597154 0.030427612 0.74300003 1.2279305e-38
0.029168636 0.030591413 0.74700004 1.3465608e-38
0.03063238 0.030632392 0.74800003 1.4674957e-38
0.032057133 0.030632384 0.74800003 1.8175169e-38
0.033571456 0.030714296 0.75000006 2.1672789e-38
0.035093341 0.030796193 0.75200003 2.1300045e-38
0.036574285 0.030837134 0.75300002 2.0935562e-38
0.038109515 0.030919053 0.75500005 2.0838693e-38
0.039599996 0.030959986 0.75600004 2.0745442e-38
-0.03876001 0.030600004 0.71399999 2.7958287e-40
-0.037400015 0.030600011 0.71399999 6.4326326e-40
-0.036040016 0.030599996 0.71400005 1.0127478e-39
-0.034680001 0.030599996 0.71399999 1.2903983e-39
-0.033273302 0.030557133 0.71300006 1.5687564e-39
-0.031825714 0.030471444 0.71099997 2.2133818e-39
-0.030471411 0.030471422 0.71100003 2.7626193e-39
-0.029117147 0.030471437 0.71100003 2.2101896e-39
-0.027645726 0.03034284 0.708 1.5666082e-39
-0.026297173 0.030342862 0.708 1.2896514e-39
-0.026076194 0.031714275 0.74000001 9.2231643e-40
-0.024666656 0.031714275 0.74000001 9.2196471e-40
-0.023320016 0.031799987 0.74200004 8.2907403e-40
-0.021906666 0.031800009 0.74200004 9.2021168e-40
-0.02043806 0.031714275 0.74000001 9.2127947e-40
-0.019002859 0.031671442 0.73900002 1.1049407e-39
-0.017595202 0.031671435 0.73900002 1.2897131e-39
-0.01618761 0.031671427 0.73900002 1.6581551e-39
-0.014779995 0.031671442 0.73900002 1.9354608e-39
-0.013336168 0.031585708 0.73700011 1.7514381e-39
-0.011932361 0.031585716 0.73700011 1.4791588e-39
-0.010514273 0.031542845 0.73600006 2.3996648e-39
-0.0091247289 0.031585708 0.73700011 3.2261828e-39
-0.0077104666 0.031542853 0.73600006 1.8475728e-39
-0.0063085672 0.03154286 0.73600006 3.7676432e-40
-0.0049066436 0.031542853 0.73600006 1.2011272e-39
-0.0034952112 0.031457134 0.73400009 1.9383349e-39
-0.0020970986 0.031457126 0.73400009 2.1238122e-39
-0.00069904566 0.031457134 0.73400003 2.2134826e-39
0.00069907069 0.031457126 0.73400009 1.2929627e-39
0.0020914371 0.031371422 0.73200005 2.7988555e-40
0.0034857444 0.031371415 0.73200005 3.6775817e-40
0.0048933546 0.031457126 0.73400009 3.8652576e-40
0.0062914672 0.031457119 0.73400009 7.3212954e-39
0.0076895426 0.031457119 0.73400003 1.4094441e-38
0.0090876361 0.031457141 0.73400009 7.0718124e-39
0.010514303 0.031542853 0.73600012 9.2331556e-41
0.011916188 0.031542853 0.73600006 4.8677928e-39
0.013336212 0.031585708 0.73700011 9.5999342e-39
0.014740017 0.031585708 0.73700011 1.4050469e-38
0.016143827 0.031585716 0.73700005 1.8335784e-38
0.017547652 0.031585701 0.73700011 9.2009201e-39
0.018951461 0.031585708 0.73700011 9.7334191e-41
0.020355266 0.031585716 0.73700005 6.4616254e-40
0.021759052 0.031585708 0.73700005 1.104673e-39
0.023225728 0.031671435 0.73900002 5.4191981e-39
0.02466666 0.031714283 0.74000001 9.6806182e-39
0.026076194 0.031714283 0.74000001 1.0812099e-38
0.027597146 0.031842843 0.74300003 1.1806497e-38
0.029168632 0.032014281 0.7470001 1.4196364e-38
0.030632371 0.032057144 0.74800003 1.6512029e-38
0.03205714 0.032057144 0.74799997 1.8175161e-38
0.033571467 0.032142855 0.75000012 1.982531e-38
0.035000045 0.032142855 0.75000006 1.9174191e-38
0.036574308 0.032271415 0.75300008 1.8444888e-38
0.038109515 0.032357141 0.75500005 1.8258347e-38
0.039547633 0.032357141 0.75500005 1.7983209e-38
0.041039996 0.032399997 0.75600004 1.7888515e-38
-0.040120006 0.031960003 0.71400005 1.5692595e-39
-0.038760006 0.031959996 0.71400005 1.0163884e-39
-0.037399989 0.031960003 0.71400005 1.1067245e-39
-0.035989512 0.031915233 0.71300006 1.1978341e-39
-0.034631379 0.031915225 0.71300006 1.2914535e-39
-0.033273306 0.031915218 0.71300006 1.4776286e-39
-0.031825725 0.031825721 0.71100003 1.8456796e-39
-0.030428533 0.031780943 0.71000004 2.2116231e-39
-0.029076131 0.031780928 0.71000004 1.8436001e-39
-0.027645726 0.031691417 0.708 1.566988e-39
-0.026297132 0.031691417 0.708 1.2907332e-39
-0.026181897 0.033258088 0.74300003 1.0145149e-39
-0.024733339 0.03321334 0.74200004 9.2160878e-40
-0.023320012 0.033213332 0.74200004 8.2835377e-40
-0.021906665 0.033213332 0.74200004 8.2836918e-40
-0.02049334 0.03321334 0.74200004 8.2906983e-40
-0.019002866 0.033079058 0.73900002 1.1045595e-39
-0.017595211 0.03307905 0.73900002 1.4719309e-39
-0.016187619 0.033079043 0.73900002 1.8432484e-39
-0.014780004 0.03307905 0.73900002 2.2134756e-39
-0.013336196 0.032989524 0.73700005 2.1230891e-39
-0.011932352 0.032989517 0.73700011 2.1245198e-39
-0.010528543 0.032989517 0.73700011 2.8599156e-39
-0.0091247587 0.032989524 0.73700011 3.5967478e-39
-0.0077104461 0.032944761 0.73600006 3.139001e-39
-0.0063171261 0.032989517 0.73700011 2.674074e-39
-0.0049133175 0.032989509 0.73700011 2.765541e-39
-0.0035047387 0.032944746 0.73600006 2.9492274e-39
-0.0020970986 0.03285522 0.73400009 2.5826169e-39
-0.00069904566 0.032855213 0.73400003 2.3056601e-39
0.00069906883 0.032855213 0.73400009 1.6610011e-39
0.0020971834 0.032855228 0.73400009 9.237906e-40
0.003485722 0.032765716 0.73200005 6.4539884e-40
0.0048933527 0.032855213 0.73400009 3.7180792e-40
0.0062914672 0.03285522 0.73400009 7.3026385e-39
0.0076895426 0.032855228 0.73400003 1.4286354e-38
0.0090876585 0.03285522 0.73400003 7.1765483e-39
0.010514307 0.032944761 0.73600006 9.2316142e-41
0.011916204 0.032944761 0.73600006 5.2498274e-39
0.013336184 0.032989517 0.73700005 1.0436131e-38
0.01474003 0.032989502 0.73700011 1.4310909e-38
0.016143836 0.032989532 0.73700011 1.8155329e-38
0.017547622 0.032989524 0.73700011 9.1158739e-39
0.018951431 0.032989524 0.73700005 9.2300727e-41
0.020410515 0.03307905 0.73900002 4.6069929e-40
0.021818105 0.033079058 0.73900002 8.2809593e-40
0.023257166 0.033123799 0.74000001 5.4385781e-39
0.024733335 0.03321334 0.74200004 1.0056926e-38
0.02614668 0.033213332 0.74200004 9.864313e-39
0.027560007 0.033213332 0.74200004 9.7541906e-39
0.029168593 0.033437133 0.74700004 1.3923744e-38
0.03063238 0.033481911 0.74799997 1.808364e-38
0.032057133 0.033481911 0.74799997 1.8448148e-38
0.033571459 0.03357143 0.75000006 1.8901208e-38
0.035000019 0.03357143 0.75000006 1.8257623e-38
0.036525715 0.033660971 0.75199997 1.7707699e-38
0.038159985 0.033839993 0.75600004 1.7429692e-38
0.039704803 0.033929504 0.75800008 1.7152035e-38
0.041148592 0.033929504 0.75800002 1.6691422e-38
-0.041596182 0.033413336 0.71600008 1.7536381e-39
-0.040120017 0.033320002 0.71399999 1.7550745e-39
-0.038760021 0.03332001 0.71399999 1.7535863e-39
-0.03740003 0.033319995 0.71400005 1.569146e-39
-0.035989482 0.033273309 0.71300012 1.2918276e-39
-0.034631409 0.033273324 0.71300006 1.3836463e-39
-0.033179976 0.033180013 0.71100003 1.3857945e-39
-0.031825714 0.033180006 0.71100003 1.5712549e-39
-0.030428549 0.033133328 0.71000004 1.6616821e-39
-0.028994318 0.033040002 0.708 1.5687985e-39
-0.027645724 0.033039995 0.708 1.475863e-39
-0.026297156 0.033039987 0.708 1.2918108e-39
-0.026252393 0.034766667 0.74500006 1.0141589e-39
-0.024766631 0.034673333 0.74300003 9.2161298e-40
-0.023351422 0.034673326 0.74300003 7.3723714e-40
-0.021936174 0.034673318 0.74300009 7.3581622e-40
-0.020493314 0.03462667 0.74200004 6.4505131e-40
-0.019028556 0.034533329 0.74000001 1.1045833e-39
-0.01759522 0.034486666 0.73900002 1.5670132e-39
-0.016187605 0.034486666 0.73900002 2.0298018e-39
-0.014779972 0.034486651 0.73900002 2.4904311e-39
-0.013336186 0.03439334 0.73700011 2.5858707e-39
-0.011932378 0.034393333 0.73700005 2.6762671e-39
-0.010528532 0.034393325 0.73700011 3.3187526e-39
-0.0091247475 0.034393318 0.73700011 3.9669905e-39
-0.0077209384 0.034393348 0.73700011 4.5294927e-39
-0.0063171298 0.03439334 0.73700005 4.9803941e-39
-0.0049133063 0.034393325 0.73700011 4.4207463e-39
-0.0035047592 0.03434667 0.73600006 3.8700963e-39
-0.0020971005 0.034253322 0.73400009 3.1357767e-39
-0.00069902517 0.034253329 0.73400003 2.3996522e-39
0.0006990651 0.034253322 0.73400009 2.0297934e-39
0.0020971815 0.034253314 0.73400009 1.5670104e-39
0.0034952569 0.034253314 0.73400003 1.0105982e-39
0.004893349 0.034253322 0.73400009 3.8615862e-40
0.0062914654 0.034253314 0.73400009 7.4145574e-39
0.0076895407 0.034253314 0.73400003 1.4369956e-38
0.0091124019 0.034346662 0.73600006 7.2555101e-39
0.010514324 0.034346662 0.73600006 9.2342766e-41
0.011932408 0.034393318 0.73700011 5.6024753e-39
0.013336214 0.03439334 0.73700005 1.1165441e-38
0.01474 0.034393333 0.73700005 1.4601482e-38
0.016143845 0.034393325 0.73700011 1.7873364e-38
0.017595258 0.034486659 0.73900002 9.0154288e-39
0.019002888 0.034486674 0.73900002 9.6246784e-41
0.020438133 0.034533314 0.74000001 2.759535e-40
0.021847636 0.034533344 0.74000001 4.6756846e-40
0.023257148 0.034533329 0.74000001 5.4496974e-39
0.024733357 0.03462667 0.74200004 1.0321997e-38
0.026146684 0.034626663 0.74200004 9.0180016e-39
0.027597159 0.034673326 0.74300003 7.6624135e-39
0.029207621 0.03490667 0.74799997 1.366084e-38
0.030632371 0.034906685 0.74799997 1.9549445e-38
0.032057155 0.034906678 0.74800003 1.8723655e-38
0.033571467 0.034999989 0.75000006 1.7891382e-38
0.035000023 0.035000004 0.75000006 1.7430398e-38
0.036671411 0.035233334 0.75500005 1.6877588e-38
0.038159981 0.035279997 0.75600004 1.6600643e-38
0.039704803 0.035373315 0.75800002 1.6231873e-38
0.041148629 0.035373308 0.75800008 1.5495044e-38
0.042873345 0.035606652 0.76300001 1.4759287e-38
-0.041480012 0.034680009 0.71400005 2.213889e-39
-0.040119994 0.034680001 0.71400005 1.9387371e-39
-0.038759999 0.034680001 0.71400005 1.7550254e-39
-0.037400007 0.034679994 0.71400005 1.4769658e-39
-0.035989486 0.034631416 0.71300006 1.1999991e-39
-0.034631416 0.034631416 0.71300006 1.2925269e-39
-0.033180024 0.03453429 0.71099997 1.3861546e-39
-0.031825699 0.034534298 0.71100003 1.5705417e-39
-0.030428529 0.034485705 0.71000004 1.8464251e-39
-0.029076152 0.034485698 0.71000004 1.7524555e-39
-0.02916855 0.036282845 0.74700004 1.6595283e-39
-0.027745664 0.036282845 0.74700004 1.3829288e-39
-0.026322838 0.036282845 0.74700004 1.1963964e-39
-0.024899974 0.036282845 0.74700004 1.2889578e-39
-0.02341428 0.036185712 0.74500006 1.2893291e-39
-0.021995261 0.036185704 0.74500006 9.2056341e-40
-0.020520948 0.036088564 0.74300003 4.6175167e-40
-0.019105677 0.036088556 0.74300003 1.0142052e-39
-0.017666638 0.036039986 0.74200004 1.4773483e-39
-0.016253352 0.036039993 0.74200004 2.212768e-39
-0.014799979 0.035942852 0.74000001 3.0400231e-39
-0.013372365 0.03589429 0.73900002 2.858164e-39
-0.011964771 0.035894282 0.73900002 2.6752077e-39
-0.010557116 0.03589429 0.73900002 3.0421867e-39
-0.0091247363 0.035797134 0.73700011 3.504974e-39
-0.0077209291 0.035797141 0.73700011 4.9829739e-39
-0.0063171205 0.035797134 0.73700011 6.3683578e-39
-0.0049133361 0.035797149 0.73700011 5.5328294e-39
-0.0035094903 0.035797134 0.73700011 4.6065781e-39
-0.0021028561 0.035748571 0.73600006 3.7804118e-39
-0.00070095673 0.035748564 0.73600006 2.9535392e-39
0.0006990651 0.035651401 0.73400009 2.3063901e-39
0.0020971815 0.035651416 0.73400009 1.7532037e-39
0.0034952569 0.035651423 0.73400003 1.0131178e-39
0.0048933732 0.035651416 0.73400003 3.6965833e-40
0.006308598 0.035748564 0.73600006 7.3033434e-39
0.0077104955 0.035748549 0.73600012 1.4197422e-38
0.0091123814 0.035748571 0.73600006 7.0894562e-39
0.010514303 0.035748564 0.73600006 9.2369391e-41
0.011916225 0.035748556 0.73600006 5.342407e-39
0.013336227 0.035797134 0.73700011 1.071488e-38
0.014740014 0.035797127 0.73700011 1.4402027e-38
0.016143823 0.035797141 0.73700005 1.8057394e-38
0.017595248 0.035894297 0.73900002 9.115155e-39
0.019002879 0.035894282 0.73900002 9.2300727e-41
0.020410497 0.035894297 0.73900002 1.8411941e-40
0.021818088 0.03589429 0.73900002 3.6784085e-40
0.023257168 0.035942845 0.74000007 5.2635125e-39
0.024666671 0.035942845 0.74000001 1.0242327e-38
0.026146691 0.036039993 0.74200004 1.0602102e-38
0.027597152 0.036088556 0.74300003 1.0890281e-38
0.029012423 0.036088564 0.74300003 1.5132406e-38
0.030632395 0.036331423 0.74800003 1.9463732e-38
0.032142881 0.036428571 0.75000006 1.8537115e-38
0.033571441 0.036428571 0.75000006 1.7611937e-38
0.035000056 0.036428563 0.75000012 1.724351e-38
0.036671437 0.036671422 0.75500005 1.6965474e-38
0.038109533 0.03667143 0.75500005 1.7059084e-38
0.039600015 0.036719985 0.75600004 1.7240616e-38
0.041148607 0.036817119 0.75800002 1.669141e-38
0.042760964 0.036962844 0.76100004 1.6138599e-38
-0.04147999 0.036040001 0.71400005 2.6720029e-39
-0.040119972 0.036040001 0.71400005 2.214968e-39
-0.038705695 0.035989523 0.71300006 1.6613865e-39
-0.037347585 0.035989501 0.71300012 1.3836701e-39
-0.035989493 0.035989508 0.71300006 1.1081482e-39
-0.034534279 0.035888582 0.71100003 1.1999697e-39
-0.033180013 0.035888575 0.71099997 1.2932415e-39
-0.031825691 0.035888582 0.71100003 1.6623786e-39
-0.030342875 0.035737142 0.708 2.0290241e-39
-0.030632388 0.037756205 0.74799997 1.9346999e-39
-0.029207602 0.037756197 0.74800003 1.7510121e-39
-0.027782854 0.03775619 0.74800003 1.5680418e-39
-0.02632284 0.037705719 0.74700004 1.3818639e-39
-0.024899952 0.037705708 0.74700004 1.6562984e-39
-0.023414304 0.037604757 0.74500006 1.8392617e-39
-0.021995224 0.037604749 0.74500006 1.1035113e-39
-0.020520952 0.037503798 0.74300003 2.7771634e-40
-0.01910568 0.03750379 0.74300003 8.2945519e-40
-0.017666673 0.037453331 0.74200004 1.3833562e-39
-0.016253326 0.037453339 0.74200004 2.4868353e-39
-0.014799958 0.037352361 0.74000001 3.4981132e-39
-0.013372371 0.037301905 0.73900002 3.0393057e-39
-0.011964756 0.03730192 0.73900002 2.5801296e-39
-0.010557125 0.037301905 0.73900002 2.8534851e-39
-0.0091495095 0.037301905 0.73900002 3.0436301e-39
-0.0077209589 0.037200943 0.73700005 5.436392e-39
-0.0063171112 0.037200935 0.73700011 7.7419372e-39
-0.0049133045 0.03720095 0.73700005 6.5516364e-39
-0.0035095182 0.03720095 0.73700011 5.3491682e-39
-0.0021028374 0.037150465 0.73600006 4.4250777e-39
-0.00070091389 0.037150472 0.73600006 3.4109384e-39
0.00070094824 0.03715048 0.73600006 2.6726657e-39
0.0021028719 0.037150472 0.73600006 1.8432582e-39
0.003495255 0.03704951 0.73400003 1.1024576e-39
0.0049066949 0.037150465 0.73600012 2.9325533e-40
0.0063085794 0.037150472 0.73600006 7.1394013e-39
0.0077105011 0.03715048 0.73600006 1.3916532e-38
0.0091124 0.037150465 0.73600012 6.9961816e-39
0.010514284 0.037150465 0.73600006 9.6311243e-41
0.011932389 0.03720095 0.73700011 5.1433077e-39
0.013336197 0.037200958 0.73700005 1.015382e-38
0.014740045 0.03720095 0.73700011 1.423414e-38
0.016143832 0.037200943 0.73700011 1.8241431e-38
0.017595239 0.037301913 0.73900002 9.2034158e-39
0.01902858 0.037352376 0.74000001 9.733279e-41
0.02043812 0.037352383 0.74000001 1.8412501e-40
0.021818105 0.037301913 0.73900002 1.9278364e-40
0.023319982 0.037453331 0.74200004 5.1777768e-39
0.024733331 0.037453331 0.74200004 1.0148017e-38
0.026146676 0.037453324 0.74200004 1.216589e-38
0.027597146 0.037503794 0.74300003 1.4112809e-38
0.029207636 0.037756179 0.74800003 1.6698273e-38
0.030714298 0.037857153 0.75000006 1.927252e-38
0.032142892 0.037857141 0.75000012 1.8256575e-38
0.033705723 0.038008563 0.75300002 1.724459e-38
0.035233337 0.038109519 0.75500005 1.7150244e-38
0.036671441 0.038109515 0.75500005 1.6968002e-38
0.038109537 0.038109507 0.75500005 1.7612997e-38
0.039600033 0.038159993 0.75600004 1.8164016e-38
0.041148603 0.038260944 0.75800002 1.779955e-38
0.042760976 0.038412385 0.76100004 1.74279e-38
-0.042779978 0.037347622 0.71300006 1.7511663e-39
-0.041421868 0.037347615 0.71300006 1.9348204e-39
-0.040120009 0.0374 0.71400005 1.7550787e-39
-0.038705666 0.0373476 0.71300012 1.5673888e-39
-0.037347592 0.037347607 0.71300006 1.199255e-39
-0.03588859 0.03724286 0.71099997 8.3226899e-40
-0.034485668 0.037190467 0.71000004 1.015577e-39
-0.033133291 0.03719046 0.7100001 1.1999697e-39
-0.031780928 0.037190475 0.71000004 1.8446146e-39
-0.030342871 0.037085705 0.708 2.4889233e-39
-0.030632401 0.039180961 0.74799997 2.0269012e-39
-0.029207613 0.039180949 0.74800003 1.5662719e-39
-0.027782843 0.039180949 0.74800003 1.3825841e-39
-0.026322821 0.039128572 0.74700004 1.2903899e-39
-0.024899956 0.039128557 0.74700004 1.2885962e-39
-0.023414265 0.039023798 0.74500006 1.2868096e-39
-0.021995248 0.039023805 0.74500006 8.2799784e-40
-0.020520937 0.038919047 0.74300003 3.6883016e-40
-0.019105688 0.038919039 0.74300009 9.2128788e-40
-0.017690456 0.038919043 0.74300003 1.3826346e-39
-0.016275246 0.038919035 0.74300003 2.3024413e-39
-0.014839997 0.038866669 0.74200004 3.1300411e-39
-0.013390458 0.038761895 0.74000001 2.8556151e-39
-0.011964726 0.038709529 0.73900002 2.4872039e-39
-0.010571417 0.038761891 0.74000001 2.58084e-39
-0.0091495169 0.038709525 0.73900002 2.7666746e-39
-0.0077418634 0.038709518 0.73900002 4.3343465e-39
-0.0063342699 0.03870951 0.73900002 5.9070153e-39
-0.0049132933 0.038604748 0.73700011 5.3541933e-39
-0.0035095089 0.038604755 0.73700011 4.7113574e-39
-0.0021028579 0.03855237 0.73600006 4.0577582e-39
-0.00070093438 0.038552377 0.73600006 3.4088028e-39
0.00070096686 0.038552381 0.73600012 2.4893619e-39
0.0021028514 0.038552381 0.73600006 1.5688405e-39
0.003504775 0.038552377 0.73600006 9.2059564e-40
0.0049066744 0.03855237 0.73600006 1.8420769e-40
0.0063085961 0.038552362 0.73600006 7.1189521e-39
0.0077104825 0.038552381 0.73600006 1.410881e-38
0.0091123795 0.038552366 0.73600006 7.0973399e-39
0.010514303 0.03855237 0.73600006 9.2362384e-41
0.01191623 0.038552377 0.73600006 4.5137281e-39
0.013336207 0.038604751 0.73700011 8.9621094e-39
0.014740015 0.03860477 0.73700005 1.3758461e-38
0.016143842 0.038604755 0.73700011 1.8521248e-38
0.017619086 0.038761888 0.74000001 9.3038735e-39
0.019028604 0.038761895 0.74000001 1.8415444e-40
0.020438138 0.038761888 0.74000001 1.8413062e-40
0.021847619 0.038761899 0.74000001 1.8417686e-40
0.023320012 0.038866673 0.74200004 6.2790867e-39
0.024766684 0.038919043 0.74300003 1.2454703e-38
0.026181933 0.038919043 0.74300003 1.3836219e-38
0.027671417 0.039023802 0.74500006 1.5134874e-38
0.029207649 0.039180957 0.74800003 1.5777766e-38
0.030714322 0.039285712 0.75000006 1.6425973e-38
0.032228582 0.039390467 0.75200003 1.6971224e-38
0.033705723 0.039442848 0.75300002 1.7612287e-38
0.035233326 0.039547618 0.755 1.7244235e-38
0.0366714 0.039547611 0.75500005 1.6969813e-38
0.038109522 0.03954763 0.75500005 1.7062014e-38
0.039599989 0.039599985 0.75600004 1.7247118e-38
0.041148622 0.039704755 0.75800008 1.7062368e-38
0.042873342 0.039966669 0.76300001 1.6971968e-38
-0.045496151 0.038705703 0.71300006 9.2170406e-40
-0.044138081 0.038705707 0.71300006 1.1071953e-39
-0.042779945 0.038705707 0.71300006 1.1990575e-39
-0.041421875 0.038705695 0.71300006 1.203344e-39
-0.040119987 0.038759999 0.71400005 1.3941715e-39
-0.038705669 0.038705699 0.71300006 1.4794895e-39
-0.0373476 0.038705695 0.71300006 1.0137946e-39
-0.035888579 0.038597148 0.71099997 4.6456828e-40
-0.034534276 0.038597137 0.71100003 7.3863423e-40
-0.033133306 0.038542859 0.71000004 1.015577e-39
-0.031780906 0.038542848 0.71000004 2.0272038e-39
-0.030342873 0.038434274 0.708 2.9452127e-39
-0.030632373 0.040605709 0.74800003 2.1179884e-39
-0.0292076 0.040605724 0.74800003 1.2903927e-39
-0.027782854 0.040605716 0.74800003 1.1978411e-39
-0.026322823 0.040551424 0.74700004 1.1060028e-39
-0.02489996 0.040551413 0.7470001 9.2089552e-40
-0.023414288 0.040442858 0.74500006 7.368728e-40
-0.021995232 0.040442847 0.74500006 6.4396951e-40
-0.02052094 0.040334269 0.74300003 4.6101598e-40
-0.019105691 0.040334262 0.74300009 9.2091093e-40
-0.017690461 0.040334284 0.74300003 1.3819003e-39
-0.016275212 0.040334277 0.74300009 2.1180388e-39
-0.014839971 0.040279996 0.74200004 2.7637655e-39
-0.013390452 0.040171426 0.74000001 2.5826155e-39
-0.011980935 0.040171418 0.74000001 2.3982312e-39
-0.010571395 0.040171415 0.74000001 2.3993116e-39
-0.0091495244 0.040117141 0.73900002 2.3986054e-39
-0.0077418708 0.040117133 0.73900002 3.2272885e-39
-0.0063342792 0.040117141 0.73900002 4.0588274e-39
-0.0049133212 0.040008575 0.73700005 4.0624119e-39
-0.0035094772 0.040008567 0.73700011 4.059905e-39
-0.0021028374 0.039954286 0.73600012 3.7779455e-39
-0.00070095301 0.03995429 0.73600006 3.4095189e-39
0.00070097059 0.039954282 0.73600006 2.398604e-39
0.0021028719 0.039954279 0.73600006 1.2918921e-39
0.0035047936 0.039954271 0.73600006 7.3511837e-40
0.0049066781 0.039954275 0.73600006 1.0815362e-40
0.0063085775 0.039954282 0.73600006 7.2265817e-39
0.0077105011 0.039954282 0.73600006 1.4193838e-38
0.0091124242 0.039954279 0.73600006 7.1913376e-39
0.010514284 0.039954286 0.73600006 9.9175498e-41
0.011932396 0.04000856 0.73700005 3.9494294e-39
0.013336216 0.040008567 0.73700011 7.7599901e-39
0.014740025 0.040008571 0.73700011 1.3315785e-38
0.016209528 0.040171426 0.74000001 1.8705996e-38
0.017619068 0.040171418 0.74000001 9.4907759e-39
0.019080017 0.040279992 0.74200004 1.9205216e-40
0.020438125 0.040171422 0.74000001 1.8414043e-40
0.021847639 0.040171422 0.74000001 1.059816e-40
0.023320016 0.040279992 0.74200004 7.4829997e-39
0.024766678 0.040334273 0.74300003 1.4755264e-38
0.026181927 0.040334266 0.74300009 1.5496806e-38
0.027671456 0.040442858 0.74500006 1.6142197e-38
0.02928574 0.040714301 0.75000006 1.4851153e-38
0.030796193 0.04082286 0.75200003 1.3475755e-38
0.032271456 0.040877122 0.75300008 1.5681941e-38
0.033795234 0.040985711 0.75500005 1.7888151e-38
0.035233334 0.040985718 0.75500005 1.7428261e-38
0.03667143 0.040985722 0.75500005 1.6876538e-38
0.038160004 0.041039992 0.75600004 1.6601757e-38
0.039704829 0.041148562 0.75800008 1.6233334e-38
0.04131145 0.041311421 0.76100004 1.6322295e-38
0.0430981 0.041637149 0.76700002 1.6416643e-38
0.04444284 0.041528579 0.76500005 1.6597806e-38
-0.045496158 0.040063798 0.71300006 1.3830311e-39
-0.044138081 0.040063798 0.71300006 1.3837668e-39
-0.042779975 0.040063802 0.71300006 1.38522e-39
-0.041479994 0.040120017 0.71400005 1.479547e-39
-0.040120002 0.040120006 0.71400005 1.6660668e-39
-0.038705699 0.040063802 0.71300006 1.8500503e-39
-0.037347566 0.040063798 0.71300006 1.1110139e-39
-0.035888568 0.03995144 0.71099997 3.7488658e-40
-0.034534264 0.039951436 0.71100003 7.3970762e-40
-0.033133291 0.039895222 0.71000004 1.1059734e-39
-0.031825714 0.039951447 0.71099997 1.842451e-39
-0.030342896 0.039782852 0.708 2.5757001e-39
-0.030714251 0.042142857 0.75000006 1.9332103e-39
-0.029207613 0.042030491 0.74800003 1.3818568e-39
-0.027782865 0.042030483 0.74800003 1.1067259e-39
-0.026358092 0.042030491 0.74800003 9.2305071e-40
-0.024933342 0.042030483 0.74800003 8.3049355e-40
-0.023414273 0.041861892 0.74500006 8.2978589e-40
-0.021995256 0.041861907 0.74500006 5.5357035e-40
-0.020576175 0.041861899 0.74500006 3.6881335e-40
-0.019157156 0.041861899 0.74500006 7.3686159e-40
-0.017690465 0.041749507 0.74300003 1.1971377e-39
-0.016275233 0.041749507 0.74300003 2.026548e-39
-0.014859987 0.041749515 0.74300003 2.9481456e-39
-0.01342668 0.041693326 0.74200004 2.4896982e-39
-0.011980954 0.041580949 0.74000001 2.031241e-39
-0.010571414 0.041580953 0.74000001 2.1227191e-39
-0.0091495318 0.041524779 0.73900002 2.211696e-39
-0.0077418764 0.041524764 0.73900002 2.3971705e-39
-0.0063342606 0.041524768 0.73900002 2.6712518e-39
-0.0049266671 0.04152476 0.73900002 2.9525078e-39
-0.0035095052 0.041412383 0.73700005 3.3202058e-39
-0.0021057189 0.04141238 0.73700005 3.2280073e-39
-0.00070187316 0.04141238 0.73700011 3.1343712e-39
0.00070098921 0.041356184 0.73600006 2.3978865e-39
0.0021028514 0.04135618 0.73600006 1.6592285e-39
0.0035047731 0.041356176 0.73600006 8.2837619e-40
0.0049066967 0.041356176 0.73600006 9.236799e-41
0.0063085961 0.041356184 0.73600012 7.207936e-39
0.0077104806 0.041356187 0.73600006 1.4197076e-38
0.0091124037 0.04135618 0.73600006 7.4704412e-39
0.010528597 0.041412383 0.73700011 8.2704215e-40
0.011932404 0.041412376 0.73700005 2.8567165e-39
0.013372415 0.041524768 0.73900002 4.9966688e-39
0.014800034 0.041580953 0.74000001 1.2285506e-38
0.016209574 0.041580945 0.74000001 1.9536822e-38
0.017619051 0.041580949 0.74000001 1.078042e-38
0.01908002 0.04169333 0.74200004 1.9290401e-39
0.020493343 0.041693326 0.74200004 1.0131794e-39
0.021906693 0.04169333 0.74200004 1.0276002e-40
0.023351464 0.041749496 0.74300003 8.6829652e-39
0.024766676 0.041749515 0.74300003 1.7342094e-38
0.026181947 0.041749511 0.74300003 1.6882244e-38
0.027671434 0.041861899 0.74500006 1.6514925e-38
0.029207626 0.04203048 0.74800003 1.4662093e-38
0.030796185 0.042255241 0.75200003 1.2821064e-38
0.032271437 0.042311423 0.75300002 1.5496476e-38
0.033795241 0.042423796 0.75500005 1.8075408e-38
0.035280019 0.042479992 0.75600004 1.7336063e-38
0.036719996 0.042479996 0.75600004 1.6690353e-38
0.038160019 0.042479984 0.75600004 1.6323377e-38
0.039809562 0.042704739 0.76000011 1.6047863e-38
0.041311461 0.042760957 0.76100004 1.6047855e-38
0.042985715 0.042985722 0.76500005 1.614149e-38
0.044442829 0.042985719 0.76500005 1.6230461e-38
-0.045496162 0.04142189 0.71300006 1.8429289e-39
-0.044138052 0.041421894 0.71300006 1.5681553e-39
-0.042779982 0.041421894 0.71300006 1.66216e-39
-0.041421875 0.04142189 0.71300012 1.7546975e-39
-0.04011998 0.041480001 0.71400005 2.0326997e-39
-0.038705707 0.041421894 0.71300006 2.2195615e-39
-0.0373476 0.041421883 0.71300006 1.2972226e-39
-0.035989501 0.041421898 0.71300006 2.8306509e-40
-0.03453429 0.041305713 0.71099997 7.3899296e-40
-0.033133268 0.04124761 0.71000004 1.199255e-39
-0.031780928 0.04124761 0.71000004 1.6605919e-39
-0.030342856 0.041131422 0.708 2.1183345e-39
-0.030714279 0.043571435 0.75000006 1.7495576e-39
-0.029285684 0.043571435 0.75000012 1.3829611e-39
-0.027857102 0.043571435 0.75000006 1.1074826e-39
-0.026428547 0.043571435 0.75000006 7.3976788e-40
-0.024999991 0.043571435 0.75000006 8.3158936e-40
-0.023508545 0.043455232 0.74800003 8.3051317e-40
-0.022054229 0.043397132 0.74700004 5.5464795e-40
-0.0205762 0.043280941 0.74500006 1.8622416e-40
-0.019157119 0.043280941 0.74500006 5.5212561e-40
-0.017690469 0.043164749 0.74300003 9.2199553e-40
-0.016275199 0.043164741 0.74300003 2.0261907e-39
-0.01485999 0.043164745 0.74300003 3.1307432e-39
-0.013426677 0.043106664 0.74200004 2.3971508e-39
-0.011980907 0.042990465 0.74000001 1.5720649e-39
-0.010600005 0.043106664 0.74200004 1.7568107e-39
-0.0091618905 0.042990476 0.74000001 1.9376048e-39
-0.0077418857 0.04293238 0.73900002 1.6617326e-39
-0.0063342699 0.042932384 0.73900002 1.2940557e-39
-0.0049266764 0.042932399 0.73900002 1.9390818e-39
-0.003509494 0.042816184 0.73700011 2.4933219e-39
-0.0021057096 0.042816181 0.73700011 2.6798628e-39
-0.00070095487 0.042758096 0.73600006 2.7684655e-39
0.00070096873 0.042758089 0.73600006 2.3986096e-39
0.0021028682 0.042758085 0.73600012 1.9354566e-39
0.0035047918 0.042758077 0.73600012 1.0106165e-39
0.0049066762 0.042758092 0.73600006 1.0706201e-40
0.0063171699 0.042816177 0.73700011 7.2229719e-39
0.0077209766 0.042816192 0.73700011 1.4195619e-38
0.0091247847 0.042816188 0.73700005 7.8492486e-39
0.010528569 0.042816188 0.73700005 1.4806414e-39
0.011964752 0.042932391 0.73900002 1.8371892e-39
0.013372409 0.04293238 0.73900002 2.2387214e-39
0.014800017 0.042990468 0.74000001 1.1384713e-38
0.016209558 0.042990468 0.74000001 2.0365492e-38
0.01761907 0.042990472 0.74000001 1.2073307e-38
0.019080024 0.043106664 0.74200004 3.6846807e-39
0.020493347 0.043106657 0.74200004 1.9290177e-39
0.021906696 0.043106668 0.74200004 1.1893381e-40
0.023351459 0.043164745 0.74300003 9.9877408e-39
0.024766669 0.043164741 0.74300003 1.9824925e-38
0.02618194 0.043164749 0.74300003 1.835845e-38
0.027671449 0.043280937 0.74500006 1.6780728e-38
0.029207636 0.043455232 0.74800003 1.4460432e-38
0.030796178 0.043687616 0.75200003 1.2177832e-38
0.032271445 0.043745704 0.75300002 1.5223485e-38
0.033839989 0.043920003 0.75600004 1.8255852e-38
0.035280012 0.043919995 0.75600004 1.7333553e-38
0.036719993 0.043919999 0.75600004 1.6413406e-38
0.038260989 0.044036172 0.75800008 1.6137542e-38
0.039809544 0.044152368 0.76000005 1.5772702e-38
0.041311447 0.044210475 0.76100004 1.5863451e-38
0.042873349 0.04432667 0.76300001 1.586202e-38
0.04444284 0.044442847 0.76500005 1.5857721e-38
-0.045496151 0.042779978 0.71300012 1.6599782e-39
-0.044138059 0.042780001 0.71300006 1.5677979e-39
-0.04277999 0.04277999 0.71300006 1.7529165e-39
-0.041421875 0.042779982 0.71300006 2.0284132e-39
-0.040119994 0.042840008 0.71399999 2.494038e-39
-0.038705673 0.04277999 0.71300006 3.0554262e-39
-0.0373476 0.04277999 0.71300006 1.9426089e-39
-0.035989471 0.042779993 0.71300006 8.3373475e-40
-0.034534279 0.042660005 0.71099997 1.0152197e-39
-0.033133309 0.042599998 0.71000004 1.1074294e-39
-0.031691451 0.042479992 0.708 1.8435637e-39
-0.032228574 0.045120001 0.75200003 2.4878471e-39
-0.030796187 0.045120001 0.75200003 1.9353992e-39
-0.029363822 0.045119997 0.75200003 1.4766197e-39
-0.027931418 0.045120008 0.75200003 1.1997161e-39
-0.026428537 0.044999991 0.75000012 9.2275083e-40
-0.024999958 0.044999998 0.75000006 9.2236688e-40
-0.023508556 0.044879999 0.74800003 8.2980551e-40
-0.022083806 0.044879995 0.74800003 5.5429061e-40
-0.020631406 0.044819996 0.74700004 3.7097835e-40
-0.019157143 0.0447 0.74500006 6.4612471e-40
-0.017690454 0.044579994 0.74300003 1.0145541e-39
-0.016275242 0.04457999 0.74300003 1.7517604e-39
-0.014859997 0.044579983 0.74300003 2.5804505e-39
-0.013426651 0.044519998 0.74200004 2.2142029e-39
-0.011980926 0.044399995 0.74000001 1.8482903e-39
-0.010599979 0.044519994 0.74200004 1.9386852e-39
-0.0091618681 0.044399984 0.74000001 2.0279858e-39
-0.0077523519 0.044399977 0.74000007 1.7520967e-39
-0.0063342773 0.044340018 0.73900002 1.4755533e-39
-0.0049266466 0.044340003 0.73900002 1.8465204e-39
-0.0035190308 0.044340003 0.73900002 2.309288e-39
-0.002105678 0.044219997 0.73700011 2.6780677e-39
-0.00070189178 0.044219993 0.73700011 3.0443335e-39
0.00070191495 0.044220001 0.73700005 2.6748377e-39
0.0021057385 0.044220001 0.73700011 2.3053153e-39
0.0035095471 0.044220001 0.73700011 1.196444e-39
0.0049133557 0.044220001 0.73700005 9.2341365e-41
0.0063171401 0.044219997 0.73700005 6.926268e-39
0.0077209841 0.044219986 0.73700011 1.3829689e-38
0.0091247922 0.044220001 0.73700011 8.0192738e-39
0.010557151 0.04434 0.73900002 2.2963863e-39
0.011964784 0.04434 0.73900002 1.747855e-39
0.0133724 0.04434 0.73900002 1.204842e-39
0.014799998 0.044399999 0.74000001 1.0439797e-38
0.016209539 0.044399999 0.74000001 1.9640494e-38
0.017666703 0.044519991 0.74200004 1.2353491e-38
0.019080026 0.044519987 0.74200004 5.1432923e-39
0.020493336 0.044520006 0.74200004 4.4153864e-39
0.021906659 0.044519998 0.74200004 3.701265e-39
0.023351457 0.044579979 0.74300003 1.2192576e-38
0.024833351 0.0447 0.74500006 2.066261e-38
0.02625237 0.044700008 0.74500006 1.743115e-38
0.027782876 0.044880003 0.74800003 1.4207526e-38
0.029207626 0.044880006 0.74800003 1.3185083e-38
0.030714309 0.044999998 0.75000006 1.2174938e-38
0.032271426 0.045179985 0.75300002 1.4943319e-38
0.033839986 0.045359995 0.75600004 1.7798829e-38
0.035280004 0.045359984 0.75600004 1.8433786e-38
0.036719989 0.045359984 0.75600004 1.9165237e-38
0.038260989 0.045479983 0.75800002 1.9358947e-38
0.039809544 0.045599986 0.76000005 1.9633366e-38
0.04125718 0.045599982 0.76000011 1.8164703e-38
0.042873338 0.045779992 0.76300001 1.6778925e-38
-0.044138089 0.044138081 0.71300006 1.4763198e-39
-0.042779956 0.044138074 0.71300006 1.9362287e-39
-0.041421883 0.044138085 0.71300006 2.3053574e-39
-0.040063772 0.044138081 0.71300012 3.0436217e-39
